x,y,z,nx,ny,nz,curvature,density,label
22.7895450592041,21.50615882873535,-1.5995882749557495,-0.0,-0.0,-1.0,0.0580212910383392,1.0,0.0
22.74963760375977,21.730674743652344,-1.6114333868026731,-0.0,-0.0,-1.0,0.0376326285740407,1.0,0.0
23.00271224975586,21.20756721496582,-1.5577927827835083,-0.1886894976570148,-0.9819598167824202,-0.012296003357975,0.129805578057304,3.0,0.0
24.65865898132324,22.944969177246097,-1.342755913734436,0.6605150883961813,0.7458056065189791,0.0865668255502199,0.0573622470489904,5.0,0.0
23.116851806640625,20.79345703125,-1.5306822061538696,-0.0,-0.0,-1.0,0.0849649389075544,1.0,0.0
22.994770050048828,23.109893798828125,-1.7082754373550415,0.0316567741540507,0.4979116255171127,-0.8666497919142808,0.0273523902277731,5.0,0.0
22.972232818603516,22.703367233276367,-1.693110108375549,-0.0,-0.0,-1.0,0.0289757251060756,2.0,0.0
22.90082740783691,22.298986434936523,-1.6878691911697388,-0.0,-0.0,-1.0,0.0262048123312202,1.0,0.0
22.98572158813477,21.72610664367676,-1.6497896909713743,-0.0,-0.0,-1.0,0.0108468921728458,2.0,0.0
22.873615264892575,21.93297576904297,-1.67768394947052,-0.0,-0.0,-1.0,0.0171740029453101,2.0,0.0
23.082782745361328,21.42620849609375,-1.6214407682418823,-0.0982633268523989,-0.9484438542768882,-0.3013280170848701,0.04710551162006,3.0,0.0
24.30285263061523,20.64056396484375,-1.375750184059143,-0.0,-0.0,-1.0,0.1487445898729285,1.0,0.0
23.24468231201172,20.85249137878418,-1.572773575782776,-0.0,-0.0,-1.0,0.0666109987170036,1.0,0.0
23.059297561645508,21.08711624145508,-1.6137717962265017,-0.5678008757463664,0.0456875590182829,-0.8218970814235864,0.1143403211194953,3.0,0.0
24.674270629882812,22.857830047607425,-1.709352970123291,0.0651675353232094,0.7014401367239167,-0.7097428597264157,0.2361207216045867,3.0,0.0
24.66375732421875,23.13048934936523,-1.733856439590454,-0.0,-0.0,-1.0,0.2503874889751379,1.0,0.0
24.590015411376953,22.539262771606445,-1.70001482963562,-0.0,-0.0,-1.0,0.1052880038248471,1.0,0.0
24.505788803100582,22.243568420410156,-1.6935362815856934,-0.955441173817641,-0.0832048418314809,0.2832121425182304,0.0997893451651678,4.0,0.0
24.23696517944336,22.180618286132812,-1.7410540580749512,-0.0,-0.0,-1.0,0.0305026899215282,1.0,0.0
24.20037078857422,21.86358642578125,-1.7257516384124756,-0.0,-0.0,-1.0,0.0301072733163634,1.0,0.0
24.236656188964844,21.315908432006836,-1.682154655456543,-0.1941139583968159,-0.7831380922726567,-0.5907744913137862,0.0255168547934764,3.0,0.0
24.23182678222656,21.51968002319336,-1.6962897777557373,-0.0,-0.0,-1.0,0.0253178511081274,2.0,0.0
24.292070388793945,21.14352798461914,-1.6602332592010498,-0.0,-0.0,-1.0,0.0156191418038315,1.0,0.0
24.40104866027832,20.83913230895996,-1.6199612617492676,-0.2799023562278657,0.3063823619598202,-0.9098266424204178,0.0706075360564635,3.0,0.0
25.050758361816406,22.77716064453125,-1.806185245513916,0.0677712663932553,0.8909608239585256,-0.4489942823941075,0.0404785951389122,3.0,0.0
24.976226806640625,22.466800689697266,-1.7918553352355957,-0.0,-0.0,-1.0,0.0188592694977185,2.0,0.0
23.022441864013672,23.04962158203125,-1.7036511898040771,-0.0,-0.0,-1.0,0.0267942511510923,2.0,0.0
25.033720016479492,22.033870697021484,-1.7393200397491455,-0.0,-0.0,-1.0,0.0354547982422952,2.0,0.0
24.923797607421875,21.95129776000977,-1.755836009979248,-0.8342917795058896,-0.3700076405431881,-0.4087194301578516,0.0220340228434645,4.0,0.0
22.9989070892334,22.6617431640625,-1.681910753250122,-0.0,-0.0,-1.0,0.0293286854776494,1.0,0.0
24.910289764404297,21.574764251708984,-1.7265169620513916,-0.0,-0.0,-1.0,0.0226138947670291,2.0,0.0
24.86516761779785,21.825048446655273,-1.7576425075531006,-0.0,-0.0,-1.0,0.010498662646978,1.0,0.0
22.918210983276367,22.252384185791016,-1.6713454723358154,-0.0,-0.0,-1.0,0.0270485854578703,2.0,0.0
24.812969207763672,21.27858543395996,-1.7242839336395264,0.236918249382504,0.969488264911228,0.0629463843993182,0.0292073937051627,3.0,0.0
22.94862365722656,21.76581382751465,-1.636821746826172,-0.0,-0.0,-1.0,0.01130951255196,1.0,0.0
22.846221923828125,22.025157928466797,-1.6715095043182373,0.6521351766275897,-0.534237075054355,-0.537875876984895,0.0217242909319222,3.0,0.0
24.85924911499023,20.80601501464844,-1.6782009601593018,-0.0,-0.0,-1.0,0.1174742585803052,1.0,0.0
23.12626075744629,21.304235458374023,-1.5770697593688965,-0.0,-0.0,-1.0,0.0720778778673033,2.0,0.0
23.063556671142575,21.41998291015625,-1.5955758094787598,-0.0,-0.0,-1.0,0.049890072536966,2.0,0.0
23.08874130249023,20.98768615722656,-1.5684711933135986,-0.0,-0.0,-1.0,0.0712369881537499,1.0,0.0
23.021984100341797,21.10096549987793,-1.5872242450714111,-0.6257797469211797,-0.3755699224840865,-0.6836277800591207,0.1574668812997988,3.0,0.0
23.18840789794922,20.80692481994629,-1.5400991439819336,-0.0,-0.0,-1.0,0.068625577538361,1.0,0.0
23.608253479003903,23.11548614501953,-1.8124175071716309,-0.0,-0.0,-1.0,0.0229559674931867,1.0,0.0
24.758697509765625,22.987499237060547,-1.5741403102874756,-0.6611665435389087,0.7502388714426047,-0.0006614237211297,0.2214277461638206,5.0,0.0
23.553680419921875,22.917011260986328,-1.8032033443450928,-0.0,-0.0,-1.0,0.0233525370578666,1.0,0.0
23.48242950439453,22.651243209838867,-1.791558027267456,-0.0,-0.0,-1.0,0.0377638367112382,1.0,0.0
25.160701751708984,21.713376998901367,-1.8002252578735352,-0.0,-0.0,-1.0,0.0375917981594286,1.0,0.0
23.546958923339844,22.386051177978516,-1.753286361694336,-0.0,-0.0,-1.0,0.0150979132239403,1.0,0.0
23.43771171569824,22.205921173095703,-1.7592315673828125,-0.0,-0.0,-1.0,0.0274509185458838,2.0,0.0
25.07668113708496,21.30912208557129,-1.7742750644683838,-0.0720569763625715,0.3929416968007464,-0.9167358480352092,0.0266863549521744,3.0,0.0
23.39902114868164,21.808576583862305,-1.732506275177002,-0.0,-0.0,-1.0,0.0074147946615901,1.0,0.0
25.036331176757812,20.890830993652344,-1.7397940158843994,-0.0,-0.0,-1.0,0.0573842195523474,2.0,0.0
23.410024642944336,21.37274932861328,-1.6945278644561768,-0.0,-0.0,-1.0,0.010615848566603,1.0,0.0
23.551027297973633,20.795682907104492,-1.6208887100219729,-0.0,-0.0,-1.0,0.013279242021975,1.0,0.0
23.41060256958008,21.039024353027344,-1.6688058376312256,-0.0,-0.0,-1.0,0.0084778215882684,1.0,0.0
24.760005950927734,23.09825134277344,-1.8113033771514893,-0.0,-0.0,-1.0,0.2274893476821163,1.0,0.0
24.790027618408203,22.84906578063965,-1.7703115940093994,-0.0,-0.0,-1.0,0.1032211820314489,1.0,0.0
24.64661026000977,22.564706802368164,-1.76505708694458,-0.0,-0.0,-1.0,0.0765929968008914,1.0,0.0
23.0042724609375,23.071292877197266,-1.7153606414794922,-0.8603590617362732,-0.3809715709106437,-0.3385896440326493,0.0273523902277731,4.0,0.0
24.546897888183594,22.18622589111328,-1.7400662899017334,0.3356143319976995,0.6401702642879727,-0.6910463464046427,0.0301660616411227,3.0,0.0
24.375553131103516,22.05696678161621,-1.764611005783081,0.1382169175333777,-0.7148649690594251,-0.6854663811736056,0.0234089663158882,3.0,0.0
22.97671127319336,22.757003784179688,-1.6898822784423828,-0.0,-0.0,-1.0,0.0317157930437728,1.0,0.0
22.90172576904297,22.65264892578125,-1.6956253051757812,-0.2310157716791628,-0.123835132776779,-0.9650370838085128,0.0259802510026236,5.0,0.0
24.346343994140625,21.716655731201172,-1.731811761856079,-0.0,-0.0,-1.0,0.0107327967595125,1.0,0.0
24.350849151611328,21.929658889770508,-1.755413055419922,-0.0,-0.0,-1.0,0.0195733699526635,2.0,0.0
22.797922134399418,22.209510803222656,-1.6767256259918213,-0.0,-0.0,-1.0,0.0185583458268801,1.0,0.0
22.828853607177734,22.38232421875,-1.685699224472046,-0.0,-0.0,-1.0,0.0212297888777606,2.0,0.0
24.29292869567871,21.42325210571289,-1.7122588157653809,-0.231153147667485,0.25914560245267,-0.9377695767366612,0.0188540117270918,3.0,0.0
22.804607391357425,21.89758682250977,-1.648343563079834,-0.0,-0.0,-1.0,0.0144465972863023,2.0,0.0
24.347843170166016,20.96060562133789,-1.6502642631530762,-0.183659418589162,-0.1604813077709907,-0.969801509495424,0.0604700984446509,3.0,0.0
23.03998565673828,21.200193405151367,-1.5409023761749268,0.1220408363427421,-0.7822913931579342,-0.610840576955872,0.1009910410507121,3.0,0.0
22.84229278564453,21.514890670776367,-1.6087419986724854,-0.0,-0.0,-1.0,0.0580212910383393,1.0,0.0
22.96867561340332,20.950031280517575,-1.5381593704223633,-0.0,-0.0,-1.0,0.0996052519135535,2.0,0.0
24.676921844482425,22.942371368408203,-1.365626573562622,0.8619987531522932,0.2550131485796304,0.4380941036071998,0.0910511321778393,4.0,0.0
24.66354751586914,22.96343040466309,-1.7152011394500732,0.0670273634792189,0.9905605683940484,0.1195704515667815,0.1813874578207763,3.0,0.0
24.53065490722656,22.662429809570312,-1.7095859050750732,-0.1267168534401205,0.5649547489047904,-0.8153336560845265,0.0847971886319148,4.0,0.0
22.957988739013672,23.11929702758789,-1.7024483680725098,-0.0,-0.0,-1.0,0.029593772654541,2.0,0.0
24.460771560668945,22.43181610107422,-1.6986212730407717,-0.0,-0.0,-1.0,0.0470962747228263,2.0,0.0
24.198345184326172,22.322904586791992,-1.753359317779541,-0.0,-0.0,-1.0,0.0237215570898773,2.0,0.0
22.895551681518555,22.716766357421875,-1.67972731590271,-0.0,-0.0,-1.0,0.0282281111074738,2.0,0.0
24.068349838256836,21.966251373291016,-1.74705171585083,-0.0,-0.0,-1.0,0.01406320660255,1.0,0.0
22.78496742248535,22.35679626464844,-1.6745944023132324,-0.0,-0.0,-1.0,0.0196599238100887,2.0,0.0
24.101818084716797,21.371030807495117,-1.6758537292480469,-0.0,-0.0,-1.0,0.0333910293804927,2.0,0.0
24.054866790771484,21.593544006347656,-1.7110371589660645,-0.0,-0.0,-1.0,0.0260557339972037,2.0,0.0
22.731754302978516,22.09326934814453,-1.665675401687622,-0.0,-0.0,-1.0,0.0167200061010389,1.0,0.0
24.01989364624023,21.14527130126953,-1.6765727996826172,-0.0,-0.0,-1.0,0.0356578619882115,1.0,0.0
23.951391220092773,20.92720413208008,-1.6753196716308594,-0.0,-0.0,-1.0,0.0230728334365864,1.0,0.0
24.656532287597656,22.952800750732425,-1.3048903942108154,0.7962788694468734,0.4361915190613565,0.4191383074491704,0.070663297839672,4.0,0.0
22.793685913085938,21.837512969970703,-1.6309483051300049,-0.0,-0.0,-1.0,0.0115042480209492,1.0,0.0
24.206918716430664,20.993986129760746,-1.6109697818756104,-0.0,-0.0,-1.0,0.0460793607912858,1.0,0.0
22.89620590209961,21.369081497192383,-1.5717973709106443,-0.0,-0.0,-1.0,0.0890205825119501,1.0,0.0
22.780406951904297,21.60828018188477,-1.6170637607574463,-0.0,-0.0,-1.0,0.04802526299207,2.0,0.0
24.000892639160156,20.695568084716797,-1.6415791511535645,-0.0,-0.0,-1.0,0.0764172672469586,1.0,0.0
22.94774627685547,21.040586471557617,-1.5370278358459473,-0.0,-0.0,-1.0,0.1123451549683502,1.0,0.0
22.885961532592773,20.652009963989254,-1.5284337997436523,-0.0,-0.0,-1.0,0.1457334305132216,2.0,0.0
23.00812530517578,23.105499267578125,-1.7376350164413452,0.8069487718330394,-0.2097969837906949,-0.5521040710133154,0.0273523902277731,4.0,0.0
22.932905197143555,22.68790626525879,-1.7020529508590698,0.1409049382539887,-0.1708748238770176,-0.9751654182448422,0.0296478918919936,4.0,0.0
22.80663299560547,22.325044631958008,-1.6888774633407593,-0.0,-0.0,-1.0,0.0180409970454218,2.0,0.0
22.766141891479492,21.919445037841797,-1.6529778242111206,-0.0,-0.0,-1.0,0.0154765868983677,2.0,0.0
22.94222068786621,21.318849563598633,-1.5456589460372925,-0.0,-0.0,-1.0,0.109788733081722,2.0,0.0
22.767108917236328,21.588550567626953,-1.6174992322921753,-0.0,-0.0,-1.0,0.0480252629920701,2.0,0.0
22.89368438720703,21.12833023071289,-1.5394572019577026,-0.0,-0.0,-1.0,0.1043521412474969,2.0,0.0
24.63533592224121,22.97503662109375,-1.3498436212539673,0.5429335557260382,0.7264532503372167,0.4212942310798647,0.0698662550024536,4.0,0.0
22.918689727783203,21.002534866333008,-1.521276354789734,-0.0,-0.0,-1.0,0.1108095501777432,1.0,0.0
22.817317962646484,20.670394897460938,-1.5178972482681274,-0.0,-0.0,-1.0,0.1289620566267584,2.0,0.0
22.881990432739254,22.97799491882324,-1.7400791645050049,-0.0,-0.0,-1.0,0.0223931633440758,1.0,0.0
22.743587493896484,22.686203002929688,-1.725874423980713,-0.0,-0.0,-1.0,0.0140358506155129,1.0,0.0
24.615318298339844,22.97057723999023,-1.34696626663208,-0.0,-0.0,-1.0,0.0698662550024537,2.0,0.0
22.862350463867188,22.81717109680176,-1.7183451652526855,-0.0,-0.0,-1.0,0.0302073058720163,1.0,0.0
22.881370544433594,21.2213134765625,-1.477196216583252,-0.2071450313153736,0.3501442123180146,-0.9135042236254576,0.1277522357475433,3.0,0.0
22.75873565673828,21.290048599243164,-1.5181396007537842,-0.0,-0.0,-1.0,0.1008687062816523,1.0,0.0
24.457660675048828,23.080062866210938,-1.0505952835083008,-0.1385946679230602,-0.6256853340543855,-0.7676648883285915,0.1032156261325459,3.0,0.0
24.33498764038086,22.156646728515625,-1.6865959167480469,-0.0,-0.0,-1.0,0.0318478528591401,1.0,0.0
24.62811851501465,22.097362518310547,-1.7086405754089355,-0.0,-0.0,-1.0,0.0183155842082224,1.0,0.0
24.850034713745117,21.977069854736328,-1.70963716506958,-0.0,-0.0,-1.0,0.0168920616961174,1.0,0.0
25.12156867980957,21.953903198242188,-1.7393512725830078,-0.0,-0.0,-1.0,0.0217175680083211,2.0,0.0
24.834152221679688,20.66955184936523,-1.6976659297943115,-0.0,-0.0,-1.0,0.0659265181488254,1.0,0.0
22.88697052001953,22.68794631958008,-1.7034671306610107,-0.3680704791208027,0.1283554436569323,-0.9208957609216228,0.0282281111074738,5.0,0.0
23.007667541503903,22.960529327392575,-1.7405760288238523,-0.0,-0.0,-1.0,0.0296513396311087,2.0,0.0
23.139577865600582,22.6459903717041,-1.742976188659668,-0.0,-0.0,-1.0,0.0352233741252076,1.0,0.0
23.298030853271484,22.968769073486328,-1.7851426601409912,0.2882886997349593,0.3951832769067117,-0.8721925264862108,0.025734854139868,3.0,0.0
24.670085906982425,22.84520721435547,-1.5579475164413452,-0.0,-0.0,-1.0,0.2401584761312417,2.0,0.0
25.081466674804688,22.768775939941406,-1.7548511028289795,-0.0,-0.0,-1.0,0.0577915774262469,2.0,0.0
25.073997497558594,23.08549690246582,-1.8070793151855469,-0.0,-0.0,-1.0,0.0650686583819722,1.0,0.0
22.72846031188965,22.82506561279297,-1.6847964525222778,-0.0,-0.0,-1.0,0.0181563198733167,1.0,0.0
22.779163360595703,20.92233085632324,-1.5016142129898071,-0.0,-0.0,-1.0,0.0621053232466877,1.0,0.0
22.95720672607422,21.112415313720703,-1.5116931200027466,-0.916871103080371,-0.315702253970896,-0.2442938132124502,0.1236290144736156,5.0,0.0
24.57589530944824,22.772485733032227,-1.6100183725357056,-0.0,-0.0,-1.0,0.175306074447518,1.0,0.0
22.986055374145508,22.918060302734375,-1.6721208095550537,-0.0,-0.0,-1.0,0.0310972618997118,2.0,0.0
23.02911949157715,21.16272354125977,-1.499112606048584,-0.0,-0.0,-1.0,0.1192666477446008,2.0,0.0
22.914247512817383,20.819015502929688,-1.4699180126190186,-0.0,-0.0,-1.0,0.1114052404443211,1.0,0.0
24.75621032714844,22.83786964416504,-1.6151976585388184,0.249175733130601,0.5876858731771036,0.769764099245277,0.2676050947436627,3.0,0.0
25.051380157470703,22.95853614807129,-1.795729160308838,-0.0,-0.0,-1.0,0.0849278363653568,1.0,0.0
25.116981506347656,22.556711196899418,-1.756600856781006,-0.0,-0.0,-1.0,0.0247890323936384,1.0,0.0
25.11182975769043,22.19123077392578,-1.7258479595184326,-0.0,-0.0,-1.0,0.0259808061306925,2.0,0.0
24.852638244628903,22.17669105529785,-1.743966579437256,-0.0,-0.0,-1.0,0.0226240091012011,1.0,0.0
24.626224517822266,21.942092895507812,-1.741302728652954,-0.0,-0.0,-1.0,0.0120287015899065,1.0,0.0
24.89507293701172,22.983173370361328,-1.451665282249451,-0.0,-0.0,-1.0,0.1738108499193307,1.0,0.0
22.833072662353516,21.25356674194336,-1.3775395154953003,-0.0,-0.0,-1.0,0.1110851063349741,1.0,0.0
22.767288208007812,21.16083526611328,-1.3725024461746216,-0.0,-0.0,-1.0,0.1304176742946468,2.0,0.0
24.78902053833008,22.932966232299805,-1.582105040550232,0.3495985060047761,0.9342032206615216,-0.0710297621062394,0.2445620702486799,6.0,0.0
24.873647689819336,22.837261199951172,-1.8306442499160769,-0.0,-0.0,-1.0,0.0946540568901996,1.0,0.0
23.005388259887695,22.918004989624023,-1.69461190700531,-0.0,-0.0,-1.0,0.0288811234570788,2.0,0.0
22.871536254882812,22.660234451293945,-1.678484559059143,-0.3684274351341381,-0.1175683864388811,-0.9221924417119444,0.0258853395832682,5.0,0.0
23.02406120300293,20.94297790527344,-1.50981342792511,-0.0,-0.0,-1.0,0.0683858050364069,2.0,0.0
22.907854080200195,20.677040100097656,-1.492148756980896,0.2677209472216517,0.6771840819330549,-0.6853810718098563,0.1473863726106671,4.0,0.0
24.774438858032227,22.78007125854492,-1.5469462871551514,-0.0,-0.0,-1.0,0.2238950953234416,1.0,0.0
25.1595401763916,21.980762481689453,-1.7504900693893433,-0.0,-0.0,-1.0,0.0199593280461074,2.0,0.0
24.97401237487793,21.91071319580078,-1.7495354413986206,-0.0,-0.0,-1.0,0.0184149203832097,2.0,0.0
24.912384033203125,21.957033157348633,-1.7579463720321655,-0.1032549620671001,-0.5179337810735423,-0.8491660681111708,0.0220340228434645,3.0,0.0
24.81180191040039,20.687768936157227,-1.603197455406189,-0.0,-0.0,-1.0,0.0948212583593409,2.0,0.0
24.64780616760254,20.680156707763672,-1.60944402217865,-0.0,-0.0,-1.0,0.0833508359509714,2.0,0.0
24.32122802734375,20.70428466796875,-1.6271101236343384,-0.0,-0.0,-1.0,0.0542455806057294,1.0,0.0
24.079805374145508,20.72048568725586,-1.640202879905701,-0.0,-0.0,-1.0,0.0562031219177046,1.0,0.0
24.99676513671875,22.09217071533203,-1.7385213375091553,-0.0,-0.0,-1.0,0.0337021313491699,2.0,0.0
24.68010139465332,22.047605514526367,-1.749739170074463,-0.0,-0.0,-1.0,0.0131949171074087,1.0,0.0
24.79947280883789,20.72077178955078,-1.577713966369629,-0.0,-0.0,-1.0,0.0815122053024374,2.0,0.0
24.62494850158691,20.898208618164062,-1.6093430519104004,-0.0,-0.0,-1.0,0.0336122333903595,1.0,0.0
24.42068672180176,20.866594314575195,-1.6167550086975098,-0.2799023562278657,0.3063823619598202,-0.9098266424204178,0.0741963550901981,3.0,0.0
24.20196533203125,21.13873291015625,-1.662954568862915,-0.0,-0.0,-1.0,0.0278497073115144,1.0,0.0
23.98791122436523,21.01102638244629,-1.659425973892212,-0.0,-0.0,-1.0,0.02630001064808,2.0,0.0
24.055614471435547,21.0760440826416,-1.6635689735412598,-0.0,-0.0,-1.0,0.0465210020141116,1.0,0.0
24.489566802978516,23.0591983795166,-1.0393500328063965,-0.1414701476607541,-0.6285400629186453,-0.7648029724230088,0.1032156261325459,3.0,0.0
22.819719314575195,23.088592529296875,-1.6757756471633911,-0.0,-0.0,-1.0,0.0223931633440759,2.0,0.0
22.75092315673828,22.996274948120117,-1.668866753578186,-0.0,-0.0,-1.0,0.0217604433065449,2.0,0.0
24.777767181396484,22.988759994506836,-1.5592743158340454,-0.4978107488655693,0.8630954050600841,0.0851515124825771,0.2595991175399774,7.0,0.0
22.91294288635254,21.177751541137695,-1.4460302591323853,-0.0,-0.0,-1.0,0.1026690471435291,2.0,0.0
24.99238395690918,21.825284957885746,-1.7716857194900513,-0.0,-0.0,-1.0,0.0176630860146793,1.0,0.0
24.873018264770508,20.865928649902344,-1.641581654548645,-0.0,-0.0,-1.0,0.1079906645238959,1.0,0.0
24.747529983520508,21.078107833862305,-1.6786483526229858,-0.0,-0.0,-1.0,0.04205556471984,1.0,0.0
24.872650146484375,21.576160430908203,-1.74264657497406,-0.0,-0.0,-1.0,0.0139000053602754,2.0,0.0
24.68174934387207,20.731050491333008,-1.6329632997512815,-0.0,-0.0,-1.0,0.0676160477993657,1.0,0.0
24.63361930847168,22.980175018310547,-1.18608820438385,-0.0,-0.0,-1.0,0.1068394316377329,1.0,0.0
24.765918731689453,22.788530349731445,-1.7719511985778809,-0.0,-0.0,-1.0,0.1170926363485207,2.0,0.0
24.89681625366211,22.892976760864254,-1.7789430618286133,0.1206787108418682,0.9357933801568522,-0.3312512617397217,0.1207797990767169,3.0,0.0
24.56288146972656,22.281702041625977,-1.7119433879852295,-0.0,-0.0,-1.0,0.1042375340748371,1.0,0.0
24.565454483032227,22.51705551147461,-1.745537281036377,-0.0,-0.0,-1.0,0.0620562772036187,1.0,0.0
24.15848159790039,22.470378875732425,-1.7649271488189695,-0.0,-0.0,-1.0,0.0291009265984442,1.0,0.0
23.783754348754883,22.329927444458008,-1.7697694301605225,0.7418118863299217,0.5503526269062983,-0.3831802596128629,0.0093288591757498,3.0,0.0
23.57166290283203,22.094146728515625,-1.7506399154663086,-0.0,-0.0,-1.0,0.0162232465111913,1.0,0.0
23.54388427734375,20.771682739257812,-1.564344882965088,-0.0,-0.0,-1.0,0.0184055498117134,2.0,0.0
23.519222259521484,21.55363655090332,-1.6773288249969482,-0.0,-0.0,-1.0,0.0080567635959199,1.0,0.0
23.304086685180664,20.658954620361328,-1.5654842853546145,-0.0,-0.0,-1.0,0.0479625779636461,2.0,0.0
23.33283233642578,21.25252914428711,-1.6476945877075195,-0.0,-0.0,-1.0,0.0188055465782812,1.0,0.0
24.60347366333008,23.042940139770508,-1.085021734237671,-0.0,-0.0,-1.0,0.1036374982361065,1.0,0.0
24.675933837890625,22.94813346862793,-1.7764990329742432,-0.0,-0.0,-1.0,0.2190725666515332,2.0,0.0
24.507190704345703,22.87691307067871,-1.775101900100708,-0.0,-0.0,-1.0,0.0916463592223629,1.0,0.0
23.971715927124023,23.112857818603516,-1.8470842838287351,-0.0,-0.0,-1.0,0.0412666438113597,1.0,0.0
23.484630584716797,22.42839813232422,-1.7726130485534668,-0.0,-0.0,-1.0,0.0206445515617314,2.0,0.0
23.502601623535156,22.9816837310791,-1.8591020107269287,-0.0,-0.0,-1.0,0.0219586232445162,1.0,0.0
23.165576934814453,22.469802856445312,-1.8036134243011477,-0.0,-0.0,-1.0,0.0345126853962288,1.0,0.0
23.204097747802734,22.631486892700195,-1.8260765075683592,-0.0,-0.0,-1.0,0.0323004000274523,1.0,0.0
23.010313034057617,22.276554107666016,-1.7853286266326904,-0.0,-0.0,-1.0,0.0204026901222646,1.0,0.0
23.019540786743164,21.13827896118164,-1.6054868698120115,-0.0,-0.0,-1.0,0.1511060063201667,2.0,0.0
22.838056564331055,20.90900993347168,-1.5848019123077393,-0.0,-0.0,-1.0,0.0654625101725191,1.0,0.0
24.53415298461914,22.994096755981445,-1.1332483291625977,-0.0,-0.0,-1.0,0.1032156261325459,1.0,0.0
25.177478790283203,21.615150451660156,-1.7627397775650024,-0.7430097338202709,-0.4527275797815752,-0.4929242071084022,0.0333914621295091,3.0,0.0
24.994112014770508,21.52510452270508,-1.7577282190322876,-0.0,-0.0,-1.0,0.0363365167594945,1.0,0.0
25.035316467285156,21.647600173950195,-1.7780262231826782,-0.0,-0.0,-1.0,0.0322303376971111,2.0,0.0
24.572040557861328,20.69819450378418,-1.6310163736343384,-0.0,-0.0,-1.0,0.1005941005499298,2.0,0.0
24.724918365478516,20.91391944885254,-1.6609333753585815,-0.0,-0.0,-1.0,0.046123384912499,1.0,0.0
24.8021240234375,21.281259536743164,-1.724650740623474,-0.0,-0.0,-1.0,0.0264127147363397,2.0,0.0
24.171478271484375,20.66537094116211,-1.653950572013855,-0.4597066742609355,-0.2411345984466457,-0.8547068965861487,0.1366449669853174,3.0,0.0
24.78718376159668,22.913097381591797,-1.6032220125198364,0.4083339470834259,0.9078549084758382,-0.0951990168835651,0.2516985626932444,5.0,0.0
22.89381980895996,23.133424758911133,-1.661388278007507,-0.0,-0.0,-1.0,0.0341755829609959,1.0,0.0
24.525236129760746,23.04557228088379,-1.0347496271133425,0.2614524987351902,0.3856820197012716,-0.8848118277827624,0.1032156261325459,3.0,0.0
24.764497756958008,22.89535903930664,-1.7223175764083862,0.4841754198284966,0.8447155471430647,-0.2281004323728725,0.1597487547695593,5.0,0.0
24.520586013793945,22.8365478515625,-1.7148529291152954,-0.2213716744410676,0.030971340310368,-0.9746975724985352,0.1155265594873756,7.0,0.0
24.312580108642575,23.11942672729492,-1.773278832435608,-0.0,-0.0,-1.0,0.0359831347202485,1.0,0.0
24.05871963500977,23.13409423828125,-1.781119704246521,-0.0,-0.0,-1.0,0.0378697149017695,2.0,0.0
23.21788215637207,22.77665328979492,-1.732225775718689,-0.0,-0.0,-1.0,0.0416983936345258,1.0,0.0
23.30976295471191,22.99127197265625,-1.7710689306259155,0.2882886997349593,0.3951832769067117,-0.8721925264862108,0.0193428487618483,3.0,0.0
22.839710235595703,21.186351776123047,-1.4375098943710327,0.903960867847527,-0.2189052655353055,-0.3673353156467032,0.1272732467668169,3.0,0.0
22.88658332824707,22.51312255859375,-1.690990328788757,-0.0,-0.0,-1.0,0.0149994005081678,2.0,0.0
23.00537872314453,22.604747772216797,-1.7050765752792358,-0.0,-0.0,-1.0,0.0273775701198333,1.0,0.0
25.146926879882812,20.757017135620117,-1.7011051177978516,-0.0,-0.0,-1.0,0.1081425500061935,2.0,0.0
24.67780876159668,22.86589241027832,-1.7010600566864014,-0.5730695140729497,0.2277149720535506,-0.7872339064997416,0.2140454937185259,4.0,0.0
24.479516983032227,22.856719970703125,-1.70038104057312,-0.0862069503762937,0.4589003467730512,-0.8842956708241836,0.1007010226519135,3.0,0.0
23.06281852722168,22.790512084960938,-1.708683729171753,-0.0,-0.0,-1.0,0.0255476112530039,1.0,0.0
23.23611640930176,23.018451690673828,-1.7522709369659424,-0.0,-0.0,-1.0,0.016591416728139,1.0,0.0
22.845937728881836,21.48686981201172,-1.4432427883148191,-0.0,-0.0,-1.0,0.0688743650592575,2.0,0.0
22.710628509521484,22.48094367980957,-1.653320074081421,-0.0,-0.0,-1.0,0.0134645287552787,1.0,0.0
22.85388565063477,22.630645751953125,-1.680546522140503,-0.1340513295684086,0.1482473299192586,-0.9798229279889056,0.013754182622705,3.0,0.0
25.12196922302246,22.557458877563477,-1.8147093057632449,-0.0,-0.0,-1.0,0.0247890323936384,2.0,0.0
24.857152938842773,22.503114700317383,-1.8055018186569216,-0.0,-0.0,-1.0,0.0141460771581605,1.0,0.0
25.077131271362305,22.56735610961914,-1.8176976442337036,-0.0,-0.0,-1.0,0.0247890323936384,2.0,0.0
24.48424911499023,22.181964874267575,-1.734871506690979,-0.0,-0.0,-1.0,0.0365414523613893,2.0,0.0
24.501033782958984,22.29855728149414,-1.7629424333572388,-0.0,-0.0,-1.0,0.0386488782823721,2.0,0.0
24.15459632873535,22.209123611450195,-1.7497678995132446,-0.0,-0.0,-1.0,0.0226507148362721,2.0,0.0
24.098657608032227,22.285789489746097,-1.7700320482254028,-0.0,-0.0,-1.0,0.0147335495912774,1.0,0.0
23.616668701171875,22.23115348815918,-1.7723761796951294,-0.0,-0.0,-1.0,0.0118068562855152,2.0,0.0
23.79136657714844,22.308990478515625,-1.7851039171218872,0.7418118863299217,0.5503526269062983,-0.3831802596128629,0.0093131685936262,3.0,0.0
23.337976455688477,22.047222137451172,-1.7387152910232544,0.0471098203068802,0.4980261212052227,-0.8658814280419314,0.018302878517273,3.0,0.0
24.84000015258789,23.077375411987305,-1.45905601978302,-0.0,-0.0,-1.0,0.1546307356742823,1.0,0.0
22.969717025756836,21.144908905029297,-1.5382789373397827,0.7970627969905313,-0.5354148151274067,-0.2793239577904406,0.1305430815305477,3.0,0.0
23.045873641967773,21.29489517211914,-1.5706020593643188,-0.2244168498093279,-0.7514470093004615,-0.6204550505355321,0.0854812974292309,3.0,0.0
23.151235580444336,21.82165908813477,-1.692306637763977,-0.0,-0.0,-1.0,0.0066490358319354,1.0,0.0
22.83131980895996,21.009292602539062,-1.5128494501113892,-0.0,-0.0,-1.0,0.0690456822271766,2.0,0.0
24.862445831298828,21.67306900024414,-1.7542576789855957,-0.0,-0.0,-1.0,0.0154831436638304,1.0,0.0
25.046777725219727,21.825336456298828,-1.7870149612426758,-0.0,-0.0,-1.0,0.0158921512346798,1.0,0.0
24.64805793762207,21.586944580078125,-1.7426869869232178,-0.0,-0.0,-1.0,0.0106183975576561,1.0,0.0
24.15026092529297,21.2850341796875,-1.6911470890045166,-0.0,-0.0,-1.0,0.0300634412425491,1.0,0.0
24.329833984375,21.430864334106445,-1.719252109527588,-0.0,-0.0,-1.0,0.0073212845262342,2.0,0.0
23.85332298278809,21.223297119140625,-1.6960859298706057,-0.5059578385508546,-0.7586120250847969,0.4105051290857287,0.0402490059333388,3.0,0.0
24.40352249145508,20.67382049560547,-1.504178762435913,-0.0,-0.0,-1.0,0.1317115190365429,1.0,0.0
24.770143508911133,23.069087982177734,-1.6951584815979004,-0.0,-0.0,-1.0,0.189400592192359,1.0,0.0
23.60784912109375,20.87626266479492,-1.6199462413787842,-0.0,-0.0,-1.0,0.004646694868099,1.0,0.0
23.662059783935547,21.07489776611328,-1.6702399253845217,-0.0,-0.0,-1.0,0.0074423979160805,1.0,0.0
23.409648895263672,20.72640609741211,-1.5959899425506592,-0.0,-0.0,-1.0,0.0371369392461019,1.0,0.0
23.37782287597656,22.839340209960938,-1.730906963348389,-0.0,-0.0,-1.0,0.0350682593443822,2.0,0.0
22.842138290405273,21.518081665039062,-1.4610507488250732,-0.0,-0.0,-1.0,0.0623675417516962,2.0,0.0
22.956409454345703,22.590396881103516,-1.7054345607757568,-0.0,-0.0,-1.0,0.0128088690049098,1.0,0.0
23.15353202819824,22.790130615234375,-1.7368505001068115,-0.0,-0.0,-1.0,0.028939666299136,1.0,0.0
22.760168075561523,22.437820434570312,-1.686131715774536,-0.0,-0.0,-1.0,0.018432695041997,1.0,0.0
24.671890258789062,22.995620727539062,-1.2405388355255127,-0.0,-0.0,-1.0,0.121573206868958,2.0,0.0
24.85991096496582,22.118139266967773,-1.7787387371063232,0.1198000363690874,-0.3821439596270576,-0.9163045047398376,0.0270683774981889,3.0,0.0
24.74178123474121,22.946741104125977,-1.6252179145812988,0.5212602632853753,0.8369886795435666,0.166546354615098,0.1760734359307829,4.0,0.0
24.350772857666016,21.92142677307129,-1.763885259628296,-0.0,-0.0,-1.0,0.0182397222323053,2.0,0.0
24.530723571777344,22.0247745513916,-1.7784183025360107,-0.0,-0.0,-1.0,0.0157579044317217,1.0,0.0
24.050926208496097,21.73588752746582,-1.7380611896514893,-0.0,-0.0,-1.0,0.0294049761915594,2.0,0.0
23.62668228149414,21.472015380859375,-1.705661058425903,-0.0,-0.0,-1.0,0.010378501671559,1.0,0.0
23.82905960083008,21.577545166015625,-1.7141640186309814,-0.0,-0.0,-1.0,0.0224733073394568,1.0,0.0
23.519514083862305,22.771800994873047,-1.69331693649292,-0.0,-0.0,-1.0,0.0412949073205837,1.0,0.0
23.084564208984375,20.704105377197266,-1.546489953994751,-0.0,-0.0,-1.0,0.1169251049449356,1.0,0.0
23.1886043548584,20.88427734375,-1.5856647491455078,-0.0,-0.0,-1.0,0.0559458735185041,1.0,0.0
23.374422073364254,21.27743911743164,-1.6779820919036863,-0.0,-0.0,-1.0,0.012372151594731,1.0,0.0
23.06791305541992,22.702117919921875,-1.7254481315612793,-0.0,-0.0,-1.0,0.0290922257024728,1.0,0.0
23.26586151123047,22.910707473754883,-1.7571001052856443,-0.0,-0.0,-1.0,0.024877755497333,2.0,0.0
23.01888656616211,20.70966339111328,-1.5570435523986816,-0.0,-0.0,-1.0,0.1233646487725877,2.0,0.0
22.874998092651367,22.501800537109375,-1.6968088150024414,-0.0,-0.0,-1.0,0.0149994005081677,2.0,0.0
24.80989646911621,23.068679809570312,-1.2436723709106443,-0.0,-0.0,-1.0,0.1027485564691385,1.0,0.0
24.85393524169922,23.11760711669922,-1.508862018585205,-0.0,-0.0,-1.0,0.1525796809518917,1.0,0.0
24.698631286621097,22.94079971313477,-1.4734220504760742,0.5920083295228297,0.6479537281317659,-0.4792516082140311,0.1860193024161734,3.0,0.0
22.874906539916992,23.06058883666992,-1.712221384048462,-0.0,-0.0,-1.0,0.0223931633440759,2.0,0.0
24.601131439208984,22.962873458862305,-1.1305023431777954,-0.0,-0.0,-1.0,0.1036374982361065,2.0,0.0
24.481584548950195,23.09860610961914,-1.0700281858444214,-0.0,-0.0,-1.0,0.1032156261325459,2.0,0.0
25.11690902709961,22.162635803222656,-1.8116356134414673,-0.0,-0.0,-1.0,0.0256368521338846,1.0,0.0
25.055828094482425,22.064638137817383,-1.7886708974838257,-0.0,-0.0,-1.0,0.0279333375931831,2.0,0.0
23.038246154785156,20.683643341064453,-1.5823699235916138,-0.0,-0.0,-1.0,0.0811208261228998,2.0,0.0
24.508338928222656,22.98848342895508,-1.6603889465332031,0.920297135061991,-0.3383860848095467,0.1963365498422488,0.0789658980480176,3.0,0.0
24.586246490478516,22.89557647705078,-1.671267032623291,-0.0,-0.0,-1.0,0.1084447907315567,2.0,0.0
24.61274528503418,23.10441780090332,-1.1861867904663086,-0.0,-0.0,-1.0,0.1049939006441951,1.0,0.0
22.82831573486328,21.15449905395508,-1.446568250656128,0.9119915672487284,-0.201020301144682,-0.3575782708651481,0.1210954545576679,4.0,0.0
24.855846405029297,22.803367614746097,-1.7526638507843018,-0.0,-0.0,-1.0,0.1403598097308989,1.0,0.0
24.54691696166992,22.63253402709961,-1.738194227218628,-0.0634506701825999,0.6717535745714345,-0.7380522661057812,0.0606404985954425,3.0,0.0
22.98987197875977,21.115724563598633,-1.4683327674865725,-0.0,-0.0,-1.0,0.1399151358543967,2.0,0.0
24.7391300201416,22.835981369018555,-1.7389142513275146,-0.0,-0.0,-1.0,0.2243979888337546,2.0,0.0
23.493061065673828,22.21406364440918,-1.823556900024414,-0.0,-0.0,-1.0,0.0258035328159101,1.0,0.0
22.77760124206543,21.013980865478516,-1.5398228168487549,-0.0,-0.0,-1.0,0.0671187594873195,1.0,0.0
24.85861587524414,22.87640953063965,-1.6290950775146484,-0.0,-0.0,-1.0,0.1495917674491521,2.0,0.0
22.94182777404785,21.126096725463867,-1.4471783638000488,-0.5167411486325048,-0.7477199151906726,-0.4170054121198106,0.1192017923973727,4.0,0.0
22.826866149902344,21.165800094604492,-1.4568700790405271,0.9119915672487284,-0.201020301144682,-0.3575782708651481,0.1285800219208795,4.0,0.0
24.809873580932617,22.914506912231445,-1.592064619064331,0.0894302774192883,0.9360268265613138,-0.3403762703806853,0.2031428008160574,5.0,0.0
25.078128814697266,20.747241973876953,-1.7147915363311768,-0.0,-0.0,-1.0,0.1150401629184683,1.0,0.0
24.209400177001953,20.66053771972656,-1.6729834079742432,-0.3052639936016323,-0.3237257436893898,-0.895553201704474,0.1033822587336248,4.0,0.0
24.95233154296875,22.042768478393555,-1.7831287384033203,-0.9669166775832284,-0.0579214007528946,0.248429567375209,0.0269776368341698,3.0,0.0
24.644296646118164,22.07421875,-1.778564453125,-0.0,-0.0,-1.0,0.0164884990899506,1.0,0.0
24.405704498291016,22.126964569091797,-1.7804017066955566,-0.0,-0.0,-1.0,0.0346337849976184,1.0,0.0
24.148422241210938,22.196243286132812,-1.7851524353027344,-0.0,-0.0,-1.0,0.022279463950147,2.0,0.0
23.75964736938477,22.341184616088867,-1.8002705574035645,0.7418118863299217,0.5503526269062983,-0.3831802596128629,0.0089266757691716,3.0,0.0
23.576440811157227,21.62991714477539,-1.6682486534118652,-0.0,-0.0,-1.0,0.0099363310971683,1.0,0.0
24.483642578125,20.66810607910156,-1.5258903503417969,-0.0,-0.0,-1.0,0.1353506851011086,1.0,0.0
23.15499496459961,21.084482192993164,-1.5596466064453125,-0.0,-0.0,-1.0,0.0920892307498374,2.0,0.0
22.946033477783203,20.931821823120117,-1.5270462036132812,-0.0,-0.0,-1.0,0.0867030444950921,2.0,0.0
25.059661865234375,22.83774185180664,-1.8229758739471436,-0.0,-0.0,-1.0,0.045428430607614,1.0,0.0
24.683822631835938,22.50986099243164,-1.7544972896575928,-0.0,-0.0,-1.0,0.0678924361958955,1.0,0.0
24.476959228515625,22.499839782714844,-1.7466189861297607,-0.9734398319390868,0.2097902084596303,-0.091667671667103,0.0607551789844829,4.0,0.0
24.41576385498047,22.72146224975586,-1.7835381031036377,-0.0,-0.0,-1.0,0.0803972049157919,1.0,0.0
24.102214813232425,22.95473861694336,-1.8159658908843992,-0.0,-0.0,-1.0,0.0428393807806164,1.0,0.0
22.95952033996582,21.123695373535156,-1.4651715755462646,-0.3575043736491337,-0.9203865179306888,0.158364391304239,0.1296726609414925,5.0,0.0
22.818042755126953,21.13477325439453,-1.4638750553131104,0.9234639812135812,-0.1869700975492091,-0.3350469489841722,0.1113698368481872,3.0,0.0
25.103490829467773,22.665054321289062,-1.84983491897583,-0.0,-0.0,-1.0,0.0279379796946161,2.0,0.0
24.989274978637695,22.750476837158203,-1.8597016334533691,-0.0,-0.0,-1.0,0.0367045598311364,1.0,0.0
24.38874053955078,22.474628448486328,-1.7898626327514648,-0.0,-0.0,-1.0,0.0350654540749061,1.0,0.0
23.969268798828125,22.71626091003418,-1.8164739608764648,-0.0,-0.0,-1.0,0.0299176354639226,1.0,0.0
24.538135528564453,22.18436050415039,-1.746049880981445,0.084439667222836,0.9094400639846092,-0.4071716009485026,0.0323780939700104,3.0,0.0
22.873254776000977,21.10317039489746,-1.501970291137695,0.8823306895093981,-0.4293871027981877,0.1926636195560775,0.1018547729704631,3.0,0.0
24.951644897460938,23.017757415771484,-1.4395771026611328,-0.0,-0.0,-1.0,0.1503070058382444,1.0,0.0
25.203405380249023,22.8686466217041,-1.834095478057861,-0.0,-0.0,-1.0,0.0409876446560257,1.0,0.0
24.428462982177734,22.781803131103516,-1.77728271484375,-0.0,-0.0,-1.0,0.0839028265597736,2.0,0.0
24.487598419189453,22.535003662109375,-1.740530014038086,0.523623507664284,0.003962230827081,-0.8519405630372489,0.0604316931615926,4.0,0.0
24.385910034179688,22.831823348999023,-1.783186912536621,-0.0,-0.0,-1.0,0.100619961796357,2.0,0.0
24.142362594604492,23.01533317565918,-1.800432205200195,-0.0,-0.0,-1.0,0.0326564629143769,1.0,0.0
22.88825798034668,21.082765579223633,-1.4208064079284668,0.2213277449148314,-0.7449112775051214,-0.6293816155375074,0.0894335305461969,3.0,0.0
24.70498275756836,22.87210273742676,-1.426663875579834,-0.0,-0.0,-1.0,0.112802595932903,1.0,0.0
24.73533058166504,21.58717918395996,-1.7447218894958496,-0.7441062982346339,0.1830413342721585,-0.6424964489204732,0.0071873154559211,3.0,0.0
24.64421844482422,21.88333320617676,-1.7864251136779783,-0.0,-0.0,-1.0,0.0112326165354219,1.0,0.0
24.64716339111328,20.715118408203125,-1.595355987548828,-0.0,-0.0,-1.0,0.0795009619767059,2.0,0.0
24.14757537841797,22.118728637695312,-1.7881488800048828,-0.0,-0.0,-1.0,0.0169129414318703,1.0,0.0
23.943862915039062,22.257015228271484,-1.7964529991149902,-0.0,-0.0,-1.0,0.0103496701580724,1.0,0.0
23.00729179382324,21.05982208251953,-1.526543140411377,-0.0,-0.0,-1.0,0.1255412885355347,2.0,0.0
24.32638931274414,20.83233070373535,-1.679241180419922,-0.0,-0.0,-1.0,0.0546992149797226,2.0,0.0
23.877140045166016,21.199487686157227,-1.7107305526733398,-0.650779631692883,-0.2005700634183252,-0.7322960607800949,0.0410520304044449,3.0,0.0
23.195297241210938,20.638315200805664,-1.5557465553283691,-0.0,-0.0,-1.0,0.0902574464158211,1.0,0.0
24.818464279174805,23.0159969329834,-1.5572030544281006,-0.5478848748881867,0.8278143565401047,-0.1206049541886582,0.1650382269256519,3.0,0.0
24.701269149780273,22.919105529785156,-1.6787493228912354,0.6711559053244949,0.3935304996184136,0.6282384074681678,0.3100679650125852,9.0,0.0
24.840076446533203,22.916488647460938,-1.636425256729126,0.9116166447262316,0.386483506289826,-0.1399485349119783,0.183838351244998,4.0,0.0
25.141138076782227,20.78765296936035,-1.731226921081543,-0.0,-0.0,-1.0,0.1024944012532872,2.0,0.0
24.925893783569336,20.88378143310547,-1.7153706550598145,-0.0,-0.0,-1.0,0.1110070718515731,2.0,0.0
24.829444885253903,21.27730178833008,-1.7665247917175293,-0.0,-0.0,-1.0,0.028199820408166,2.0,0.0
24.692100524902344,21.011451721191406,-1.7025623321533203,-0.0,-0.0,-1.0,0.0448528527577259,2.0,0.0
24.55866050720215,21.431072235107425,-1.7538766860961914,-0.0,-0.0,-1.0,0.0080762308836235,1.0,0.0
24.325603485107425,21.554183959960938,-1.742204666137695,-0.0,-0.0,-1.0,0.0078919499362457,1.0,0.0
24.214906692504883,21.732398986816406,-1.757646560668945,-0.0,-0.0,-1.0,0.026683552004082,1.0,0.0
24.145395278930664,21.946304321289062,-1.7854604721069336,-0.0921238631943245,-0.1963949890546162,-0.9761875855102804,0.012464293443493,3.0,0.0
22.8709716796875,21.11454391479492,-1.4661664962768557,0.5876993023384015,-0.8074149717453265,0.0518709305145939,0.1091552945832376,4.0,0.0
25.00094413757324,20.763751983642575,-1.7124757766723633,-0.0,-0.0,-1.0,0.1138137558863457,2.0,0.0
24.772918701171875,21.05879592895508,-1.726212978363037,-0.0,-0.0,-1.0,0.0456977696093593,2.0,0.0
24.614755630493164,21.140132904052734,-1.715834617614746,-0.0,-0.0,-1.0,0.0310291017668172,1.0,0.0
24.38656997680664,21.483257293701172,-1.7402081489562988,-0.0,-0.0,-1.0,0.00671516410986,2.0,0.0
24.186447143554688,21.799888610839844,-1.7657794952392578,-0.0,-0.0,-1.0,0.0289459394451502,1.0,0.0
24.13380241394043,21.928991317749023,-1.7808833122253418,-0.0921238631943245,-0.1963949890546162,-0.9761875855102804,0.0123951712386654,3.0,0.0
23.186145782470703,22.53058433532715,-1.757491111755371,-0.0,-0.0,-1.0,0.0300361402561905,1.0,0.0
22.859695434570312,21.099878311157227,-1.4511046409606934,0.2011456738115075,-0.7627341195163214,-0.6146357301951919,0.1021406490325981,4.0,0.0
24.66231155395508,22.913734436035156,-1.2843842506408691,-0.1216958491828049,-0.4753689561183685,-0.8713291432349825,0.0594980754745177,3.0,0.0
24.74014663696289,22.881439208984375,-1.527027606964111,0.701643875998715,0.696063336592828,0.1522882225412018,0.2251152047705408,4.0,0.0
24.740602493286133,22.89872360229492,-1.4625775814056396,0.6514660860384753,0.725831518754832,-0.2208179003698839,0.1946108871825988,4.0,0.0
24.675844192504883,22.998207092285156,-1.6452677249908447,-0.0,-0.0,-1.0,0.1561572461571687,1.0,0.0
24.68150329589844,22.919918060302734,-1.6375010013580322,-0.1498964254934044,0.97391908067643,0.1703311067265096,0.2137628069097818,7.0,0.0
25.156763076782227,21.910737991333008,-1.7854061126708984,-0.0,-0.0,-1.0,0.020351398086027,1.0,0.0
24.93950080871582,22.104890823364254,-1.7625107765197754,-0.0,-0.0,-1.0,0.0332733280417999,2.0,0.0
24.387914657592773,22.7152099609375,-1.7200074195861816,-0.0,-0.0,-1.0,0.06842021980509,2.0,0.0
24.37349510192871,23.02620506286621,-1.7497916221618652,-0.0,-0.0,-1.0,0.0524668187787372,2.0,0.0
25.18680000305176,21.350536346435547,-1.7410316467285156,-0.0,-0.0,-1.0,0.0264817384720518,1.0,0.0
25.15731430053711,21.64690399169922,-1.7615089416503906,-0.0,-0.0,-1.0,0.0353104892466759,2.0,0.0
24.960147857666016,22.01906967163086,-1.7582321166992188,-0.9669166775832284,-0.0579214007528946,0.248429567375209,0.0241105144669308,3.0,0.0
24.470399856567383,22.47987365722656,-1.7112417221069336,-0.9309017094957226,-0.0628421181971179,-0.359823394790334,0.0506278795563217,5.0,0.0
23.475440979003903,22.365428924560547,-1.7516448497772217,-0.0,-0.0,-1.0,0.0236215043598926,1.0,0.0
23.37032127380371,22.578449249267575,-1.7568657398223877,-0.0,-0.0,-1.0,0.0418247553311315,1.0,0.0
23.258127212524418,22.885515213012695,-1.7728502750396729,-0.0,-0.0,-1.0,0.0366836321728686,2.0,0.0
23.873023986816406,21.159584045410156,-1.696143388748169,-0.0,-0.0,-1.0,0.0179159536693216,2.0,0.0
23.87419319152832,21.267425537109375,-1.707597017288208,-0.0,-0.0,-1.0,0.0414726592384251,1.0,0.0
22.943994522094727,22.91284942626953,-1.7168328762054443,-0.0,-0.0,-1.0,0.0304736510995847,1.0,0.0
23.806276321411133,21.06255149841309,-1.6728885173797607,-0.0,-0.0,-1.0,0.0091540282183435,1.0,0.0
23.6705379486084,20.801542282104492,-1.6193974018096924,-0.0,-0.0,-1.0,0.0045776320385952,1.0,0.0
23.16452980041504,21.0905818939209,-1.5486433506011963,-0.0,-0.0,-1.0,0.0920892307498374,2.0,0.0
23.076305389404297,21.12064743041992,-1.5344140529632568,-0.0,-0.0,-1.0,0.1437502220807856,2.0,0.0
24.23287582397461,22.324085235595703,-1.7852122783660889,-0.0,-0.0,-1.0,0.0251894576113862,2.0,0.0
24.1584415435791,22.61744499206543,-1.8021423816680908,-0.0,-0.0,-1.0,0.0267834558134318,1.0,0.0
23.9461612701416,22.98867416381836,-1.8024346828460691,-0.0,-0.0,-1.0,0.0440488495008371,1.0,0.0
24.39021873474121,21.445056915283203,-1.728886365890503,-0.0,-0.0,-1.0,0.0063847792209295,2.0,0.0
24.321067810058594,20.913311004638672,-1.666703462600708,-0.0,-0.0,-1.0,0.0599042341139392,2.0,0.0
24.81464195251465,23.00791358947754,-1.226335048675537,-0.0,-0.0,-1.0,0.0925152582063589,1.0,0.0
23.663808822631836,22.23811912536621,-1.7813615798950195,-0.0,-0.0,-1.0,0.0103329315215985,2.0,0.0
23.43886947631836,22.681644439697266,-1.7739553451538086,-0.0,-0.0,-1.0,0.0432816040623296,1.0,0.0
23.316905975341797,22.974424362182617,-1.776341438293457,0.2882886997349593,0.3951832769067117,-0.8721925264862108,0.0267024396730771,3.0,0.0
23.368316650390625,22.346439361572266,-1.728559970855713,-0.0,-0.0,-1.0,0.0388850501671311,1.0,0.0
22.907140731811523,23.04252243041992,-1.6981220245361328,-0.0,-0.0,-1.0,0.0341755829609958,2.0,0.0
23.11606788635254,20.650718688964844,-1.541562557220459,-0.0,-0.0,-1.0,0.1017182207961643,1.0,0.0
22.87915802001953,20.6864013671875,-1.492684841156006,0.1174513830238287,0.6182479980879877,-0.7771580183501838,0.1537940639972424,4.0,0.0
25.14702415466309,21.467365264892575,-1.6416115760803225,-0.0,-0.0,-1.0,0.0381146763291144,1.0,0.0
24.74560546875,22.955610275268555,-1.6724586486816406,0.893860006500389,0.3327832297796551,-0.3004490152364378,0.2809821769480138,8.0,0.0
25.177886962890625,22.598257064819336,-1.8243834972381592,-0.0,-0.0,-1.0,0.0247890323936384,1.0,0.0
25.16542053222656,22.375221252441406,-1.8083927631378176,-0.0,-0.0,-1.0,0.0168890309888317,1.0,0.0
25.099571228027344,22.694225311279297,-1.814540147781372,-0.0,-0.0,-1.0,0.0303932012637662,2.0,0.0
25.17880630493164,21.2108154296875,-1.7494699954986572,-0.0,-0.0,-1.0,0.0231002018468669,2.0,0.0
25.15283966064453,21.462696075439453,-1.7563116550445557,-0.0,-0.0,-1.0,0.0381146763291144,1.0,0.0
25.056480407714844,22.02652359008789,-1.7662770748138428,-0.762603361932599,-0.3373388938726697,-0.5519407423354985,0.0270664122396613,3.0,0.0
25.017784118652344,22.16646194458008,-1.7663514614105225,-0.0,-0.0,-1.0,0.0320231651530315,1.0,0.0
24.660810470581055,22.967079162597656,-1.743894338607788,0.7848251304788658,0.6197047612348066,0.003939983723588,0.1688908122373669,3.0,0.0
25.01096534729004,20.655181884765625,-1.6909267902374268,-0.0,-0.0,-1.0,0.1205999638231525,1.0,0.0
24.968608856201172,20.97268867492676,-1.6957066059112549,-0.0,-0.0,-1.0,0.0401748535451288,2.0,0.0
24.525224685668945,22.687326431274418,-1.698371171951294,-0.0,-0.0,-1.0,0.0768402862478898,2.0,0.0
24.50691032409668,22.79203224182129,-1.701432466506958,-0.0826876443390956,-0.0472446097229677,-0.9954550217492376,0.1192957611912452,5.0,0.0
24.819366455078125,21.745227813720703,-1.7562057971954346,-0.0,-0.0,-1.0,0.0100738482202644,1.0,0.0
24.85412216186523,21.99361038208008,-1.7760231494903564,-0.0,-0.0,-1.0,0.0174607262614818,1.0,0.0
24.784015655517575,21.074365615844727,-1.7189147472381592,-0.0,-0.0,-1.0,0.0456977696093593,2.0,0.0
24.456981658935547,22.368396759033203,-1.71502423286438,-0.0,-0.0,-1.0,0.0455226541001151,2.0,0.0
24.419002532958984,22.715412139892575,-1.7281062602996826,-0.0,-0.0,-1.0,0.0850151447542219,2.0,0.0
24.398780822753903,22.954545974731445,-1.7391393184661863,-0.0,-0.0,-1.0,0.0672542319760876,1.0,0.0
24.43692398071289,20.91002655029297,-1.640652418136597,-0.0544264817510096,-0.6170580390810523,-0.7850332059789914,0.0650097172097724,5.0,0.0
24.712757110595703,22.91061782836914,-1.548844337463379,0.7292870254691425,0.1939823259675816,-0.6561335928715867,0.1598284960612527,3.0,0.0
24.498798370361328,21.45631217956543,-1.7244720458984375,-0.0,-0.0,-1.0,0.0073303985802684,1.0,0.0
24.593273162841797,21.774620056152344,-1.759298324584961,-0.185210362375235,-0.4306686585807545,-0.883301549973217,0.0116940185246218,3.0,0.0
24.425434112548828,22.16386604309082,-1.744945049285889,-0.0,-0.0,-1.0,0.0330022130175055,1.0,0.0
24.388992309570312,22.554903030395508,-1.7594637870788574,-0.0,-0.0,-1.0,0.0478891784098077,1.0,0.0
24.37852478027344,22.925500869750977,-1.7798285484313965,-0.0,-0.0,-1.0,0.073179754505332,1.0,0.0
24.580371856689453,22.88380241394043,-1.063485860824585,-0.0,-0.0,-1.0,0.1036374982361066,1.0,0.0
23.562639236450195,21.7332820892334,-1.7105047702789309,-0.0,-0.0,-1.0,0.0075445841772684,2.0,0.0
23.70014190673828,22.03771591186523,-1.752870798110962,-0.0,-0.0,-1.0,0.0096707045363888,1.0,0.0
23.6085262298584,22.584274291992188,-1.757819414138794,-0.0,-0.0,-1.0,0.0211801253234145,2.0,0.0
23.625452041625977,22.86402130126953,-1.7756550312042236,-0.0,-0.0,-1.0,0.0349505309447829,1.0,0.0
23.44338035583496,22.375099182128903,-1.71193528175354,-0.0,-0.0,-1.0,0.0260939984764743,1.0,0.0
23.40130043029785,22.689355850219727,-1.7178809642791748,-0.0,-0.0,-1.0,0.0405719002226134,2.0,0.0
24.629634857177734,23.008468627929688,-1.242709398269653,-0.0,-0.0,-1.0,0.1090874227785343,2.0,0.0
24.705379486083984,22.92469596862793,-1.486858606338501,0.5920083295228297,0.6479537281317659,-0.4792516082140311,0.2095428033819165,3.0,0.0
24.721790313720703,23.001039505004883,-1.5173702239990234,0.8643538170872919,0.4911917736280353,0.107810576507009,0.214515439211879,3.0,0.0
25.01273536682129,20.813674926757812,-1.6818578243255615,-0.0,-0.0,-1.0,0.1138491404444356,1.0,0.0
25.159814834594727,21.074827194213867,-1.719146966934204,-0.0,-0.0,-1.0,0.020366003223828,1.0,0.0
24.86396217346191,22.93314552307129,-1.7120401859283447,0.5917568905542905,0.5487104914776549,0.5905426140625822,0.1750246730949573,4.0,0.0
24.43695640563965,20.937768936157227,-1.6666631698608398,-0.0599692629877016,-0.3268836033855904,-0.9431600062207705,0.0631074937443234,4.0,0.0
24.655824661254883,21.08654403686523,-1.7190580368041992,-0.0,-0.0,-1.0,0.0367970274909834,1.0,0.0
24.39530372619629,20.947444915771484,-1.6570744514465332,-0.1784872258187005,0.0365263766466412,-0.9832640205095536,0.0603890931011277,5.0,0.0
24.69417381286621,21.247116088867188,-1.7301936149597168,-0.0,-0.0,-1.0,0.0272273378391665,1.0,0.0
24.7554931640625,21.5119686126709,-1.7488398551940918,-0.0,-0.0,-1.0,0.0076651366966066,1.0,0.0
24.769624710083008,21.87351417541504,-1.7594470977783203,-0.0,-0.0,-1.0,0.0097173740649079,2.0,0.0
24.811853408813477,22.02031517028809,-1.7725811004638672,-0.0,-0.0,-1.0,0.0199155078563959,1.0,0.0
24.609636306762695,22.336191177368164,-1.7330899238586426,-0.0,-0.0,-1.0,0.0236857258741825,1.0,0.0
