x,y,z,nx,ny,nz,curvature,density,label
18.545928955078125,7.798523426055908,-0.8382666110992432,-0.0,-0.0,-1.0,0.0400278037890424,1.0,0.0
18.07929801940918,7.432046890258789,-0.8098917007446289,-0.0,-0.0,-1.0,0.0809983682400647,1.0,0.0
17.818126678466797,7.3225555419921875,-0.7802226543426514,-0.0,-0.0,-1.0,0.0981411130648913,1.0,0.0
19.55167007446289,7.613685607910156,-0.8072969913482666,-0.0,-0.0,-1.0,0.0139008200783371,2.0,0.0
19.729764938354492,7.683355331420898,-0.8247256278991699,-0.0,-0.0,-1.0,0.1001175793767056,1.0,0.0
19.26538848876953,7.606778144836426,-0.7628459930419922,-0.0,-0.0,-1.0,0.0304214855699368,2.0,0.0
19.31881332397461,7.66087818145752,-0.7624087333679199,-0.0,-0.0,-1.0,0.0254935555506039,1.0,0.0
19.99696159362793,7.713895797729492,-0.8537285327911377,-0.0,-0.0,-1.0,0.0371243432604629,2.0,0.0
19.65552520751953,7.694108963012695,-0.8303956985473633,-0.6782700156990902,0.7347821233143096,-0.0067094754840038,0.0187901341745472,3.0,0.0
19.24350929260254,8.091938018798828,-0.7609565258026123,-0.0,-0.0,-1.0,0.1251415903673816,2.0,0.0
17.938655853271484,7.579423904418945,-0.7241666316986084,-0.0,-0.0,-1.0,0.0141855350911781,2.0,0.0
18.025951385498047,7.60615348815918,-0.7270324230194092,-0.0,-0.0,-1.0,0.0233290942169611,2.0,0.0
19.435619354248047,6.564661026000977,-0.8325052261352539,-0.0,-0.0,-1.0,0.0764237724488337,1.0,0.0
19.943313598632812,6.555522918701172,-0.8735787868499756,-0.0,-0.0,-1.0,0.0331803740774559,1.0,0.0
19.570541381835938,6.620567321777344,-0.8375513553619385,-0.0,-0.0,-1.0,0.0500442598061925,1.0,0.0
19.76864242553711,6.62156867980957,-0.8531293869018555,-0.0,-0.0,-1.0,0.0304047353268747,1.0,0.0
18.87985038757324,6.568490982055664,-0.7896690368652344,-0.0,-0.0,-1.0,0.0588868735290661,1.0,0.0
19.134965896606445,6.556007385253906,-0.8102240562438965,-0.0,-0.0,-1.0,0.0422672293112602,1.0,0.0
18.388782501220703,6.761257171630859,-0.7342309951782227,-0.0,-0.0,-1.0,0.0166349926696972,2.0,0.0
18.65735244750977,6.655662536621094,-0.7644543647766113,-0.0,-0.0,-1.0,0.0460582571957067,1.0,0.0
19.64873504638672,6.678873062133789,-0.8379917144775391,-0.0,-0.0,-1.0,0.0256451025162643,1.0,0.0
19.991790771484375,6.875232696533203,-0.846290111541748,-0.0,-0.0,-1.0,0.0225534882483573,1.0,0.0
20.199417114257812,6.864053726196289,-0.8643491268157959,-0.8692686905829394,-0.2180860334287983,0.4436332106543817,0.0860242063600608,3.0,0.0
18.838228225708008,8.131141662597656,-0.7688791751861572,-0.0,-0.0,-1.0,0.0368988160685492,2.0,0.0
19.025142669677734,8.081199645996094,-0.7859978675842285,-0.0,-0.0,-1.0,0.0646943666346315,1.0,0.0
19.345165252685547,7.908027648925781,-0.8257136344909668,-0.3961456550205705,-0.0663058149492157,-0.9157904557879184,0.0276588452549063,3.0,0.0
19.5384464263916,7.866077423095703,-0.8426508903503418,-0.0,-0.0,-1.0,0.0441982609591083,1.0,0.0
19.75591278076172,7.904462814331055,-0.8521051406860352,-0.0,-0.0,-1.0,0.0575425298031909,1.0,0.0
20.106128692626953,7.801193237304688,-0.8866403102874756,-0.0,-0.0,-1.0,0.0072600619740814,2.0,0.0
18.36530113220215,5.666696548461914,-0.6194579601287842,-0.8472636060166161,0.5220271183022038,-0.0981431081473225,0.0154514402682083,4.0,0.0
18.68616485595703,5.864040374755859,-0.6282730102539062,-0.0,-0.0,-1.0,0.0182495609976995,1.0,0.0
18.931074142456055,6.21504020690918,-0.6151144504547119,-0.6729221521472227,0.0144344538310169,-0.7395724600687548,0.0760337778637429,4.0,0.0
19.07966423034668,6.0357513427734375,-0.6470315456390381,-0.7899980881428897,-0.2717848430189454,-0.5495780379852766,0.1944917823430924,5.0,0.0
19.486757278442383,5.952449798583984,-0.6935625076293945,0.0216027904194183,-0.375370047714682,-0.926623249613764,0.0314965407855941,3.0,0.0
19.795852661132812,5.985141754150391,-0.7197341918945312,-0.0,-0.0,-1.0,0.0289307954324,1.0,0.0
20.03316879272461,5.956329345703125,-0.7455301284790039,0.4266228409024619,-0.903232393528011,0.0465209082238636,0.0315379950236804,3.0,0.0
17.923389434814453,6.576787948608398,-0.6277360916137695,-0.0,-0.0,-1.0,0.0162635826834967,2.0,0.0
18.823829650878903,6.725547790527344,-0.6829195022583008,-0.0,-0.0,-1.0,0.0569196256506219,1.0,0.0
19.04476547241211,6.8986053466796875,-0.6814308166503906,-0.0,-0.0,-1.0,0.0525540799605651,1.0,0.0
19.00709342956543,6.797910690307617,-0.6898739337921143,-0.0,-0.0,-1.0,0.0533401135208728,1.0,0.0
19.39244842529297,6.746389389038086,-0.7284197807312012,-0.0,-0.0,-1.0,0.0589274864009139,1.0,0.0
19.76276397705078,6.708505630493164,-0.7647476196289062,-0.0,-0.0,-1.0,0.0242616929496458,2.0,0.0
19.98369026184082,6.6847076416015625,-0.7868692874908447,-0.0,-0.0,-1.0,0.061967419868472,1.0,0.0
20.17919921875,6.764209747314453,-0.7952179908752441,-0.0,-0.0,-1.0,0.1105933193361344,2.0,0.0
18.743995666503903,8.059823989868164,-0.738722562789917,-0.1234903754103959,-0.9161718765015826,0.3812862702597201,0.0276854936199054,3.0,0.0
18.986343383789062,8.104757308959961,-0.756575345993042,-0.0,-0.0,-1.0,0.0541934021807313,1.0,0.0
19.221691131591797,8.000883102416992,-0.794668436050415,-0.0,-0.0,-1.0,0.0466334442318371,2.0,0.0
19.416175842285156,7.961254119873047,-0.8200976848602295,-0.0,-0.0,-1.0,0.1151729435809483,2.0,0.0
19.829898834228516,8.072006225585938,-0.848242998123169,-0.4767431246788728,0.4745241043706105,-0.7399613959137967,0.015457165650175,4.0,0.0
17.713459014892578,6.944845199584961,-0.661259651184082,-0.0,-0.0,-1.0,0.0127174572896395,1.0,0.0
17.84757423400879,6.91352653503418,-0.6770458221435547,-0.0,-0.0,-1.0,0.0173524894658593,1.0,0.0
18.60616683959961,7.223665237426758,-0.6956424713134766,-0.4742199733245361,-0.094923474895248,-0.8752742146401248,0.0250164902813432,5.0,0.0
18.78997039794922,7.11854362487793,-0.7280261516571045,-0.0,-0.0,-1.0,0.0236856522708086,1.0,0.0
19.12139892578125,7.12898063659668,-0.757054328918457,-0.0,-0.0,-1.0,0.0205419827069263,1.0,0.0
19.530590057373047,7.115730285644531,-0.7980051040649414,-0.0,-0.0,-1.0,0.0259960500267609,1.0,0.0
19.93157196044922,7.14790153503418,-0.8327407836914062,-0.0,-0.0,-1.0,0.034475266949381,2.0,0.0
19.948062896728516,7.080890655517578,-0.8442566394805908,-0.0,-0.0,-1.0,0.0271568590221825,2.0,0.0
18.649429321289062,7.829978942871094,-0.745136022567749,0.0512644199533717,-0.959054352683914,0.278543906493901,0.0474701467819171,4.0,0.0
18.92233657836914,7.814596176147461,-0.7718055248260498,-0.0,-0.0,-1.0,0.0377047908892643,2.0,0.0
19.246292114257812,7.859834671020508,-0.79372239112854,0.2646930271656256,-0.1080816379201495,-0.95825673016911,0.0235119133574108,4.0,0.0
19.47585105895996,7.777650833129883,-0.8291947841644287,-0.0,-0.0,-1.0,0.0107154338956005,2.0,0.0
19.742368698120117,7.821918487548828,-0.8476734161376953,0.4528234224917006,-0.5071164759104072,-0.7333374584071864,0.0692774095423597,3.0,0.0
20.140464782714844,7.841381072998047,-0.8844583034515381,-0.0,-0.0,-1.0,0.0071095676629623,1.0,0.0
19.183584213256836,5.873147964477539,-0.4388978481292724,-0.0,-0.0,-1.0,0.183176269654114,2.0,0.0
17.8369083404541,6.543067932128906,-0.6411120891571045,0.9993213395156304,-0.0320246958093164,-0.0182010781825337,0.0288043839057287,3.0,0.0
18.130043029785156,6.525449752807617,-0.6684515476226807,-0.0,-0.0,-1.0,0.0253484022793602,1.0,0.0
18.51666259765625,6.600728988647461,-0.6893203258514404,-0.0,-0.0,-1.0,0.0409415164117521,1.0,0.0
18.86897087097168,6.681182861328125,-0.707923173904419,-0.0,-0.0,-1.0,0.0531894851384483,2.0,0.0
19.263898849487305,6.726423263549805,-0.738013744354248,0.4708418900871627,-0.0030805820624987,-0.8822122332825046,0.0663486858412479,3.0,0.0
19.518285751342773,6.58074951171875,-0.7872939109802246,0.254963761434592,-0.9402027430573696,-0.2258589876505299,0.0547463640168048,3.0,0.0
19.801380157470703,6.713665008544922,-0.7940826416015625,-0.0,-0.0,-1.0,0.0235898359124291,2.0,0.0
19.70120620727539,6.651237487792969,-0.7941708564758301,-0.0,-0.0,-1.0,0.0230137497382175,1.0,0.0
20.13603973388672,6.727174758911133,-0.8271396160125732,-0.0,-0.0,-1.0,0.0985866202075644,2.0,0.0
20.204803466796875,6.718894958496094,-0.2129859924316406,-0.0,-0.0,-1.0,0.0904010266069265,2.0,0.0
18.517654418945312,7.594681739807129,-0.7442111968994141,-0.0,-0.0,-1.0,0.0793572812749395,1.0,0.0
18.76578140258789,7.717794418334961,-0.7429697513580322,-0.0,-0.0,-1.0,0.0318528946227907,2.0,0.0
19.146041870117188,5.928644180297852,-0.5181281566619873,-0.6288303657976518,-0.2798798874450442,-0.7254237517854929,0.1157713254646253,6.0,0.0
19.16393280029297,7.715635299682617,-0.7821323871612549,-0.0,-0.0,-1.0,0.0122698474282328,2.0,0.0
19.493303298950195,7.665826797485352,-0.8257176876068115,-0.0,-0.0,-1.0,0.0739355647420879,2.0,0.0
19.62641143798828,7.652133941650391,-0.8424742221832275,-0.0,-0.0,-1.0,0.0146696867001131,2.0,0.0
19.832128524780273,7.73021411895752,-0.8495750427246094,-0.0,-0.0,-1.0,0.0560727948384948,2.0,0.0
20.056032180786133,7.701970100402832,-0.8801372051239014,-0.0,-0.0,-1.0,0.0357131840523639,1.0,0.0
17.866498947143555,5.826164245605469,-0.6236357688903809,-0.0,-0.0,-1.0,0.0197633773973029,2.0,0.0
18.238014221191406,5.983965873718262,-0.6273119449615479,-0.0,-0.0,-1.0,0.0238519376584831,2.0,0.0
18.596651077270508,6.189866065979004,-0.6227266788482666,-0.0,-0.0,-1.0,0.0308601881725178,2.0,0.0
18.99388313293457,6.280569076538086,-0.6450486183166504,0.3627537399046652,0.8887572457378835,0.2802147075611654,0.0849084777736058,4.0,0.0
19.423851013183594,6.152718544006348,-0.7129116058349609,-0.0,-0.0,-1.0,0.0175711165544796,1.0,0.0
19.34575653076172,8.091200828552246,-0.8513917922973633,-0.0,-0.0,-1.0,0.1331105387846242,1.0,0.0
19.767297744750977,6.23056697845459,-0.7357597351074219,-0.0,-0.0,-1.0,0.035668574528897,2.0,0.0
19.960174560546875,6.241706848144531,-0.7551596164703369,-0.0,-0.0,-1.0,0.0380050578797221,1.0,0.0
19.751501083374023,8.133133888244629,-0.8909738063812256,-0.0,-0.0,-1.0,0.014777876673799,2.0,0.0
20.14838218688965,6.32041072845459,-0.7623295783996582,-0.0,-0.0,-1.0,0.033248107386291,2.0,0.0
20.20392608642578,6.272660255432129,-0.7774584293365479,0.7940675330874408,0.2147951136860307,-0.5686121806935118,0.0348932534830944,4.0,0.0
18.049087524414062,7.071280479431152,-0.7146458625793457,-0.0,-0.0,-1.0,0.0132492835924946,2.0,0.0
18.441648483276367,7.159987449645996,-0.7280445098876953,-0.8026799270435367,-0.1851048371515436,-0.5669577885385154,0.0240777314507874,3.0,0.0
18.838897705078125,7.189265251159668,-0.757817268371582,-0.0,-0.0,-1.0,0.0171314135687845,1.0,0.0
19.159852981567383,5.909544944763184,-0.5332119464874268,-0.7542906549767808,-0.6502298770152737,0.0908114246744376,0.134587520975486,6.0,0.0
19.232250213623047,7.229827880859375,-0.7874844074249268,-0.0,-0.0,-1.0,0.016606750337962,2.0,0.0
19.637928009033203,7.23228645324707,-0.8295164108276367,-0.0,-0.0,-1.0,0.0218373934192775,2.0,0.0
20.029321670532227,7.302032470703125,-0.8579611778259277,-0.428426305408763,-0.1568308727712382,-0.8898623366451741,0.0301725542113903,6.0,0.0
20.19598388671875,6.674736976623535,-0.4943656921386719,-0.0,-0.0,-1.0,0.0945347892105068,2.0,0.0
17.796030044555664,6.674124717712402,-0.6065647602081299,-0.0,-0.0,-1.0,0.0166005326448828,2.0,0.0
18.19681167602539,6.649151802062988,-0.6550295352935791,0.4946736709335171,0.0843079940943289,-0.8649798387343769,0.0270448675941031,3.0,0.0
18.588603973388672,6.7618818283081055,-0.6742854118347168,-0.0,-0.0,-1.0,0.0276328936573414,2.0,0.0
18.976539611816406,6.87860107421875,-0.695547342300415,-0.0,-0.0,-1.0,0.0493239328044701,1.0,0.0
19.366167068481445,6.968426704406738,-0.7265360355377197,-0.0,-0.0,-1.0,0.0323885392763796,2.0,0.0
19.77311897277832,6.946765899658203,-0.7884879112243652,-0.0,-0.0,-1.0,0.0273697458304785,2.0,0.0
20.15576934814453,7.06574821472168,-0.8186731338500977,-0.0,-0.0,-1.0,0.0290861467561461,1.0,0.0
19.278366088867188,5.977704048156738,-0.435497522354126,-0.0,-0.0,-1.0,0.1865376246910962,2.0,0.0
17.96983528137207,5.915346145629883,-0.6844029426574707,-0.0,-0.0,-1.0,0.0202038118548351,2.0,0.0
18.347427368164062,6.051600456237793,-0.6877195835113525,-0.0,-0.0,-1.0,0.0240490095426501,1.0,0.0
18.648202896118164,6.263918876647949,-0.6690983772277832,-0.0,-0.0,-1.0,0.0404267770165997,1.0,0.0
18.733369827270508,6.261488914489746,-0.6784567832946777,-0.0,-0.0,-1.0,0.0478582967185821,1.0,0.0
19.056415557861328,6.429988861083984,-0.674720287322998,-0.0,-0.0,-1.0,0.0347342517369955,2.0,0.0
19.117048263549805,6.346930503845215,-0.7001645565032959,-0.0,-0.0,-1.0,0.0233156714952131,1.0,0.0
19.551116943359375,6.251917839050293,-0.7713212966918945,-0.4389841700087249,-0.2892425997592316,-0.8506653965962598,0.015161877743617,3.0,0.0
19.906219482421875,6.3275957107543945,-0.7980728149414062,-0.0,-0.0,-1.0,0.0203106516094642,1.0,0.0
20.02977752685547,6.324853897094727,-0.8145043849945068,-0.0,-0.0,-1.0,0.0369487826220905,2.0,0.0
18.975811004638672,6.057994842529297,-0.4592063426971435,-0.0,-0.0,-1.0,0.1256401414432611,1.0,0.0
20.059051513671875,5.70317268371582,-0.7308064699172974,-0.0,-0.0,-1.0,0.0143805493931504,1.0,0.0
20.17752265930176,8.061026573181152,-0.905007004737854,-0.0,-0.0,-1.0,0.0086179798995194,1.0,0.0
20.16763687133789,5.640825271606445,-0.7242723703384399,-0.0,-0.0,-1.0,0.0144025226137961,1.0,0.0
19.770732879638672,6.097220420837402,-0.723688006401062,-0.0,-0.0,-1.0,0.035702730542445,2.0,0.0
19.929996490478516,5.878615379333496,-0.7271915674209595,0.3265953097589055,-0.8556194828282083,-0.401560461510186,0.0163082935393701,3.0,0.0
19.572444915771484,6.334589004516602,-0.7245150804519653,-0.0,-0.0,-1.0,0.0126349033905384,2.0,0.0
17.943744659423828,8.070150375366211,-0.674552321434021,-0.0,-0.0,-1.0,0.0228389788124539,2.0,0.0
17.979747772216797,7.835756301879883,-0.6720172166824341,-0.0,-0.0,-1.0,0.0177227186175883,1.0,0.0
17.975727081298828,7.372590065002441,-0.6719871759414673,0.8993693287842293,-0.3618030903091677,-0.2454248037280281,0.1025171755099772,3.0,0.0
18.112449645996097,7.046067237854004,-0.6638307571411133,-0.0,-0.0,-1.0,0.0136840253794851,2.0,0.0
18.375171661376953,6.749135971069336,-0.6483231782913208,-0.0,-0.0,-1.0,0.0132249187606767,2.0,0.0
18.565452575683594,6.428724765777588,-0.6375404596328735,-0.8732359480736213,-0.3376920248667691,-0.3513162041997855,0.0237348252312475,3.0,0.0
18.78527069091797,6.303490161895752,-0.6246755123138428,-0.0,-0.0,-1.0,0.0562838880504885,2.0,0.0
19.09351348876953,6.083132743835449,-0.6069376468658447,-0.0,-0.0,-1.0,0.1957608121240832,1.0,0.0
19.178211212158203,5.683282375335693,-0.603631854057312,-0.0,-0.0,-1.0,0.0899856204382481,1.0,0.0
17.83538246154785,6.4960246086120605,-0.6421172618865967,-0.0270358266244417,-0.0631134492972864,-0.9976400937194396,0.0366420246906042,5.0,0.0
17.74929428100586,6.370475769042969,-0.6473536491394043,-0.0,-0.0,-1.0,0.0348603013246143,1.0,0.0
17.81989097595215,5.82023811340332,-0.6425480842590332,-0.0,-0.0,-1.0,0.0197633773973028,2.0,0.0
19.025651931762695,8.11357593536377,-1.0322425365447998,-0.0,-0.0,-1.0,0.1580659436365326,1.0,0.0
19.697528839111328,7.502782344818115,-1.0411818027496338,-0.0,-0.0,-1.0,0.1145664671880715,1.0,0.0
19.5388126373291,7.629425525665283,-1.040515661239624,-0.0,-0.0,-1.0,0.1197481869492385,1.0,0.0
19.202497482299805,7.831700325012207,-1.045708417892456,-0.0,-0.0,-1.0,0.1053469886735817,1.0,0.0
18.359107971191406,8.116072654724121,-0.6861886978149414,-0.0,-0.0,-1.0,0.0261525732228325,1.0,0.0
18.081314086914062,7.92544412612915,-0.7101415395736694,-0.0,-0.0,-1.0,0.0249623064400615,2.0,0.0
18.08466529846191,7.505858421325684,-0.7241816520690918,-0.4661491280538662,-0.1933101450986604,-0.8633285459293901,0.0566355233917687,4.0,0.0
18.02031517028809,7.760011672973633,-0.7195742130279541,-0.0,-0.0,-1.0,0.0152233517077871,1.0,0.0
18.86308479309082,6.434379577636719,-0.7130008935928345,-0.0,-0.0,-1.0,0.0875172282135589,1.0,0.0
18.615406036376953,6.656073570251465,-0.7205531597137451,-0.0,-0.0,-1.0,0.033538311437361,2.0,0.0
18.27917861938477,6.928440093994141,-0.732025146484375,0.5217991153170837,0.8233562016035937,0.2231820972551587,0.0180833884291539,3.0,0.0
18.087223052978516,7.1925368309021,-0.7348442077636719,-0.0,-0.0,-1.0,0.0143916153473424,1.0,0.0
19.302968978881836,5.748690128326416,-0.7108299732208252,-0.4623343905336365,-0.8362064802689467,-0.2949671739128111,0.0327641031282145,3.0,0.0
19.145668029785156,6.078682899475098,-0.7083357572555542,0.7819556123023856,-0.6022068352563502,-0.1609109939044934,0.1662129329903311,3.0,0.0
18.946191787719727,6.242031097412109,-0.7148082256317139,-0.0,-0.0,-1.0,0.0895218074328707,1.0,0.0
19.212791442871097,7.751729965209961,-0.8408235311508179,-0.0,-0.0,-1.0,0.0225513335956346,1.0,0.0
19.101726531982425,7.984169960021973,-0.8442965745925903,-0.0,-0.0,-1.0,0.0659233012739397,1.0,0.0
19.423725128173828,7.246243000030518,-0.836347222328186,-0.0,-0.0,-1.0,0.016326669740556,1.0,0.0
19.3632869720459,7.494176387786865,-0.8347736597061157,-0.0275568353654468,0.9928272715996866,0.1163384269816451,0.0248496583501194,3.0,0.0
20.088010787963867,6.623349666595459,-0.7973114252090454,-0.0,-0.0,-1.0,0.0910464737408896,1.0,0.0
19.756160736083984,6.696273326873779,-0.8234444856643677,-0.0,-0.0,-1.0,0.0247933138865307,1.0,0.0
19.51534652709961,7.012720108032227,-0.8349968194961548,-0.0,-0.0,-1.0,0.0163792451012148,2.0,0.0
20.067964553833008,6.251091003417969,-0.8100191354751587,-0.0,-0.0,-1.0,0.0521194530303887,1.0,0.0
18.92006492614746,7.649021625518799,-0.7563151121139526,-0.0,-0.0,-1.0,0.0206368636476182,1.0,0.0
18.830299377441406,7.876391410827637,-0.7569373846054077,-0.0,-0.0,-1.0,0.0405103547621343,2.0,0.0
19.17013931274414,7.0858283042907715,-0.7530232667922974,-0.0,-0.0,-1.0,0.0180414626884951,1.0,0.0
19.008207321166992,7.33697509765625,-0.758592963218689,-0.0,-0.0,-1.0,0.0159874817544652,1.0,0.0
19.398643493652344,6.639728546142578,-0.7484999895095825,-0.0,-0.0,-1.0,0.0994493111147981,2.0,0.0
19.31582260131836,6.912935256958008,-0.7464545965194702,-0.438108810797241,-0.4258975051586626,-0.7916261649297942,0.0438005280507984,3.0,0.0
19.727746963500977,6.108635425567627,-0.7391456365585327,0.2863966610776612,-0.1924804451299221,-0.9385777702279948,0.0344352203600619,3.0,0.0
19.59027671813965,6.3200459480285645,-0.7432955503463745,-0.3983256188205802,-0.11575449978818,-0.9099107633004404,0.0121643956541612,5.0,0.0
19.9455509185791,5.673430442810059,-0.7363637685775757,-0.0,-0.0,-1.0,0.0131941168947886,2.0,0.0
19.88654899597168,5.8654465675354,-0.7344688177108765,-0.0,-0.0,-1.0,0.0200754937361435,2.0,0.0
20.115489959716797,6.621235370635986,-0.6897546052932739,-0.0,-0.0,-1.0,0.0931576633950761,2.0,0.0
19.881818771362305,5.948967456817627,-0.7319520711898804,-0.0,-0.0,-1.0,0.0294573558610151,2.0,0.0
19.925264358520508,5.7942214012146,-0.7337771654129028,0.8564418433451518,-0.2011232038494355,-0.4754543362310382,0.0193079520238111,3.0,0.0
19.85594940185547,7.8365302085876465,-0.8814932107925415,-0.0,-0.0,-1.0,0.0146204561297176,1.0,0.0
19.62197494506836,8.119626998901367,-0.887503981590271,-0.0,-0.0,-1.0,0.0347611411556623,1.0,0.0
20.195905685424805,7.431694507598877,-0.8732298612594604,-0.0,-0.0,-1.0,0.0919417711368691,1.0,0.0
19.99972152709961,7.641284942626953,-0.8791817426681519,-0.0,-0.0,-1.0,0.0377884539164209,1.0,0.0
17.854734420776367,6.462971210479736,-0.6327635049819946,-0.0754566425212117,-0.3121754071066417,-0.9470231308142524,0.0370382830625157,3.0,0.0
17.74962615966797,6.59548282623291,-0.6323601007461548,-0.0,-0.0,-1.0,0.0248285851551857,2.0,0.0
17.919557571411133,6.059730529785156,-0.651901364326477,0.2942907803148675,0.2151791029102297,-0.9311771530124734,0.0146313560716378,5.0,0.0
18.545373916625977,5.6689863204956055,-0.6322822570800781,-0.0,-0.0,-1.0,0.0135162665817066,2.0,0.0
18.276676177978516,5.814984321594238,-0.64189612865448,-0.0,-0.0,-1.0,0.0154423869490121,2.0,0.0
20.10812187194824,6.722141265869141,-0.5243021249771118,-0.0,-0.0,-1.0,0.0882504566704311,1.0,0.0
17.93891716003418,6.947953224182129,-0.690557599067688,-0.0,-0.0,-1.0,0.02060861038933,2.0,0.0
17.723669052124023,7.230771064758301,-0.6951276063919067,-0.0,-0.0,-1.0,0.0483607731416315,1.0,0.0
18.90594482421875,6.258580207824707,-0.6446348428726196,-0.0,-0.0,-1.0,0.0862567184863204,2.0,0.0
18.63888168334961,6.414331436157227,-0.6587425470352173,-0.0,-0.0,-1.0,0.0259859210379887,2.0,0.0
18.236083984375,6.573740482330322,-0.6839231252670288,-0.0,-0.0,-1.0,0.0241664074170689,2.0,0.0
18.091503143310547,6.759716510772705,-0.6868895292282104,0.1823560729314548,0.9547295698987028,-0.2350270431802596,0.015462292274119,3.0,0.0
19.07640266418457,5.794136047363281,-0.6538833379745483,-0.0,-0.0,-1.0,0.1043844628838048,1.0,0.0
19.005815505981445,5.947941780090332,-0.6519039869308472,0.2589483692114385,0.0195834241874371,-0.9656926175444396,0.1198242560070065,3.0,0.0
19.965312957763672,7.902644634246826,-0.8849737644195557,-0.0,-0.0,-1.0,0.0113582324922619,2.0,0.0
20.11714744567871,7.679999828338623,-0.8813478946685791,-0.0,-0.0,-1.0,0.0321581624532331,1.0,0.0
19.21772193908691,8.112302780151367,-0.8335180282592773,-0.9007862180419616,0.0618448693236127,0.4298364823092669,0.0985646098352302,3.0,0.0
19.567068099975582,7.636662483215332,-0.8291888236999512,-0.0,-0.0,-1.0,0.0155218198417261,2.0,0.0
19.363271713256836,7.896353244781494,-0.8327007293701172,-0.3961456550205705,-0.0663058149492157,-0.9157904557879184,0.0269521061496311,3.0,0.0
19.85540199279785,7.139866828918457,-0.8338832855224609,-0.3207485939378525,-0.494526633110727,-0.8078141795184454,0.0222322499110721,3.0,0.0
19.683815002441406,7.549095630645752,-0.8233494758605957,-0.0,-0.0,-1.0,0.0212674357087319,1.0,0.0
19.94013404846191,7.183997631072998,-0.8225831985473633,-0.0,-0.0,-1.0,0.0369933277541883,2.0,0.0
19.770111083984375,7.485386848449707,-0.8190231323242188,0.6637777958917537,0.652519059349538,-0.3655378432757396,0.0230286345963192,3.0,0.0
20.067779541015625,6.927127838134766,-0.8276834487915039,-0.966777629926763,-0.2378513341552843,0.0936363023284337,0.033208801434121,5.0,0.0
17.808765411376953,7.477462768554688,-0.6948935985565186,-0.0,-0.0,-1.0,0.0757766386235345,2.0,0.0
18.373313903808594,6.832463264465332,-0.6876516342163086,-0.0,-0.0,-1.0,0.0181251090207107,2.0,0.0
18.16438102722168,7.05958366394043,-0.6907179355621338,-0.0,-0.0,-1.0,0.0118526682792888,1.0,0.0
17.935604095458984,7.28083610534668,-0.6961914300918579,-0.0,-0.0,-1.0,0.0874666814862863,1.0,0.0
19.0687313079834,6.281708717346191,-0.6665139198303223,-0.0,-0.0,-1.0,0.0493479503031345,1.0,0.0
18.86971092224121,6.551856994628906,-0.664764404296875,-0.0,-0.0,-1.0,0.0583875764421981,2.0,0.0
18.55904960632324,6.70887565612793,-0.6801662445068359,-0.0,-0.0,-1.0,0.0248784548131614,2.0,0.0
19.422691345214844,5.85359001159668,-0.6672959327697754,-0.0,-0.0,-1.0,0.0355830256121134,1.0,0.0
19.214908599853516,6.055060386657715,-0.6700968742370605,0.3957728444558273,-0.2489473000208528,-0.8839621583550231,0.1158755776594821,3.0,0.0
20.201330184936523,6.678187370300293,-0.5469696521759033,-0.0,-0.0,-1.0,0.0858972564158932,2.0,0.0
17.894329071044922,7.342801094055176,-0.708310604095459,-0.0,-0.0,-1.0,0.1019231101609219,1.0,0.0
17.743022918701172,7.549137115478516,-0.7084939479827881,-0.0,-0.0,-1.0,0.0788813577711959,1.0,0.0
18.860172271728516,6.555635452270508,-0.6758548021316528,-0.0,-0.0,-1.0,0.0559133761048418,2.0,0.0
18.574268341064453,6.67789363861084,-0.6926016807556152,-0.0,-0.0,-1.0,0.0282035543255977,2.0,0.0
18.264074325561523,6.93009090423584,-0.7028014659881592,0.5217991153170837,0.8233562016035937,0.2231820972551587,0.01734629438433,3.0,0.0
18.048385620117188,7.13700008392334,-0.7081234455108643,-0.0,-0.0,-1.0,0.0145170603036822,1.0,0.0
19.197744369506836,6.069024085998535,-0.6817142963409424,0.2996573158212339,-0.206720742484879,-0.9313817840720924,0.1187846279487821,4.0,0.0
19.037673950195312,6.334938049316406,-0.6761611700057983,-0.8328918339233697,-0.0463918247378633,-0.551487979543759,0.0502508998369217,3.0,0.0
19.47195053100586,5.650146484375,-0.689549446105957,-0.0,-0.0,-1.0,0.0303700859938063,1.0,0.0
19.29627227783203,5.874582290649414,-0.6876537799835205,-0.7863282987673713,-0.5240734139679166,0.3271618304900867,0.0932510568298594,3.0,0.0
19.885601043701172,7.554854393005371,-0.867762565612793,-0.0,-0.0,-1.0,0.0444778179033759,1.0,0.0
19.69768524169922,7.795968055725098,-0.8691403865814209,0.6774175228577747,0.7351424580207951,0.0259049443230467,0.0724426720699933,5.0,0.0
19.433326721191406,8.025348663330078,-0.8805625438690186,-0.0,-0.0,-1.0,0.0591097748810325,2.0,0.0
20.021617889404297,7.348982810974121,-0.8697898387908936,-0.7207260098887897,0.1735832447987659,-0.6711355122439252,0.0214790197979965,6.0,0.0
20.085739135742188,6.649710655212402,-0.3534820079803467,-0.0,-0.0,-1.0,0.0904010266069265,1.0,0.0
17.779848098754883,7.318179130554199,-0.693516731262207,-0.0,-0.0,-1.0,0.0735232601441232,1.0,0.0
18.457416534423828,6.708758354187012,-0.6781803369522095,-0.0,-0.0,-1.0,0.0201240158792397,2.0,0.0
18.28217124938965,6.870338439941406,-0.6814849376678467,-0.0,-0.0,-1.0,0.0176249984635059,1.0,0.0
17.95599365234375,7.150168418884277,-0.6899054050445557,-0.0,-0.0,-1.0,0.013923594035479,1.0,0.0
19.120689392089844,6.123140335083008,-0.6662918329238892,-0.0,-0.0,-1.0,0.1728556710787361,1.0,0.0
19.02342987060547,6.352483749389648,-0.6561248302459717,-0.8328918339233697,-0.0463918247378633,-0.551487979543759,0.0488152466663681,3.0,0.0
18.62220573425293,6.578126907348633,-0.6737042665481567,-0.0383302476681483,0.104250459605546,-0.993812172286962,0.0368691317431781,4.0,0.0
19.473920822143555,5.746823310852051,-0.6670317649841309,0.0319661839396124,0.5414764928168307,-0.8401079518794733,0.0351209844672144,3.0,0.0
19.265235900878903,5.944925308227539,-0.6684752702713013,-0.5551136079620065,0.3876113407441185,-0.7359390808904979,0.1297609319946839,3.0,0.0
19.364181518554688,8.013586044311523,-0.8367214202880859,-0.4741827992993535,-0.3648779672464055,-0.8012582242116207,0.1244124807876786,3.0,0.0
19.755672454833984,7.558770179748535,-0.8232800960540771,-0.0,-0.0,-1.0,0.0534008762905317,1.0,0.0
19.51118850708008,7.810853004455566,-0.8337674140930176,-0.0,-0.0,-1.0,0.0429660385174692,2.0,0.0
20.00869369506836,7.115401268005371,-0.8285813331604004,-0.0,-0.0,-1.0,0.0287094354467077,2.0,0.0
19.89858627319336,7.352590560913086,-0.8223223686218262,-0.0,-0.0,-1.0,0.0196693817206588,1.0,0.0
20.15606689453125,6.877718925476074,-0.8308477401733398,-0.0,-0.0,-1.0,0.0860242063600608,2.0,0.0
19.168434143066406,5.920536994934082,-0.4695953130722046,-0.0,-0.0,-1.0,0.1555677306368515,2.0,0.0
19.59818649291992,7.764032363891602,-0.8356608152389526,-0.0,-0.0,-1.0,0.0739028872545346,2.0,0.0
19.385814666748047,7.98707103729248,-0.8374494314193726,-0.3790353200140813,-0.6078790518621991,-0.6977214949311343,0.087499272434264,4.0,0.0
20.02289581298828,7.346251487731934,-0.8318182229995728,0.7833801379544953,-0.3368505689585917,-0.5223478282243251,0.0109002893200529,4.0,0.0
19.778423309326172,7.605033874511719,-0.8317331075668335,-0.0,-0.0,-1.0,0.0512655984940323,1.0,0.0
20.17902946472168,7.1687774658203125,-0.8337894678115845,-0.0,-0.0,-1.0,0.0326841053067377,2.0,0.0
17.768924713134766,6.588672637939453,-0.61016845703125,0.6431062098278361,-0.3672514366871777,-0.6719678453111272,0.0248285851551858,3.0,0.0
19.122406005859375,5.870927810668945,-0.5526479482650757,-0.0,-0.0,-1.0,0.1833309626616657,1.0,0.0
18.013769149780273,6.074981689453125,-0.6303943395614624,-0.0,-0.0,-1.0,0.0142110334986937,1.0,0.0
17.857112884521484,6.269371032714844,-0.628186821937561,-0.0,-0.0,-1.0,0.0308547255746809,1.0,0.0
18.485187530517575,5.7920942306518555,-0.6133846044540405,-0.0,-0.0,-1.0,0.0163080216349544,1.0,0.0
18.220733642578125,5.961784362792969,-0.6218088865280151,-0.0,-0.0,-1.0,0.0241524744422279,2.0,0.0
18.165966033935547,8.065987586975098,-0.7378946542739868,-0.0,-0.0,-1.0,0.0328200167432259,2.0,0.0
18.523426055908203,7.680434226989746,-0.7391475439071655,-0.0,-0.0,-1.0,0.0665285689753655,2.0,0.0
18.35175132751465,7.909335136413574,-0.7337445020675659,-0.0,-0.0,-1.0,0.0380689801360552,2.0,0.0
18.975597381591797,7.159659385681152,-0.747902512550354,-0.0,-0.0,-1.0,0.0145107013901906,1.0,0.0
18.67817497253418,7.403643608093262,-0.7521027326583862,-0.0,-0.0,-1.0,0.0374864706323048,2.0,0.0
19.353858947753903,6.83109188079834,-0.7464524507522583,0.0979576819604922,-0.1407193629977132,-0.9851915313391832,0.0453230250729221,6.0,0.0
20.04977798461914,6.146729469299316,-0.7589632272720337,0.60639365323126,-0.4034522589653585,-0.6852101955287849,0.0302043771477527,3.0,0.0
19.70267105102539,6.437973976135254,-0.7574383020401001,-0.0,-0.0,-1.0,0.0127667722989624,1.0,0.0
19.497249603271484,6.568970680236816,-0.7620080709457397,-0.1488633603334999,-0.4161980313884846,-0.89700551760765,0.0595461446607648,5.0,0.0
20.171340942382812,6.030635833740234,-0.7616232633590698,0.9458291958340704,-0.3246548097722527,-0.0025272118268873,0.0257224205101712,3.0,0.0
19.794368743896484,8.111687660217285,-0.8965096473693848,-0.0,-0.0,-1.0,0.0149755625937142,2.0,0.0
19.978084564208984,7.954133987426758,-0.8989720344543457,-0.2699198038975083,0.7869587085691003,-0.5548326688932297,0.0107672383452462,3.0,0.0
17.755990982055664,7.64210319519043,-0.724355936050415,-0.0,-0.0,-1.0,0.055969170566491,2.0,0.0
18.58852195739746,7.1203413009643555,-0.705519437789917,-0.0,-0.0,-1.0,0.0258763006808733,2.0,0.0
18.211669921875,7.267867088317871,-0.7233515977859497,-0.0,-0.0,-1.0,0.0131810307057894,2.0,0.0
17.952083587646484,7.504745483398437,-0.7208142280578613,-0.3023487711381125,0.4720507071938428,-0.8281022584373655,0.0759066299737674,3.0,0.0
19.269804000854492,6.676603317260742,-0.6985155344009399,0.6619793317370627,-0.7015779266365121,0.2637646246359909,0.0586115242159571,4.0,0.0
18.96277618408203,6.7803497314453125,-0.7126963138580322,-0.0,-0.0,-1.0,0.0461001082554031,1.0,0.0
18.741050720214844,6.977331161499023,-0.7086470127105713,-0.0,-0.0,-1.0,0.0267319225389719,1.0,0.0
19.617290496826172,6.154918670654297,-0.7347149848937988,-0.0,-0.0,-1.0,0.0296601438969243,2.0,0.0
19.36984634399414,6.3646392822265625,-0.7288732528686523,-0.0,-0.0,-1.0,0.0130603621690295,1.0,0.0
20.042016983032227,5.818539619445801,-0.7440745830535889,-0.0,-0.0,-1.0,0.0194015983451163,2.0,0.0
19.80486488342285,6.053765296936035,-0.7323780059814453,-0.0,-0.0,-1.0,0.0335951036316382,1.0,0.0
20.207679748535156,6.7021636962890625,-0.6167299747467041,-0.9839885388129432,0.0579149000472233,-0.1685598405234447,0.0389090888034058,4.0,0.0
20.185997009277344,7.890608787536621,-0.9064172506332396,-0.0,-0.0,-1.0,0.006623047793223,1.0,0.0
19.87164306640625,8.08278751373291,-0.9002584218978882,-0.3973966709550749,-0.3944920275860967,-0.8285239441831689,0.0155272984564783,4.0,0.0
18.100257873535156,7.495718955993652,-0.7178092002868652,-0.1015261077492079,-0.636593213891481,-0.7644877562607603,0.0525635272243378,3.0,0.0
17.843727111816406,7.63232421875,-0.7186709642410278,-0.0,-0.0,-1.0,0.0559691705664909,1.0,0.0
18.923669815063477,7.061090469360352,-0.7198854684829712,-0.0,-0.0,-1.0,0.0292880618520061,1.0,0.0
18.65863037109375,7.185981750488281,-0.7205921411514282,-0.0,-0.0,-1.0,0.025431619340755,2.0,0.0
18.27676773071289,7.358301162719727,-0.723968505859375,-0.0,-0.0,-1.0,0.0159438552582424,2.0,0.0
19.33030128479004,6.805230140686035,-0.7301698923110962,-0.3046961753277921,-0.2930272491722546,-0.906253425915266,0.0444929490001845,3.0,0.0
19.115299224853516,6.950808525085449,-0.7229379415512085,-0.0,-0.0,-1.0,0.0268836127518476,1.0,0.0
20.087873458862305,6.376508712768555,-0.747916579246521,-0.0,-0.0,-1.0,0.0309000211114743,1.0,0.0
19.81087303161621,6.390608787536621,-0.7625778913497925,-0.0,-0.0,-1.0,0.0207482257061687,2.0,0.0
19.48809051513672,6.539205551147461,-0.7601596117019653,0.1717661582112654,-0.1136247532597666,-0.9785631315045548,0.0588024921564788,3.0,0.0
19.179733276367188,5.956202507019043,-0.3992271423339844,-0.7887600141524443,0.5199587712994288,-0.3278727134468858,0.1563515532347409,4.0,0.0
19.569673538208008,8.00582218170166,-0.8805785179138184,-0.0,-0.0,-1.0,0.0441985313552539,1.0,0.0
19.991119384765625,7.736383438110352,-0.8963158130645752,-0.0,-0.0,-1.0,0.0084530738194115,2.0,0.0
19.801666259765625,7.886490821838379,-0.8832976818084717,-0.0,-0.0,-1.0,0.0171474375924701,1.0,0.0
17.748445510864258,7.438255310058594,-0.7162783145904541,-0.0,-0.0,-1.0,0.0672889635013961,1.0,0.0
18.56308364868164,7.0844316482543945,-0.7110613584518433,-0.0,-0.0,-1.0,0.0272673689889961,2.0,0.0
18.15178871154785,7.16526985168457,-0.7277002334594727,-0.0,-0.0,-1.0,0.010156475854713,2.0,0.0
19.300518035888672,6.730141639709473,-0.7184828519821167,0.7479469077501186,-0.0352079565184647,-0.6628241267371232,0.066271800220685,5.0,0.0
19.043682098388672,6.789775848388672,-0.7252898216247559,-0.0,-0.0,-1.0,0.0534840216695887,2.0,0.0
18.77902030944824,6.918704986572266,-0.7222516536712646,-0.0,-0.0,-1.0,0.044972879605167,1.0,0.0
20.203357696533203,6.662772178649902,-0.6765484809875488,-0.0,-0.0,-1.0,0.055468255744585,1.0,0.0
19.464405059814453,6.428372383117676,-0.7571842670440674,-0.0,-0.0,-1.0,0.0213028085223874,1.0,0.0
19.310457229614254,6.509448051452637,-0.7533185482025146,-0.0,-0.0,-1.0,0.0765188134368929,1.0,0.0
19.99974250793457,6.158066749572754,-0.770906925201416,-0.1738438223711801,-0.1183563975328898,-0.9776349464838162,0.0308364626892306,3.0,0.0
19.699989318847656,6.301811218261719,-0.7639267444610596,-0.0,-0.0,-1.0,0.0247344953806434,1.0,0.0
19.650066375732425,8.025911331176758,-0.8911075592041016,-0.0,-0.0,-1.0,0.0474675458320276,2.0,0.0
17.751266479492188,7.669405937194824,-0.7403392791748047,-0.0,-0.0,-1.0,0.0553744108928055,2.0,0.0
20.12316131591797,7.712771415710449,-0.9202373027801514,-0.0,-0.0,-1.0,0.0062735804248419,2.0,0.0
19.879220962524418,7.874943733215332,-0.904325008392334,-0.0,-0.0,-1.0,0.0123431281254637,1.0,0.0
18.257659912109375,7.37989330291748,-0.7487642765045166,-0.6664357653585576,-0.7347881493539997,-0.1262923046740273,0.016157712353442,3.0,0.0
18.001680374145508,7.521254539489746,-0.7445676326751709,-0.0,-0.0,-1.0,0.0714160516154687,1.0,0.0
19.043527603149418,7.048702239990234,-0.7504045963287354,-0.0,-0.0,-1.0,0.0278937516801081,2.0,0.0
18.720746994018555,7.173395156860352,-0.7505049705505371,-0.6207493059415035,0.204828365482568,-0.7567797829401104,0.0235996051700323,3.0,0.0
19.308338165283203,6.8575029373168945,-0.76767897605896,-0.0105921684939612,0.9367215731084269,-0.3499149903046027,0.0534451417692792,4.0,0.0
20.053958892822266,6.467917442321777,-0.7966427803039551,-0.0,-0.0,-1.0,0.0391703133755629,1.0,0.0
19.683643341064453,6.536628723144531,-0.8038444519042969,-0.0,-0.0,-1.0,0.020572227610677,1.0,0.0
20.202503204345703,6.306102752685547,-0.8193659782409668,-0.4568754330604371,0.2153039795961694,-0.8630811288841218,0.0339070164558514,4.0,0.0
20.20594787597656,6.692939758300781,-0.3644580841064453,-0.5463272068165638,-0.7300696102770335,0.4105179012442115,0.0904010266069265,3.0,0.0
20.0579891204834,8.037879943847656,-0.9166908264160156,-0.0,-0.0,-1.0,0.0093217804113631,2.0,0.0
18.1751708984375,8.019887924194336,-0.7504603862762451,-0.0,-0.0,-1.0,0.035717211679618,2.0,0.0
18.662109375,7.756356239318848,-0.7573742866516113,-0.0,-0.0,-1.0,0.0633125946974686,1.0,0.0
18.431489944458008,7.892958641052246,-0.7512662410736084,-0.0,-0.0,-1.0,0.036292482344632,1.0,0.0
18.929208755493164,7.598381042480469,-0.7666754722595215,-0.0,-0.0,-1.0,0.0200210913562676,2.0,0.0
19.356578826904297,7.322866439819336,-0.7897927761077881,-0.5744371559263919,0.4865212662637659,-0.6582697101981072,0.0224804066456571,3.0,0.0
19.168535232543945,7.434610366821289,-0.780756950378418,-0.0,-0.0,-1.0,0.0285493723260552,1.0,0.0
17.78752899169922,6.625275611877441,-0.6548608541488647,-0.0,-0.0,-1.0,0.0202451427359388,2.0,0.0
19.90100860595703,6.964637756347656,-0.8283023834228516,-0.0,-0.0,-1.0,0.0284476906265768,1.0,0.0
19.609539031982425,7.106443405151367,-0.8169233798980713,-0.0,-0.0,-1.0,0.0243754875635236,1.0,0.0
18.316923141479492,6.358705520629883,-0.663902997970581,-0.0,-0.0,-1.0,0.0246435995528993,1.0,0.0
18.05721664428711,6.481319427490234,-0.6603255271911621,-0.0,-0.0,-1.0,0.02504146437767,1.0,0.0
20.14732360839844,6.851165771484375,-0.8381261825561523,0.1873200966002602,0.2018316455048318,-0.9613402978563216,0.0860242063600608,3.0,0.0
18.9106388092041,6.283144950866699,-0.6419867277145386,-0.1389559595994854,0.1323505000615316,-0.98141458437566,0.0837507858963475,3.0,0.0
18.543121337890625,6.343833923339844,-0.65269935131073,-0.0,-0.0,-1.0,0.0201772802352286,1.0,0.0
19.33354377746582,5.931600570678711,-0.6807689666748047,-0.0,-0.0,-1.0,0.0511318616302832,2.0,0.0
19.14325714111328,6.064544677734375,-0.6671395301818848,-0.0,-0.0,-1.0,0.1917645530192957,2.0,0.0
19.82569122314453,5.672601699829102,-0.7044463157653809,-0.0,-0.0,-1.0,0.0152830074103451,1.0,0.0
19.605403900146484,5.787432670593262,-0.693561315536499,-0.0,-0.0,-1.0,0.0508253971926653,2.0,0.0
20.19072723388672,6.707430839538574,-0.5070704221725464,-0.9805928984598372,-0.0899739458207136,0.1741902883733402,0.0820323752967741,3.0,0.0
17.871505737304688,8.132696151733398,-0.7210962772369385,-0.0,-0.0,-1.0,0.0575157912718881,2.0,0.0
18.18303108215332,7.947708606719971,-0.7445944547653198,-0.1308801227720217,0.6193694326717256,-0.7741136217216985,0.0310079152905973,3.0,0.0
17.928489685058594,8.000426292419434,-0.7476464509963989,-0.0,-0.0,-1.0,0.0584152194705021,2.0,0.0
18.831798553466797,7.664979457855225,-0.7791434526443481,-0.0,-0.0,-1.0,0.0304236054182885,2.0,0.0
20.015769958496097,8.134740829467773,-0.9184747934341432,-0.0,-0.0,-1.0,0.0112460807299808,2.0,0.0
19.654804229736328,7.345229148864746,-0.8327974081039429,0.3006697063651992,0.3813200975311185,-0.8741811659450935,0.0255324317541983,4.0,0.0
19.969717025756836,7.226537704467773,-0.8579350709915161,-0.0,-0.0,-1.0,0.0304761624862701,1.0,0.0
18.503129959106445,7.912970542907715,-0.7349885702133179,-0.0,-0.0,-1.0,0.0357492653080473,2.0,0.0
18.301006317138672,7.947421550750732,-0.7377451658248901,-0.0,-0.0,-1.0,0.0362117092200542,1.0,0.0
19.008556365966797,7.726934909820557,-0.757067084312439,-0.0,-0.0,-1.0,0.0156478247982307,1.0,0.0
18.742969512939453,7.794095039367676,-0.752097487449646,-0.0,-0.0,-1.0,0.0539292447413789,2.0,0.0
19.25894546508789,7.565703868865967,-0.7880939245223999,-0.6212362199913898,0.4787746414199306,-0.6203550609965446,0.0302383193425174,3.0,0.0
19.035213470458984,7.64203691482544,-0.7767702341079712,-0.0,-0.0,-1.0,0.0138462587510731,2.0,0.0
17.924747467041016,6.849699020385742,-0.6585121154785156,-0.0,-0.0,-1.0,0.0231849833055071,1.0,0.0
19.77305603027344,7.326809883117676,-0.835318922996521,0.0210377877902919,0.7904880353685222,-0.6121160653210342,0.0253259799121154,3.0,0.0
19.535219192504883,7.414198875427246,-0.8181451559066772,-0.0,-0.0,-1.0,0.020182585312573,1.0,0.0
18.723796844482425,6.651171684265137,-0.677277684211731,0.572282646441545,0.4952793867679925,-0.6535984253535062,0.0428880724000387,4.0,0.0
18.443580627441406,6.676568031311035,-0.6785396337509155,-0.833968144000743,0.3630905812149392,-0.4155266112115482,0.0195752058251619,3.0,0.0
18.15188789367676,6.69403076171875,-0.682890772819519,-0.0,-0.0,-1.0,0.0258231358625742,2.0,0.0
20.119163513183594,7.239195823669434,-0.8532921075820923,-0.0,-0.0,-1.0,0.0747236560632893,1.0,0.0
19.017101287841797,6.578573226928711,-0.6876884698867798,-0.0,-0.0,-1.0,0.0805262025539632,1.0,0.0
20.202381134033203,6.786318778991699,-0.6368098258972168,-0.0,-0.0,-1.0,0.0447076943404318,2.0,0.0
19.50755500793457,6.318415641784668,-0.7389248609542847,-0.0,-0.0,-1.0,0.0100446842350721,1.0,0.0
19.201908111572266,6.200831413269043,-0.5837926864624023,-0.0,-0.0,-1.0,0.1345987481940031,1.0,0.0
20.0821590423584,6.198661804199219,-0.7657972574234009,-0.0,-0.0,-1.0,0.0493000552893848,1.0,0.0
19.785423278808594,6.262001991271973,-0.7505289316177368,0.7033279687972395,-0.591081803611639,-0.3949076724333944,0.0335580633888389,3.0,0.0
17.96339988708496,7.99589729309082,-0.7615034580230713,-0.0,-0.0,-1.0,0.0230976615255333,2.0,0.0
18.547945022583008,7.823209762573242,-0.7651407718658447,0.0186938771008663,-0.3596136859349825,-0.93291400238564,0.0398349955124705,3.0,0.0
18.31288146972656,7.898623466491699,-0.7607684135437012,-0.0,-0.0,-1.0,0.0328862941918971,2.0,0.0
18.841354370117188,7.682283878326416,-0.7856874465942383,-0.0,-0.0,-1.0,0.031986602054538,2.0,0.0
18.199321746826172,6.942788124084473,-0.6963849067687988,-0.0,-0.0,-1.0,0.0132831676951091,1.0,0.0
17.942481994628906,6.972978591918945,-0.7019023895263672,0.9417143001195636,0.0181390093475279,0.335924326731796,0.0214961374666998,3.0,0.0
19.89870262145996,8.03848648071289,-0.9132411479949952,-0.0,-0.0,-1.0,0.0146481583401336,2.0,0.0
19.69841194152832,8.081581115722656,-0.9078450202941896,-0.0,-0.0,-1.0,0.0133254959997288,1.0,0.0
19.31752014160156,7.52381706237793,-0.8064050674438477,-0.0,-0.0,-1.0,0.0256357894572822,1.0,0.0
19.11113739013672,7.589417457580566,-0.7972183227539062,-0.0,-0.0,-1.0,0.0264411306924136,1.0,0.0
18.462657928466797,6.8255934715271,-0.7123459577560425,-0.0,-0.0,-1.0,0.0173223467299389,1.0,0.0
19.633066177368164,7.353110313415527,-0.8425431251525879,0.3013510233792937,-0.2914666285038605,-0.9078737605949658,0.0235675123009668,3.0,0.0
19.039106369018555,6.719292640686035,-0.7179406881332397,0.4101172334722801,-0.0349139780020874,-0.9113642899242392,0.0489088853326737,3.0,0.0
18.76003646850586,6.7533369064331055,-0.718206524848938,-0.0,-0.0,-1.0,0.0440238008330082,2.0,0.0
20.18625259399414,7.20277738571167,-0.8728525638580322,-0.0,-0.0,-1.0,0.0299025896532456,2.0,0.0
19.922304153442383,7.217785835266113,-0.8727250099182129,-0.0,-0.0,-1.0,0.0293024370634758,1.0,0.0
19.380859375,6.527124404907227,-0.7556254863739014,-0.0,-0.0,-1.0,0.075489488499202,2.0,0.0
19.84818458557129,6.376190185546875,-0.7854835987091064,-0.0,-0.0,-1.0,0.0270237499296764,2.0,0.0
19.62211036682129,6.413031578063965,-0.7789740562438965,-0.0,-0.0,-1.0,0.0086429676309195,1.0,0.0
20.17675018310547,6.302629470825195,-0.801933765411377,-0.1067503628715393,-0.7223656102650423,-0.6832219881804215,0.0339070164558515,6.0,0.0
17.855249404907227,5.665210723876953,-0.640932559967041,-0.0,-0.0,-1.0,0.0184626617945889,2.0,0.0
18.39251136779785,5.6567583084106445,-0.6299831867218018,-0.8472636060166161,0.5220271183022038,-0.0981431081473225,0.0158740379228947,4.0,0.0
18.10393714904785,5.6766357421875,-0.6322295665740967,-0.0,-0.0,-1.0,0.0114061737802795,1.0,0.0
19.171382904052734,5.9868669509887695,-0.5518121719360352,-0.8514637047031557,-0.3231991395659475,0.4129792679505938,0.1432074340188121,5.0,0.0
17.96207046508789,7.48005485534668,-0.7385351657867432,-0.0,-0.0,-1.0,0.11227224428649,2.0,0.0
18.369657516479492,7.341397762298584,-0.7541840076446533,-0.0,-0.0,-1.0,0.0174977727743754,1.0,0.0
17.84469223022461,6.689670085906982,-0.6663010120391846,-0.0,-0.0,-1.0,0.0154342111150211,1.0,0.0
18.78662872314453,7.246766090393066,-0.7636609077453613,-0.0,-0.0,-1.0,0.0261121060742595,1.0,0.0
18.3133602142334,6.544670581817627,-0.6856075525283813,-0.0,-0.0,-1.0,0.0218455250960083,1.0,0.0
18.080982208251953,6.618508338928223,-0.6745344400405884,-0.0,-0.0,-1.0,0.0287926669589663,1.0,0.0
19.20075798034668,7.126105308532715,-0.7876522541046143,-0.0,-0.0,-1.0,0.0092820091508339,1.0,0.0
18.93552589416504,6.5248188972473145,-0.6775500774383545,-0.0,-0.0,-1.0,0.0802757802841202,2.0,0.0
18.674816131591797,6.515711784362793,-0.6842118501663208,-0.0,-0.0,-1.0,0.0285985143203496,1.0,0.0
19.693906784057617,6.953332901000977,-0.8339004516601562,-0.0,-0.0,-1.0,0.0201140056133405,1.0,0.0
19.489076614379883,7.0172834396362305,-0.8156154155731201,-0.0,-0.0,-1.0,0.0163500166198006,2.0,0.0
19.140459060668945,6.391356945037842,-0.7102595567703247,-0.0,-0.0,-1.0,0.0379879360239118,1.0,0.0
20.06484603881836,6.887509822845459,-0.8563389778137207,-0.3123360210049811,0.4077066746919781,-0.8580334943313026,0.0342423682613666,5.0,0.0
19.52704620361328,6.231658458709717,-0.7520110607147217,-0.7434165649168144,0.3273601376430629,-0.5832385029210596,0.0159333597529566,3.0,0.0
19.168052673339844,5.988183498382568,-0.5105668306350708,-0.9326193540316428,0.1841022167042255,0.3103667415980514,0.1264864438534544,5.0,0.0
20.037038803100582,6.1594061851501465,-0.7777011394500732,0.1533668822042657,-0.1265830179784968,-0.98002823377819,0.0311649161986109,4.0,0.0
19.827281951904297,6.179278373718262,-0.7686402797698975,-0.0,-0.0,-1.0,0.0403489695839026,1.0,0.0
18.046449661254883,5.853156089782715,-0.6527681350708008,-0.0,-0.0,-1.0,0.0180150795062953,2.0,0.0
18.643657684326172,5.809131622314453,-0.6488722562789917,-0.0,-0.0,-1.0,0.0172340677734832,1.0,0.0
18.426115036010746,5.818264961242676,-0.65068519115448,-0.0,-0.0,-1.0,0.0157848626478422,1.0,0.0
18.92288398742676,5.761473655700684,-0.6587225198745728,-0.0,-0.0,-1.0,0.0598960414469656,2.0,0.0
19.173154830932617,5.911405086517334,-0.6184700727462769,-0.9478232811624075,-0.1827773778672947,-0.261196205612723,0.1461524944666831,4.0,0.0
18.883764266967773,5.854851722717285,-0.634175181388855,-0.9324076928043844,0.0252616205685991,-0.3605242639898906,0.0537373183080994,4.0,0.0
20.205650329589844,6.75025749206543,-0.4136255979537964,-0.0,-0.0,-1.0,0.0824386079047511,2.0,0.0
20.13678741455078,6.712205410003662,-0.4214087724685669,-0.5998900699811122,-0.7440237593162617,0.2942117426462677,0.0904010266069265,3.0,0.0
19.156673431396484,5.929455280303955,-0.5551226139068604,-0.9416226660663264,-0.2920646022131472,-0.1674664828681231,0.1436298294076807,7.0,0.0
20.1851806640625,6.690556526184082,-0.4106823205947876,-0.7888653413760301,-0.3728552155384694,0.4885391094082857,0.0904010266069265,4.0,0.0
20.01909828186035,6.289276123046875,-0.7925796508789062,-0.0,-0.0,-1.0,0.0472615489016952,2.0,0.0
20.172378540039062,6.033807277679443,-0.7807092666625977,0.9458291958340704,-0.3246548097722527,-0.0025272118268873,0.0245062329894825,3.0,0.0
19.684837341308594,7.181745529174805,-0.8146147727966309,-0.0,-0.0,-1.0,0.019967193242109,1.0,0.0
19.786123275756836,6.82113790512085,-0.8089346885681152,-0.9699957595171323,0.221393889408311,-0.1004637857710022,0.0412114182126895,3.0,0.0
19.998315811157227,6.498093605041504,-0.79060959815979,-0.0,-0.0,-1.0,0.0435804498713452,1.0,0.0
20.140108108520508,6.215785980224609,-0.7802391052246094,-0.0,-0.0,-1.0,0.048955276047517,1.0,0.0
19.29047393798828,8.006997108459473,-0.8500847816467285,-0.0,-0.0,-1.0,0.0656777349901298,2.0,0.0
19.4525203704834,7.634432315826416,-0.8353419303894043,-0.0,-0.0,-1.0,0.0264276256436686,1.0,0.0
19.676122665405273,7.366150856018066,-0.8128824234008789,-0.0,-0.0,-1.0,0.0265656905471125,2.0,0.0
18.48842430114746,7.489456653594971,-0.7580792903900146,-0.0,-0.0,-1.0,0.0620571596006749,2.0,0.0
18.542726516723633,7.940223693847656,-0.7516438961029053,-0.0,-0.0,-1.0,0.0331592202430678,2.0,0.0
18.572690963745117,7.6010589599609375,-0.7486462593078613,-0.0,-0.0,-1.0,0.0556788393519013,1.0,0.0
18.696556091308594,7.1501054763793945,-0.7369658946990967,-0.0,-0.0,-1.0,0.023116475550793,2.0,0.0
18.87200164794922,6.798128128051758,-0.7205142974853516,-0.0,-0.0,-1.0,0.0656741515589965,1.0,0.0
19.131610870361328,6.293805122375488,-0.6978652477264404,-0.0,-0.0,-1.0,0.0345377247199341,2.0,0.0
19.16571998596191,6.1016526222229,-0.6968560218811035,0.3949037970735954,-0.2542512247772694,-0.8828404758256811,0.1594815036497389,4.0,0.0
19.117406845092773,6.4852519035339355,-0.6970288753509521,-0.0,-0.0,-1.0,0.048376594214385,2.0,0.0
19.26866149902344,5.994585990905762,-0.6874022483825684,-0.0,-0.0,-1.0,0.0865758072540943,1.0,0.0
18.080425262451172,8.079514503479004,-0.7307637929916382,-0.1683796520977305,0.1626484751790311,-0.9722107622739956,0.0269863083086315,5.0,0.0
18.05455780029297,7.683262348175049,-0.7294026613235474,-0.0,-0.0,-1.0,0.0143903113375852,1.0,0.0
18.160892486572266,7.332726955413818,-0.7162051200866699,-0.0,-0.0,-1.0,0.0178204798428495,1.0,0.0
18.41352653503418,7.165124416351318,-0.6899075508117676,-0.4456341176024304,-0.7882857742688401,-0.4242826549767012,0.0166828889515691,4.0,0.0
18.346763610839844,6.9016032218933105,-0.6957873106002808,-0.0,-0.0,-1.0,0.0166222948359827,2.0,0.0
