x,y,z,nx,ny,nz,curvature,density,label
33.23244857788086,25.159847259521484,-2.1020350456237793,-0.0,-0.0,-1.0,0.0813013359468855,1.0,0.0
33.26665496826172,25.23727798461914,-2.103160858154297,-0.0,-0.0,-1.0,0.100261314979756,1.0,0.0
33.704566955566406,25.59228515625,-2.1598763465881348,-0.0,-0.0,-1.0,0.0675055602060037,1.0,0.0
35.04055404663086,24.037399291992188,-1.8692212104797363,-0.0,-0.0,-1.0,0.0790603287219184,1.0,0.0
35.13973617553711,23.412656784057617,-2.1278834342956543,-0.0,-0.0,-1.0,0.086391104224559,1.0,0.0
35.174705505371094,23.918397903442383,-2.1018152236938477,-0.0,-0.0,-1.0,0.1657812500513721,1.0,0.0
35.20606231689453,23.628276824951172,-2.125131130218506,-0.0,-0.0,-1.0,0.119980518686671,2.0,0.0
34.839500427246094,23.91594886779785,-2.046034336090088,-0.0,-0.0,-1.0,0.0994593688102928,2.0,0.0
35.030250549316406,24.164335250854492,-2.06265926361084,-0.0,-0.0,-1.0,0.1344335339866261,1.0,0.0
34.959754943847656,24.796884536743164,-2.0135416984558105,-0.0,-0.0,-1.0,0.1121229566619528,1.0,0.0
32.828163146972656,25.188032150268555,-2.266540288925171,-0.6046541258103889,0.6763972404669848,-0.4205712320512688,0.0474786658316263,3.0,0.0
34.809688568115234,24.194137573242188,-1.8474743366241455,-0.0,-0.0,-1.0,0.1527696785675717,2.0,0.0
33.40922164916992,23.30841827392578,-2.12980318069458,-0.0,-0.0,-1.0,0.022119176189796,2.0,0.0
33.32855224609375,23.17505645751953,-2.1219992637634277,-0.0,-0.0,-1.0,0.0236918284025548,2.0,0.0
33.564697265625,23.50670051574707,-2.1487340927124023,-0.0,-0.0,-1.0,0.0124151062603163,2.0,0.0
33.78232955932617,23.887508392333984,-2.1706552505493164,-0.0,-0.0,-1.0,0.0815943468739084,2.0,0.0
33.9736328125,24.28163146972656,-2.18833589553833,-0.0,-0.0,-1.0,0.0278555759686969,1.0,0.0
34.179054260253906,24.63625717163086,-2.212275981903076,-0.0,-0.0,-1.0,0.0313268797271341,2.0,0.0
34.21794128417969,24.621341705322266,-2.2205348014831543,-0.0,-0.0,-1.0,0.0316499690866759,2.0,0.0
34.27064514160156,25.273954391479492,-2.2032113075256348,-0.0,-0.0,-1.0,0.1334920941355698,2.0,0.0
34.55033874511719,25.097225189208984,-2.26602840423584,-0.0,-0.0,-1.0,0.0441638393311211,2.0,0.0
34.49864196777344,24.905445098876953,-2.263725757598877,-0.0,-0.0,-1.0,0.0319524406113489,1.0,0.0
34.69642639160156,25.299875259399418,-2.287132740020752,-0.0,-0.0,-1.0,0.1238807605298645,2.0,0.0
34.97032928466797,23.786802291870117,-2.0198049545288086,-0.0,-0.0,-1.0,0.2151510069874538,2.0,0.0
35.14625549316406,23.892414093017575,-2.0457892417907715,-0.0,-0.0,-1.0,0.1847230680674059,1.0,0.0
32.95210647583008,23.909385681152344,-2.149712562561035,-0.0,-0.0,-1.0,0.0183139812196325,1.0,0.0
32.87908172607422,23.69972801208496,-2.1484527587890625,-0.0,-0.0,-1.0,0.0103357429934612,2.0,0.0
33.22488784790039,24.373214721679688,-2.1770267486572266,-0.0,-0.0,-1.0,0.0826878424287174,2.0,0.0
33.1187629699707,24.127609252929688,-2.1703009605407715,-0.0,-0.0,-1.0,0.0556003471133689,2.0,0.0
33.544891357421875,24.619487762451172,-2.2290701866149902,-0.0,-0.0,-1.0,0.0137307418126802,1.0,0.0
33.82438659667969,25.04740524291992,-2.2632055282592773,-0.0,-0.0,-1.0,0.0287937633545163,2.0,0.0
33.66309356689453,24.81728744506836,-2.2422685623168945,-0.0,-0.0,-1.0,0.0126774039575908,2.0,0.0
34.15977478027344,25.464860916137695,-2.311408042907715,-0.0,-0.0,-1.0,0.0770777475130428,1.0,0.0
34.047550201416016,25.340530395507812,-2.2942519187927246,0.8803423189835216,-0.1505797058802663,0.4498034610624157,0.0738224905857069,3.0,0.0
33.170833587646484,23.54457092285156,-2.1238017082214355,-0.0,-0.0,-1.0,0.017256073344307,2.0,0.0
33.042755126953125,23.31675720214844,-2.1044511795043945,-0.0,-0.0,-1.0,0.0145363317085328,1.0,0.0
33.39787292480469,24.31390380859375,-2.1478939056396484,-0.0,-0.0,-1.0,0.1079676241630462,1.0,0.0
33.37102127075195,24.014263153076172,-2.1513333320617676,-0.0,-0.0,-1.0,0.1544532992415881,1.0,0.0
33.32286071777344,23.757932662963867,-2.14927339553833,-0.0,-0.0,-1.0,0.0166237905559927,1.0,0.0
33.79454040527344,24.844846725463867,-2.220059871673584,-0.0,-0.0,-1.0,0.0113121368182873,2.0,0.0
33.684837341308594,24.56783676147461,-2.2033753395080566,-0.0,-0.0,-1.0,0.0129918006351495,1.0,0.0
34.025901794433594,25.316518783569336,-2.259920597076416,0.8803423189835216,-0.1505797058802663,0.4498034610624157,0.0922439569604238,3.0,0.0
33.91755676269531,25.07832908630371,-2.2414445877075195,-0.0,-0.0,-1.0,0.0479944693843879,1.0,0.0
34.21868896484375,25.53667640686035,-2.297999858856201,-0.0,-0.0,-1.0,0.0852046294635205,1.0,0.0
33.994598388671875,23.33477020263672,-2.079324960708618,-0.0,-0.0,-1.0,0.1413163846886171,1.0,0.0
34.21638488769531,23.927894592285156,-2.1008999347686768,-0.0,-0.0,-1.0,0.0442570470487165,2.0,0.0
34.191978454589844,23.58340835571289,-2.110038995742798,-0.0,-0.0,-1.0,0.0279861159459607,1.0,0.0
34.57493591308594,24.36362648010254,-2.160227060317993,0.2979840212365405,-0.0074657057161744,-0.9545416629596954,0.0487623441068677,3.0,0.0
34.365814208984375,24.07465362548828,-2.126741647720337,-0.0,-0.0,-1.0,0.0288705889910972,2.0,0.0
34.80398941040039,25.26587677001953,-2.1793220043182373,-0.0,-0.0,-1.0,0.1202874907360826,2.0,0.0
34.845130920410156,24.987201690673828,-2.1966612339019775,0.9748540249653624,0.0622360895923262,-0.2139773332881037,0.1477725123273901,3.0,0.0
34.7666015625,24.543060302734375,-2.19466233253479,-0.0,-0.0,-1.0,0.0912834634373423,2.0,0.0
34.83326721191406,25.450531005859375,-2.1802680492401123,-0.0,-0.0,-1.0,0.1322934161665989,1.0,0.0
34.05055236816406,23.69156837463379,-2.1336779594421387,-0.0,-0.0,-1.0,0.0581526902659267,1.0,0.0
33.95579147338867,23.4471435546875,-2.11952543258667,-0.0,-0.0,-1.0,0.1160796209024003,2.0,0.0
34.23919677734375,24.24843978881836,-2.161956310272217,-0.0,-0.0,-1.0,0.0477428394073253,2.0,0.0
34.143531799316406,23.924072265625,-2.148359775543213,-0.0,-0.0,-1.0,0.0473716765635744,1.0,0.0
34.56330108642578,24.667768478393555,-2.226041316986084,-0.0,-0.0,-1.0,0.0288272602482327,1.0,0.0
34.47866439819336,24.467378616333008,-2.2109789848327637,-0.0,-0.0,-1.0,0.0347193928871514,1.0,0.0
34.78569412231445,25.188865661621097,-2.267372131347656,-0.0,-0.0,-1.0,0.1000066075044944,1.0,0.0
34.69331741333008,24.899858474731445,-2.2511229515075684,-0.0,-0.0,-1.0,0.0843824244119471,2.0,0.0
34.80450439453125,23.86971664428711,-2.1142194271087646,-0.0,-0.0,-1.0,0.0940599573503208,2.0,0.0
34.925880432128906,23.49207305908203,-2.147775411605835,-0.0,-0.0,-1.0,0.1097631113692401,2.0,0.0
34.84642028808594,25.08475875854492,-2.110924482345581,0.2561986016081375,0.5104603085915874,-0.8208486766064839,0.1904657631563778,5.0,0.0
34.9510498046875,24.74491500854492,-2.137028932571411,-0.0306511070818164,0.5328159271557306,-0.845675882004352,0.1421099467823766,5.0,0.0
35.029457092285156,24.443790435791016,-2.157628297805786,-0.0,-0.0,-1.0,0.1275011531906983,1.0,0.0
34.9372673034668,24.06170082092285,-2.141394853591919,-0.0,-0.0,-1.0,0.1051829252165659,1.0,0.0
34.924224853515625,23.73462677001953,-2.1432621479034424,-0.3161124402987514,0.7149251119602054,0.6236625765404364,0.1253628980389275,3.0,0.0
32.719478607177734,24.21805953979492,-2.1386232376098633,-0.0,-0.0,-1.0,0.0172734006966999,2.0,0.0
32.90077209472656,24.758869171142575,-2.168905735015869,-0.0,-0.0,-1.0,0.0694316161280182,2.0,0.0
34.945072174072266,23.86363220214844,-1.9895358085632324,0.0190020816758543,-0.0182951988573621,-0.999652042758256,0.1496369565614762,3.0,0.0
35.02960968017578,23.92460060119629,-2.0063986778259277,-0.0758310129861183,0.9948673050397148,0.0669977822954933,0.1860888465612779,3.0,0.0
35.07628631591797,23.768238067626953,-2.0208210945129395,-0.0,-0.0,-1.0,0.2046501278218917,2.0,0.0
32.720760345458984,23.275346755981445,-2.101745367050171,-0.0,-0.0,-1.0,0.0069855642282132,1.0,0.0
33.286476135253906,23.480327606201172,-2.148033380508423,-0.0,-0.0,-1.0,0.018260373819486,1.0,0.0
33.31671905517578,23.16747283935547,-2.117802858352661,-0.0,-0.0,-1.0,0.0236918284025548,2.0,0.0
32.93757247924805,24.3968505859375,-2.1774284839630127,-0.0,-0.0,-1.0,0.0584804081991021,1.0,0.0
33.16548156738281,24.06583023071289,-2.191398859024048,-0.0,-0.0,-1.0,0.114703705206942,1.0,0.0
33.2331428527832,23.732311248779297,-2.1658079624176025,-0.0,-0.0,-1.0,0.0191012969789256,2.0,0.0
32.81608581542969,24.9276123046875,-2.219926118850708,-0.0,-0.0,-1.0,0.0672463903350909,1.0,0.0
32.907203674316406,25.12676429748535,-2.2708146572113037,-0.0,-0.0,-1.0,0.0523662443829362,2.0,0.0
34.870849609375,24.02967834472656,-1.9690797328948977,0.7552536737168497,-0.1820678256563272,-0.6296373521305575,0.2298184395746251,4.0,0.0
35.15416717529297,23.813934326171875,-2.0084054470062256,-0.0,-0.0,-1.0,0.1990589830090866,1.0,0.0
34.9720458984375,24.74831771850586,-2.072838544845581,-0.0,-0.0,-1.0,0.1664359147570885,1.0,0.0
34.963951110839844,25.04960250854492,-2.106382131576538,-0.0,-0.0,-1.0,0.1841266114464218,1.0,0.0
34.73503875732422,24.061147689819336,-1.9424455165863037,-0.0,-0.0,-1.0,0.1231763555896948,1.0,0.0
34.953697204589844,23.15236473083496,-2.1187915802001953,-0.0,-0.0,-1.0,0.0481098682576073,1.0,0.0
34.57721710205078,23.98882484436035,-2.123690605163574,-0.0,-0.0,-1.0,0.0901672295767914,2.0,0.0
34.758583068847656,23.773515701293945,-2.141937732696533,-0.7275939544530134,0.4752099967560588,0.494754986257373,0.0478189550962641,3.0,0.0
34.94655990600586,23.44378662109375,-2.149609088897705,-0.0,-0.0,-1.0,0.0906819329308191,1.0,0.0
34.51411437988281,24.54067039489746,-2.1763124465942383,-0.0,-0.0,-1.0,0.0331872885655743,1.0,0.0
34.58441925048828,24.312339782714844,-2.164738178253174,-0.908846336331891,-0.3990592174528419,-0.1214498987320464,0.0560329842567938,3.0,0.0
34.64185333251953,24.864809036254883,-2.2477807998657227,-0.0,-0.0,-1.0,0.064386699520781,2.0,0.0
34.69941329956055,24.69316673278809,-2.2395706176757812,-0.0,-0.0,-1.0,0.0436451340900991,2.0,0.0
34.46525573730469,25.331453323364254,-2.2671566009521484,0.661056587564284,0.0129257382862154,-0.7502247085557903,0.0673365359271346,4.0,0.0
34.59071731567383,25.10921859741211,-2.267284393310547,-0.0,-0.0,-1.0,0.0593133096998436,2.0,0.0
33.950477600097656,23.45391082763672,-2.0871005058288574,-0.0,-0.0,-1.0,0.0785403196862225,2.0,0.0
34.07986831665039,23.211828231811523,-2.0811705589294434,-0.0,-0.0,-1.0,0.1334903821470136,1.0,0.0
33.81350326538086,24.02901840209961,-2.1465044021606445,-0.0,-0.0,-1.0,0.062345301662094,2.0,0.0
33.909420013427734,23.768217086791992,-2.1274118423461914,-0.0,-0.0,-1.0,0.0427515004018411,2.0,0.0
33.62022399902344,24.518583297729492,-2.1819982528686523,-0.0,-0.0,-1.0,0.0161143848399613,1.0,0.0
33.702919006347656,24.23877716064453,-2.1547040939331055,-0.0,-0.0,-1.0,0.0659108480342239,1.0,0.0
33.363548278808594,25.142410278320312,-2.2297682762145996,-0.0,-0.0,-1.0,0.0868259281153067,1.0,0.0
33.56499099731445,24.808292388916016,-2.218759059906006,0.1992136833786803,-0.0332258873181966,-0.9793926427978812,0.0176735677003148,3.0,0.0
33.25271224975586,25.365280151367188,-2.2436485290527344,-0.0,-0.0,-1.0,0.064812290505705,1.0,0.0
34.77958679199219,24.202648162841797,-1.7931294441223145,-0.0744164463905884,-0.9904322922711198,0.1162156053771245,0.1239696757738494,3.0,0.0
35.1424674987793,24.923717498779297,-1.9750633239746096,-0.0,-0.0,-1.0,0.1352863804144087,1.0,0.0
33.839019775390625,23.29207420349121,-2.11940336227417,-0.0,-0.0,-1.0,0.1290190012410311,1.0,0.0
33.59938049316406,23.890363693237305,-2.1735596656799316,-0.0,-0.0,-1.0,0.0951861116048969,1.0,0.0
33.70600128173828,23.657167434692383,-2.154995918273926,-0.0,-0.0,-1.0,0.057093266082436,2.0,0.0
33.05482864379883,24.5238094329834,-2.1679816246032715,-0.0,-0.0,-1.0,0.0681306236845386,2.0,0.0
33.22735595703125,24.362140655517575,-2.176605701446533,-0.0,-0.0,-1.0,0.0850845152165939,2.0,0.0
33.44805908203125,24.0710391998291,-2.171905517578125,-0.0,-0.0,-1.0,0.1125913260494653,1.0,0.0
32.91007614135742,24.719682693481445,-2.174234390258789,-0.0,-0.0,-1.0,0.0650798103601995,2.0,0.0
32.896507263183594,25.159387588500977,-2.2641892433166504,-0.0,-0.0,-1.0,0.0501264163730504,2.0,0.0
35.028690338134766,24.709373474121097,-2.070483684539795,-0.0,-0.0,-1.0,0.2191297936392224,1.0,0.0
34.85761642456055,25.112873077392575,-2.106100082397461,0.1831274133345474,0.3033818576923264,-0.9351063035337484,0.2101547125140161,4.0,0.0
34.89445495605469,24.89142608642578,-2.074131488800049,-0.6123134887516386,-0.7891797496091586,0.047618423951479,0.1015245380763531,4.0,0.0
34.879119873046875,25.50878143310547,-2.182887554168701,-0.0,-0.0,-1.0,0.1538624314833673,1.0,0.0
35.12312316894531,23.88108253479004,-1.9484620094299316,0.8128997659595281,-0.3707411152557145,0.4491603232275686,0.1428147024227179,3.0,0.0
34.56401824951172,24.14170837402344,-1.8714561462402344,-0.0,-0.0,-1.0,0.098943695760953,1.0,0.0
34.82783126831055,24.07697868347168,-1.91740083694458,-0.0,-0.0,-1.0,0.122123071810915,2.0,0.0
35.01680374145508,23.999935150146484,-1.9452815055847168,-0.0,-0.0,-1.0,0.1367297239772495,1.0,0.0
34.92087173461914,24.714982986450195,-2.048408031463623,-0.3273509580373928,-0.9389754554549736,-0.1056713978573487,0.1341327700203001,3.0,0.0
33.87129592895508,23.1549072265625,-2.130335807800293,-0.0,-0.0,-1.0,0.1287041315944844,1.0,0.0
33.61472702026367,23.70347785949707,-2.176851272583008,-0.0,-0.0,-1.0,0.0507563985567718,2.0,0.0
33.713584899902344,23.480453491210938,-2.155672550201416,-0.0,-0.0,-1.0,0.0581433274458299,1.0,0.0
33.42405700683594,23.954103469848633,-2.181748867034912,-0.0,-0.0,-1.0,0.16108326140787,1.0,0.0
32.796844482421875,24.523391723632812,-2.1511173248291016,-0.0,-0.0,-1.0,0.0628347872791667,1.0,0.0
33.119441986083984,24.32946395874023,-2.1876296997070312,-0.0,-0.0,-1.0,0.0647917963341793,1.0,0.0
34.92621612548828,24.818130493164062,-2.1670432090759277,-0.0,-0.0,-1.0,0.1718248056944323,1.0,0.0
35.12583923339844,24.580610275268555,-2.166170597076416,-0.0,-0.0,-1.0,0.1578720355757523,2.0,0.0
34.86742401123047,25.039682388305664,-2.1978306770324707,-0.6138323744179166,0.108986903146793,-0.7818770178608234,0.1728287536618525,4.0,0.0
34.81261444091797,25.42678451538086,-2.2637624740600586,0.7021463749127086,-0.6410341997167808,-0.3099445482508258,0.1419646641417153,5.0,0.0
35.07530975341797,23.852767944335938,-2.0170207023620605,-0.0,-0.0,-1.0,0.159248256324311,2.0,0.0
35.063907623291016,24.303726196289062,-2.098860740661621,-0.0,-0.0,-1.0,0.1476401157508807,1.0,0.0
34.91923904418945,24.719701766967773,-2.1461315155029297,-0.4212777114059743,0.6686850406751914,-0.612687037768682,0.1619923951506521,5.0,0.0
35.040672302246094,24.54074478149414,-2.1391077041625977,-0.0,-0.0,-1.0,0.1998464032268776,1.0,0.0
35.040279388427734,23.222702026367188,-2.153727769851685,-0.0,-0.0,-1.0,0.0277110016783843,1.0,0.0
34.81566619873047,23.71087074279785,-2.1861541271209717,-0.0,-0.0,-1.0,0.1160423189903582,2.0,0.0
34.978851318359375,23.522705078125,-2.193603754043579,-0.0,-0.0,-1.0,0.0471317313694798,1.0,0.0
34.4625244140625,24.065305709838867,-2.163076639175415,-0.0,-0.0,-1.0,0.0466226991905713,2.0,0.0
34.59552001953125,23.865203857421875,-2.1578094959259033,-0.0,-0.0,-1.0,0.082789664714196,2.0,0.0
34.412071228027344,24.451168060302734,-2.229660749435425,-0.0,-0.0,-1.0,0.0452656103235345,1.0,0.0
34.26380157470703,24.817432403564453,-2.2694132328033447,-0.0,-0.0,-1.0,0.0321553331616238,2.0,0.0
34.01469802856445,25.18225860595703,-2.28635573387146,-0.0,-0.0,-1.0,0.0532747640032055,2.0,0.0
34.62451934814453,24.23561668395996,-1.706719160079956,-0.0,-0.0,-1.0,0.1925833294089397,2.0,0.0
35.090187072753906,23.77170181274414,-2.1285414695739746,0.5566631592194212,0.6629626551911705,0.5006062774174196,0.252428906407771,3.0,0.0
34.95674133300781,23.963937759399418,-2.133251190185547,-0.0,-0.0,-1.0,0.1711227031645062,1.0,0.0
34.698848724365234,24.412134170532227,-2.161703586578369,-0.0,-0.0,-1.0,0.0723102917110828,1.0,0.0
34.80614471435547,24.33352279663086,-2.1727023124694824,-0.0,-0.0,-1.0,0.0860029799193589,1.0,0.0
34.6849250793457,24.90201187133789,-2.2677359580993652,-0.0,-0.0,-1.0,0.0837061459864669,2.0,0.0
34.80131530761719,24.72075843811035,-2.2569470405578613,-0.0,-0.0,-1.0,0.0595015294853941,2.0,0.0
34.26682662963867,25.305400848388672,-2.2552261352539062,0.8256778720556536,-0.5627798790737204,0.039177280500518,0.1789900353305985,3.0,0.0
34.522762298583984,25.171323776245117,-2.288329601287842,-0.0,-0.0,-1.0,0.0482325872759409,1.0,0.0
34.26968765258789,25.618831634521484,-2.330514430999756,-0.0,-0.0,-1.0,0.0842131826301981,1.0,0.0
34.85813522338867,23.912792205810547,-2.0959367752075195,-0.0,-0.0,-1.0,0.1954106333729902,2.0,0.0
34.59531021118164,24.224939346313477,-2.0934534072875977,-0.2479195228921793,-0.1251704935367385,-0.9606603237964416,0.0787762216250428,4.0,0.0
34.77527618408203,24.117151260375977,-1.7973124980926514,-0.6151232142223042,0.410694778286177,-0.6730180015521793,0.1279639714243339,5.0,0.0
34.665985107421875,24.19550132751465,-1.787971258163452,-0.0,-0.0,-1.0,0.1925833294089397,1.0,0.0
34.74409484863281,24.203407287597656,-1.8093864917755127,-0.0,-0.0,-1.0,0.1682987760635134,2.0,0.0
35.13638687133789,25.623634338378903,-2.0006160736083984,-0.0,-0.0,-1.0,0.1953285164445453,1.0,0.0
35.202728271484375,25.33070945739746,-2.1580581665039062,-0.0773034270895787,0.9957787847600856,-0.0494852703532386,0.1813816976046567,3.0,0.0
34.90085983276367,24.10605239868164,-1.7528045177459717,-0.2418421617510214,-0.91249986829706,-0.3299338708854262,0.1336562663185503,3.0,0.0
34.66474533081055,24.21627616882324,-1.7409064769744873,-0.1993130389382333,-0.8694192814718944,-0.4520889575228545,0.1927282368248315,3.0,0.0
35.1677131652832,24.923782348632812,-2.0348031520843506,-0.0,-0.0,-1.0,0.1207232026690621,1.0,0.0
35.158897399902344,25.327735900878903,-2.149423837661743,-0.0,-0.0,-1.0,0.1813816976046567,2.0,0.0
35.14591979980469,24.770732879638672,-1.9754157066345217,-0.0,-0.0,-1.0,0.1463348091075964,1.0,0.0
34.929351806640625,24.08850860595703,-1.725168228149414,-0.0,-0.0,-1.0,0.1349096923041567,2.0,0.0
34.69257354736328,24.20037269592285,-1.7225909233093262,-0.0,-0.0,-1.0,0.2021204876760071,2.0,0.0
34.58458709716797,24.18560028076172,-1.694054365158081,-0.0,-0.0,-1.0,0.1925833294089398,1.0,0.0
34.6214599609375,23.23361587524414,-2.096336841583252,-0.0,-0.0,-1.0,0.0658693049125036,1.0,0.0
34.94340133666992,23.322864532470703,-2.0574941635131836,-0.0,-0.0,-1.0,0.0871522730935806,1.0,0.0
35.121734619140625,24.187681198120117,-2.1203393936157227,-0.0,-0.0,-1.0,0.0700274432858973,1.0,0.0
33.44346237182617,25.343246459960938,-2.2999000549316406,-0.0,-0.0,-1.0,0.0538119706347163,1.0,0.0
33.48433303833008,25.03308868408203,-2.2614800930023193,-0.0,-0.0,-1.0,0.0209989175623976,2.0,0.0
33.409793853759766,24.58352279663086,-2.2238903045654297,-0.0,-0.0,-1.0,0.0202948061624078,1.0,0.0
33.202171325683594,23.273529052734375,-2.1204419136047363,0.1801641300931352,0.4412489250767208,-0.8791133444251785,0.0193755583104317,3.0,0.0
33.642887115478516,24.92267608642578,-2.229299306869507,-0.0,-0.0,-1.0,0.015882381415703,2.0,0.0
33.46974182128906,24.403324127197266,-2.1974008083343506,0.6442273184741776,-0.3042160460153782,-0.701729121155977,0.0449663574797968,3.0,0.0
33.5929069519043,24.107440948486328,-2.1508991718292236,-0.0,-0.0,-1.0,0.083408203235214,1.0,0.0
33.401145935058594,23.79113388061523,-2.1444506645202637,-0.0,-0.0,-1.0,0.0170483089063619,1.0,0.0
33.296241760253906,23.42875289916992,-2.1227757930755615,-0.0323906400690686,0.7610198990076441,-0.647919408376004,0.0156370696625653,3.0,0.0
34.625244140625,25.20097541809082,-2.1347856521606445,-0.0,-0.0,-1.0,0.1147450582202274,1.0,0.0
35.049041748046875,25.50771713256836,-2.1168081760406494,-0.0,-0.0,-1.0,0.1975810098314486,1.0,0.0
34.882789611816406,25.088939666748047,-2.090104818344116,0.5005738534160145,-0.0510525858046347,-0.8641871618804011,0.2155431330169557,3.0,0.0
34.896026611328125,24.76913833618164,-2.0529961585998535,-0.226878556438153,-0.037731220998307,-0.9731919007012528,0.1074210393874164,3.0,0.0
34.843505859375,24.49481964111328,-2.0296542644500732,-0.0,-0.0,-1.0,0.1332327880199296,2.0,0.0
34.94512939453125,24.595069885253903,-2.0276854038238525,-0.0,-0.0,-1.0,0.1854345052202976,2.0,0.0
34.933074951171875,24.516277313232425,-2.020609140396118,-0.0,-0.0,-1.0,0.2107578033647368,1.0,0.0
34.87134552001953,23.750904083251953,-1.946749925613403,-0.0,-0.0,-1.0,0.1469471106420742,1.0,0.0
33.786109924316406,24.883136749267575,-2.247140645980835,0.8525680726118584,-0.1633822273823134,-0.4964211209633362,0.0201979849527992,3.0,0.0
33.986358642578125,25.01272964477539,-2.2358944416046143,-0.0,-0.0,-1.0,0.0357026398831437,1.0,0.0
33.93043518066406,24.915372848510746,-2.232231616973877,-0.0,-0.0,-1.0,0.02093899840713,1.0,0.0
33.702117919921875,23.866222381591797,-2.149206161499023,-0.0,-0.0,-1.0,0.0849694234522183,1.0,0.0
33.593223571777344,23.59260368347168,-2.1353421211242676,-0.0,-0.0,-1.0,0.0154402643862986,1.0,0.0
34.826717376708984,25.14498519897461,-2.1451961994171143,-0.0,-0.0,-1.0,0.129389284577533,1.0,0.0
34.04253387451172,23.89588928222656,-2.1075596809387207,-0.0,-0.0,-1.0,0.0447893721636136,1.0,0.0
33.637184143066406,23.352996826171875,-2.105026960372925,-0.0,-0.0,-1.0,0.0186863680092562,1.0,0.0
34.815528869628906,25.061542510986328,-2.137030839920044,0.1386471165959905,0.7187631232564107,-0.6812903563872803,0.1886557544811239,4.0,0.0
34.89262771606445,24.73312759399414,-2.0901010036468506,-0.4079326199358054,-0.8057696765260439,-0.4293322792237088,0.1258661125834613,4.0,0.0
34.86851501464844,24.481908798217773,-2.064857244491577,-0.0,-0.0,-1.0,0.1620150442134313,2.0,0.0
34.503353118896484,23.701799392700195,-2.0267293453216553,-0.0,-0.0,-1.0,0.0782845641830862,1.0,0.0
34.97193908691406,23.768043518066406,-1.973064661026001,-0.0,-0.0,-1.0,0.1930105302574,2.0,0.0
34.83431625366211,23.555335998535156,-1.967977285385132,-0.0,-0.0,-1.0,0.2641126911195366,1.0,0.0
35.00619888305664,23.51827621459961,-1.941659688949585,-0.0,-0.0,-1.0,0.1586840318078476,1.0,0.0
34.647369384765625,24.170902252197266,-1.6645961999893188,-0.0,-0.0,-1.0,0.2021204876760071,1.0,0.0
33.66691589355469,25.566360473632812,-2.3123598098754883,-0.0,-0.0,-1.0,0.0780371610342749,1.0,0.0
33.667396545410156,25.37057876586914,-2.2899789810180664,0.8908962744441414,0.3491189638909929,-0.2905508169550193,0.0581223580522122,3.0,0.0
33.64543151855469,25.1424560546875,-2.266916275024414,-0.0,-0.0,-1.0,0.044625911426563,1.0,0.0
34.89202117919922,25.200193405151367,-2.120266914367676,-0.0,-0.0,-1.0,0.1394333035558059,2.0,0.0
34.22948455810547,25.218589782714844,-2.2031359672546387,-0.0,-0.0,-1.0,0.1194503548718338,1.0,0.0
33.581787109375,24.756662368774418,-2.2318811416625977,-0.0,-0.0,-1.0,0.0169808016077153,2.0,0.0
35.04139709472656,24.960792541503903,-2.074129104614258,-0.0,-0.0,-1.0,0.1210716360091534,1.0,0.0
33.6759033203125,24.4449462890625,-2.1856021881103516,-0.0,-0.0,-1.0,0.0318622226651984,1.0,0.0
33.824371337890625,24.138912200927734,-2.133194923400879,-0.0,-0.0,-1.0,0.057812203041446,1.0,0.0
33.544342041015625,23.904823303222656,-2.1442384719848633,-0.0,-0.0,-1.0,0.0761350398132342,1.0,0.0
33.3738899230957,23.580961227416992,-2.1323037147521973,-0.0,-0.0,-1.0,0.0165438287371859,1.0,0.0
33.33485412597656,23.34390640258789,-2.112922191619873,-0.0,-0.0,-1.0,0.0241546319677044,1.0,0.0
35.06673049926758,24.657470703125,-2.0357422828674316,-0.0,-0.0,-1.0,0.2075134358731527,2.0,0.0
35.15989303588867,23.942481994628903,-1.9424082040786743,-0.0,-0.0,-1.0,0.0916612789367334,2.0,0.0
34.804420471191406,23.922683715820312,-1.9847649335861208,-0.320475795981345,0.3934903947952549,-0.8616615190398127,0.1021217019573272,4.0,0.0
35.130409240722656,23.789344787597656,-1.9288610219955444,-0.0,-0.0,-1.0,0.1649131751888632,2.0,0.0
33.987083435058594,23.21206283569336,-2.0131115913391113,-0.0,-0.0,-1.0,0.1464466006853863,1.0,0.0
34.927242279052734,25.53565216064453,-2.1854984760284424,-0.0,-0.0,-1.0,0.1224393265871712,1.0,0.0
34.213924407958984,25.117218017578125,-2.2250869274139404,-0.0,-0.0,-1.0,0.0699660475608251,2.0,0.0
34.09590530395508,25.079055786132812,-2.2357163429260254,-0.0,-0.0,-1.0,0.045411866823317,1.0,0.0
35.02759552001953,25.173831939697266,-2.1294291019439697,-0.0,-0.0,-1.0,0.1421515510826603,1.0,0.0
35.07151794433594,24.683673858642575,-2.0654540061950684,-0.924820802814128,0.346635260407438,0.1566859244619598,0.1955439421255428,3.0,0.0
35.12007141113281,24.41913604736328,-2.028113842010498,-0.0,-0.0,-1.0,0.1354496925850095,1.0,0.0
34.04608917236328,24.093250274658203,-2.129948854446411,-0.0,-0.0,-1.0,0.0416719934505012,2.0,0.0
33.834171295166016,24.00072479248047,-2.1477344036102295,-0.0,-0.0,-1.0,0.0566902709560518,2.0,0.0
35.14289855957031,23.90402603149414,-1.9653141498565672,0.7919975277592115,-0.4773477832686076,0.3806297542650126,0.1492943212818965,4.0,0.0
34.94001770019531,23.890233993530273,-1.9901187419891355,0.0190020816758543,-0.0182951988573621,-0.999652042758256,0.1018224282566279,3.0,0.0
33.72359085083008,23.77421760559082,-2.1377508640289307,-0.0,-0.0,-1.0,0.0643467340011574,1.0,0.0
35.0059928894043,23.67211151123047,-1.956557035446167,0.194169881009229,0.602661108567666,-0.7740139827734726,0.175458591765919,3.0,0.0
33.67850875854492,23.280481338500977,-2.090715169906616,-0.0,-0.0,-1.0,0.0634876551141099,1.0,0.0
33.56065368652344,23.158695220947266,-2.0939362049102783,-0.0,-0.0,-1.0,0.0159044750573726,1.0,0.0
32.71050262451172,24.545188903808594,-2.1351771354675293,-0.0,-0.0,-1.0,0.0539893605220999,2.0,0.0
34.940059661865234,24.148975372314453,-1.8283039331436155,-0.0,-0.0,-1.0,0.1485373612610512,1.0,0.0
35.190887451171875,24.616823196411133,-1.4029312133789062,-0.0,-0.0,-1.0,0.0869355085306184,1.0,0.0
35.06624984741211,23.674213409423828,-1.3090953826904297,-0.0,-0.0,-1.0,0.1245521807661136,1.0,0.0
34.8480110168457,23.370826721191406,-1.30045485496521,-0.0,-0.0,-1.0,0.1364586467239794,1.0,0.0
34.93108367919922,25.418764114379883,-2.135268449783325,-0.0,-0.0,-1.0,0.1504362911692331,2.0,0.0
34.58704376220703,25.502033233642575,-2.1943001747131348,-0.0,-0.0,-1.0,0.0728557403852062,1.0,0.0
34.64692306518555,25.10899543762207,-2.140746593475342,-0.0,-0.0,-1.0,0.1431788538706344,1.0,0.0
33.94870376586914,24.831628799438477,-2.2136218547821045,-0.0,-0.0,-1.0,0.0099691014794358,1.0,0.0
34.69125747680664,24.830097198486328,-2.1027588844299316,-0.0,-0.0,-1.0,0.0961015233186205,1.0,0.0
34.745269775390625,24.50189971923828,-2.0582051277160645,-0.0,-0.0,-1.0,0.0853135557495123,1.0,0.0
34.701622009277344,24.01927947998047,-2.0117650032043457,-0.0,-0.0,-1.0,0.2080371213277695,1.0,0.0
34.696556091308594,24.28697395324707,-2.0417144298553467,-0.0,-0.0,-1.0,0.1497391905653856,1.0,0.0
34.80997848510742,23.451194763183594,-1.9344866275787351,-0.0,-0.0,-1.0,0.1344952357869899,1.0,0.0
34.84309387207031,23.671436309814453,-1.9528357982635496,-0.0,-0.0,-1.0,0.216457395480255,1.0,0.0
34.068233489990234,23.61697769165039,-2.066904306411743,-0.0,-0.0,-1.0,0.0347874148851585,1.0,0.0
33.932579040527344,23.779949188232425,-2.1047627925872803,-0.0,-0.0,-1.0,0.045463164334015,2.0,0.0
33.78859329223633,23.156970977783203,-2.0649044513702393,-0.0,-0.0,-1.0,0.1173486368921298,2.0,0.0
33.79222106933594,23.478485107421875,-2.096234083175659,-0.0,-0.0,-1.0,0.0239181803548805,1.0,0.0
34.168983459472656,25.371150970458984,-2.137375593185425,-0.0,-0.0,-1.0,0.1329040869003961,1.0,0.0
34.844791412353516,24.158113479614254,-1.9042415618896484,-0.0,-0.0,-1.0,0.1712090239375518,1.0,0.0
33.315147399902344,25.079566955566406,-2.2299530506134033,-0.0,-0.0,-1.0,0.0533958535629008,1.0,0.0
33.30178451538086,25.3681697845459,-2.263234853744507,-0.0,-0.0,-1.0,0.0591984938666106,1.0,0.0
33.3248291015625,24.43486785888672,-2.1598570346832275,-0.0,-0.0,-1.0,0.0617728066860035,1.0,0.0
33.24468231201172,24.77272605895996,-2.2076330184936523,-0.0,-0.0,-1.0,0.030175722028648,1.0,0.0
33.345558166503906,24.065242767333984,-2.1182072162628174,-0.0,-0.0,-1.0,0.1375400026475355,1.0,0.0
33.262229919433594,24.136127471923828,-2.1382758617401123,-0.0,-0.0,-1.0,0.1118203967667669,2.0,0.0
33.104122161865234,23.650495529174805,-2.113126039505005,-0.0,-0.0,-1.0,0.0177723315728928,1.0,0.0
33.06547164916992,23.870615005493164,-2.14125657081604,-0.0,-0.0,-1.0,0.01863737476661,2.0,0.0
33.00410842895508,23.414165496826172,-2.1051621437072754,-0.0,-0.0,-1.0,0.0099205289831944,1.0,0.0
35.13011169433594,25.511150360107425,-2.238943099975586,-0.0,-0.0,-1.0,0.1630177746990945,1.0,0.0
35.026832580566406,25.353851318359375,-2.234924793243408,-0.0,-0.0,-1.0,0.1307334160034848,1.0,0.0
35.10723114013672,24.384010314941406,-2.0986666679382324,-0.0,-0.0,-1.0,0.1236109380055247,2.0,0.0
34.94175338745117,24.342304229736328,-2.1209628582000732,-0.0,-0.0,-1.0,0.0854839001641689,1.0,0.0
34.62644958496094,23.819725036621097,-2.1109719276428223,-0.0,-0.0,-1.0,0.1352619265083935,2.0,0.0
34.37190246582031,23.63258934020996,-2.133009195327759,-0.0,-0.0,-1.0,0.0286607843560623,1.0,0.0
34.22541809082031,23.249771118164062,-2.1149373054504395,-0.0,-0.0,-1.0,0.0767063189302667,1.0,0.0
34.98699951171875,23.72423553466797,-2.0380454063415527,-0.0,-0.0,-1.0,0.1972895239846637,1.0,0.0
34.691932678222656,25.49548721313477,-2.113117218017578,-0.0,-0.0,-1.0,0.1245679073510576,1.0,0.0
34.26637649536133,25.354753494262695,-2.148928165435791,-0.158297394807072,-0.2607856099366614,-0.9523301950727264,0.1863262782411585,5.0,0.0
33.600460052490234,25.416749954223633,-2.250664234161377,-0.0,-0.0,-1.0,0.1144662419810075,1.0,0.0
33.53179931640625,24.969266891479492,-2.1967716217041016,-0.0,-0.0,-1.0,0.0240780121981861,1.0,0.0
33.429161071777344,24.70077133178711,-2.174567222595215,-0.0,-0.0,-1.0,0.0182038793179902,1.0,0.0
33.42314147949219,24.09693717956543,-2.0937671661376953,-0.0,-0.0,-1.0,0.1424924578636557,1.0,0.0
33.40778350830078,24.230384826660156,-2.1139678955078125,-0.0,-0.0,-1.0,0.1437078418696167,2.0,0.0
33.14451217651367,23.961645126342773,-2.119279384613037,-0.0,-0.0,-1.0,0.0251350247340569,1.0,0.0
33.015193939208984,23.498558044433594,-2.08108901977539,-0.0,-0.0,-1.0,0.0097839135464966,1.0,0.0
35.05582046508789,25.224605560302734,-2.023829936981201,-0.0,-0.0,-1.0,0.1114681778684996,1.0,0.0
34.97783279418945,24.822843551635746,-1.972722411155701,-0.0,-0.0,-1.0,0.0999677161152921,1.0,0.0
34.93564987182617,24.253742218017575,-1.8938621282577517,-0.0,-0.0,-1.0,0.1445363883097848,1.0,0.0
34.87937927246094,24.027830123901367,-1.8690730333328247,-0.8901876085729753,-0.2656396898150976,-0.3701372404096435,0.0723957847925413,3.0,0.0
34.61428451538086,24.035511016845703,-1.90803062915802,-0.0,-0.0,-1.0,0.0762488454945708,1.0,0.0
35.151390075683594,24.258773803710938,-2.166084051132202,-0.0,-0.0,-1.0,0.0663303255344635,2.0,0.0
34.8908805847168,23.713459014892575,-2.1358978748321533,-0.5420584375443737,0.8010863855142152,0.2538370603964721,0.0847518977190184,4.0,0.0
34.671165466308594,23.644683837890625,-2.1684508323669434,-0.0,-0.0,-1.0,0.0518873071073025,2.0,0.0
34.61824035644531,23.40338897705078,-2.1452536582946777,-0.0,-0.0,-1.0,0.0983087251414101,1.0,0.0
33.5443115234375,25.57369613647461,-2.330852508544922,-0.0,-0.0,-1.0,0.0621250763358497,2.0,0.0
33.488346099853516,25.123432159423828,-2.277033805847168,-0.0,-0.0,-1.0,0.0771666494081023,1.0,0.0
33.49091720581055,25.37754821777344,-2.312580108642578,-0.0,-0.0,-1.0,0.0483396679374873,1.0,0.0
33.44609451293945,25.003677368164062,-2.2681221961975098,-0.0,-0.0,-1.0,0.018755966216395,2.0,0.0
34.28564453125,25.342330932617188,-2.163144111633301,-0.2654660845495895,-0.4045061965979551,-0.8751585541304879,0.1773173965362082,6.0,0.0
33.376068115234375,24.79991149902344,-2.2530946731567383,-0.0,-0.0,-1.0,0.0192602645386317,2.0,0.0
33.3764762878418,24.839920043945312,-2.258497714996338,-0.8870780613733549,-0.0528799426248494,-0.4585806632404848,0.0208823339827655,3.0,0.0
34.868072509765625,24.104063034057617,-1.8768044710159304,-0.0,-0.0,-1.0,0.1167692905813407,2.0,0.0
33.37887191772461,24.475082397460938,-2.208014488220215,-0.0,-0.0,-1.0,0.0405132488449212,1.0,0.0
33.28972244262695,24.16687774658203,-2.183946132659912,-0.0,-0.0,-1.0,0.1152130729394604,1.0,0.0
33.129661560058594,24.00640869140625,-2.194225311279297,-0.0,-0.0,-1.0,0.0585808348016992,1.0,0.0
33.08293914794922,23.67955017089844,-2.1613235473632812,-0.0,-0.0,-1.0,0.0166907640092768,1.0,0.0
33.07712173461914,23.87248420715332,-2.1872782707214355,-0.5189672718161371,0.8492864509578725,-0.096878764458973,0.0186209152284299,3.0,0.0
33.01752471923828,23.349388122558594,-2.1329474449157715,-0.0,-0.0,-1.0,0.0109219860523685,1.0,0.0
34.26311492919922,25.33660888671875,-2.1638078689575195,-0.158297394807072,-0.2607856099366614,-0.9523301950727264,0.1897381185922291,5.0,0.0
33.583251953125,25.58721160888672,-2.323540687561035,-0.0,-0.0,-1.0,0.0624806683677728,2.0,0.0
33.518310546875,25.1950626373291,-2.268193244934082,-0.0,-0.0,-1.0,0.0821345109094706,1.0,0.0
33.36529541015625,24.85243225097656,-2.238312244415283,-0.0,-0.0,-1.0,0.0192744125286673,2.0,0.0
33.284725189208984,24.512638092041016,-2.197174072265625,-0.0,-0.0,-1.0,0.0337534869184666,2.0,0.0
35.111778259277344,23.345653533935547,-2.134828567504883,-0.0,-0.0,-1.0,0.0344076101581888,1.0,0.0
33.091487884521484,24.160158157348633,-2.176690101623535,-0.0,-0.0,-1.0,0.0549915579304487,2.0,0.0
34.891273498535156,23.17455291748047,-2.145284652709961,-0.0,-0.0,-1.0,0.0145821377835175,1.0,0.0
32.883514404296875,23.784130096435547,-2.157606601715088,-0.0,-0.0,-1.0,0.0165246835687139,2.0,0.0
32.77840042114258,23.38554573059082,-2.117401123046875,-0.0,-0.0,-1.0,0.0052199571116834,2.0,0.0
34.8383903503418,24.11201286315918,-1.852805495262146,-0.4844813851681203,0.5587062186424044,-0.6731457113254788,0.0928940426936225,4.0,0.0
35.11690902709961,25.560819625854492,-2.3047332763671875,-0.0,-0.0,-1.0,0.1394904666054768,2.0,0.0
34.93952178955078,25.493650436401367,-2.3189687728881836,-0.0,-0.0,-1.0,0.1231023875874084,1.0,0.0
35.01659393310547,25.450475692749023,-2.296969413757324,-0.0,-0.0,-1.0,0.1310576695391166,1.0,0.0
35.06374740600586,25.063766479492188,-2.205594539642334,-0.0,-0.0,-1.0,0.1945408920934883,1.0,0.0
34.94475555419922,24.67020034790039,-2.1413168907165527,-0.5218631202637842,0.1447595429619559,-0.8406566233784116,0.15755151369932,3.0,0.0
34.61653518676758,24.896913528442383,-2.246037006378174,-0.0,-0.0,-1.0,0.0606729596629984,2.0,0.0
34.96432113647461,24.199256896972656,-2.0382862091064453,-0.0,-0.0,-1.0,0.190304163271438,1.0,0.0
34.42905807495117,24.27973175048828,-2.1510396003723145,-0.0,-0.0,-1.0,0.0381949190505812,1.0,0.0
35.00367736816406,23.885744094848633,-1.9656866788864136,-0.0,-0.0,-1.0,0.1016012104631935,2.0,0.0
34.73777389526367,23.987876892089844,-2.0347185134887695,-0.0,-0.0,-1.0,0.19319353087915,2.0,0.0
34.3250732421875,24.10367202758789,-2.134246826171875,-0.0,-0.0,-1.0,0.0318578023970945,2.0,0.0
34.13018035888672,24.017574310302734,-2.1535258293151855,-0.0,-0.0,-1.0,0.0379387779688185,2.0,0.0
33.87141418457031,23.79081153869629,-2.1585450172424316,-0.0,-0.0,-1.0,0.12121513583044,1.0,0.0
33.673580169677734,23.39006805419922,-2.1201348304748535,-0.0,-0.0,-1.0,0.0591422815592108,1.0,0.0
33.504032135009766,23.26915168762207,-2.1317505836486816,-0.0,-0.0,-1.0,0.0142645505043806,1.0,0.0
33.39179992675781,23.337326049804688,-2.1006128787994385,-0.0,-0.0,-1.0,0.0225654379562365,2.0,0.0
34.9850959777832,23.98302841186523,-2.0946686267852783,-0.0,-0.0,-1.0,0.1659780656250819,1.0,0.0
35.15031433105469,23.579004287719727,-2.0424625873565674,-0.0,-0.0,-1.0,0.1497027068490039,2.0,0.0
35.12865447998047,24.036869049072266,-2.1158764362335205,-0.0,-0.0,-1.0,0.1164003146806542,1.0,0.0
35.07892990112305,24.536380767822266,-2.1943514347076416,-0.0,-0.0,-1.0,0.1396966432725697,1.0,0.0
35.01023864746094,25.092144012451172,-2.28120493888855,-0.0,-0.0,-1.0,0.2240704205550439,1.0,0.0
35.02253723144531,24.887205123901367,-2.247985601425171,-0.0,-0.0,-1.0,0.1162773512213285,1.0,0.0
34.99790954589844,25.234859466552734,-2.3040764331817627,-0.0,-0.0,-1.0,0.1146345260322429,1.0,0.0
34.904666900634766,23.865196228027344,-1.9903324842453003,-0.037893424628142,0.5233876354903924,-0.8512517085948944,0.1522767177953086,4.0,0.0
35.17289733886719,23.695940017700195,-1.992289662361145,-0.0,-0.0,-1.0,0.2022738186764725,1.0,0.0
34.6558952331543,24.161338806152344,-2.010204315185547,-0.0,-0.0,-1.0,0.2296356489199959,1.0,0.0
34.907859802246094,24.542137145996097,-2.092672824859619,-0.0,-0.0,-1.0,0.2169553666496641,1.0,0.0
35.064857482910156,24.35915756225586,-2.0804848670959473,-0.0,-0.0,-1.0,0.13216944788837,2.0,0.0
34.78694152832031,24.96250343322754,-2.144904136657715,-0.0,-0.0,-1.0,0.1229797079892895,1.0,0.0
34.25182342529297,25.331993103027344,-2.151266098022461,-0.158297394807072,-0.2607856099366614,-0.9523301950727264,0.1897381185922293,5.0,0.0
34.665321350097656,25.51866912841797,-2.2188472747802734,-0.0,-0.0,-1.0,0.1341579336385362,1.0,0.0
34.751190185546875,25.35495376586914,-2.201702117919922,-0.0,-0.0,-1.0,0.1739805737924847,2.0,0.0
33.7706298828125,23.225378036499023,-2.090916156768799,-0.0,-0.0,-1.0,0.1280151123989456,1.0,0.0
33.35820770263672,23.700834274291992,-2.1500039100646973,-0.0,-0.0,-1.0,0.0162761301581019,1.0,0.0
33.63151550292969,23.42502784729004,-2.118170738220215,-0.0,-0.0,-1.0,0.0162279178197346,1.0,0.0
32.90380859375,23.87905502319336,-2.1496729850769043,-0.0,-0.0,-1.0,0.0216104640350741,1.0,0.0
33.21342468261719,23.79320526123047,-2.1567225456237793,-0.0,-0.0,-1.0,0.0232532804021523,1.0,0.0
34.816734313964844,24.12609481811523,-1.822213649749756,-0.659776798941951,-0.3787065887304499,-0.6490576979206538,0.1084865629566591,6.0,0.0
34.114009857177734,23.452606201171875,-2.1081972122192383,-0.0,-0.0,-1.0,0.0956100743359534,1.0,0.0
34.326393127441406,23.58614158630371,-2.127957344055176,-0.0,-0.0,-1.0,0.0362386402469131,1.0,0.0
34.518104553222656,23.684505462646484,-2.141414165496826,-0.0,-0.0,-1.0,0.0441067100424426,1.0,0.0
34.76296615600586,23.795249938964844,-2.156367540359497,-0.0,-0.0,-1.0,0.045921287518176,2.0,0.0
35.08159637451172,23.790063858032227,-2.143306016921997,0.5566631592194212,0.6629626551911705,0.5006062774174196,0.2068221061652896,3.0,0.0
35.18386459350586,23.801671981811523,-2.1424806118011475,-0.0,-0.0,-1.0,0.1730680413333631,1.0,0.0
34.82592010498047,24.25792694091797,-1.6954936981201172,-0.0,-0.0,-1.0,0.1412564376353073,1.0,0.0
34.06659698486328,25.240432739257812,-2.1444520950317383,-0.0,-0.0,-1.0,0.0656573687670591,1.0,0.0
34.6728401184082,23.812923431396484,-1.975079894065857,-0.0,-0.0,-1.0,0.1808362307844748,1.0,0.0
32.74761962890625,23.804443359375,-2.1335678100585938,-0.0,-0.0,-1.0,0.0153716431660574,1.0,0.0
33.824825286865234,23.214679718017575,-2.0511162281036377,-0.0,-0.0,-1.0,0.1280151123989456,1.0,0.0
34.87971115112305,23.737987518310547,-2.3208770751953125,-0.0,-0.0,-1.0,0.0992666034402632,1.0,0.0
34.11252975463867,25.57685661315918,-2.195012092590332,-0.0,-0.0,-1.0,0.0815936079740554,1.0,0.0
33.9423713684082,25.54750061035156,-2.1899003982543945,-0.0,-0.0,-1.0,0.0669944041245057,1.0,0.0
34.00008010864258,25.485803604125977,-2.378772735595703,-0.0,-0.0,-1.0,0.0697785018110946,1.0,0.0
34.34745407104492,24.4903564453125,-2.2602272033691406,-0.0,-0.0,-1.0,0.0501846790348433,2.0,0.0
33.64802932739258,25.27307891845703,-2.3599157333374023,-0.0,-0.0,-1.0,0.0447740270715873,1.0,0.0
33.25831985473633,25.378461837768555,-2.3783373832702637,-0.0,-0.0,-1.0,0.0459776307718004,1.0,0.0
33.09943389892578,25.52004623413086,-2.397243022918701,-0.0,-0.0,-1.0,0.0600127655394158,1.0,0.0
33.407371520996094,25.09931373596191,-2.3439488410949707,-0.0,-0.0,-1.0,0.0546473746663614,1.0,0.0
32.880455017089844,25.59964942932129,-2.410223484039306,-0.0,-0.0,-1.0,0.0485279461519295,1.0,0.0
34.955997467041016,23.78774642944336,-1.988386631011963,-0.636101195093282,-0.7234105916841808,-0.268425754055087,0.162911806228573,3.0,0.0
34.69975280761719,23.93437957763672,-1.988243818283081,-0.0,-0.0,-1.0,0.1599531221187622,2.0,0.0
34.7577018737793,24.114683151245117,-1.777807593345642,-0.0,-0.0,-1.0,0.1284498330791,2.0,0.0
34.812965393066406,23.26983070373535,-2.140185832977295,-0.0,-0.0,-1.0,0.0651359441537213,2.0,0.0
35.06629943847656,23.961225509643555,-1.9604783058166504,0.1264202160603171,0.0994273953158534,-0.986981317975152,0.1755680687631187,5.0,0.0
34.967506408691406,24.64401054382324,-2.050954580307007,-0.0,-0.0,-1.0,0.1557866876812486,2.0,0.0
34.78940200805664,24.016237258911133,-1.9530212879180908,-0.0,-0.0,-1.0,0.1590027043397093,2.0,0.0
35.045413970947266,23.861347198486328,-1.963356137275696,0.3792768457051673,0.5799713718692667,-0.7209592791025162,0.0957380424678824,3.0,0.0
34.913185119628906,24.749242782592773,-2.114187717437744,-0.7483813609335703,0.5553590556458413,-0.3626315732522159,0.1190317325816464,6.0,0.0
34.85624313354492,25.06476593017578,-2.168182849884033,-0.0,-0.0,-1.0,0.1886557544811239,2.0,0.0
34.81792068481445,25.425683975219727,-2.23046875,0.9244837378267072,0.0038855578253546,-0.3812016801305385,0.1417991438456906,4.0,0.0
34.75328826904297,24.00216293334961,-1.9837936162948608,0.1581991609939231,-0.954945016487527,0.2511036458246986,0.1573535027156524,3.0,0.0
34.51677322387695,25.375213623046875,-2.219602108001709,0.6522447340099874,0.0934723628888211,-0.7522231878453505,0.0749262220621202,3.0,0.0
34.21324157714844,25.364900588989254,-2.2161898612976074,0.6286205965065355,0.7112768005920465,-0.3145178191888498,0.1128847015146899,4.0,0.0
33.21705627441406,25.58055305480957,-2.2534842491149902,-0.0,-0.0,-1.0,0.0372667720016341,2.0,0.0
32.87677001953125,25.63094139099121,-2.263780117034912,-0.0,-0.0,-1.0,0.0437926679688895,1.0,0.0
35.08847427368164,23.75758934020996,-2.0765204429626465,0.5070887364917614,-0.5584717931754962,-0.6564832591548203,0.2689611563052471,3.0,0.0
34.77405548095703,23.91526222229004,-2.083075523376465,-0.7899625062853275,0.6118816488186393,0.0394979303557482,0.1729804952560696,3.0,0.0
34.5660400390625,24.0430965423584,-2.0916748046875,-0.0,-0.0,-1.0,0.1120836403280266,2.0,0.0
34.361942291259766,24.153953552246097,-2.098147392272949,-0.0,-0.0,-1.0,0.0299701531415434,1.0,0.0
34.23650360107422,24.562847137451172,-2.158402442932129,-0.0,-0.0,-1.0,0.0430766468070519,1.0,0.0
34.14996337890625,25.025251388549805,-2.2300567626953125,0.9612272603011648,-0.232552962318726,-0.1481933661494404,0.0459166213626663,3.0,0.0
33.840213775634766,25.046751022338867,-2.217278480529785,-0.0,-0.0,-1.0,0.0293088110513103,2.0,0.0
33.673072814941406,25.377830505371097,-2.2638607025146484,0.8908962744441414,0.3491189638909929,-0.2905508169550193,0.0581223580522121,3.0,0.0
33.3679313659668,25.2429256439209,-2.226067543029785,-0.0,-0.0,-1.0,0.1105018449423422,1.0,0.0
32.984188079833984,24.58102798461914,-2.096254348754883,-0.0,-0.0,-1.0,0.0774187682174415,1.0,0.0
32.9775276184082,25.4199275970459,-2.237123489379883,-0.0,-0.0,-1.0,0.0469442797984489,1.0,0.0
32.72187805175781,24.567943572998047,-2.0813841819763184,-0.0,-0.0,-1.0,0.0562689022870423,1.0,0.0
34.13833236694336,24.88304901123047,-2.264956474304199,0.0712996794738784,0.4774356300857142,-0.8757691332946024,0.0322343799752244,3.0,0.0
34.06547546386719,24.891357421875,-2.2632040977478027,-0.0,-0.0,-1.0,0.0252382942764673,2.0,0.0
35.06586837768555,23.781177520751953,-2.114048480987549,0.4618088355112777,0.8241033300470061,0.3280035073732485,0.1763820900608214,4.0,0.0
34.86505889892578,23.904796600341797,-2.1254801750183105,-0.0,-0.0,-1.0,0.2132577344440316,2.0,0.0
34.51166534423828,24.027667999267575,-2.129563808441162,-0.0,-0.0,-1.0,0.0821236880177761,2.0,0.0
34.29621124267578,24.289031982421875,-2.1657681465148926,-0.0,-0.0,-1.0,0.0425046157540776,1.0,0.0
34.13124465942383,24.43252182006836,-2.1837382316589355,-0.0,-0.0,-1.0,0.0485722467387435,2.0,0.0
33.985069274902344,24.662349700927734,-2.218465805053711,-0.0,-0.0,-1.0,0.0091619654990978,1.0,0.0
33.746604919433594,24.78961181640625,-2.2309141159057617,-0.0,-0.0,-1.0,0.0101400818112498,1.0,0.0
33.54201889038086,24.90978240966797,-2.244065284729004,-0.0,-0.0,-1.0,0.0231334377133664,1.0,0.0
33.24073791503906,24.28830337524414,-2.1187148094177246,-0.3726643321206723,-0.6797002965754341,-0.6317664144288774,0.0975453405655005,3.0,0.0
33.102783203125,24.53251266479492,-2.157438278198242,-0.0,-0.0,-1.0,0.0674539078167649,2.0,0.0
33.109737396240234,24.862407684326172,-2.2178397178649902,-0.0,-0.0,-1.0,0.0603748059513795,1.0,0.0
32.741573333740234,24.53152084350586,-2.143066883087158,-0.0,-0.0,-1.0,0.0628347872791667,2.0,0.0
33.135711669921875,23.21961975097656,-2.0948169231414795,-0.0,-0.0,-1.0,0.0195853865533356,1.0,0.0
32.79680633544922,23.291549682617188,-2.083355188369751,-0.0,-0.0,-1.0,0.0088300113189514,2.0,0.0
34.904205322265625,24.664152145385746,-2.117185592651367,-0.0657885004589002,-0.9362195803778348,-0.3452025065443765,0.15755151369932,3.0,0.0
34.8509521484375,24.984439849853516,-2.1709437370300293,0.9748540249653624,0.0622360895923262,-0.2139773332881037,0.1359432719081852,3.0,0.0
34.81297302246094,25.3955135345459,-2.2426700592041016,0.9244837378267072,0.0038855578253546,-0.3812016801305385,0.1085137689016657,4.0,0.0
34.44331741333008,25.343286514282227,-2.207639217376709,-0.0,-0.0,-1.0,0.0835168269426038,1.0,0.0
35.060394287109375,23.82995223999023,-1.9807308912277224,0.8728579951631412,0.1616887004864572,0.4604081715334578,0.127797439405665,3.0,0.0
34.83027267456055,23.955116271972656,-1.985050082206726,0.2502189906913065,-0.2077652617144313,-0.9456342066159396,0.1345012220066289,3.0,0.0
34.80039978027344,24.125110626220703,-2.0130414962768555,-0.0,-0.0,-1.0,0.1993865623711126,1.0,0.0
34.849647521972656,24.99888038635254,-2.264677047729492,-0.0,-0.0,-1.0,0.1578913260980815,1.0,0.0
34.72618103027344,24.575756072998047,-2.169872283935547,-0.0,-0.0,-1.0,0.073300294249929,1.0,0.0
34.632240295410156,25.156402587890625,-2.283973217010498,-0.0,-0.0,-1.0,0.0781505488094463,1.0,0.0
34.17269515991211,25.21188735961914,-2.268810749053955,-0.0,-0.0,-1.0,0.0626995544991508,1.0,0.0
33.9762077331543,25.33875846862793,-2.2846882343292236,-0.0,-0.0,-1.0,0.0624938151734608,2.0,0.0
33.70114517211914,25.62839126586914,-2.3320577144622803,-0.0,-0.0,-1.0,0.0708111465849557,1.0,0.0
33.38124084472656,25.51289749145508,-2.2916150093078613,-0.0,-0.0,-1.0,0.0378743811801544,2.0,0.0
33.049808502197266,25.58431625366211,-2.29177188873291,-0.0,-0.0,-1.0,0.0566079042507772,1.0,0.0
32.72734451293945,25.548301696777344,-2.269906759262085,-0.0,-0.0,-1.0,0.0377333984768957,1.0,0.0
35.12940216064453,23.728046417236328,-2.0259199142456055,0.867108251592471,0.2466425978702613,-0.4327709659115968,0.2030420102213562,3.0,0.0
34.890506744384766,23.901779174804688,-2.043973922729492,-0.7681645802369035,0.3706971292423625,-0.5220218539878708,0.20117989567824,3.0,0.0
34.7108268737793,24.15886116027832,-2.083707571029663,-0.0,-0.0,-1.0,0.1186876626394208,1.0,0.0
34.567657470703125,24.22542953491211,-2.0879435539245605,-0.2479195228921793,-0.1251704935367385,-0.9606603237964416,0.0816593203105127,4.0,0.0
35.08539581298828,24.276561737060547,-2.052523136138916,-0.0,-0.0,-1.0,0.1167197631445421,1.0,0.0
34.93691635131836,24.75474548339844,-2.1429555416107178,-0.0306511070818164,0.5328159271557306,-0.845675882004352,0.1421099467823766,5.0,0.0
34.846923828125,25.150390625,-2.2217371463775635,-0.0,-0.0,-1.0,0.1386061775326809,1.0,0.0
34.73667907714844,25.519792556762695,-2.294919013977051,-0.0,-0.0,-1.0,0.1645117941885674,1.0,0.0
34.281532287597656,25.329082489013672,-2.224968433380127,0.8020713900154272,-0.3651535899076484,-0.4725932088977555,0.1957778117804784,5.0,0.0
34.485633850097656,25.37236976623535,-2.2469561100006104,0.663835168598256,0.0151538972320173,-0.7477253695915407,0.051053185403779,5.0,0.0
33.81726837158203,25.13862037658691,-2.1556506156921387,-0.0,-0.0,-1.0,0.0425404416197295,1.0,0.0
35.12916946411133,23.86737060546875,-1.9707226753234863,0.8128997659595281,-0.3707411152557145,0.4491603232275686,0.1624770272590558,3.0,0.0
34.85809326171875,24.00039291381836,-1.977752447128296,-0.8210410788609682,0.4583955884457196,-0.3402426065564391,0.1866390779099636,3.0,0.0
