x,y,z,nx,ny,nz,curvature,density,label
35.95177459716797,-18.31334114074707,0.4103529453277588,-0.0,-0.0,-1.0,0.1532069713629089,1.0,1.0
36.3277473449707,-18.451570510864254,0.3899827003479004,-0.0,-0.0,-1.0,0.1942141270558878,2.0,1.0
37.143409729003906,-18.611650466918945,0.3476102352142334,-0.0,-0.0,-1.0,0.0943574873142846,2.0,1.0
37.34226989746094,-18.65806770324707,0.3368964195251465,-0.0,-0.0,-1.0,0.1022423016564305,2.0,1.0
35.45685958862305,-18.22596549987793,0.4346635341644287,-0.0,-0.0,-1.0,0.2067478187823332,1.0,1.0
35.75312805175781,-18.1550350189209,0.4227628707885742,-0.0,-0.0,-1.0,0.1405833846305052,1.0,1.0
35.35417938232422,-18.321292877197266,0.3255314826965332,-0.0,-0.0,-1.0,0.2095624198073014,1.0,1.0
36.63270950317383,-18.444610595703125,0.2526477575302124,-0.0,-0.0,-1.0,0.1069988330075748,1.0,1.0
37.688873291015625,-18.670448303222656,0.1862748861312866,-0.0,-0.0,-1.0,0.1377910063529573,1.0,1.0
35.57114028930664,-18.07523727416992,0.3203904628753662,-0.0,-0.0,-1.0,0.2473269151169521,2.0,1.0
35.935630798339844,-18.165355682373047,0.2983878850936889,-0.0,-0.0,-1.0,0.0952634835420501,1.0,1.0
36.23493576049805,-18.09069442749023,0.2839101552963257,-0.0,-0.0,-1.0,0.2500662892594871,2.0,1.0
36.21891784667969,-17.873592376708984,0.2904295921325683,-0.2861161870944255,-0.9380920829025828,-0.1952454134622408,0.2415890105261461,3.0,1.0
37.657108306884766,-16.993724822998047,0.2308731079101562,-0.0,-0.0,-1.0,0.2211875428735398,2.0,1.0
37.00788879394531,-18.893295288085938,0.3740890026092529,-0.0,-0.0,-1.0,0.2087553270308693,1.0,1.0
37.42420196533203,-18.71715927124023,0.3603394031524658,0.3711960383750807,-0.7636543403525726,0.5282476214383955,0.0994998465210178,3.0,1.0
35.27960205078125,-18.293033599853516,0.4584836959838867,0.5930276129769757,-0.632229449706473,-0.4986022193800192,0.1572251262871717,3.0,1.0
36.009429931640625,-18.301185607910156,0.4296398162841797,-0.0,-0.0,-1.0,0.1566357778860418,1.0,1.0
36.55024337768555,-18.401412963867188,0.4051074981689453,-0.0,-0.0,-1.0,0.1856024899568415,2.0,1.0
37.10635757446289,-18.57296371459961,0.377542495727539,-0.0,-0.0,-1.0,0.0982089558418003,2.0,1.0
37.23252868652344,-18.623043060302734,0.3709146976470947,-0.0,-0.0,-1.0,0.1289749372341389,1.0,1.0
37.60602951049805,-18.690879821777344,0.3529911041259765,-0.0,-0.0,-1.0,0.1265841013895562,2.0,1.0
35.50790023803711,-18.081100463867188,0.4547874927520752,-0.0,-0.0,-1.0,0.2275047402933388,2.0,1.0
35.634952545166016,-18.116714477539062,0.4489607810974121,-0.0,-0.0,-1.0,0.1403390025608941,1.0,1.0
37.00020217895508,-18.89455223083496,0.4450124502182007,-0.0,-0.0,-1.0,0.2746647061324189,2.0,1.0
37.40806198120117,-18.713220596313477,0.4284497499465942,-0.0,-0.0,-1.0,0.1158029436075378,2.0,1.0
37.65927505493164,-18.75558280944824,0.4146002531051636,-0.0,-0.0,-1.0,0.1378535569130884,2.0,1.0
35.36259078979492,-18.25800132751465,0.537753701210022,0.5411685328909805,0.4605969362025511,0.7035531830426517,0.2484470659650626,7.0,1.0
35.83818054199219,-18.333452224731445,0.5139614343643188,0.2841050726245643,0.4956940102219436,-0.8207141743256777,0.2755155520852256,4.0,1.0
36.38311767578125,-18.442583084106445,0.4854737520217895,-0.0,-0.0,-1.0,0.2054301196884738,1.0,1.0
37.16290664672851,-18.55726432800293,0.4443539381027221,-0.0,-0.0,-1.0,0.1880945090944689,1.0,1.0
35.278160095214844,-18.254243850708008,0.7784526348114014,-0.0,-0.0,-1.0,0.2355548368158466,1.0,1.0
37.20789337158203,-18.854263305664062,0.5512287616729736,-0.0,-0.0,-1.0,0.0716091614772598,2.0,1.0
37.575172424316406,-18.88089370727539,0.5478301048278809,-0.0,-0.0,-1.0,0.1316382330640942,1.0,1.0
35.31082534790039,-18.200679779052734,0.574906587600708,-0.0,-0.0,-1.0,0.2109837782860236,1.0,1.0
35.428367614746094,-18.2469482421875,0.5735833644866943,-0.6296961760151644,-0.4281489182631047,0.6482061629620726,0.21779958292718,6.0,1.0
36.431190490722656,-18.514469146728516,0.5636618137359619,-0.2838200532423243,-0.6533915373862578,-0.701801735712834,0.1325737203860929,4.0,1.0
36.67505645751953,-18.3809814453125,0.5653088092803955,-0.0,-0.0,-1.0,0.2278056469829301,2.0,1.0
35.55463409423828,-18.068946838378903,0.5771915912628174,-0.0,-0.0,-1.0,0.267233734782618,2.0,1.0
37.06818008422851,-18.814130783081055,0.5019853115081787,-0.0,-0.0,-1.0,0.1866990308299753,1.0,1.0
37.43735122680664,-18.71611976623535,0.4949996471405029,-0.0,-0.0,-1.0,0.1233437090040637,2.0,1.0
37.67833709716797,-18.79511833190918,0.4867298603057861,-0.0,-0.0,-1.0,0.104361321718846,1.0,1.0
35.42127227783203,-18.265962600708008,0.5532305240631104,0.0139397640673733,0.0607890474601977,-0.9980532925082848,0.2365766456021712,6.0,1.0
36.2984619140625,-18.47545051574707,0.5288562774658203,-0.0,-0.0,-1.0,0.2292290300017474,2.0,1.0
36.64134216308594,-18.50725746154785,0.5199923515319824,-0.4460370210836962,0.7710876022873097,0.4543950763615186,0.2549973515317929,3.0,1.0
35.915313720703125,-18.086103439331055,0.5470559597015381,-0.0,-0.0,-1.0,0.2098540861310893,1.0,1.0
35.23074722290039,-18.28171730041504,0.7571673393249512,-0.0,-0.0,-1.0,0.2292470358279399,1.0,1.0
36.32196807861328,-18.56175994873047,0.5991718769073486,-0.0,-0.0,-1.0,0.1343300871355218,1.0,1.0
37.14207077026367,-18.86282730102539,0.5669412612915039,-0.3863984524070392,-0.908310062359798,-0.1602156877255943,0.1068448272339348,6.0,1.0
37.505008697509766,-18.896820068359375,0.5545656681060791,-0.0,-0.0,-1.0,0.0977213952441554,2.0,1.0
35.32732009887695,-18.29100799560547,0.6335413455963135,0.9990783896444422,-0.0418006679391848,-0.0097506669159919,0.1710323701003013,5.0,1.0
37.10280990600586,-18.940080642700195,0.5926491022109985,-0.4357911372026633,-0.859906386192125,-0.2657952063555876,0.1350570818317707,4.0,1.0
36.406715393066406,-18.606046676635746,0.6283301115036011,-0.2967888283759981,0.743610163711939,-0.5991329700287787,0.1569182937910432,3.0,1.0
36.5385627746582,-18.558351516723633,0.6244643926620483,-0.0303823153284679,0.1319140658244308,-0.9907954350686872,0.2457930636655683,6.0,1.0
37.24263000488281,-18.830324172973633,0.589812159538269,-0.0,-0.0,-1.0,0.0816430468270868,2.0,1.0
37.47705841064453,-18.8562068939209,0.5796128511428833,-0.4926039554216012,-0.7960978400035417,0.3515246395982631,0.0537752393365457,3.0,1.0
35.36039352416992,-18.26722526550293,0.6753748655319214,0.9912853047367725,-0.0582274337469408,-0.1181651834178331,0.2110174491302967,5.0,1.0
36.522438049316406,-18.60119247436523,0.7071957588195801,-0.0,-0.0,-1.0,0.1957972838588063,2.0,1.0
37.40184020996094,-19.232419967651367,0.5982354879379272,-0.0,-0.0,-1.0,0.0756062682665768,1.0,1.0
36.86318588256836,-18.769861221313477,0.6277118921279907,-0.0,-0.0,-1.0,0.1426296022988443,1.0,1.0
37.20304489135742,-18.96968650817871,0.6117488145828247,-0.8570426496903397,0.106228079766066,-0.5041760522684271,0.0620109935096865,3.0,1.0
37.30694580078125,-19.079748153686523,0.6054543256759644,-0.0,-0.0,-1.0,0.0276789887900167,2.0,1.0
35.42635726928711,-18.389463424682617,0.6791526079177856,-0.0258712149273395,-0.0249109424559243,-0.9993548544857034,0.2304076266057932,3.0,1.0
36.52574920654297,-18.595449447631836,0.6425713300704956,0.3999460535620409,-0.0801981589077398,-0.9130232250868312,0.2450195978510389,7.0,1.0
35.34387969970703,-18.22410011291504,0.6857041120529175,0.8219419272426832,0.1857832805858803,0.5384199484559725,0.134019593078915,3.0,1.0
37.287078857421875,-17.915382385253906,0.0978084802627563,-0.0,-0.0,-1.0,0.0983640396943991,1.0,1.0
35.7216911315918,-17.519084930419922,0.1278374195098877,-0.0,-0.0,-1.0,0.0731496491767636,2.0,1.0
36.10203552246094,-16.991024017333984,0.1444557905197143,-0.0,-0.0,-1.0,0.1122996921263792,1.0,1.0
35.46281433105469,-18.2900390625,0.5008807182312012,0.8350185569481432,-0.48330010697558,0.2629924260309296,0.1656246925108503,3.0,1.0
35.593833923339844,-18.305477142333984,0.4987634420394897,-0.0,-0.0,-1.0,0.2547753907747583,1.0,1.0
36.56288146972656,-18.63405990600586,0.4762141704559326,-0.0,-0.0,-1.0,0.2277610007594213,1.0,1.0
36.71097183227539,-18.596111297607425,0.4751935005187988,-0.0,-0.0,-1.0,0.1819076526383372,1.0,1.0
37.46099090576172,-18.76333999633789,0.4591511487960815,0.6471814198022837,-0.7430745439608301,-0.1702833872698818,0.1391266086525116,3.0,1.0
35.322322845458984,-18.323810577392575,0.4693988561630249,0.7048027099864693,0.6126432713182813,0.3576609597148724,0.2463456110417439,4.0,1.0
35.7611083984375,-18.25653076171875,0.458815336227417,-0.0,-0.0,-1.0,0.2634149965502418,1.0,1.0
36.10340881347656,-18.42230987548828,0.4422472715377807,-0.0,-0.0,-1.0,0.1441065892268049,2.0,1.0
36.031150817871094,-18.260845184326172,0.450498104095459,-0.0,-0.0,-1.0,0.1812951450133021,1.0,1.0
36.574974060058594,-18.426464080810547,0.4275200366973877,0.7977415970852186,0.5296314363156323,-0.2882687737965473,0.1667450849354249,3.0,1.0
36.97859954833984,-18.96090316772461,0.3945637941360473,0.152954594041184,0.6198801742497202,-0.769645023198249,0.1703024643753131,3.0,1.0
37.36009979248047,-18.642688751220703,0.3944202661514282,-0.0,-0.0,-1.0,0.1029823988893271,1.0,1.0
36.14244079589844,-18.2252140045166,0.8109877109527588,-0.0,-0.0,-1.0,0.1994132231535189,1.0,1.0
35.373958587646484,-18.129112243652344,0.3808090686798095,-0.0,-0.0,-1.0,0.1853872161263989,2.0,1.0
35.66545104980469,-18.08216094970703,0.3816423416137695,-0.0,-0.0,-1.0,0.2426119473849567,2.0,1.0
36.065521240234375,-18.08923721313477,0.3803989887237549,-0.0,-0.0,-1.0,0.1574507211280298,2.0,1.0
36.34502029418945,-18.210792541503903,0.3757326006889343,-0.0,-0.0,-1.0,0.1273829375858938,2.0,1.0
36.57158660888672,-18.300994873046875,0.3721062541007995,-0.0,-0.0,-1.0,0.1761240250014425,1.0,1.0
36.77811050415039,-18.435117721557617,0.3670640587806701,-0.0,-0.0,-1.0,0.1112572378608893,1.0,1.0
36.940242767333984,-18.827171325683594,0.353837251663208,-0.0,-0.0,-1.0,0.2097298736081675,1.0,1.0
37.32266998291016,-18.55619430541992,0.3608644008636474,-0.0,-0.0,-1.0,0.2310853027530892,1.0,1.0
37.064918518066406,-18.84828186035156,0.3526126146316528,-0.0,-0.0,-1.0,0.155057480573577,1.0,1.0
37.60999298095703,-18.655960083007812,0.3562307357788086,-0.0,-0.0,-1.0,0.089287123101172,2.0,1.0
36.02947235107422,-18.021808624267575,0.812377393245697,-0.0,-0.0,-1.0,0.1967407670159562,1.0,1.0
35.81880187988281,-17.645069122314453,0.0025539398193359,-0.0,-0.0,-1.0,0.0870677697905532,1.0,1.0
36.35391616821289,-17.09986114501953,0.0326547622680664,-0.0,-0.0,-1.0,0.123819626707222,1.0,1.0
36.581939697265625,-17.028697967529297,0.0401842594146728,-0.0,-0.0,-1.0,0.1673921520491388,1.0,1.0
35.816558837890625,-17.686874389648438,0.0405217409133911,-0.0,-0.0,-1.0,0.1029195592700596,1.0,1.0
36.55145263671875,-17.120262145996094,0.0759181976318359,-0.0,-0.0,-1.0,0.1072366401787837,1.0,1.0
36.20499801635742,-17.562084197998047,0.0537663698196411,-0.0,-0.0,-1.0,0.0906428595760808,2.0,1.0
37.56256484985352,-16.968368530273438,0.1040339469909668,-0.0,-0.0,-1.0,0.181513666968394,1.0,1.0
37.490455627441406,-18.52874755859375,0.051956295967102,-0.0,-0.0,-1.0,0.1092426948318732,1.0,1.0
35.8205680847168,-18.08127784729004,0.6006947159767151,0.8484612411610731,-0.4410823070260486,0.2925062745925114,0.2177753754537537,3.0,1.0
35.35169982910156,-18.24295425415039,0.5955841541290283,-0.0,-0.0,-1.0,0.2393467939937942,2.0,1.0
35.21882629394531,-18.247295379638672,0.5951109528541565,-0.0,-0.0,-1.0,0.1270414185852647,1.0,1.0
35.683433532714844,-18.49234962463379,0.5905097126960754,-0.0,-0.0,-1.0,0.1908576097394411,1.0,1.0
36.71282958984375,-18.345623016357425,0.5964703559875488,-0.0,-0.0,-1.0,0.1837925903533755,1.0,1.0
36.47013854980469,-18.47368049621582,0.592853307723999,-0.0,-0.0,-1.0,0.1830175802181647,1.0,1.0
37.443172454833984,-18.832368850708008,0.5861132740974426,-0.0,-0.0,-1.0,0.0586268969824969,2.0,1.0
37.195457458496094,-18.817127227783203,0.5860394239425659,0.1700388186291588,0.4864427611304024,-0.8570065579113325,0.0849791476318351,4.0,1.0
37.63853073120117,-18.970212936401367,0.5830901265144348,-0.0,-0.0,-1.0,0.0706065716296903,2.0,1.0
35.655391693115234,-17.899070739746094,0.3795219659805298,-0.0,-0.0,-1.0,0.2162013416201632,2.0,1.0
35.551753997802734,-17.85723114013672,0.3762654066085815,-0.0,-0.0,-1.0,0.1415897519754702,2.0,1.0
35.29697799682617,-18.185134887695312,0.3612666130065918,-0.0,-0.0,-1.0,0.1546993713256837,1.0,1.0
36.62415313720703,-18.576637268066406,0.8216071128845215,-0.0,-0.0,-1.0,0.2385569352614727,1.0,1.0
36.49598693847656,-18.508773803710938,0.8178073763847351,-0.0,-0.0,-1.0,0.1959299108450081,1.0,1.0
35.88341522216797,-18.345378875732425,0.7968114018440247,-0.0,-0.0,-1.0,0.149725557170101,1.0,1.0
35.56884765625,-18.23424530029297,0.7865972518920898,-0.0,-0.0,-1.0,0.1165501922445766,1.0,1.0
35.39794158935547,-18.277809143066406,0.7791709899902344,0.8722868897215799,0.4078265120873235,0.2698019978772221,0.1978075862244219,5.0,1.0
35.45680236816406,-18.23246383666992,0.6318954229354858,0.3061764807765356,-0.7763283102985686,0.550972156509079,0.1906822398040474,6.0,1.0
37.54088592529297,-16.891904830932617,0.1135898828506469,-0.0,-0.0,-1.0,0.1381529967174725,1.0,1.0
36.940704345703125,-17.02113914489746,0.1095402240753173,-0.0,-0.0,-1.0,0.1063261906486403,1.0,1.0
37.31256103515625,-17.831384658813477,0.0817583799362182,-0.0,-0.0,-1.0,0.1326277227683907,1.0,1.0
35.459434509277344,-18.21154403686523,0.7347248792648315,0.2582723952252987,-0.3360475397056852,-0.9057413653589766,0.1509696359440322,3.0,1.0
36.91620635986328,-18.558155059814453,0.64319908618927,-0.0,-0.0,-1.0,0.1297781416179992,1.0,1.0
36.438514709472656,-18.04703140258789,0.7608747482299805,-0.0,-0.0,-1.0,0.1211757625383055,1.0,1.0
35.36374282836914,-19.262224197387695,0.2786958217620849,-0.0,-0.0,-1.0,0.080970955832232,1.0,1.0
35.970855712890625,-17.792179107666016,0.2285544872283935,-0.0,-0.0,-1.0,0.1891415279515272,1.0,1.0
36.08549499511719,-17.99557876586914,0.221049427986145,-0.637601458745288,0.0027060173826505,-0.7703616405791545,0.1578353963181365,3.0,1.0
37.4627799987793,-17.009733200073242,0.115638256072998,-0.0,-0.0,-1.0,0.2475454487933663,1.0,1.0
35.7972412109375,-17.91663932800293,0.2049769163131714,-0.0,-0.0,-1.0,0.2054122028564894,2.0,1.0
36.030799865722656,-17.866294860839844,0.1889717578887939,-0.0,-0.0,-1.0,0.22935011831737,1.0,1.0
37.314510345458984,-17.180395126342773,0.1003373861312866,-0.0,-0.0,-1.0,0.3013662912482512,1.0,1.0
35.89866638183594,-17.790029525756836,0.0869314670562744,-0.0,-0.0,-1.0,0.1615347539921991,1.0,1.0
37.34934997558594,-16.97435188293457,-0.0082409381866455,-0.0,-0.0,-1.0,0.1652144457553552,1.0,0.0
35.42903137207031,-18.306825637817383,0.7178525924682617,-0.4857234941283581,-0.4112565465625613,-0.7713240176224094,0.2236538204310894,6.0,1.0
36.66121673583984,-18.492130279541016,0.6123467683792114,-0.9778356677173696,0.1021393365198044,0.1827702461425819,0.1455718684725195,5.0,1.0
36.78658676147461,-18.473594665527344,0.6005083918571472,-0.0,-0.0,-1.0,0.229543530331179,1.0,1.0
37.07142639160156,-18.731943130493164,0.5822374820709229,-0.0,-0.0,-1.0,0.1041603555790606,1.0,1.0
37.308929443359375,-18.78358268737793,0.5622775554656982,-0.0,-0.0,-1.0,0.0901567944623362,2.0,1.0
37.6446647644043,-18.72925567626953,0.5303545594215393,-0.0,-0.0,-1.0,0.1622767246307998,1.0,1.0
35.34333801269531,-18.237842559814453,0.7889837622642517,-0.0,-0.0,-1.0,0.1988930464012498,2.0,1.0
36.035526275634766,-18.116558074951172,0.7358205318450928,-0.0,-0.0,-1.0,0.1720282857470873,1.0,1.0
35.31534957885742,-18.32488250732422,0.7547056674957275,0.8433551911219468,-0.0930483216561948,-0.5292391061180474,0.2097745608493377,3.0,1.0
35.424068450927734,-18.296499252319336,0.747897744178772,0.7481538081595159,-0.3511057758348906,0.5630191946211013,0.1787649723189474,7.0,1.0
36.51127624511719,-18.69374656677246,0.686974048614502,-0.0,-0.0,-1.0,0.2043564796832143,1.0,1.0
36.74864196777344,-18.428855895996097,0.6692501306533813,-0.0,-0.0,-1.0,0.1748572897327878,1.0,1.0
35.370216369628906,-18.309303283691406,0.4229941368103027,0.5700765918474363,0.0786691527255768,0.8178165098829027,0.2039945713405805,3.0,1.0
36.32489776611328,-18.42095375061035,0.3936744928359985,-0.0,-0.0,-1.0,0.1480749226867023,2.0,1.0
36.70982360839844,-18.5097599029541,0.3804707527160644,-0.0,-0.0,-1.0,0.1583479523412075,1.0,1.0
37.07826614379883,-18.694250106811523,0.3657552003860473,-0.0,-0.0,-1.0,0.1705216048269401,1.0,1.0
37.44152069091797,-18.71315574645996,0.3539572954177856,0.3711960383750807,-0.7636543403525726,0.5282476214383955,0.0958906851130505,3.0,1.0
35.577816009521484,-18.11842155456543,0.4209655523300171,-0.1509716171906235,-0.3927684442510942,-0.9071606913901324,0.1973860901577729,3.0,1.0
35.8932991027832,-18.201828002929688,0.41041100025177,-0.0,-0.0,-1.0,0.178657797851624,1.0,1.0
36.07486724853515,-18.22922706604004,0.4046362638473511,-0.0901795728300019,0.2531073320868362,-0.963225997929916,0.2370456935756844,3.0,1.0
36.476661682128906,-18.369115829467773,0.3901228904724121,-0.0,-0.0,-1.0,0.175260606502646,2.0,1.0
36.96710205078125,-18.871692657470703,0.490228533744812,-0.0,-0.0,-1.0,0.1673567711018582,2.0,1.0
35.419281005859375,-18.28308486938477,0.5523486137390137,-0.3566398313312673,-0.7957179179689916,0.4895314348753291,0.2625759057955272,5.0,1.0
35.99567413330078,-18.361804962158203,0.5317778587341309,-0.0,-0.0,-1.0,0.1533682894192467,1.0,1.0
36.32243728637695,-18.50754165649414,0.5183219909667969,-0.016108652218124,0.3009625108252854,-0.9534999100164904,0.195279906490485,3.0,1.0
36.652366638183594,-18.49311065673828,0.5068075656890869,-0.7367122825641487,0.6210151688461191,-0.2675727429730994,0.2682213486578749,4.0,1.0
37.13505935668945,-18.713375091552734,0.4861927032470703,-0.2997326980040452,-0.4538969383571908,-0.8391292386141628,0.1252053194271924,5.0,1.0
37.614105224609375,-18.757110595703125,0.4676347970962524,-0.0,-0.0,-1.0,0.1162892974012999,2.0,1.0
35.713584899902344,-18.18573570251465,0.5439528226852417,0.6810826083818957,-0.272844890495058,-0.6794719613718092,0.2115886223853707,4.0,1.0
35.84297561645508,-18.242029190063477,0.5387380123138428,-0.0,-0.0,-1.0,0.2350150258674614,2.0,1.0
37.24918365478515,-18.3974609375,0.1144746541976928,-0.0,-0.0,-1.0,0.1162606363337349,1.0,1.0
37.03484344482422,-18.104660034179688,0.1169744729995727,-0.0,-0.0,-1.0,0.1360978288539844,1.0,1.0
37.10894012451172,-17.440765380859375,0.1708155870437622,-0.0,-0.0,-1.0,0.2376730515875622,1.0,1.0
37.15669250488281,-17.150463104248047,0.1954909563064575,-0.0,-0.0,-1.0,0.1478222683820546,2.0,1.0
36.51432037353515,-17.071308135986328,-0.046326994895935,-0.0,-0.0,-1.0,0.1355893361648974,1.0,0.0
36.30265808105469,-18.677318572998047,0.5741637349128723,-0.0,-0.0,-1.0,0.1695625054016545,1.0,1.0
37.00328063964844,-18.942211151123047,0.5404708385467529,-0.0,-0.0,-1.0,0.198430854856055,2.0,1.0
37.28466033935547,-18.77868270874023,0.5300379991531372,-0.0,-0.0,-1.0,0.1221740093005619,2.0,1.0
37.619346618652344,-18.813438415527344,0.5146569609642029,-0.0053972373672059,-0.936990246434298,-0.3493138243983411,0.0628594263005145,3.0,1.0
35.29103088378906,-18.350208282470703,0.6208835244178772,0.4687287899010331,-0.827387192807573,-0.309392557596199,0.1794472381493257,3.0,1.0
35.875091552734375,-18.214675903320312,0.5982162356376648,-0.0,-0.0,-1.0,0.2098632427977672,1.0,1.0
36.47294235229492,-18.538497924804688,0.5685673952102661,0.2495036638855866,0.2421128659783833,-0.9376189427669436,0.16252856800241,3.0,1.0
36.53826904296875,-17.18584442138672,0.0215151309967041,-0.0,-0.0,-1.0,0.0976711105099218,1.0,1.0
37.70604705810547,-17.01763916015625,-0.0712158679962158,-0.0,-0.0,-1.0,0.1687593023258841,1.0,0.0
37.60253143310547,-17.068544387817383,-0.0398602485656738,-0.0,-0.0,-1.0,0.1398752201803607,1.0,0.0
35.2632942199707,-18.34608268737793,0.5536031126976013,0.8792803724390359,-0.0542110872761154,-0.473209451152248,0.2045455113344365,3.0,1.0
36.236961364746094,-18.482776641845703,0.5305087566375732,-0.0,-0.0,-1.0,0.2321584146508874,1.0,1.0
36.48526763916016,-18.504186630249023,0.5246615409851074,-0.06809606000511,-0.0617954121460301,-0.9957631513816338,0.1688367107526302,6.0,1.0
37.05768585205078,-18.937036514282227,0.5013408660888672,0.3164168949071061,-0.8647348558164469,-0.3900179197850456,0.1668866011948544,3.0,1.0
37.28935623168945,-18.69462776184082,0.5020104050636292,-0.0,-0.0,-1.0,0.0792273598587559,2.0,1.0
35.45183181762695,-18.19295883178711,0.5537177920341492,-0.0,-0.0,-1.0,0.1506042346448858,2.0,1.0
35.73320007324219,-18.14571762084961,0.5492724180221558,-0.0,-0.0,-1.0,0.2452741124542826,2.0,1.0
36.72394180297851,-18.422338485717773,0.5214852094650269,-0.0,-0.0,-1.0,0.2151287579726377,2.0,1.0
37.54373550415039,-17.066049575805664,-0.0707356929779052,-0.0,-0.0,-1.0,0.1260014026424054,1.0,0.0
35.437286376953125,-18.2514591217041,0.7432186007499695,0.5883196900560106,-0.3570426419203415,-0.7255346264258807,0.1971409976095527,4.0,1.0
36.63541412353515,-18.61849594116211,0.7291193604469299,-0.0,-0.0,-1.0,0.1634014391773775,2.0,1.0
35.3774528503418,-18.242841720581055,0.740554928779602,0.5799486641964062,-0.4760590707982178,0.6610804096382992,0.2631458975046106,4.0,1.0
35.239498138427734,-18.30689239501953,0.6539008021354675,-0.0,-0.0,-1.0,0.1264731240624464,1.0,1.0
35.33559799194336,-18.284488677978516,0.6539556384086609,0.5968224553669492,-0.7959633588872234,0.1012190104611526,0.1456451598303919,5.0,1.0
35.526947021484375,-18.265235900878903,0.6534563302993774,-0.0,-0.0,-1.0,0.2060717460083584,2.0,1.0
35.89951705932617,-18.378692626953125,0.648911714553833,-0.0,-0.0,-1.0,0.2009960451611749,1.0,1.0
36.590728759765625,-18.564163208007812,0.6408137083053589,-0.5331097400067826,0.527526644170247,-0.6614451185097509,0.1514343555679452,4.0,1.0
36.83684158325195,-18.35573959350586,0.6442466378211975,-0.0,-0.0,-1.0,0.1396077300751462,1.0,1.0
37.01729965209961,-18.63766098022461,0.6366133689880371,-0.0,-0.0,-1.0,0.1750991990678488,1.0,1.0
37.24564743041992,-19.019493103027344,0.6263418793678284,-0.0,-0.0,-1.0,0.0425603567422551,1.0,1.0
37.38967514038086,-19.154102325439453,0.6223198175430298,-0.0,-0.0,-1.0,0.05282104758618,2.0,1.0
35.48533630371094,-18.275218963623047,0.6924227476119995,-0.0,-0.0,-1.0,0.2066501651167076,2.0,1.0
36.569091796875,-18.534603118896484,0.6916991472244263,-0.0,-0.0,-1.0,0.1719053784813911,1.0,1.0
35.73298645019531,-17.176679611206055,0.0540039539337158,-0.7588536701595067,-0.5535596916015937,-0.3430929540509321,0.0722371471116126,3.0,1.0
37.53137969970703,-17.137767791748047,-0.0275158882141113,-0.0,-0.0,-1.0,0.148726963846181,1.0,0.0
35.610897064208984,-17.739938735961914,0.0778297185897827,-0.0,-0.0,-1.0,0.2112053983224757,1.0,1.0
35.68579864501953,-17.802690505981445,0.0705256462097168,-0.0,-0.0,-1.0,0.1580542922363332,1.0,1.0
37.27642822265625,-16.914743423461914,0.0331411361694335,0.1728937509770724,-0.5376815359297882,-0.8252310687275789,0.1897329520342262,3.0,1.0
37.473350524902344,-17.206342697143555,0.006276249885559,-0.0,-0.0,-1.0,0.1512442197118548,2.0,1.0
35.575496673583984,-17.763446807861328,0.1282007694244384,-0.0344690690490159,-0.0095742020039086,-0.9993599041060648,0.1982374212421023,3.0,1.0
35.71730041503906,-18.00054931640625,0.1088558435440063,-0.0,-0.0,-1.0,0.1975948987826452,1.0,1.0
36.023216247558594,-17.767578125,0.1074533462524414,-0.0,-0.0,-1.0,0.1602497332073447,2.0,1.0
36.30288314819336,-17.887752532958984,0.0878732204437255,-0.0,-0.0,-1.0,0.1152373638431583,1.0,1.0
37.50099563598633,-17.101728439331055,0.0728082656860351,-0.0,-0.0,-1.0,0.1719668660270657,1.0,1.0
35.53835678100586,-17.83868980407715,0.0431568622589111,-0.0,-0.0,-1.0,0.1561028924411075,1.0,1.0
35.67224884033203,-17.708913803100586,0.0460553169250488,-0.0,-0.0,-1.0,0.1779837503850287,1.0,1.0
37.478515625,-17.238439559936523,0.0055242776870727,-0.0,-0.0,-1.0,0.1460897281108117,2.0,1.0
35.362518310546875,-18.33620262145996,0.5727651119232178,0.3458122857751869,0.8194399292892872,0.4570908720301774,0.2821931092571774,6.0,1.0
35.837486267089844,-18.237953186035156,0.5578522682189941,-0.0,-0.0,-1.0,0.212290564928694,2.0,1.0
35.998374938964844,-18.16513442993164,0.5542162656784058,-0.0,-0.0,-1.0,0.1474401178273303,1.0,1.0
36.23112106323242,-18.57078742980957,0.5289695262908936,-0.0,-0.0,-1.0,0.249266401678417,1.0,1.0
36.56870651245117,-18.52192497253418,0.5168874263763428,-0.0,-0.0,-1.0,0.2333839482354313,2.0,1.0
36.866886138916016,-18.62013053894043,0.5004990696907043,-0.0,-0.0,-1.0,0.2174045259363354,2.0,1.0
37.03567886352539,-18.93588638305664,0.4809368252754211,-0.0,-0.0,-1.0,0.1751581688107021,2.0,1.0
37.311798095703125,-17.610912322998047,0.5208173990249634,-0.0,-0.0,-1.0,0.1548398834029261,1.0,1.0
37.46736526489258,-18.760053634643555,0.4690367579460144,0.5192784310875347,-0.8399057194634542,-0.1578236148991839,0.1391266086525116,4.0,1.0
36.03886413574219,-17.395984649658203,0.0053797960281372,-0.0,-0.0,-1.0,0.0867362794541375,1.0,1.0
37.286224365234375,-16.875829696655273,0.0098391771316528,0.1728937509770724,-0.5376815359297882,-0.8252310687275789,0.1746228713440711,3.0,1.0
37.39659118652344,-17.186330795288086,-0.0150350332260131,-0.0,-0.0,-1.0,0.1673001921625506,1.0,0.0
35.26518630981445,-18.346094131469727,0.6843028664588928,0.6652261324617011,0.2271921705019511,0.7112368876490164,0.1829304767309665,3.0,1.0
35.35847473144531,-18.446277618408203,0.6784032583236694,-0.0,-0.0,-1.0,0.2002374009474044,1.0,1.0
35.44335174560547,-18.379365921020508,0.678460955619812,-0.5776496361389335,-0.30977125577262,-0.7552235874001891,0.2125112610047859,4.0,1.0
35.822509765625,-18.244367599487305,0.6728780269622803,-0.0,-0.0,-1.0,0.2173988956519094,1.0,1.0
36.4259147644043,-18.681352615356445,0.6406121850013733,-0.0,-0.0,-1.0,0.1365172947346945,1.0,1.0
36.66051483154297,-18.479066848754883,0.6407814025878906,-0.6464845925507393,0.6870855263715125,-0.3316189847479876,0.1636641284627822,3.0,1.0
37.05812072753906,-18.964332580566406,0.6118079423904419,-0.5231427714059665,-0.1563792636498837,-0.837775128913484,0.2361317807854967,4.0,1.0
36.97541427612305,-19.061586380004883,0.6109389662742615,-0.0,-0.0,-1.0,0.1885869685728629,1.0,1.0
37.20575714111328,-18.970165252685547,0.6070374250411987,-0.8570426496903397,0.106228079766066,-0.5041760522684271,0.0543155556955059,3.0,1.0
37.380126953125,-19.113391876220703,0.5965431928634644,-0.0,-0.0,-1.0,0.0482206601367695,2.0,1.0
37.55274963378906,-19.22220230102539,0.5872462391853333,-0.0,-0.0,-1.0,0.0564135334089555,1.0,1.0
35.537620544433594,-18.176891326904297,0.3995791673660278,-0.0,-0.0,-1.0,0.2396801633068702,2.0,1.0
35.715415954589844,-18.32844352722168,0.3842703104019165,-0.0,-0.0,-1.0,0.2259772687893841,1.0,1.0
35.931148529052734,-18.173673629760746,0.3839461207389831,-0.0,-0.0,-1.0,0.1553995339938358,2.0,1.0
36.28730010986328,-18.17552947998047,0.3691897392272949,-0.0,-0.0,-1.0,0.2485479253733379,1.0,1.0
36.37648010253906,-18.43125915527344,0.3514758348464966,-0.0,-0.0,-1.0,0.1753175572362292,2.0,1.0
36.65813446044922,-18.48029327392578,0.3368856310844421,-0.4561022425126199,-0.1831754813237837,-0.8708716825208868,0.1590244392309301,3.0,1.0
36.79167556762695,-18.8056697845459,0.3133442401885986,-0.0,-0.0,-1.0,0.14643888213227,1.0,1.0
36.873924255371094,-19.02574157714844,0.2977293729782104,-0.0,-0.0,-1.0,0.1489105909656975,1.0,1.0
37.11456298828125,-17.42416000366211,0.3750560283660888,-0.0,-0.0,-1.0,0.2389917851704908,1.0,1.0
37.096675872802734,-18.550630569458008,0.3140603899955749,-0.0,-0.0,-1.0,0.0663397826032149,1.0,1.0
37.303802490234375,-18.68002700805664,0.2978065013885498,-0.0,-0.0,-1.0,0.1186810881603849,1.0,1.0
37.37510299682617,-17.379112243652344,0.3660776615142822,-0.0,-0.0,-1.0,0.1526011236208677,2.0,1.0
37.56598281860352,-18.717206954956055,0.2840241193771362,-0.0,-0.0,-1.0,0.0761311563439275,1.0,1.0
36.76661682128906,-17.365121841430664,-0.0556371212005615,-0.0,-0.0,-1.0,0.0746806646871019,2.0,0.0
35.223045349121094,-18.31482315063477,0.5260751247406006,0.3079303209591861,-0.2797389509240958,-0.909354186645588,0.1965156638939723,4.0,1.0
35.49078369140625,-18.11747169494629,0.5332092642784119,-0.0,-0.0,-1.0,0.1955956730652882,1.0,1.0
35.5966796875,-18.26063346862793,0.5265874862670898,0.5025714241617415,-0.3869273888831006,-0.7731165237841869,0.1381994576980949,3.0,1.0
35.878753662109375,-18.352842330932617,0.5211108326911926,-0.0,-0.0,-1.0,0.2619623379737149,2.0,1.0
36.430511474609375,-18.495361328125,0.5112608671188354,0.2555528032565295,0.7838606015765364,-0.5659110548874267,0.1120121708786514,4.0,1.0
36.6024169921875,-18.5770263671875,0.5064265727996826,-0.0,-0.0,-1.0,0.2215336074080481,2.0,1.0
36.71853256225586,-18.44540023803711,0.5111181735992432,-0.0,-0.0,-1.0,0.2157228946243544,2.0,1.0
36.86355209350586,-18.59278106689453,0.5035419464111328,-0.0,-0.0,-1.0,0.1767210927524833,2.0,1.0
37.006893157958984,-19.038171768188477,0.4830776453018188,-0.0,-0.0,-1.0,0.1388168173466311,2.0,1.0
37.12983703613281,-17.431161880493164,0.5511093139648438,0.201475463409004,-0.8067978424571403,-0.5554141509276033,0.2237896246192931,3.0,1.0
37.24103927612305,-18.758686065673828,0.4928508400917053,-0.1211853850733756,0.4349911393191814,-0.8922425741682685,0.153926869406492,3.0,1.0
37.600826263427734,-18.803089141845703,0.4871824979782104,-0.3975783683584677,-0.7516180601977454,-0.5263095406678439,0.0868913766517601,4.0,1.0
35.94624710083008,-17.277910232543945,-0.0182743072509765,-0.0,-0.0,-1.0,0.0379330790267752,2.0,0.0
36.002288818359375,-17.29831886291504,-0.0198198556900024,-0.0,-0.0,-1.0,0.0660207944053353,2.0,0.0
36.76218795776367,-17.362016677856445,-0.0256577730178833,-0.0,-0.0,-1.0,0.0940118242796091,2.0,0.0
37.41157913208008,-17.052284240722656,-0.0040521621704101,-0.0,-0.0,-1.0,0.1568634540820851,1.0,0.0
35.21147155761719,-18.316679000854492,0.5299854278564453,-0.3443236556959324,0.2288064496126174,-0.910543150401922,0.1965156638939723,3.0,1.0
35.52815628051758,-18.179712295532227,0.5346983671188354,-0.0211052652466178,-0.9171343293541891,0.3980190820788768,0.2072649329948476,3.0,1.0
35.819854736328125,-18.309017181396484,0.5275802612304688,-0.0,-0.0,-1.0,0.2605611476616962,2.0,1.0
36.3922233581543,-18.49216651916504,0.5159132480621338,-0.0,-0.0,-1.0,0.1475844718942811,2.0,1.0
37.112586975097656,-17.4395751953125,0.5570731163024902,0.201475463409004,-0.8067978424571403,-0.5554141509276033,0.2237896246192931,3.0,1.0
36.71983337402344,-18.495586395263672,0.5132855176925659,-0.0,-0.0,-1.0,0.2060081645972583,1.0,1.0
36.74968338012695,-18.867212295532227,0.4965022802352905,-0.0,-0.0,-1.0,0.1678143266427961,1.0,1.0
37.22220993041992,-18.684009552001953,0.5004814863204956,-0.0,-0.0,-1.0,0.0833155266722032,1.0,1.0
37.04651641845703,-18.86765480041504,0.4939130544662475,-0.0,-0.0,-1.0,0.2472405074503126,2.0,1.0
37.4996223449707,-18.74579620361328,0.4949527978897095,0.5213298165587108,-0.831617987833681,-0.1913811502690905,0.1376026365890705,3.0,1.0
36.93629455566406,-16.888111114501953,-0.121522307395935,-0.0,-0.0,-1.0,0.1030250996982842,1.0,0.0
35.63353729248047,-17.961305618286133,0.3937798738479614,-0.0,-0.0,-1.0,0.1501029917052118,2.0,1.0
35.33213806152344,-18.254737854003903,0.3823151588439941,-0.0,-0.0,-1.0,0.2558543615166125,1.0,1.0
35.87435531616211,-18.1583309173584,0.3781143426895141,-0.0,-0.0,-1.0,0.1503939832867634,1.0,1.0
35.80389404296875,-18.365074157714844,0.3676215410232544,-0.0,-0.0,-1.0,0.2124992033189166,1.0,1.0
36.33906555175781,-18.00257682800293,0.3780823945999145,-0.0,-0.0,-1.0,0.1881312921005884,1.0,1.0
36.26918411254883,-18.252826690673828,0.3650935888290405,-0.0,-0.0,-1.0,0.1531883003512074,1.0,1.0
37.298057556152344,-17.252195358276367,0.4008353948593139,-0.0,-0.0,-1.0,0.1357205479312021,1.0,1.0
37.2877197265625,-17.367456436157227,0.3944118618965149,-0.0,-0.0,-1.0,0.2521443548689375,1.0,1.0
36.75837707519531,-17.994997024536133,0.369873046875,-0.0,-0.0,-1.0,0.2277743646363436,1.0,1.0
36.632232666015625,-18.458393096923828,0.3458448052406311,0.0965763167184748,0.4725789769245927,-0.8759806650936985,0.1940740175630475,3.0,1.0
36.91825866699219,-18.9969539642334,0.3086708188056946,-0.0,-0.0,-1.0,0.1793446323921361,1.0,1.0
37.50151062011719,-18.704753875732425,0.3121911287307739,-0.0,-0.0,-1.0,0.0815181531399288,2.0,1.0
37.35199737548828,-18.66361618041992,0.3180874586105346,-0.0,-0.0,-1.0,0.1372396079854619,2.0,1.0
36.00885009765625,-18.283349990844727,0.9704315662384032,-0.0,-0.0,-1.0,0.2405461084998037,2.0,1.0
35.555274963378906,-18.089454650878903,0.4121752381324768,-0.1509716171906235,-0.3927684442510942,-0.9071606913901324,0.1705672400381857,3.0,1.0
35.29066848754883,-18.282272338867188,0.4073659777641296,0.2321185697477923,0.9405711346473346,-0.247884872968209,0.1456193784264693,4.0,1.0
35.988243103027344,-18.037046432495117,0.4043727517127991,-0.0,-0.0,-1.0,0.1974441959339143,1.0,1.0
35.809364318847656,-18.223182678222656,0.3980966210365295,-0.0,-0.0,-1.0,0.2267866845213977,1.0,1.0
36.15374374389648,-18.04071617126465,0.3998534679412842,-0.0,-0.0,-1.0,0.2122293017127894,2.0,1.0
36.09357833862305,-18.297569274902344,0.3864606618881225,0.6546234686135147,0.7452241099273944,-0.1269217882135803,0.1381312701470616,3.0,1.0
37.22269821166992,-17.511215209960938,0.4009028673171997,-0.0,-0.0,-1.0,0.2056822199164279,1.0,1.0
36.65828704833984,-18.431304931640625,0.3633309602737427,-0.0,-0.0,-1.0,0.1817549682117291,2.0,1.0
36.44581604003906,-18.469457626342773,0.3670076131820678,-0.0,-0.0,-1.0,0.2124508303749405,1.0,1.0
36.14570617675781,-19.057815551757812,0.3407958149909973,-0.0,-0.0,-1.0,0.1583046594345976,1.0,1.0
37.15377426147461,-18.602476119995117,0.3390384912490845,-0.0,-0.0,-1.0,0.0973323864483843,2.0,1.0
36.80913543701172,-18.94343376159668,0.3291301131248474,-0.0,-0.0,-1.0,0.2186248752550459,1.0,1.0
37.433311462402344,-18.738826751708984,0.3226149082183838,0.3711960383750807,-0.7636543403525726,0.5282476214383955,0.1633526466153523,3.0,1.0
36.9481201171875,-19.052101135253903,0.3187546133995056,-0.0,-0.0,-1.0,0.1866770556525954,1.0,1.0
36.334938049316406,-18.588716506958008,0.9401721954345704,-0.0,-0.0,-1.0,0.1397967321247795,1.0,1.0
36.344085693359375,-16.979930877685547,0.0926028490066528,-0.0,-0.0,-1.0,0.22220075696633,1.0,1.0
36.128963470458984,-17.348419189453125,0.0628342628479003,-0.0,-0.0,-1.0,0.1618944824357354,1.0,1.0
35.75565719604492,-17.662017822265625,0.0387074947357177,-0.4788012456961153,-0.861430659443496,-0.1693711489321361,0.1185187038178784,3.0,1.0
35.609344482421875,-17.76935577392578,0.0304243564605712,-0.0,-0.0,-1.0,0.1937528407713699,2.0,1.0
35.31898498535156,-17.921276092529297,0.0189019441604614,-0.0,-0.0,-1.0,0.112995158506594,1.0,1.0
35.96885299682617,-17.837745666503906,0.0220704078674316,-0.0,-0.0,-1.0,0.1413576486328093,1.0,1.0
37.549556732177734,-17.15666389465332,0.0612105131149292,-0.0,-0.0,-1.0,0.1948331555171806,1.0,1.0
36.72321319580078,-17.560901641845703,0.0383398532867431,-0.0,-0.0,-1.0,0.0765997989376225,1.0,1.0
35.78900909423828,-18.18785095214844,0.5350350141525269,-0.0,-0.0,-1.0,0.2510081002179938,1.0,1.0
35.45884704589844,-18.27886009216309,0.5340206623077393,0.2756683715820002,-0.8167453201167811,0.5068866056394319,0.1942621853038504,4.0,1.0
36.34793472290039,-18.36994171142578,0.5187474489212036,-0.0,-0.0,-1.0,0.2680602073358118,1.0,1.0
36.663780212402344,-18.487380981445312,0.5082882046699524,-0.4460370210836962,0.7710876022873097,0.4543950763615186,0.2438126155536835,3.0,1.0
36.30601119995117,-18.531646728515625,0.5109909772872925,-0.0,-0.0,-1.0,0.1906016390286295,2.0,1.0
37.015872955322266,-18.58499526977539,0.4979196786880493,-0.0,-0.0,-1.0,0.1747138302760984,1.0,1.0
37.42276382446289,-18.72431755065918,0.4840679168701172,-0.0,-0.0,-1.0,0.1287744977746716,2.0,1.0
36.99614715576172,-18.992570877075195,0.4772944450378418,-0.0,-0.0,-1.0,0.1659703899148361,2.0,1.0
36.906978607177734,-19.083345413208008,0.4740172028541565,-0.0,-0.0,-1.0,0.215903926764218,1.0,1.0
37.1441764831543,-17.43047332763672,0.5553107261657715,0.201475463409004,-0.8067978424571403,-0.5554141509276033,0.2237896246192932,3.0,1.0
35.842472076416016,-17.14960289001465,0.0120506286621093,-0.0,-0.0,-1.0,0.0520726754191157,1.0,1.0
36.32489776611328,-16.981197357177734,0.0295621156692504,-0.0,-0.0,-1.0,0.1427632604325661,1.0,1.0
36.274436950683594,-17.0030517578125,0.0274139642715454,-0.0,-0.0,-1.0,0.1446770193271153,1.0,1.0
37.392478942871094,-16.961673736572266,0.0315467119216918,-0.0,-0.0,-1.0,0.2310087892830041,1.0,1.0
37.539039611816406,-17.228858947753906,0.006966233253479,-0.0,-0.0,-1.0,0.1875554255201728,1.0,1.0
35.28367614746094,-18.27730941772461,0.4433910250663757,0.9780803057179164,-0.0628851749533533,0.1985053408294935,0.2369156845493603,3.0,1.0
36.68748092651367,-18.42629623413086,0.4374463558197021,-0.0,-0.0,-1.0,0.1984736987241864,2.0,1.0
36.48561096191406,-18.43947982788086,0.4368042945861816,-0.0,-0.0,-1.0,0.1624709221725028,2.0,1.0
37.224220275878906,-18.618839263916016,0.4259252548217773,-0.0,-0.0,-1.0,0.1225236507922375,1.0,1.0
37.17020034790039,-18.618011474609375,0.4261115789413452,-0.0,-0.0,-1.0,0.0864278429847199,2.0,1.0
36.21900177001953,-18.945053100585938,0.4090743064880371,-0.0,-0.0,-1.0,0.2227733914030616,2.0,1.0
37.52912902832031,-18.710126876831055,0.4199128746986389,0.4114133734260001,-0.7431177551928242,-0.5277452397543875,0.1479718358713719,3.0,1.0
37.02351379394531,-18.955394744873047,0.4079263210296631,-0.0,-0.0,-1.0,0.1679092492712453,2.0,1.0
35.71038055419922,-18.05023193359375,0.457171618938446,-0.0,-0.0,-1.0,0.194442909456516,2.0,1.0
35.42224884033203,-18.152891159057617,0.4506698846817016,-0.0,-0.0,-1.0,0.1673166660802521,2.0,1.0
37.33964157104492,-17.529592514038086,0.4853913784027099,-0.0,-0.0,-1.0,0.1487895763013803,1.0,1.0
36.2574462890625,-18.220672607421875,0.4487406015396118,-0.0,-0.0,-1.0,0.1651841526265014,2.0,1.0
35.93484878540039,-18.22727394104004,0.4479826092720032,-0.0,-0.0,-1.0,0.1898225382279938,1.0,1.0
36.74558639526367,-18.383045196533203,0.4397631883621216,-0.5546108603493484,0.7028629054159756,0.4454105182556527,0.173807744342286,3.0,1.0
35.41688919067383,-18.305784225463867,0.6099083423614502,0.5013969093511875,-0.7170413335954204,0.4842033304395766,0.2351672123803926,5.0,1.0
36.26523971557617,-17.26015853881836,0.0060459375381469,-0.0,-0.0,-1.0,0.0448970867626609,2.0,1.0
35.68901443481445,-18.056915283203125,0.4257380962371826,0.8247031597635318,0.0215606010403842,-0.5651547033855628,0.1662221001283251,3.0,1.0
35.362911224365234,-18.29108428955078,0.4263337850570678,0.5629675078642438,0.1027432805962248,0.8200679260777415,0.2315719520145689,4.0,1.0
36.161651611328125,-18.149463653564453,0.4000652432441711,-0.0,-0.0,-1.0,0.1897213711384592,1.0,1.0
36.00784683227539,-18.21259117126465,0.4031575322151184,-0.0,-0.0,-1.0,0.204176802120183,2.0,1.0
36.47376251220703,-18.340782165527344,0.3755930662155151,-0.0,-0.0,-1.0,0.2370096615690959,2.0,1.0
36.094669342041016,-17.930461883544922,0.8749812841415405,-0.0,-0.0,-1.0,0.1674597594131682,2.0,1.0
35.66527557373047,-17.987720489501953,0.8894579410552979,-0.0,-0.0,-1.0,0.1709772525434122,2.0,1.0
35.831695556640625,-18.40313148498535,0.8740251064300537,-0.0,-0.0,-1.0,0.1805325296707078,1.0,1.0
35.83342742919922,-17.98421287536621,0.3923732042312622,-0.0,-0.0,-1.0,0.1974670231207501,1.0,1.0
35.57210159301758,-18.195838928222656,0.4217455387115478,-0.0,-0.0,-1.0,0.26923885577649,2.0,1.0
35.32996368408203,-18.31364631652832,0.4514709115028381,0.6014446968842262,0.3317751665943306,0.7267664792910753,0.2364301014414488,6.0,1.0
36.07786178588867,-18.29104232788086,0.3437226414680481,-0.0,-0.0,-1.0,0.1293395901763147,2.0,1.0
35.40421676635742,-18.399560928344727,0.8896215558052063,-0.0,-0.0,-1.0,0.2124653280219395,1.0,1.0
37.70481491088867,-17.02368927001953,0.3982595801353454,-0.0,-0.0,-1.0,0.1008838266628289,1.0,1.0
37.26864242553711,-18.727523803710938,0.146607756614685,-0.0,-0.0,-1.0,0.1654708149425887,1.0,1.0
36.68006134033203,-18.14619827270508,0.2069975137710571,-0.0,-0.0,-1.0,0.201868411830797,1.0,1.0
36.04560852050781,-17.88452911376953,0.2479790449142456,-0.0,-0.0,-1.0,0.2243000614635256,2.0,1.0
35.92829132080078,-17.87938690185547,0.2525796890258789,-0.0,-0.0,-1.0,0.2285996755629112,1.0,1.0
37.05992889404297,-18.494781494140625,0.1697534918785095,-0.0,-0.0,-1.0,0.0638947000791647,1.0,1.0
36.827003479003906,-18.428674697875977,0.1832605004310608,-0.0,-0.0,-1.0,0.1033283762882278,2.0,1.0
36.54313659667969,-18.40839958190918,0.1957200169563293,-0.0,-0.0,-1.0,0.1818158992478426,1.0,1.0
35.91267395019531,-18.08350944519043,0.2399533987045288,-0.0,-0.0,-1.0,0.1378340472334297,1.0,1.0
36.49266815185547,-18.714797973632812,0.1781410574913025,-0.0,-0.0,-1.0,0.1937115047206193,1.0,1.0
36.44390869140625,-18.46979522705078,0.6574417948722839,-0.0,-0.0,-1.0,0.1085791268032704,1.0,1.0
37.28704833984375,-19.048385620117188,0.6179060935974121,-0.0,-0.0,-1.0,0.0290373370768533,2.0,1.0
37.02230072021485,-18.93183326721191,0.6284231543540955,0.7673626853618056,-0.5601325774671719,0.312099350807241,0.202153648799059,3.0,1.0
36.79096603393555,-18.94021987915039,0.6340792775154114,-0.0,-0.0,-1.0,0.1986417025992511,1.0,1.0
36.27508163452149,-18.636096954345703,0.6562737226486206,-0.0,-0.0,-1.0,0.1807192297320921,2.0,1.0
36.75463104248047,-19.105077743530273,0.6298378109931946,-0.0,-0.0,-1.0,0.1705817886390836,1.0,1.0
35.39350891113281,-18.251033782958984,0.5331946015357971,0.2637328218119714,0.7704901835875805,0.5803360024109063,0.2907907952643694,7.0,1.0
35.68836975097656,-18.192073822021484,0.5240049958229065,0.6310089326927678,-0.3776985566201167,-0.6776219648070851,0.2269077725766704,3.0,1.0
35.51466369628906,-18.181686401367188,0.529434084892273,-0.0,-0.0,-1.0,0.2181645106326934,2.0,1.0
36.09410858154297,-18.1695556640625,0.5113840699195862,-0.0,-0.0,-1.0,0.1956894080072999,1.0,1.0
36.58002471923828,-18.37802505493164,0.4961882829666137,-0.0,-0.0,-1.0,0.1596745934602737,1.0,1.0
37.239498138427734,-18.57312774658203,0.4756825566291809,-0.0,-0.0,-1.0,0.1424078678362388,1.0,1.0
37.181190490722656,-18.86910629272461,0.4772746562957763,-0.0,-0.0,-1.0,0.194494602489224,1.0,1.0
37.61990737915039,-18.612621307373047,0.4639475345611572,-0.0,-0.0,-1.0,0.2023777056604615,1.0,1.0
35.46220397949219,-18.24553680419922,0.5904715061187744,-0.4717245619303858,-0.8146834643814295,0.3372933301075743,0.1568547373065893,5.0,1.0
36.7344856262207,-18.398761749267575,0.4507417678833008,-0.0,-0.0,-1.0,0.1778973031646343,2.0,1.0
36.648956298828125,-18.51978302001953,0.4674866199493408,-0.0,-0.0,-1.0,0.1832883518115029,2.0,1.0
37.05107879638672,-18.618247985839844,0.4263296127319336,-0.0,-0.0,-1.0,0.152992459511163,1.0,1.0
37.31560897827149,-18.619903564453125,0.3957812786102295,-0.0,-0.0,-1.0,0.1103100780918638,2.0,1.0
37.7054443359375,-18.671329498291016,0.3535957336425781,-0.0,-0.0,-1.0,0.1113957098022215,1.0,1.0
35.37958526611328,-18.326793670654297,0.4915627241134643,-0.0,-0.0,-1.0,0.213714766345223,2.0,1.0
35.66899108886719,-17.909942626953125,0.4373244047164917,-0.0,-0.0,-1.0,0.2045751750281773,1.0,1.0
36.03343200683594,-18.217662811279297,0.4115542769432068,0.2411945585103498,0.9577874167669852,-0.1564239407118442,0.2041768021201831,3.0,1.0
36.37368392944336,-18.352954864501953,0.3796991109848022,-0.0,-0.0,-1.0,0.2263337393988915,1.0,1.0
36.88478088378906,-18.485366821289062,0.3281785845756531,-0.0,-0.0,-1.0,0.0746997972130888,1.0,1.0
37.475341796875,-18.730003356933594,0.2732988595962524,-0.0,-0.0,-1.0,0.1325893540312137,1.0,1.0
37.35615539550781,-16.949771881103516,0.1951658725738525,-0.4945203242568847,-0.0298082708535375,-0.8686547737079374,0.1822549036007408,3.0,1.0
37.22135162353515,-16.906057357788086,-0.0735466480255127,-0.6053635013955727,-0.4868051591796863,-0.6297267408758602,0.2332618870016765,3.0,0.0
35.344295501708984,-18.29894638061523,0.7093974351882935,0.3026966841358879,-0.9526310837264422,-0.0294743232546988,0.20465963943509,6.0,1.0
36.53814697265625,-18.627300262451172,0.6337316036224365,0.4106698169555268,0.2748424299934231,-0.8693744533381601,0.2764389602471192,8.0,1.0
37.03696060180664,-18.92403793334961,0.6063691973686218,-0.5386994449512856,-0.3577150419042447,-0.7627862458150522,0.2376996451550649,4.0,1.0
37.14309310913086,-18.846290588378903,0.5967018604278564,0.6739272571192739,0.7263685139986642,-0.134947523071245,0.0947872805398359,5.0,1.0
35.27740478515625,-18.26837921142578,0.3129878044128418,-0.0,-0.0,-1.0,0.1073559117888356,2.0,1.0
35.71459197998047,-17.945852279663086,0.2734249234199524,-0.0,-0.0,-1.0,0.2253740042505777,1.0,1.0
36.05320739746094,-18.007200241088867,0.2477319240570068,-0.6604571584853255,0.1421450986559772,-0.7372863166596622,0.1312018357895296,3.0,1.0
36.186920166015625,-17.873632431030273,0.2350145578384399,-0.0,-0.0,-1.0,0.2236544293025638,2.0,1.0
37.24473571777344,-17.059114456176758,0.1378270387649536,-0.0,-0.0,-1.0,0.2417836743909011,2.0,1.0
35.72545623779297,-17.994033813476562,0.3468015193939209,0.0671242490054107,0.9000833014294556,-0.4305164174376063,0.2219727182994154,3.0,1.0
36.20298767089844,-18.230632781982425,0.3127152323722839,-0.0,-0.0,-1.0,0.1897579952322064,2.0,1.0
35.924354553222656,-17.989364624023438,0.3311170935630798,-0.0,-0.0,-1.0,0.1964062900911295,2.0,1.0
36.22534942626953,-18.039981842041016,0.3081890940666199,-0.0,-0.0,-1.0,0.2349248708089312,1.0,1.0
36.75179290771485,-18.478099822998047,0.2731297016143799,-0.0,-0.0,-1.0,0.1191763741338766,1.0,1.0
37.45588684082031,-18.704254150390625,0.220912218093872,-0.0,-0.0,-1.0,0.1337229067323416,1.0,1.0
37.68627166748047,-18.72840881347656,0.2030640840530395,-0.0,-0.0,-1.0,0.1417958008753728,1.0,1.0
37.15800476074219,-17.141578674316406,0.2213448286056518,-0.0,-0.0,-1.0,0.1576089454073314,2.0,1.0
37.29207992553711,-17.134674072265625,0.2106157541275024,-0.0,-0.0,-1.0,0.2113834111049533,1.0,1.0
37.33893203735352,-16.906658172607422,0.2034915685653686,-0.4945203242568847,-0.0298082708535375,-0.8686547737079374,0.2226065361278596,3.0,1.0
37.67809295654297,-17.001224517822266,0.177978515625,-0.0,-0.0,-1.0,0.2099158905785526,1.0,1.0
35.97077941894531,-18.27774429321289,0.730350136756897,-0.0,-0.0,-1.0,0.1855800828140537,2.0,1.0
35.30952072143555,-18.283966064453125,0.7226376533508301,0.7253795513988877,-0.6374783487139979,0.2597034103226661,0.179073228142768,5.0,1.0
36.51080322265625,-18.53649139404297,0.6481081247329712,-0.0,-0.0,-1.0,0.2192412504959929,2.0,1.0
36.94669342041016,-18.854434967041016,0.6243154406547546,-0.0,-0.0,-1.0,0.1809202363506319,1.0,1.0
37.04623794555664,-19.034988403320312,0.6204891800880432,-0.0,-0.0,-1.0,0.2802818482209298,1.0,1.0
37.28998565673828,-18.885929107666016,0.6022923588752747,0.7681054193018886,-0.3979445924594161,-0.5016514389208692,0.0691743315835326,3.0,1.0
36.15424728393555,-18.233108520507812,0.7330073118209839,-0.0,-0.0,-1.0,0.1583166697106396,1.0,1.0
35.372982025146484,-18.42392349243164,0.4788326025009155,0.3091611974713186,0.6974380469179183,-0.6465288274233558,0.2229183566456652,3.0,1.0
35.547149658203125,-18.2008056640625,0.4782098531723022,-0.3591789070915528,-0.7508198866045964,0.554310391910145,0.1761056785221955,4.0,1.0
35.841552734375,-18.450923919677734,0.4664065241813659,-0.0,-0.0,-1.0,0.152563018185539,1.0,1.0
36.17603302001953,-18.6568603515625,0.4543051719665527,-0.0,-0.0,-1.0,0.1755921875402906,1.0,1.0
36.43572235107422,-18.707340240478516,0.4467486143112182,-0.0,-0.0,-1.0,0.1948774515748588,1.0,1.0
36.837310791015625,-19.03456115722656,0.4308115243911743,-0.0,-0.0,-1.0,0.2158724412444728,2.0,1.0
36.49410629272461,-18.60493850708008,0.4469684362411499,-0.0,-0.0,-1.0,0.2119141186120194,2.0,1.0
37.07164764404297,-18.910354614257812,0.4267963767051697,-0.0,-0.0,-1.0,0.210463001001953,2.0,1.0
37.49807357788086,-19.026309967041016,0.413690447807312,-0.0,-0.0,-1.0,0.1888390916122232,1.0,1.0
35.23941421508789,-18.939678192138672,0.2962887287139892,-0.0,-0.0,-1.0,0.0970349566185536,1.0,1.0
35.913551330566406,-18.070880889892575,0.321509301662445,-0.0,-0.0,-1.0,0.1519756208003621,2.0,1.0
36.13932418823242,-17.764389038085938,0.3303449749946594,-0.0,-0.0,-1.0,0.2045543066264975,1.0,1.0
36.050167083740234,-18.01607131958008,0.3224540948867798,-0.0,-0.0,-1.0,0.1421417591537767,1.0,1.0
