x,y,z,nx,ny,nz,curvature,density,label
17.230037689208984,29.332008361816406,-1.7534539699554443,-0.0,-0.0,-1.0,0.1274478226696958,2.0,0.0
16.03236961364746,29.141292572021484,-1.6842000484466553,-0.0,-0.0,-1.0,0.1160455133015465,1.0,0.0
17.389310836791992,28.935564041137695,-1.6162936687469482,-0.0,-0.0,-1.0,0.1563872633181549,2.0,0.0
17.370689392089844,29.69588279724121,-1.7461354732513428,-0.0,-0.0,-1.0,0.1576166292424554,1.0,0.0
17.49197769165039,29.77117156982422,-1.7641313076019287,-0.0,-0.0,-1.0,0.0413367694583069,2.0,0.0
16.069028854370117,29.39946174621582,-1.646376371383667,-0.0,-0.0,-1.0,0.0693368575071692,1.0,0.0
17.537803649902344,29.49861717224121,-1.900381088256836,-0.0,-0.0,-1.0,0.0512352048099764,1.0,0.0
17.410335540771484,28.68117332458496,-1.742321491241455,-0.0,-0.0,-1.0,0.1831389004805218,1.0,0.0
16.822444915771484,30.476966857910156,-1.6288089752197266,-0.0,-0.0,-1.0,0.1414366911037902,1.0,0.0
17.5595760345459,28.914501190185547,-1.3890423774719238,-0.0,-0.0,-1.0,0.21360571792652,1.0,0.0
16.88105010986328,30.3865966796875,-1.615311622619629,-0.0,-0.0,-1.0,0.0775113479404963,2.0,0.0
16.405689239501953,29.006547927856445,-1.3445167541503906,-0.0,-0.0,-1.0,0.0791257551667903,1.0,0.0
16.167861938476562,29.165021896362305,-1.361964225769043,-0.3070906752396082,0.8368668771374485,-0.4531546613807434,0.1119272881007168,3.0,0.0
15.609664916992188,29.384437561035156,-1.3782920837402344,0.2073400002958234,-0.7404916460795111,-0.6392826028946698,0.1435898614008611,3.0,0.0
15.87545394897461,30.528961181640625,-1.4365506172180176,-0.0,-0.0,-1.0,0.0862861367303251,2.0,0.0
15.576923370361328,30.373512268066406,-1.3941011428833008,-0.0,-0.0,-1.0,0.1342364630221325,1.0,0.0
17.553647994995117,28.978984832763672,-1.522792100906372,-0.0,-0.0,-1.0,0.2400104924740804,1.0,0.0
17.407365798950195,28.818004608154297,-1.4814612865447998,-0.0,-0.0,-1.0,0.1709345719744711,1.0,0.0
17.28209686279297,29.38472366333008,-1.582607984542847,-0.0,-0.0,-1.0,0.1828192228031048,1.0,0.0
17.25611114501953,29.813770294189453,-1.66443133354187,-0.0,-0.0,-1.0,0.2045125707914009,2.0,0.0
17.093984603881836,30.033634185791016,-1.6970436573028564,-0.0,-0.0,-1.0,0.0699130910390569,1.0,0.0
16.97246742248535,30.255203247070312,-1.7330701351165771,-0.0,-0.0,-1.0,0.0684729783501088,2.0,0.0
16.353504180908203,29.14499282836914,-1.4772508144378662,-0.0,-0.0,-1.0,0.1768987619800011,1.0,0.0
16.327762603759766,29.83434295654297,-1.6121575832366943,-0.0,-0.0,-1.0,0.0783393628228292,1.0,0.0
16.230236053466797,29.127422332763672,-1.4665906429290771,-0.0,-0.0,-1.0,0.1861804813921339,2.0,0.0
16.25243377685547,29.949119567871097,-1.6307332515716553,-0.0,-0.0,-1.0,0.0840883798786103,1.0,0.0
16.19281578063965,30.241127014160156,-1.6855881214141846,-0.0,-0.0,-1.0,0.0549509606181773,1.0,0.0
15.674640655517578,29.410743713378903,-1.4925916194915771,0.4317552193376117,0.7059973263232503,-0.5613868593039499,0.1447204103986404,4.0,0.0
15.573184967041016,30.07195281982422,-0.8356606960296631,-0.0,-0.0,-1.0,0.0996673069837406,2.0,0.0
16.993539810180664,30.118824005126953,-1.7754943370819092,-0.0,-0.0,-1.0,0.0613295702184734,2.0,0.0
16.812801361083984,30.25899887084961,-1.7911827564239502,-0.0,-0.0,-1.0,0.0647939970037619,1.0,0.0
17.515932083129883,28.97939682006836,-1.5840113162994385,-0.9056727252277323,-0.387961692811083,0.1710047943472091,0.2347781723497924,3.0,0.0
17.402137756347656,29.78267288208008,-1.7384145259857178,-0.0,-0.0,-1.0,0.0733887838974546,1.0,0.0
17.260122299194336,29.277976989746097,-1.6231234073638916,-0.0,-0.0,-1.0,0.180792131368619,1.0,0.0
17.19537353515625,29.75109481811523,-1.7151405811309814,-0.0608237238106117,-0.675952437595551,-0.734430920325692,0.1185209348021454,3.0,0.0
17.039779663085938,29.942855834960938,-1.7425286769866943,-0.0,-0.0,-1.0,0.0663222713853147,2.0,0.0
16.92310333251953,28.85358428955078,-1.5082595348358154,-0.0,-0.0,-1.0,0.1600059999084996,1.0,0.0
16.597675323486328,29.33090591430664,-1.5815517902374268,-0.0,-0.0,-1.0,0.0592543768943671,1.0,0.0
16.212228775024414,29.31140518188477,-1.5492689609527588,-0.0,-0.0,-1.0,0.2090535850883093,2.0,0.0
16.23743438720703,29.876625061035156,-1.669884443283081,-0.0,-0.0,-1.0,0.0820056367574745,2.0,0.0
16.152545928955078,29.158748626708984,-1.5129497051239014,-0.2517068974201197,0.9675920769299464,0.0202289508756431,0.1948881632351642,3.0,0.0
15.605506896972656,30.122955322265625,-0.9278085231781006,-0.0,-0.0,-1.0,0.1058334638717674,2.0,0.0
17.67764663696289,29.622604370117188,-1.8980283737182615,-0.0,-0.0,-1.0,0.0564914513288781,2.0,0.0
17.239635467529297,29.334819793701172,-1.7965455055236816,-0.914288505727946,-0.3364312255640784,-0.2255893587011839,0.1274478226696959,3.0,0.0
17.437992095947266,28.81647491455078,-1.6975769996643066,-0.0,-0.0,-1.0,0.1684583690839345,2.0,0.0
16.996862411499023,28.966476440429688,-1.6936697959899902,-0.0,-0.0,-1.0,0.2220441943585853,1.0,0.0
16.78102684020996,28.416454315185547,-1.5523085594177246,-0.0,-0.0,-1.0,0.1375569022716051,1.0,0.0
16.6345272064209,29.29887008666992,-1.7403349876403809,-0.0,-0.0,-1.0,0.0552916472543649,2.0,0.0
16.24894142150879,29.128921508789062,-1.672896385192871,-0.0,-0.0,-1.0,0.1112680885762204,2.0,0.0
16.100048065185547,28.200660705566406,-1.449542999267578,-0.0,-0.0,-1.0,0.0552353897629212,1.0,0.0
16.126508712768555,29.1727294921875,-1.6742162704467771,-0.0,-0.0,-1.0,0.1822066063195204,2.0,0.0
15.968223571777344,30.57579040527344,-1.247943878173828,-0.0,-0.0,-1.0,0.1372042753955582,1.0,0.0
17.18956756591797,30.349925994873047,-1.5875332355499268,-0.0,-0.0,-1.0,0.1007238388787983,1.0,0.0
16.169178009033203,29.272056579589844,-1.2862021923065186,-0.0,-0.0,-1.0,0.1517354538141124,1.0,0.0
15.574044227600098,30.15728759765625,-0.7762975692749023,-0.0,-0.0,-1.0,0.0996673069837407,2.0,0.0
17.549240112304688,28.71301651000977,-1.9330477714538576,-0.0,-0.0,-1.0,0.1316423927932913,1.0,0.0
17.278226852416992,28.63597869873047,-1.8835911750793457,-0.0,-0.0,-1.0,0.1657364022229852,1.0,0.0
15.866559028625488,30.541305541992188,-1.5801348686218262,0.1375104864518184,0.3179791435354211,-0.9380725613683966,0.1328767337126878,3.0,0.0
15.362455368041992,29.785701751708984,-1.3679084777832031,-0.0,-0.0,-1.0,0.0659047074613806,1.0,0.0
16.116987228393555,29.268321990966797,-1.2972970008850098,-0.9089784991304805,0.3647478126102427,-0.201784839159296,0.1823412839470725,6.0,0.0
17.658931732177734,28.414234161376953,-1.8231754302978516,-0.0,-0.0,-1.0,0.1507212165270363,1.0,0.0
17.452503204345703,28.79136085510254,-1.8819451332092283,-0.0,-0.0,-1.0,0.1735450400225903,1.0,0.0
17.49001121520996,28.95090103149414,-1.923983097076416,-0.0,-0.0,-1.0,0.1685561874219068,1.0,0.0
16.631946563720703,28.93893814086914,-1.8121261596679688,-0.0,-0.0,-1.0,0.0624879155011646,1.0,0.0
16.220537185668945,28.96379852294922,-1.7691383361816406,-0.0,-0.0,-1.0,0.0441382812422829,1.0,0.0
16.016868591308594,30.581920623779297,-1.504917860031128,-0.0,-0.0,-1.0,0.1376049134588175,1.0,0.0
16.982257843017578,29.23742294311523,-1.7713322639465332,-0.0,-0.0,-1.0,0.0633582952261498,1.0,0.0
17.328914642333984,28.732994079589844,-1.6023480892181396,-0.0,-0.0,-1.0,0.1244548333063685,1.0,0.0
17.0527286529541,29.324369430541992,-1.8015146255493164,-0.0,-0.0,-1.0,0.066250700083742,1.0,0.0
17.334726333618164,29.41030502319336,-1.8342795372009275,-0.0,-0.0,-1.0,0.1043654254704877,1.0,0.0
15.826611518859863,30.597570419311523,-1.6909022331237793,-0.0,-0.0,-1.0,0.1487898486278717,1.0,0.0
17.60834503173828,29.61267852783203,-1.9086461067199707,-0.0,-0.0,-1.0,0.0564914513288781,2.0,0.0
15.401477813720703,28.155517578125,-1.5672738552093506,-0.0,-0.0,-1.0,0.1468922772525168,1.0,0.0
15.52487850189209,28.2628173828125,-1.5785760879516602,-0.0,-0.0,-1.0,0.1484122628776492,1.0,0.0
15.470162391662598,28.571928024291992,-1.6583082675933838,-0.0,-0.0,-1.0,0.0935022371560802,1.0,0.0
15.63514232635498,28.483661651611328,-1.618929147720337,-0.0,-0.0,-1.0,0.1177419419577247,1.0,0.0
15.60714626312256,28.92434310913086,-1.7280948162078855,-0.0,-0.0,-1.0,0.0562883100656197,1.0,0.0
16.544658660888672,28.438636779785156,-1.6779496669769287,-0.0,-0.0,-1.0,0.0966092072868379,1.0,0.0
16.603931427001953,28.59125518798828,-1.7088310718536377,-0.0,-0.0,-1.0,0.1226763560280061,1.0,0.0
16.756885528564453,28.794647216796875,-1.7427647113800049,0.5335541807332393,0.8402194087159088,0.0967020239662569,0.1558964081329248,4.0,0.0
15.586567878723145,29.37422561645508,-1.3739545345306396,0.2073400002958234,-0.7404916460795111,-0.6392826028946698,0.1507484188080745,3.0,0.0
16.02347755432129,29.24196434020996,-1.3078479766845703,0.5552142168924761,0.2445435868610477,-0.7949437763047197,0.1098840369859437,3.0,0.0
15.224912643432615,30.150299072265625,-1.5726399421691897,-0.0,-0.0,-1.0,0.1357004401819163,1.0,0.0
15.56501579284668,30.045927047729492,-1.5213379859924316,-0.4460055473997137,0.8950275246138585,0.002186749247337,0.1663722251590895,5.0,0.0
15.430521965026855,30.46281623840332,-1.6237695217132568,-0.2219834273951487,-0.6937261198096617,-0.6851769323727513,0.204207221538595,3.0,0.0
15.591911315917969,30.098979949951172,-0.8824155330657959,0.3438420656119165,-0.9295365557468436,-0.1331706628579501,0.0996673069837407,4.0,0.0
15.828856468200684,28.97060775756836,-1.694691181182861,-0.0,-0.0,-1.0,0.0459202799744832,1.0,0.0
16.07546615600586,28.98418617248535,-1.670365810394287,-0.0,-0.0,-1.0,0.1029639887974272,1.0,0.0
16.298614501953125,29.01428985595703,-1.6524734497070312,-0.0,-0.0,-1.0,0.0979695144718695,1.0,0.0
16.498348236083984,29.203765869140625,-1.6724929809570312,-0.0,-0.0,-1.0,0.0602377340739378,2.0,0.0
16.59967803955078,29.622554779052734,-1.7542104721069336,-0.0,-0.0,-1.0,0.0434009656566721,1.0,0.0
16.992048263549805,29.584978103637695,-1.7057719230651855,0.4353072531109073,0.3846956991910223,-0.8139513587512259,0.0848219462519175,4.0,0.0
17.188331604003906,29.66103744506836,-1.703162670135498,-0.0,-0.0,-1.0,0.1550174247943907,2.0,0.0
17.073974609375,29.98211097717285,-1.786982536315918,-0.0,-0.0,-1.0,0.0327522785316423,2.0,0.0
15.599071502685549,30.48834228515625,-1.3569066524505615,-0.0,-0.0,-1.0,0.0824094325539436,1.0,0.0
17.00450897216797,29.37957191467285,-1.6723378896713257,-0.0,-0.0,-1.0,0.183778886797442,1.0,0.0
17.046201705932617,29.42559814453125,-1.6768361330032349,-0.0,-0.0,-1.0,0.1672806317011879,1.0,0.0
17.144641876220703,29.638166427612305,-1.706152081489563,0.2469041029000753,-0.4626136803370078,-0.8514851418176115,0.1207153322828766,4.0,0.0
17.265445709228516,30.076595306396484,-1.7746378183364868,-0.0,-0.0,-1.0,0.0345240023701554,2.0,0.0
17.338773727416992,30.417449951171875,-1.8303996324539185,-0.0,-0.0,-1.0,0.0780394854842044,1.0,0.0
17.37388801574707,28.89697265625,-1.554772973060608,-0.8115300260287145,-0.5389953992910159,-0.2256168796809149,0.2282971911710742,3.0,0.0
17.490459442138672,29.72779655456543,-1.783254623413086,-0.4062067357154981,0.4843369070755401,-0.774863761124405,0.043082084659658,4.0,0.0
15.223712921142578,29.302093505859375,-1.4335986375808716,-0.0,-0.0,-1.0,0.2358631626949888,1.0,0.0
15.574981689453123,30.192188262939453,-1.4397560358047483,-0.0,-0.0,-1.0,0.174964987418488,1.0,0.0
15.236930847167969,29.750507354736328,-1.4467397928237915,-0.0,-0.0,-1.0,0.0679209258052977,1.0,0.0
15.376201629638672,28.94093132019043,-1.4129232168197632,-0.0,-0.0,-1.0,0.0596894469480331,1.0,0.0
16.055042266845703,28.77756118774414,-1.364890694618225,-0.0,-0.0,-1.0,0.1244502367693964,1.0,0.0
17.043079376220703,30.207130432128903,-1.774946212768555,0.2244915164193292,0.9309120508055062,-0.2881081614964021,0.1474005833779587,3.0,0.0
16.817752838134766,30.023454666137695,-1.7825098037719729,-0.0,-0.0,-1.0,0.0560542800417545,2.0,0.0
17.116371154785156,29.86488151550293,-1.7549238204956057,-0.0,-0.0,-1.0,0.1216067025877761,1.0,0.0
16.661998748779297,29.28134536743164,-1.7616655826568604,-0.0,-0.0,-1.0,0.0608840003675259,2.0,0.0
16.1781005859375,28.698740005493164,-1.7717523574829102,-0.0,-0.0,-1.0,0.0252258382132375,1.0,0.0
17.225730895996094,29.5068302154541,-1.7318346500396729,-0.0,-0.0,-1.0,0.0762201597411919,1.0,0.0
17.061946868896484,29.442750930786133,-1.7405118942260742,-0.0,-0.0,-1.0,0.0950744826622861,1.0,0.0
16.884292602539062,28.94558334350586,-1.7320170402526855,0.3359033262513455,0.8718965205154658,-0.3563220634851369,0.1425018405126542,3.0,0.0
16.61969757080078,28.699201583862305,-1.7405195236206057,-0.0,-0.0,-1.0,0.0662393334620719,1.0,0.0
16.634422302246094,28.18456268310547,-1.7186720371246338,-0.0,-0.0,-1.0,0.0550522181884788,1.0,0.0
16.883014678955078,30.459068298339844,-1.6925803422927856,-0.2666645749331478,-0.9584996219008948,0.1008388778773599,0.1109236288857257,3.0,0.0
16.596515655517578,30.22624969482422,-1.704971432685852,-0.0,-0.0,-1.0,0.0600811411606128,1.0,0.0
16.93545913696289,30.275737762451172,-1.6825028657913208,-0.0,-0.0,-1.0,0.0594709718063084,2.0,0.0
16.565349578857422,29.63913345336914,-1.6875029802322388,-0.0,-0.0,-1.0,0.0366169203154084,2.0,0.0
17.16472625732422,29.610036849975582,-1.6434799432754517,-0.0,-0.0,-1.0,0.1600130685343772,2.0,0.0
16.507705688476562,28.99126625061035,-1.6706606149673462,-0.0,-0.0,-1.0,0.046403326232736,1.0,0.0
16.102191925048828,28.898605346679688,-1.6972402334213257,-0.0,-0.0,-1.0,0.0862561158899137,1.0,0.0
15.820491790771484,28.82210922241211,-1.715429663658142,-0.0,-0.0,-1.0,0.0281686859163965,1.0,0.0
17.424880981445312,28.810569763183594,-1.598393797874451,-0.0309161929607015,-0.6461318164122649,-0.7625994130817328,0.2088984087253252,3.0,0.0
16.861600875854492,29.673885345458984,-1.6991190910339355,-0.0,-0.0,-1.0,0.0889351171541873,1.0,0.0
16.457717895507812,30.127685546875,-1.7424607276916504,-0.0,-0.0,-1.0,0.0647145602817578,2.0,0.0
16.892004013061523,29.27241897583008,-1.689016342163086,-0.0,-0.0,-1.0,0.1364443276798466,1.0,0.0
16.770484924316406,28.865795135498047,-1.6922197341918943,-0.0,-0.0,-1.0,0.1786874010371401,1.0,0.0
16.72844123840332,28.46567153930664,-1.6890499591827393,-0.0,-0.0,-1.0,0.1502632333567667,1.0,0.0
15.653116226196287,30.460018157958984,-1.6300194263458252,-0.0,-0.0,-1.0,0.1444920869252431,1.0,0.0
16.077070236206055,29.193359375,-1.5645668506622314,-0.0,-0.0,-1.0,0.2549219688318052,1.0,0.0
15.420158386230469,30.005416870117188,-1.6360938549041748,-0.0,-0.0,-1.0,0.2053879703411671,1.0,0.0
15.630157470703123,29.077251434326172,-1.5963141918182373,-0.0,-0.0,-1.0,0.0684523671436126,1.0,0.0
15.530651092529297,28.49254989624023,-1.5897138118743896,-0.0,-0.0,-1.0,0.12536977835991,2.0,0.0
15.478713989257812,28.31340789794922,-1.5894649028778076,-0.0,-0.0,-1.0,0.1524040656651205,2.0,0.0
17.688352584838867,28.34877014160156,-1.8600746393203735,-0.0,-0.0,-1.0,0.1507212165270363,1.0,0.0
16.943832397460938,30.62438583374023,-1.8537107706069944,-0.0,-0.0,-1.0,0.0634614371410202,1.0,0.0
17.21253776550293,30.063037872314453,-1.8166366815567017,-0.0,-0.0,-1.0,0.0386063297054848,1.0,0.0
17.30889320373535,29.743831634521484,-1.8018678426742551,-0.0,-0.0,-1.0,0.0669395066700155,1.0,0.0
17.191526412963867,29.561222076416016,-1.812478184700012,-0.0,-0.0,-1.0,0.1067204045124939,1.0,0.0
17.26591682434082,29.07292938232422,-1.798444151878357,-0.8985673368876708,0.3552580040755861,-0.2576208291633849,0.1944570339643864,3.0,0.0
17.094907760620117,29.175884246826172,-1.8185831308364868,-0.0,-0.0,-1.0,0.0639126954706121,1.0,0.0
17.10675811767578,28.68004035949707,-1.8118120431900024,-0.0,-0.0,-1.0,0.1998580095714934,1.0,0.0
16.96776580810547,28.51566696166992,-1.82563054561615,-0.0,-0.0,-1.0,0.0512262537284491,1.0,0.0
16.759170532226562,28.45204734802246,-1.8483108282089231,-0.0,-0.0,-1.0,0.0594950261926732,1.0,0.0
17.684307098388672,28.389171600341797,-1.8900688886642456,-0.0,-0.0,-1.0,0.1252190286480113,1.0,0.0
17.109695434570312,30.37237548828125,-1.7926114797592163,-0.0,-0.0,-1.0,0.1438984974057623,1.0,0.0
17.21453094482422,29.858470916748047,-1.7651525735855105,-0.7055879671216849,0.0442353318753288,-0.7072403099844973,0.0932452558963339,3.0,0.0
17.092679977416992,30.12207794189453,-1.7863723039627075,0.8297302177661879,-0.2540763523893024,-0.4969838758774991,0.1076662156987403,3.0,0.0
17.091793060302734,29.599224090576172,-1.7701619863510132,-0.4221189933439512,-0.5916653350694163,-0.6868389088683639,0.1034741890968123,3.0,0.0
17.111549377441406,29.07489776611328,-1.7522510290145874,-0.0,-0.0,-1.0,0.1753303182953976,1.0,0.0
16.872859954833984,28.88791275024414,-1.772398829460144,-0.0,-0.0,-1.0,0.0726685987986514,2.0,0.0
16.741159439086914,28.78501892089844,-1.7836359739303589,0.8510144524604727,0.3331591094464419,-0.4059303012787484,0.1324286693663192,3.0,0.0
15.450952529907228,30.183753967285156,-0.879421591758728,-0.0,-0.0,-1.0,0.0996673069837406,1.0,0.0
17.409976959228516,30.510276794433594,-1.832664132118225,-0.0,-0.0,-1.0,0.0782720654288314,1.0,0.0
17.692041397094727,29.78397560119629,-1.772342324256897,-0.0,-0.0,-1.0,0.0371727373828783,1.0,0.0
17.569509506225586,29.492839813232425,-1.7738853693008425,-0.0,-0.0,-1.0,0.0512352048099764,1.0,0.0
17.396541595458984,28.99298667907715,-1.7733560800552368,-0.0,-0.0,-1.0,0.1755158346512333,1.0,0.0
17.330663681030273,29.26927947998047,-1.7911003828048706,-0.0,-0.0,-1.0,0.2002254438010394,1.0,0.0
17.35270881652832,28.685930252075195,-1.7667509317398071,-0.0,-0.0,-1.0,0.1802198168273381,1.0,0.0
17.629392623901367,28.286401748657227,-1.721688151359558,-0.0,-0.0,-1.0,0.1369831869816861,1.0,0.0
17.44939422607422,28.511703491210938,-1.7497271299362185,-0.0,-0.0,-1.0,0.1819893754562209,1.0,0.0
17.29357147216797,30.51548957824707,-1.8461247682571411,-0.0,-0.0,-1.0,0.0845615097368493,1.0,0.0
17.46579933166504,29.985973358154297,-1.8085817098617551,-0.0,-0.0,-1.0,0.0108684086575309,2.0,0.0
17.426176071166992,30.13056182861328,-1.817905068397522,0.0388662185195774,0.6188844237900821,-0.7845199086371272,0.0243724289518895,4.0,0.0
17.424489974975586,29.784679412841797,-1.807221531867981,-0.0,-0.0,-1.0,0.0317265709308806,1.0,0.0
17.239028930664062,29.349884033203125,-1.816553235054016,-0.0,-0.0,-1.0,0.113627288558897,2.0,0.0
17.127376556396484,28.923023223876953,-1.818036675453186,-0.0,-0.0,-1.0,0.127251138264809,1.0,0.0
17.120939254760742,28.543445587158203,-1.808606505393982,-0.0,-0.0,-1.0,0.1634784271052739,2.0,0.0
17.678346633911133,28.40007781982422,-1.73627507686615,-0.0,-0.0,-1.0,0.1600543026452759,1.0,0.0
15.442541122436523,30.187328338623047,-1.3985439538955688,-0.0,-0.0,-1.0,0.3063824228420773,1.0,0.0
15.42646026611328,30.31576919555664,-1.4029422998428345,-0.0,-0.0,-1.0,0.1451656789338964,1.0,0.0
15.43289566040039,30.077089309692383,-1.3972669839859009,-0.9021872825020644,0.4266039670128347,-0.0637743100350958,0.1472320236841784,3.0,0.0
16.108169555664062,29.2813720703125,-1.3096619844436646,0.6949041636657542,0.2373938447835873,-0.6787874231148251,0.1715521186914693,5.0,0.0
16.03203010559082,29.44412612915039,-1.3209940195083618,-0.0,-0.0,-1.0,0.1701504347667276,1.0,0.0
15.47866439819336,29.470951080322266,-1.380278468132019,-0.0,-0.0,-1.0,0.1265937436278303,1.0,0.0
17.56723403930664,30.49744033813477,-1.896331548690796,-0.0,-0.0,-1.0,0.0693218282612501,1.0,0.0
17.593467712402344,29.53036117553711,-1.8425679206848145,-0.0,-0.0,-1.0,0.0551336026495001,1.0,0.0
17.40433692932129,29.205106735229492,-1.8495662212371824,-0.0,-0.0,-1.0,0.1363959366632001,1.0,0.0
17.291275024414062,28.81920623779297,-1.844898700714111,-0.0,-0.0,-1.0,0.1029221379875256,2.0,0.0
17.260805130004883,28.991992950439453,-1.8570103645324707,-0.0,-0.0,-1.0,0.1457978277352974,2.0,0.0
17.16826057434082,28.54728889465332,-1.8475122451782229,-0.0,-0.0,-1.0,0.1469374981676031,1.0,0.0
15.882797241210938,30.62635612487793,-1.1687283515930176,-0.0,-0.0,-1.0,0.1132141335334089,1.0,0.0
15.398536682128906,30.064844131469727,-1.1989893913269043,-0.0,-0.0,-1.0,0.1710540644342589,2.0,0.0
16.75285530090332,30.410736083984375,-1.649017333984375,-0.0,-0.0,-1.0,0.0896626214491421,1.0,0.0
16.427845001220703,30.336624145507812,-1.6836352348327637,0.263936416029745,0.8424375579061989,-0.4697196284193506,0.0630323707924398,3.0,0.0
17.08432388305664,29.82894515991211,-1.5839598178863523,-0.0,-0.0,-1.0,0.1958482785927003,2.0,0.0
16.48732566833496,29.915481567382812,-1.6580102443695068,-0.0,-0.0,-1.0,0.0951974645894187,2.0,0.0
16.406187057495117,29.817420959472656,-1.663348913192749,-0.0,-0.0,-1.0,0.0849496826577516,2.0,0.0
16.406444549560547,29.442380905151367,-1.6473875045776367,-0.0,-0.0,-1.0,0.0946600265769059,1.0,0.0
17.37945556640625,28.938255310058594,-1.5102288722991943,-0.6661312637185342,0.7373002784358058,0.1125052839436091,0.229204792134533,4.0,0.0
16.384309768676758,29.20064926147461,-1.640023946762085,-0.0,-0.0,-1.0,0.1075050555497551,1.0,0.0
15.889104843139648,29.022682189941406,-1.6925761699676514,-0.0,-0.0,-1.0,0.0656051796593652,1.0,0.0
15.724390029907228,28.9859676361084,-1.711137294769287,-0.0,-0.0,-1.0,0.0491710289920159,1.0,0.0
16.414369583129883,28.221323013305664,-1.5978174209594729,0.1381563324251127,-0.4122194815526184,-0.9005486809936107,0.0965007063415498,4.0,0.0
15.814987182617188,30.581947326660156,-1.4851090908050537,-0.0,-0.0,-1.0,0.1133771847879383,1.0,0.0
15.385435104370115,30.37453269958496,-1.5189664363861084,-0.0,-0.0,-1.0,0.2039509241765366,1.0,0.0
15.490427017211914,30.080181121826172,-1.493668556213379,-0.0,-0.0,-1.0,0.1587832678482131,1.0,0.0
15.286561965942385,30.232101440429688,-1.5222947597503662,-0.0,-0.0,-1.0,0.1364108924550899,1.0,0.0
16.39645004272461,28.90071678161621,-1.3424818515777588,-0.0,-0.0,-1.0,0.1628198210106521,1.0,0.0
16.168214797973633,29.216354370117188,-1.3813626766204834,-0.2334916608285219,0.82600006035333,-0.5130356173014048,0.1450762547664627,3.0,0.0
15.500608444213867,29.341562271118164,-1.4576401710510254,-0.0,-0.0,-1.0,0.1705958548301407,1.0,0.0
15.306947708129885,28.864959716796875,-1.4567954540252686,-0.0,-0.0,-1.0,0.0500732566919959,1.0,0.0
17.551742553710938,29.079776763916016,-1.9155354499816897,-0.0,-0.0,-1.0,0.1441851193154422,1.0,0.0
17.55970573425293,28.73802947998047,-1.8898777961730957,-0.0,-0.0,-1.0,0.1632423937282155,1.0,0.0
15.353765487670898,30.37095642089844,-1.4597737789154053,-0.0,-0.0,-1.0,0.1733568667417868,1.0,0.0
15.442138671875,30.090774536132812,-1.436479568481445,-0.0,-0.0,-1.0,0.1412883524244313,2.0,0.0
15.565650939941406,29.38165855407715,-1.3893482685089111,0.2073400002958234,-0.7404916460795111,-0.6392826028946698,0.1507484188080745,3.0,0.0
15.387117385864258,29.31829261779785,-1.4064452648162842,-0.0,-0.0,-1.0,0.1484762765803502,2.0,0.0
16.19668960571289,29.205860137939453,-1.3107972145080566,-0.0,-0.0,-1.0,0.0943659282553324,2.0,0.0
15.910165786743164,29.324005126953125,-1.3482074737548828,-0.0,-0.0,-1.0,0.1185601730375888,2.0,0.0
15.504768371582031,28.64172744750977,-1.3631086349487305,-0.0,-0.0,-1.0,0.2299325895530118,1.0,0.0
15.551603317260742,28.22589683532715,-1.3400256633758545,-0.0,-0.0,-1.0,0.2171063113479435,1.0,0.0
15.451675415039062,30.48255920410156,-1.6506121158599854,-0.0,-0.0,-1.0,0.1976098959454908,2.0,0.0
15.770721435546877,30.52817153930664,-1.6101317405700684,-0.0,-0.0,-1.0,0.1551624949937545,2.0,0.0
16.226577758789062,29.998779296875,-1.527174472808838,-0.0,-0.0,-1.0,0.0801169255105365,1.0,0.0
15.53742218017578,30.253646850585938,-1.6296815872192385,-0.0,-0.0,-1.0,0.1487116213696236,1.0,0.0
16.24090576171875,29.541961669921875,-1.5063238143920898,-0.0,-0.0,-1.0,0.1035558432852929,1.0,0.0
15.556440353393556,29.99034118652344,-1.61639404296875,-0.0,-0.0,-1.0,0.1554965453167655,2.0,0.0
16.147890090942383,29.296039581298828,-1.508998155593872,-0.0,-0.0,-1.0,0.2000871892412188,1.0,0.0
15.729433059692385,29.265380859375,-1.5644822120666504,-0.0,-0.0,-1.0,0.1265300979650151,1.0,0.0
15.57814598083496,29.09085273742676,-1.57854962348938,-0.0,-0.0,-1.0,0.0809757873352069,1.0,0.0
15.565841674804688,28.685138702392575,-1.5654075145721436,-0.0,-0.0,-1.0,0.1142699803254086,1.0,0.0
15.566333770751951,28.272533416748047,-1.5508835315704346,-0.0,-0.0,-1.0,0.1484122628776492,1.0,0.0
15.540307998657228,30.15772247314453,-0.8240673542022705,-0.0,-0.0,-1.0,0.0996673069837405,2.0,0.0
15.477191925048828,30.107084274291992,-0.829819917678833,-0.0,-0.0,-1.0,0.0996673069837406,2.0,0.0
17.279380798339844,30.434877395629883,-1.8300455808639529,-0.0,-0.0,-1.0,0.0873846813336971,1.0,0.0
17.404144287109375,30.163667678833008,-1.79149067401886,0.7980712371632074,0.5968958413189404,-0.0824478928108035,0.0366310147837826,3.0,0.0
17.22494888305664,30.142295837402344,-1.813881754875183,-0.0,-0.0,-1.0,0.1072444883263133,1.0,0.0
17.331892013549805,29.855316162109375,-1.7767239809036257,-0.0,-0.0,-1.0,0.0603069423409729,1.0,0.0
17.20734405517578,29.68263816833496,-1.7802120447158811,-0.0,-0.0,-1.0,0.1107283698497558,2.0,0.0
17.076763153076172,29.51895523071289,-1.785542368888855,-0.0,-0.0,-1.0,0.1216199469191691,2.0,0.0
17.100629806518555,29.404876708984375,-1.7735768556594849,-0.0,-0.0,-1.0,0.0762883695336535,1.0,0.0
17.01285171508789,29.301305770874023,-1.777945637702942,-0.0,-0.0,-1.0,0.0628569290289983,1.0,0.0
17.430538177490234,28.939868927001953,-1.6928099393844604,-0.0,-0.0,-1.0,0.1996109810497453,2.0,0.0
17.033077239990234,28.962526321411133,-1.74994957447052,-0.0,-0.0,-1.0,0.1614759487638374,1.0,0.0
16.78895378112793,28.76817512512207,-1.770244002342224,-0.0,-0.0,-1.0,0.1294509754652089,2.0,0.0
16.72294807434082,28.53486442565918,-1.763123869895935,-0.0,-0.0,-1.0,0.1058992818339018,2.0,0.0
16.689193725585938,28.323802947998047,-1.7532180547714231,-0.0,-0.0,-1.0,0.0704937254864061,1.0,0.0
15.87494659423828,30.555809020996097,-1.2588826417922974,-0.0,-0.0,-1.0,0.1132141335334089,1.0,0.0
15.51016616821289,30.124343872070312,-1.2774726152420044,-0.0,-0.0,-1.0,0.2084304606418589,2.0,0.0
15.377273559570312,29.801448822021484,-1.2765308618545532,-0.0,-0.0,-1.0,0.0759391295830213,1.0,0.0
17.55783462524414,28.922164916992188,-1.9554343223571775,-0.0,-0.0,-1.0,0.1497390754896425,1.0,0.0
17.642879486083984,28.522632598876953,-1.9020767211914065,-0.0,-0.0,-1.0,0.0928190121613068,1.0,0.0
15.923812866210938,30.635164260864254,-1.6234517097473145,-0.0,-0.0,-1.0,0.1214989042694601,1.0,0.0
15.820749282836914,30.62955093383789,-1.6350276470184326,-0.0,-0.0,-1.0,0.1504518816030571,1.0,0.0
15.369149208068848,30.445575714111328,-1.6732745170593262,-0.0,-0.0,-1.0,0.1771795256818041,1.0,0.0
15.506855964660645,30.078102111816406,-1.6284868717193604,-0.0,-0.0,-1.0,0.1479497844709333,1.0,0.0
16.080604553222656,29.202486038208008,-1.4931330680847168,-0.0,-0.0,-1.0,0.19175232452663,1.0,0.0
15.598770141601562,29.38439559936523,-1.564709186553955,-0.0,-0.0,-1.0,0.1052036176170406,1.0,0.0
15.24264430999756,29.237628936767575,-1.5969581604003906,-0.0,-0.0,-1.0,0.1577807968757853,1.0,0.0
15.35660171508789,28.67707633972168,-1.542269229888916,-0.0,-0.0,-1.0,0.1557081792294164,1.0,0.0
15.24527072906494,28.705780029296875,-1.5580639839172363,-0.0,-0.0,-1.0,0.0947024364363916,1.0,0.0
15.27687168121338,28.24286460876465,-1.5214433670043943,-0.0,-0.0,-1.0,0.177932453524991,1.0,0.0
17.315013885498047,29.228626251220703,-1.349581003189087,-0.0,-0.0,-1.0,0.1097245430536724,1.0,0.0
15.494999885559082,30.121807098388672,-0.8983662128448486,0.1142276514331991,0.1417796572435112,-0.98328560064712,0.0996673069837406,3.0,0.0
16.807029724121094,30.374107360839844,-1.686904788017273,-0.0,-0.0,-1.0,0.0976977448245945,1.0,0.0
16.607688903808594,30.374666213989254,-1.7130283117294312,-0.0,-0.0,-1.0,0.0618175943535327,1.0,0.0
17.311500549316406,29.702983856201172,-1.5610195398330688,-0.0,-0.0,-1.0,0.1790442569764464,1.0,0.0
16.52442741394043,29.91024398803711,-1.6836124658584597,-0.0,-0.0,-1.0,0.0911646240478395,2.0,0.0
17.415470123291016,29.196369171142575,-1.502871870994568,-0.0,-0.0,-1.0,0.1236506472054033,1.0,0.0
16.596485137939453,29.607948303222656,-1.6480716466903689,-0.0,-0.0,-1.0,0.0723427571938004,2.0,0.0
16.47037696838379,29.49792861938477,-1.655854344367981,-0.0,-0.0,-1.0,0.08537163599599,1.0,0.0
16.273944854736328,29.16646194458008,-1.6553021669387815,-0.5736975055176304,0.6283485499746464,-0.5254039131064864,0.1588765258304569,3.0,0.0
15.922061920166016,29.123260498046875,-1.7005754709243774,-0.0,-0.0,-1.0,0.0889234301644665,1.0,0.0
15.792542457580566,28.88971710205078,-1.7002311944961548,-0.0,-0.0,-1.0,0.0514426311812245,2.0,0.0
15.905094146728516,28.403114318847656,-1.6465035676956177,-0.0,-0.0,-1.0,0.0562479145413603,1.0,0.0
15.661823272705078,30.109210968017575,-1.1128500699996948,-0.0,-0.0,-1.0,0.0655750092177985,1.0,0.0
17.69461441040039,29.393848419189453,-1.8484174013137815,-0.0,-0.0,-1.0,0.0317274847988739,1.0,0.0
17.41752052307129,29.34574317932129,-1.881902098655701,-0.0,-0.0,-1.0,0.0302718851286371,1.0,0.0
17.434772491455078,28.97665786743164,-1.8354729413986208,-0.0,-0.0,-1.0,0.2476576333861829,1.0,0.0
17.23495864868164,28.67597770690918,-1.8295739889144895,-0.0,-0.0,-1.0,0.215139053875345,2.0,0.0
17.086929321289062,28.51805877685547,-1.833567500114441,0.6249957236109439,-0.7783210385294158,-0.059972547474024,0.1787743135168492,3.0,0.0
17.032394409179688,28.138362884521484,-1.799075961112976,-0.0,-0.0,-1.0,0.0730597829111146,1.0,0.0
15.569961547851562,30.61421585083008,-1.604664921760559,-0.0,-0.0,-1.0,0.0989693587182732,1.0,0.0
15.445709228515623,30.418376922607425,-1.6022554636001587,-0.0,-0.0,-1.0,0.2135685487487478,1.0,0.0
15.403502464294434,30.45888900756836,-1.6110395193099976,-0.0,-0.0,-1.0,0.204207221538595,2.0,0.0
15.57911491394043,30.041528701782227,-1.552333950996399,-0.4460055473997137,0.8950275246138585,0.002186749247337,0.200928071057039,5.0,0.0
16.215354919433594,29.26935577392578,-1.4053648710250854,-0.0,-0.0,-1.0,0.1678763539738645,2.0,0.0
15.83740520477295,29.372943878173828,-1.4616767168045044,-0.0,-0.0,-1.0,0.161951042192368,1.0,0.0
15.562616348266602,29.421119689941406,-1.500517725944519,-0.0,-0.0,-1.0,0.184965047904058,1.0,0.0
16.277996063232422,29.118980407714844,-1.3843976259231567,-0.0,-0.0,-1.0,0.1511975967922041,1.0,0.0
15.281327247619627,28.658166885375977,-1.473347783088684,-0.0,-0.0,-1.0,0.1383099858364889,1.0,0.0
17.044189453125,29.207420349121097,-1.2980831861495972,-0.0,-0.0,-1.0,0.1748881197565511,1.0,0.0
15.631473541259766,30.11446762084961,-0.879409670829773,0.3699639881816318,-0.90135036720527,-0.2251536430699401,0.1005887359052463,3.0,0.0
16.970489501953125,30.594642639160156,-1.805575609207153,-0.0,-0.0,-1.0,0.0719815171852387,1.0,0.0
17.095760345458984,30.187591552734375,-1.7397856712341309,0.8806372656287086,0.4678495574620877,-0.0747983821250165,0.1575993636568927,3.0,0.0
16.977008819580078,30.14425277709961,-1.7496910095214844,0.8660141461851563,0.0591672753057768,0.4965065277920175,0.0691115680167521,3.0,0.0
17.088212966918945,29.73018264770508,-1.6854119300842283,0.6271031450046239,-0.7563238824638312,0.1863218461161923,0.1767827859812245,3.0,0.0
16.875808715820312,29.850669860839844,-1.7275590896606443,-0.0,-0.0,-1.0,0.0959254039791306,1.0,0.0
16.565765380859375,29.573909759521484,-1.735918045043945,-0.0,-0.0,-1.0,0.0420043874615158,1.0,0.0
16.530033111572266,29.31593894958496,-1.7109570503234863,-0.0,-0.0,-1.0,0.0486769666380454,1.0,0.0
16.606271743774414,29.083850860595703,-1.6739797592163086,-0.0,-0.0,-1.0,0.0650307104326872,1.0,0.0
16.33828353881836,29.01410865783691,-1.7030768394470217,-0.0,-0.0,-1.0,0.074008588957306,2.0,0.0
16.01460075378418,28.940998077392575,-1.7402701377868652,-0.0,-0.0,-1.0,0.0754570591697335,1.0,0.0
15.483794212341309,30.224288940429688,-1.3027877807617188,-0.0,-0.0,-1.0,0.2083229108584662,1.0,0.0
15.316400527954102,30.12398147583008,-1.3131382465362549,-0.0,-0.0,-1.0,0.1368228205066894,2.0,0.0
15.519509315490724,30.090559005737305,-1.287098407745361,-0.0,-0.0,-1.0,0.1653233311071476,2.0,0.0
17.409347534179688,29.02875328063965,-1.5596957206726074,-0.0,-0.0,-1.0,0.203605616476336,1.0,0.0
17.23475456237793,28.717018127441406,-1.546419620513916,-0.0,-0.0,-1.0,0.1027179089748881,1.0,0.0
16.425201416015625,28.229583740234375,-1.604259967803955,0.1381563324251127,-0.4122194815526184,-0.9005486809936107,0.0939458936916204,4.0,0.0
16.40764045715332,28.247947692871097,-1.608797550201416,-0.2078687656861698,-0.4173676330794004,-0.8846439029970239,0.0939458936916204,3.0,0.0
15.952315330505373,28.18130111694336,-1.6674647331237793,-0.0,-0.0,-1.0,0.0264225051388511,2.0,0.0
17.168901443481445,30.630550384521484,-1.8212825059890747,-0.0,-0.0,-1.0,0.0628138865480057,1.0,0.0
17.087940216064453,30.197093963623047,-1.772420048713684,0.2001867644580839,0.9525271856998032,0.2293844367837897,0.1575993636568927,3.0,0.0
17.0299072265625,29.754619598388672,-1.7207239866256714,-0.0,-0.0,-1.0,0.1450846401335224,1.0,0.0
16.571369171142578,29.842594146728516,-1.7934914827346802,-0.0,-0.0,-1.0,0.0805870128555617,1.0,0.0
16.59866714477539,29.397605895996097,-1.7324918508529663,-0.0,-0.0,-1.0,0.0343653556017562,1.0,0.0
16.55970001220703,29.100341796875,-1.7002590894699097,-0.0,-0.0,-1.0,0.0485630659083588,1.0,0.0
16.373092651367188,29.019336700439453,-1.7166177034378052,-0.0,-0.0,-1.0,0.044365060771814,2.0,0.0
16.03956413269043,28.987457275390625,-1.7607778310775757,-0.0,-0.0,-1.0,0.067056042981135,1.0,0.0
15.520283699035645,30.151519775390625,-1.3537856340408323,-0.0,-0.0,-1.0,0.2630538086520712,1.0,0.0
15.455124855041504,29.727283477783203,-1.320844292640686,-0.0,-0.0,-1.0,0.0481967886932257,2.0,0.0
16.419666290283203,28.38571548461914,-1.6325117349624634,-0.0,-0.0,-1.0,0.1133942513836627,1.0,0.0
16.336536407470703,28.200275421142575,-1.6228474378585815,-0.0,-0.0,-1.0,0.0790277335591183,1.0,0.0
16.804636001586914,30.458566665649418,-1.6786928176879885,-0.0,-0.0,-1.0,0.1363323556430317,2.0,0.0
16.4312686920166,30.255529403686523,-1.6972525119781494,-0.0,-0.0,-1.0,0.0482914873858434,1.0,0.0
16.380477905273438,29.93273162841797,-1.6608359813690186,-0.0,-0.0,-1.0,0.0975050014618264,1.0,0.0
16.321697235107422,29.731773376464844,-1.642000436782837,-0.0,-0.0,-1.0,0.0679391968680617,1.0,0.0
16.291255950927734,29.58084487915039,-1.6263515949249268,-0.0,-0.0,-1.0,0.1014336497408434,1.0,0.0
15.766085624694824,29.20029067993164,-1.6493375301361084,-0.0,-0.0,-1.0,0.0509240820437728,2.0,0.0
15.54485034942627,29.024497985839844,-1.6588501930236816,-0.0,-0.0,-1.0,0.0809091688693433,1.0,0.0
17.50967788696289,29.0413818359375,-1.9349122047424316,-0.0,-0.0,-1.0,0.1360154696393299,1.0,0.0
17.48554229736328,28.667797088623047,-1.8768627643585205,-0.0,-0.0,-1.0,0.2423963234197624,1.0,0.0
17.23126220703125,28.59842300415039,-1.9034574031829832,-0.0,-0.0,-1.0,0.1261056425868028,1.0,0.0
17.020219802856445,28.170944213867188,-1.8680477142333984,-0.0,-0.0,-1.0,0.0562327261664456,1.0,0.0
15.548008918762209,30.094261169433594,-1.1909635066986084,-0.6685485711695148,0.6323039182560801,-0.3914518654256337,0.1473806930835087,4.0,0.0
15.26988124847412,30.075298309326172,-1.220921277999878,-0.0,-0.0,-1.0,0.1897792962956078,1.0,0.0
17.14037322998047,29.782567977905273,-1.5454223155975342,-0.0,-0.0,-1.0,0.2084034426306946,1.0,0.0
17.03076171875,29.558807373046875,-1.528581142425537,-0.0,-0.0,-1.0,0.1309784144989219,1.0,0.0
17.28138542175293,29.37121963500977,-1.4721596240997314,-0.0,-0.0,-1.0,0.1379768061860195,1.0,0.0
17.048980712890625,29.247482299804688,-1.4845454692840576,-0.0,-0.0,-1.0,0.1879336138801044,2.0,0.0
16.224966049194336,29.25861358642578,-1.5937588214874268,-0.0,-0.0,-1.0,0.1912578890518201,2.0,0.0
17.505857467651367,28.937477111816406,-1.3857595920562744,-0.0,-0.0,-1.0,0.2043222114531948,1.0,0.0
15.598311424255373,28.647857666015625,-1.6057672500610352,-0.0,-0.0,-1.0,0.118240632344869,2.0,0.0
16.56942367553711,28.498022079467773,-1.4504663944244385,-0.0,-0.0,-1.0,0.1084121802065996,1.0,0.0
16.382925033569336,28.31604766845703,-1.453599214553833,-0.0,-0.0,-1.0,0.1380467646908885,2.0,0.0
15.532312393188477,28.40216064453125,-1.5862233638763428,-0.0,-0.0,-1.0,0.1743763390221184,1.0,0.0
17.207565307617188,30.465229034423828,-1.705225944519043,-0.0,-0.0,-1.0,0.1003448318363901,1.0,0.0
16.76394271850586,30.369815826416016,-1.7318823337554932,-0.587384134658998,-0.4289654452465745,-0.686271466065221,0.1044686240212579,3.0,0.0
16.5952205657959,30.448314666748047,-1.761035442352295,-0.0,-0.0,-1.0,0.0727237495302081,1.0,0.0
16.89925193786621,30.296676635742188,-1.7069907188415527,-0.0,-0.0,-1.0,0.0497329312938751,2.0,0.0
16.51779556274414,30.067338943481445,-1.708411455154419,-0.0,-0.0,-1.0,0.0731637390061467,1.0,0.0
17.632312774658203,29.017242431640625,-1.9539976119995115,-0.0,-0.0,-1.0,0.1466531871058992,2.0,0.0
17.594314575195312,28.593320846557617,-1.877011775970459,-0.0,-0.0,-1.0,0.1232681053267781,1.0,0.0
17.3364200592041,28.60484504699707,-1.910154104232788,-0.0,-0.0,-1.0,0.1361789202096519,1.0,0.0
17.194211959838867,30.262434005737305,-1.67340350151062,-0.0,-0.0,-1.0,0.0994193537616788,1.0,0.0
17.152446746826172,30.231130599975582,-1.6722362041473389,0.9025627597482812,0.4284001325765288,-0.0430556747012393,0.1188256056470185,3.0,0.0
16.437450408935547,29.85618019104004,-1.6834979057312012,-0.0,-0.0,-1.0,0.0842046839038666,2.0,0.0
16.822908401489258,29.835590362548828,-1.6407666206359863,-0.0,-0.0,-1.0,0.079226978948988,1.0,0.0
16.40044403076172,29.60675048828125,-1.6485810279846191,0.7403096250696829,-0.0420496619505561,-0.6709496888433806,0.0776471140688946,4.0,0.0
16.320653915405273,29.25843811035156,-1.6035053730010986,-0.0,-0.0,-1.0,0.1522506103859912,2.0,0.0
15.971174240112305,29.214521408081055,-1.6359009742736816,-0.0,-0.0,-1.0,0.1334204306674183,1.0,0.0
15.650872230529783,29.056453704833984,-1.6494629383087158,-0.0,-0.0,-1.0,0.0630337796878957,2.0,0.0
17.42006492614746,28.900184631347656,-1.432258367538452,-0.0,-0.0,-1.0,0.153621803335512,1.0,0.0
15.613140106201172,28.61345672607422,-1.5891594886779783,-0.0,-0.0,-1.0,0.1295465584399695,2.0,0.0
15.462021827697754,28.424110412597656,-1.580493688583374,-0.0,-0.0,-1.0,0.1805197528331691,1.0,0.0
16.38658905029297,28.30865478515625,-1.4524354934692385,-0.0,-0.0,-1.0,0.1380467646908885,2.0,0.0
15.470139503479004,28.28443145751953,-1.559549331665039,-0.0,-0.0,-1.0,0.1743113628036518,2.0,0.0
15.62778663635254,30.311145782470703,-1.2468583583831787,-0.0,-0.0,-1.0,0.0826241460861503,1.0,0.0
15.430150032043455,30.095550537109375,-1.2387676239013672,-0.0,-0.0,-1.0,0.1572577998190326,1.0,0.0
17.503568649291992,30.322280883789062,-1.8331353664398191,-0.0,-0.0,-1.0,0.0471469410352939,1.0,0.0
17.363107681274414,30.242816925048828,-1.8293335437774656,-0.0,-0.0,-1.0,0.0772014222713382,1.0,0.0
17.271343231201172,29.8657283782959,-1.7674291133880615,-0.0,-0.0,-1.0,0.092451489358236,1.0,0.0
16.93663215637207,29.68578338623047,-1.7630674839019775,-0.0,-0.0,-1.0,0.1335143905746015,1.0,0.0
16.67243194580078,29.64547348022461,-1.779279708862305,-0.0,-0.0,-1.0,0.0521404072102628,1.0,0.0
16.583763122558594,29.319480895996097,-1.7294180393218994,-0.0,-0.0,-1.0,0.0508824611708483,1.0,0.0
16.370502471923828,29.084787368774418,-1.708500862121582,-0.0,-0.0,-1.0,0.0739344489482797,1.0,0.0
15.87953758239746,29.048572540283203,-1.751774549484253,-0.0,-0.0,-1.0,0.0379204986523238,1.0,0.0
17.42054557800293,29.111637115478516,-1.6174063682556152,-0.0,-0.0,-1.0,0.2984037211173648,2.0,0.0
15.780200958251951,28.461021423339844,-1.6622769832611084,-0.0,-0.0,-1.0,0.0331623301014915,1.0,0.0
15.868224143981934,30.576709747314453,-1.4273614883422852,-0.0,-0.0,-1.0,0.0862861367303251,2.0,0.0
15.487852096557615,30.15524673461914,-1.3975155353546145,-0.0,-0.0,-1.0,0.2747201917447351,2.0,0.0
15.433581352233888,29.747543334960938,-1.3445219993591309,-0.0,-0.0,-1.0,0.0547102992559492,2.0,0.0
16.104209899902344,29.335269927978516,-1.2298717498779297,-0.0,-0.0,-1.0,0.126165422902692,1.0,0.0
17.090087890625,29.115257263183594,-1.121595859527588,-0.0,-0.0,-1.0,0.1921215193983979,2.0,0.0
15.951955795288086,30.578609466552734,-1.674073338508606,-0.0,-0.0,-1.0,0.1214989042694601,1.0,0.0
15.769109725952148,30.57270050048828,-1.6795579195022583,-0.0,-0.0,-1.0,0.1572352506109189,1.0,0.0
16.86370086669922,30.404701232910156,-1.6149407625198364,-0.0,-0.0,-1.0,0.0959947947529495,2.0,0.0
15.53409481048584,30.021766662597656,-1.591303467750549,0.6549559624591555,0.6976174846370398,-0.2904522893142531,0.2180002626491311,3.0,0.0
16.427642822265625,30.02059555053711,-1.5573846101760864,-0.0,-0.0,-1.0,0.0793050226514315,1.0,0.0
17.672828674316406,29.243162155151367,-1.9122763872146609,-0.0,-0.0,-1.0,0.0304789281141576,1.0,0.0
17.247941970825195,28.98958969116211,-1.871821045875549,-0.0,-0.0,-1.0,0.1500463446843693,2.0,0.0
17.059886932373047,28.7454833984375,-1.826964020729065,-0.0,-0.0,-1.0,0.0530746845270681,1.0,0.0
17.32561492919922,28.83606719970703,-1.8353596925735471,-0.0,-0.0,-1.0,0.1394270989957921,2.0,0.0
16.991010665893555,28.619659423828125,-1.8029621839523315,-0.0,-0.0,-1.0,0.0912811682284045,1.0,0.0
16.796695709228516,28.3682861328125,-1.7588509321212769,-0.0,-0.0,-1.0,0.0764242195096952,1.0,0.0
15.66231918334961,29.447154998779297,-1.4848159551620483,-0.0,-0.0,-1.0,0.1731122429001757,2.0,0.0
15.477952003479004,29.393741607666016,-1.4839857816696167,-0.0,-0.0,-1.0,0.1739612853879095,2.0,0.0
16.43240737915039,29.47833824157715,-1.459468960762024,-0.0,-0.0,-1.0,0.1013231943671399,1.0,0.0
16.301807403564453,29.385906219482425,-1.4477297067642212,-0.0,-0.0,-1.0,0.1642502628338337,2.0,0.0
16.109132766723633,29.175395965576172,-1.4177576303482056,-0.0,-0.0,-1.0,0.1212122285776815,1.0,0.0
15.24618148803711,28.608871459960938,-1.3609215021133425,-0.0,-0.0,-1.0,0.2207081722519445,1.0,0.0
16.448505401611328,28.93128204345703,-1.360970377922058,-0.0,-0.0,-1.0,0.0814738084034971,1.0,0.0
15.56814956665039,28.335063934326172,-1.2968865633010864,-0.0,-0.0,-1.0,0.1992288824958984,1.0,0.0
15.620733261108398,30.148744583129883,-1.0296136140823364,-0.3921685492633379,-0.8512771645343743,-0.3486129918849906,0.0812042858387089,4.0,0.0
17.676715850830078,29.427228927612305,-1.8978726863861084,-0.0,-0.0,-1.0,0.031202353057144,1.0,0.0
15.74710464477539,30.567867279052734,-1.6096951961517334,-0.0,-0.0,-1.0,0.1551624949937545,2.0,0.0
15.841140747070312,30.47710609436035,-1.5904500484466553,-0.0,-0.0,-1.0,0.1366513213316442,1.0,0.0
15.579557418823242,30.05351448059082,-1.5340569019317627,-0.4460055473997137,0.8950275246138585,0.002186749247337,0.200928071057039,5.0,0.0
15.519107818603516,29.75830841064453,-1.489476203918457,-0.0,-0.0,-1.0,0.0692055432118921,1.0,0.0
15.45009708404541,29.37129592895508,-1.4311165809631348,-0.0,-0.0,-1.0,0.1757298857390723,1.0,0.0
15.74123191833496,29.372386932373047,-1.4154365062713623,-0.0,-0.0,-1.0,0.1719560121278553,1.0,0.0
16.62875747680664,28.66572952270508,-1.7926645278930664,-0.0,-0.0,-1.0,0.0648151008716427,2.0,0.0
17.270305633544922,29.05518341064453,-1.8382236957550049,-0.0,-0.0,-1.0,0.1668768831034797,2.0,0.0
17.06856346130371,28.925151824951172,-1.8213751316070557,-0.0,-0.0,-1.0,0.1304303703251011,2.0,0.0
16.73509407043457,28.525890350341797,-1.758901596069336,-0.0,-0.0,-1.0,0.1058992818339018,2.0,0.0
16.57997703552246,28.237865447998047,-1.7108628749847412,-0.0,-0.0,-1.0,0.0595945119766485,1.0,0.0
16.198413848876953,29.176910400390625,-1.360713243484497,-0.3070906752396082,0.8368668771374485,-0.4531546613807434,0.111927288100717,3.0,0.0
17.128108978271484,29.32362174987793,-1.3466253280639648,-0.0,-0.0,-1.0,0.1060760150767162,1.0,0.0
17.009170532226562,29.181095123291016,-1.3269798755645752,-0.0,-0.0,-1.0,0.1601326439996965,1.0,0.0
17.384994506835938,29.197479248046875,-1.316819190979004,-0.0,-0.0,-1.0,0.1101338133588493,1.0,0.0
15.640880584716797,30.083728790283203,-0.9464867115020752,-0.0,-0.0,-1.0,0.1003634797622637,1.0,0.0
15.306022644042969,29.31375503540039,-1.6732895374298096,-0.0,-0.0,-1.0,0.1462870219300548,1.0,0.0
16.503372192382812,30.024126052856445,-1.7796673774719238,-0.0,-0.0,-1.0,0.0890583313749178,2.0,0.0
16.34735870361328,29.83812713623047,-1.746974229812622,-0.0,-0.0,-1.0,0.0715229199783401,1.0,0.0
15.630141258239746,29.177316665649418,-1.639815330505371,-0.0,-0.0,-1.0,0.0720894476157407,2.0,0.0
17.150833129882812,30.231029510498047,-1.8142235279083252,-0.0,-0.0,-1.0,0.1372524338363318,1.0,0.0
16.789438247680664,30.05040740966797,-1.7819128036499023,-0.0,-0.0,-1.0,0.0726508572321796,2.0,0.0
16.306396484375,29.505142211914062,-1.6857874393463137,-0.0,-0.0,-1.0,0.0997459308899714,1.0,0.0
16.25872230529785,29.286365509033203,-1.646094799041748,-0.0,-0.0,-1.0,0.1493395377971229,1.0,0.0
16.09918975830078,29.069580078125,-1.6091508865356443,-0.0,-0.0,-1.0,0.1924985921692004,1.0,0.0
17.222064971923828,29.950681686401367,-1.761082649230957,-0.0,-0.0,-1.0,0.0544423649712126,1.0,0.0
16.984771728515625,29.60219955444336,-1.6964147090911863,0.3810338303524184,0.5605106264124535,-0.735282978047012,0.0959586536179115,3.0,0.0
15.769699096679688,30.492076873779297,-1.2541224956512451,-0.0,-0.0,-1.0,0.0788827491038853,1.0,0.0
15.362260818481444,29.97291374206543,-1.1811158657073977,-0.0,-0.0,-1.0,0.2141170296548369,2.0,0.0
16.789730072021484,28.67410659790039,-1.524559497833252,-0.0,-0.0,-1.0,0.2159752015652427,1.0,0.0
16.40784454345703,28.47058486938477,-1.4928696155548096,-0.0,-0.0,-1.0,0.102623649584278,1.0,0.0
17.324220657348633,28.89229965209961,-1.56089186668396,-0.5923120755134365,0.7772652139801012,-0.2121914049565469,0.2397102403761392,3.0,0.0
15.683483123779297,28.99133682250977,-1.6604899168014526,-0.0,-0.0,-1.0,0.0847269288854176,1.0,0.0
16.126510620117188,29.006301879882812,-1.6629763841629028,-0.0,-0.0,-1.0,0.1416734224425984,1.0,0.0
15.639410972595217,28.498056411743164,-1.5701347589492798,-0.0,-0.0,-1.0,0.157541044290157,1.0,0.0
16.264179229736328,28.941062927246097,-1.6512259244918823,-0.0,-0.0,-1.0,0.0853314451526369,1.0,0.0
15.378875732421877,29.979721069335938,-1.2088879346847534,-0.0,-0.0,-1.0,0.2376307921904906,2.0,0.0
17.575658798217773,28.96318244934082,-1.3957645893096924,-0.0,-0.0,-1.0,0.1703118089350146,1.0,0.0
16.411876678466797,29.30046844482422,-1.522693395614624,-0.0,-0.0,-1.0,0.1588336560293822,1.0,0.0
16.458370208740234,29.90456771850586,-1.6136443614959717,-0.0,-0.0,-1.0,0.080080060370841,1.0,0.0
16.6359920501709,29.986236572265625,-1.6280245780944824,-0.0,-0.0,-1.0,0.1118877496354515,1.0,0.0
16.70879364013672,28.378936767578125,-1.753066062927246,-0.0,-0.0,-1.0,0.0800708686403718,1.0,0.0
16.856727600097656,28.407121658325195,-1.7523064613342283,-0.0,-0.0,-1.0,0.0725385380760514,1.0,0.0
16.934791564941406,28.544269561767575,-1.7700567245483398,-0.0,-0.0,-1.0,0.119347218520053,1.0,0.0
17.08014678955078,28.94980239868164,-1.8254923820495603,-0.0,-0.0,-1.0,0.1397205252800953,2.0,0.0
15.498291015625,28.432151794433594,-1.411422610282898,-0.0,-0.0,-1.0,0.2875916893618384,1.0,0.0
15.54155158996582,29.266002655029297,-1.457897067070007,-0.0,-0.0,-1.0,0.1476491014984054,1.0,0.0
16.045177459716797,29.028411865234375,-1.4891728162765503,-0.0,-0.0,-1.0,0.1218122214989774,1.0,0.0
16.128162384033203,29.056659698486328,-1.489859700202942,-0.0,-0.0,-1.0,0.1296600947904612,1.0,0.0
15.729241371154783,29.314350128173828,-1.5334738492965698,-0.0,-0.0,-1.0,0.1314829644866164,1.0,0.0
16.11966896057129,29.355205535888672,-1.5257967710494995,-0.0,-0.0,-1.0,0.1712031622175701,1.0,0.0
16.236440658569336,29.852447509765625,-1.5818380117416382,-0.0,-0.0,-1.0,0.0761489469547398,1.0,0.0
16.014236450195312,29.94513702392578,-1.5998119115829468,-0.0,-0.0,-1.0,0.032512587464744,1.0,0.0
15.552868843078612,30.446796417236328,-1.67436420917511,-0.0,-0.0,-1.0,0.13596963533367,1.0,0.0
17.535676956176758,29.06612014770508,-1.829974889755249,-0.0,-0.0,-1.0,0.1838537432188082,1.0,0.0
17.493701934814453,28.168725967407227,-1.7614960670471191,-0.0,-0.0,-1.0,0.1186967405513286,1.0,0.0
17.105173110961914,29.970243453979492,-1.7527390718460083,0.0125392952911421,0.9482718214134565,0.3172117885369442,0.0585665978562209,3.0,0.0
16.42721176147461,29.67863655090332,-1.7506755590438845,-0.0,-0.0,-1.0,0.0537984737145704,1.0,0.0
16.991317749023438,29.539716720581055,-1.7237852811813354,0.999507379833656,-0.0241224796790238,0.0200774408776421,0.1029356232779937,3.0,0.0
16.42715072631836,28.94740295410156,-1.696653962135315,-0.0,-0.0,-1.0,0.0739381906954061,2.0,0.0
