x,y,z,nx,ny,nz,curvature,density,label
19.17600440979004,-28.749069213867188,1.2972984313964844,-0.0,-0.0,-1.0,0.0584351119275312,1.0,2.0
18.91645050048828,-28.75922393798828,1.305299162864685,-0.0,-0.0,-1.0,0.0950657792421245,1.0,2.0
19.443218231201172,-28.955333709716797,1.2801101207733154,-0.0,-0.0,-1.0,0.0806668788687266,1.0,2.0
19.339136123657227,-29.105655670166016,1.2773566246032717,-0.0,-0.0,-1.0,0.1296173685809539,1.0,2.0
20.13563537597656,-28.88775634765625,1.2599923610687256,-0.0,-0.0,-1.0,0.0786701648459196,2.0,2.0
19.776655197143555,-29.132160186767575,1.261855125427246,-0.0,-0.0,-1.0,0.0328294246643956,1.0,2.0
20.18401527404785,-28.968109130859375,1.2550649642944336,-0.0,-0.0,-1.0,0.1381481014871849,1.0,2.0
17.863037109375,-27.09512710571289,2.039968967437744,-0.3452489714276346,-0.1654264150282721,-0.923816674962654,0.2362485237478242,3.0,3.0
18.226865768432617,-27.206058502197266,2.022949457168579,-0.0,-0.0,-1.0,0.202116572534342,2.0,3.0
18.22467041015625,-27.560932159423828,2.020200252532959,-0.0,-0.0,-1.0,0.2318408621836273,2.0,3.0
18.08874130249023,-27.08368682861328,1.3580095767974854,-0.0,-0.0,-1.0,0.219617250013426,1.0,2.0
18.899852752685547,-26.888181686401367,1.3469924926757812,-0.0,-0.0,-1.0,0.1679369139777287,1.0,2.0
18.587404251098633,-27.23479461669922,1.3400599956512451,-0.0,-0.0,-1.0,0.2095980294694183,2.0,2.0
18.483983993530273,-27.256366729736328,1.341615915298462,-0.0,-0.0,-1.0,0.2312165435853202,2.0,2.0
19.318832397460938,-27.207252502441406,1.3236043453216553,-0.0,-0.0,-1.0,0.2125065865752239,1.0,2.0
19.125762939453125,-27.418960571289062,1.319486379623413,-0.0,-0.0,-1.0,0.1919749474444527,2.0,2.0
18.40422248840332,-28.099536895751953,1.3085657358169556,-0.0,-0.0,-1.0,0.1109783148125746,2.0,2.0
19.52336311340332,-27.24094009399414,1.3171892166137695,-0.0,-0.0,-1.0,0.1898775260722748,1.0,2.0
18.61658477783203,-28.25135803222656,1.2971696853637695,-0.0,-0.0,-1.0,0.1247715710378736,1.0,2.0
19.329296112060547,-28.187843322753903,1.282442927360535,0.2944649257578141,-0.343619439665906,-0.8917488930086394,0.1077562274616404,3.0,2.0
19.030498504638672,-28.626445770263672,1.2714929580688477,-0.0,-0.0,-1.0,0.0812882914125171,1.0,2.0
19.700698852539062,-28.136398315429688,1.2753642797470093,-0.0,-0.0,-1.0,0.05315569561343,1.0,2.0
19.41023063659668,-28.544002532958984,1.2655537128448486,0.995157602245202,-0.0610312412385744,-0.0770489084053689,0.0377466905252575,3.0,2.0
19.41580581665039,-28.681018829345703,1.2596889734268188,-0.0,-0.0,-1.0,0.0410828060998722,2.0,2.0
20.05080223083496,-28.348552703857425,1.2576476335525513,0.5403144137968328,-0.5064465444389347,-0.6719912438932873,0.1310227341524449,3.0,2.0
19.64682388305664,-28.79949951171875,1.2489500045776367,0.6234982695820683,0.4292638418319515,-0.6534389504183536,0.0367726520532026,3.0,2.0
17.7606201171875,-26.87672996520996,1.9697272777557373,-0.0,-0.0,-1.0,0.0913919839697947,2.0,2.0
17.97930908203125,-27.204681396484375,1.9588463306427,-0.0,-0.0,-1.0,0.2050424531939501,2.0,2.0
17.855356216430664,-27.324626922607425,1.9622942209243777,-0.0,-0.0,-1.0,0.2040948159741266,1.0,2.0
18.180803298950195,-27.43850326538086,1.9495043754577637,-0.0,-0.0,-1.0,0.1956251005289244,1.0,2.0
17.732254028320312,-26.927589416503903,1.3509187698364258,-0.0,-0.0,-1.0,0.1561033358534417,1.0,2.0
17.988636016845703,-26.91459846496582,1.3476557731628418,-0.0,-0.0,-1.0,0.1958287136141133,1.0,2.0
18.417312622070312,-27.26041030883789,1.3277472257614136,0.9839107826894103,0.0855809317891835,-0.1568294481964634,0.1819848485551825,3.0,2.0
18.569618225097656,-27.36648178100586,1.3212645053863523,-0.0,-0.0,-1.0,0.2056663550217244,1.0,2.0
19.379077911376953,-27.335071563720703,1.3096143007278442,-0.0,-0.0,-1.0,0.2345947504341296,1.0,2.0
19.112916946411133,-27.45134735107422,1.3093624114990234,-0.0,-0.0,-1.0,0.1919749474444527,2.0,2.0
18.640039443969727,-28.178974151611328,1.2883899211883545,-0.0,-0.0,-1.0,0.1155266294946648,1.0,2.0
18.38083267211914,-28.20370864868164,1.291500687599182,-0.7859033121397706,-0.4373490924679799,-0.4371289915862051,0.1103461576782652,3.0,2.0
20.168437957763672,-27.14033889770508,1.3041261434555054,-0.0,-0.0,-1.0,0.108186809880723,2.0,2.0
19.310932159423828,-28.189796447753903,1.2771315574645996,0.2133062695104383,-0.849979679286228,-0.4817000936142958,0.1077562274616404,4.0,2.0
18.727758407592773,-28.713268280029297,1.2660562992095947,-0.0,-0.0,-1.0,0.047534464080908,1.0,2.0
19.602609634399418,-28.36301040649414,1.265455722808838,-0.0,-0.0,-1.0,0.0398077503992955,1.0,2.0
19.16397476196289,-28.60848617553711,1.2630630731582642,-0.0,-0.0,-1.0,0.021832602043558,1.0,2.0
20.04220390319824,-28.3583984375,1.2581543922424316,0.5403144137968328,-0.5064465444389347,-0.6719912438932873,0.142789848322908,3.0,2.0
19.637638092041016,-28.709041595458984,1.2512158155441284,-0.0,-0.0,-1.0,0.0308956567233913,1.0,2.0
19.542556762695312,-28.835960388183594,1.2478034496307373,-0.0,-0.0,-1.0,0.0792747702158287,1.0,2.0
20.03790855407715,-28.97799301147461,1.2337255477905271,-0.0,-0.0,-1.0,0.0893300291149733,2.0,2.0
17.849273681640625,-26.92017364501953,1.9112298488616943,-0.0,-0.0,-1.0,0.125470265606088,1.0,2.0
17.745100021362305,-27.288280487060547,1.9117941856384275,-0.1082727681185354,-0.1751011242472295,-0.97857886957123,0.170845844974614,3.0,2.0
18.11124038696289,-27.433494567871097,1.9008554220199585,-0.0,-0.0,-1.0,0.1290360999904235,1.0,2.0
17.881895065307617,-27.037281036376953,1.4595104455947876,0.5466458891443027,-0.5358010339833345,-0.6435025437898628,0.1304803616783745,4.0,2.0
18.242321014404297,-27.22031021118164,1.433346390724182,-0.0,-0.0,-1.0,0.2049772032617305,1.0,2.0
18.04050064086914,-27.481220245361328,1.4312924146652222,-0.0,-0.0,-1.0,0.2146380316069736,1.0,2.0
18.558198928833008,-27.270292282104492,1.4153658151626587,-0.0,-0.0,-1.0,0.247048594990321,1.0,2.0
18.410329818725582,-27.384849548339844,1.417426824569702,-0.0,-0.0,-1.0,0.2441797270646741,1.0,2.0
19.398353576660156,-27.272275924682617,1.373051643371582,-0.5724570486805645,0.7461343069245128,-0.3399654739031813,0.2575421312420962,3.0,2.0
19.168243408203125,-27.53178024291992,1.372648000717163,-0.1758261193107754,-0.2311034779105674,-0.9569097963056667,0.1676558633943367,3.0,2.0
18.283334732055664,-28.51402282714844,1.3715646266937256,-0.0,-0.0,-1.0,0.0436191202233172,1.0,2.0
19.524337768554688,-27.52093505859375,1.3550896644592283,-0.0,-0.0,-1.0,0.1515836185280152,1.0,2.0
18.72170066833496,-28.324729919433594,1.3583674430847168,0.602543472752497,-0.7937319085487581,-0.0832527524764566,0.1356625619805778,3.0,2.0
18.420454025268555,-28.653169631958008,1.3582687377929688,-0.0,-0.0,-1.0,0.0668150163439285,2.0,2.0
18.316017150878903,-29.008201599121097,1.347055196762085,-0.0,-0.0,-1.0,0.0380245283463992,1.0,2.0
20.18761444091797,-27.143558502197266,1.338690161705017,-0.0,-0.0,-1.0,0.108186809880723,2.0,2.0
19.244064331054688,-28.67082405090332,1.315848708152771,-0.0,-0.0,-1.0,0.1071930433214012,2.0,2.0
18.99131774902344,-28.74578857421875,1.3252100944519043,-0.0,-0.0,-1.0,0.0890893714973051,2.0,2.0
18.6735897064209,-29.042434692382812,1.3274990320205688,-0.0,-0.0,-1.0,0.0475137433016201,2.0,2.0
20.117460250854492,-28.312984466552734,1.287708044052124,-0.0,-0.0,-1.0,0.1725290242352237,1.0,2.0
19.491065979003903,-28.976829528808594,1.2889875173568726,-0.7123211489168214,0.6903566627092909,0.1265158450894977,0.076832087866219,4.0,2.0
20.09629821777344,-29.014625549316406,1.2560235261917114,-0.0,-0.0,-1.0,0.091415330369772,1.0,2.0
19.71825408935547,-29.072498321533203,1.2728532552719116,-0.2629874941546608,0.8750627701415795,0.4063283478055618,0.0281804786656974,3.0,2.0
17.750782012939453,-27.05472183227539,1.9947670698165896,-0.0,-0.0,-1.0,0.1856427552194365,1.0,2.0
17.746442794799805,-27.330284118652344,1.9914172887802124,-0.0,-0.0,-1.0,0.2050947589102154,2.0,2.0
18.051586151123047,-27.321369171142575,1.972933292388916,-0.0,-0.0,-1.0,0.2947745231459175,2.0,2.0
18.140134811401367,-27.55054473876953,1.964583158493042,0.5289755676518458,-0.8374155935700505,0.1375498908510203,0.2091940442769048,3.0,2.0
18.615171432495117,-27.28407859802246,1.9393187761306765,-0.0,-0.0,-1.0,0.115764533301766,2.0,2.0
18.121702194213867,-29.0665283203125,1.3716522455215454,-0.0,-0.0,-1.0,0.097758733858683,1.0,2.0
18.38096809387207,-29.316314697265625,1.3473451137542725,-0.0,-0.0,-1.0,0.0935282145905004,1.0,2.0
19.05615997314453,-28.93152618408203,1.343307375907898,-0.0,-0.0,-1.0,0.184516464615589,2.0,2.0
18.9029541015625,-29.02674865722656,1.3438596725463867,-0.0,-0.0,-1.0,0.1497724461562349,1.0,2.0
18.691085815429688,-29.271081924438477,1.337960958480835,-0.0,-0.0,-1.0,0.06434318107964,1.0,2.0
19.50917625427246,-29.194625854492188,1.3092859983444214,-0.0,-0.0,-1.0,0.0926632038238523,1.0,2.0
19.306386947631836,-29.24624252319336,1.314659595489502,-0.0,-0.0,-1.0,0.210154262589563,1.0,2.0
19.776256561279297,-29.26880645751953,1.293611764907837,-0.0,-0.0,-1.0,0.0969569206389928,1.0,2.0
18.07449531555176,-27.012292861938477,1.4915169477462769,-0.3716505779523196,-0.0966579355486915,-0.9233271854565812,0.1885436407078925,3.0,2.0
17.842731475830078,-27.1180419921875,1.4935221672058103,-0.0,-0.0,-1.0,0.1846083426144564,2.0,2.0
18.153736114501953,-27.0792236328125,1.4848979711532593,-0.0,-0.0,-1.0,0.212736477075924,1.0,2.0
18.22566032409668,-27.362802505493164,1.466054081916809,-0.0,-0.0,-1.0,0.2246724759658016,1.0,2.0
18.565723419189453,-27.22050666809082,1.4618667364120483,-0.0,-0.0,-1.0,0.1723543717215445,1.0,2.0
18.47935676574707,-27.39049530029297,1.455233812332153,-0.0,-0.0,-1.0,0.2405531858442827,2.0,2.0
18.71820068359375,-28.33088493347168,1.3917181491851809,0.4183804362076302,-0.9000146008669866,-0.1221946350088722,0.1258205386037472,3.0,2.0
19.27236557006836,-28.241764068603516,1.375069260597229,-0.0,-0.0,-1.0,0.1941259053116388,2.0,2.0
17.82000732421875,-27.214027404785156,1.9826743602752688,-0.0,-0.0,-1.0,0.2292705003523161,1.0,2.0
20.08735084533691,-26.90253257751465,1.0137860774993896,-0.0,-0.0,-1.0,0.1163595512721734,1.0,2.0
19.82620620727539,-27.022937774658203,1.010279655456543,-0.0,-0.0,-1.0,0.0348899674980856,1.0,2.0
17.816261291503906,-27.008949279785156,1.519141435623169,-0.0,-0.0,-1.0,0.175868349942485,2.0,2.0
17.982242584228516,-27.118566513061523,1.5064040422439575,-0.0,-0.0,-1.0,0.2479344505812525,1.0,2.0
17.97381019592285,-27.481037139892575,1.4823341369628906,0.9317286718549928,-0.3630799551031105,0.0073910923180489,0.1445373020721547,3.0,2.0
18.498958587646484,-27.27810287475586,1.4780998229980469,-0.0,-0.0,-1.0,0.1774054818712352,2.0,2.0
18.19680404663086,-27.594432830810547,1.467170238494873,-0.0,-0.0,-1.0,0.2540773397776026,1.0,2.0
17.991230010986328,-29.06374740600586,1.3748619556427002,-0.0,-0.0,-1.0,0.1315949452298104,1.0,2.0
19.52971649169922,-27.26770401000977,1.4407700300216677,-0.0,-0.0,-1.0,0.1898833823227464,2.0,2.0
18.13115119934082,-29.1285400390625,1.3655261993408203,-0.0,-0.0,-1.0,0.0989459319806776,1.0,2.0
18.95539093017578,-28.555932998657227,1.3743668794631958,-0.0,-0.0,-1.0,0.1091531139455976,1.0,2.0
18.922014236450195,-28.91904067993164,1.350738763809204,-0.0,-0.0,-1.0,0.2548982669429115,1.0,2.0
19.878910064697266,-28.372817993164062,1.350538969039917,-0.0,-0.0,-1.0,0.1672415368244175,1.0,2.0
19.252277374267575,-29.31788444519043,1.3105205297470093,-0.0,-0.0,-1.0,0.2376172554826373,1.0,2.0
20.068588256835938,-28.09190368652344,1.3621426820755005,-0.0,-0.0,-1.0,0.2651504398449565,1.0,2.0
17.7421875,-26.89622688293457,1.9778835773468015,-0.0,-0.0,-1.0,0.0913919839697947,2.0,2.0
18.16817855834961,-27.249832153320312,1.9471464157104492,-0.0,-0.0,-1.0,0.2456993548989039,1.0,2.0
17.910160064697266,-27.2708740234375,1.9578230381011963,-0.0,-0.0,-1.0,0.2179300062661503,1.0,2.0
18.45894432067871,-27.224071502685547,1.9350719451904297,-0.0,-0.0,-1.0,0.1204836287883558,1.0,2.0
18.233152389526367,-27.60898208618164,1.9320108890533447,-0.0,-0.0,-1.0,0.1785650351240688,1.0,2.0
17.949249267578125,-27.01746368408203,1.3981181383132937,-0.0,-0.0,-1.0,0.24569807759042,1.0,2.0
18.276233673095703,-27.09952163696289,1.3758726119995115,-0.0,-0.0,-1.0,0.1575990988433003,1.0,2.0
18.998571395874023,-26.909515380859375,1.357751965522766,-0.0,-0.0,-1.0,0.1587170052978163,1.0,2.0
18.647714614868164,-27.318378448486328,1.3382954597473145,-0.0,-0.0,-1.0,0.1397287111656734,1.0,2.0
18.61185073852539,-27.524879455566406,1.32138192653656,-0.0,-0.0,-1.0,0.1850178955050887,1.0,2.0
18.65710830688477,-27.945905685424805,1.280888319015503,0.1432435490123398,0.9288032415619806,-0.3417686704926398,0.1352946997064328,3.0,2.0
19.128721237182617,-27.325593948364254,1.3130147457122805,-0.0,-0.0,-1.0,0.1977716795301718,2.0,2.0
19.137189865112305,-27.56717109680176,1.290464997291565,-0.0,-0.0,-1.0,0.1116796641293255,1.0,2.0
18.825523376464844,-28.013896942138672,1.2660366296768188,-0.0,-0.0,-1.0,0.0778376551265452,1.0,2.0
19.52512550354004,-27.4020938873291,1.2844833135604858,-0.0,-0.0,-1.0,0.2191376866869565,1.0,2.0
19.37008476257324,-27.82200050354004,1.2543938159942627,-0.0,-0.0,-1.0,0.0552628498032293,1.0,2.0
19.19384765625,-28.00796127319336,1.2470080852508545,-0.0,-0.0,-1.0,0.0503199628846464,1.0,2.0
19.701642990112305,-28.063364028930664,1.213384032249451,-0.0,-0.0,-1.0,0.0591312600253649,1.0,2.0
19.692184448242188,-28.14362144470215,1.2065658569335938,-0.0,-0.0,-1.0,0.0571436009848156,1.0,2.0
19.921899795532227,-28.129425048828125,1.1944289207458496,-0.0,-0.0,-1.0,0.1100156524932637,2.0,2.0
20.06546974182129,-28.313983917236328,1.1686595678329468,-0.1825868279148343,0.9008449651534772,-0.3938786602871867,0.1689842714759589,3.0,2.0
17.733808517456055,-27.086925506591797,1.836220622062683,-0.0,-0.0,-1.0,0.1507121483297242,2.0,2.0
17.89491844177246,-27.148578643798828,1.8238720893859863,-0.0,-0.0,-1.0,0.1815544471949438,2.0,2.0
17.818645477294922,-27.360462188720703,1.81629741191864,-0.4153537848753358,0.8230554301852608,-0.3873770672513906,0.1964838163621111,4.0,2.0
17.896438598632812,-27.679105758666992,1.7941625118255615,-0.0,-0.0,-1.0,0.2275531659907795,1.0,2.0
17.730953216552734,-28.327533721923828,1.7672090530395508,-0.0,-0.0,-1.0,0.0637725712620885,1.0,2.0
18.201210021972656,-27.469575881958008,1.78857684135437,-0.0,-0.0,-1.0,0.1365935691932406,1.0,2.0
18.48346710205078,-27.755298614501953,1.7560919523239136,-0.0,-0.0,-1.0,0.1587725810981906,1.0,2.0
18.500263214111328,-27.859668731689453,1.7491878271102903,-0.0,-0.0,-1.0,0.2028200755965475,1.0,2.0
18.997697830200195,-28.924514770507812,1.6583794355392456,-0.0,-0.0,-1.0,0.16017780450826,2.0,2.0
19.44647789001465,-29.137218475341797,1.6180181503295898,-0.0,-0.0,-1.0,0.2139674116899434,2.0,2.0
19.758230209350582,-29.318145751953125,1.5875391960144043,-0.0,-0.0,-1.0,0.1495934294934001,1.0,2.0
17.900104522705078,-27.080379486083984,2.258974552154541,-0.6651202400655261,0.6279135991033998,-0.4041529145214614,0.1679105849353,6.0,3.0
17.897510528564453,-27.287370681762695,2.2544636726379395,-0.0,-0.0,-1.0,0.1211356463475783,1.0,3.0
17.932607650756836,-26.93524169921875,1.4362924098968506,0.7276120588610592,-0.6022202250861174,-0.3284988467212583,0.1445405994837919,4.0,2.0
18.042774200439453,-27.24085998535156,1.3905484676361084,-0.7073877463162006,0.5823960553021528,-0.4005214240589109,0.1989853807502912,3.0,2.0
17.928363800048828,-29.35317611694336,1.6051955223083496,-0.0,-0.0,-1.0,0.1788814944067559,1.0,2.0
18.41217613220215,-27.227140426635746,1.3711689710617063,-0.0,-0.0,-1.0,0.2037092069496996,2.0,2.0
18.32889175415039,-28.17285919189453,1.2507723569869995,-0.0,-0.0,-1.0,0.1040236496622614,2.0,2.0
18.453142166137695,-28.317705154418945,1.2235909700393677,-0.0,-0.0,-1.0,0.0511331740677546,2.0,2.0
18.715429306030273,-28.143314361572266,1.2298978567123413,-0.0,-0.0,-1.0,0.0840550189831154,1.0,2.0
18.8198299407959,-28.405855178833008,1.1873576641082764,-0.0,-0.0,-1.0,0.0978725465880571,1.0,2.0
19.118358612060547,-27.29593276977539,1.3168883323669434,-0.0,-0.0,-1.0,0.1975073330864279,2.0,2.0
19.224756240844727,-28.07686233520508,1.203508377075195,-0.0,-0.0,-1.0,0.0988026743191166,1.0,2.0
19.21614646911621,-28.314868927001953,1.1716194152832031,-0.0,-0.0,-1.0,0.0847291884062745,1.0,2.0
19.4641056060791,-27.19762802124023,1.305790662765503,-0.0,-0.0,-1.0,0.1988514609166149,2.0,2.0
19.505565643310547,-27.526287078857425,1.2579431533813477,-0.0,-0.0,-1.0,0.194558778564595,2.0,2.0
19.62752914428711,-28.34046745300293,1.137049913406372,-0.0,-0.0,-1.0,0.0365189708443685,2.0,2.0
20.198301315307617,-27.01495361328125,1.2739341259002686,-0.0,-0.0,-1.0,0.1394107371423064,1.0,2.0
19.858922958374023,-28.23628616333008,1.1331058740615845,-0.0,-0.0,-1.0,0.0966379889896501,1.0,2.0
20.08810806274414,-28.3748779296875,1.0950868129730225,-0.0,-0.0,-1.0,0.0866478883921101,1.0,2.0
18.358705520629883,-27.592628479003903,1.748754858970642,-0.0,-0.0,-1.0,0.1003622634244617,1.0,2.0
19.30810546875,-28.984729766845703,1.5359904766082764,-0.0,-0.0,-1.0,0.1739440668584246,1.0,2.0
17.734155654907227,-26.949878692626953,2.259474992752075,-0.0,-0.0,-1.0,0.1611451794486173,1.0,3.0
19.80634498596191,-26.881160736083984,1.1551544666290283,-0.0,-0.0,-1.0,0.0391916767144928,1.0,2.0
17.890775680541992,-29.317249298095703,1.7537012100219729,-0.0,-0.0,-1.0,0.1891486910813408,1.0,2.0
17.877836227416992,-27.018230438232425,1.538697600364685,0.2603516499153273,0.5042207788309815,-0.8233944526054601,0.2527040859481471,4.0,2.0
17.898433685302734,-27.342323303222656,1.5025310516357422,-0.0,-0.0,-1.0,0.1638881004919583,2.0,2.0
17.975536346435547,-27.476505279541016,1.4873569011688232,0.9317286718549928,-0.3630799551031105,0.0073910923180489,0.1656883730607422,3.0,2.0
18.09852409362793,-26.942054748535156,1.5472217798233032,-0.0,-0.0,-1.0,0.2000615622686581,1.0,2.0
18.316675186157227,-27.17363929748535,1.5202330350875854,-0.0,-0.0,-1.0,0.1778821487543693,1.0,2.0
18.123048782348633,-27.427562713623047,1.4924440383911133,0.8855355714966335,0.2879846005929654,-0.3645430309791161,0.2074376949590643,3.0,2.0
18.29301643371582,-28.169044494628903,1.4066964387893677,-0.0,-0.0,-1.0,0.1134462788965877,1.0,2.0
18.461694717407227,-28.33627700805664,1.385594129562378,-0.0,-0.0,-1.0,0.0804007842538739,1.0,2.0
18.686445236206055,-28.547842025756836,1.3579884767532349,-0.0,-0.0,-1.0,0.0877875644004211,1.0,2.0
18.54743003845215,-27.224578857421875,1.5130393505096436,0.6953229955609008,-0.6993108886042714,-0.1658017277464862,0.1583894238820446,3.0,2.0
18.706125259399418,-28.180931091308594,1.400562047958374,-0.0,-0.0,-1.0,0.0930251003673411,2.0,2.0
18.924484252929688,-28.50643539428711,1.358863115310669,-0.0,-0.0,-1.0,0.0918835838555961,2.0,2.0
19.233821868896484,-28.13424491882324,1.3968945741653442,-0.0,-0.0,-1.0,0.1701694729062242,1.0,2.0
19.397380828857425,-28.571582794189453,1.3411872386932373,-0.0,-0.0,-1.0,0.1029082996070075,1.0,2.0
19.435054779052734,-27.266666412353516,1.4955425262451172,-0.0,-0.0,-1.0,0.1218532439046077,1.0,2.0
19.716554641723633,-28.538631439208984,1.336860418319702,-0.0,-0.0,-1.0,0.0474190890478063,1.0,2.0
19.773632049560547,-28.754749298095703,1.3091833591461182,-0.0,-0.0,-1.0,0.0422922453128237,1.0,2.0
20.152494430541992,-28.364622116088867,1.344309687614441,-0.0,-0.0,-1.0,0.1516614172616983,1.0,2.0
20.204532623291016,-28.73903465270996,1.2972495555877686,-0.0,-0.0,-1.0,0.0611830354490789,1.0,2.0
17.72936248779297,-27.46957015991211,1.90449059009552,-0.0,-0.0,-1.0,0.1288280116060775,2.0,2.0
17.7485294342041,-27.31583595275879,1.9163453578948977,-0.0,-0.0,-1.0,0.2084187447353004,2.0,2.0
18.188255310058594,-27.51886749267578,1.893957495689392,-0.0,-0.0,-1.0,0.1569261371627521,1.0,2.0
18.56028175354004,-27.171106338500977,1.9154062271118164,-0.0,-0.0,-1.0,0.145695993822999,1.0,2.0
19.64000701904297,-27.135889053344727,1.8915901184082031,-0.0,-0.0,-1.0,0.0547293088550704,1.0,2.0
17.92852783203125,-26.917226791381836,2.3391706943511963,-0.0,-0.0,-1.0,0.1568302563319413,1.0,3.0
17.858783721923828,-29.34279441833496,1.6138007640838623,-0.0,-0.0,-1.0,0.1952244476694939,1.0,2.0
17.95351791381836,-27.329235076904297,1.3852031230926514,-0.0,-0.0,-1.0,0.1949251276889616,2.0,2.0
18.33395004272461,-28.261402130126953,1.2753323316574097,-0.0,-0.0,-1.0,0.0880988573461988,2.0,2.0
18.454437255859375,-28.33030891418457,1.2663578987121582,-0.0,-0.0,-1.0,0.0602905198808139,2.0,2.0
17.926990509033203,-26.965686798095703,1.426829814910889,0.9012459739535305,-0.0319718558915748,-0.4321267115828414,0.1403015002192282,3.0,2.0
18.219072341918945,-27.33824920654297,1.38525128364563,-0.0,-0.0,-1.0,0.2525080479703813,1.0,2.0
18.701793670654297,-28.38791275024414,1.2570394277572632,-0.0,-0.0,-1.0,0.1191561723631148,2.0,2.0
18.91748046875,-28.501976013183594,1.240483283996582,0.4263712314740584,-0.1264025500978796,-0.8956729136800152,0.0875303293025057,3.0,2.0
18.46994400024414,-27.221776962280273,1.3992547988891602,-0.2255470337011095,-0.873742848955981,-0.4309315136850826,0.1498453690030351,4.0,2.0
18.49993896484375,-27.40610694885254,1.3772711753845217,-0.0,-0.0,-1.0,0.284298689555584,2.0,2.0
19.345014572143555,-28.584970474243164,1.2224867343902588,-0.0,-0.0,-1.0,0.0435459114281589,1.0,2.0
19.048154830932617,-27.32033920288086,1.3841445446014404,-0.0,-0.0,-1.0,0.1774728027116894,1.0,2.0
19.09847068786621,-27.530487060546875,1.357794165611267,-0.0,-0.0,-1.0,0.147133616718498,1.0,2.0
19.58446502685547,-28.55158233642578,1.221265196800232,-0.0,-0.0,-1.0,0.0462052942884748,2.0,2.0
19.81270408630371,-28.750789642333984,1.1896350383758545,-0.0,-0.0,-1.0,0.029253476506849,1.0,2.0
19.422731399536133,-27.246667861938477,1.3882055282592771,-0.5724570486805645,0.7461343069245128,-0.3399654739031813,0.2008370212950073,3.0,2.0
19.516902923583984,-27.44787979125977,1.3614792823791504,-0.0,-0.0,-1.0,0.1405013210214205,2.0,2.0
19.904560089111328,-28.30580711364746,1.2438805103302002,-0.0,-0.0,-1.0,0.2158787184428512,1.0,2.0
20.16441345214844,-28.70185661315918,1.1850733757019043,-0.0,-0.0,-1.0,0.0632973815072071,1.0,2.0
19.764223098754883,-26.92488670349121,1.0539016723632812,-0.0,-0.0,-1.0,0.0396351795197102,1.0,2.0
20.09012222290039,-27.28557586669922,1.3685436248779297,-0.0,-0.0,-1.0,0.0890786884296821,1.0,2.0
17.752853393554688,-27.056276321411133,1.8078125715255735,-0.0,-0.0,-1.0,0.2325434770853189,2.0,2.0
17.765993118286133,-27.49261474609375,1.7718253135681152,-0.0,-0.0,-1.0,0.1390671198619246,1.0,2.0
18.03759765625,-27.311279296875,1.7850786447525024,-0.0,-0.0,-1.0,0.1976750047742638,1.0,2.0
19.60568618774414,-27.18946075439453,1.7674940824508667,0.0065909476493472,0.2540729653873671,-0.9671625962930706,0.0547293088550704,3.0,2.0
17.78839874267578,-27.00217056274414,2.200986385345459,-0.5106866830588268,0.0686235354533147,-0.8570238748881278,0.1959033676913603,3.0,3.0
18.056678771972656,-27.24791717529297,2.18318772315979,-0.0,-0.0,-1.0,0.1667497886033122,1.0,3.0
18.260129928588867,-27.56523323059082,2.161879301071167,-0.0,-0.0,-1.0,0.1753363071230778,2.0,3.0
18.032241821289062,-29.052074432373047,1.618411660194397,-0.0,-0.0,-1.0,0.1469750817374248,1.0,2.0
18.3393611907959,-28.21840476989746,1.2657098770141602,0.2726593485472345,-0.2426650102005468,-0.9310051409493756,0.096380585344925,3.0,2.0
18.52027130126953,-28.40370178222656,1.2521467208862305,-0.0,-0.0,-1.0,0.0694066107928929,1.0,2.0
18.86589813232422,-28.576950073242188,1.2438194751739502,-0.0,-0.0,-1.0,0.0725999549184759,2.0,2.0
17.834026336669922,-26.871536254882812,1.382185935974121,-0.0,-0.0,-1.0,0.1495179990787402,1.0,2.0
18.12213134765625,-27.22769546508789,1.360379695892334,-0.0,-0.0,-1.0,0.2133435419676742,2.0,2.0
18.325225830078125,-27.30312728881836,1.3617326021194458,-0.0,-0.0,-1.0,0.2166835003671388,1.0,2.0
19.19298934936523,-28.480234146118164,1.2629175186157229,-0.0,-0.0,-1.0,0.0326110474475354,2.0,2.0
19.389137268066406,-28.764293670654297,1.2351906299591064,0.2208815933785242,-0.2158521416334677,-0.9511147011053974,0.0394586581517537,3.0,2.0
19.674814224243164,-28.98495101928711,1.2148228883743286,0.7358579965226605,0.6675037565507895,0.1138057289605411,0.0295879291204635,3.0,2.0
19.956466674804688,-29.09536361694336,1.2055439949035645,-0.0,-0.0,-1.0,0.0535791552571143,2.0,2.0
18.485671997070312,-27.21888542175293,1.3772432804107666,-0.2255470337011095,-0.873742848955981,-0.4309315136850826,0.145787991518662,4.0,2.0
19.14192008972168,-27.5008544921875,1.3700158596038818,-0.1758261193107754,-0.2311034779105674,-0.9569097963056667,0.1700341243754514,3.0,2.0
20.03258895874023,-28.956092834472656,1.2223336696624756,-0.0,-0.0,-1.0,0.0958355160216032,2.0,2.0
19.09486961364746,-27.300189971923828,1.3905214071273804,-0.0,-0.0,-1.0,0.2509058086465986,1.0,2.0
19.51092529296875,-27.45501136779785,1.3848222494125366,-0.0,-0.0,-1.0,0.1144355437579676,2.0,2.0
19.903705596923828,-28.2879638671875,1.2978134155273438,0.9348911383440734,-0.1592285944166483,-0.3172141455954018,0.1999926357969653,3.0,2.0
19.54590606689453,-27.098222732543945,1.2412550449371338,-0.0,-0.0,-1.0,0.0866184364381252,1.0,2.0
19.785369873046875,-27.11331558227539,1.0581568479537964,-0.0,-0.0,-1.0,0.0388108164103399,1.0,2.0
20.00981903076172,-26.98174285888672,1.08390474319458,-0.0,-0.0,-1.0,0.1163595512721734,1.0,2.0
18.03830337524414,-28.047283172607425,1.6921167373657229,-0.0,-0.0,-1.0,0.1095652277700693,1.0,2.0
17.77969741821289,-27.485803604125977,1.7238688468933103,-0.0,-0.0,-1.0,0.1473313518485998,2.0,2.0
18.389366149902344,-27.841176986694336,1.7164862155914309,-0.0,-0.0,-1.0,0.2453155429193568,2.0,2.0
17.741165161132812,-26.917999267578125,1.7613682746887207,-0.0,-0.0,-1.0,0.1394752190456438,2.0,2.0
18.008007049560547,-27.21568298339844,1.7503678798675537,-0.0,-0.0,-1.0,0.2451495652664154,1.0,2.0
18.58758544921875,-27.165531158447266,1.771081566810608,-0.0,-0.0,-1.0,0.0768895043206255,1.0,2.0
17.78458023071289,-26.933509826660156,2.148549318313598,-0.0,-0.0,-1.0,0.1933418177673016,1.0,3.0
18.29400634765625,-27.5538330078125,2.133493185043335,-0.0,-0.0,-1.0,0.2127760266575687,2.0,3.0
17.769046783447266,-29.357757568359375,1.5480804443359375,-0.0,-0.0,-1.0,0.1512661746079275,1.0,2.0
18.810333251953125,-28.376773834228516,1.2377169132232666,-0.0,-0.0,-1.0,0.088975521378494,1.0,2.0
18.32916831970215,-27.618606567382812,1.293395757675171,-0.0,-0.0,-1.0,0.0963448935418177,1.0,2.0
18.512126922607425,-27.921630859375,1.2716398239135742,-0.0,-0.0,-1.0,0.1300237225662515,1.0,2.0
18.8007869720459,-28.19399070739746,1.2569684982299805,-0.0,-0.0,-1.0,0.0863861465302556,1.0,2.0
19.165916442871097,-28.345243453979492,1.256641507148743,-0.0,-0.0,-1.0,0.053218590613153,2.0,2.0
19.473224639892575,-28.632614135742188,1.2364354133605957,-0.0,-0.0,-1.0,0.0320241402340851,1.0,2.0
19.770797729492188,-28.869728088378903,1.2192730903625488,-0.0,-0.0,-1.0,0.0289505672205299,1.0,2.0
20.110462188720703,-28.80589485168457,1.236025333404541,-0.0,-0.0,-1.0,0.0654143745727988,1.0,2.0
17.889257431030273,-26.871097564697266,1.3411247730255127,-0.0,-0.0,-1.0,0.1728146283782486,1.0,2.0
18.183860778808594,-27.14624786376953,1.33309006690979,-0.0,-0.0,-1.0,0.1956076568434654,1.0,2.0
18.418445587158203,-27.25865936279297,1.335810661315918,0.9815778152862776,0.1902874200817858,-0.0171956476015396,0.1764687146041677,4.0,2.0
19.96544075012207,-28.27033233642578,1.293715238571167,-0.0,-0.0,-1.0,0.2264538553498903,1.0,2.0
18.51560401916504,-27.079936981201172,1.3601441383361816,-0.0,-0.0,-1.0,0.1927469567349753,1.0,2.0
19.11103248596191,-27.344829559326172,1.3638629913330078,-0.0,-0.0,-1.0,0.2217100719117903,1.0,2.0
19.427270889282227,-27.242603302001953,1.3894822597503662,-0.5724570486805645,0.7461343069245128,-0.3399654739031813,0.2008370212950073,3.0,2.0
19.662229537963867,-26.895973205566406,1.0717700719833374,-0.0,-0.0,-1.0,0.0370951346608078,2.0,2.0
20.061124801635746,-26.907106399536133,1.0898785591125488,-0.0,-0.0,-1.0,0.1289408704121809,2.0,2.0
18.838146209716797,-28.824386596679688,1.6266472339630127,-0.0,-0.0,-1.0,0.1838069611395189,1.0,2.0
17.714763641357422,-27.79259490966797,1.6570274829864502,-0.0,-0.0,-1.0,0.1126988763621209,2.0,2.0
18.088096618652344,-28.122638702392575,1.6509826183319092,-0.0,-0.0,-1.0,0.1347675441337337,1.0,2.0
17.86511993408203,-27.44900894165039,1.6880439519882202,-0.0,-0.0,-1.0,0.2524222590383321,1.0,2.0
18.18269157409668,-27.539321899414062,1.6967971324920654,-0.0,-0.0,-1.0,0.2150751751934756,1.0,2.0
17.719348907470703,-26.944324493408203,1.714870572090149,-0.0,-0.0,-1.0,0.1541725009881605,1.0,2.0
17.878421783447266,-27.18964195251465,1.706590175628662,-0.0,-0.0,-1.0,0.2589842468736771,1.0,2.0
19.03650665283203,-27.517337799072266,1.7326972484588623,-0.0,-0.0,-1.0,0.1510584792366369,1.0,2.0
19.613500595092773,-27.142166137695312,1.7799715995788574,-0.0,-0.0,-1.0,0.0547293088550704,2.0,2.0
20.177236557006836,-27.01818084716797,1.4430639743804932,-0.0,-0.0,-1.0,0.1394107371423065,1.0,2.0
17.927757263183594,-27.288684844970703,2.099821090698242,-0.0,-0.0,-1.0,0.2149349469761386,2.0,3.0
18.162349700927734,-27.47234344482422,2.1003713607788086,-0.0,-0.0,-1.0,0.167976205404839,1.0,3.0
18.03740882873535,-27.202720642089844,2.1068456172943115,-0.0,-0.0,-1.0,0.2546876726145951,1.0,3.0
18.007469177246094,-29.160064697265625,1.459744215011597,-0.0,-0.0,-1.0,0.0746759372409591,1.0,2.0
17.9957332611084,-29.00609588623047,1.4709370136260986,-0.0,-0.0,-1.0,0.0968516818426639,1.0,2.0
19.978565216064453,-28.52962875366211,1.1765376329421997,-0.0,-0.0,-1.0,0.0694250654557641,2.0,2.0
18.73167610168457,-27.6475830078125,1.2095537185668943,-0.0,-0.0,-1.0,0.0315422115182509,1.0,2.0
18.92782211303711,-27.77915954589844,1.2074204683303833,-0.0,-0.0,-1.0,0.0415661004314283,1.0,2.0
19.375194549560547,-27.886606216430664,1.2216475009918213,-0.0,-0.0,-1.0,0.0516175089937691,2.0,2.0
19.614181518554688,-28.10500717163086,1.2091690301895142,-0.0,-0.0,-1.0,0.042409136241315,2.0,2.0
19.97078514099121,-28.36636734008789,1.195301532745361,-0.0,-0.0,-1.0,0.1042564335418523,1.0,2.0
18.35567092895508,-27.18566513061523,1.232718825340271,0.2031295743477877,0.457799743023871,-0.8655390062340141,0.2008126710973143,3.0,2.0
18.622541427612305,-27.276905059814453,1.242193579673767,-0.0,-0.0,-1.0,0.1911063522163734,1.0,2.0
19.069169998168945,-27.51859664916992,1.2452337741851809,-0.0,-0.0,-1.0,0.1667952152584299,1.0,2.0
19.33499526977539,-27.700740814208984,1.2405648231506348,-0.0,-0.0,-1.0,0.099508736533357,1.0,2.0
17.762325286865234,-29.334396362304688,1.9027920961380005,-0.0,-0.0,-1.0,0.1677532422105007,1.0,2.0
18.81908416748047,-28.923004150390625,1.5170819759368896,-0.0,-0.0,-1.0,0.1377068693859859,1.0,2.0
19.236906051635746,-29.161231994628903,1.514911651611328,-0.0,-0.0,-1.0,0.2053378468047068,1.0,2.0
18.02552795410156,-28.340917587280273,1.522944092750549,-0.0,-0.0,-1.0,0.1939198464834298,1.0,2.0
18.88463020324707,-28.880416870117188,1.5233581066131592,-0.0,-0.0,-1.0,0.1211500789844997,2.0,2.0
19.419601440429688,-29.023263931274418,1.5330958366394043,-0.0,-0.0,-1.0,0.2240296675715425,1.0,2.0
18.013961791992188,-27.961925506591797,1.5505883693695068,-0.0,-0.0,-1.0,0.2322687912878761,2.0,2.0
17.873558044433594,-27.41912269592285,1.5817519426345823,-0.0,-0.0,-1.0,0.1086917108488075,2.0,2.0
18.077224731445312,-27.5430908203125,1.5850802659988403,0.461596133056715,-0.1753297856832407,-0.8695909821285842,0.1734386985911692,4.0,2.0
18.397872924804688,-27.820877075195312,1.5824918746948242,-0.0,-0.0,-1.0,0.2110796594516417,1.0,2.0
17.863985061645508,-27.09148406982422,1.604393720626831,-0.1135692447827391,-0.594197921669299,-0.7962605456277255,0.2948142649754499,5.0,2.0
18.211406707763672,-27.272031784057617,1.6127746105194092,-0.9837911848303926,0.0188526555967883,0.1783240926710719,0.1867428160848016,3.0,2.0
18.54365348815918,-27.253929138183594,1.6331801414489746,-0.0,-0.0,-1.0,0.1646824071983599,1.0,2.0
19.645353317260746,-27.24208068847656,1.6877943277359009,-0.0,-0.0,-1.0,0.0545008539095761,1.0,2.0
20.180877685546875,-27.037429809570312,1.3606243133544922,-0.0,-0.0,-1.0,0.1394107371423065,2.0,2.0
18.340375900268555,-27.826820373535156,1.9916095733642576,-0.0,-0.0,-1.0,0.1275079774242802,1.0,2.0
17.79750633239746,-27.10966110229492,1.9983322620391848,-0.5909577546044004,0.3037805515951318,-0.7473194154747239,0.21557182419219,3.0,2.0
18.27977180480957,-27.1590576171875,2.017873764038086,-0.0,-0.0,-1.0,0.1964397078976813,1.0,3.0
18.535581588745117,-27.24655532836914,2.024662733078003,-0.0,-0.0,-1.0,0.1495437381299933,2.0,3.0
18.355388641357425,-29.088438034057617,1.3552544116973877,-0.1643912244307091,-0.312208993428212,-0.9356821414095252,0.0463870367436056,3.0,2.0
18.650876998901367,-29.18133544921875,1.3599746227264404,-0.0,-0.0,-1.0,0.0293466941987029,2.0,2.0
19.10477638244629,-29.263259887695312,1.3703049421310425,-0.0,-0.0,-1.0,0.1627913869430593,2.0,2.0
19.334426879882812,-29.353918075561523,1.3703196048736572,-0.0,-0.0,-1.0,0.1731190506848504,1.0,2.0
18.209529876708984,-28.844501495361328,1.3688703775405884,0.6514356640089559,-0.0151460015015834,-0.7585526839288915,0.0562974334737412,3.0,2.0
19.021648406982425,-28.880916595458984,1.4004008769989014,-0.0,-0.0,-1.0,0.2138684133586137,1.0,2.0
18.068382263183594,-28.219486236572266,1.4124802350997925,-0.0,-0.0,-1.0,0.1749022410442804,1.0,2.0
18.249326705932617,-28.35316467285156,1.4107952117919922,-0.0,-0.0,-1.0,0.0776797228480441,2.0,2.0
19.710861206054688,-27.604736328125,1.1316704750061035,-0.0,-0.0,-1.0,0.0502656419756772,1.0,2.0
20.0366153717041,-27.873762130737305,1.115314245223999,-0.0,-0.0,-1.0,0.0876575666783828,1.0,2.0
19.096357345581055,-27.254722595214844,1.1368727684020996,-0.0,-0.0,-1.0,0.1223489907615272,2.0,2.0
19.632522583007812,-27.463348388671875,1.144087791442871,-0.0,-0.0,-1.0,0.1687982974510694,1.0,2.0
20.13368034362793,-27.228511810302734,1.1980265378952026,-0.0,-0.0,-1.0,0.1067499484693024,1.0,2.0
19.00695037841797,-26.8861141204834,1.1723496913909912,-0.0,-0.0,-1.0,0.0560077749617946,2.0,2.0
19.398042678833008,-27.03580093383789,1.1803693771362305,-0.137905457795037,0.4529157037671319,-0.8808231661301062,0.0449198198431535,4.0,2.0
19.561315536499023,-27.11849594116211,1.1805784702301023,-0.0,-0.0,-1.0,0.0874491170056974,2.0,2.0
18.27257537841797,-28.22223663330078,1.4224987030029297,-0.0,-0.0,-1.0,0.1326138395099569,1.0,2.0
20.09560775756836,-28.794395446777344,1.4436442852020264,-0.0,-0.0,-1.0,0.1384351899894266,2.0,2.0
18.24761962890625,-28.090198516845703,1.4318541288375854,-0.0,-0.0,-1.0,0.1393288249492281,2.0,2.0
18.126903533935547,-27.46163558959961,1.4748907089233398,0.8855355714966335,0.2879846005929654,-0.3645430309791161,0.1431445667144362,3.0,2.0
18.41274642944336,-27.386669158935547,1.4961497783660889,-0.0,-0.0,-1.0,0.2216080531940849,1.0,2.0
17.800973892211914,-26.97715187072754,1.492551326751709,-0.0,-0.0,-1.0,0.1612270564069572,2.0,2.0
18.116958618164062,-27.12059783935547,1.500375270843506,-0.0,-0.0,-1.0,0.1664914099903703,2.0,2.0
18.515914916992188,-27.255630493164062,1.5118424892425537,0.6940887287043369,-0.7092105184008751,0.1235365422664867,0.2128366673352126,3.0,2.0
17.727615356445312,-27.394763946533203,1.8873872756958008,-0.0,-0.0,-1.0,0.1267533122725598,1.0,2.0
17.910654067993164,-27.40052795410156,1.894226312637329,-0.0,-0.0,-1.0,0.2559823518859098,1.0,2.0
17.855430603027344,-27.03096389770508,1.908900022506714,-0.1963160546687094,-0.5917102639641859,-0.7818816855501514,0.2052138447039018,3.0,2.0
18.63675117492676,-27.24087905883789,1.927811622619629,0.5257074396766304,-0.4542005645018615,-0.719259018069869,0.0941029909422549,3.0,2.0
17.855148315429688,-27.056699752807617,2.3237173557281494,-0.5056548053522426,0.8610265144951053,0.0542822177199518,0.1495717137018438,8.0,3.0
19.532665252685547,-28.74504852294922,1.2461172342300415,-0.0,-0.0,-1.0,0.0270927362581345,1.0,2.0
19.76719093322754,-28.977054595947266,1.2367148399353027,-0.0,-0.0,-1.0,0.0388366849601249,1.0,2.0
18.875526428222656,-28.39932632446289,1.2394647598266602,-0.0,-0.0,-1.0,0.1072163564010759,1.0,2.0
19.147661209106445,-28.469179153442383,1.2494522333145142,-0.0,-0.0,-1.0,0.0366114799600814,2.0,2.0
19.39162826538086,-28.60063743591309,1.2516160011291504,-0.0,-0.0,-1.0,0.0382425938385802,2.0,2.0
18.415531158447266,-27.87965202331543,1.2539047002792358,-0.7073347636934594,-0.4226498673585319,-0.566607996495402,0.1158557190925436,3.0,2.0
18.75052833557129,-28.03917694091797,1.262581706047058,-0.0,-0.0,-1.0,0.0730038900834203,1.0,2.0
19.35562515258789,-28.24148941040039,1.281882882118225,-0.6817907970659881,0.0669584271850682,-0.7284764087223595,0.1037190555214487,3.0,2.0
19.897850036621097,-28.33311462402344,1.3032197952270508,0.9348911383440734,-0.1592285944166483,-0.3172141455954018,0.1810310859342777,3.0,2.0
18.65008544921875,-27.887371063232425,1.2690026760101318,-0.0,-0.0,-1.0,0.0908456796556431,1.0,2.0
19.278339385986328,-28.19991683959961,1.281088948249817,0.2061542786332811,-0.8520606611234977,-0.481137239430684,0.1230409002045705,3.0,2.0
18.38007164001465,-27.360692977905273,1.293750524520874,-0.0,-0.0,-1.0,0.2205942354177803,1.0,2.0
18.142478942871097,-26.986480712890625,1.3057328462600708,-0.0,-0.0,-1.0,0.199800703575218,1.0,2.0
18.410964965820312,-27.225889205932617,1.3067615032196045,0.9839107826894103,0.0855809317891835,-0.1568294481964634,0.236256639700959,3.0,2.0
18.824127197265625,-27.02509117126465,1.352283000946045,-0.0,-0.0,-1.0,0.2612793892081174,1.0,2.0
19.2730712890625,-27.31433868408203,1.3579893112182615,-0.0,-0.0,-1.0,0.137846606605152,1.0,2.0
19.56221389770508,-27.385189056396484,1.369787096977234,0.4954995554133735,0.5007604641582838,-0.7097317437744555,0.147485420054089,3.0,2.0
17.99352264404297,-27.690448760986328,1.6943954229354858,-0.0,-0.0,-1.0,0.1594723731649624,1.0,2.0
17.74413299560547,-27.451635360717773,1.6931419372558594,-0.0,-0.0,-1.0,0.1391376236652425,2.0,2.0
18.01518821716309,-27.449819564819336,1.7077419757843018,-0.0,-0.0,-1.0,0.2359871064902582,2.0,2.0
18.269145965576172,-27.57480239868164,1.7144466638565063,-0.0,-0.0,-1.0,0.1879581488209933,1.0,2.0
17.7781982421875,-27.102222442626953,1.7120416164398191,-0.0,-0.0,-1.0,0.1714933906586979,1.0,2.0
19.725873947143555,-27.17695426940918,1.8038253784179688,-0.0,-0.0,-1.0,0.054500853909576,1.0,2.0
17.79299545288086,-27.3873291015625,2.147242546081543,-0.0,-0.0,-1.0,0.1629866295986445,1.0,3.0
18.11269760131836,-27.404052734375,2.1571359634399414,-0.0,-0.0,-1.0,0.1598564148911801,1.0,3.0
17.776296615600586,-27.125179290771484,2.15224552154541,-0.0,-0.0,-1.0,0.1613837742736143,2.0,3.0
19.274587631225582,-29.033220291137695,1.3069489002227783,-0.0,-0.0,-1.0,0.1054139312964228,1.0,2.0
19.568767547607425,-29.10071182250977,1.3216924667358398,-0.0,-0.0,-1.0,0.0771213434165536,1.0,2.0
18.66044235229492,-28.65496063232422,1.288930892944336,-0.0,-0.0,-1.0,0.0757664001183376,1.0,2.0
18.999177932739254,-28.62710189819336,1.3155999183654783,-0.0,-0.0,-1.0,0.0824222336519876,1.0,2.0
19.27973175048828,-28.87345314025879,1.3183681964874268,-0.0,-0.0,-1.0,0.0344304011250886,1.0,2.0
18.35689353942871,-28.10909652709961,1.3002887964248655,0.1577806999770089,0.0715691051749068,-0.98487720752347,0.1334377641889339,3.0,2.0
18.497234344482425,-28.31455993652344,1.2984254360198977,-0.0,-0.0,-1.0,0.0660688892166171,1.0,2.0
18.306434631347656,-27.909236907958984,1.3084582090377808,-0.0,-0.0,-1.0,0.156286616005641,1.0,2.0
18.09339904785156,-27.26891326904297,1.3280129432678225,-0.0,-0.0,-1.0,0.1789581722835944,1.0,2.0
18.230335235595703,-27.268775939941406,1.339803695678711,-0.0,-0.0,-1.0,0.2011126003624389,1.0,2.0
18.511655807495117,-27.398103713989254,1.3559935092926023,-0.0,-0.0,-1.0,0.2103371180465661,2.0,2.0
18.21910858154297,-27.053640365600582,1.3509294986724854,-0.0,-0.0,-1.0,0.2197058627998707,1.0,2.0
18.59781265258789,-27.151958465576172,1.377726912498474,-0.0,-0.0,-1.0,0.195106738605882,1.0,2.0
19.937219619750977,-26.88119125366211,1.086254596710205,-0.0,-0.0,-1.0,0.0769904684906521,1.0,2.0
18.173961639404297,-27.565475463867188,1.7866865396499634,-0.0,-0.0,-1.0,0.1376935998003066,1.0,2.0
17.825286865234375,-27.44235038757324,1.768448829650879,-0.0,-0.0,-1.0,0.2057297307895176,1.0,2.0
18.147361755371097,-27.249252319335938,1.79473614692688,-0.0,-0.0,-1.0,0.1915145699421748,2.0,2.0
19.197826385498047,-27.450698852539062,1.4077476263046265,-0.0,-0.0,-1.0,0.1901009079938649,1.0,2.0
17.735734939575195,-26.893539428710938,1.777990221977234,-0.0,-0.0,-1.0,0.1394752190456438,2.0,2.0
17.81509017944336,-27.005718231201172,1.7802404165267944,-0.3220188927938722,-0.8655966445848197,-0.3834661413571087,0.1856537572388426,3.0,2.0
19.14168930053711,-27.307504653930664,1.4124464988708496,-0.0,-0.0,-1.0,0.291155851137038,1.0,2.0
19.48374366760254,-27.279537200927734,1.4406728744506836,-0.0,-0.0,-1.0,0.1995639906714441,2.0,2.0
17.88399887084961,-27.00128936767578,1.7849080562591553,0.7501690460330253,-0.6138247748794107,-0.2458974341430624,0.1589448489267221,4.0,2.0
17.788732528686523,-27.30707550048828,2.238767623901367,0.6915625133816936,0.6871110521632826,0.2227547801513173,0.2076603791128253,3.0,3.0
19.33127212524414,-28.964820861816406,1.2877488136291504,-0.0,-0.0,-1.0,0.0530040877796281,1.0,2.0
19.74390411376953,-29.08254051208496,1.3110814094543457,-0.2629874941546608,0.8750627701415795,0.4063283478055618,0.0283948056705937,3.0,2.0
19.974681854248047,-29.32141876220703,1.3120131492614746,-0.0,-0.0,-1.0,0.1208071623130797,1.0,2.0
18.86786460876465,-28.542078018188477,1.275861740112305,0.2421914670521233,0.649014746557283,-0.7211956406123976,0.0713855768848526,3.0,2.0
19.359703063964844,-28.68078994750977,1.3069919347763062,-0.0,-0.0,-1.0,0.0459829547047433,1.0,2.0
19.522607803344727,-28.94955825805664,1.3031105995178225,-0.3521744116202634,0.7181491028977818,-0.6001958428771667,0.0802388986658724,3.0,2.0
18.662269592285156,-28.080839157104492,1.284050464630127,-0.0,-0.0,-1.0,0.0749398066978577,1.0,2.0
18.85770034790039,-28.28015518188477,1.2896339893341064,-0.0,-0.0,-1.0,0.1080166931768242,1.0,2.0
19.25303649902344,-28.39286422729492,1.3155145645141602,-0.0,-0.0,-1.0,0.0598128337602436,1.0,2.0
19.891834259033203,-28.279762268066406,1.37195086479187,-0.0,-0.0,-1.0,0.1583665717063072,1.0,2.0
18.35251808166504,-27.847204208374023,1.2691385746002195,-0.0,-0.0,-1.0,0.1235545003131601,2.0,2.0
18.525545120239254,-27.798269271850582,1.2868413925170898,-0.0,-0.0,-1.0,0.1137782140369792,1.0,2.0
18.053863525390625,-27.189468383789062,1.2731471061706543,-0.0,-0.0,-1.0,0.158748333614723,1.0,2.0
18.290428161621097,-27.318931579589844,1.2891614437103271,-0.0,-0.0,-1.0,0.2175042258861109,1.0,2.0
18.461109161376953,-27.51622200012207,1.2952847480773926,-0.0,-0.0,-1.0,0.2426385102657379,1.0,2.0
19.17670440673828,-27.48465156555176,1.3597112894058228,-0.1758261193107754,-0.2311034779105674,-0.9569097963056667,0.2236950558850134,3.0,2.0
18.02776336669922,-26.909841537475582,1.28290057182312,-0.0,-0.0,-1.0,0.2013377706919031,2.0,2.0
18.28750228881836,-26.99799537658691,1.3036916255950928,-0.0,-0.0,-1.0,0.1234587543270612,1.0,2.0
18.495277404785156,-27.20835876464844,1.3132963180541992,-0.0,-0.0,-1.0,0.1790596847512675,2.0,2.0
19.578048706054688,-27.357316970825195,1.4005076885223389,-0.0,-0.0,-1.0,0.1646887154776897,2.0,2.0
17.80760955810547,-27.541221618652344,1.734073519706726,-0.0,-0.0,-1.0,0.1714696479964126,1.0,2.0
18.244815826416016,-27.57630920410156,1.7629221677780151,-0.0,-0.0,-1.0,0.171513768194508,1.0,2.0
17.809913635253906,-27.225400924682617,1.740601897239685,0.6586131343263539,0.5215862829208503,-0.5423803912030992,0.1648582144384111,3.0,2.0
18.118501663208008,-27.363800048828125,1.759108304977417,-0.0,-0.0,-1.0,0.2268682732529233,1.0,2.0
17.871362686157227,-27.0064640045166,1.749122142791748,0.7968157751243811,-0.600861490161238,0.0636403186207306,0.1712109576684452,6.0,2.0
17.813034057617188,-27.102256774902344,2.2301530838012695,-0.0,-0.0,-1.0,0.1754337883151393,2.0,3.0
19.756427764892575,-29.059715270996097,1.2700309753417969,-0.2629874941546608,0.8750627701415795,0.4063283478055618,0.0280287654510284,3.0,2.0
19.930355072021484,-29.272113800048828,1.271186113357544,-0.0,-0.0,-1.0,0.085789190857966,1.0,2.0
19.09333038330078,-28.566089630126953,1.2427685260772705,-0.0,-0.0,-1.0,0.0342393114572059,1.0,2.0
19.384824752807617,-28.834453582763672,1.2528996467590332,-0.0,-0.0,-1.0,0.0812396809635905,1.0,2.0
19.57173728942871,-28.941482543945312,1.2621431350708008,-0.0,-0.0,-1.0,0.0740415415047812,1.0,2.0
18.842185974121097,-28.31383514404297,1.233593463897705,-0.0,-0.0,-1.0,0.0879614383813077,1.0,2.0
19.319522857666016,-28.356090545654297,1.2722840309143066,-0.0,-0.0,-1.0,0.0770377895414558,1.0,2.0
18.367589950561523,-27.716249465942383,1.2178668975830078,-0.0,-0.0,-1.0,0.0597805570745058,1.0,2.0
18.58028030395508,-27.88697052001953,1.2299754619598389,-0.0,-0.0,-1.0,0.1172170559158835,1.0,2.0
18.793804168701172,-28.071714401245117,1.2408030033111572,-0.0,-0.0,-1.0,0.0738972753845631,1.0,2.0
18.247631072998047,-27.321992874145508,1.2225643396377563,-0.0,-0.0,-1.0,0.1307542907107836,1.0,2.0
18.582042694091797,-27.306903839111328,1.254826307296753,-0.0,-0.0,-1.0,0.2108575521129399,1.0,2.0
19.51441192626953,-27.670352935791016,1.3228144645690918,-0.0,-0.0,-1.0,0.1311358911984956,1.0,2.0
18.214977264404297,-27.031787872314453,1.2304619550704956,-0.0,-0.0,-1.0,0.1573750229491907,1.0,2.0
18.650161743164062,-27.01265335083008,1.273052453994751,-0.0,-0.0,-1.0,0.231712778918079,1.0,2.0
19.44234848022461,-27.203683853149418,1.338184475898743,-0.650866004507765,-0.5362589075149771,-0.5374009939392941,0.1424545253005667,3.0,2.0
18.383075714111328,-27.462562561035156,1.7406718730926514,-0.0,-0.0,-1.0,0.106962070580431,1.0,2.0
19.21375846862793,-28.954532623291016,1.2753678560256958,-0.0,-0.0,-1.0,0.0577572530968688,1.0,2.0
19.42112159729004,-29.13992691040039,1.2839082479476929,-0.0,-0.0,-1.0,0.0692796010226622,1.0,2.0
19.740779876708984,-29.209964752197266,1.305747628211975,-0.0,-0.0,-1.0,0.0851002468281135,1.0,2.0
18.733776092529297,-28.57830047607422,1.2504125833511353,-0.0,-0.0,-1.0,0.080657793286859,1.0,2.0
19.1173095703125,-28.67308807373047,1.2790275812149048,-0.0,-0.0,-1.0,0.0467123262847508,1.0,2.0
18.436908721923828,-28.07266616821289,1.2426339387893677,-0.0,-0.0,-1.0,0.0598380594849589,1.0,2.0
18.723268508911133,-28.217548370361328,1.2629294395446775,0.6359192598701219,-0.4011676506313767,-0.6592959965092603,0.1023649516355043,3.0,2.0
18.327348709106445,-27.772159576416016,1.24253249168396,-0.0,-0.0,-1.0,0.0963526804459674,1.0,2.0
18.462621688842773,-27.3900146484375,1.2668232917785645,-0.0,-0.0,-1.0,0.2417093559388333,1.0,2.0
19.551010131835938,-27.264812469482425,1.3696951866149902,-0.0,-0.0,-1.0,0.1803396896928376,1.0,2.0
19.375743865966797,-29.01647186279297,1.2793691158294678,-0.0,-0.0,-1.0,0.0991723173515882,1.0,2.0
19.651519775390625,-29.054563522338867,1.3007285594940186,-0.0,-0.0,-1.0,0.0322599990817105,1.0,2.0
19.928035736083984,-29.089324951171875,1.3218696117401123,-0.0,-0.0,-1.0,0.0543517288701706,1.0,2.0
18.941020965576172,-28.542564392089844,1.2574174404144287,-0.0,-0.0,-1.0,0.0629313495782894,2.0,2.0
19.307056427001953,-28.62192153930664,1.2866876125335691,-0.0,-0.0,-1.0,0.0468430412349567,1.0,2.0
18.88336944580078,-28.11383056640625,1.264607548713684,-0.0,-0.0,-1.0,0.0799512472208399,1.0,2.0
19.335857391357425,-28.23122787475586,1.3013269901275637,-0.6000967844021049,-0.1997773717417697,-0.774579144497323,0.1055525881056386,5.0,2.0
19.508316040039062,-27.75814437866211,1.330299973487854,-0.0,-0.0,-1.0,0.1053877911988827,1.0,2.0
19.995302200317383,-28.23711585998535,1.3576843738555908,-0.0,-0.0,-1.0,0.1911905912140338,1.0,2.0
20.083515167236328,-28.22627067565918,1.3654576539993286,-0.0,-0.0,-1.0,0.2238303809243343,1.0,2.0
19.721508026123047,-28.76109313964844,1.2351945638656616,-0.0,-0.0,-1.0,0.0356869440351283,1.0,2.0
19.767745971679688,-28.796619415283203,1.2365343570709229,-0.0,-0.0,-1.0,0.0261181175414586,1.0,2.0
19.656681060791016,-28.59194564819336,1.2396804094314575,-0.0,-0.0,-1.0,0.035313121395634,1.0,2.0
19.70088577270508,-28.62908172607422,1.2408615350723269,-0.0,-0.0,-1.0,0.0329558919222653,1.0,2.0
