x,y,z,nx,ny,nz,curvature,density,label
4.135369300842285,14.640012741088867,0.0057373046875,0.959686118732712,0.2762843353578373,0.0516673934664906,0.1978001395012089,4.0,1.0
3.8182873725891113,14.814748764038086,-0.0548419952392578,0.2236637154713947,0.9119182715614228,-0.344063378426065,0.1620277062313529,3.0,0.0
3.6201624870300297,15.017457962036133,-0.1065278053283691,0.156116718389245,-0.8918418493617645,-0.4245535136662518,0.1665031039634543,5.0,0.0
3.818025588989258,13.612443923950195,0.1186432838439941,-0.0,-0.0,-1.0,0.1963907597337366,1.0,1.0
3.6586756706237793,13.655282974243164,0.0937950611114502,0.8113835250019176,-0.4167763873063023,-0.4098221789256528,0.1887077702335642,3.0,1.0
3.4784798622131348,14.221368789672852,-0.0079655647277832,-0.9765749724640082,0.1245489866458438,0.1754675841356882,0.23557549713598,4.0,0.0
3.5504379272460938,13.740711212158203,0.0688424110412597,-0.0,-0.0,-1.0,0.1825704299229219,2.0,1.0
4.873039245605469,15.285592079162598,-0.3150687217712402,0.368316108645416,0.6709275319368221,-0.6435833209472279,0.1502104372965372,3.0,0.0
4.903581142425537,15.395074844360352,-0.3331804275512695,-0.0,-0.0,-1.0,0.15913769894499,2.0,0.0
3.6344618797302246,13.309435844421388,-0.088024616241455,-0.0,-0.0,-1.0,0.0751283461503986,1.0,0.0
3.1040873527526855,14.513794898986816,0.112433910369873,-0.0,-0.0,-1.0,0.140375785036943,1.0,1.0
4.776854991912842,15.258578300476074,-0.0456361770629882,-0.0,-0.0,-1.0,0.2117991465178417,1.0,0.0
4.001708984375,15.414759635925291,-0.1614050865173339,-0.0,-0.0,-1.0,0.1400524342263464,2.0,0.0
3.7197928428649902,14.88491439819336,-0.1050529479980468,-0.0,-0.0,-1.0,0.1085231897234155,2.0,0.0
3.508500576019287,13.233259201049805,-0.2783811092376709,-0.0,-0.0,-1.0,0.2018353869012962,1.0,0.0
3.515530586242676,14.969185829162598,-0.1445670127868652,-0.0,-0.0,-1.0,0.181290527564121,2.0,0.0
3.3151116371154785,15.172414779663086,-0.2037594318389892,-0.0,-0.0,-1.0,0.0784202258267983,1.0,0.0
2.940410614013672,15.57026481628418,-0.3175640106201172,-0.0,-0.0,-1.0,0.1494174550934277,1.0,0.0
5.024667739868164,13.782163619995115,0.23952317237854,-0.0,-0.0,-1.0,0.173841529846588,1.0,1.0
4.093802452087402,14.663822174072266,-0.0219194889068603,-0.0,-0.0,-1.0,0.215292204687153,1.0,0.0
4.190598011016846,14.811012268066406,-0.0354318618774414,0.304587856675505,0.8661122081218408,-0.3963279961195412,0.1348234095313917,5.0,0.0
3.760039806365967,13.660051345825195,0.1046748161315918,-0.0,-0.0,-1.0,0.1215316781850969,2.0,1.0
3.93286657333374,14.687945365905762,-0.0455527305603027,-0.0,-0.0,-1.0,0.1522966711044053,1.0,0.0
3.5958251953125,13.67940902709961,0.0800414085388183,-0.7066814595666258,0.5867458466131599,-0.3953866793241649,0.1729578258844329,6.0,1.0
3.5238142013549805,14.434463500976562,-0.0540602207183837,-0.0,-0.0,-1.0,0.1587607568670292,1.0,0.0
3.543221950531006,13.278074264526367,-0.1322884559631347,-0.0,-0.0,-1.0,0.1634957483004333,2.0,0.0
4.273252487182617,14.551673889160156,0.1126224994659423,-0.8436680213671033,0.1859341192046495,-0.5036395268821823,0.1603830931836579,6.0,1.0
3.886739730834961,14.77801513671875,0.0269083976745605,0.4806478548159746,-0.7059490903521397,-0.520205268612101,0.2395436351088373,6.0,1.0
3.5176429748535156,15.02727508544922,-0.0615842342376709,-0.0,-0.0,-1.0,0.160934567091765,1.0,0.0
3.622887134552002,15.432622909545898,-0.1237232685089111,-0.0,-0.0,-1.0,0.0607760643747054,2.0,0.0
3.4812145233154297,14.285717010498049,0.0680644512176513,-0.0,-0.0,-1.0,0.1715852136501622,1.0,1.0
4.7684454917907715,15.517433166503906,-0.1532471179962158,-0.0,-0.0,-1.0,0.1945451569632821,2.0,0.0
4.54750919342041,15.561824798583984,-0.195005178451538,-0.0,-0.0,-1.0,0.1962408096465434,1.0,0.0
4.091251850128174,14.644180297851562,-0.0828344821929931,-0.0,-0.0,-1.0,0.2656840977436199,2.0,0.0
4.17303466796875,14.847476959228516,-0.1095659732818603,0.2014044758256087,-0.2182587416226529,-0.9548818559500998,0.1296330810904553,3.0,0.0
4.099648475646973,15.306528091430664,-0.2124404907226562,-0.0,-0.0,-1.0,0.1600971391903709,2.0,0.0
3.771564483642578,14.641820907592772,-0.1353027820587158,-0.0,-0.0,-1.0,0.0799509250483651,1.0,0.0
3.696841239929199,14.67769718170166,-0.1548094749450683,-0.0,-0.0,-1.0,0.1038052102467432,1.0,0.0
3.4587416648864746,13.182659149169922,-0.2733602523803711,-0.0,-0.0,-1.0,0.1992045117241703,2.0,0.0
3.3946409225463867,14.472183227539062,-0.1672585010528564,-0.0,-0.0,-1.0,0.0768919795023738,1.0,0.0
3.4744081497192383,14.67253589630127,-0.1914958953857422,-0.0,-0.0,-1.0,0.0737905744560593,1.0,0.0
3.3159022331237793,13.183868408203123,-0.3036577701568603,-0.0,-0.0,-1.0,0.1754315958342908,1.0,0.0
4.909146785736084,13.742490768432615,0.2272019386291504,-0.9034309906902164,-0.2240896370614813,0.3655082483640385,0.2680936563241981,3.0,1.0
4.292620658874512,14.474727630615234,-0.0166971683502197,-0.0,-0.0,-1.0,0.1389826788644871,2.0,0.0
3.915097236633301,13.466960906982422,0.1131665706634521,-0.0,-0.0,-1.0,0.1643818530883113,2.0,1.0
3.814802646636963,13.574029922485352,0.0753314495086669,-0.0,-0.0,-1.0,0.2139555958509412,2.0,1.0
3.624141216278076,13.601698875427246,0.0363285541534423,-0.0541423243408972,-0.9393046336561952,-0.3387852031995579,0.1252086606234988,3.0,1.0
3.6026244163513184,14.0678071975708,-0.0545737743377685,-0.0,-0.0,-1.0,0.121621746730472,2.0,0.0
5.178409576416016,15.092203140258787,-0.3327171802520752,-0.0,-0.0,-1.0,0.0749647857846611,2.0,0.0
4.964731693267822,14.717607498168944,-0.2676460742950439,-0.1085098886637682,-0.5912645182229523,-0.7991444635062901,0.0947455010650742,3.0,0.0
4.979376792907715,14.822263717651367,-0.2930085659027099,-0.0,-0.0,-1.0,0.1082935326456259,1.0,0.0
3.3255043029785156,13.543349266052246,-0.2981832027435303,-0.0,-0.0,-1.0,0.1334618746167948,1.0,0.0
3.186278820037842,13.598898887634276,-0.3417785167694092,-0.0,-0.0,-1.0,0.128559446716065,1.0,0.0
5.18304443359375,13.298391342163086,0.1424207687377929,-0.0,-0.0,-1.0,0.120761859493626,1.0,1.0
4.867849826812744,13.625398635864258,-0.0004675388336181,-0.0,-0.0,-1.0,0.2068096358601731,2.0,0.0
4.954442977905273,14.219646453857422,-0.1381134986877441,-0.0,-0.0,-1.0,0.0705900378651098,2.0,0.0
4.955472469329834,14.604530334472656,-0.2392432689666748,-0.0,-0.0,-1.0,0.033799457528422,2.0,0.0
4.726919651031494,15.029741287231444,-0.0399451255798339,-0.0,-0.0,-1.0,0.1887269950902784,1.0,0.0
4.772171497344971,15.364423751831056,-0.1112506389617919,-0.0,-0.0,-1.0,0.1922347554765054,1.0,0.0
4.633204936981201,15.571056365966797,-0.1804747581481933,-0.0,-0.0,-1.0,0.1750912652715769,1.0,0.0
4.6578168869018555,13.506817817687988,-0.0109462738037109,-0.0,-0.0,-1.0,0.0976951027219427,2.0,0.0
4.662220478057861,13.5989990234375,-0.0332086086273193,-0.0,-0.0,-1.0,0.088775836279298,1.0,0.0
4.40504789352417,15.600152969360352,-0.2219138145446777,-0.0,-0.0,-1.0,0.1598714488350752,1.0,0.0
4.256621360778809,14.449957847595217,0.0161342620849609,-0.1493305701627278,0.0863910976589025,-0.9850060705702096,0.1361609834971772,3.0,1.0
4.055832386016846,14.754150390625,-0.0857038497924804,0.1983531349352431,0.8917816044796746,-0.4066713707319687,0.1829283469456588,3.0,0.0
4.050173759460449,15.248855590820312,-0.1976120471954345,-0.0,-0.0,-1.0,0.1914073118031866,1.0,0.0
3.647417545318603,13.646934509277344,0.0799958705902099,0.9521317173466612,-0.08861953183419,0.2925607140406699,0.1960591630695936,4.0,1.0
3.4895715713500977,14.448655128479004,-0.1180720329284668,-0.0,-0.0,-1.0,0.1408874786020102,2.0,0.0
3.6053013801574703,14.70880889892578,-0.153480052947998,-0.0,-0.0,-1.0,0.1188015502428003,1.0,0.0
3.485635757446289,13.413494110107422,-0.2329549789428711,-0.0,-0.0,-1.0,0.1485782129828144,1.0,0.0
3.4475979804992676,14.369933128356934,-0.108959674835205,-0.0,-0.0,-1.0,0.1478456048396081,1.0,0.0
3.279201030731201,14.790056228637695,-0.2292177677154541,-0.0,-0.0,-1.0,0.0743002362236118,1.0,0.0
3.8987832069396977,13.583755493164062,0.1402699947357177,-0.0811803317751346,0.6340774601852405,-0.7689964422660968,0.2130892884216322,5.0,1.0
3.122378349304199,14.473360061645508,0.1712286472320556,-0.0,-0.0,-1.0,0.131962473662234,1.0,1.0
3.074932098388672,14.751022338867188,0.1131014823913574,-0.0,-0.0,-1.0,0.1197047453853786,1.0,1.0
2.944352626800537,14.800138473510742,0.0831236839294433,-0.0,-0.0,-1.0,0.1158086658501569,2.0,1.0
3.073878765106201,14.755549430847168,0.0459907054901123,-0.0,-0.0,-1.0,0.1237872025103164,1.0,1.0
3.0089035034179688,14.73523998260498,0.0357842445373535,-0.0,-0.0,-1.0,0.1301431738151144,1.0,1.0
3.1306657791137695,14.460603713989258,0.1086676120758056,-0.0,-0.0,-1.0,0.1311394532178358,1.0,1.0
4.97645378112793,13.564265251159668,0.1250419616699218,-0.0,-0.0,-1.0,0.2990685014182429,2.0,1.0
3.9342150688171382,13.452548027038574,0.0826151371002197,-0.0,-0.0,-1.0,0.1659605952610408,2.0,1.0
4.489480018615723,13.684366226196287,0.1411430835723877,-0.0,-0.0,-1.0,0.1815297570145351,2.0,1.0
3.6572928428649902,13.143078804016112,-0.0579750537872314,-0.0,-0.0,-1.0,0.1106844847112068,1.0,0.0
4.04331111907959,13.181846618652344,-0.0320103168487548,-0.0,-0.0,-1.0,0.1455455875921976,1.0,0.0
5.02945613861084,13.343884468078612,0.0338442325592041,-0.0,-0.0,-1.0,0.1743320811772619,2.0,1.0
3.9360337257385254,13.447038650512695,0.0116455554962158,-0.0,-0.0,-1.0,0.178751787922646,1.0,1.0
4.540158271789551,13.567205429077148,0.0596530437469482,-0.0,-0.0,-1.0,0.1396853446878384,1.0,1.0
4.895083904266357,13.643288612365724,0.0858931541442871,-0.7677566031103406,0.4832148492097307,0.4207769098746838,0.2161356881963752,3.0,1.0
5.2015790939331055,13.764495849609377,0.1170737743377685,-0.0,-0.0,-1.0,0.1646415867107731,1.0,1.0
3.6659374237060542,13.602943420410156,0.026198387145996,0.3431321247815175,-0.7885195229384219,-0.5103893679220646,0.1475491330630109,7.0,1.0
3.882704019546509,13.531831741333008,0.0245280265808105,0.4068122984808368,-0.330132843384986,-0.8517723049755043,0.2969752518053387,3.0,1.0
3.502608299255371,14.160265922546388,0.117830753326416,-0.0,-0.0,-1.0,0.117770293822834,1.0,1.0
5.162959098815918,13.647581100463867,-0.0527920722961425,-0.0,-0.0,-1.0,0.1431936646200146,1.0,0.0
3.657368659973145,13.649784088134766,-0.141495943069458,0.3533744156720299,-0.468814746240505,-0.8095302687706638,0.1706902730264167,3.0,0.0
4.002565383911133,13.760899543762209,-0.0972461700439453,-0.0,-0.0,-1.0,0.0921848838255597,1.0,0.0
3.5286197662353516,13.83129596710205,-0.1183598041534423,-0.0,-0.0,-1.0,0.1805457249045616,1.0,0.0
4.291411399841309,13.92741584777832,-0.0481109619140625,-0.2439896360024145,-0.1229682571534597,-0.9619500326191844,0.0632783929516302,3.0,0.0
4.744696617126465,13.929872512817385,-0.0211625099182128,-0.0,-0.0,-1.0,0.073956872775274,2.0,0.0
5.061859130859375,13.882339477539062,-0.0137348175048828,0.2163673469774932,0.5804060512905679,-0.7850566774362294,0.224166255096445,3.0,0.0
3.579726219177246,14.140727996826172,-0.059051513671875,-0.0,-0.0,-1.0,0.1587388958565041,1.0,0.0
4.390212059020996,14.304224967956545,0.027109146118164,0.5452549804627815,-0.6378373531074442,-0.5439306180584257,0.1074430020990062,3.0,1.0
4.550211429595947,14.109379768371582,0.0010783672332763,-0.0,-0.0,-1.0,0.0463519373528794,2.0,1.0
3.5098953247070312,14.30685329437256,-0.0348503589630126,0.0759425074162642,-0.8028753415446737,-0.591290048543736,0.145763265929789,5.0,0.0
4.2047576904296875,14.643954277038574,0.0768632888793945,-0.2929016594337537,0.9554574046175716,0.0361906875094579,0.1491751935314228,4.0,1.0
3.6462502479553223,13.656134605407717,-0.1500270366668701,0.3533744156720299,-0.468814746240505,-0.8095302687706638,0.1515911056055109,3.0,0.0
4.065675735473633,13.770402908325195,-0.0985400676727294,-0.0,-0.0,-1.0,0.0838592229756368,1.0,0.0
4.430933952331543,13.871609687805176,-0.0554695129394531,-0.8171651288195397,0.0504624913942781,0.5741904642221319,0.0840492423676611,5.0,0.0
4.953429698944092,13.819414138793944,-0.0323622226715087,-0.7182375571827431,-0.2850288904404275,-0.6347387990870457,0.203622220506386,4.0,0.0
3.584951400756836,14.07749843597412,-0.0830938816070556,0.3971809942629202,-0.3922301065140427,-0.8297004286730846,0.1235889257872445,4.0,0.0
4.197990417480469,13.933435440063477,-0.0607569217681884,-0.0,-0.0,-1.0,0.0561239849183805,1.0,0.0
4.513596057891846,13.974281311035156,-0.0320756435394287,-0.0,-0.0,-1.0,0.0426987089046882,1.0,0.0
4.875439167022705,13.962095260620115,-0.0116708278656005,-0.0,-0.0,-1.0,0.0840563340053267,2.0,0.0
3.453343391418457,14.26665496826172,-0.0622119903564453,-0.6765681673020784,-0.4280995907991992,0.5991546172325349,0.2060264240799862,3.0,0.0
3.569340705871582,14.295645713806152,-0.0474936962127685,-0.0,-0.0,-1.0,0.1423202018640918,2.0,0.0
4.548535346984863,14.233708381652832,0.0157139301300048,-0.0233677276861339,0.2794355896303343,-0.9598800448757824,0.136626001946183,6.0,1.0
4.172210693359375,14.63475513458252,0.0585181713104248,-0.232296433459835,0.9717232458931028,0.0423355688849656,0.1630438169931033,5.0,1.0
4.434807300567627,14.402220726013184,0.0372400283813476,-0.0,-0.0,-1.0,0.1196022573423207,2.0,1.0
3.945931911468506,13.970895767211914,-0.1023685932159423,-0.0,-0.0,-1.0,0.0428781948343739,2.0,0.0
4.960191249847412,13.822391510009766,-0.0421934127807617,-0.6140965589991741,-0.3765596509737745,-0.6936052519148648,0.2329485824418918,5.0,0.0
2.9612269401550293,14.45339298248291,-0.1247859001159668,-0.0,-0.0,-1.0,0.1606536404090513,1.0,0.0
3.3955078125,14.22821807861328,-0.1141393184661865,-0.0,-0.0,-1.0,0.1790658451085137,2.0,0.0
3.5628390312194824,14.352476119995115,-0.0768942832946777,-0.6150187071797825,-0.7816351984950508,-0.1039153804425069,0.1847555276048358,3.0,0.0
4.178469657897949,14.079818725585938,-0.0629873275756836,-0.0,-0.0,-1.0,0.0510345280066728,1.0,0.0
4.529977321624756,14.069255828857422,-0.0342841148376464,-0.0,-0.0,-1.0,0.0312230566265811,2.0,0.0
4.867733001708984,13.969368934631348,-0.0239977836608886,-0.0,-0.0,-1.0,0.1230238375786919,2.0,0.0
5.197011470794678,13.886113166809082,-0.0137438774108886,0.8939359277263643,-0.0385743551319028,-0.4465317191937903,0.1859740913775155,3.0,0.0
3.9155211448669434,14.760750770568848,0.024935245513916,0.4186863390596904,-0.6500181970482389,-0.634175128013509,0.1520287009123676,6.0,1.0
4.065743446350098,14.699387550354004,0.0295093059539794,0.1667903227289231,-0.2040686187126525,-0.9646434507633852,0.1734978471244114,4.0,1.0
2.9863457679748535,15.479341506958008,-0.4135024547576904,-0.0,-0.0,-1.0,0.1636899549505744,1.0,0.0
3.716230869293213,13.848882675170898,-0.1213400363922119,-0.0,-0.0,-1.0,0.0950566794959305,1.0,0.0
3.2383832931518555,14.28016471862793,-0.0881202220916748,-0.0,-0.0,-1.0,0.1585334835108303,1.0,0.0
3.3724164962768555,14.312135696411133,-0.0716409683227539,-0.0,-0.0,-1.0,0.2088438993085277,2.0,0.0
3.905740261077881,13.944172859191896,-0.0910396575927734,-0.0,-0.0,-1.0,0.0425962859867972,2.0,0.0
4.200527667999268,13.984140396118164,-0.0630090236663818,-0.0,-0.0,-1.0,0.0444290268133842,1.0,0.0
4.665292263031006,13.95829963684082,-0.0360689163208007,0.8979380171215209,0.1011638418312695,0.428337710823842,0.057975789542113,3.0,0.0
4.988462448120117,13.786181449890137,-0.0463933944702148,-0.0066847289249995,0.5669807485452635,-0.823703918394378,0.1746097042844951,4.0,0.0
4.312081813812256,14.211499214172363,-0.0161528587341308,-0.0,-0.0,-1.0,0.1658931348204687,1.0,0.0
4.617860317230225,14.013216972351074,-0.0296342372894287,-0.0,-0.0,-1.0,0.0434338825368021,2.0,0.0
5.066701412200928,13.860413551330566,-0.0286104679107666,-0.0,-0.0,-1.0,0.1707399583837792,2.0,0.0
3.025301933288574,15.536911010742188,-0.3982553482055664,-0.0,-0.0,-1.0,0.1626137462972874,1.0,0.0
3.976210594177246,15.393351554870604,-0.3225665092468261,-0.0,-0.0,-1.0,0.2330455016330458,2.0,0.0
4.380005836486816,15.28930377960205,-0.3038830757141113,-0.0,-0.0,-1.0,0.1842304824474912,1.0,0.0
4.758606910705566,15.092243194580078,-0.3097114562988281,-0.0,-0.0,-1.0,0.1001716623688273,1.0,0.0
5.065292835235596,14.860952377319336,-0.3320193290710449,0.4709566143281884,0.0468944196322372,-0.8809090650162964,0.0764987169215393,5.0,0.0
3.773478984832764,14.753634452819824,0.0341494083404541,-0.0,-0.0,-1.0,0.1669503442480021,1.0,1.0
3.952864646911621,14.672179222106934,0.0349721908569335,-0.0,-0.0,-1.0,0.1403801367154989,1.0,1.0
4.524599075317383,14.212645530700684,-0.0012359619140625,0.3941337467620374,0.5425571600689106,-0.7418155550548108,0.1279788227242252,7.0,0.0
3.124055862426758,15.475322723388672,-0.4213528633117676,-0.0,-0.0,-1.0,0.1310435923958797,2.0,0.0
3.1296682357788086,15.548553466796877,-0.4078130722045898,-0.0,-0.0,-1.0,0.1328173507367168,2.0,0.0
3.4134793281555176,13.534948348999023,-0.1888239383697509,-0.0,-0.0,-1.0,0.1442222053675843,1.0,0.0
3.4224987030029297,14.180095672607422,-0.0867249965667724,-0.0,-0.0,-1.0,0.1710883479509519,2.0,0.0
3.5756897926330566,13.895383834838867,-0.1175644397735595,-0.0,-0.0,-1.0,0.0869649017224407,2.0,0.0
3.777086734771729,13.632608413696287,-0.1418733596801757,-0.0,-0.0,-1.0,0.1090335675841596,2.0,0.0
4.266057014465332,13.969056129455566,-0.0470030307769775,-0.2439896360024145,-0.1229682571534597,-0.9619500326191844,0.0656605895757161,3.0,0.0
4.437315464019775,13.86458969116211,-0.0505111217498779,0.5263740102830677,0.6061128364320633,-0.5962865341518285,0.0872573239912811,6.0,0.0
4.417088031768799,14.330020904541016,0.0238010883331298,-0.0,-0.0,-1.0,0.0962111060641242,2.0,1.0
4.631225109100342,13.906665802001951,-0.0285205841064453,-0.0,-0.0,-1.0,0.0272770056126527,1.0,0.0
4.952613830566406,13.799527168273926,-0.0226857662200927,-0.6140965589991741,-0.3765596509737745,-0.6936052519148648,0.1761182761515574,5.0,0.0
4.04941987991333,15.276065826416016,-0.345942735671997,-0.0,-0.0,-1.0,0.2359162725525587,1.0,0.0
4.204774379730225,15.395723342895508,-0.3063809871673584,-0.0,-0.0,-1.0,0.0892428573886682,2.0,0.0
4.495600700378418,15.221558570861816,-0.3073046207427978,-0.0,-0.0,-1.0,0.1445594548579258,1.0,0.0
4.8997087478637695,15.004443168640137,-0.3076777458190918,-0.0,-0.0,-1.0,0.0457583174044571,1.0,0.0
4.741762161254883,15.263285636901855,-0.273500919342041,-0.0,-0.0,-1.0,0.1309693696753684,1.0,0.0
4.9853835105896,15.0953369140625,-0.2817404270172119,-0.0,-0.0,-1.0,0.0532216663609076,1.0,0.0
3.8870716094970703,14.765939712524414,0.0473341941833496,0.1477590630470183,0.9379450947998844,0.3137295944413004,0.1251777791536073,5.0,1.0
4.1430439949035645,14.630204200744627,0.0487613677978515,0.6771545946015495,0.4345261185024627,-0.5938423253265088,0.1869598933835268,5.0,1.0
2.9830093383789062,15.38421630859375,-0.402092695236206,-0.0,-0.0,-1.0,0.1389871246491067,1.0,0.0
3.2194957733154297,15.522369384765623,-0.347243070602417,-0.0,-0.0,-1.0,0.1308556955541885,2.0,0.0
3.3253612518310547,13.56082248687744,-0.1250865459442138,-0.0,-0.0,-1.0,0.1111649072174399,1.0,0.0
3.4683265686035156,14.17430591583252,-0.0195858478546142,-0.9765749724640082,0.1245489866458438,0.1754675841356882,0.2070174395953226,4.0,0.0
3.796631813049317,13.663655281066896,-0.0655839443206787,-0.0,-0.0,-1.0,0.1642206784108115,1.0,0.0
3.938493251800537,13.60220432281494,-0.0622859001159668,-0.0,-0.0,-1.0,0.1626264935692143,1.0,0.0
4.097889423370361,13.17198371887207,-0.1156082153320312,-0.0,-0.0,-1.0,0.1334371896490753,1.0,0.0
4.288607597351074,13.63558292388916,-0.0267245769500732,-0.0,-0.0,-1.0,0.160756808957279,1.0,0.0
4.493038654327393,13.534993171691896,-0.0253748893737792,-0.0,-0.0,-1.0,0.1516116540702163,1.0,0.0
3.3078489303588867,15.556256294250488,-0.3297615051269531,-0.0,-0.0,-1.0,0.0651702294273012,1.0,0.0
4.371906757354736,13.913280487060549,0.0240089893341064,-0.0,-0.0,-1.0,0.1186522584193816,2.0,1.0
4.826172828674316,13.65040111541748,0.0197534561157226,-0.0,-0.0,-1.0,0.1774811413752534,1.0,1.0
5.102966785430908,13.247359275817873,-0.0245740413665771,-0.0,-0.0,-1.0,0.1332343432832067,2.0,0.0
3.9365663528442383,15.41453742980957,-0.2729158401489258,0.2668719708642671,0.7468845711312646,-0.6090507274218531,0.2018083132672403,3.0,0.0
4.206160068511963,15.1792631149292,-0.2815773487091064,-0.0,-0.0,-1.0,0.0779449942164135,2.0,0.0
5.086521148681641,13.640589714050291,0.0383851528167724,-0.0,-0.0,-1.0,0.2007944177706865,2.0,1.0
4.507079601287842,15.23165512084961,-0.2370080947875976,-0.0,-0.0,-1.0,0.1525526314950826,1.0,0.0
4.644350528717041,14.939001083374023,-0.2749230861663818,-0.0,-0.0,-1.0,0.1271381608662297,1.0,0.0
5.005306720733643,14.722410202026367,-0.2767088413238525,-0.1085098886637682,-0.5912645182229523,-0.7991444635062901,0.1041576776155957,3.0,0.0
4.2573466300964355,14.591373443603516,0.1183512210845947,0.9274696163665532,0.3061803128803211,-0.2146013204092351,0.1751933407588038,4.0,1.0
3.0274362564086914,14.60491943359375,-0.0977964401245117,-0.0,-0.0,-1.0,0.1727909142349512,1.0,0.0
3.4443321228027344,14.41814136505127,-0.0775253772735595,-0.0,-0.0,-1.0,0.1620950581238261,1.0,0.0
3.6879072189331055,13.79707145690918,-0.1459801197052002,-0.0,-0.0,-1.0,0.1443052817253448,1.0,0.0
3.0994691848754883,15.62429904937744,-0.4351551532745361,-0.0,-0.0,-1.0,0.136773150943483,2.0,0.0
3.8815975189208984,13.89509105682373,-0.1105496883392334,-0.0,-0.0,-1.0,0.06891688491385,1.0,0.0
4.297070503234863,13.975868225097656,-0.0557401180267334,-0.3215927171571809,-0.2078612027829918,-0.9237812753293224,0.0672126411370121,4.0,0.0
4.0140485763549805,15.463165283203123,-0.3311440944671631,-0.0,-0.0,-1.0,0.1682852508609906,1.0,0.0
4.316537857055664,15.228501319885254,-0.332211971282959,-0.0,-0.0,-1.0,0.1332254798753673,1.0,0.0
4.358002662658691,15.502187728881836,-0.2774398326873779,0.6997779455957349,0.7070585889376045,0.1018772725752733,0.1622076687058916,4.0,0.0
4.566582202911377,15.294809341430664,-0.2878115177154541,0.6605677624223252,-0.4717414110962576,-0.5840464641663999,0.1286562635853969,4.0,0.0
4.848087787628174,15.05374240875244,-0.2969086170196533,-0.0,-0.0,-1.0,0.0871742102637289,1.0,0.0
5.044732570648193,14.986894607543944,-0.2856695652008056,-0.0,-0.0,-1.0,0.0883072142276112,1.0,0.0
3.977719306945801,14.751307487487791,0.0317039489746093,0.8946625367707409,0.3376782088694997,0.2924933718114471,0.167462651730793,4.0,1.0
4.551111221313477,13.878847122192385,-0.0463979244232177,-0.0,-0.0,-1.0,0.0337466964204935,2.0,0.0
4.232132911682129,14.699437141418455,0.0511581897735595,-0.0,-0.0,-1.0,0.1688031284506142,1.0,1.0
4.440209865570068,14.419862747192385,0.0290107727050781,-0.0,-0.0,-1.0,0.0994639350485502,2.0,1.0
4.653377532958984,13.990622520446776,-0.0187256336212158,0.6923233961476818,0.616758788083699,0.374562294509294,0.0476452782335556,4.0,0.0
4.948506832122803,13.805142402648926,-0.0214781761169433,-0.7182375571827431,-0.2850288904404275,-0.6347387990870457,0.1839942658932085,4.0,0.0
5.165984630584717,13.742337226867676,-0.0125317573547363,-0.0,-0.0,-1.0,0.1732106626716668,2.0,0.0
3.073277473449707,15.06215763092041,-0.2162320613861084,-0.0,-0.0,-1.0,0.0824175394321199,1.0,0.0
3.321396827697754,15.107879638671877,-0.1733572483062744,-0.0,-0.0,-1.0,0.149537809894747,2.0,0.0
3.4836015701293945,14.927448272705078,-0.1773345470428466,-0.0,-0.0,-1.0,0.1312103210776714,1.0,0.0
3.9454479217529297,13.531899452209473,0.1658971309661865,0.6302262332434617,-0.0617430544019343,-0.7739526407764737,0.1699382601664281,5.0,1.0
3.6378097534179688,15.406587600708008,-0.0827620029449462,-0.0,-0.0,-1.0,0.0607760643747054,1.0,0.0
3.92490291595459,14.943090438842772,-0.1136369705200195,-0.0,-0.0,-1.0,0.0521908722724276,1.0,0.0
4.128647804260254,14.736506462097168,-0.1190762519836425,-0.0,-0.0,-1.0,0.1885843861730168,2.0,0.0
4.1309356689453125,14.873181343078612,-0.0968263149261474,-0.0,-0.0,-1.0,0.1055340834239187,2.0,0.0
4.3957719802856445,14.636810302734377,-0.1007711887359619,0.2892364350917365,0.6820437064868613,-0.6716834574835739,0.0670933067263751,3.0,0.0
4.614396572113037,14.400136947631836,-0.1127505302429199,-0.0,-0.0,-1.0,0.0947737518845377,2.0,0.0
4.764994144439697,14.257993698120115,-0.1187601089477539,-0.0,-0.0,-1.0,0.1433068104877064,1.0,0.0
5.048078536987305,14.041271209716797,-0.1235785484313964,-0.2451183771174944,0.0577599298466062,-0.9677710326845916,0.2353706629575718,5.0,0.0
3.155336380004883,14.449148178100586,0.20377779006958,-0.0,-0.0,-1.0,0.0900152134031385,1.0,1.0
4.8793416023254395,13.756361961364746,0.28798508644104,-0.0,-0.0,-1.0,0.2592273434865991,1.0,1.0
2.9959259033203125,14.502824783325195,-0.0603473186492919,-0.0,-0.0,-1.0,0.1760526102926385,2.0,0.0
3.4770078659057617,13.684785842895508,-0.1299293041229248,-0.0,-0.0,-1.0,0.1917747178355068,1.0,0.0
3.4641332626342773,14.289535522460938,-0.033679723739624,0.5513479071170454,-0.8339017361574835,-0.02496757399485,0.174349884481041,4.0,0.0
3.487969398498535,14.124704360961914,-0.0570313930511474,-0.0,-0.0,-1.0,0.1666803437001059,2.0,0.0
3.752993583679199,13.63969898223877,-0.1053183078765869,-0.7597668984406556,0.3241503800333393,-0.5636317868592121,0.114279140526092,3.0,0.0
4.212884902954102,13.734421730041504,-0.0374574661254882,-0.0,-0.0,-1.0,0.0949763805992342,1.0,0.0
4.238713264465332,14.51613712310791,0.0970022678375244,-0.5950079744624944,0.796616328688508,-0.1066205195676813,0.1719182958636411,3.0,1.0
4.53975772857666,13.762813568115234,0.0031287670135498,-0.0,-0.0,-1.0,0.1241379853251439,1.0,1.0
4.79152774810791,13.805538177490234,0.037306785583496,-0.0776412512645339,-0.334773486007428,-0.9390945368643736,0.168608558999819,5.0,1.0
4.975018501281738,13.601603507995604,0.0194313526153564,0.2957749988901896,0.6082484812563054,-0.7365805693071915,0.2237129253806961,3.0,1.0
5.1141276359558105,13.266396522521973,-0.0281369686126709,-0.0,-0.0,-1.0,0.1273145268061862,2.0,0.0
3.845867156982422,13.48692226409912,0.1519322395324707,-0.0,-0.0,-1.0,0.1767662433148116,1.0,1.0
3.9010820388793945,13.373601913452148,0.1445353031158447,-0.0,-0.0,-1.0,0.1632968232020837,1.0,1.0
5.195834159851074,13.208860397338867,0.302544355392456,0.9817899738013304,0.1505157591085325,0.11590277651189,0.1514043338626866,3.0,1.0
3.9619388580322266,13.50064468383789,0.172835111618042,-0.1657759557721967,-0.3722976682995909,-0.9131882493037798,0.2066762700012054,4.0,1.0
3.713446617126465,13.594766616821287,0.0899767875671386,0.7103431696153429,0.6316391632930294,-0.3105552266108392,0.1823394256391877,4.0,1.0
3.00034236907959,14.676677703857422,0.0713400840759277,-0.0,-0.0,-1.0,0.0984700870482791,1.0,1.0
3.2258176803588867,15.40942668914795,-0.2185707092285156,-0.0,-0.0,-1.0,0.1259156315798208,1.0,0.0
3.166598320007324,14.997121810913086,-0.2010250091552734,-0.2325061740792096,-0.7746802835501218,-0.5880572568158237,0.1412531763823777,3.0,0.0
3.384052276611328,15.400053024291992,-0.1803278923034668,-0.0,-0.0,-1.0,0.0491214637028743,1.0,0.0
3.289632797241211,15.040423393249512,-0.1748759746551513,-0.0,-0.0,-1.0,0.1621567539990706,2.0,0.0
3.3977251052856445,14.208456039428713,-0.095557689666748,-0.4981450628981829,-0.622980844787293,-0.6031138891936384,0.1691077217822203,3.0,0.0
3.264280319213867,13.284607887268066,-0.0866243839263916,-0.0,-0.0,-1.0,0.1308427962012775,1.0,0.0
3.416640281677246,15.354120254516602,-0.1688892841339111,-0.0,-0.0,-1.0,0.0605482241972534,2.0,0.0
3.662367820739746,15.021018028259276,-0.0847697257995605,0.3859080797610708,-0.8839795946639097,-0.2639223942619361,0.157853215078657,6.0,0.0
3.531073570251465,14.37697696685791,-0.0731832981109619,-0.6150187071797825,-0.7816351984950508,-0.1039153804425069,0.1588819718633808,3.0,0.0
3.4824295043945312,14.132965087890623,-0.0712068080902099,-0.7704459179971944,-0.6338391196952902,-0.0682719399560295,0.1396046342348019,3.0,0.0
3.719620704650879,13.595178604125977,0.0114812850952148,0.5389786210125855,0.8411353974806915,-0.0446462674405261,0.1844724897223414,4.0,1.0
3.9635400772094727,14.762035369873049,0.0055572986602783,0.7976620079914597,-0.265520233760276,-0.5415111508278672,0.1705818618678239,3.0,1.0
4.14371395111084,14.678690910339355,0.0542807579040527,0.0407910825416384,-0.1754428756499393,-0.9836441861612164,0.2053161553303592,4.0,1.0
3.857743263244629,13.473361015319824,0.0496492385864257,-0.0,-0.0,-1.0,0.1869399461848448,1.0,1.0
4.249420166015625,14.588006973266602,0.0855953693389892,0.1042395874414374,0.9361665498000824,-0.3357473744431202,0.2007556823295422,5.0,1.0
3.044327735900879,14.505281448364258,-0.0722815990447998,-0.2376933925924664,-0.0328913569277931,-0.9707831940023128,0.1950535849329677,3.0,0.0
4.117257118225098,15.475423812866213,-0.3385403156280517,-0.0,-0.0,-1.0,0.1074371460652684,1.0,0.0
4.241026878356934,15.161615371704102,-0.2778122425079345,-0.0,-0.0,-1.0,0.1791920854295023,2.0,0.0
4.634875297546387,15.49107265472412,-0.2064809799194336,-0.0,-0.0,-1.0,0.2590386210250701,1.0,0.0
4.4080400466918945,14.91537857055664,-0.2126743793487548,-0.9405381833318202,-0.1988009656442675,-0.27543801798914,0.0503568755026896,4.0,0.0
4.492124557495117,14.704874038696287,-0.1730513572692871,-0.0,-0.0,-1.0,0.0671984760322111,2.0,0.0
4.616694450378418,14.336878776550291,-0.1111433506011962,-0.0,-0.0,-1.0,0.1016526057846718,2.0,0.0
4.561774253845215,13.54543399810791,-0.0716481208801269,-0.0,-0.0,-1.0,0.1197969963663164,1.0,0.0
4.878481864929199,15.200790405273438,-0.1159031391143798,-0.0,-0.0,-1.0,0.1627490673295256,2.0,0.0
4.822661399841309,14.139537811279297,-0.0416104793548584,-0.0,-0.0,-1.0,0.1683768653457768,2.0,0.0
4.882272720336914,13.823588371276855,-0.0035221576690673,0.94504310388554,-0.3268515460851436,-0.0078484788421809,0.1406387916305853,3.0,0.0
4.901052474975586,13.60195541381836,0.0160422325134277,0.1694398620463249,-0.395687356923074,-0.902619326582892,0.1702496954611677,3.0,1.0
3.712766647338867,13.594449043273926,0.1331775188446045,-0.0,-0.0,-1.0,0.1531915961976566,2.0,1.0
4.1095476150512695,15.524520874023438,-0.3622009754180908,-0.7819590455478715,0.5463700256479007,-0.3000330751090194,0.1316124686039359,3.0,0.0
4.112465858459473,15.341804504394531,-0.3315787315368652,-0.1377878433785127,0.7302518281462481,-0.6691388329085084,0.1823031865262838,3.0,0.0
4.2506866455078125,15.508393287658691,-0.3257558345794678,-0.0,-0.0,-1.0,0.1724149747812375,1.0,0.0
5.159377098083496,13.735698699951172,-0.2308661937713623,-0.0,-0.0,-1.0,0.1973305911695183,1.0,0.0
4.547262191772461,15.450027465820312,-0.2455804347991943,-0.0,-0.0,-1.0,0.1743660933261029,1.0,0.0
4.280152320861816,15.10133934020996,-0.2527797222137451,-0.2651413157044772,-0.9290813837496436,0.2578911884426183,0.2008132274937642,3.0,0.0
4.7005157470703125,15.492242813110352,-0.2163920402526855,-0.0,-0.0,-1.0,0.2444456009017682,1.0,0.0
4.495882034301758,14.702204704284668,-0.1380283832550048,0.0248538792111959,-0.9949732181548736,-0.0970081431772053,0.0684182491381821,4.0,0.0
4.569390296936035,14.280521392822266,-0.0565612316131591,-0.0,-0.0,-1.0,0.1281862971527945,2.0,0.0
4.125093460083008,13.48513889312744,-0.0570464134216308,-0.0,-0.0,-1.0,0.1143257032655826,1.0,0.0
4.062991142272949,13.288529396057127,-0.0474026203155517,-0.0,-0.0,-1.0,0.2162757902545724,1.0,0.0
4.772462844848633,14.092611312866213,0.0212428569793701,-0.0,-0.0,-1.0,0.1037499852929985,2.0,1.0
4.757521629333496,13.758030891418455,0.0650484561920166,-0.3413807382941759,0.3218615126274501,-0.883099291252628,0.17978931412791,3.0,1.0
5.023276329040527,13.650532722473145,0.1463446617126464,-0.8472017206507548,-0.457166885786532,-0.2706430916662096,0.2584094692242951,4.0,1.0
5.208993911743164,13.23604965209961,0.2493503093719482,0.2364540828120458,0.9716344941644754,0.003984528988273,0.1632400823733376,3.0,1.0
4.028881072998047,15.573514938354492,-0.2610933780670166,-0.0,-0.0,-1.0,0.1372755783797055,2.0,0.0
4.065103530883789,15.34343719482422,-0.2139191627502441,0.249897687055747,0.4361055747511017,-0.8645016331246568,0.1795660891243937,3.0,0.0
4.091608047485352,15.154104232788086,-0.1763710975646972,0.0312802479894441,-0.4223887795705525,-0.9058748616550842,0.0971117734131444,3.0,0.0
3.627235412597656,14.19798469543457,-0.1416029930114746,-0.0,-0.0,-1.0,0.080517996186285,1.0,0.0
5.071776390075684,14.970699310302734,-0.3387227058410644,-0.0,-0.0,-1.0,0.0942478985396707,1.0,0.0
5.1339616775512695,14.491329193115234,-0.2323317527770996,-0.0,-0.0,-1.0,0.0301452327364346,2.0,0.0
3.2019872665405273,14.396543502807615,0.1905064582824707,-0.0,-0.0,-1.0,0.0956578409343918,1.0,1.0
4.158879280090332,14.941539764404297,-0.125683307647705,-0.2492863682986348,-0.6239598915624941,-0.740628355048467,0.0852155892289365,5.0,0.0
3.9590911865234375,14.54850959777832,-0.1122839450836181,0.0308698837936644,0.980501980380583,-0.1940693606531442,0.1809499111103155,3.0,0.0
3.8018646240234375,14.358880996704102,-0.1221761703491211,-0.0,-0.0,-1.0,0.07253961205283,2.0,0.0
3.3953189849853516,13.584310531616213,-0.1139273643493652,-0.0,-0.0,-1.0,0.1574330566075517,1.0,0.0
4.840659141540527,15.57072925567627,-0.0710043907165527,0.9859088346691768,-0.0340691922825119,0.1637774705461127,0.1881748864401276,5.0,0.0
4.170522689819336,14.813400268554688,-0.102306842803955,-0.7009853753874107,-0.3654458494058167,-0.6124286363691955,0.1689415005606602,4.0,0.0
4.198437690734863,14.602697372436523,-0.0623245239257812,0.3227887779118521,0.540962287715808,-0.7766384024264139,0.1513581787189882,4.0,0.0
4.055222511291504,14.194843292236328,-0.0349831581115722,-0.0,-0.0,-1.0,0.0698789386023496,2.0,0.0
3.7068262100219727,13.781728744506836,-0.0623302459716796,-0.0,-0.0,-1.0,0.1157989775700681,1.0,0.0
3.725008964538574,13.577027320861816,-0.0293450355529785,-0.0,-0.0,-1.0,0.1299103597388222,2.0,0.0
3.311807632446289,13.251581192016602,-0.0915546417236328,-0.0,-0.0,-1.0,0.1332941819778396,1.0,0.0
4.816271781921387,15.115620613098145,0.002030611038208,-0.0,-0.0,-1.0,0.152606647924859,2.0,1.0
4.372652053833008,13.680985450744627,0.1190943717956543,0.0255881387546701,0.9085498055065496,-0.4169922038468859,0.2012120008690764,3.0,1.0
4.452174186706543,13.686555862426758,0.1381666660308838,0.0916799290950388,0.8582005546777779,-0.5050609849828858,0.1883887947139709,5.0,1.0
4.912768363952637,13.695764541625977,0.2513928413391113,-0.0,-0.0,-1.0,0.1916643900086952,2.0,1.0
5.096012115478516,13.145288467407228,-0.0140185356140136,-0.0,-0.0,-1.0,0.1320551664081774,1.0,0.0
4.1220903396606445,15.61045265197754,-0.3661692142486572,-0.0,-0.0,-1.0,0.1711338109088606,2.0,0.0
4.086203575134277,15.360189437866213,-0.3061068058013916,-0.2540158132857615,0.660591260519214,-0.706466668092989,0.215797432696408,4.0,0.0
4.384032249450684,15.496094703674316,-0.2851009368896484,0.1851837880595525,0.9721039535289,-0.143947449346614,0.148243712692336,3.0,0.0
3.4035539627075195,14.32546043395996,-0.1816508769989013,-0.0,-0.0,-1.0,0.1139326415741635,1.0,0.0
4.815423011779785,15.539068222045898,-0.2156996726989746,-0.0,-0.0,-1.0,0.1651533335617037,1.0,0.0
4.553491592407227,15.360712051391602,-0.2163500785827636,-0.0,-0.0,-1.0,0.1716299659277279,1.0,0.0
4.266420364379883,15.001144409179688,-0.1761066913604736,-0.8436162102403543,-0.3447095852788774,0.41168797849411,0.1039383568774337,3.0,0.0
3.883683204650879,14.483845710754396,-0.1205787658691406,-0.0,-0.0,-1.0,0.1497193561557959,1.0,0.0
3.493337631225586,14.124332427978516,-0.1141586303710937,-0.5311519188723455,-0.8465430212361774,0.035249854957855,0.1475297317287758,3.0,0.0
4.268423080444336,14.861021995544434,-0.1389575004577636,0.0902109409637039,0.2828814117613882,-0.954903185150373,0.0730881720123817,3.0,0.0
4.122420310974121,14.57754135131836,-0.0955231189727783,-0.0,-0.0,-1.0,0.1685181590319692,1.0,0.0
3.796442985534668,14.322467803955078,-0.0986759662628173,-0.0,-0.0,-1.0,0.0657484808407489,2.0,0.0
3.5378103256225586,14.073481559753418,-0.0924680233001709,0.1790492803898061,-0.2074546117725233,-0.9617192621790438,0.1277721694359245,4.0,0.0
3.893451690673828,13.541742324829102,0.1096503734588623,-0.0691515273486022,-0.8817557428492442,-0.466609982981218,0.1858227882568319,3.0,1.0
3.7577219009399414,13.48418426513672,0.0936625003814697,-0.0,-0.0,-1.0,0.0897222755185706,1.0,1.0
3.95500373840332,13.41927719116211,0.1515355110168457,-0.0,-0.0,-1.0,0.2026458951293855,1.0,1.0
4.21455717086792,15.62265968322754,-0.1427688598632812,-0.0,-0.0,-1.0,0.199965629477845,1.0,0.0
4.697597980499268,15.517850875854492,-0.1483016014099121,-0.0,-0.0,-1.0,0.2116954724762436,1.0,0.0
4.266768455505371,15.521890640258787,-0.1181082725524902,-0.0,-0.0,-1.0,0.1865294145983888,1.0,0.0
2.8437514305114746,15.33244514465332,-0.4493250846862793,-0.0,-0.0,-1.0,0.1430654233127099,1.0,0.0
3.074669599533081,15.04613208770752,-0.3717384338378906,-0.0,-0.0,-1.0,0.0910630495128087,1.0,0.0
3.3059608936309814,14.515893936157228,-0.222208023071289,-0.0,-0.0,-1.0,0.0756917733899453,1.0,0.0
3.8059797286987305,14.281702041625977,-0.1729121208190918,-0.0,-0.0,-1.0,0.0372523437950931,1.0,0.0
3.506352186203003,14.374972343444824,-0.1880130767822265,-0.0,-0.0,-1.0,0.1454853563672576,1.0,0.0
3.3744957447052,13.235655784606934,-0.3462929725646972,-0.0,-0.0,-1.0,0.1754315958342908,1.0,0.0
3.553727388381958,14.1956787109375,-0.1365537643432617,-0.0,-0.0,-1.0,0.1503399757879811,1.0,0.0
4.091353416442871,13.983312606811523,-0.0973720550537109,-0.0,-0.0,-1.0,0.0401251880442757,1.0,0.0
3.672075033187866,13.94040584564209,-0.0654854774475097,-0.0,-0.0,-1.0,0.0723324163313277,1.0,0.0
4.224971771240234,13.783838272094728,-0.0446972846984863,-0.0,-0.0,-1.0,0.0705297971583394,1.0,0.0
3.924957513809204,13.530399322509766,0.0452637672424316,-0.0,-0.0,-1.0,0.1728185287250876,2.0,1.0
3.736243724822998,13.57296657562256,0.0411348342895507,0.6315049727036756,0.7475255972907879,0.205929480273176,0.1871965743546063,3.0,1.0
4.832568168640137,13.590862274169922,-0.0207695960998535,-0.0,-0.0,-1.0,0.1350657309804618,2.0,0.0
4.489442348480225,13.47928237915039,0.031839370727539,-0.0,-0.0,-1.0,0.1065174638800001,2.0,1.0
3.2199556827545166,13.625896453857422,-0.3752472400665283,-0.0,-0.0,-1.0,0.1127811818234081,1.0,0.0
3.455681085586548,13.458782196044922,-0.3392622470855713,-0.0,-0.0,-1.0,0.1068148089461351,1.0,0.0
3.9240026473999023,13.233031272888184,-0.3036277294158935,-0.0,-0.0,-1.0,0.1414625482194209,1.0,0.0
3.2131056785583496,15.55336856842041,-0.3684027194976806,-0.0,-0.0,-1.0,0.1308556955541885,2.0,0.0
3.1296401023864746,15.54167938232422,-0.3602864742279053,-0.0,-0.0,-1.0,0.1328173507367169,2.0,0.0
3.579725742340088,14.787211418151855,-0.1841466426849365,-0.0,-0.0,-1.0,0.0731258926175127,1.0,0.0
3.4116153717041016,14.672953605651855,-0.1425201892852783,-0.0,-0.0,-1.0,0.0733099534515283,1.0,0.0
4.179065704345703,14.415345191955566,-0.1251962184906005,-0.0,-0.0,-1.0,0.1850246746895411,2.0,0.0
3.830781936645508,14.390426635742188,-0.0938460826873779,-0.0,-0.0,-1.0,0.0781519889735607,1.0,0.0
4.760261535644531,14.093385696411133,-0.0835359096527099,-0.0,-0.0,-1.0,0.1346720267482088,2.0,0.0
4.384343147277832,14.165815353393556,-0.0733683109283447,-0.0,-0.0,-1.0,0.1471449264419221,1.0,0.0
4.8586931228637695,13.905494689941406,-0.041269302368164,-0.0,-0.0,-1.0,0.0880859138162403,1.0,0.0
4.525747299194336,13.892769813537598,-0.0109450817108154,0.2743397439382856,0.958025596532574,-0.0832145497150672,0.0352401743367523,4.0,0.0
5.20112419128418,13.669692993164062,-0.007469892501831,-0.9618480118031612,-0.2733880301366684,-0.0103627780202847,0.166030869697276,3.0,0.0
4.092092514038086,13.554025650024414,0.1131362915039062,-0.0,-0.0,-1.0,0.1383355816280633,1.0,1.0
3.865847110748291,13.635318756103516,0.1075150966644287,-0.0,-0.0,-1.0,0.2461843306604794,2.0,1.0
5.023737907409668,13.527023315429688,0.0460798740386962,-0.0,-0.0,-1.0,0.224847789297361,2.0,1.0
2.813544511795044,15.585687637329102,-0.420893907546997,-0.0,-0.0,-1.0,0.1389871246491068,1.0,0.0
3.289445400238037,15.232611656188965,-0.3653032779693603,-0.0,-0.0,-1.0,0.0816662651077555,1.0,0.0
3.188110828399658,15.326180458068848,-0.3816010951995849,-0.0,-0.0,-1.0,0.1251677367044291,1.0,0.0
3.3261921405792236,15.06091022491455,-0.3227531909942627,-0.0,-0.0,-1.0,0.1025353116476353,1.0,0.0
3.2333388328552246,13.58006477355957,-0.4534480571746826,-0.0,-0.0,-1.0,0.1236738201462853,1.0,0.0
3.7011237144470215,13.256211280822754,-0.4012148380279541,-0.0,-0.0,-1.0,0.1091650487556161,1.0,0.0
3.454944610595703,13.315872192382812,-0.3944594860076904,-0.0,-0.0,-1.0,0.1747015826445263,1.0,0.0
3.397390365600586,14.983678817749023,-0.3084242343902588,-0.0,-0.0,-1.0,0.1058183037096173,1.0,0.0
4.294463157653809,14.459595680236816,-0.2547390460968017,-0.0,-0.0,-1.0,0.229745582968214,1.0,0.0
3.9777445793151855,14.584846496582031,-0.2563521862030029,-0.0,-0.0,-1.0,0.1088879127315237,1.0,0.0
3.631899356842041,14.68605136871338,-0.2504003047943115,-0.0,-0.0,-1.0,0.0326279866769937,1.0,0.0
4.365588188171387,14.25389575958252,-0.2077867984771728,-0.0,-0.0,-1.0,0.1321122324327125,1.0,0.0
4.1735711097717285,14.379790306091309,-0.2213881015777588,-0.0,-0.0,-1.0,0.1543665520889658,1.0,0.0
3.624505043029785,13.713994026184082,0.008420705795288,0.6256682572516618,0.4139320303049391,-0.6612106367529935,0.1057747246271896,3.0,1.0
4.364726543426514,13.390464782714844,-0.0015027523040771,-0.0,-0.0,-1.0,0.0883462999070015,1.0,0.0
4.217334747314453,13.409647941589355,0.0095736980438232,-0.0,-0.0,-1.0,0.0681928464994147,1.0,1.0
4.221946716308594,13.172733306884766,0.0716998577117919,-0.0,-0.0,-1.0,0.079461210215162,1.0,1.0
5.059176445007324,15.50184154510498,-0.0295135974884033,-0.0,-0.0,-1.0,0.0937274987249904,1.0,0.0
4.8344197273254395,15.54409122467041,-0.0156738758087158,-0.0,-0.0,-1.0,0.2003175674581483,2.0,0.0
4.499308109283447,14.579124450683594,0.2381439208984375,-0.0,-0.0,-1.0,0.1415635744586062,1.0,1.0
3.4775822162628174,15.294561386108398,-0.211641788482666,-0.0,-0.0,-1.0,0.0459920980147837,2.0,0.0
3.822696685791016,14.71323585510254,-0.1117863655090332,-0.0,-0.0,-1.0,0.1367922710761982,2.0,0.0
3.688265323638916,14.804925918579102,-0.1158342361450195,-0.0,-0.0,-1.0,0.080199447659034,1.0,0.0
4.352690696716309,14.39889907836914,-0.1114187240600586,-0.0,-0.0,-1.0,0.2325030971208156,1.0,0.0
4.049322128295898,14.56394386291504,-0.1070828437805175,-0.2012570565198106,0.6382944370004188,-0.7430180407603171,0.2311186846893929,3.0,0.0
3.528965473175049,14.420084953308104,0.0048503875732421,-0.0,-0.0,-1.0,0.1656450697723452,2.0,1.0
4.696136474609375,14.011723518371582,-0.068488597869873,-0.0,-0.0,-1.0,0.0654025379744979,2.0,0.0
4.522159099578857,14.073305130004885,-0.0560173988342285,-0.0,-0.0,-1.0,0.0312230566265811,2.0,0.0
4.812687873840332,13.591967582702637,0.0170540809631347,-0.0,-0.0,-1.0,0.1845695436193185,2.0,1.0
3.983161211013794,13.505492210388184,0.1708168983459472,0.1818087807723596,0.0472709889586793,-0.9821970376848712,0.2066762700012053,4.0,1.0
3.651263475418091,13.624767303466797,0.1899924278259277,-0.0,-0.0,-1.0,0.1329111332253611,1.0,1.0
3.150372266769409,14.515375137329102,-0.2518825531005859,-0.0,-0.0,-1.0,0.1284540359893313,2.0,0.0
2.9016356468200684,14.732494354248049,-0.3221917152404785,-0.0,-0.0,-1.0,0.1411255689780624,1.0,0.0
4.840096950531006,13.266937255859377,0.1201004981994628,-0.0,-0.0,-1.0,0.138262725494872,1.0,1.0
4.214409351348877,13.603221893310549,0.0331134796142578,-0.0,-0.0,-1.0,0.1256427897716186,1.0,1.0
4.45621919631958,13.61433219909668,0.0155344009399414,-0.0,-0.0,-1.0,0.1999252501518548,1.0,1.0
4.767773628234863,13.646839141845703,-0.0145339965820312,-0.0,-0.0,-1.0,0.1262229926011862,1.0,0.0
3.618050575256348,13.734834671020508,0.015359878540039,0.6256682572516618,0.4139320303049391,-0.6612106367529935,0.1471860760652465,3.0,1.0
3.961483955383301,13.81794548034668,-0.0324859619140625,-0.0,-0.0,-1.0,0.1189484084171671,1.0,0.0
3.470905303955078,14.209022521972656,-0.1527900695800781,-0.0,-0.0,-1.0,0.1522758451864427,1.0,0.0
3.225484609603882,14.340997695922852,-0.1905488967895507,-0.0,-0.0,-1.0,0.069562916640531,1.0,0.0
3.2854526042938232,14.277870178222656,-0.1698188781738281,-0.0,-0.0,-1.0,0.1075116463466497,1.0,0.0
3.5309903621673584,13.260714530944824,-0.1294159889221191,-0.0,-0.0,-1.0,0.1634957483004333,2.0,0.0
4.6348066329956055,14.766589164733888,0.0040826797485351,-0.0,-0.0,-1.0,0.1837110315362994,1.0,1.0
4.7813401222229,14.799458503723145,-0.0064988136291503,-0.0,-0.0,-1.0,0.0808224274531028,1.0,0.0
3.843735694885254,14.53904628753662,0.0763025283813476,-0.0,-0.0,-1.0,0.0945250758746756,1.0,1.0
3.992686271667481,14.628619194030762,0.0452222824096679,-0.0,-0.0,-1.0,0.1300062528640202,1.0,1.0
4.283592224121094,14.703904151916504,0.022247314453125,-0.0,-0.0,-1.0,0.1767272395031154,1.0,1.0
3.4081897735595703,14.807141304016112,-0.0387840270996093,-0.0,-0.0,-1.0,0.1245825461965242,1.0,0.0
3.7418534755706783,14.966816902160645,-0.0910921096801757,-0.0442058860770022,-0.8485188242441293,-0.5273155075848871,0.1309342441099138,4.0,0.0
2.8997273445129395,14.946267127990724,-0.1093440055847168,-0.0,-0.0,-1.0,0.1645225006445652,1.0,0.0
3.193735837936402,14.92756175994873,-0.091928482055664,-0.0,-0.0,-1.0,0.1025151518703878,1.0,0.0
5.172308921813965,13.765059471130373,0.3922829627990722,-0.0,-0.0,-1.0,0.1333102488949789,1.0,1.0
4.091632843017578,13.455836296081545,0.4980807304382324,-0.0,-0.0,-1.0,0.1827224058365611,1.0,1.0
4.050414562225342,14.066885948181152,0.2625093460083008,-0.0,-0.0,-1.0,0.1005854782231532,1.0,1.0
4.315478324890137,14.670607566833496,0.1296319961547851,-0.0,-0.0,-1.0,0.1244025206425752,1.0,1.0
4.5869140625,14.944697380065918,0.0378828048706054,-0.0,-0.0,-1.0,0.1739344941401228,1.0,1.0
3.8789854049682617,15.29082202911377,-0.1430878639221191,-0.0,-0.0,-1.0,0.1422878465707474,2.0,0.0
3.2935266494750977,15.408024787902832,-0.2320418357849121,-0.0,-0.0,-1.0,0.1114610352398494,1.0,0.0
3.5970568656921387,15.45870876312256,-0.2292671203613281,-0.0,-0.0,-1.0,0.0662811458700115,1.0,0.0
2.7921271324157715,15.371100425720217,-0.258000373840332,-0.0,-0.0,-1.0,0.1282768280209585,1.0,0.0
3.0292930603027344,15.43024730682373,-0.261693000793457,-0.0,-0.0,-1.0,0.1611711027453105,1.0,0.0
3.3247690200805664,13.269824981689451,-0.410043716430664,-0.0,-0.0,-1.0,0.1747015826445263,1.0,0.0
4.527599334716797,14.12153434753418,0.0123419761657714,-0.0,-0.0,-1.0,0.0598007126128364,2.0,1.0
4.761554718017578,14.007545471191406,0.0372304916381835,-0.0,-0.0,-1.0,0.0736784945612083,2.0,1.0
5.093634605407715,13.95237159729004,0.0216269493103027,-0.0,-0.0,-1.0,0.2527284704265116,1.0,1.0
3.946824312210083,14.395526885986328,-0.0506086349487304,-0.0,-0.0,-1.0,0.1082036691644244,1.0,0.0
4.316486358642578,14.261794090270996,-0.0288248062133789,-0.0,-0.0,-1.0,0.1925456051442084,2.0,0.0
5.001920700073242,13.470757484436035,0.2552204132080078,-0.0,-0.0,-1.0,0.1234212566421826,1.0,1.0
3.989120960235596,13.610481262207031,-0.1108002662658691,-0.0,-0.0,-1.0,0.171434760380025,1.0,0.0
4.192448139190674,13.435816764831545,-0.082801342010498,-0.0,-0.0,-1.0,0.0751802925328796,1.0,0.0
4.462075233459473,13.363901138305664,-0.0939297676086425,-0.0,-0.0,-1.0,0.0753584861468638,1.0,0.0
0.0,0.0,0.0,0.0,0.0,0.0,0.0,0.0,0.0
0.0,0.0,0.0,0.0,0.0,0.0,0.0,0.0,0.0
0.0,0.0,0.0,0.0,0.0,0.0,0.0,0.0,0.0
0.0,0.0,0.0,0.0,0.0,0.0,0.0,0.0,0.0
0.0,0.0,0.0,0.0,0.0,0.0,0.0,0.0,0.0
0.0,0.0,0.0,0.0,0.0,0.0,0.0,0.0,0.0
0.0,0.0,0.0,0.0,0.0,0.0,0.0,0.0,0.0
0.0,0.0,0.0,0.0,0.0,0.0,0.0,0.0,0.0
0.0,0.0,0.0,0.0,0.0,0.0,0.0,0.0,0.0
0.0,0.0,0.0,0.0,0.0,0.0,0.0,0.0,0.0
0.0,0.0,0.0,0.0,0.0,0.0,0.0,0.0,0.0
0.0,0.0,0.0,0.0,0.0,0.0,0.0,0.0,0.0
0.0,0.0,0.0,0.0,0.0,0.0,0.0,0.0,0.0
0.0,0.0,0.0,0.0,0.0,0.0,0.0,0.0,0.0
0.0,0.0,0.0,0.0,0.0,0.0,0.0,0.0,0.0
0.0,0.0,0.0,0.0,0.0,0.0,0.0,0.0,0.0
0.0,0.0,0.0,0.0,0.0,0.0,0.0,0.0,0.0
0.0,0.0,0.0,0.0,0.0,0.0,0.0,0.0,0.0
0.0,0.0,0.0,0.0,0.0,0.0,0.0,0.0,0.0
0.0,0.0,0.0,0.0,0.0,0.0,0.0,0.0,0.0
0.0,0.0,0.0,0.0,0.0,0.0,0.0,0.0,0.0
0.0,0.0,0.0,0.0,0.0,0.0,0.0,0.0,0.0
0.0,0.0,0.0,0.0,0.0,0.0,0.0,0.0,0.0
0.0,0.0,0.0,0.0,0.0,0.0,0.0,0.0,0.0
0.0,0.0,0.0,0.0,0.0,0.0,0.0,0.0,0.0
0.0,0.0,0.0,0.0,0.0,0.0,0.0,0.0,0.0
0.0,0.0,0.0,0.0,0.0,0.0,0.0,0.0,0.0
0.0,0.0,0.0,0.0,0.0,0.0,0.0,0.0,0.0
0.0,0.0,0.0,0.0,0.0,0.0,0.0,0.0,0.0
0.0,0.0,0.0,0.0,0.0,0.0,0.0,0.0,0.0
0.0,0.0,0.0,0.0,0.0,0.0,0.0,0.0,0.0
0.0,0.0,0.0,0.0,0.0,0.0,0.0,0.0,0.0
0.0,0.0,0.0,0.0,0.0,0.0,0.0,0.0,0.0
0.0,0.0,0.0,0.0,0.0,0.0,0.0,0.0,0.0
0.0,0.0,0.0,0.0,0.0,0.0,0.0,0.0,0.0
0.0,0.0,0.0,0.0,0.0,0.0,0.0,0.0,0.0
