x,y,z,nx,ny,nz,curvature,density,label
36.4857292175293,12.575016975402832,-1.2025309801101685,-0.0,-0.0,-1.0,0.2566821594098231,1.0,0.0
35.69183349609375,10.668514251708984,-1.342258334159851,-0.0,-0.0,-1.0,0.0938143938444219,2.0,0.0
35.634220123291016,10.82042121887207,-1.3652714490890503,-0.0,-0.0,-1.0,0.0282881216179171,1.0,0.0
37.08128356933594,11.210999488830566,-1.0293134450912476,-0.0,-0.0,-1.0,0.2004843280077236,1.0,0.0
37.00373458862305,11.827937126159668,-1.1171473264694214,-0.0,-0.0,-1.0,0.1766968302034448,1.0,0.0
36.95793533325195,11.151859283447266,-1.0123971700668335,-0.0,-0.0,-1.0,0.257298157569224,2.0,0.0
36.77168655395508,12.043778419494627,-1.1360574960708618,-0.0,-0.0,-1.0,0.186886583876694,1.0,0.0
36.45332336425781,12.228206634521484,-1.1461933851242063,-0.0,-0.0,-1.0,0.1891496682843204,1.0,0.0
35.743309020996094,11.814416885375977,-1.041646122932434,-0.0,-0.0,-1.0,0.159952368806052,1.0,0.0
35.507808685302734,11.71957015991211,-1.0140451192855835,-0.5586742107086151,0.3046687412929388,-0.7714013769550079,0.2423405909640432,3.0,0.0
35.356231689453125,12.393707275390623,-1.1150027513504028,-0.0,-0.0,-1.0,0.2120084388083859,1.0,0.0
35.33237075805664,11.591090202331545,-0.9842249155044556,-0.0,-0.0,-1.0,0.2348692382345197,2.0,0.0
36.427268981933594,12.850785255432127,-0.6879101991653442,0.5138636752418253,-0.855765690043737,-0.0600766760975564,0.1619195293651574,6.0,0.0
36.30204772949219,12.86369514465332,-0.6855553388595581,-0.4086268401827965,0.2409850569302378,-0.8803126193680022,0.2302051830647746,4.0,0.0
36.90950012207031,11.919262886047363,-1.3806525468826294,-0.0,-0.0,-1.0,0.2339865480860297,2.0,0.0
36.80207443237305,11.992520332336426,-1.382633090019226,-0.0,-0.0,-1.0,0.2782838747111379,1.0,0.0
36.66904830932617,12.365700721740724,-1.4317721128463743,-0.0,-0.0,-1.0,0.121964526507339,1.0,0.0
36.298622131347656,12.333267211914062,-1.3945530652999878,-0.0,-0.0,-1.0,0.1698304842631481,1.0,0.0
36.03580474853515,10.847742080688477,-1.1283639669418335,0.4619995153065348,-0.673897456170754,-0.5765576002648074,0.118473143463585,3.0,0.0
35.597171783447266,11.597026824951172,-1.2120860815048218,-0.0,-0.0,-1.0,0.218748401190246,1.0,0.0
36.990577697753906,11.945589065551758,-0.8682817220687866,0.8595050721237837,-0.2330406395525842,-0.4549099815462523,0.2397080225887541,6.0,0.0
36.82106399536133,12.601007461547852,-0.9463175535202026,-0.0,-0.0,-1.0,0.1225422068860019,1.0,0.0
36.497291564941406,12.357263565063477,-0.8921719789505005,-0.0,-0.0,-1.0,0.1891148224564236,1.0,0.0
35.876670837402344,13.1222505569458,-0.9645792245864868,-0.0,-0.0,-1.0,0.1680942960530407,1.0,0.0
35.72209930419922,11.659324645996094,-0.7468370199203491,-0.0,-0.0,-1.0,0.1900155098806068,2.0,0.0
35.56721496582031,12.641594886779783,-0.8777836561203003,-0.0,-0.0,-1.0,0.1819732300824131,1.0,0.0
35.69572830200195,13.055767059326172,-0.9451004266738892,-0.0,-0.0,-1.0,0.2198006661025601,1.0,0.0
35.35302734375,11.649056434631348,-0.7232323884963989,0.2005077387767995,-0.9765786946152416,0.0780429363504828,0.2353520312825992,5.0,0.0
36.367210388183594,10.896408081054688,-1.4068799018859863,-0.0,-0.0,-1.0,0.1767442620946833,1.0,0.0
35.84174346923828,11.13996696472168,-1.3863396644592283,-0.0,-0.0,-1.0,0.0440435546092914,1.0,0.0
36.96360397338867,11.882722854614258,-1.1441361904144287,-0.0,-0.0,-1.0,0.2075269334639226,1.0,0.0
36.85222244262695,11.978239059448242,-1.1483488082885742,-0.0,-0.0,-1.0,0.1909461026916424,1.0,0.0
36.42930603027344,11.845399856567385,-1.0894393920898438,-0.723541617656867,0.6698606981765493,0.1666558506531047,0.1352163979547962,4.0,0.0
36.55278778076172,12.126964569091797,-1.1445050239562988,-0.0,-0.0,-1.0,0.1600538605504383,1.0,0.0
36.530311584472656,12.408035278320312,-1.1865596771240234,-0.0,-0.0,-1.0,0.207867775476902,1.0,0.0
36.25546646118164,10.770618438720703,-0.910506010055542,-0.0,-0.0,-1.0,0.0849273325928419,1.0,0.0
35.69926071166992,12.03818130493164,-1.056692123413086,-0.0,-0.0,-1.0,0.2244085456131248,2.0,0.0
35.816837310791016,12.572853088378906,-1.1535601615905762,-0.0,-0.0,-1.0,0.2301294805446974,2.0,0.0
35.818695068359375,12.645374298095703,-1.1656591892242432,-0.0,-0.0,-1.0,0.1926526710618858,1.0,0.0
35.5381965637207,11.548379898071287,-0.9644362926483154,-0.0,-0.0,-1.0,0.2545109894184543,2.0,0.0
35.31224060058594,11.859272003173828,-0.995720148086548,-0.8543337346382134,-0.2979423571150142,-0.4258453025405731,0.1464802194638223,3.0,0.0
35.23622131347656,12.332021713256836,-1.0678930282592771,-0.0,-0.0,-1.0,0.1497085413657576,1.0,0.0
36.6124153137207,12.695606231689451,-0.7268846035003662,-0.0,-0.0,-1.0,0.1259839595483297,1.0,0.0
36.41326904296875,12.848630905151367,-0.7356984615325928,0.5027114582611444,-0.8615281134807916,-0.0710668658038487,0.1783412997716914,6.0,0.0
36.18131256103515,12.927167892456056,-0.7330183982849121,-0.0,-0.0,-1.0,0.2659661691676358,1.0,0.0
35.628211975097656,12.817083358764648,-0.6871211528778076,-0.2775129110004752,0.9527396588104368,0.1235869198492106,0.16250677366159,3.0,0.0
35.49945831298828,11.663599014282228,-0.5212944746017456,0.7058670972196982,0.3441252153942332,-0.6191360732444119,0.1550804167684999,4.0,0.0
36.383026123046875,10.705028533935549,-1.4013824462890625,-0.0,-0.0,-1.0,0.1664936796740918,1.0,0.0
37.63277053833008,12.147701263427734,-1.2978498935699463,-0.0,-0.0,-1.0,0.1678445694985891,2.0,0.0
36.949344635009766,11.74627685546875,-1.1606009006500244,-0.0,-0.0,-1.0,0.1427935538850178,1.0,0.0
36.91937255859375,11.963878631591797,-1.186626672744751,-0.0,-0.0,-1.0,0.1939706067034894,1.0,0.0
36.40890121459961,11.850130081176758,-1.1102874279022217,-0.786816986605092,0.1968346310063608,0.5849573981293614,0.1576109243263412,4.0,0.0
36.213829040527344,12.972047805786133,-1.251171588897705,-0.0,-0.0,-1.0,0.2142821351260048,1.0,0.0
36.36265563964844,10.96641445159912,-0.9846692085266112,-0.0,-0.0,-1.0,0.2103817853411292,2.0,0.0
35.98046112060547,12.706987380981444,-1.186136245727539,-0.0,-0.0,-1.0,0.2443003895948764,1.0,0.0
35.58091735839844,11.980094909667969,-1.0341928005218506,-0.0,-0.0,-1.0,0.2262986995350491,2.0,0.0
35.601444244384766,12.268487930297852,-1.0791780948638916,-0.0,-0.0,-1.0,0.2604005680830282,1.0,0.0
35.3125114440918,12.99311065673828,-1.1598246097564695,-0.0,-0.0,-1.0,0.0960387244935833,1.0,0.0
35.21473693847656,11.007502555847168,-1.2739994525909424,-0.0,-0.0,-1.0,0.0407650016912536,1.0,0.0
36.5972785949707,12.598861694335938,-0.7472021579742432,-0.0,-0.0,-1.0,0.1339504368605797,1.0,0.0
36.541786193847656,12.83510398864746,-0.7711918354034424,-0.0,-0.0,-1.0,0.1350123971194503,2.0,0.0
36.3663215637207,12.82097053527832,-0.7546992301940918,0.1375947572260068,-0.908480581083439,0.3946273135227887,0.1304712651375063,5.0,0.0
35.623435974121094,11.531869888305664,-0.9739720821380616,-0.0,-0.0,-1.0,0.1876985820139523,1.0,0.0
35.396888732910156,11.616436004638672,-0.9603590965270996,-0.0,-0.0,-1.0,0.2561835165896821,1.0,0.0
35.312252044677734,11.799503326416016,-0.977947235107422,0.8719655361720661,0.0431847703803339,-0.4876588759936184,0.1307473638802564,4.0,0.0
35.480499267578125,11.704141616821287,-0.5423789024353027,0.9518371499613536,0.0023841345437547,-0.3065947746715934,0.1841825279897503,5.0,0.0
37.62551498413086,12.058910369873049,-1.427954912185669,-0.0,-0.0,-1.0,0.1069289093258536,2.0,0.0
37.69157791137695,12.257762908935549,-1.455019235610962,-0.0,-0.0,-1.0,0.0950711184133437,1.0,0.0
37.4277229309082,11.066665649414062,-1.3230962753295898,-0.0,-0.0,-1.0,0.1121720574255703,1.0,0.0
37.05656433105469,12.72557258605957,-1.3804686069488523,-0.0,-0.0,-1.0,0.1418901373355726,1.0,0.0
36.929710388183594,11.911840438842772,-1.2898356914520264,-0.0,-0.0,-1.0,0.2203204725513882,1.0,0.0
36.76800537109375,12.1068754196167,-1.2766435146331787,-0.0,-0.0,-1.0,0.1606420549058452,1.0,0.0
36.464847564697266,11.93728733062744,-1.208582639694214,-0.0,-0.0,-1.0,0.2512927882613576,1.0,0.0
36.24811935424805,12.40058135986328,-1.2115554809570312,-0.0,-0.0,-1.0,0.2099109538345445,1.0,0.0
36.17546844482422,11.552545547485352,-1.1252543926239014,-0.0,-0.0,-1.0,0.1494022189648529,1.0,0.0
35.93722915649414,12.616525650024414,-1.1796448230743408,-0.0,-0.0,-1.0,0.2198590494929626,1.0,0.0
35.74231719970703,12.442692756652832,-1.1302731037139893,-0.0,-0.0,-1.0,0.2073531514377484,2.0,0.0
36.946083068847656,11.950910568237305,-0.8234708309173584,0.1496287750486843,0.8107080340228262,-0.5660068137825502,0.2243794338961801,6.0,0.0
36.87165832519531,12.091474533081056,-0.8208653926849365,0.8606492411507974,0.0147682474550541,-0.5089840690764916,0.2362574694552104,6.0,0.0
36.50386428833008,12.663171768188477,-0.805464506149292,-0.0,-0.0,-1.0,0.222410905232141,2.0,0.0
36.309043884277344,12.835054397583008,-0.7907149791717529,-0.968756750774168,-0.2383453813161591,-0.0685699426478623,0.2064197305384593,6.0,0.0
36.31254577636719,10.90302276611328,-1.1013915538787842,-0.0,-0.0,-1.0,0.0715539875251113,2.0,0.0
35.81390380859375,12.39763641357422,-0.6892772912979126,-0.0,-0.0,-1.0,0.1349494544843707,1.0,0.0
35.603050231933594,11.598955154418944,-1.0278773307800293,-0.0,-0.0,-1.0,0.1957355206048363,1.0,0.0
35.51546096801758,11.993946075439451,-1.0487995147705078,-0.0,-0.0,-1.0,0.1836587549330651,2.0,0.0
35.71748733520508,12.567337989807127,-0.6886184215545654,-0.0,-0.0,-1.0,0.2150988680765462,1.0,0.0
35.61007308959961,12.812620162963867,-0.6934447288513184,0.3465219886851423,0.6313323986405855,-0.6937880899701429,0.145836378802355,4.0,0.0
35.42071533203125,11.665401458740234,-1.0022003650665283,0.1933445482666685,-0.9733203790716134,-0.1235529252565418,0.2759405471800111,3.0,0.0
35.30253601074219,11.898807525634766,-1.0039117336273191,-0.0,-0.0,-1.0,0.1294489076259664,2.0,0.0
35.62716293334961,11.63007640838623,-0.608191728591919,-0.0,-0.0,-1.0,0.1295534578208561,2.0,0.0
35.54835510253906,12.051054000854492,-0.6263521909713745,-0.1826518251443155,-0.7859642380297686,-0.5906763304126343,0.1790813408458696,3.0,0.0
35.43971252441406,11.625850677490234,-0.5808223485946655,-0.4713407107803404,-0.8767884769809212,-0.0952885144944568,0.1820048104759283,5.0,0.0
35.38616180419922,11.87226104736328,-0.5906682014465332,-0.0,-0.0,-1.0,0.1960658185161445,2.0,0.0
37.64103698730469,12.04936408996582,-1.337945818901062,-0.0,-0.0,-1.0,0.136156749827252,2.0,0.0
37.59125900268555,11.96911334991455,-1.3195351362228394,-0.0,-0.0,-1.0,0.1258905232284861,1.0,0.0
36.950897216796875,11.928733825683594,-1.2220128774642944,-0.0,-0.0,-1.0,0.242594939262996,1.0,0.0
37.04324722290039,12.77411651611328,-1.3605166673660278,-0.0,-0.0,-1.0,0.130020060218054,2.0,0.0
36.9041633605957,11.24526596069336,-1.11601984500885,-0.0,-0.0,-1.0,0.147559073038136,2.0,0.0
36.62232971191406,11.890974044799805,-1.1699200868606567,-0.0,-0.0,-1.0,0.0967244211796091,1.0,0.0
36.7577018737793,12.123041152954102,-1.2229572534561155,-0.0,-0.0,-1.0,0.1823194407393904,1.0,0.0
36.423641204833984,12.74765682220459,-1.2728997468948364,-0.0,-0.0,-1.0,0.2423949369959089,1.0,0.0
36.40207290649414,12.95004653930664,-1.302282452583313,-0.0,-0.0,-1.0,0.1429759127500934,2.0,0.0
36.55406188964844,10.67753791809082,-1.4266725778579712,-0.0,-0.0,-1.0,0.1499896275265497,1.0,0.0
36.39972686767578,11.85788631439209,-1.133724331855774,-0.9137967344703172,0.1048527519332162,0.3924046743903749,0.1758497593383093,3.0,0.0
36.1571044921875,11.03646469116211,-1.4130104780197144,-0.0,-0.0,-1.0,0.0598164690887184,1.0,0.0
35.78820037841797,12.57478141784668,-1.161228060722351,-0.0,-0.0,-1.0,0.2061423127972314,2.0,0.0
35.8133544921875,10.857254028320312,-1.324076771736145,-0.5178191100052577,-0.2607779312173254,-0.8147749627371811,0.1282743637415596,3.0,0.0
36.733497619628906,12.604917526245115,-0.82026207447052,-0.0,-0.0,-1.0,0.1339636212512862,1.0,0.0
36.307952880859375,13.020795822143556,-0.8332799673080444,-0.0,-0.0,-1.0,0.2064882209340507,1.0,0.0
36.41557693481445,10.904186248779297,-0.99846613407135,-0.0657815154955384,-0.9594445935348244,-0.2741146916090162,0.1389801674365366,3.0,0.0
36.20046615600586,12.679025650024414,-0.7745991945266724,-0.0,-0.0,-1.0,0.2852293476162194,2.0,0.0
36.03026580810547,12.932682037353516,-0.792876124382019,-0.0,-0.0,-1.0,0.1217264253296546,1.0,0.0
36.196250915527344,10.646842002868652,-0.932019591331482,-0.8210956076502361,-0.4823028353007207,0.3052637845509606,0.1167053212888947,4.0,0.0
35.70391845703125,11.87529468536377,-1.039927363395691,-0.0,-0.0,-1.0,0.1995941367411016,1.0,0.0
35.66047668457031,12.122220993041992,-1.072327971458435,-0.0,-0.0,-1.0,0.2275891996325972,2.0,0.0
35.699527740478516,12.312030792236328,-1.1074901819229126,-0.0,-0.0,-1.0,0.2195581500881873,2.0,0.0
35.474586486816406,11.637115478515623,-0.9723416566848756,0.0981216835659525,-0.061036220562185,-0.993300918651376,0.2440902162945943,3.0,0.0
35.336456298828125,12.022079467773438,-1.0133081674575806,-0.0,-0.0,-1.0,0.2236396956647508,1.0,0.0
35.21010971069336,12.270264625549316,-1.0363863706588743,-0.0,-0.0,-1.0,0.197275866122729,2.0,0.0
35.66742706298828,11.546080589294434,-0.5662304162979126,-0.0,-0.0,-1.0,0.1814189643424789,2.0,0.0
35.597293853759766,12.002586364746094,-0.6191987991333008,-0.0,-0.0,-1.0,0.1730704984782467,1.0,0.0
35.67970275878906,12.596033096313477,-0.7097996473312378,-0.0,-0.0,-1.0,0.2056779132792512,1.0,0.0
35.600059509277344,12.782007217407228,-0.7283099889755249,-0.0,-0.0,-1.0,0.1658238570786898,2.0,0.0
35.46144104003906,11.628955841064451,-0.5548259019851685,-0.4350921852545819,-0.4160367195891973,-0.7985037496993064,0.1636675702292282,8.0,0.0
35.28069305419922,11.889992713928224,-0.5707350969314575,-0.0,-0.0,-1.0,0.1804597001890218,1.0,0.0
37.60853576660156,11.650623321533203,-1.5769604444503784,-0.0,-0.0,-1.0,0.0990022627351313,1.0,0.0
37.29269027709961,11.054819107055664,-1.4431744813919067,-0.0,-0.0,-1.0,0.236306195772752,2.0,0.0
36.89208984375,11.5067138671875,-1.428932785987854,-0.0,-0.0,-1.0,0.1210793533010961,2.0,0.0
36.51212692260742,11.88383674621582,-1.4129408597946167,-0.0,-0.0,-1.0,0.1418424511353803,2.0,0.0
37.65223693847656,11.959835052490234,-1.1365965604782104,-0.0,-0.0,-1.0,0.1634952555645014,1.0,0.0
37.20467376708984,11.910932540893556,-1.0655497312545776,-0.0,-0.0,-1.0,0.1257464935468645,1.0,0.0
36.95857238769531,11.749576568603516,-1.010292887687683,-0.0,-0.0,-1.0,0.2151111542088422,2.0,0.0
36.88990783691406,11.914271354675291,-1.0203667879104614,-0.0,-0.0,-1.0,0.1848988178420081,2.0,0.0
36.14927291870117,11.365423202514648,-1.276943564414978,-0.0,-0.0,-1.0,0.1377828833580206,2.0,0.0
35.96734619140625,12.301114082336426,-1.3784934282302856,-0.0,-0.0,-1.0,0.1559634186467907,1.0,0.0
35.528663635253906,11.584230422973633,-1.197679877281189,-0.0,-0.0,-1.0,0.2623816047250852,1.0,0.0
35.6585807800293,11.88930320739746,-1.2645031213760376,-0.0,-0.0,-1.0,0.1746235113781541,2.0,0.0
35.70537567138672,12.190595626831056,-1.317029595375061,-0.0,-0.0,-1.0,0.2118956803477556,1.0,0.0
35.4588623046875,11.572092056274414,-1.1837764978408811,-0.0,-0.0,-1.0,0.2298401564976925,1.0,0.0
35.33824157714844,12.228888511657717,-1.2601245641708374,-0.0,-0.0,-1.0,0.1582025646213513,1.0,0.0
35.342567443847656,13.047551155090332,-1.3899809122085571,-0.0,-0.0,-1.0,0.1830726445233939,1.0,0.0
36.90874481201172,11.159883499145508,-0.9337393045425416,-0.0,-0.0,-1.0,0.2093033058357245,2.0,0.0
36.42107772827149,10.808223724365234,-0.8214703798294067,-0.0,-0.0,-1.0,0.0774311818066822,1.0,0.0
36.027931213378906,12.475927352905272,-0.9695042371749878,-0.0,-0.0,-1.0,0.1993228023330932,1.0,0.0
36.097862243652344,12.69566249847412,-1.008604645729065,-0.0,-0.0,-1.0,0.2246627257588166,1.0,0.0
35.85224533081055,12.9404296875,-1.0081640481948853,-0.9796536152186108,-0.1965877538388213,-0.0403986290573448,0.1625373521665874,3.0,0.0
35.526100158691406,11.44742202758789,-0.7661772966384888,-0.0,-0.0,-1.0,0.1654481697389555,1.0,0.0
35.715415954589844,12.34536361694336,-0.9087830781936646,-0.0,-0.0,-1.0,0.127269733479753,1.0,0.0
35.671119689941406,12.59902572631836,-0.9366394281387328,-0.0,-0.0,-1.0,0.2006894435528564,1.0,0.0
35.305049896240234,11.533676147460938,-0.7454391717910767,0.8705443391083579,0.0559155544749889,-0.4889028578502553,0.1731918606764726,7.0,0.0
35.240264892578125,12.31365203857422,-0.8389438390731812,-0.0,-0.0,-1.0,0.1690970863498861,1.0,0.0
37.65578842163086,11.912450790405272,-1.4905771017074585,-0.0,-0.0,-1.0,0.1208549578017923,1.0,0.0
37.38701629638672,11.487383842468262,-1.3873649835586548,-0.0,-0.0,-1.0,0.0976027434326688,1.0,0.0
36.97391128540039,11.219700813293455,-1.280669331550598,-0.0,-0.0,-1.0,0.1150120861657946,2.0,0.0
36.96965789794922,11.90623664855957,-1.372083306312561,-0.0,-0.0,-1.0,0.2049668414896224,1.0,0.0
36.94567108154297,10.900245666503906,-1.235148549079895,-0.0,-0.0,-1.0,0.1638265201219685,2.0,0.0
37.03231430053711,11.81845474243164,-0.9132910966873168,-0.404650359473398,-0.8853846194573981,-0.2288059488001311,0.2545248791221909,4.0,0.0
36.349910736083984,10.859607696533203,-1.1256510019302368,0.2033056614058104,-0.979007963879548,-0.0144987827340028,0.1008553872652224,5.0,0.0
36.380638122558594,12.044771194458008,-1.2915605306625366,-0.0,-0.0,-1.0,0.113447860089972,1.0,0.0
36.3835334777832,12.530366897583008,-1.3636151552200315,-0.0,-0.0,-1.0,0.2034215683823425,1.0,0.0
36.09183120727539,10.798063278198242,-1.0727468729019165,-0.0,-0.0,-1.0,0.1050940641109524,2.0,0.0
36.13944625854492,11.558414459228516,-1.1818689107894895,-0.0,-0.0,-1.0,0.1494022189648528,1.0,0.0
35.853981018066406,12.297557830810549,-1.2406071424484253,-0.0,-0.0,-1.0,0.1671471563982251,2.0,0.0
35.51858139038086,11.61056423187256,-1.0834907293319702,-0.0,-0.0,-1.0,0.2778351376840402,2.0,0.0
35.60585403442383,11.980829238891602,-1.1519287824630735,-0.7725083403790628,-0.5276598111915662,-0.3532789092177267,0.1515982256729673,4.0,0.0
35.704429626464844,12.880818367004396,-1.3064740896224976,-0.0,-0.0,-1.0,0.2811893056935751,1.0,0.0
35.41016387939453,11.56890106201172,-1.0592001676559448,0.681521042727231,0.1577354223000096,-0.7145968128055324,0.2558275168599384,6.0,0.0
35.312095642089844,12.728527069091797,-1.218624472618103,-0.0,-0.0,-1.0,0.194636212857218,1.0,0.0
37.031524658203125,11.310945510864258,-0.8514822721481323,-0.0,-0.0,-1.0,0.2050755697592444,2.0,0.0
36.905704498291016,11.819635391235352,-0.8960288763046265,-0.0,-0.0,-1.0,0.1600199661314427,1.0,0.0
36.90748977661133,11.88754653930664,-0.9047902822494508,0.4459416076804962,-0.2432728960713226,-0.8613677382955586,0.2546201376241091,3.0,0.0
36.20692443847656,12.59404754638672,-0.9029282331466676,-0.0,-0.0,-1.0,0.2018894064674395,1.0,0.0
36.42694091796875,12.648683547973633,-0.9395924806594848,-0.0,-0.0,-1.0,0.2619852524570136,1.0,0.0
36.01997375488281,12.354951858520508,-0.8455723524093628,-0.0,-0.0,-1.0,0.2051904977225035,1.0,0.0
35.805885314941406,12.638542175292969,-0.8561071157455444,-0.0,-0.0,-1.0,0.2468446442243831,2.0,0.0
36.1220817565918,13.02297592163086,-0.951508402824402,-0.0,-0.0,-1.0,0.1595374623225539,2.0,0.0
35.467140197753906,11.625465393066406,-0.6747623682022095,-0.974897910979256,-0.0310078674338362,0.2204825964231384,0.2028363196743978,3.0,0.0
35.513885498046875,11.941648483276367,-0.7224681377410889,-0.0,-0.0,-1.0,0.1779110460648962,2.0,0.0
35.62454605102539,12.432857513427734,-0.8037186861038208,-0.0,-0.0,-1.0,0.2290969003384753,1.0,0.0
35.6934700012207,12.744227409362791,-0.8562694787979126,-0.0,-0.0,-1.0,0.144379718836392,2.0,0.0
35.37420654296875,11.620479583740234,-0.6616096496582031,0.3750853928384983,-0.4432269922015474,-0.8141626259311826,0.2684059618230056,4.0,0.0
37.47673797607422,10.87728500366211,-1.2804749011993408,-0.0,-0.0,-1.0,0.0844546880355187,1.0,0.0
37.60982894897461,11.912582397460938,-1.4015557765960691,-0.0,-0.0,-1.0,0.1395229369853992,1.0,0.0
35.921958923339844,10.759529113769531,-1.3830788135528564,-0.5240627871645952,0.1431771369936249,-0.8395585164546809,0.1954826759078004,3.0,0.0
35.48261260986328,11.080784797668455,-1.3163182735443115,-0.0,-0.0,-1.0,0.0334034435219106,2.0,0.0
35.238460540771484,12.826822280883787,-1.475949764251709,0.636620305977725,-0.7711639656552887,0.0045523720889713,0.1390632222614701,3.0,0.0
37.492774963378906,12.463504791259766,-0.964712381362915,-0.0,-0.0,-1.0,0.1774269675683234,1.0,0.0
36.93911361694336,11.217229843139648,-1.2088923454284668,-0.0,-0.0,-1.0,0.1191225097064162,2.0,0.0
36.19881439208984,10.815829277038574,-1.0328543186187744,-0.0,-0.0,-1.0,0.179007505702748,1.0,0.0
36.30230712890625,12.452817916870115,-1.2173850536346436,-0.0,-0.0,-1.0,0.2000105835269508,1.0,0.0
36.09068298339844,10.796428680419922,-1.010685682296753,0.7268585245444698,-0.6560333872706343,-0.2032163381307075,0.1634468924878909,3.0,0.0
35.449581146240234,11.436639785766602,-0.9507529735565186,-0.0,-0.0,-1.0,0.2065863051147207,1.0,0.0
35.46737289428711,11.59707260131836,-0.9705936908721924,-0.8439621079196633,0.0542142921829421,-0.5336560417711955,0.2498827762782759,4.0,0.0
35.61383056640625,12.037007331848145,-1.0447430610656738,-0.3777407463608565,0.2737629311080545,-0.8845144352071762,0.2296352434762966,3.0,0.0
35.479591369628906,12.75210189819336,-1.1034996509552002,-0.0,-0.0,-1.0,0.2123508862672808,1.0,0.0
35.333335876464844,11.705694198608398,-0.9571504592895508,-0.0,-0.0,-1.0,0.1953915492616938,2.0,0.0
35.30571365356445,12.09909725189209,-0.9954824447631836,-0.0,-0.0,-1.0,0.1242117504136673,1.0,0.0
37.04079818725586,11.807114601135254,-0.8348784446716309,-0.7403456766546077,-0.391946522315382,-0.546137530942261,0.2251581395504069,6.0,0.0
36.871681213378906,12.142257690429688,-0.8405375480651855,-0.239616034900518,0.2504300415283707,-0.9380132995425235,0.2634580398080852,3.0,0.0
36.786476135253906,12.56324577331543,-0.8691046237945557,-0.0,-0.0,-1.0,0.1382821836714933,1.0,0.0
36.24004364013672,12.578814506530762,-0.7895541191101074,-0.0,-0.0,-1.0,0.2469547840618943,2.0,0.0
36.27254486083984,12.92114543914795,-0.830329179763794,0.1545277188703753,0.6425734356116375,-0.7504802222223949,0.1822857031536993,4.0,0.0
35.94267272949219,12.241706848144531,-0.7111642360687256,-0.0,-0.0,-1.0,0.189993322246961,1.0,0.0
35.963741302490234,12.394009590148926,-0.7297558784484863,-0.0,-0.0,-1.0,0.1404067407790391,2.0,0.0
36.069541931152344,12.73794174194336,-0.7809958457946777,-0.0,-0.0,-1.0,0.2430096163825445,2.0,0.0
35.526084899902344,11.606120109558104,-0.5871871709823608,-0.0577365122328271,-0.3347741509277988,-0.9405279171963796,0.1772947974445856,8.0,0.0
35.4556884765625,11.962408065795898,-0.6107621192932129,-0.0,-0.0,-1.0,0.1448965896150693,1.0,0.0
35.73732376098633,12.511960983276367,-0.7083407640457153,-0.0,-0.0,-1.0,0.2013205653875477,1.0,0.0
35.38348388671875,11.549483299255373,-0.560319185256958,-0.1333413651562909,0.0222503764128283,-0.9908203677194692,0.1375934941129639,4.0,0.0
35.37268829345703,11.898577690124512,-0.5920777320861816,0.8333563510200128,0.4066050889336762,-0.3744188748819247,0.1691629663556956,3.0,0.0
37.53755187988281,11.431455612182615,-1.5417207479476929,-0.0,-0.0,-1.0,0.1134831666538773,1.0,0.0
37.506797790527344,11.67147159576416,-1.5543485879898071,-0.0,-0.0,-1.0,0.0851081041324972,2.0,0.0
36.98320388793945,11.176207542419434,-1.4031745195388794,-0.0,-0.0,-1.0,0.2145497909907325,1.0,0.0
36.92171859741211,11.4961519241333,-1.4147363901138306,-0.0,-0.0,-1.0,0.1423477993096205,2.0,0.0
36.86957931518555,11.448854446411133,-1.3997634649276731,-0.0,-0.0,-1.0,0.1899837519884795,1.0,0.0
36.5896110534668,12.364063262939451,-1.421552300453186,-0.0,-0.0,-1.0,0.1346833242069264,1.0,0.0
36.150848388671875,10.839637756347656,-1.199642539024353,-0.3241193014174365,-0.3492614927218069,-0.8791831937374646,0.0907007876190184,3.0,0.0
36.11526870727539,11.424506187438965,-1.236132264137268,-0.0,-0.0,-1.0,0.2084984528495642,2.0,0.0
36.30669021606445,13.054268836975098,-1.434801459312439,-0.0,-0.0,-1.0,0.1601307311428723,2.0,0.0
35.7669677734375,12.164138793945312,-1.2282451391220093,-0.0,-0.0,-1.0,0.253947236369697,2.0,0.0
35.44402313232422,11.45614528656006,-1.0951026678085327,-0.0,-0.0,-1.0,0.1988542492263115,1.0,0.0
35.456111907958984,11.642499923706056,-1.1138039827346802,-0.0,-0.0,-1.0,0.2559330554207413,2.0,0.0
35.53351974487305,12.068070411682127,-1.1696935892105105,-0.0,-0.0,-1.0,0.2461470386499694,1.0,0.0
35.489524841308594,12.821052551269531,-1.2389808893203735,-0.0,-0.0,-1.0,0.2449790609788075,1.0,0.0
35.22827911376953,12.234254837036133,-1.121611475944519,-0.8184900165197473,0.1748777728694497,-0.547258492317593,0.1452532530813368,3.0,0.0
35.220218658447266,12.648748397827148,-1.1638208627700806,-0.0,-0.0,-1.0,0.1253645148192596,1.0,0.0
36.88202667236328,11.215227127075195,-0.9489611387252808,-0.5510179211853994,-0.3525110226800351,-0.7563829912297052,0.2537173586275059,6.0,0.0
36.39485931396485,10.640132904052734,-0.8235365152359009,-0.3093195897984362,0.6205679056528618,-0.7205670446534093,0.1218113876584815,4.0,0.0
36.824493408203125,11.20842742919922,-0.9381741285324096,-0.0,-0.0,-1.0,0.231459622702084,2.0,0.0
36.15339660644531,12.368484497070312,-0.912749171257019,-0.8112888256828422,0.260445402797418,-0.5234296834187426,0.2228785321619482,3.0,0.0
35.88066101074219,12.1552095413208,-0.845711350440979,-0.0,-0.0,-1.0,0.2079905898202541,2.0,0.0
35.9855842590332,12.417473793029783,-0.8879166841506958,-0.0,-0.0,-1.0,0.2369845762501463,2.0,0.0
35.83412551879883,12.77698040008545,-0.8959075212478638,-0.990738711860062,-0.0751854266483456,-0.1130661595773542,0.1497472186517775,3.0,0.0
35.281593322753906,11.411473274230955,-0.6777979135513306,-0.0,-0.0,-1.0,0.1745464471811181,2.0,0.0
35.36553955078125,11.776022911071776,-0.7221106290817261,0.5023446533715823,0.2666467984855403,-0.822526190516993,0.2438050681916911,4.0,0.0
35.62201690673828,12.578280448913574,-0.8396285772323608,0.4360096261562001,0.3030822854292881,-0.8473704822319988,0.2861751242972263,5.0,0.0
35.70109558105469,12.698705673217772,-0.8651028871536255,-0.0,-0.0,-1.0,0.2325254333908446,2.0,0.0
35.23973083496094,11.495407104492188,-0.6769022941589355,0.7456233592493933,-0.1211930950350842,-0.6552541795803117,0.151930794301355,5.0,0.0
35.23181915283203,11.640609741210938,-0.6873418092727661,0.617787523065145,-0.55047673339321,0.5615282204286564,0.1090419939503855,3.0,0.0
37.63805389404297,10.639113426208496,-1.4916346073150637,-0.0,-0.0,-1.0,0.1961669119618357,1.0,0.0
37.34766387939453,11.001562118530272,-1.443980693817139,-0.0,-0.0,-1.0,0.1827727002601242,1.0,0.0
37.28428649902344,11.357951164245604,-1.4485418796539309,-0.0,-0.0,-1.0,0.1295878624198075,1.0,0.0
36.983184814453125,11.223615646362305,-1.3753201961517334,-0.0,-0.0,-1.0,0.1345794162642297,1.0,0.0
36.28158950805664,10.883241653442385,-1.2049052715301514,-0.1127014671492547,-0.2455747521614464,-0.962803936636764,0.1197469701527104,4.0,0.0
36.1603889465332,11.394965171813965,-1.2046232223510742,-0.0,-0.0,-1.0,0.1614250356676974,1.0,0.0
35.79932403564453,11.454424858093262,-1.1290924549102783,-0.0,-0.0,-1.0,0.1682346662158741,1.0,0.0
35.84147644042969,12.16331958770752,-1.1866531372070312,-0.0,-0.0,-1.0,0.2160529838929915,2.0,0.0
35.62275695800781,12.065028190612791,-1.1316018104553225,-0.0,-0.0,-1.0,0.1941033388101552,2.0,0.0
35.55546569824219,12.60307502746582,-1.161102056503296,-0.0,-0.0,-1.0,0.1924773696387982,2.0,0.0
36.95262908935547,11.218084335327148,-0.9372899532318116,-0.0,-0.0,-1.0,0.1825478927916585,2.0,0.0
36.81519317626953,11.96318817138672,-0.9558677673339844,0.1209112128847358,0.7454002242448728,-0.6555600539191166,0.2289835285992665,5.0,0.0
36.905059814453125,12.05317211151123,-0.9782145023345948,-0.0,-0.0,-1.0,0.2089746381504978,2.0,0.0
36.78456115722656,12.571892738342283,-0.9941143989562988,-0.0,-0.0,-1.0,0.1192224643203274,2.0,0.0
36.275577545166016,12.383389472961426,-0.8876898288726807,-0.0,-0.0,-1.0,0.1938508700348335,2.0,0.0
36.350341796875,12.562685012817385,-0.9152863025665284,-0.0,-0.0,-1.0,0.2558512508432194,1.0,0.0
36.299659729003906,12.857401847839355,-0.930065393447876,0.0045217137326259,-0.3624735156944421,-0.9319831031327934,0.2501341571163044,3.0,0.0
35.966400146484375,12.192893981933594,-0.8176920413970947,-0.2781468332152422,0.0319482810953853,-0.9600071075296176,0.2502798775351744,5.0,0.0
35.85438919067383,12.630942344665527,-0.8311774730682373,-0.0,-0.0,-1.0,0.2041735442357059,1.0,0.0
36.05272674560547,13.06080436706543,-0.903784990310669,-0.0,-0.0,-1.0,0.2233312062275196,2.0,0.0
35.413124084472656,11.533294677734377,-1.049492120742798,0.5420168834613429,0.0390029998043554,-0.839462008699092,0.236271084323812,5.0,0.0
35.46559143066406,11.862735748291016,-1.0828416347503662,-0.0,-0.0,-1.0,0.2824678300780879,1.0,0.0
35.467037200927734,12.20964241027832,-1.1089146137237549,-0.0,-0.0,-1.0,0.198696265927922,1.0,0.0
35.70027160644531,12.49627685546875,-0.7925570011138916,-0.0,-0.0,-1.0,0.2543530487015458,2.0,0.0
35.74182891845703,13.008601188659668,-0.8436291217803955,-0.0,-0.0,-1.0,0.2055966047298248,1.0,0.0
35.30870819091797,11.836308479309082,-1.0465965270996094,-0.1985734382444509,0.0160513469705544,-0.9799545621528624,0.1611289733341,4.0,0.0
35.399810791015625,11.536450386047363,-0.6714248657226562,-0.0,-0.0,-1.0,0.1293877030994957,1.0,0.0
35.43634033203125,11.755319595336914,-0.6915113925933838,-0.0,-0.0,-1.0,0.19927470359634,2.0,0.0
35.37255096435547,12.66310977935791,-0.7472225427627563,-0.0,-0.0,-1.0,0.120245604282591,1.0,0.0
35.22221374511719,11.847396850585938,-0.6586370468139648,-0.0,-0.0,-1.0,0.1303631412916898,2.0,0.0
36.91823959350586,11.19579792022705,-1.0462138652801514,-0.0,-0.0,-1.0,0.1951605822664363,2.0,0.0
36.29106140136719,10.71564769744873,-0.9219906330108644,-0.8454390357038007,0.4820429600223612,-0.2299291664863504,0.1334535009697385,4.0,0.0
36.149314880371094,12.498109817504885,-0.92928147315979,-0.0,-0.0,-1.0,0.2151455229775418,2.0,0.0
36.17905807495117,12.784185409545898,-0.9477660655975342,-0.0,-0.0,-1.0,0.2056341802807274,1.0,0.0
35.88174819946289,12.102460861206056,-0.8625097274780273,-0.0,-0.0,-1.0,0.1658897763505883,1.0,0.0
35.87659454345703,12.327634811401367,-0.8692450523376465,-0.9308042845345704,-0.3487290924667488,0.109505269094249,0.2545595349656199,5.0,0.0
35.73828887939453,12.920629501342772,-0.8685781955718994,-0.0,-0.0,-1.0,0.1752998211984547,1.0,0.0
35.6811408996582,12.517480850219728,-0.8384451866149902,-0.0,-0.0,-1.0,0.2509150308368744,2.0,0.0
35.627296447753906,13.129168510437012,-0.858391284942627,-0.0,-0.0,-1.0,0.2053239909502153,2.0,0.0
35.37785339355469,11.380206108093262,-0.7477772235870361,-0.0,-0.0,-1.0,0.2239365533114553,1.0,0.0
35.318641662597656,11.636968612670898,-0.7405648231506348,0.1431001616827616,-0.9809291188111056,0.1315310138136056,0.25909211595085,5.0,0.0
35.57297897338867,11.939608573913574,-0.797210693359375,-0.1315120254061906,-0.7152427072135705,-0.6863908922409767,0.1848894553717619,3.0,0.0
35.62721252441406,12.532442092895508,-0.8285675048828125,-0.3072587095277865,-0.1357187077838227,-0.9418983585168884,0.2821479363231312,4.0,0.0
35.464942932128906,12.70340061187744,-0.8045852184295654,-0.0,-0.0,-1.0,0.1267161879597601,1.0,0.0
36.36682891845703,12.824846267700195,-0.8847036361694336,-0.0,-0.0,-1.0,0.1729384591188704,1.0,0.0
36.26505661010742,13.00212860107422,-0.8661162853240967,-0.0,-0.0,-1.0,0.1912356729697957,1.0,0.0
36.507686614990234,10.860977172851562,-0.9537463188171388,-0.0,-0.0,-1.0,0.2206688541622874,1.0,0.0
36.2910041809082,12.325691223144531,-0.8731651306152344,-0.0,-0.0,-1.0,0.1930212128610832,1.0,0.0
36.12583541870117,12.67943000793457,-0.8398613929748535,0.5989160495874981,-0.0466497837603469,-0.7994519142647784,0.2613772928250522,4.0,0.0
36.171875,13.08642864227295,-0.8493027687072754,-0.0,-0.0,-1.0,0.1693255685952738,1.0,0.0
35.974857330322266,12.17660903930664,-0.8163111209869385,0.0944305284095524,-0.1876094283088868,-0.9776940102679904,0.2187707636952438,4.0,0.0
35.76219177246094,12.50770664215088,-0.7728607654571533,-0.0,-0.0,-1.0,0.2233730700253041,2.0,0.0
35.67868423461914,12.770014762878418,-0.7560677528381348,-0.0,-0.0,-1.0,0.2079282594074493,1.0,0.0
35.489784240722656,11.747671127319336,-0.7354395389556885,-0.0,-0.0,-1.0,0.2756992337536804,2.0,0.0
35.617645263671875,11.948583602905272,-0.7541239261627197,-0.0,-0.0,-1.0,0.2607016219801155,1.0,0.0
35.342315673828125,11.641613960266112,-0.711266279220581,0.2005077387767995,-0.9765786946152416,0.0780429363504828,0.1830493038932774,5.0,0.0
35.43951416015625,11.912050247192385,-0.7219216823577881,-0.4965708122801132,-0.8673270134293876,-0.0340775610501675,0.2053241428705697,3.0,0.0
35.28803253173828,11.521729469299316,-0.7049763202667236,-0.2953279869416806,-0.9520627009741308,-0.0797370274265186,0.1529249404406679,12.0,0.0
37.414573669433594,10.96169662475586,-1.3499730825424194,-0.0,-0.0,-1.0,0.0930531252776832,2.0,0.0
36.74079132080078,10.848104476928713,-1.2281259298324585,-0.0,-0.0,-1.0,0.2006295648957731,1.0,0.0
36.37654495239258,10.871414184570312,-1.15774405002594,0.565168178392048,-0.8067973367651814,0.1722294618281812,0.1274551838174117,3.0,0.0
35.382503509521484,11.92653465270996,-1.319215178489685,-0.0,-0.0,-1.0,0.175672402774125,2.0,0.0
35.358489990234375,11.96970272064209,-1.3115965127944946,-0.0,-0.0,-1.0,0.1248173090254792,2.0,0.0
36.99428939819336,11.853530883789062,-0.7699118852615356,-0.0,-0.0,-1.0,0.1526911067022207,2.0,0.0
36.25083541870117,12.800756454467772,-1.053134560585022,-0.0,-0.0,-1.0,0.1645592577535674,1.0,0.0
36.40413665771485,11.82569408416748,-1.1148532629013062,-0.786816986605092,0.1968346310063608,0.5849573981293614,0.1634431460061995,4.0,0.0
35.93364715576172,12.391949653625488,-1.0027247667312622,-0.0,-0.0,-1.0,0.2442204149450498,1.0,0.0
35.82342529296875,12.917174339294434,-0.967013955116272,-0.0,-0.0,-1.0,0.1172020174896879,2.0,0.0
35.712615966796875,13.12341022491455,-0.9411767721176147,-0.0,-0.0,-1.0,0.1358231580206362,2.0,0.0
35.710113525390625,12.103792190551758,-0.9695638418197632,-0.0,-0.0,-1.0,0.2403677190354771,2.0,0.0
35.71678924560547,12.179959297180176,-0.967992901802063,-0.0,-0.0,-1.0,0.2320531576323843,2.0,0.0
36.06325912475586,10.842495918273926,-1.100232720375061,-0.259909080207407,-0.9422662215114044,-0.2111436426330675,0.1732590066654491,4.0,0.0
35.518882751464844,11.466300964355469,-0.9615718126296996,-0.0,-0.0,-1.0,0.2046184363942002,2.0,0.0
35.441192626953125,11.794185638427734,-0.9307676553726196,-0.0,-0.0,-1.0,0.2757294253041931,2.0,0.0
35.495399475097656,12.078353881835938,-0.9290348291397096,-0.0,-0.0,-1.0,0.128856546654456,2.0,0.0
35.28497314453125,11.660310745239258,-0.9070767164230348,-0.0,-0.0,-1.0,0.1808745727762204,2.0,0.0
36.40869140625,12.802864074707031,-0.6513410806655884,-0.0,-0.0,-1.0,0.1837090102440612,2.0,0.0
36.32311248779297,12.89142608642578,-0.6359683275222778,-0.0,-0.0,-1.0,0.1464104910189704,1.0,0.0
35.45943832397461,11.589834213256836,-0.538780689239502,-0.8441116270077611,-0.1920056138317292,-0.5006090344844082,0.145150616587093,6.0,0.0
35.533878326416016,12.615105628967283,-1.4400352239608765,-0.0,-0.0,-1.0,0.12327247171986,2.0,0.0
35.2337760925293,12.709293365478516,-1.369775414466858,-0.0,-0.0,-1.0,0.130287082876039,1.0,0.0
36.94086456298828,11.927644729614258,-0.815445065498352,0.6878983074998329,-0.4348411980656826,-0.5811273965351031,0.2612388215756485,7.0,0.0
36.334957122802734,12.883334159851074,-0.6993118524551392,-0.7861792152749213,-0.1528975406095905,-0.5987859246385536,0.2752414600663342,5.0,0.0
36.23580551147461,12.781679153442385,-0.6863456964492798,-0.0,-0.0,-1.0,0.2285903648435804,1.0,0.0
35.81511688232422,12.345464706420898,-1.0708249807357788,-0.0,-0.0,-1.0,0.141140003936171,1.0,0.0
35.62871170043945,13.046834945678713,-1.014811635017395,0.2652277658080429,-0.8383304910253286,-0.476294257850864,0.2014461423302251,3.0,0.0
35.595584869384766,11.967599868774414,-1.045622706413269,-0.5563505855576633,0.1013566461846004,-0.8247429031060862,0.2228599903395978,3.0,0.0
35.967308044433594,12.295811653137209,-0.8078677654266357,-0.0,-0.0,-1.0,0.2484299292224819,1.0,0.0
35.58706283569336,12.314151763916016,-0.7769143581390381,-0.0,-0.0,-1.0,0.1859786855769621,1.0,0.0
35.35871887207031,12.216389656066896,-0.7658445835113525,-0.0,-0.0,-1.0,0.1871994493767282,1.0,0.0
35.69995880126953,11.887935638427734,-0.8151705265045166,-0.0,-0.0,-1.0,0.2565225212510336,1.0,0.0
35.629493713378906,12.641305923461914,-1.0249042510986328,-0.0,-0.0,-1.0,0.1840049357872392,1.0,0.0
35.51395034790039,12.509228706359863,-1.0208194255828855,-0.0,-0.0,-1.0,0.2450218887740499,1.0,0.0
35.96564483642578,12.723034858703612,-1.052738904953003,-0.0,-0.0,-1.0,0.2445332350683336,1.0,0.0
35.733154296875,12.298480033874512,-1.0529074668884275,-0.0,-0.0,-1.0,0.2796820453748563,1.0,0.0
35.6362419128418,12.917484283447266,-1.4508016109466553,-0.0,-0.0,-1.0,0.156442458200981,1.0,0.0
35.305850982666016,12.649873733520508,-1.4227700233459473,-0.0,-0.0,-1.0,0.1776275944958465,2.0,0.0
35.67546844482422,12.832847595214844,-1.4588220119476318,-0.0,-0.0,-1.0,0.1472828811746295,1.0,0.0
36.221221923828125,12.396923065185549,-0.737703800201416,-0.0,-0.0,-1.0,0.1799743707982625,1.0,0.0
36.05682373046875,12.226903915405272,-0.7297179698944092,-0.0,-0.0,-1.0,0.178668397672415,1.0,0.0
35.71159362792969,11.861007690429688,-0.7131242752075195,-0.0,-0.0,-1.0,0.161385799589425,1.0,0.0
35.592193603515625,11.4468412399292,-0.716728925704956,-0.0,-0.0,-1.0,0.2072646046706308,1.0,0.0
36.37275695800781,12.44563102722168,-0.7486505508422852,-0.0,-0.0,-1.0,0.1724446975607988,1.0,0.0
36.64619064331055,11.512977600097656,-0.8021738529205322,-0.0,-0.0,-1.0,0.0772163503623075,1.0,0.0
36.822998046875,11.389339447021484,-0.8209090232849121,-0.0,-0.0,-1.0,0.1544742034675983,1.0,0.0
36.973777770996094,12.153498649597168,-1.4026000499725342,-0.0,-0.0,-1.0,0.2467609938937903,1.0,0.0
37.54474639892578,11.273619651794434,-1.415637493133545,-0.0,-0.0,-1.0,0.1620414840492094,1.0,0.0
35.490623474121094,11.81783676147461,-1.2006609439849854,0.4421284633542788,0.2509356891131881,-0.8611351240201935,0.2632173759035975,3.0,0.0
35.701812744140625,12.141830444335938,-1.2471380233764648,-0.0,-0.0,-1.0,0.1646301569682527,1.0,0.0
35.24497985839844,12.834531784057615,-1.3642559051513672,-0.0,-0.0,-1.0,0.1365631295542055,1.0,0.0
35.607757568359375,13.012739181518556,-1.411158323287964,-0.5158054656315972,-0.3621008255210231,-0.7764198051193469,0.2565650582560939,3.0,0.0
35.3825569152832,11.57668113708496,-0.6393030881881714,-0.8665529101357393,-0.3295141832925821,-0.3748419092688326,0.1777646127174148,4.0,0.0
35.42906188964844,11.791269302368164,-0.6437842845916748,0.5863560666713838,-0.2958135902905588,-0.7541093308513516,0.2592245727989336,3.0,0.0
36.34676742553711,12.856916427612305,-0.7313401699066162,-0.7895763496806689,0.1209418854586239,-0.6016163631141223,0.2032893631667638,5.0,0.0
36.460960388183594,12.80031394958496,-0.741703987121582,-0.0758116775115746,-0.7115543332808019,-0.6985291836009392,0.1628889038187716,4.0,0.0
36.25347137451172,10.64515495300293,-0.8336682319641113,-0.1008062888794377,0.946413681596613,0.3068211782278072,0.0993634078779923,3.0,0.0
35.31781768798828,11.876250267028809,-0.8048937320709229,0.2820812004311575,0.651783782027438,-0.7039943876547071,0.1704663501212064,4.0,0.0
35.35646057128906,11.592782020568848,-0.7928732633590698,0.655764313334819,-0.3084550103803991,0.6890781319471262,0.1849169772513593,4.0,0.0
36.35619354248047,10.703396797180176,-0.847456693649292,-0.0,-0.0,-1.0,0.1446497508298802,2.0,0.0
35.605003356933594,11.999595642089844,-0.8417541980743408,-0.2782722633324536,0.1614041012217243,-0.9468438432860196,0.2336211064738266,5.0,0.0
35.76946258544922,12.061651229858398,-0.8623948097229004,-0.0,-0.0,-1.0,0.1621273936283881,2.0,0.0
35.784427642822266,12.453961372375488,-0.8866972923278809,-0.0,-0.0,-1.0,0.1938494539305131,1.0,0.0
35.92988586425781,12.245094299316406,-0.8896565437316895,-0.0,-0.0,-1.0,0.2648513406025296,1.0,0.0
36.98197555541992,11.312816619873049,-0.9458498954772948,-0.0,-0.0,-1.0,0.2357961644324364,2.0,0.0
36.17695999145508,12.546039581298828,-0.932880401611328,-0.7756192082728735,-0.5946293664336412,-0.2117327568726377,0.1776203055188855,4.0,0.0
35.40284729003906,11.512725830078123,-0.9197772741317748,-0.0,-0.0,-1.0,0.2516096560486816,2.0,0.0
36.13077545166016,10.813399314880373,-0.9760648012161256,-0.0,-0.0,-1.0,0.0799786320825634,1.0,0.0
35.31070327758789,11.822818756103516,-0.9215277433395386,-0.0,-0.0,-1.0,0.1119889408578887,2.0,0.0
35.426513671875,11.681262016296388,-0.9291223287582396,0.7352666482190425,-0.6422598491287528,-0.2165300030338677,0.1790674251008978,4.0,0.0
35.708839416503906,12.1486177444458,-0.980188488960266,-0.8192229526029059,0.0606687747589928,-0.570257006706467,0.2321276330942513,4.0,0.0
36.871604919433594,11.25308322906494,-1.0773354768753052,-0.0,-0.0,-1.0,0.2259610454052233,1.0,0.0
36.990840911865234,11.31843376159668,-1.0934818983078003,-0.0,-0.0,-1.0,0.2101493515924291,2.0,0.0
35.473236083984375,11.576053619384766,-0.9753326177597046,-0.8762214297908019,-0.1404882473243252,-0.4609762014888648,0.2692485679656908,3.0,0.0
36.115699768066406,10.830795288085938,-1.032150387763977,-0.0,-0.0,-1.0,0.1898251549912355,2.0,0.0
35.4564208984375,11.669181823730469,-0.9761065244674684,0.2681536820456241,-0.542654397245554,-0.7960023919282144,0.2934005417709136,5.0,0.0
35.78479766845703,12.21872615814209,-1.0334991216659546,-0.0,-0.0,-1.0,0.2199425243632863,1.0,0.0
36.15206527709961,12.560717582702637,-1.0895735025405884,-0.0,-0.0,-1.0,0.2369859413372735,1.0,0.0
35.238861083984375,11.739202499389648,-0.7766038179397583,0.646187141828012,0.4684503939674587,0.6024918307561338,0.1609636802234136,6.0,0.0
35.32551193237305,11.570841789245604,-0.7841206789016724,0.6016513766495329,-0.6843637288371833,0.411900361286304,0.1789961391416308,3.0,0.0
35.298770904541016,11.90121078491211,-0.7864261865615845,-0.3045461266590311,0.2579169204266668,-0.9169135831116286,0.2762604662514571,5.0,0.0
35.59783172607422,12.003573417663574,-0.8236414194107056,-0.2782722633324536,0.1614041012217243,-0.9468438432860196,0.2306949946966001,5.0,0.0
36.44871520996094,10.908177375793455,-0.9073101282119752,0.2238225278824677,-0.9235382682437976,0.3114169923134394,0.2231327615759153,3.0,0.0
35.32209777832031,12.684475898742676,-0.803505539894104,-0.0,-0.0,-1.0,0.1246092694332313,1.0,0.0
35.650848388671875,12.49803638458252,-0.8388718366622925,-0.1076123242540802,0.2728604393397703,-0.9560160920779224,0.2792799454355252,4.0,0.0
35.89353942871094,12.2028169631958,-0.862209677696228,-0.0,-0.0,-1.0,0.1692239211873414,2.0,0.0
36.94874572753906,11.233583450317385,-0.971350073814392,-0.9628548531456688,-0.2697087099590578,-0.0129515846927341,0.2247573572686144,3.0,0.0
35.6568489074707,12.62021827697754,-0.8419057130813599,-0.0,-0.0,-1.0,0.2958387728749688,2.0,0.0
36.08512115478515,12.40163230895996,-0.8885217905044556,-0.4029836638304233,-0.7581127450625557,0.5127077456597718,0.1929269247537189,4.0,0.0
36.07793426513672,13.09718132019043,-0.90121591091156,0.2901426541121115,-0.1341366119299422,-0.9475360729833644,0.1624284700995314,3.0,0.0
36.27259063720703,12.828242301940918,-0.9188557863235474,-0.7305918446575399,0.6827141533809988,0.0117021918100485,0.1720683359658383,3.0,0.0
35.58875274658203,12.759793281555176,-1.451602339744568,-0.0,-0.0,-1.0,0.0897246458152769,1.0,0.0
35.29473876953125,11.468101501464844,-0.7751129865646362,0.4984876911659228,-0.865718586093242,0.0451813174750949,0.1983000843861868,6.0,0.0
35.315330505371094,11.411580085754396,-0.7758227586746216,-0.0,-0.0,-1.0,0.2422262930109414,2.0,0.0
35.22113037109375,12.031682968139648,-0.78473961353302,-0.0,-0.0,-1.0,0.1502978154355492,1.0,0.0
35.26420593261719,11.705034255981444,-0.7791086435317993,0.9940968920002952,0.0275264071576375,0.1049460157621303,0.1882869527959201,7.0,0.0
36.448612213134766,10.91093921661377,-0.8990455865859985,0.0680084885224232,-0.9976729818284504,0.0048442562301842,0.2136262629841694,4.0,0.0
35.6070556640625,11.975196838378906,-0.8300439119338989,-0.2689422574924811,-0.0619290815831535,-0.9611632800877876,0.2090994253661798,4.0,0.0
36.883880615234375,11.22728157043457,-0.962100625038147,-0.9350341158434636,-0.1468202325103699,0.3227305711184385,0.1994080266555075,5.0,0.0
35.51412582397461,12.639705657958984,-0.8417774438858032,-0.0,-0.0,-1.0,0.1342858136519197,1.0,0.0
35.828369140625,12.404475212097168,-0.8718694448471069,-0.0,-0.0,-1.0,0.2351772963967419,2.0,0.0
35.88787841796875,12.175724029541016,-0.8712106943130493,-0.9688275614430928,0.2316281095552274,-0.0878724931483223,0.1721695859362254,3.0,0.0
35.629051208496094,13.1284761428833,-0.8736585378646851,-0.0,-0.0,-1.0,0.2053239909502154,2.0,0.0
36.248783111572266,12.482406616210938,-0.9259690046310424,-0.0,-0.0,-1.0,0.2035212932631551,1.0,0.0
36.17744064331055,12.839128494262695,-0.9299603700637816,-0.0,-0.0,-1.0,0.2240258275921146,2.0,0.0
35.45806884765625,11.772042274475098,-1.139005422592163,-0.9720266037311004,-0.2346908539011895,-0.0091915577631241,0.2016307387123364,3.0,0.0
36.237159729003906,10.874765396118164,-1.2170462608337402,0.2219694035702754,-0.9082466935697284,-0.354707664842912,0.1040210571813679,4.0,0.0
35.628395080566406,11.960098266601562,-1.1733269691467283,-0.7725083403790628,-0.5276598111915662,-0.3532789092177267,0.1693869415338827,4.0,0.0
35.88569641113281,12.161653518676758,-1.2214024066925049,-0.0,-0.0,-1.0,0.1980754682699445,2.0,0.0
37.425682067871094,11.025938034057615,-1.4019758701324463,-0.0,-0.0,-1.0,0.1924140227272491,1.0,0.0
35.567298889160156,11.602310180664062,-0.5864179134368896,-0.2518547812474477,-0.2362047260320186,-0.9384969347648072,0.1153466031144736,7.0,0.0
36.483924865722656,12.772812843322754,-0.7418382167816162,-0.4088796805072042,-0.9038486249642976,-0.1259963095430771,0.1716787966305772,5.0,0.0
35.45402526855469,11.59489631652832,-0.9445593357086182,-0.9084664211066072,-0.0183361844867954,-0.4175554407024522,0.2133913254141183,4.0,0.0
36.3377571105957,10.924676895141602,-1.044713258743286,-0.0,-0.0,-1.0,0.1175328927667953,2.0,0.0
35.65606689453125,12.15931510925293,-0.9988489151000975,-0.0,-0.0,-1.0,0.1811098620992184,2.0,0.0
35.737152099609375,12.121806144714355,-1.0087873935699463,-0.0,-0.0,-1.0,0.1780914170377841,2.0,0.0
35.73612594604492,12.670984268188477,-1.0346713066101074,-0.0,-0.0,-1.0,0.1675201171722048,1.0,0.0
36.006385803222656,12.33962059020996,-1.0575203895568848,-0.0,-0.0,-1.0,0.2200832927415394,1.0,0.0
37.00386428833008,11.304973602294922,-1.1560583114624023,-0.0,-0.0,-1.0,0.1506545125403822,1.0,0.0
37.56077194213867,11.13063621520996,-1.22959566116333,-0.0,-0.0,-1.0,0.1353039417354146,2.0,0.0
37.51563262939453,12.38125705718994,-1.276158332824707,-0.0,-0.0,-1.0,0.1844095996850816,1.0,0.0
35.34644317626953,11.650640487670898,-0.8634041547775269,0.0923252784235497,-0.8544058891343701,-0.511338067795192,0.1948716215711375,4.0,0.0
36.174861907958984,10.707242012023926,-0.9395219087600708,-0.0,-0.0,-1.0,0.096815698520591,2.0,0.0
35.286773681640625,11.902395248413086,-0.8677650690078735,0.5545980261414091,0.2969962919082087,-0.7773121843846439,0.1098881963803792,3.0,0.0
35.352725982666016,11.752496719360352,-0.8695155382156372,0.7637887124252136,-0.6292796146863046,0.1436452899056927,0.2544070343521334,6.0,0.0
36.418792724609375,11.084312438964844,-0.9922744035720824,-0.0,-0.0,-1.0,0.194029236604219,1.0,0.0
35.54523468017578,12.258186340332031,-0.9240814447402954,-0.0,-0.0,-1.0,0.2324066481952598,1.0,0.0
36.795745849609375,11.36355209350586,-1.0604301691055298,-0.0,-0.0,-1.0,0.1462436048715737,1.0,0.0
35.89361572265625,12.580163955688477,-0.9920250177383424,-0.0,-0.0,-1.0,0.2496247393559246,1.0,0.0
36.14158630371094,12.57444953918457,-1.0274444818496704,-0.0,-0.0,-1.0,0.1665395346393244,2.0,0.0
35.974159240722656,12.797882080078123,-1.0158361196517944,-0.1408416921215581,-0.0780743202236063,-0.986948842788702,0.1921474268757452,3.0,0.0
37.57275390625,12.194512367248535,-1.4665366411209106,-0.0,-0.0,-1.0,0.1266554125283271,2.0,0.0
35.95736312866211,10.832801818847656,-1.1368831396102903,-0.0,-0.0,-1.0,0.1317391877364965,2.0,0.0
