x,y,z,nx,ny,nz,curvature,density,label
28.04179000854492,-27.953781127929688,1.067679762840271,-0.0,-0.0,-1.0,0.1043096207547156,1.0,2.0
28.92186164855957,-29.232553482055664,1.31333589553833,0.1918100848022193,-0.9813629674150264,0.0116454950319627,0.1614183400389409,3.0,2.0
29.469512939453125,-29.20409393310547,1.3170086145401,-0.0,-0.0,-1.0,0.14448790880966,2.0,2.0
28.399250030517575,-28.781286239624023,1.3596584796905518,-0.0,-0.0,-1.0,0.1489627831538031,1.0,2.0
30.0760440826416,-28.871612548828125,1.350786209106445,-0.0,-0.0,-1.0,0.1956743390871476,2.0,2.0
28.03652000427246,-27.785669326782227,1.0917131900787354,-0.0,-0.0,-1.0,0.0644420462814297,1.0,2.0
28.32670211791992,-27.870290756225582,1.0888466835021973,-0.0,-0.0,-1.0,0.1062837546959689,1.0,2.0
28.63399124145508,-27.82166290283203,1.1042425632476809,-0.0,-0.0,-1.0,0.0681093062226368,2.0,2.0
29.019926071166992,-28.034027099609375,1.0800018310546875,-0.0,-0.0,-1.0,0.029185334421883,1.0,2.0
29.499019622802734,-27.97669982910156,1.0930123329162598,-0.0,-0.0,-1.0,0.0366030653591624,1.0,2.0
29.71340560913086,-28.23338508605957,1.0544230937957764,-0.0,-0.0,-1.0,0.1429775908159326,1.0,2.0
29.26778030395508,-27.52378845214844,1.1595511436462402,0.4811222364025895,-0.1146715213287759,-0.8691213009903249,0.0982428246604327,3.0,2.0
29.55766868591309,-27.67084503173828,1.1395033597946167,-0.0,-0.0,-1.0,0.0396588921268322,1.0,2.0
29.979726791381836,-27.508779525756836,1.1639991998672483,-0.0,-0.0,-1.0,0.1064459798893358,1.0,2.0
29.48023223876953,-27.077953338623047,1.2287185192108154,-0.0,-0.0,-1.0,0.0723422263550528,1.0,2.0
30.03010368347168,-27.353221893310547,1.187471866607666,-0.0,-0.0,-1.0,0.1566560932898485,2.0,2.0
29.53071403503418,-29.085235595703125,1.7330090999603271,-0.0,-0.0,-1.0,0.0361532920847013,1.0,2.0
29.90018653869629,-28.508380889892575,0.950054407119751,-0.0,-0.0,-1.0,0.1409181594513273,1.0,1.0
30.10617446899414,-28.42983627319336,0.9665489196777344,0.2552755390812946,0.5906229203558795,-0.7655056924001594,0.1850160547146024,3.0,1.0
30.04810333251953,-28.299331665039062,0.9870705604553224,-0.0,-0.0,-1.0,0.127575028447658,1.0,1.0
27.96376037597656,-28.990652084350582,1.224164962768555,-0.0706926017685079,0.6684114807002284,-0.7404246406781227,0.0935994553375404,4.0,2.0
29.19833755493164,-29.33866500854492,1.2135766744613647,-0.0,-0.0,-1.0,0.0892044439850199,2.0,2.0
29.747047424316406,-29.26244354248047,1.2315115928649902,-0.0,-0.0,-1.0,0.1264257538373117,1.0,2.0
29.819883346557617,-28.838342666625977,1.28700852394104,-0.0,-0.0,-1.0,0.2336839520398275,1.0,2.0
30.177886962890625,-28.856143951416016,1.28796648979187,-0.0,-0.0,-1.0,0.1776527978195667,2.0,2.0
28.206687927246097,-28.053747177124023,1.3468290567398071,-0.0,-0.0,-1.0,0.2010388855242874,1.0,2.0
28.19989585876465,-27.546546936035156,1.0420225858688354,-0.0,-0.0,-1.0,0.033507960328059,1.0,2.0
29.517473220825195,-27.9708194732666,1.028537392616272,-0.0,-0.0,-1.0,0.0484000494187266,1.0,2.0
29.840028762817383,-28.081787109375,1.0186306238174438,-0.0,-0.0,-1.0,0.0591179144990089,1.0,2.0
28.05308532714844,-27.2398681640625,1.080491304397583,-0.0,-0.0,-1.0,0.0515770884257692,1.0,2.0
28.456262588500977,-27.44774627685547,1.070276379585266,-0.0,-0.0,-1.0,0.0554134623852233,1.0,2.0
28.79822158813477,-27.37982940673828,1.096696138381958,-0.0,-0.0,-1.0,0.152070346076316,1.0,2.0
29.088274002075195,-27.391948699951172,1.1069722175598145,-0.0,-0.0,-1.0,0.0655197063198351,2.0,2.0
29.662981033325195,-27.56521987915039,1.0981873273849487,-0.0,-0.0,-1.0,0.0778624297862443,1.0,2.0
29.9929256439209,-27.875732421875,1.0555171966552734,-0.0,-0.0,-1.0,0.0655495199786741,1.0,2.0
27.91210174560547,-27.044612884521484,1.101589918136597,-0.0,-0.0,-1.0,0.057304785929487,1.0,2.0
28.9871826171875,-26.98596572875977,1.1668307781219482,-0.0,-0.0,-1.0,0.1663011335366639,1.0,2.0
29.34322166442871,-27.075096130371097,1.16674542427063,-0.0,-0.0,-1.0,0.1098329070199393,1.0,2.0
29.904529571533203,-27.30683135986328,1.1464296579360962,-0.0,-0.0,-1.0,0.1452428115026732,1.0,2.0
30.038095474243164,-26.972667694091797,1.2039998769760132,-0.0,-0.0,-1.0,0.0670639835136002,1.0,2.0
29.626001358032227,-29.188005447387695,1.642261266708374,-0.0,-0.0,-1.0,0.0386533915258176,1.0,2.0
28.865577697753903,-26.980133056640625,1.5007230043411257,-0.0,-0.0,-1.0,0.1280530031158347,1.0,2.0
29.142364501953125,-28.72779083251953,0.9917765855789183,-0.0,-0.0,-1.0,0.0347937518265685,2.0,1.0
29.767507553100582,-29.13076400756836,0.9603147506713868,-0.0,-0.0,-1.0,0.1237633931614116,1.0,1.0
29.42598533630371,-28.299659729003903,1.0525819063186646,-0.0,-0.0,-1.0,0.0633197564324845,1.0,2.0
29.673185348510746,-28.552000045776367,1.0306106805801392,-0.0,-0.0,-1.0,0.1722437160465597,1.0,2.0
30.013090133666992,-28.779388427734375,1.0210022926330566,-0.0,-0.0,-1.0,0.2027615910135884,1.0,2.0
28.010818481445312,-27.464252471923828,1.0907554626464844,-0.0,-0.0,-1.0,0.0311125727218443,2.0,2.0
28.300506591796875,-27.36720085144043,1.1227290630340576,-0.0,-0.0,-1.0,0.0413222741521964,1.0,2.0
29.313142776489254,-27.957693099975582,1.0965089797973633,-0.0,-0.0,-1.0,0.0316091170153858,1.0,2.0
29.76069450378418,-28.41126251220703,1.0647892951965332,-0.0,-0.0,-1.0,0.2165844210837488,2.0,2.0
30.152690887451172,-28.52256965637207,1.0637972354888916,-0.0,-0.0,-1.0,0.2001333340557157,2.0,2.0
27.863849639892575,-27.000167846679688,1.14412260055542,-0.0,-0.0,-1.0,0.0545176771506407,1.0,2.0
27.97464942932129,-27.052427291870117,1.1446224451065063,-0.0,-0.0,-1.0,0.0577518823614701,1.0,2.0
28.695091247558594,-27.336490631103516,1.1510807275772097,-0.0,-0.0,-1.0,0.1771686079826217,1.0,2.0
28.809436798095703,-27.33382225036621,1.1581275463104248,-0.0,-0.0,-1.0,0.1637703797571343,1.0,2.0
29.295513153076172,-27.574405670166016,1.1505985260009766,-0.0,-0.0,-1.0,0.0874112958082072,2.0,2.0
29.585647583007812,-27.824310302734375,1.1290147304534912,-0.0,-0.0,-1.0,0.0407052374961142,1.0,2.0
28.38351058959961,-29.330224990844727,1.2719123363494873,-0.0,-0.0,-1.0,0.1178305628951513,1.0,2.0
28.879838943481445,-29.240909576416016,1.3013155460357666,0.1466920035113845,0.4945957431849618,-0.8566542516845005,0.1447172689134448,3.0,2.0
29.459383010864254,-28.974586486816406,1.3518283367156982,-0.0,-0.0,-1.0,0.1356827421853066,1.0,2.0
27.979793548583984,-27.973833084106445,1.400559902191162,-0.0,-0.0,-1.0,0.1548210112780259,1.0,2.0
29.648685455322266,-28.829509735107425,1.3744823932647705,-0.0,-0.0,-1.0,0.2224899262760891,1.0,2.0
28.963464736938477,-27.278732299804688,1.174715280532837,-0.0,-0.0,-1.0,0.1435382144422906,1.0,2.0
29.422607421875,-27.450645446777344,1.174852967262268,-0.0,-0.0,-1.0,0.0951181202259552,1.0,2.0
29.15278434753418,-27.125598907470703,1.206944465637207,-0.0,-0.0,-1.0,0.1235440670624697,1.0,2.0
29.40500831604004,-27.11631965637207,1.221676468849182,-0.0,-0.0,-1.0,0.0937805031517496,1.0,2.0
29.73063087463379,-27.434579849243164,1.1921868324279783,-0.0,-0.0,-1.0,0.0946686367983815,1.0,2.0
28.695384979248047,-29.31530380249023,1.6984468698501587,-0.0,-0.0,-1.0,0.0342204116756325,1.0,2.0
29.114273071289062,-29.09115219116211,1.7266414165496826,-0.0,-0.0,-1.0,0.088403932196785,1.0,2.0
29.30946350097656,-29.132061004638672,1.7283262014389038,-0.0,-0.0,-1.0,0.0339002900511884,1.0,2.0
28.831148147583008,-29.258075714111328,1.0561734437942505,-0.0,-0.0,-1.0,0.1779893063021846,1.0,2.0
27.97440719604492,-28.346118927001953,1.1136932373046875,-0.0,-0.0,-1.0,0.1053880627068684,1.0,2.0
28.590736389160156,-28.40866470336914,1.1485384702682495,-0.0,-0.0,-1.0,0.1731070965324017,1.0,2.0
28.73011779785156,-28.66019821166992,1.125932216644287,-0.0,-0.0,-1.0,0.0449598769302187,1.0,2.0
28.839675903320312,-28.99940299987793,1.0896841287612915,-0.0,-0.0,-1.0,0.1305801665827224,1.0,2.0
29.364843368530273,-29.20829200744629,1.0917418003082275,-0.0,-0.0,-1.0,0.1078131986345712,2.0,2.0
29.62090492248535,-29.321517944335938,1.0897574424743652,-0.0,-0.0,-1.0,0.1278024697970947,1.0,2.0
28.031951904296875,-27.77837562561035,1.1861023902893066,-0.0,-0.0,-1.0,0.0968294241084133,1.0,2.0
28.64438247680664,-28.231971740722656,1.1739895343780518,-0.0,-0.0,-1.0,0.11530937067969,1.0,2.0
28.711387634277344,-28.375072479248047,1.1605067253112793,-0.4277786670282714,0.1104355967646613,-0.8971116937164225,0.1448638875347573,3.0,2.0
29.77594757080078,-29.22772789001465,1.1093175411224363,-0.0,-0.0,-1.0,0.2076502661484989,2.0,2.0
30.11423110961914,-29.204158782958984,1.1273584365844729,-0.0,-0.0,-1.0,0.1492011698708618,1.0,2.0
29.676164627075195,-28.366222381591797,1.2172247171401978,-0.0,-0.0,-1.0,0.2058316173528991,1.0,2.0
29.898685455322266,-28.73572158813477,1.1797842979431152,-0.0,-0.0,-1.0,0.2480029388774555,1.0,2.0
30.092348098754883,-28.83378219604492,1.1755366325378418,-0.0,-0.0,-1.0,0.2616230699459808,2.0,2.0
28.47765731811523,-27.016082763671875,0.9670603275299072,-0.0,-0.0,-1.0,0.0412580663822697,2.0,1.0
29.83587646484375,-28.02790641784668,0.9123929738998412,-0.0,-0.0,-1.0,0.0498650954993673,1.0,1.0
30.08662796020508,-28.112136840820312,0.9134867191314696,-0.0,-0.0,-1.0,0.0402749335525261,1.0,1.0
28.805011749267575,-26.925857543945312,1.010364055633545,-0.0,-0.0,-1.0,0.1660621873814738,2.0,2.0
29.025550842285156,-26.93555450439453,1.0276548862457275,0.1439826340669994,0.9642815130493436,-0.2223289560052787,0.1631059579038359,3.0,2.0
30.051136016845703,-27.785579681396484,0.9653204679489136,-0.0,-0.0,-1.0,0.0520480646489406,1.0,1.0
30.00715446472168,-27.279272079467773,1.045753836631775,-0.0,-0.0,-1.0,0.1701317123644058,2.0,2.0
30.121809005737305,-27.388134002685547,1.034998893737793,-0.0,-0.0,-1.0,0.1153906523476061,1.0,2.0
30.04546546936035,-26.874849319458008,1.114171862602234,-0.0,-0.0,-1.0,0.0723692593580765,1.0,2.0
29.809185028076172,-29.13232421875,1.5144544839859009,-0.0,-0.0,-1.0,0.1390107472451139,2.0,2.0
28.085493087768555,-29.067794799804688,1.091815710067749,-0.0,-0.0,-1.0,0.111674309038812,1.0,2.0
28.147192001342773,-29.035715103149418,1.099794864654541,-0.0,-0.0,-1.0,0.096070091631843,1.0,2.0
28.399473190307617,-29.22668075561523,1.0923000574111938,-0.0,-0.0,-1.0,0.1441818491408696,2.0,2.0
28.571447372436523,-28.318981170654297,1.2151813507080078,-0.0,-0.0,-1.0,0.1507893870301166,1.0,2.0
27.94854736328125,-27.075031280517575,0.9707893133163452,-0.0,-0.0,-1.0,0.059683478048596,1.0,1.0
28.22730255126953,-27.233827590942383,0.9755895137786864,-0.0,-0.0,-1.0,0.0347398499607753,1.0,1.0
28.630962371826172,-28.322330474853516,1.2186241149902344,-0.0,-0.0,-1.0,0.125860938326261,2.0,2.0
28.654186248779297,-28.39137840270996,1.2116230726242063,-0.0,-0.0,-1.0,0.1587507847469826,1.0,2.0
29.358367919921875,-29.24662399291992,1.1436032056808472,-0.013508921996835,0.8616064672833995,-0.5073970876561116,0.1347876250744872,4.0,2.0
29.571067810058594,-29.351539611816406,1.1402225494384766,-0.4021066903892731,0.80864947123672,-0.4294138356093783,0.1491152474706893,3.0,2.0
28.203205108642575,-26.942100524902344,1.0154573917388916,-0.0,-0.0,-1.0,0.0503338014615007,1.0,2.0
28.545717239379883,-27.22390937805176,1.0068408250808716,-0.0,-0.0,-1.0,0.0439809144366318,2.0,2.0
29.812360763549805,-29.04659652709961,1.1913375854492188,-0.0,-0.0,-1.0,0.1896062031210845,1.0,2.0
29.00160217285156,-26.93952751159668,1.0902248620986938,0.8250681625435505,0.5638555663328901,0.0364613147380228,0.1946923456146759,5.0,2.0
29.11825180053711,-27.253795623779297,1.0521385669708252,-0.0,-0.0,-1.0,0.0550482281580293,1.0,2.0
29.51126289367676,-27.70079040527344,1.0125105381011963,-0.0,-0.0,-1.0,0.0264938489674465,1.0,2.0
29.6513729095459,-27.857593536376953,0.9971660375595092,-0.0,-0.0,-1.0,0.0535789700248993,1.0,1.0
29.857574462890625,-28.263813018798828,0.9447824954986572,-0.0,-0.0,-1.0,0.0730145796071886,1.0,1.0
30.071041107177734,-28.679630279541016,1.0724867582321167,-0.0,-0.0,-1.0,0.20437339357083,2.0,2.0
29.102039337158203,-26.88762664794922,1.1067677736282349,-0.0,-0.0,-1.0,0.1565769544286211,1.0,2.0
29.379125595092773,-27.07421112060547,1.1009645462036133,-0.0,-0.0,-1.0,0.1070923211072272,2.0,2.0
29.737295150756836,-27.42731475830078,1.0720829963684082,-0.0,-0.0,-1.0,0.1191271697100376,1.0,2.0
29.93210792541504,-27.788036346435547,1.0270791053771973,-0.0,-0.0,-1.0,0.0619138378954656,2.0,2.0
29.907215118408203,-27.98614501953125,0.993290901184082,-0.0,-0.0,-1.0,0.0504004258777384,1.0,1.0
29.693925857543945,-26.899967193603516,1.1525728702545166,-0.0,-0.0,-1.0,0.0665739945299337,1.0,2.0
29.934526443481445,-27.371990203857425,1.0945430994033811,-0.0,-0.0,-1.0,0.0705175503769905,1.0,2.0
30.171995162963867,-27.482770919799805,1.0918618440628052,-0.0,-0.0,-1.0,0.1218356247738718,1.0,2.0
28.652748107910156,-27.942155838012695,1.2665176391601562,-0.1772933881774597,-0.8136520930054574,0.553658131030689,0.1755023836343426,3.0,2.0
29.839920043945312,-29.240299224853516,1.5471551418304443,-0.0,-0.0,-1.0,0.0698213295722522,1.0,2.0
30.057212829589844,-28.5797119140625,1.2636220455169678,-0.0,-0.0,-1.0,0.1908417577541752,1.0,2.0
28.79305648803711,-29.287607192993164,0.9452567100524902,-0.0,-0.0,-1.0,0.1071150935107236,1.0,1.0
28.967927932739254,-29.30821228027344,0.9545600414276124,-0.0,-0.0,-1.0,0.1342982460744564,1.0,1.0
29.80392837524414,-27.879863739013672,0.9095228910446168,-0.0,-0.0,-1.0,0.0597869518178603,2.0,1.0
30.00755500793457,-28.080562591552734,0.8896851539611816,-0.0,-0.0,-1.0,0.0445915830278752,1.0,1.0
30.16544532775879,-28.103946685791016,0.8975268602371216,-0.0,-0.0,-1.0,0.0504259568579696,1.0,1.0
28.456308364868164,-29.36145782470703,1.290300726890564,-0.0,-0.0,-1.0,0.0963510281623071,1.0,2.0
27.90425682067871,-27.77513885498047,1.0798001289367676,-0.0,-0.0,-1.0,0.0767414876471327,1.0,2.0
28.31197738647461,-28.874595642089844,1.336289644241333,-0.0027584247228588,0.9216309569888012,-0.388057689284666,0.1769403581841112,4.0,2.0
28.529409408569336,-29.34384536743164,1.296494483947754,-0.0,-0.0,-1.0,0.0875347282569767,1.0,2.0
28.547439575195312,-27.97506332397461,1.1124340295791626,-0.0,-0.0,-1.0,0.1640879490520822,2.0,2.0
28.678056716918945,-28.135040283203125,1.1014848947525024,-0.5128500911002164,0.8134938121668629,-0.2742491597520862,0.0676845347141877,3.0,2.0
28.85185813903809,-28.57306480407715,1.053355693817139,-0.0,-0.0,-1.0,0.0513939578441826,1.0,2.0
28.904102325439453,-29.093122482299805,0.981696844100952,-0.0,-0.0,-1.0,0.109938559106896,1.0,1.0
28.74376106262207,-27.94861602783203,1.1329628229141235,-0.0,-0.0,-1.0,0.1552195627629396,2.0,2.0
29.001829147338867,-28.453880310058594,1.0820027589797974,-0.0,-0.0,-1.0,0.0448127733153925,2.0,2.0
29.16353988647461,-28.79991149902344,1.0432524681091309,-0.0,-0.0,-1.0,0.0665332202215501,1.0,2.0
29.461217880249023,-29.10995101928711,1.0169415473937988,-0.0,-0.0,-1.0,0.1080371509337165,1.0,2.0
29.287914276123047,-27.437957763671875,1.249509572982788,-0.0,-0.0,-1.0,0.0958539613565411,2.0,2.0
29.56536865234375,-28.308998107910156,1.1437240839004517,-0.0,-0.0,-1.0,0.1755758843165191,1.0,2.0
29.798686981201172,-28.572986602783203,1.119428634643555,-0.0,-0.0,-1.0,0.1792735963999729,1.0,2.0
29.782142639160156,-28.86511993408203,1.0739840269088743,-0.0,-0.0,-1.0,0.1560391464031993,2.0,2.0
29.69203186035156,-27.27869415283203,1.0063621997833252,-0.0,-0.0,-1.0,0.0978001699579796,1.0,2.0
29.817230224609375,-27.74504280090332,0.9348933696746826,-0.0,-0.0,-1.0,0.0451832806313361,1.0,1.0
29.9713134765625,-27.94803810119629,0.9110956192016602,-0.0,-0.0,-1.0,0.0479632504388271,1.0,1.0
30.002899169921875,-28.59136390686035,1.1290744543075562,-0.0,-0.0,-1.0,0.1956137100686421,1.0,2.0
30.185407638549805,-28.74572372436523,1.1154205799102783,-0.0,-0.0,-1.0,0.207153569757594,2.0,2.0
29.91762924194336,-27.247154235839844,1.0327012538909912,-0.0,-0.0,-1.0,0.1377971414489316,1.0,2.0
30.00275421142578,-27.697608947753903,0.9592845439910888,-0.0,-0.0,-1.0,0.0455767179541139,2.0,1.0
29.478931427001953,-29.063400268554688,1.729651927947998,-0.0,-0.0,-1.0,0.0603151450052483,1.0,2.0
30.204273223876953,-28.732872009277344,1.4507927894592283,-0.0,-0.0,-1.0,0.1414143987480763,1.0,2.0
28.18405532836914,-26.881122589111328,1.019337177276611,-0.0,-0.0,-1.0,0.0847169753880313,2.0,2.0
28.15606117248535,-27.068559646606445,0.9926539659500122,-0.0,-0.0,-1.0,0.0469626512936061,1.0,1.0
28.302703857421875,-27.332836151123047,0.9840327501296996,-0.0,-0.0,-1.0,0.0485100818887171,1.0,1.0
28.322154998779297,-26.86887550354004,1.0428639650344849,-0.0,-0.0,-1.0,0.0802302649323236,1.0,2.0
28.432952880859375,-27.325485229492188,1.00491464138031,-0.0,-0.0,-1.0,0.0422625070610358,1.0,2.0
28.953998565673828,-27.53657913208008,1.055079698562622,-0.0,-0.0,-1.0,0.0956710002771017,2.0,2.0
29.24400329589844,-27.87987518310547,1.0491023063659668,-0.0,-0.0,-1.0,0.0286531925347005,1.0,2.0
29.272703170776367,-28.158071517944336,1.0140317678451538,-0.0,-0.0,-1.0,0.0319916300396657,1.0,2.0
29.302410125732425,-28.56823348999023,0.9596003293991088,-0.0,-0.0,-1.0,0.0469188025652142,1.0,1.0
29.43405532836914,-27.84021377563477,1.080041527748108,-0.0,-0.0,-1.0,0.0307102096384573,2.0,2.0
29.535659790039062,-28.08273696899414,1.0589507818222046,-0.0,-0.0,-1.0,0.0825939707671145,1.0,2.0
29.60302734375,-28.503767013549805,1.0065629482269287,-0.0,-0.0,-1.0,0.1493644700851697,1.0,2.0
29.648189544677734,-28.911043167114254,0.9518622159957886,-0.0,-0.0,-1.0,0.127170940418667,2.0,1.0
29.94265937805176,-27.251407623291016,0.9547319412231444,-0.0,-0.0,-1.0,0.1377971414489316,1.0,1.0
29.820980072021484,-28.04431915283203,1.1007814407348633,-0.0,-0.0,-1.0,0.086534826892665,1.0,2.0
29.99578857421875,-28.482009887695312,1.0569685697555542,-0.0,-0.0,-1.0,0.1807957917519918,2.0,2.0
30.05535888671875,-28.666690826416016,1.0361188650131226,0.7209587536830349,0.6898821974529594,-0.0654295737818991,0.1754188733160878,3.0,2.0
30.147064208984375,-27.298593521118164,0.9771555662155152,-0.0,-0.0,-1.0,0.102438816570562,1.0,1.0
28.076705932617188,-28.89645767211914,1.1087546348571775,-0.0,-0.0,-1.0,0.080820097938881,1.0,2.0
28.405336380004883,-27.928457260131836,1.2493348121643066,-0.0,-0.0,-1.0,0.142807699977117,1.0,2.0
28.492097854614254,-28.20899772644043,1.2307686805725098,-0.0,-0.0,-1.0,0.1649249112350932,2.0,2.0
28.2990779876709,-28.74416732788086,1.151064157485962,-0.0,-0.0,-1.0,0.1914468682528434,1.0,2.0
28.37228012084961,-29.125160217285156,1.1182565689086914,-0.0,-0.0,-1.0,0.1592901896515822,2.0,2.0
28.579635620117188,-29.329402923583984,1.1187528371810913,-0.0,-0.0,-1.0,0.0859661856548322,1.0,2.0
28.558765411376953,-27.965843200683594,1.2641758918762207,0.6249120599904429,-0.757678257716323,0.1881716638138116,0.153539248584954,3.0,2.0
28.633363723754883,-28.289281845092773,1.2389944791793823,-0.0,-0.0,-1.0,0.1236817603419597,2.0,2.0
29.018861770629883,-27.09642791748047,1.121798038482666,-0.0,-0.0,-1.0,0.1893830115012839,1.0,2.0
29.02510452270508,-27.24701881408691,1.1032332181930542,-0.0,-0.0,-1.0,0.089672854596871,1.0,2.0
29.360660552978516,-29.35001564025879,1.1985595226287842,-0.0,-0.0,-1.0,0.1357361915877735,1.0,2.0
29.366056442260746,-27.34665298461914,1.138696789741516,-0.0,-0.0,-1.0,0.0760797486375432,1.0,2.0
29.39632797241211,-27.529056549072266,1.1181554794311523,-0.0,-0.0,-1.0,0.069571487980375,1.0,2.0
29.64321517944336,-27.45035743713379,1.162502646446228,-0.0,-0.0,-1.0,0.0972738042930129,1.0,2.0
29.832679748535156,-27.55773162841797,1.1722208261489868,-0.0,-0.0,-1.0,0.0605711289390646,1.0,2.0
29.83538246154785,-28.63047790527344,1.331477165222168,-0.0,-0.0,-1.0,0.1582947260888295,1.0,2.0
30.02293586730957,-28.927738189697266,1.3141247034072876,-0.0,-0.0,-1.0,0.2068710185080503,1.0,2.0
30.14460563659668,-29.35165786743164,1.2733306884765625,-0.0,-0.0,-1.0,0.2410327041213232,2.0,2.0
29.78466033935547,-29.077131271362305,1.599971890449524,-0.0,-0.0,-1.0,0.1346910781399384,2.0,2.0
27.839561462402344,-27.008779525756836,1.0371668338775637,-0.0,-0.0,-1.0,0.0544656043881264,2.0,2.0
27.9111385345459,-27.35430908203125,1.0115996599197388,-0.0,-0.0,-1.0,0.0301951377415575,1.0,2.0
27.82039451599121,-29.290796279907227,1.1290961503982544,-0.0,-0.0,-1.0,0.0777682423970689,1.0,2.0
28.10837173461914,-27.470632553100582,1.02992844581604,0.7158213695680639,0.2840146835624473,-0.6379149052895888,0.0332148416221033,5.0,2.0
28.675214767456055,-27.596847534179688,1.101965069770813,-0.0,-0.0,-1.0,0.108906367508589,1.0,2.0
28.738506317138672,-27.66181182861328,1.103388428688049,-0.8429491918565466,0.3639869590968557,-0.396169349591584,0.089669260989061,3.0,2.0
28.85577964782715,-27.73581886291504,1.1112489700317385,-0.0,-0.0,-1.0,0.1019751980294766,1.0,2.0
29.00015640258789,-28.245983123779297,1.0658667087554932,-0.0,-0.0,-1.0,0.0286023734254209,1.0,2.0
29.04904556274414,-28.671554565429688,1.0153857469558716,-0.0,-0.0,-1.0,0.0301611513922025,1.0,2.0
29.06212615966797,-29.08249855041504,0.9607483148574828,-0.0,-0.0,-1.0,0.0946345703687569,1.0,1.0
29.245315551757812,-28.239612579345703,1.1000434160232544,-0.0,-0.0,-1.0,0.0240945765068246,1.0,2.0
29.214868545532227,-28.702655792236328,1.032941222190857,-0.0,-0.0,-1.0,0.0492514273760463,1.0,2.0
29.335121154785156,-28.988826751708984,1.008311748504639,-0.0,-0.0,-1.0,0.0552246071301981,1.0,2.0
29.75955390930176,-26.87365341186523,1.0947167873382568,-0.0,-0.0,-1.0,0.0602422263756498,1.0,2.0
29.77735137939453,-27.066394805908203,1.067066311836243,-0.0,-0.0,-1.0,0.067912191134212,1.0,2.0
29.72103500366211,-27.367809295654297,1.0099655389785769,-0.0,-0.0,-1.0,0.107630061514457,1.0,2.0
29.779205322265625,-27.85761260986328,0.9385520219802856,-0.0,-0.0,-1.0,0.0525134517436808,2.0,1.0
29.635711669921875,-28.31480407714844,1.1406784057617188,-0.0,-0.0,-1.0,0.1847447995648325,1.0,2.0
29.830890655517575,-28.625782012939453,1.120680570602417,-0.0,-0.0,-1.0,0.1682615811901891,2.0,2.0
29.70425033569336,-28.988582611083984,1.0530794858932495,-0.0,-0.0,-1.0,0.1845246565396174,2.0,2.0
30.008922576904297,-27.6805419921875,1.0028220415115356,-0.0,-0.0,-1.0,0.0504366341964486,2.0,2.0
30.025449752807617,-27.95213508605957,0.9589685201644896,-0.0,-0.0,-1.0,0.0501543311780588,1.0,1.0
30.120624542236328,-28.349807739257812,0.9031423330307008,-0.0,-0.0,-1.0,0.1099842991847411,1.0,1.0
30.159765243530273,-28.710805892944336,0.9963804483413696,-0.0,-0.0,-1.0,0.15401999583631,1.0,1.0
27.892356872558594,-29.31406021118164,1.135256052017212,-0.0,-0.0,-1.0,0.0918497173101368,2.0,2.0
28.00965118408203,-29.00343132019043,1.1805466413497925,-0.0,-0.0,-1.0,0.1158993417317385,2.0,2.0
28.656463623046875,-27.51633071899414,1.1089617013931274,-0.0,-0.0,-1.0,0.102409013263594,1.0,2.0
28.40401840209961,-27.933216094970703,1.333813190460205,-0.0,-0.0,-1.0,0.1527917006666359,2.0,2.0
28.533493041992188,-28.18461227416992,1.3251169919967651,0.7633140950757031,0.2577798547665342,-0.5923690899560049,0.1219297657087369,3.0,2.0
28.41001892089844,-28.882888793945312,1.239924430847168,-0.9987252576221824,-0.0479400188109403,0.0157991893434963,0.1847683833668937,4.0,2.0
29.16059303283691,-26.89297866821289,1.2601627111434937,-0.0,-0.0,-1.0,0.0503952674404025,1.0,2.0
29.15519905090332,-27.50528907775879,1.1836857795715332,-0.0,-0.0,-1.0,0.0873516057064084,1.0,2.0
28.98518943786621,-27.696704864501953,1.134838342666626,-0.0,-0.0,-1.0,0.0790427363642202,1.0,2.0
29.399871826171875,-27.41003036499023,1.230709433555603,-0.0,-0.0,-1.0,0.0823389226106814,1.0,2.0
29.179826736450195,-27.96446990966797,1.1277936697006226,-0.0,-0.0,-1.0,0.0318941839239313,2.0,2.0
29.347545623779297,-28.07569694519043,1.1358158588409424,-0.0,-0.0,-1.0,0.0342492858047868,2.0,2.0
29.49401092529297,-29.18126106262207,1.3257005214691162,-0.0,-0.0,-1.0,0.1713704777793809,2.0,2.0
29.83534812927246,-28.3743896484375,1.157150387763977,-0.0,-0.0,-1.0,0.1575926242539471,1.0,2.0
30.021087646484375,-28.397632598876953,1.1764225959777832,-0.0,-0.0,-1.0,0.1338924478761421,1.0,2.0
29.088109970092773,-26.898569107055664,1.5178922414779663,-0.0,-0.0,-1.0,0.1115479950276802,2.0,2.0
29.21904945373535,-29.242279052734375,1.6196221113204956,-0.0,-0.0,-1.0,0.0295747185790341,1.0,2.0
29.75272750854492,-29.0316104888916,1.6812719106674194,-0.0,-0.0,-1.0,0.1666318031296209,2.0,2.0
27.865310668945312,-27.577850341796875,1.0404987335205078,-0.0,-0.0,-1.0,0.0649915636865178,1.0,2.0
28.38775062561035,-27.8336181640625,1.0972466468811035,-0.0,-0.0,-1.0,0.0828867996297936,1.0,2.0
28.930639266967773,-26.9056339263916,1.0236904621124268,-0.0,-0.0,-1.0,0.1792960714083303,2.0,2.0
28.639671325683594,-28.160520553588867,1.0976850986480713,-0.0,-0.0,-1.0,0.0313117760910542,2.0,2.0
28.62423324584961,-28.408885955810547,1.065510630607605,-0.0,-0.0,-1.0,0.0826447969128242,1.0,2.0
29.24715805053711,-27.068819046020508,1.059764385223389,-0.0,-0.0,-1.0,0.1047224735733082,1.0,2.0
28.900663375854492,-28.337154388427734,1.1147111654281616,-0.0,-0.0,-1.0,0.0721699330726539,1.0,2.0
28.894418716430664,-28.592044830322266,1.0817675590515137,-0.0,-0.0,-1.0,0.0404360421178416,1.0,2.0
28.81425094604492,-29.10590171813965,1.004431128501892,-0.0,-0.0,-1.0,0.0913474100120073,1.0,2.0
28.918365478515625,-29.3546142578125,0.9859858751296996,-0.0,-0.0,-1.0,0.1057504319585909,1.0,1.0
29.70668601989746,-27.363475799560547,1.0963715314865112,-0.0,-0.0,-1.0,0.1154320071715192,1.0,2.0
29.62109375,-27.564538955688477,1.0511956214904783,-0.0,-0.0,-1.0,0.0665824617760001,1.0,2.0
29.6897029876709,-27.96806526184082,0.9992220401763916,-0.0,-0.0,-1.0,0.0448281770090328,1.0,1.0
29.204830169677734,-29.219247817993164,1.0418680906295776,-0.0,-0.0,-1.0,0.1426335436485687,1.0,2.0
29.1531982421875,-29.342212677001953,1.0186036825180054,-0.0,-0.0,-1.0,0.1048147102624402,1.0,2.0
30.152305603027344,-27.31609344482422,0.9280595779418944,-0.0,-0.0,-1.0,0.1095472219611869,1.0,1.0
30.063995361328125,-27.642467498779297,0.9809561967849731,-0.0,-0.0,-1.0,0.0715886405150929,1.0,1.0
29.756038665771484,-28.078397750854492,0.9918946027755736,-0.0,-0.0,-1.0,0.0493396659587459,1.0,1.0
29.822954177856445,-28.38837623596191,0.951219916343689,-0.0,-0.0,-1.0,0.1013329969405278,1.0,1.0
29.77646827697754,-28.679031372070312,0.8960124254226685,-0.0,-0.0,-1.0,0.122948109507836,1.0,1.0
29.53007698059082,-29.2406005859375,1.0805449485778809,-0.5198473969041332,-0.220809268450971,-0.8252284234671898,0.1123143168564546,3.0,2.0
30.193607330322266,-28.51790428161621,0.9831323623657228,-0.0,-0.0,-1.0,0.1475175116596225,1.0,1.0
30.04348373413086,-28.91838836669922,1.0432506799697876,-0.0,-0.0,-1.0,0.1759905811569037,1.0,2.0
29.98560333251953,-29.318641662597656,1.1247576475143433,-0.0,-0.0,-1.0,0.1845734163004293,1.0,2.0
27.788589477539062,-28.89299774169922,1.221477746963501,0.8947275535855865,0.0697814516306903,-0.4411271402476447,0.108118094011767,3.0,2.0
28.450416564941406,-27.837432861328125,1.106650471687317,-0.0,-0.0,-1.0,0.084948102471935,2.0,2.0
27.91366195678711,-28.89848518371582,1.2369153499603271,-0.0,-0.0,-1.0,0.0970027259148631,1.0,2.0
27.951066970825195,-29.10848617553711,1.222063660621643,0.90971746339006,-0.3939142565509907,-0.1313228665885513,0.0995439337631012,3.0,2.0
28.650070190429688,-27.899471282958984,1.1303033828735352,-0.0,-0.0,-1.0,0.2397542495724235,1.0,2.0
28.616966247558594,-27.97335433959961,1.1165961027145386,-0.0,-0.0,-1.0,0.246948955001458,2.0,2.0
28.434913635253903,-28.904226303100582,1.3012830018997192,-0.0,-0.0,-1.0,0.1754068612266406,2.0,2.0
29.496315002441406,-26.99686050415039,1.114755392074585,-0.0,-0.0,-1.0,0.0760694196116444,2.0,2.0
29.10698127746582,-27.897058486938477,1.1992757320404053,-0.0,-0.0,-1.0,0.0410656698436776,2.0,2.0
28.71278190612793,-29.337549209594727,1.2910573482513428,-0.0,-0.0,-1.0,0.0982946132602115,1.0,2.0
29.679256439208984,-27.019611358642575,1.1435320377349854,-0.0,-0.0,-1.0,0.0943601533361188,1.0,2.0
29.290666580200195,-29.306400299072266,1.3590190410614014,-0.0,-0.0,-1.0,0.064226001290099,1.0,2.0
30.038265228271484,-27.08174705505371,1.1950922012329102,-0.0,-0.0,-1.0,0.0925915233809577,1.0,2.0
29.832542419433594,-28.47177505493164,1.2243348360061646,-0.0,-0.0,-1.0,0.1367543736767176,1.0,2.0
29.451236724853516,-29.28192710876465,1.3789128065109253,-0.0,-0.0,-1.0,0.0797072721470786,1.0,2.0
30.123201370239254,-28.59657287597656,1.243734359741211,-0.0,-0.0,-1.0,0.1973480148986042,2.0,2.0
30.148263931274418,-28.77811050415039,1.2210639715194702,-0.0,-0.0,-1.0,0.2069954788653557,1.0,2.0
29.85601043701172,-29.33920669555664,1.4146236181259155,-0.0,-0.0,-1.0,0.098894829162833,1.0,2.0
29.15961456298828,-29.231712341308594,1.667465090751648,-0.0,-0.0,-1.0,0.0403051660252064,2.0,2.0
27.878175735473633,-27.135875701904297,1.04804790019989,-0.0,-0.0,-1.0,0.0614798253135418,2.0,2.0
27.909509658813477,-27.46477508544922,1.0172632932662964,-0.0,-0.0,-1.0,0.0506338511550632,1.0,2.0
28.131587982177734,-27.50485038757324,1.0513756275177002,0.7008283349780714,0.1963049655924166,-0.6857871429063274,0.0326774172309762,4.0,2.0
28.890548706054688,-26.977649688720703,0.9911963939666748,-0.0,-0.0,-1.0,0.114765007089474,1.0,1.0
28.753841400146484,-27.74643898010254,1.124640703201294,-0.0,-0.0,-1.0,0.0644507794742673,2.0,2.0
28.609773635864254,-27.788301467895508,1.095971941947937,-0.0,-0.0,-1.0,0.0463891909814342,2.0,2.0
28.01920509338379,-29.00760078430176,1.1650540828704834,0.4588490817999889,0.8874174427025937,0.0441339157394377,0.1141507558467078,3.0,2.0
27.95302391052246,-29.25973892211914,1.1289149522781372,-0.0,-0.0,-1.0,0.0936805263352347,2.0,2.0
29.416593551635746,-27.005630493164062,1.0872938632965088,-0.0,-0.0,-1.0,0.1093157231903478,1.0,2.0
29.25442123413086,-27.567564010620117,1.226676106452942,-0.0,-0.0,-1.0,0.0890798899997165,1.0,2.0
28.996994018554688,-27.87841033935547,1.1447322368621826,-0.0,-0.0,-1.0,0.0447627918873315,1.0,2.0
28.833961486816406,-28.12122917175293,1.086883544921875,-0.0,-0.0,-1.0,0.0271712539956523,1.0,2.0
28.823047637939453,-28.363204956054688,1.0518690347671509,-0.0,-0.0,-1.0,0.0445688063643729,1.0,2.0
28.409622192382812,-28.925098419189453,1.2237589359283447,-0.9987252576221824,-0.0479400188109403,0.0157991893434963,0.1858336974096403,4.0,2.0
28.21558380126953,-29.06106185913086,1.1842068433761597,-0.0,-0.0,-1.0,0.1120308309332688,1.0,2.0
29.751110076904297,-27.06192398071289,1.1388472318649292,-0.0,-0.0,-1.0,0.070633285505739,2.0,2.0
29.614669799804688,-27.505577087402344,1.0413256883621216,-0.0,-0.0,-1.0,0.078420855226244,1.0,2.0
29.621274948120117,-27.804141998291016,0.9915268421173096,-0.0,-0.0,-1.0,0.0473766509868093,1.0,1.0
29.038320541381836,-28.609649658203125,1.047987699508667,-0.0,-0.0,-1.0,0.0258573646961966,1.0,2.0
28.965415954589844,-28.8922119140625,0.9966309070587158,-0.0,-0.0,-1.0,0.0655951490046124,1.0,1.0
30.03976058959961,-27.351919174194336,1.1389553546905518,-0.0,-0.0,-1.0,0.1691863125609409,2.0,2.0
29.876659393310547,-27.68469619750977,1.0538690090179443,-0.0,-0.0,-1.0,0.048678459402953,1.0,2.0
29.764495849609375,-28.163246154785156,1.0839778184890747,-0.0,-0.0,-1.0,0.1190072008261962,1.0,2.0
29.757492065429688,-28.348777770996097,1.0504058599472046,-0.0,-0.0,-1.0,0.1645302219257134,1.0,2.0
29.424345016479492,-28.835798263549805,1.066855788230896,-0.0,-0.0,-1.0,0.1445681934271807,1.0,2.0
29.280494689941406,-29.198232650756836,1.144046187400818,-0.0,-0.0,-1.0,0.1317374572012511,1.0,2.0
30.118465423583984,-28.459117889404297,0.9480555057525636,-0.0,-0.0,-1.0,0.1850160547146024,2.0,1.0
30.047657012939453,-28.60606575012207,1.0469369888305664,-0.0,-0.0,-1.0,0.1524283904707283,2.0,2.0
29.67712020874023,-28.992870330810547,1.0748902559280396,-0.0,-0.0,-1.0,0.1804472360005748,2.0,2.0
29.588085174560547,-29.33135986328125,1.162288784980774,-0.6708707276474685,0.736827854496418,-0.0837686076281653,0.1605747815410926,4.0,2.0
28.41231918334961,-27.95659065246582,1.3284319639205933,-0.0,-0.0,-1.0,0.156452781344259,2.0,2.0
28.52669334411621,-28.173803329467773,1.321058750152588,0.7633140950757031,0.2577798547665342,-0.5923690899560049,0.1252121880883639,3.0,2.0
29.317195892333984,-27.405452728271484,1.2582273483276367,-0.0,-0.0,-1.0,0.0805612264674966,2.0,2.0
28.61163902282715,-28.245018005371097,1.3245588541030884,-0.0,-0.0,-1.0,0.0855484762068684,1.0,2.0
29.833160400390625,-29.11000633239746,1.5041779279708862,-0.0,-0.0,-1.0,0.1330163134706165,2.0,2.0
29.528339385986328,-29.15416717529297,1.4696099758148191,-0.0,-0.0,-1.0,0.07365417631264,1.0,2.0
30.189266204833984,-29.123794555664062,1.5356401205062866,-0.0,-0.0,-1.0,0.1509622609621479,1.0,2.0
28.23969268798828,-26.99925422668457,0.9844198226928712,-0.0,-0.0,-1.0,0.0464763597292675,1.0,1.0
28.427501678466797,-27.09311294555664,1.0054476261138916,0.6810501089405765,-0.7243631060482358,-0.1070926687882121,0.0440914655008158,3.0,2.0
28.394804000854492,-27.157915115356445,0.9892400503158568,-0.0,-0.0,-1.0,0.0410025973446687,2.0,1.0
27.88335418701172,-27.669971466064453,1.0960240364074707,-0.0,-0.0,-1.0,0.077436488620733,2.0,2.0
27.736637115478516,-27.76435661315918,1.0603927373886108,-0.0,-0.0,-1.0,0.0770217263873941,2.0,2.0
29.13887405395508,-26.91816139221191,1.16263747215271,-0.0,-0.0,-1.0,0.1511612858867236,1.0,2.0
28.961673736572266,-27.3079833984375,1.066185712814331,-0.0,-0.0,-1.0,0.0671381310908059,1.0,2.0
28.87322425842285,-27.52698516845703,1.0136821269989014,-0.0,-0.0,-1.0,0.0576024794895167,1.0,2.0
28.40850830078125,-27.923843383789062,1.140228509902954,-0.0,-0.0,-1.0,0.1654505278391765,1.0,2.0
29.373228073120117,-27.26357650756836,1.1432561874389648,-0.0,-0.0,-1.0,0.0789683704393492,1.0,2.0
29.303682327270508,-27.415925979614254,1.1044949293136597,-0.0,-0.0,-1.0,0.0903599016472706,2.0,2.0
28.678972244262695,-28.05920791625977,1.1585074663162231,-0.0,-0.0,-1.0,0.1613825724788265,1.0,2.0
28.553852081298828,-28.392202377319336,1.0907304286956787,-0.0,-0.0,-1.0,0.1158731456951259,2.0,2.0
27.93463134765625,-28.997825622558594,1.2234649658203125,-0.0706926017685079,0.6684114807002284,-0.7404246406781227,0.119143195691844,4.0,2.0
29.51250648498535,-27.756351470947266,1.0743355751037598,-0.0,-0.0,-1.0,0.02355163266988,1.0,2.0
28.82544708251953,-28.396137237548828,1.126430630683899,-0.0,-0.0,-1.0,0.0828569891538663,1.0,2.0
28.8029727935791,-28.696422576904297,1.0755985975265503,-0.0,-0.0,-1.0,0.036026136011608,1.0,2.0
28.675981521606445,-28.97028350830078,1.0153225660324097,-0.0,-0.0,-1.0,0.0548255978080927,1.0,2.0
28.044246673583984,-29.362258911132812,1.189166784286499,-0.0,-0.0,-1.0,0.0886992965041519,1.0,2.0
30.045825958251953,-27.48880958557129,1.2042186260223389,-0.0,-0.0,-1.0,0.1298145329366049,2.0,2.0
29.642383575439453,-28.076190948486328,1.031708836555481,-0.0,-0.0,-1.0,0.0780535890948337,1.0,2.0
29.679759979248047,-28.395179748535156,1.10199773311615,-0.3462623108773666,-0.1819857654025801,-0.9203171155947838,0.2354917606367637,3.0,2.0
28.969520568847656,-29.09122085571289,1.031113862991333,-0.0,-0.0,-1.0,0.1274715001679267,1.0,2.0
28.74839782714844,-29.250205993652344,1.1296249628067017,-0.0,-0.0,-1.0,0.1892326553049758,2.0,2.0
30.065305709838867,-28.429950714111328,1.016037106513977,-0.0,-0.0,-1.0,0.1754338134822948,1.0,2.0
29.877958297729492,-28.53250503540039,1.101393461227417,-0.0,-0.0,-1.0,0.1330041470965398,1.0,2.0
29.383743286132812,-28.944225311279297,1.1040884256362915,-0.0,-0.0,-1.0,0.1406332504211061,1.0,2.0
29.36994171142578,-29.20442008972168,1.0573662519454956,-0.0,-0.0,-1.0,0.1069234761072232,2.0,2.0
30.13057327270508,-28.783823013305664,1.0806020498275757,-0.0,-0.0,-1.0,0.2355927725060501,1.0,2.0
29.88049697875977,-29.19862937927246,1.1113247871398926,-0.0,-0.0,-1.0,0.208689127932973,1.0,2.0
29.623003005981445,-29.243791580200195,1.077530860900879,-0.0,-0.0,-1.0,0.1434505907274842,2.0,2.0
29.15691566467285,-26.89564514160156,1.3978596925735474,0.9455150133686674,-0.0573709737178353,-0.3204839011075537,0.0694594807628907,3.0,2.0
29.507070541381836,-26.922590255737305,1.225649118423462,-0.0,-0.0,-1.0,0.0995109171890068,2.0,2.0
28.41944122314453,-28.85892868041992,1.2952314615249634,-0.0,-0.0,-1.0,0.1847683833668937,2.0,2.0
29.69104385375977,-28.22016334533691,1.2626982927322388,-0.0,-0.0,-1.0,0.1487603919400255,2.0,2.0
28.879833221435547,-29.26330947875977,1.288381814956665,-0.0,-0.0,-1.0,0.1198807409693527,2.0,2.0
30.105161666870117,-28.553607940673828,1.249820590019226,-0.0,-0.0,-1.0,0.2064564171931218,2.0,2.0
29.547657012939453,-29.07532119750977,1.6513679027557373,-0.0,-0.0,-1.0,0.0608134576806127,1.0,2.0
29.25935173034668,-29.314224243164062,1.4604519605636597,-0.0,-0.0,-1.0,0.024050958590081,1.0,2.0
29.88883399963379,-29.234630584716797,1.3821632862091064,-0.0,-0.0,-1.0,0.2407538599211303,1.0,2.0
29.778409957885746,-29.057598114013672,1.6689811944961548,-0.0,-0.0,-1.0,0.1549979563588669,2.0,2.0
30.148672103881836,-29.361888885498047,1.7929246425628662,-0.0,-0.0,-1.0,0.1538171435022839,1.0,2.0
27.814075469970703,-27.003263473510746,1.0159149169921875,-0.0,-0.0,-1.0,0.0614798253135418,2.0,2.0
27.997468948364254,-27.34036636352539,0.99483323097229,-0.0,-0.0,-1.0,0.0290213998955281,1.0,1.0
27.845104217529297,-27.57908821105957,1.1840918064117432,-0.0,-0.0,-1.0,0.0657352569770046,1.0,2.0
28.645471572875977,-27.552419662475582,1.0698708295822144,-0.0,-0.0,-1.0,0.0616590136555037,2.0,2.0
28.188587188720703,-27.461803436279297,1.008347511291504,-0.0,-0.0,-1.0,0.035998696683349,1.0,2.0
29.169992446899418,-27.5679931640625,1.150218486785889,-0.0,-0.0,-1.0,0.0739393906397658,1.0,2.0
28.83262062072754,-27.627986907958984,1.0857017040252686,-0.0,-0.0,-1.0,0.1050791634701889,1.0,2.0
28.08761215209961,-28.128219604492188,1.1347568035125732,-0.0,-0.0,-1.0,0.1304492311929491,1.0,2.0
29.230260848999023,-27.796276092529297,1.113147258758545,-0.0,-0.0,-1.0,0.039034118145268,1.0,2.0
29.20333671569824,-28.078828811645508,1.051028847694397,-0.0,-0.0,-1.0,0.0283710838454635,1.0,2.0
28.657365798950195,-28.353015899658203,1.1728689670562744,-0.266632145235145,0.9282968145292816,0.2591762397714978,0.1875858497110016,3.0,2.0
28.50761604309082,-28.409320831298828,1.1439825296401978,-0.0,-0.0,-1.0,0.0921374992771435,1.0,2.0
29.656314849853516,-28.323776245117188,1.0583999156951904,0.0911459546494746,-0.8090701142605149,-0.5806013823282833,0.1722624809672069,3.0,2.0
29.26988410949707,-28.415376663208008,0.9886988401412964,-0.0,-0.0,-1.0,0.0302887860770192,1.0,1.0
29.19322395324707,-28.62494659423828,0.9338940382003784,-0.0,-0.0,-1.0,0.0312157193372047,2.0,1.0
28.65353012084961,-28.80674171447754,1.0923625230789185,-0.0,-0.0,-1.0,0.0473301126048077,1.0,2.0
28.558395385742188,-29.08320426940918,1.0316381454467771,-0.0,-0.0,-1.0,0.0741166619568591,1.0,2.0
29.821374893188477,-28.475168228149418,1.044026494026184,-0.0,-0.0,-1.0,0.1416688235903052,1.0,2.0
29.55547523498535,-28.631711959838867,0.9777556657791138,-0.0,-0.0,-1.0,0.1029554475816098,1.0,1.0
28.84404754638672,-29.196470260620117,1.0429203510284424,-0.0,-0.0,-1.0,0.1572189097435907,1.0,2.0
28.62381935119629,-29.21986961364746,1.0143303871154783,-0.0,-0.0,-1.0,0.0662985849758559,1.0,2.0
30.079011917114254,-28.69268798828125,1.022636890411377,-0.0,-0.0,-1.0,0.1829723463136278,2.0,2.0
29.684152603149418,-28.90545654296875,0.9312689304351808,-0.0,-0.0,-1.0,0.1224537097608508,2.0,1.0
29.497941970825195,-29.16429901123047,0.9853566884994508,-0.0,-0.0,-1.0,0.11225625268729,1.0,1.0
29.10551643371582,-29.361570358276367,1.0393908023834229,-0.0,-0.0,-1.0,0.1202077623423369,1.0,2.0
30.087547302246097,-29.36125946044922,1.127349615097046,-0.0,-0.0,-1.0,0.2170869302063313,1.0,2.0
29.037906646728516,-27.06123733520508,1.4389783143997192,-0.0,-0.0,-1.0,0.1220444301284119,1.0,2.0
29.283470153808594,-27.54781913757324,1.1714072227478027,0.5570888494049592,0.420025171187794,-0.7164013326602086,0.0963390715166422,4.0,2.0
28.472610473632812,-27.9719181060791,1.2130813598632812,-0.0,-0.0,-1.0,0.1744034343409203,1.0,2.0
27.73227882385254,-28.8560733795166,1.256208896636963,-0.0,-0.0,-1.0,0.0922142124004685,1.0,2.0
28.37480926513672,-28.93480682373047,1.3124221563339231,-0.0,-0.0,-1.0,0.1609785060583519,1.0,2.0
27.835309982299805,-29.250797271728516,1.2113711833953855,-0.0,-0.0,-1.0,0.0777682423970689,2.0,2.0
29.790563583374023,-28.602819442749023,1.2528406381607056,-0.0,-0.0,-1.0,0.1779933002291195,1.0,2.0
28.946704864501953,-29.283130645751953,1.31242835521698,-0.0,-0.0,-1.0,0.164738642487417,2.0,2.0
30.137691497802734,-28.82460594177246,1.2401522397994995,-0.0,-0.0,-1.0,0.2017400123957004,1.0,2.0
29.99024200439453,-29.064558029174805,1.1797215938568115,0.8778853266817181,0.3877300402043984,-0.281038732419623,0.206128915243666,3.0,2.0
29.92435646057129,-29.280696868896484,1.261923909187317,-0.0,-0.0,-1.0,0.1775648369854227,2.0,2.0
29.72389030456543,-29.11235618591309,1.6534439325332642,-0.0,-0.0,-1.0,0.048787728222793,1.0,2.0
29.48140525817871,-29.136987686157227,1.6361994743347168,-0.0,-0.0,-1.0,0.0285809992250039,2.0,2.0
29.18202018737793,-29.338726043701172,1.591524362564087,-0.0,-0.0,-1.0,0.0496558526206065,2.0,2.0
27.95946502685547,-27.59061813354492,1.0443329811096191,0.4993207612188419,-0.2035316567707837,-0.8421719789377797,0.0678986451962835,3.0,2.0
27.792726516723633,-27.56943702697754,1.015776515007019,-0.0,-0.0,-1.0,0.0485984910950942,1.0,2.0
28.560569763183594,-27.918357849121097,1.0955924987792969,-0.6910801116088022,-0.7224115337496034,-0.0230185847590853,0.1686648501162539,4.0,2.0
28.43812370300293,-27.84575653076172,1.087793469429016,-0.0,-0.0,-1.0,0.0863951966732305,2.0,2.0
28.703716278076172,-28.125904083251953,1.080601453781128,-0.0,-0.0,-1.0,0.0617890716900983,2.0,2.0
28.8892822265625,-28.481679916381836,1.0402498245239258,-0.0,-0.0,-1.0,0.0561997467320898,1.0,2.0
28.187744140625,-28.91876983642578,1.1124502420425415,-0.0,-0.0,-1.0,0.1033090007057893,1.0,2.0
28.03605079650879,-28.938966751098633,1.088556170463562,-0.0,-0.0,-1.0,0.1046201291867853,1.0,2.0
29.79905128479004,-28.664474487304688,1.1234670877456665,-0.0,-0.0,-1.0,0.2421798632310927,1.0,2.0
29.579936981201172,-28.57904815673828,1.1155898571014404,-0.0,-0.0,-1.0,0.0956234743612957,2.0,2.0
29.08460998535156,-28.828027725219727,0.9981085062026978,-0.0,-0.0,-1.0,0.0694429930740615,1.0,1.0
28.37472915649414,-29.16517639160156,1.0965514183044434,-0.0,-0.0,-1.0,0.1429031007627545,2.0,2.0
30.03002166748047,-28.832469940185547,1.1123422384262085,-0.0,-0.0,-1.0,0.2460936362249476,1.0,2.0
29.58525848388672,-29.117921829223633,0.9999115467071532,-0.0,-0.0,-1.0,0.1240714463046344,1.0,1.0
29.17442321777344,-29.26097297668457,1.04929518699646,-0.0,-0.0,-1.0,0.1503697076562439,1.0,2.0
28.96285629272461,-29.34638023376465,1.0073140859603882,-0.0,-0.0,-1.0,0.125957860025497,1.0,2.0
29.146076202392575,-26.935392379760746,1.3729956150054932,0.5489780981869532,0.3193383934256262,-0.7724286622047218,0.1721283128942269,4.0,2.0
28.356006622314453,-27.954124450683594,1.2879865169525146,0.2832887351226075,0.2214503557760102,-0.9331169446962752,0.1546310990574347,3.0,2.0
29.075252532958984,-27.966487884521484,1.1698448657989502,0.2376162162794577,0.1258338490217991,-0.963174115205238,0.0346888351621531,3.0,2.0
28.469633102416992,-28.20732307434082,1.2652066946029663,-0.0,-0.0,-1.0,0.1227192894397756,2.0,2.0
29.686870574951172,-28.251007080078125,1.198658466339111,-0.0,-0.0,-1.0,0.1558408193539652,2.0,2.0
28.37904357910156,-28.83488655090332,1.4065569639205933,-0.0,-0.0,-1.0,0.1558361473978547,2.0,2.0
29.723159790039062,-28.36550521850586,1.1790058612823486,-0.0,-0.0,-1.0,0.194422073288828,1.0,2.0
28.48963165283203,-29.306488037109375,1.3533384799957275,-0.0,-0.0,-1.0,0.1101060836341689,1.0,2.0
29.99588966369629,-29.025144577026367,1.29989492893219,-0.0,-0.0,-1.0,0.1517244703393804,1.0,2.0
29.60986328125,-29.148712158203125,1.3607609272003174,-0.0,-0.0,-1.0,0.149972411950657,1.0,2.0
29.33461570739746,-29.293540954589844,1.311763882637024,-0.0,-0.0,-1.0,0.1105421345478344,1.0,2.0
30.15009880065918,-29.353731155395508,1.249677300453186,-0.0,-0.0,-1.0,0.2782545426884044,2.0,2.0
29.08348846435547,-26.9060115814209,1.5543838739395142,-0.0,-0.0,-1.0,0.1115479950276801,2.0,2.0
29.482406616210938,-29.112865447998047,1.7144505977630615,-0.0,-0.0,-1.0,0.025037232021889,1.0,2.0
29.12609100341797,-29.317495346069336,1.6648460626602173,-0.2231640750221664,-0.8176582103908505,-0.5306909143747729,0.0664044740811988,3.0,2.0
30.208215713500977,-29.356658935546875,1.72827410697937,-0.0,-0.0,-1.0,0.1352051468163274,2.0,2.0
27.917802810668945,-27.708654403686523,1.1350107192993164,-0.0,-0.0,-1.0,0.0823555690742897,2.0,2.0
28.770599365234375,-27.884979248046875,1.1193513870239258,-0.0,-0.0,-1.0,0.084966132726528,1.0,2.0
28.516260147094727,-27.898996353149418,1.181516170501709,-0.0,-0.0,-1.0,0.1550968318318716,1.0,2.0
28.150657653808594,-27.92735481262207,1.224884033203125,-0.0,-0.0,-1.0,0.1881807966247836,1.0,2.0
29.198566436767575,-28.089019775390625,1.1207382678985596,-0.0,-0.0,-1.0,0.0287595605768113,1.0,2.0
28.96505355834961,-28.115081787109375,1.0847909450531006,-0.0,-0.0,-1.0,0.0242622961197718,1.0,2.0
28.50157356262207,-28.365718841552734,1.172644019126892,-0.0,-0.0,-1.0,0.1118734044487644,1.0,2.0
28.256467819213867,-28.38554954528809,1.1381181478500366,-0.0,-0.0,-1.0,0.1288185935153543,1.0,2.0
29.724411010742188,-28.40520477294922,1.087180495262146,0.2747278860253614,0.9425250518778095,0.1901870532469769,0.2365442594275834,3.0,2.0
29.54829788208008,-28.501976013183594,1.144418716430664,-0.0,-0.0,-1.0,0.0916543548414169,1.0,2.0
29.132211685180664,-28.598342895507812,0.9736690521240234,-0.0,-0.0,-1.0,0.0336423924464974,1.0,1.0
28.613401412963867,-28.714601516723633,1.1047561168670654,-0.0,-0.0,-1.0,0.0381157443319945,1.0,2.0
28.198566436767575,-28.856136322021484,1.1410084962844849,-0.0,-0.0,-1.0,0.149492706719479,1.0,2.0
27.821758270263672,-29.00531768798828,1.1903645992279053,-0.0,-0.0,-1.0,0.1056501804941074,1.0,2.0
29.952537536621097,-28.738773345947266,1.1135733127593994,-0.0,-0.0,-1.0,0.1964817372112953,1.0,2.0
29.65225601196289,-28.836162567138672,0.9581820964813232,-0.0,-0.0,-1.0,0.1112456030419796,1.0,1.0
29.26961326599121,-28.879545211791992,1.0213992595672607,-0.0,-0.0,-1.0,0.0476815214563671,1.0,2.0
28.773847579956055,-29.07647705078125,1.0354548692703247,-0.0,-0.0,-1.0,0.0806975999313339,1.0,2.0
28.40715980529785,-29.22344207763672,1.0851657390594482,-0.0,-0.0,-1.0,0.1370029457317227,2.0,2.0
27.91773223876953,-29.270727157592773,1.1483639478683472,-0.0,-0.0,-1.0,0.0918497173101368,2.0,2.0
29.973777770996097,-29.059417724609375,1.1353837251663208,0.8778853266817181,0.3877300402043984,-0.281038732419623,0.2349027495976682,3.0,2.0
29.60464096069336,-29.324989318847656,1.1587824821472168,-0.6708707276474685,0.736827854496418,-0.0837686076281653,0.1316335032425296,4.0,2.0
29.290525436401367,-29.348838806152344,1.1308704614639282,-0.0,-0.0,-1.0,0.1204429594714164,1.0,2.0
28.271514892578125,-29.360986709594727,1.4076905250549316,-0.0,-0.0,-1.0,0.1650967113094059,1.0,2.0
29.98065185546875,-29.106342315673828,1.338435173034668,-0.0,-0.0,-1.0,0.1277945179243187,1.0,2.0
29.762306213378903,-29.256731033325195,1.403569221496582,-0.0,-0.0,-1.0,0.1173176595357235,1.0,2.0
30.146326065063477,-29.283918380737305,1.735395431518555,-0.0,-0.0,-1.0,0.1492436577532804,1.0,2.0
29.43285369873047,-29.123760223388672,1.737017273902893,-0.0,-0.0,-1.0,0.0329782594158693,2.0,2.0
29.055999755859375,-29.304229736328125,1.6952002048492432,-0.0,-0.0,-1.0,0.0614707752530729,2.0,2.0
27.799205780029297,-28.878177642822266,1.1357277631759644,-0.4952057991715977,0.0738385390340152,-0.865632188992612,0.1297426963443988,3.0,2.0
29.787511825561523,-28.705615997314453,1.3421205282211304,-0.0,-0.0,-1.0,0.1545310378509176,1.0,2.0
28.315250396728516,-29.05377769470215,1.144870400428772,-0.0,-0.0,-1.0,0.0942083153952986,1.0,2.0
28.022607803344727,-29.00745391845703,1.1267238855361938,-0.0,-0.0,-1.0,0.1112831491941368,2.0,2.0
29.38646697998047,-29.23902130126953,1.1705111265182495,-0.013508921996835,0.8616064672833995,-0.5073970876561116,0.1622391146212089,4.0,2.0
28.822124481201172,-29.32694435119629,1.215329647064209,-0.0,-0.0,-1.0,0.0708669593148192,2.0,2.0
29.753341674804688,-29.110679626464844,1.607279896736145,-0.5016416516060266,0.290826058414481,-0.8147244056250403,0.0957154617037509,3.0,2.0
