x,y,z,nx,ny,nz,curvature,density,label
41.65283966064453,-6.201894283294678,-0.3428853750228882,0.3728997981411135,0.6948898798466765,-0.614877057169145,0.1230722786568797,4.0,0.0
41.671875,-6.478797435760498,-0.4106103181838989,-0.0,-0.0,-1.0,0.0611274450793722,1.0,0.0
41.594032287597656,-6.84208345413208,-0.4871958494186401,-0.0,-0.0,-1.0,0.139456306337344,1.0,0.0
42.011077880859375,-6.463354110717773,-0.4520901441574096,-0.0,-0.0,-1.0,0.0855490662826128,2.0,0.0
41.77326202392578,-6.850643157958984,-0.510940670967102,-0.0,-0.0,-1.0,0.1377491024753871,1.0,0.0
42.684444427490234,-6.0174641609191895,-0.4563484191894531,-0.0,-0.0,-1.0,0.1341027543115266,1.0,0.0
42.43692779541016,-6.1624674797058105,-0.4478192329406738,-0.0,-0.0,-1.0,0.198618352392781,2.0,0.0
42.23789596557617,-6.44701623916626,-0.4805319309234619,-0.0,-0.0,-1.0,0.0657492079990756,2.0,0.0
42.55217361450195,-6.776806831359863,-0.3409261703491211,-0.0,-0.0,-1.0,0.0811004632615016,2.0,0.0
41.51771545410156,-6.100665092468262,-0.3015247583389282,-0.0,-0.0,-1.0,0.1713897897461048,1.0,0.0
42.53631591796875,-6.644274711608887,-0.3134047985076904,0.3795412312370714,-0.0417399516049101,-0.9242327792450707,0.0600845300388998,4.0,0.0
41.640193939208984,-6.676456451416016,-0.4650908708572387,-0.7265500470020224,0.2733509475216224,-0.6304001020704155,0.1032348819547166,6.0,0.0
42.53229522705078,-5.924657821655273,-0.4513881206512451,-0.6325536261331969,-0.6530161312855873,-0.4164682969285276,0.0962977317268338,3.0,0.0
42.32841873168945,-6.223728179931641,-0.4775418043136596,-0.0,-0.0,-1.0,0.1169967872071045,1.0,0.0
42.138702392578125,-6.393363952636719,-0.4815304279327392,0.8345596211954555,0.4790477477341966,-0.2720725896904929,0.0691235397705263,4.0,0.0
41.79575729370117,-6.6788835525512695,-0.490304946899414,-0.0,-0.0,-1.0,0.0821427350594199,2.0,0.0
42.68022537231445,-5.977786064147949,-0.4923304319381714,-0.0,-0.0,-1.0,0.0988960097294505,1.0,0.0
40.755558013916016,-6.802521705627441,-0.3738389015197754,-0.6447524371306577,-0.1397419895466645,-0.7515094617977988,0.1182016325113854,3.0,0.0
41.72982406616211,-6.2116289138793945,-0.3684521913528442,-0.5925050612957425,0.5801159208220178,-0.5589304704055337,0.1875299643142775,3.0,0.0
42.4467887878418,-5.879941940307617,-0.4250509738922119,-0.3080435508682525,-0.9192696695644366,0.2450560045935829,0.1186359223327986,4.0,0.0
42.329193115234375,-5.997058868408203,-0.4274885654449463,-0.75052602589263,0.6526872135682212,-0.1034895439277143,0.1600957510316171,3.0,0.0
42.68879318237305,-6.367683410644531,-0.3371573686599731,-0.0,-0.0,-1.0,0.1084554180561067,2.0,0.0
42.4613037109375,-6.659773826599121,-0.3557863235473633,-0.0,-0.0,-1.0,0.0691825836236937,2.0,0.0
42.704586029052734,-6.809317588806152,-0.319597840309143,-0.0,-0.0,-1.0,0.0860814591454256,2.0,0.0
40.91597366333008,-6.83549690246582,-0.5038586854934692,-0.0,-0.0,-1.0,0.0907503154294858,1.0,0.0
41.32600021362305,-6.722855091094971,-0.5857096910476685,-0.0,-0.0,-1.0,0.0548439003029542,1.0,0.0
41.259029388427734,-6.828143119812012,-0.5811102390289307,-0.0,-0.0,-1.0,0.0631047144433164,1.0,0.0
40.70698928833008,-6.610365867614746,-0.432716965675354,-0.0,-0.0,-1.0,0.106201127928952,1.0,0.0
42.119632720947266,-6.6436567306518555,-0.4625821113586426,-0.0,-0.0,-1.0,0.0669548259716789,1.0,0.0
41.985076904296875,-6.746123313903809,-0.4447697401046753,-0.0,-0.0,-1.0,0.0534644335021411,1.0,0.0
40.2940673828125,-6.074070453643799,-0.665406346321106,-0.0,-0.0,-1.0,0.0672382129231677,1.0,0.0
40.65830993652344,-6.080406188964844,-0.4939550161361694,-0.0,-0.0,-1.0,0.2224888095805894,1.0,0.0
40.333038330078125,-6.035053253173828,-0.5415629148483276,-0.0,-0.0,-1.0,0.1416861652108096,2.0,0.0
41.21599578857422,-6.024374485015869,-0.6211241483688354,-0.0,-0.0,-1.0,0.0852894366736885,1.0,0.0
40.812408447265625,-6.231750965118408,-0.5405315160751343,-0.7996212485463097,-0.0167969756104228,-0.6002697064516781,0.0605834802114401,3.0,0.0
40.724609375,-6.467340469360352,-0.5374463796615601,-0.0,-0.0,-1.0,0.0999091494082506,1.0,0.0
40.243507385253906,-6.480109691619873,-0.4265416860580444,-0.0,-0.0,-1.0,0.1238864477904875,1.0,0.0
41.77214050292969,-6.288631916046143,-0.4614390134811401,-0.8658731649529923,-0.4409181676891542,-0.2363362680925782,0.183189917217719,5.0,0.0
41.936466217041016,-6.40275764465332,-0.5012292861938477,-0.0,-0.0,-1.0,0.1218184348033581,1.0,0.0
41.71821594238281,-6.617152690887451,-0.4725798368453979,-0.0,-0.0,-1.0,0.0654369617808862,1.0,0.0
41.52574920654297,-6.672441005706787,-0.4383977651596069,-0.0,-0.0,-1.0,0.1870385704816797,2.0,0.0
42.68035888671875,-6.497439861297607,-0.3175911903381347,-0.0,-0.0,-1.0,0.0574818869849575,2.0,0.0
42.678462982177734,-6.758514881134033,-0.2707319259643554,-0.0,-0.0,-1.0,0.0857682665261576,2.0,0.0
42.33108139038086,-4.428816318511963,-0.7468312978744507,-0.0,-0.0,-1.0,0.0339817137939635,1.0,0.0
41.89614486694336,-4.38802433013916,-0.6756504774093628,-0.0,-0.0,-1.0,0.1314708107767129,2.0,0.0
41.889183044433594,-4.669215679168701,-0.6581028699874878,-0.0,-0.0,-1.0,0.1305111437058283,1.0,0.0
40.81997299194336,-4.417902946472168,-0.8377076387405396,-0.0,-0.0,-1.0,0.1477414281503275,1.0,0.0
40.765037536621094,-4.725462913513184,-0.8056803941726685,-0.0,-0.0,-1.0,0.1061793799522045,1.0,0.0
40.36434173583984,-4.982237339019775,-0.7072445154190063,-0.0,-0.0,-1.0,0.0368133138408926,2.0,0.0
41.97576904296875,-4.697964191436768,-0.6848949193954468,-0.0,-0.0,-1.0,0.0847036326658497,2.0,0.0
41.96377944946289,-5.162432670593262,-0.6557871103286743,-0.0,-0.0,-1.0,0.0491868719937032,2.0,0.0
41.991416931152344,-4.948461055755615,-0.6722894906997681,-0.0,-0.0,-1.0,0.0565314747358763,2.0,0.0
41.69763946533203,-4.5262932777404785,-0.6507418155670166,-0.0,-0.0,-1.0,0.2177293282761445,2.0,0.0
41.89628601074219,-5.390930652618408,-0.6330728530883789,-0.0,-0.0,-1.0,0.0445363551638616,1.0,0.0
41.52451705932617,-5.266663074493408,-0.5785014629364014,-0.0,-0.0,-1.0,0.0914558647109569,1.0,0.0
41.19772720336914,-5.486083030700684,-0.5142645835876465,-0.3061329595290593,-0.1757598050473925,-0.9356233761614134,0.1831975633655058,4.0,0.0
40.444671630859375,-4.571651458740234,-0.8000484704971313,-0.0,-0.0,-1.0,0.0891839460953913,2.0,0.0
40.470970153808594,-5.111433982849121,-0.770228385925293,-0.0914350062709466,0.008699209352935,-0.995773048131383,0.0321526840700968,3.0,0.0
40.404884338378906,-4.81520414352417,-0.7751086950302124,-0.0,-0.0,-1.0,0.0284659247320862,2.0,0.0
40.299652099609375,-5.633327007293701,-0.7096160650253296,-0.0,-0.0,-1.0,0.0460931053315995,1.0,0.0
40.308692932128906,-5.411578178405762,-0.7215288877487183,0.1338667668694582,-0.9745022297813348,-0.1800696889515965,0.0217737208099773,3.0,0.0
40.21755599975586,-5.8706889152526855,-0.6835917234420776,-0.0,-0.0,-1.0,0.031827744889608,1.0,0.0
42.28687286376953,-4.439031600952148,-0.6798297166824341,-0.0,-0.0,-1.0,0.0348986958098927,1.0,0.0
40.31667709350586,-4.937521934509277,-0.7472125291824341,-0.4274387296630846,-0.1143066136939128,-0.8967887880932939,0.036688540647922,4.0,0.0
40.30500793457031,-4.7755584716796875,-0.7454746961593628,-0.2290099615309773,0.5767517830699789,-0.784163132419001,0.038073491339215,3.0,0.0
42.06210708618164,-4.675068378448486,-0.642646074295044,-0.0,-0.0,-1.0,0.0913102572896749,1.0,0.0
41.898292541503906,-5.152014255523682,-0.6153641939163208,-0.0,-0.0,-1.0,0.0461056377116382,1.0,0.0
41.911102294921875,-4.9971923828125,-0.617537260055542,-0.0,-0.0,-1.0,0.0423230259588487,1.0,0.0
41.46349334716797,-4.491021633148193,-0.5508079528808594,-0.0,-0.0,-1.0,0.1900042093768734,1.0,0.0
41.71214294433594,-5.1845784187316895,-0.5863217115402222,-0.0,-0.0,-1.0,0.0660361079570962,1.0,0.0
40.23879623413086,-4.487335205078125,-0.7350882291793823,-0.0,-0.0,-1.0,0.0669812776331442,2.0,0.0
40.21558380126953,-4.400919437408447,-0.731702446937561,-0.0,-0.0,-1.0,0.0757066287530186,1.0,0.0
42.2140007019043,-4.813423156738281,-0.6910527944564819,-0.0,-0.0,-1.0,0.0622742222153269,1.0,0.0
42.040435791015625,-4.64432430267334,-0.6790786981582642,-0.0,-0.0,-1.0,0.062779024012609,2.0,0.0
41.895957946777344,-4.380259037017822,-0.6788530349731445,-0.0,-0.0,-1.0,0.1314708107767129,2.0,0.0
40.48626708984375,-5.069859504699707,-0.7712697982788086,-0.1427425276750288,0.2456996785079761,-0.9587785139301052,0.0367743865628554,4.0,0.0
40.359161376953125,-4.778524398803711,-0.7647535800933838,-0.0,-0.0,-1.0,0.0359916705908315,1.0,0.0
40.35870361328125,-4.512833595275879,-0.7783389091491699,-0.0,-0.0,-1.0,0.0690753764245028,2.0,0.0
40.30131149291992,-5.303158760070801,-0.729568600654602,-0.6313242416660341,-0.7447252393964725,-0.2163654771230235,0.0217519539669248,5.0,0.0
42.702510833740234,-4.906200408935547,-0.6059503555297852,-0.0,-0.0,-1.0,0.1291845950512358,1.0,0.0
42.65361022949219,-4.635435104370117,-0.615167498588562,-0.0,-0.0,-1.0,0.0408387483804982,2.0,0.0
42.61170196533203,-4.444377899169922,-0.6208209991455078,-0.0,-0.0,-1.0,0.0508569285057254,1.0,0.0
42.46430587768555,-5.266110420227051,-0.5545967817306519,-0.0,-0.0,-1.0,0.0578074710670636,1.0,0.0
42.46141815185547,-4.974583148956299,-0.5705931186676025,-0.4272333637587012,-0.8870517048617643,0.1749597833596699,0.030227288651823,3.0,0.0
42.386474609375,-6.095940113067627,-0.4993833303451538,-0.0,-0.0,-1.0,0.1520460603164919,2.0,0.0
42.25743865966797,-5.733462333679199,-0.5020469427108765,-0.0,-0.0,-1.0,0.0619262757827709,1.0,0.0
41.641868591308594,-4.610800743103027,-0.4844101667404175,0.1955493840814886,0.7686830239235624,-0.6090048005698133,0.2567342290199289,3.0,0.0
42.13516998291016,-6.599660873413086,-0.4406763315200805,-0.0,-0.0,-1.0,0.0575399944606026,2.0,0.0
42.022422790527344,-6.250300407409668,-0.4440991878509521,-0.0,-0.0,-1.0,0.0855958563110548,1.0,0.0
42.02216339111328,-6.810006141662598,-0.4154301881790161,-0.4715350191300512,-0.5738930091971765,-0.6695532389053411,0.0495190489586096,3.0,0.0
41.31018829345703,-5.471835136413574,-0.393032431602478,-0.0,-0.0,-1.0,0.1449557091323909,2.0,0.0
41.29789733886719,-5.422126770019531,-0.3941342830657959,-0.0,-0.0,-1.0,0.1715189531648504,2.0,0.0
40.66918182373047,-6.850519180297852,-0.2392220497131347,-0.0,-0.0,-1.0,0.0972871110993083,2.0,0.0
42.59879302978515,-5.739950180053711,-0.4568344354629516,-0.6648197402955592,-0.0875687804572808,-0.7418533693409838,0.0664343189831625,3.0,0.0
42.23333740234375,-6.478242874145508,-0.4167523384094238,-0.0,-0.0,-1.0,0.137623810939539,2.0,0.0
42.3739013671875,-6.085810661315918,-0.4307743310928345,-0.0,-0.0,-1.0,0.2244011506784378,2.0,0.0
42.127288818359375,-6.710447311401367,-0.4064159393310547,0.3751721416229804,0.282481393867662,-0.8828647270497383,0.0643851497507298,4.0,0.0
41.108665466308594,-4.647648811340332,-0.7688173055648804,-0.0,-0.0,-1.0,0.0723429614898959,2.0,0.0
40.75882339477539,-5.087581634521484,-0.7154842615127563,-0.0,-0.0,-1.0,0.0280331180382092,1.0,0.0
40.78483581542969,-4.854607582092285,-0.7183550596237183,-0.0,-0.0,-1.0,0.064877561474098,2.0,0.0
40.78183364868164,-4.403407096862793,-0.7177151441574097,-0.0,-0.0,-1.0,0.1310414534475777,1.0,0.0
40.34889602661133,-5.551837921142578,-0.6570032835006714,-0.0,-0.0,-1.0,0.0355258662794654,1.0,0.0
40.58427047729492,-5.3292646408081055,-0.6905189752578735,-0.0,-0.0,-1.0,0.0139298355973918,2.0,0.0
40.447147369384766,-4.640409469604492,-0.6649154424667358,-0.0,-0.0,-1.0,0.0856120937670011,1.0,0.0
42.15272903442383,-6.4407758712768555,-0.4067538976669311,0.6196719452447781,0.6779696421865045,-0.395428684531175,0.0753781843323362,3.0,0.0
42.30482864379883,-5.937833309173584,-0.421876311302185,-0.2420810332455399,-0.6469330262217063,-0.7231005690264644,0.1255223141313943,3.0,0.0
42.13066101074219,-6.5445876121521,-0.4050908088684082,-0.0,-0.0,-1.0,0.0647061603917019,2.0,0.0
41.896751403808594,-6.306529521942139,-0.3753541707992553,-0.0,-0.0,-1.0,0.1423483440334084,1.0,0.0
40.658634185791016,-6.807372093200684,-0.2368379831314087,-0.0,-0.0,-1.0,0.0855582579380827,2.0,0.0
40.24968338012695,-6.828902721405029,-0.1902225017547607,-0.0,-0.0,-1.0,0.0900113720958703,1.0,0.0
42.48088073730469,-4.741278648376465,-0.6349239349365234,-0.0,-0.0,-1.0,0.0295920101519143,2.0,0.0
42.518829345703125,-4.443243026733398,-0.628286600112915,0.0995777458296972,-0.2879094624722843,-0.9524664896753046,0.0518721840499241,3.0,0.0
42.12794876098633,-5.142136573791504,-0.6112954616546631,0.381561103391479,-0.825783825551777,0.4153218003377013,0.0448640967558031,3.0,0.0
42.177616119384766,-5.032469749450684,-0.6122548580169678,-0.0,-0.0,-1.0,0.0314518671818334,2.0,0.0
41.8168830871582,-5.672211647033691,-0.6010165214538574,-0.4013754113501108,0.3169521815243015,-0.8593247894658433,0.0317630443316549,4.0,0.0
41.92805480957031,-5.36016321182251,-0.5986223220825195,-0.5105979827341686,-0.3837702282777061,-0.7694219336069612,0.0329055036841694,3.0,0.0
41.778045654296875,-5.582635402679443,-0.5923264026641846,-0.0,-0.0,-1.0,0.0275536517861803,2.0,0.0
41.610469818115234,-4.667809009552002,-0.533358097076416,-0.0,-0.0,-1.0,0.2025688790643478,2.0,0.0
41.51810836791992,-5.881877422332764,-0.5787142515182495,0.2644688983720396,-0.7820584350958812,-0.564305596188148,0.0540992210788176,4.0,0.0
41.15650177001953,-5.939201354980469,-0.5422983169555664,-0.0,-0.0,-1.0,0.1026053117061094,2.0,0.0
40.71576690673828,-6.331965923309326,-0.5169545412063599,-0.0,-0.0,-1.0,0.0947651300850588,1.0,0.0
40.768165588378906,-6.056648254394531,-0.5067529678344727,-0.8923511096998368,0.3685291891177757,-0.2605680981733272,0.2583198071462175,4.0,0.0
40.23939514160156,-6.3946661949157715,-0.4702496528625488,-0.0495271259629215,0.6048288208979073,-0.7948139160867153,0.1582366771390761,3.0,0.0
40.43797302246094,-6.083130836486816,-0.4728062152862549,-0.0,-0.0,-1.0,0.1420850781552691,1.0,0.0
42.612831115722656,-5.302367210388184,-0.5571256875991821,-0.0,-0.0,-1.0,0.0539626377133768,2.0,0.0
42.64805221557617,-4.867769241333008,-0.5519429445266724,-0.3375062304881893,-0.0271781108681961,-0.940930866042394,0.0572267130989136,3.0,0.0
42.27088928222656,-5.625610828399658,-0.5285012722015381,-0.0,-0.0,-1.0,0.0898312851039839,2.0,0.0
42.33522033691406,-5.438501834869385,-0.5305629968643188,0.4633389709393952,-0.8841453865600035,-0.0600327696636089,0.0586884835317246,4.0,0.0
41.993778228759766,-6.171131610870361,-0.5154730081558228,-0.0,-0.0,-1.0,0.1171069201050224,2.0,0.0
41.970829010009766,-5.8653483390808105,-0.503687858581543,-0.0,-0.0,-1.0,0.0454049629967123,1.0,0.0
41.66131591796875,-4.701383113861084,-0.4412451982498169,-0.0,-0.0,-1.0,0.2165024252212533,2.0,0.0
41.57169723510742,-6.598013877868652,-0.486721396446228,-0.0,-0.0,-1.0,0.1185277863520156,1.0,0.0
41.66277313232422,-6.334289073944092,-0.4866199493408203,-0.0,-0.0,-1.0,0.1213689857749431,2.0,0.0
41.260032653808594,-5.453718662261963,-0.4167555570602417,0.3827480384258924,0.9093851090689336,-0.1628577983543175,0.2163037542826381,3.0,0.0
40.8902702331543,-6.444025993347168,-0.4118759632110595,0.096228287898898,0.0204998590908308,-0.995148166046294,0.1512383152846427,3.0,0.0
40.53114318847656,-4.438835144042969,-0.8186527490615845,-0.0,-0.0,-1.0,0.0816793228592106,2.0,0.0
41.20127868652344,-5.486700057983398,-0.4115194082260132,-0.3161304157127786,-0.1735023278408017,-0.9327156600460236,0.1821256962986195,4.0,0.0
40.69707107543945,-6.0607075691223145,-0.3779451847076416,-0.6148646015984076,0.5035104255828152,-0.6069751008325166,0.1859069533201326,7.0,0.0
40.303916931152344,-6.495819568634033,-0.3551839590072632,-0.0,-0.0,-1.0,0.1130278600163488,2.0,0.0
42.32625579833984,-4.8159379959106445,-0.6377495527267456,-0.0,-0.0,-1.0,0.0348874642371706,2.0,0.0
42.41114807128906,-4.672789573669434,-0.6411606073379517,-0.2525696870100138,-0.4890108746722343,-0.8349113232289761,0.0252014341074426,3.0,0.0
42.025142669677734,-5.251689434051514,-0.6246211528778076,0.6325008395562768,-0.2216091541310939,-0.7421806186946052,0.0582800869736526,3.0,0.0
42.12293243408203,-5.030684947967529,-0.6253197193145752,-0.0,-0.0,-1.0,0.0410527778168184,2.0,0.0
41.79084014892578,-5.488101959228516,-0.6114679574966431,-0.6498572374126875,-0.7187339262853653,-0.2471985319308613,0.0236795979204418,3.0,0.0
41.5028076171875,-4.632317066192627,-0.5444533824920654,-0.0,-0.0,-1.0,0.25705778752588,1.0,0.0
41.517433166503906,-5.856901168823242,-0.6017584800720215,0.2644688983720396,-0.7820584350958812,-0.564305596188148,0.0746235933039079,4.0,0.0
41.4560661315918,-5.699653625488281,-0.587765097618103,-0.0,-0.0,-1.0,0.0831762161662462,2.0,0.0
41.13883209228515,-5.8548102378845215,-0.5640588998794556,-0.0,-0.0,-1.0,0.1032745499454525,2.0,0.0
41.025291442871094,-5.795048713684082,-0.5497424602508545,-0.0,-0.0,-1.0,0.0538491854286035,1.0,0.0
40.68133544921875,-6.105320930480957,-0.5328515768051147,-0.0,-0.0,-1.0,0.1448267452146041,2.0,0.0
40.786865234375,-5.856359481811523,-0.5294625759124756,0.0477273157688756,0.0844776012283418,-0.9952816878754496,0.1590460868254642,4.0,0.0
40.28409194946289,-6.313584327697754,-0.5065858364105225,0.690393565340946,-0.7221919745018454,-0.0423730681086873,0.1988083811638951,4.0,0.0
42.67154312133789,-4.745771884918213,-0.5859034061431885,-0.0,-0.0,-1.0,0.0449689702930864,2.0,0.0
42.32279586791992,-5.252627849578857,-0.5771510601043701,-0.0,-0.0,-1.0,0.0396089533860942,2.0,0.0
42.097755432128906,-5.571030139923096,-0.5729053020477295,-0.0,-0.0,-1.0,0.1121547234730516,2.0,0.0
42.227142333984375,-5.3358683586120605,-0.5725178718566895,0.2709542595208599,-0.5073248657008154,-0.8180496744630807,0.0636298571263915,4.0,0.0
41.71753692626953,-5.950311183929443,-0.5595848560333252,-0.0,-0.0,-1.0,0.0821569379194886,2.0,0.0
41.88487243652344,-5.765147686004639,-0.5640980005264282,-0.0,-0.0,-1.0,0.037135304493366,2.0,0.0
41.56368637084961,-4.627262115478516,-0.4771841764450073,-0.9199413518771606,0.3859108471124844,-0.0691428028600723,0.2297089538568478,4.0,0.0
41.40704727172851,-6.1480326652526855,-0.5439437627792358,-0.0,-0.0,-1.0,0.117533601305875,2.0,0.0
41.50695037841797,-5.63159704208374,-0.5232757329940796,-0.0,-0.0,-1.0,0.060283095066336,2.0,0.0
41.44697189331055,-5.270911693572998,-0.4985792636871338,-0.0,-0.0,-1.0,0.1694299584124853,1.0,0.0
40.97153091430664,-6.278107166290283,-0.5145072937011719,-0.0,-0.0,-1.0,0.1023871559867729,1.0,0.0
40.66960144042969,-6.0112080574035645,-0.4724922180175781,-0.0,-0.0,-1.0,0.1397168573494328,2.0,0.0
40.60359954833984,-4.55211877822876,-0.7731921672821045,-0.0,-0.0,-1.0,0.1059803481924071,1.0,0.0
40.70456314086914,-4.415410041809082,-0.7755281925201416,-0.2364951131659025,-0.6099839290842838,-0.7562999852621619,0.1000992897199775,3.0,0.0
40.223876953125,-4.529713153839111,-0.7319082021713257,-0.0,-0.0,-1.0,0.0696449440307811,2.0,0.0
42.49668884277344,-5.9711012840271,-0.3976662158966064,-0.0,-0.0,-1.0,0.1177941427884324,1.0,0.0
41.70011901855469,-4.984533309936523,-0.538305401802063,-0.0,-0.0,-1.0,0.0794267800344157,1.0,0.0
41.41928482055664,-5.0793609619140625,-0.511543869972229,-0.0,-0.0,-1.0,0.2009875999645135,1.0,0.0
40.99029922485352,-5.419218063354492,-0.475268006324768,-0.0,-0.0,-1.0,0.1561035331398051,1.0,0.0
40.744041442871094,-5.679705619812012,-0.4565550088882446,-0.0,-0.0,-1.0,0.1793981533776446,1.0,0.0
40.83598709106445,-5.496346473693848,-0.4615874290466308,-0.0,-0.0,-1.0,0.1670272842138067,1.0,0.0
41.083213806152344,-5.086565017700195,-0.4779269695281982,-0.0,-0.0,-1.0,0.1320241176269992,1.0,0.0
40.66754913330078,-5.705990791320801,-0.4497021436691284,-0.0,-0.0,-1.0,0.1660056561206674,1.0,0.0
42.65662384033203,-6.225234031677246,-0.3244174718856811,-0.7347608187359843,0.1363955502959996,-0.6644718151358094,0.2007346971432613,3.0,0.0
41.50507736206055,-5.374344825744629,-0.653830885887146,-0.0,-0.0,-1.0,0.065338651867018,2.0,0.0
41.658294677734375,-5.118091583251953,-0.6605864763259888,-0.0,-0.0,-1.0,0.0668619628092224,1.0,0.0
41.59771728515625,-4.780274391174316,-0.6455761194229126,-0.4927424470540699,-0.5156003297552092,-0.7009715977323806,0.1264105436403856,4.0,0.0
41.339332580566406,-5.430413246154785,-0.6403589248657227,-0.0,-0.0,-1.0,0.1335419888846012,2.0,0.0
41.32167053222656,-5.220231056213379,-0.6325212717056274,-0.0,-0.0,-1.0,0.0800681899746548,1.0,0.0
41.81074523925781,-5.827485084533691,-0.5819783210754395,-0.0,-0.0,-1.0,0.0709139515528317,2.0,0.0
41.977989196777344,-5.599282264709473,-0.586408257484436,-0.0,-0.0,-1.0,0.0240776870969651,2.0,0.0
41.45417022705078,-6.307559013366699,-0.5736750364303589,-0.0,-0.0,-1.0,0.1188248770621314,1.0,0.0
42.640655517578125,-4.65891170501709,-0.6070730686187744,-0.0,-0.0,-1.0,0.0418182389254618,2.0,0.0
42.074729919433594,-5.317595481872559,-0.5839123725891113,0.4337527674289824,0.440961901900024,-0.7857551385898865,0.0278145811343718,3.0,0.0
42.146236419677734,-5.119293212890625,-0.5826771259307861,0.4077767877143503,-0.7969814028130036,0.4455768564137761,0.0519986332319488,4.0,0.0
41.58990478515625,-5.945014953613281,-0.5697335004806519,-0.0,-0.0,-1.0,0.0454249062487074,2.0,0.0
41.89235305786133,-5.52407169342041,-0.5771565437316895,0.3760787334702171,0.093387883888414,-0.9218695620174696,0.0211240453663882,4.0,0.0
41.24724197387695,-5.994258880615234,-0.5461000204086304,0.5806094875740678,-0.6589973159768739,-0.4781371774650603,0.0966797361292619,3.0,0.0
41.37245178222656,-5.950610160827637,-0.5536996126174927,-0.0,-0.0,-1.0,0.0526729311848297,2.0,0.0
41.31894302368164,-5.526247024536133,-0.5335153341293335,-0.0,-0.0,-1.0,0.1662551485622406,1.0,0.0
41.61334228515625,-4.652385711669922,-0.5248582363128662,-0.9578250028805216,0.2532329180246747,-0.1358099889022814,0.3025618332100772,3.0,0.0
40.89604187011719,-6.138811111450195,-0.5261180400848389,-0.0,-0.0,-1.0,0.0420819477406336,1.0,0.0
40.89315032958984,-5.866005897521973,-0.5149539709091187,-0.119906059696745,-0.5424394631274304,-0.8314938157857973,0.1168694130896983,3.0,0.0
40.40314865112305,-6.296357154846191,-0.4972512722015381,0.2369460782240735,0.0068680674024543,-0.971498525816888,0.1521646749533072,3.0,0.0
40.60057067871094,-6.280379295349121,-0.5106256008148193,-0.0,-0.0,-1.0,0.0910781345962003,1.0,0.0
40.63677978515625,-5.9279584884643555,-0.6165884733200073,-0.0,-0.0,-1.0,0.1307708682115505,2.0,0.0
40.48191833496094,-6.105795860290527,-0.5924398899078369,0.3186449008317455,-0.8490602884980791,-0.4213811263802466,0.1491087526356292,3.0,0.0
40.972938537597656,-4.44582462310791,-0.7164356708526611,-0.0,-0.0,-1.0,0.1246782968144107,1.0,0.0
40.999488830566406,-5.53647518157959,-0.6716859340667725,-0.6500558247270282,-0.2388792234176771,-0.7213626975092559,0.0566103794946809,3.0,0.0
40.89373397827149,-5.82602596282959,-0.647876501083374,-0.0,-0.0,-1.0,0.1444289432380932,1.0,0.0
41.15547180175781,-4.715460777282715,-0.7236204147338867,-0.0,-0.0,-1.0,0.0759806612858005,1.0,0.0
41.27229309082031,-5.085951805114746,-0.7196249961853027,-0.0,-0.0,-1.0,0.0794876433726658,1.0,0.0
41.10528564453125,-5.325194358825684,-0.6919326782226562,-0.6208505263559888,0.7831045103688097,-0.0359437026962819,0.0654736582319655,3.0,0.0
41.421905517578125,-5.381795883178711,-0.4639983177185058,-0.0,-0.0,-1.0,0.0844150614292928,1.0,0.0
41.8233642578125,-6.559543609619141,-0.430648922920227,-0.0,-0.0,-1.0,0.0692990707462627,2.0,0.0
42.03136444091797,-6.11143684387207,-0.4824616909027099,-0.0,-0.0,-1.0,0.0866237348944062,2.0,0.0
42.16206741333008,-6.431467056274414,-0.4757441282272339,0.8617640428851301,0.2148295116788331,0.4595769960541,0.0732789682535574,4.0,0.0
42.38712310791016,-5.54864501953125,-0.557581901550293,-0.0,-0.0,-1.0,0.0861761764130883,1.0,0.0
42.35152816772461,-6.042217254638672,-0.5216407775878906,-0.0,-0.0,-1.0,0.1491991368279984,1.0,0.0
42.559326171875,-4.871883392333984,-0.6200381517410278,-0.0,-0.0,-1.0,0.0429345062561418,1.0,0.0
42.49275207519531,-5.189422607421875,-0.5922991037368774,-0.0,-0.0,-1.0,0.0548028641582357,1.0,0.0
40.27732849121094,-4.396487236022949,-0.8163309097290039,-0.0,-0.0,-1.0,0.0749182979650353,2.0,0.0
40.26787567138672,-6.364784240722656,-0.5729767084121704,-0.0,-0.0,-1.0,0.1602717808454802,2.0,0.0
40.37312316894531,-6.30718994140625,-0.5843356847763062,-0.0,-0.0,-1.0,0.141572906718541,1.0,0.0
40.55052185058594,-6.165216445922852,-0.6047983169555664,-0.0,-0.0,-1.0,0.0788839000599006,1.0,0.0
40.84850311279297,-5.705503463745117,-0.6456968784332275,-0.0,-0.0,-1.0,0.1520445552021774,1.0,0.0
40.77955627441406,-5.929767608642578,-0.6328098773956299,-0.0,-0.0,-1.0,0.1293999638904172,2.0,0.0
41.031639099121094,-5.42936897277832,-0.6708971261978149,-0.6092329456535467,0.2418471134191807,-0.7552120176884849,0.0531807980612111,3.0,0.0
40.99517822265625,-5.607736587524414,-0.6622679233551025,-0.0,-0.0,-1.0,0.0674289750965356,2.0,0.0
40.83723449707031,-4.627420425415039,-0.6764123439788818,-0.0,-0.0,-1.0,0.1330333233048925,1.0,0.0
41.21587371826172,-5.22882080078125,-0.6941385269165039,-0.0,-0.0,-1.0,0.0853659873029999,2.0,0.0
41.38282012939453,-5.143770217895508,-0.7124007940292358,-0.0,-0.0,-1.0,0.047947504854166,1.0,0.0
40.69777297973633,-6.040855407714844,-0.3451176881790161,-0.5945891382013894,0.7416106121079047,-0.3106082045630277,0.149582995613999,5.0,0.0
41.603004455566406,-6.598606109619141,-0.4092932939529419,-0.0,-0.0,-1.0,0.0940662779745279,2.0,0.0
41.836692810058594,-6.247079849243164,-0.4360491037368774,0.2374865795589897,0.9630206184449146,0.1272454831392693,0.1261398746204458,3.0,0.0
41.999752044677734,-6.631444931030273,-0.4417661428451538,-0.0,-0.0,-1.0,0.0445770757659927,2.0,0.0
41.23060607910156,-5.4088134765625,-0.4026925563812256,0.0283063518708606,0.9096333562460108,-0.4144465075837661,0.1984906767518308,5.0,0.0
42.16892623901367,-5.953653335571289,-0.4699532985687256,-0.0,-0.0,-1.0,0.1158674180336611,1.0,0.0
42.213134765625,-6.316844940185547,-0.4661058187484741,-0.0,-0.0,-1.0,0.0712276304682084,1.0,0.0
42.19483184814453,-5.7104339599609375,-0.4772119522094726,-0.6934426138940836,-0.7041659939617758,0.1526027332113196,0.1169875001496441,3.0,0.0
42.47827911376953,-5.909971237182617,-0.4967988729476928,-0.0,-0.0,-1.0,0.1121756751848601,1.0,0.0
41.67707824707031,-4.713705062866211,-0.4547500610351562,-0.0,-0.0,-1.0,0.1396884951342226,2.0,0.0
42.502830505371094,-5.533964157104492,-0.506767749786377,-0.0,-0.0,-1.0,0.0510025683200694,2.0,0.0
40.26227569580078,-6.359343528747559,-0.4262330532073974,-0.0,-0.0,-1.0,0.1127548570678009,2.0,0.0
40.51226043701172,-6.368124961853027,-0.4460711479187011,-0.0,-0.0,-1.0,0.0965714170844272,1.0,0.0
40.931175231933594,-6.251687049865723,-0.4799298048019409,-0.0,-0.0,-1.0,0.0642887779367068,2.0,0.0
40.91168975830078,-6.427372932434082,-0.4775947332382202,-0.0,-0.0,-1.0,0.1469550685756302,2.0,0.0
41.22453308105469,-6.095795631408691,-0.5040316581726074,-0.0,-0.0,-1.0,0.0622237785556192,1.0,0.0
41.62694549560547,-6.143771171569824,-0.5359225273132324,-0.0,-0.0,-1.0,0.0756655510151173,1.0,0.0
41.26338195800781,-5.494328498840332,-0.510001540184021,-0.0,-0.0,-1.0,0.1667096310380861,2.0,0.0
41.705055236816406,-5.903801918029785,-0.5433200597763062,0.1266247851189284,0.988370682563786,-0.0841995109367054,0.0934475370337571,3.0,0.0
41.92719268798828,-5.52677059173584,-0.5629657506942749,0.2654661569347441,-0.5885052800559984,-0.7636682885052309,0.0180666736108521,3.0,0.0
41.96980285644531,-5.642277717590332,-0.5657893419265747,-0.0,-0.0,-1.0,0.0458551845590932,2.0,0.0
42.05769348144531,-5.202837944030762,-0.5750929117202759,-0.0894293685443867,0.0243691942424357,-0.995694998688718,0.0921603139862992,5.0,0.0
42.30017852783203,-4.997403144836426,-0.5956443548202515,-0.0,-0.0,-1.0,0.0354199703209275,2.0,0.0
41.77607727050781,-6.190890312194824,-0.3386143445968628,-0.0,-0.0,-1.0,0.1225289181691762,1.0,0.0
42.369991302490234,-6.54666805267334,-0.3815497159957886,-0.9840492606464069,0.0591671549294095,-0.1677685918127095,0.1344273112675116,3.0,0.0
42.39896774291992,-5.972220420837402,-0.3950566053390503,-0.0,-0.0,-1.0,0.0740735446586614,2.0,0.0
42.53559494018555,-6.312249183654785,-0.3999375104904175,0.418217166233606,-0.905935989316227,0.066139134626644,0.1359800765924286,4.0,0.0
40.24016571044922,-4.563823699951172,-0.7801773548126221,-0.0,-0.0,-1.0,0.0749512836421529,1.0,0.0
40.447540283203125,-4.550124168395996,-0.8020541667938232,-0.0,-0.0,-1.0,0.0798287267903152,2.0,0.0
40.40974426269531,-5.485626220703125,-0.7009902000427246,0.4425092605262888,-0.2318986758154988,-0.8662612530313791,0.0215637994973246,3.0,0.0
40.73651885986328,-5.228420257568359,-0.7330260276794434,-0.0,-0.0,-1.0,0.0197138889078297,1.0,0.0
40.80937194824219,-5.212220191955566,-0.7402360439300537,-0.0,-0.0,-1.0,0.0200179695028495,2.0,0.0
40.50453567504883,-4.679548263549805,-0.7095746994018555,-0.0,-0.0,-1.0,0.1056634192709642,1.0,0.0
40.76094055175781,-4.969000816345215,-0.7352534532546997,-0.0,-0.0,-1.0,0.0290847898234542,2.0,0.0
41.11289596557617,-4.848696708679199,-0.7703371047973633,-0.0,-0.0,-1.0,0.0766900838381637,2.0,0.0
41.166534423828125,-4.727538108825684,-0.7757134437561035,-0.0,-0.0,-1.0,0.0678803340348606,1.0,0.0
40.44266128540039,-6.100261688232422,-0.6254982948303223,-0.0,-0.0,-1.0,0.1544354707960259,2.0,0.0
40.79405975341797,-5.792799949645996,-0.6608153581619263,-0.0,-0.0,-1.0,0.220437329499845,2.0,0.0
41.018287658691406,-5.4908857345581055,-0.6836557388305664,-0.3445850482116489,0.4237480468424745,-0.8376746011108154,0.06159834981825,3.0,0.0
41.19847869873047,-5.107213020324707,-0.7024390697479248,-0.0,-0.0,-1.0,0.0896507499728169,2.0,0.0
41.45301818847656,-5.030527114868164,-0.728580117225647,-0.0,-0.0,-1.0,0.0632581260429562,2.0,0.0
41.62998580932617,-5.05098819732666,-0.7466636896133423,-0.0,-0.0,-1.0,0.0685494547062406,1.0,0.0
41.84943389892578,-6.079639434814453,-0.3515890836715698,-0.0,-0.0,-1.0,0.1741195625203153,1.0,0.0
42.23351287841797,-6.463949203491211,-0.3871989250183105,0.9141088946018212,-0.36711823386192,0.1721311452815587,0.1401704561751628,3.0,0.0
42.16724395751953,-6.729358673095703,-0.3920236825942993,0.4630429451450636,0.362891306191622,-0.8086415342053136,0.0909557111416516,3.0,0.0
42.57078170776367,-6.287741661071777,-0.4017466306686401,0.4679747965430586,-0.710673833533853,-0.5253020960654741,0.153247965916898,3.0,0.0
42.56836700439453,-5.973928451538086,-0.3915519714355469,-0.0,-0.0,-1.0,0.1094926867539714,1.0,0.0
40.53813934326172,-4.784252166748047,-0.7611343860626221,-0.0,-0.0,-1.0,0.0496899586831352,2.0,0.0
40.51677703857422,-5.016570091247559,-0.7752223014831543,-0.0,-0.0,-1.0,0.0339834216929526,2.0,0.0
40.68920135498047,-4.65323543548584,-0.7633581161499023,-0.0,-0.0,-1.0,0.1470951188648487,1.0,0.0
41.17369842529297,-4.633766174316406,-0.7973382472991943,-0.0,-0.0,-1.0,0.1259224148606668,1.0,0.0
41.446510314941406,-4.5,-0.8086938858032227,-0.0,-0.0,-1.0,0.170048156692515,1.0,0.0
40.37394714355469,-6.330713748931885,-0.5214442014694214,-0.0,-0.0,-1.0,0.1532330353328824,2.0,0.0
40.770774841308594,-5.989823818206787,-0.5333905220031738,0.312326076789249,0.4963750442488724,-0.8099779238993898,0.1834415763288058,7.0,0.0
40.68583679199219,-6.241784572601318,-0.5390377044677734,-0.0,-0.0,-1.0,0.0839366247390584,1.0,0.0
41.15763092041016,-5.905688762664795,-0.5570822954177856,-0.0,-0.0,-1.0,0.1026053117061094,2.0,0.0
41.433746337890625,-5.913764476776123,-0.577216625213623,-0.0,-0.0,-1.0,0.052894528125487,2.0,0.0
41.64692687988281,-5.919845104217529,-0.5928113460540771,-0.0,-0.0,-1.0,0.0683330690696665,2.0,0.0
41.94731140136719,-5.398451328277588,-0.592303991317749,-0.3637578906510021,-0.567735849565902,-0.7384823641136034,0.0309758406141623,4.0,0.0
41.83672332763672,-5.63956880569458,-0.5944505929946899,0.0133542057587065,0.1893700426194953,-0.9818149785712404,0.0247529186741805,3.0,0.0
42.082008361816406,-5.2164130210876465,-0.5946965217590332,-0.0,-0.0,-1.0,0.0928298908630628,2.0,0.0
42.361968994140625,-4.9442667961120605,-0.604468584060669,0.0056462524737132,-0.94031040619023,-0.3402711563494153,0.0340607366786025,3.0,0.0
40.39940643310547,-5.950822830200195,-0.628832221031189,-0.0,-0.0,-1.0,0.0983991473115112,1.0,0.0
40.806732177734375,-5.670025825500488,-0.6550359725952148,-0.0,-0.0,-1.0,0.1304045783583247,2.0,0.0
41.16663360595703,-5.275094985961914,-0.6736348867416382,-0.0,-0.0,-1.0,0.0832964797915591,2.0,0.0
41.036380767822266,-5.403054237365723,-0.6662952899932861,-0.6092329456535467,0.2418471134191807,-0.7552120176884849,0.0499942366832496,3.0,0.0
41.555999755859375,-4.880077362060547,-0.6956123113632202,-0.0,-0.0,-1.0,0.0897624571795068,1.0,0.0
41.52082061767578,-5.10713005065918,-0.6998939514160156,-0.0,-0.0,-1.0,0.0879479924712636,1.0,0.0
40.48417282104492,-4.471829891204834,-0.7966469526290894,-0.0,-0.0,-1.0,0.0641643157911407,1.0,0.0
42.62340545654297,-6.380260944366455,-0.3205729722976684,-0.0,-0.0,-1.0,0.1109678152551566,2.0,0.0
42.58940124511719,-6.7876152992248535,-0.3150241374969482,-0.0975465701882113,-0.990029130313927,0.1016217878919922,0.0866999275564597,6.0,0.0
40.25218200683594,-4.504931926727295,-0.6834793090820312,-0.0,-0.0,-1.0,0.0760787197188417,1.0,0.0
40.380706787109375,-4.6956048011779785,-0.7007879018783569,-0.0,-0.0,-1.0,0.064036039226015,1.0,0.0
40.607364654541016,-4.96942663192749,-0.7305183410644531,0.9557026892020484,0.2505037523392284,-0.1545323264431732,0.0396345734902148,3.0,0.0
40.486061096191406,-5.265767574310303,-0.7211695909500122,-0.9101172533627556,-0.1361345083772263,0.391348924567738,0.0202096862693268,3.0,0.0
40.93473052978515,-4.5057759284973145,-0.761481761932373,-0.0,-0.0,-1.0,0.0763437597046825,1.0,0.0
40.785308837890625,-4.800966262817383,-0.7483811378479004,-0.0,-0.0,-1.0,0.0806693692628714,2.0,0.0
41.10271072387695,-4.451810359954834,-0.779991865158081,-0.0,-0.0,-1.0,0.0974302774155039,2.0,0.0
41.120853424072266,-4.803060054779053,-0.7866921424865723,-0.5710058644284965,-0.1869155651251714,-0.7993840593245545,0.083616989111893,3.0,0.0
40.287471771240234,-4.727043151855469,-0.7188751697540283,-0.367056634227813,0.2502327704672741,-0.8959090287822876,0.0616952957949395,6.0,0.0
40.47747802734375,-5.044675350189209,-0.7506282329559326,-0.0,-0.0,-1.0,0.0347164580568218,2.0,0.0
40.30962371826172,-5.290755748748779,-0.7405469417572021,-0.6313242416660341,-0.7447252393964725,-0.2163654771230235,0.0217519539669248,5.0,0.0
40.52655029296875,-4.750364303588867,-0.7461667060852051,0.8378918608392976,0.5039153721012151,-0.209777327896399,0.0664253143935765,4.0,0.0
40.56144332885742,-5.027622222900391,-0.7593517303466797,-0.0,-0.0,-1.0,0.0389940388998443,2.0,0.0
42.60895538330078,-6.258253574371338,-0.3257778882980346,-0.0,-0.0,-1.0,0.1325890987759408,1.0,0.0
42.55883026123047,-6.5146989822387695,-0.3274726867675781,-0.0,-0.0,-1.0,0.0833336406810976,2.0,0.0
42.68403625488281,-6.364506721496582,-0.3339078426361084,-0.0803179707116837,0.6514522047266433,-0.7544263042455192,0.1084554180561067,3.0,0.0
40.24919128417969,-5.478837966918945,-0.6817629337310791,-0.0,-0.0,-1.0,0.0241607743326383,1.0,0.0
40.72869110107422,-5.047159194946289,-0.7397985458374023,-0.0,-0.0,-1.0,0.031631581650251,1.0,0.0
40.57794570922851,-5.248028755187988,-0.7217221260070801,-0.0,-0.0,-1.0,0.0226288181644442,1.0,0.0
42.58267974853515,-6.782108783721924,-0.2922101020812988,0.0917104579046873,-0.95866230222161,0.2693618054032067,0.0866999275564597,4.0,0.0
42.70391845703125,-6.329834938049316,-0.3060852289199829,0.9529900448219122,-0.1699805643130831,-0.2508317807338922,0.113484270647882,5.0,0.0
42.67667770385742,-6.685206413269043,-0.3013697862625122,0.5202303968138252,0.1906471296671194,-0.8324746279500768,0.0635242070658927,3.0,0.0
42.2794075012207,-5.638290882110596,-0.566216230392456,-0.0,-0.0,-1.0,0.1170580395202175,2.0,0.0
42.55107116699219,-4.95033597946167,-0.5869030952453613,-0.0,-0.0,-1.0,0.0460620920723769,2.0,0.0
40.6865234375,-6.061101913452148,-0.3714179992675781,-0.7439414152156236,0.6022260756671608,-0.2896116788278854,0.1859069533201325,7.0,0.0
40.86098098754883,-6.367710113525391,-0.4022421836853027,-0.0,-0.0,-1.0,0.0878618143201358,1.0,0.0
40.80971908569336,-6.633808612823486,-0.4033803939819336,-0.0,-0.0,-1.0,0.0994242582932064,1.0,0.0
41.264373779296875,-5.519499778747559,-0.4320998191833496,0.2433838429948127,0.968591779768159,0.0509339683769742,0.212077135803329,3.0,0.0
41.607421875,-6.313465595245361,-0.4964311122894287,-0.0,-0.0,-1.0,0.1084461201470559,2.0,0.0
41.89334487915039,-5.847898006439209,-0.5212936401367188,-0.0,-0.0,-1.0,0.0412899385031832,1.0,0.0
41.83864974975586,-6.104485511779785,-0.5206208229064941,-0.0,-0.0,-1.0,0.1575559995735593,1.0,0.0
42.37408447265625,-5.073375225067139,-0.5662918090820312,-0.0,-0.0,-1.0,0.036668785699576,1.0,0.0
42.24797821044922,-5.3358869552612305,-0.5554349422454834,0.5836308849821026,0.3914753927309977,-0.7114225235267145,0.0626512057166902,3.0,0.0
40.8659553527832,-5.725703239440918,-0.5884236097335815,-0.0,-0.0,-1.0,0.1551976416151516,2.0,0.0
40.73637771606445,-6.018716335296631,-0.5778425931930542,0.0379330262666712,0.5790653038537058,-0.8143982191723328,0.1821516965809971,5.0,0.0
41.187835693359375,-5.354623317718506,-0.6257933378219604,-0.0993082667810126,0.7309548075982063,-0.6751614158095981,0.0798046143890765,3.0,0.0
41.209415435791016,-5.508631706237793,-0.632994532585144,-0.0,-0.0,-1.0,0.2181310692047617,1.0,0.0
41.64332580566406,-6.665891647338867,-0.4642008543014526,-0.5321438202549372,0.1655892037107053,-0.8303030592373701,0.0986556127918269,6.0,0.0
41.731224060058594,-6.8376922607421875,-0.4724522829055786,-0.0,-0.0,-1.0,0.1771261042660171,1.0,0.0
41.52361297607422,-4.413699150085449,-0.511232852935791,-0.0,-0.0,-1.0,0.1419079992152712,1.0,0.0
41.498878479003906,-4.72380256652832,-0.4983575344085693,-0.0,-0.0,-1.0,0.1951467200393446,1.0,0.0
41.58719253540039,-4.759735584259033,-0.5094485282897949,-0.0,-0.0,-1.0,0.1343625331455783,1.0,0.0
42.38977813720703,-4.694682598114014,-0.621873140335083,-0.2525696870100138,-0.4890108746722343,-0.8349113232289761,0.0308133389606744,3.0,0.0
42.27690505981445,-4.882493495941162,-0.6010968685150146,-0.658120868498606,0.0974582226056895,-0.7465780718003847,0.0609671352311816,3.0,0.0
42.567596435546875,-6.393082141876221,-0.2971812486648559,-0.0,-0.0,-1.0,0.1159120317314573,2.0,0.0
42.384063720703125,-6.845978736877441,-0.2772644758224487,-0.0,-0.0,-1.0,0.1003654393502017,2.0,0.0
42.57129669189453,-6.620975017547607,-0.2989267110824585,0.4300770200154193,-0.0207869701440413,-0.902552856472621,0.0518259557504037,5.0,0.0
42.48492431640625,-6.827678680419922,-0.2896522283554077,0.7880351562710767,-0.4551131365195061,-0.4145752349673067,0.0762998527503875,3.0,0.0
40.64653015136719,-4.63691520690918,-0.7376887798309326,-0.0,-0.0,-1.0,0.1169787426301175,1.0,0.0
40.80198669433594,-4.401742935180664,-0.7721350193023682,-0.0,-0.0,-1.0,0.1523998602838999,2.0,0.0
40.46290969848633,-5.781261444091797,-0.3891115188598633,-0.0,-0.0,-1.0,0.1541540580218122,1.0,0.0
41.57416534423828,-6.659937858581543,-0.394423246383667,-0.0,-0.0,-1.0,0.1485020367779032,1.0,0.0
41.629539489746094,-6.842700004577637,-0.3789105415344238,-0.0,-0.0,-1.0,0.135631510103568,1.0,0.0
41.50431823730469,-6.267766952514648,-0.4329957962036133,-0.0,-0.0,-1.0,0.1311048233760414,1.0,0.0
41.95074462890625,-4.895110130310059,-0.6388363838195801,-0.0,-0.0,-1.0,0.1139437068530222,1.0,0.0
41.956085205078125,-4.661395072937012,-0.6674251556396484,-0.0,-0.0,-1.0,0.1178806038136427,2.0,0.0
42.59407043457031,-6.555898666381836,-0.249976634979248,-0.0,-0.0,-1.0,0.0588730187245957,1.0,0.0
42.63569641113281,-6.751809120178223,-0.2323222160339355,-0.0,-0.0,-1.0,0.0853762687655326,2.0,0.0
42.65481948852539,-6.170627593994141,-0.2979745864868164,-0.0,-0.0,-1.0,0.1769751942907466,2.0,0.0
42.38493347167969,-6.815330505371094,-0.2999486923217773,-0.1701233731356297,-0.5831237322075395,-0.7943706633866239,0.0882538744693888,3.0,0.0
42.33263397216797,-6.711418151855469,-0.3050200939178467,-0.0,-0.0,-1.0,0.1672006537317746,1.0,0.0
42.421348571777344,-6.531851768493652,-0.33251953125,0.2067702886883419,0.2259438650285188,-0.9519429697054936,0.1319783377194103,3.0,0.0
41.75265121459961,-6.058285713195801,-0.312429666519165,-0.0,-0.0,-1.0,0.1853390270279808,1.0,0.0
42.42869567871094,-6.062066078186035,-0.3814954757690429,-0.0,-0.0,-1.0,0.2015109809769939,2.0,0.0
42.520538330078125,-6.179439544677734,-0.3788862228393554,0.769144395681767,0.6260968636284929,-0.1281390492624854,0.2627478282924328,3.0,0.0
42.33760070800781,-5.898324012756348,-0.3890993595123291,-0.2906691393869715,-0.5024051023252283,-0.8143098701143283,0.0775579484867326,3.0,0.0
42.61188507080078,-5.271669387817383,-0.4827280044555664,-0.0,-0.0,-1.0,0.0539626377133768,1.0,0.0
42.61141586303711,-4.580682754516602,-0.5560975074768066,-0.0,-0.0,-1.0,0.0408814438071853,2.0,0.0
42.694801330566406,-4.379753112792969,-0.5860474109649658,-0.0,-0.0,-1.0,0.0460381068004039,1.0,0.0
40.79876708984375,-4.9141845703125,-0.6988544464111328,0.1754049805828912,-0.133342658221571,-0.9754244349436404,0.0575867987027406,3.0,0.0
40.42171478271485,-4.5585527420043945,-0.7006235122680664,-0.0,-0.0,-1.0,0.0841416766218895,1.0,0.0
40.75472640991211,-4.6199750900268555,-0.7310483455657959,-0.0,-0.0,-1.0,0.1555873210706273,1.0,0.0
40.784278869628906,-5.57186222076416,-0.6150970458984375,-0.0,-0.0,-1.0,0.1211394997024168,1.0,0.0
40.91728973388672,-5.383347511291504,-0.6541328430175781,-0.4480008851734372,0.0808443562291403,-0.8903703706602734,0.0795293669138078,5.0,0.0
40.97349166870117,-6.817549705505371,-0.4579074382781982,-0.0,-0.0,-1.0,0.0681393141222389,1.0,0.0
40.93455505371094,-5.349658012390137,-0.6588635444641113,-0.0207378830252669,-0.1253907297743894,-0.991890671946398,0.054936504460828,4.0,0.0
40.7708854675293,-4.876928329467773,-0.7089612483978271,-0.1021712421333511,-0.3309486828013298,-0.9381012773858656,0.0550995992866223,3.0,0.0
40.751739501953125,-4.548496246337891,-0.7548427581787109,-0.0,-0.0,-1.0,0.161287868745177,2.0,0.0
40.75984954833984,-6.839595794677734,-0.3706269264221191,0.9080410835472974,0.3748501202657658,-0.1869459224668756,0.1182016325113854,4.0,0.0
41.63770294189453,-6.710556983947754,-0.4894247055053711,0.3816553585208131,0.5003312466642998,-0.7771794071665159,0.113931009723311,6.0,0.0
41.50325012207031,-6.3873395919799805,-0.5204563140869141,-0.0,-0.0,-1.0,0.112615310816683,1.0,0.0
40.8929443359375,-5.353636741638184,-0.6054301261901855,-0.0,-0.0,-1.0,0.130915754355531,1.0,0.0
41.08512115478515,-5.001224517822266,-0.6794319152832031,-0.0,-0.0,-1.0,0.1133522781026937,1.0,0.0
41.185279846191406,-4.995329856872559,-0.6911225318908691,-0.0,-0.0,-1.0,0.0833474910671138,2.0,0.0
40.50113677978515,-4.502118110656738,-0.6941285133361816,-0.0,-0.0,-1.0,0.0903645695249233,1.0,0.0
41.01804733276367,-4.6213788986206055,-0.7301254272460938,-0.0,-0.0,-1.0,0.090130277964873,1.0,0.0
40.91952896118164,-4.39811897277832,-0.753950834274292,-0.0,-0.0,-1.0,0.1571646150251685,1.0,0.0
41.52555465698242,-6.5901947021484375,-0.4339792728424072,-0.6510685405123784,0.6354699762190895,-0.4150754929879517,0.1298311584733651,5.0,0.0
41.666751861572266,-6.775789260864258,-0.4229285717010498,-0.0,-0.0,-1.0,0.1314962016499803,2.0,0.0
41.37895202636719,-6.290163993835449,-0.4618771076202392,-0.0,-0.0,-1.0,0.0901852721404929,2.0,0.0
41.118526458740234,-4.85378360748291,-0.6529178619384766,-0.0,-0.0,-1.0,0.074580947243617,1.0,0.0
40.54621887207031,-4.572195053100586,-0.6372592449188232,-0.0,-0.0,-1.0,0.1167769692438156,1.0,0.0
41.2020149230957,-4.400580406188965,-0.7331440448760986,-0.0,-0.0,-1.0,0.1328975139451282,1.0,0.0
40.68560028076172,-6.765766143798828,-0.3117988109588623,-0.0,-0.0,-1.0,0.1278319299245308,1.0,0.0
41.034912109375,-4.828086853027344,-0.6874685287475586,-0.6157172733560698,0.6861105016089043,-0.3874849918034825,0.0776441009214475,3.0,0.0
40.3341064453125,-4.564811706542969,-0.6569643020629883,-0.0,-0.0,-1.0,0.0821487971093828,1.0,0.0
40.67822265625,-4.418384552001953,-0.717796802520752,-0.0,-0.0,-1.0,0.1005290857518857,1.0,0.0
40.913368225097656,-6.444061279296875,-0.4096431732177734,-0.0,-0.0,-1.0,0.138845795146025,2.0,0.0
41.488243103027344,-6.501277923583984,-0.4668421745300293,0.2663555129209241,-0.4227637317230798,-0.8662133500911928,0.1296379081314919,4.0,0.0
41.62244415283203,-6.682056427001953,-0.4540722370147705,-0.1939031383788283,0.6028980312087959,-0.7738963347189333,0.1010898929257693,7.0,0.0
41.33263397216797,-6.255928993225098,-0.4878816604614258,-0.0,-0.0,-1.0,0.1433740043795114,1.0,0.0
40.70076370239258,-4.628383636474609,-0.6578130722045898,-0.4056054495378352,-0.0136488777169452,-0.913946348229631,0.1275836713231605,3.0,0.0
41.151947021484375,-4.556894302368164,-0.717627763748169,-0.0,-0.0,-1.0,0.0358170753587275,1.0,0.0
40.82019805908203,-6.553534507751465,-0.3391776084899902,-0.0,-0.0,-1.0,0.0875827934474747,1.0,0.0
41.637908935546875,-6.642045974731445,-0.4176373481750488,0.4241063131447621,0.7281682405049696,-0.5384281276741156,0.0784380800626558,3.0,0.0
41.89104843139648,-6.847991943359375,-0.413360595703125,-0.0,-0.0,-1.0,0.0928619454512883,1.0,0.0
41.63169860839844,-6.288470268249512,-0.4755678176879883,-0.4203949741580309,0.7862715498248769,-0.4528190760542829,0.1507119471667027,3.0,0.0
41.38191986083984,-5.7763776779174805,-0.5333318710327148,0.4601769807423472,-0.6618169930061601,-0.5918069061468796,0.063321087731321,3.0,0.0
41.539772033691406,-5.892389297485352,-0.5314366817474365,-0.0,-0.0,-1.0,0.045523470998019,2.0,0.0
42.591609954833984,-6.588367462158203,-0.2881867885589599,0.4422733955070578,0.047639405515949,-0.8956141639504952,0.0478587267337129,4.0,0.0
42.702728271484375,-6.625707626342773,-0.2972059249877929,-0.0,-0.0,-1.0,0.0480778007455131,1.0,0.0
42.511478424072266,-6.263217926025391,-0.3249273300170898,0.7277558135236559,0.3880545213517579,-0.5654955033782142,0.1690771752740504,4.0,0.0
42.556358337402344,-5.738589286804199,-0.4072511196136474,-0.8838797502553782,0.0071636723201392,-0.4676593513310509,0.082805900446114,3.0,0.0
42.473358154296875,-5.436916351318359,-0.4416604042053222,-0.0,-0.0,-1.0,0.0469138744095076,2.0,0.0
42.57928466796875,-4.837930679321289,-0.544215202331543,-0.0,-0.0,-1.0,0.0482396526995013,2.0,0.0
42.58658218383789,-4.585205078125,-0.5832934379577637,-0.3018173726804941,0.9459982637307486,0.1182943725062719,0.0371173360508632,3.0,0.0
42.45305633544922,-6.245538711547852,-0.3552267551422119,0.0732054866528447,0.5887453024120638,-0.8049968481998224,0.2048590604939905,3.0,0.0
42.33687973022461,-6.031517028808594,-0.3656966686248779,0.7776611431748987,0.0778366985166318,-0.6238466115640455,0.1211142448545827,3.0,0.0
42.45856094360352,-6.453052520751953,-0.3356451988220215,-0.0393775570516019,0.7932539662560725,-0.6076162876517202,0.1037059680362564,4.0,0.0
41.32593536376953,-6.474193572998047,-0.5279216766357422,-0.0,-0.0,-1.0,0.0687275213210423,2.0,0.0
41.444793701171875,-6.616353988647461,-0.524921178817749,-0.0,-0.0,-1.0,0.1000599059497108,1.0,0.0
40.81401824951172,-6.656610488891602,-0.4597828388214111,-0.0,-0.0,-1.0,0.0966920073200093,1.0,0.0
41.60292053222656,-6.710004806518555,-0.4879238605499267,0.0672321398959489,0.8194816600807556,-0.5691481776798561,0.1435525159893368,4.0,0.0
41.44158935546875,-6.427957534790039,-0.5040595531463623,-0.0,-0.0,-1.0,0.1317819486535603,1.0,0.0
42.190223693847656,-5.713764190673828,-0.5135188102722168,-0.0,-0.0,-1.0,0.1554016557920148,2.0,0.0
42.143463134765625,-6.666996002197266,-0.3893682956695556,-0.7136454738352046,0.3853268480892044,-0.5850071433890064,0.0825531506329144,5.0,0.0
42.06604766845703,-6.495080947875977,-0.4054112434387207,-0.0,-0.0,-1.0,0.0669636426570884,1.0,0.0
41.888946533203125,-6.107030868530273,-0.4421839714050293,-0.0,-0.0,-1.0,0.2019767154365859,1.0,0.0
42.011985778808594,-5.687917709350586,-0.5045366287231445,-0.0,-0.0,-1.0,0.0742548769641957,1.0,0.0
41.936492919921875,-6.367809295654297,-0.4123063087463379,-0.4967785413368131,-0.3182789057724215,-0.8074092017109896,0.1027340509286945,4.0,0.0
41.81941223144531,-6.290279388427734,-0.4139208793640136,-0.0810842980477289,0.4280376074072988,-0.9001161831981147,0.1839428311413941,3.0,0.0
41.61620330810547,-4.421636581420898,-0.7566807270050049,-0.0,-0.0,-1.0,0.1753768975503117,1.0,0.0
