x,y,z,nx,ny,nz,curvature,density,label
1.0565567016601562,25.430593490600582,-1.3134167194366455,-0.0,-0.0,-1.0,0.0530402076427685,1.0,0.0
1.1012687683105469,25.17031478881836,-1.3149759769439695,-0.0,-0.0,-1.0,0.0293442590317487,2.0,0.0
2.234376907348633,23.686115264892575,-1.2477290630340576,-0.0,-0.0,-1.0,0.0169553509675949,1.0,0.0
2.35986328125,23.48064422607422,-1.2413761615753174,0.6186673029518938,0.7813814321289724,0.0818158039886284,0.0136594916632788,3.0,0.0
1.1177692413330078,24.129419326782227,-1.1037654876708984,-0.0,-0.0,-1.0,0.0654048165175797,1.0,0.0
1.1542816162109375,23.950273513793945,-1.0993003845214844,-0.0,-0.0,-1.0,0.1081068609788028,2.0,0.0
1.6696701049804688,23.544036865234375,-1.0559813976287842,0.1336479308647581,0.1388728119193746,-0.9812505147439032,0.1010951216452463,4.0,0.0
1.5284423828125,23.68796157836914,-1.0681266784667969,-0.0,-0.0,-1.0,0.1324780936057311,2.0,0.0
1.768085479736328,23.352214813232425,-1.0467498302459717,0.336055380889353,0.3285867919139537,-0.8826649993938858,0.0940660156404695,4.0,0.0
1.7911605834960938,25.56288146972656,-1.332879662513733,-0.0,-0.0,-1.0,0.1158025583491581,2.0,0.0
1.670024871826172,25.287662506103516,-1.343652606010437,-0.0,-0.0,-1.0,0.0422738686949112,1.0,0.0
2.5525569915771484,24.702659606933594,-1.2577465772628784,-0.0,-0.0,-1.0,0.0553660786249447,1.0,0.0
2.4522876739501953,23.54338264465332,-1.2674556970596311,-0.0,-0.0,-1.0,0.0144223355402358,1.0,0.0
2.547191619873047,23.329246520996097,-1.2586709260940552,-0.0,-0.0,-1.0,0.0481134669967884,2.0,0.0
1.1046199798583984,24.024383544921875,-1.1114840507507324,-0.0,-0.0,-1.0,0.0709659523819952,1.0,0.0
1.1946544647216797,23.850019454956055,-1.104442834854126,-0.0,-0.0,-1.0,0.0874136906328117,2.0,0.0
1.650472640991211,23.531484603881836,-1.0651214122772217,0.1336479308647581,0.1388728119193746,-0.9812505147439032,0.1134565572565914,4.0,0.0
1.553081512451172,23.65496826171875,-1.0731070041656494,0.3043340839796021,0.3603761557223858,-0.8817651567821512,0.0900335077557911,3.0,0.0
1.734140396118164,23.25151634216309,-1.0597069263458252,-0.0,-0.0,-1.0,0.092211761019863,1.0,0.0
2.218576431274414,25.63475799560547,-1.33258855342865,-0.0,-0.0,-1.0,0.0584772586156405,2.0,0.0
2.196918487548828,25.278453826904297,-1.3386272192001345,-0.0,-0.0,-1.0,0.0147475973983122,1.0,0.0
2.1369361877441406,25.01114273071289,-1.348352313041687,-0.0,-0.0,-1.0,0.0145295998488033,1.0,0.0
1.7206687927246094,25.537593841552734,-1.286463975906372,-0.0,-0.0,-1.0,0.0950693554498219,2.0,0.0
1.2284622192382812,25.527671813964844,-1.3418066501617432,-0.0,-0.0,-1.0,0.03539805941427,2.0,0.0
1.277019500732422,25.4145450592041,-1.337956190109253,-0.0,-0.0,-1.0,0.0136091157766085,1.0,0.0
1.2241592407226562,25.290395736694336,-1.345736742019653,-0.0,-0.0,-1.0,0.0135909197643213,2.0,0.0
2.046541213989258,24.05010986328125,-1.2736947536468506,-0.0,-0.0,-1.0,0.0259410587951991,2.0,0.0
2.360342025756836,23.775175094604492,-1.2432630062103271,-0.0,-0.0,-1.0,0.0207709010556532,1.0,0.0
2.29891586303711,23.735322952270508,-1.2511229515075684,-0.0,-0.0,-1.0,0.0224193636311934,1.0,0.0
2.451486587524414,23.30992889404297,-1.2426323890686035,-0.0,-0.0,-1.0,0.0542049075022225,2.0,0.0
2.387327194213867,23.459461212158203,-1.2467420101165771,0.6186673029518938,0.7813814321289724,0.0818158039886284,0.0131771140952852,3.0,0.0
0.5480728149414062,24.90624237060547,-1.1720826625823977,-0.0,-0.0,-1.0,0.0385315932187166,1.0,0.0
1.2194862365722656,24.20992660522461,-1.1037955284118652,-0.0,-0.0,-1.0,0.0635980485624994,1.0,0.0
1.1700820922851562,23.99658203125,-1.1091792583465576,-0.0,-0.0,-1.0,0.0948788125369509,2.0,0.0
1.662353515625,23.57555389404297,-1.059788703918457,0.8580072851652127,-0.2085729779227395,-0.4693834375900602,0.1007534913214461,4.0,0.0
1.8032760620117188,23.321094512939453,-1.0462307929992676,0.6563091050406311,0.7396666790001543,-0.1488340102854488,0.090787228936757,3.0,0.0
0.5595149993896484,25.416515350341797,-1.238534688949585,-0.0,-0.0,-1.0,0.0459227515400999,2.0,0.0
0.3360214233398437,25.32501220703125,-1.2594618797302246,-0.0,-0.0,-1.0,0.0500659324035376,1.0,0.0
0.5521907806396484,25.004987716674805,-1.2314975261688232,-0.0,-0.0,-1.0,0.0375757292244156,1.0,0.0
1.6359539031982422,24.447717666625977,-1.1107845306396484,-0.0,-0.0,-1.0,0.0939540539616794,1.0,0.0
0.9709358215332032,24.345653533935547,-1.1773760318756104,-0.0,-0.0,-1.0,0.022448644947721,2.0,0.0
1.1999263763427734,24.058000564575195,-1.1493632793426514,-0.0,-0.0,-1.0,0.059632488012326,1.0,0.0
1.6539993286132812,23.587799072265625,-1.0956387519836426,-0.0,-0.0,-1.0,0.0930784160736882,2.0,0.0
1.3333683013916016,23.780834197998047,-1.1315419673919678,-0.0,-0.0,-1.0,0.1272964504777286,1.0,0.0
1.7848529815673828,23.453826904296875,-1.0802698135375977,-0.0,-0.0,-1.0,0.1122030271182828,1.0,0.0
2.056610107421875,24.51289749145508,-0.8534196615219116,-0.0,-0.0,-1.0,0.2021925689729096,2.0,0.0
1.280069351196289,23.605743408203125,-0.897842526435852,-0.0,-0.0,-1.0,0.0521701992402411,2.0,0.0
2.6866455078125,24.06947326660156,-0.782868504524231,-0.0,-0.0,-1.0,0.0531866674437438,2.0,0.0
1.3294925689697266,23.295063018798828,-0.8857742547988892,-0.0,-0.0,-1.0,0.0196517025311146,1.0,0.0
0.5188140869140625,24.84369659423828,-1.207477331161499,-0.0,-0.0,-1.0,0.03602872726611,2.0,0.0
1.4744033813476562,24.566184997558594,-1.0999233722686768,-0.0,-0.0,-1.0,0.1730605680108964,1.0,0.0
1.7174911499023438,24.36385154724121,-1.0702118873596191,-0.0,-0.0,-1.0,0.133050639945551,1.0,0.0
1.179208755493164,23.890289306640625,-1.1211869716644287,0.6719462376284221,-0.0495225394560995,-0.7389423332187884,0.1137793877021971,3.0,0.0
1.2063865661621094,23.36713409423828,-0.865135908126831,-0.0,-0.0,-1.0,0.0327484433943445,1.0,0.0
0.862396240234375,25.57466506958008,-1.3314136266708374,-0.0,-0.0,-1.0,0.0552992374866459,2.0,0.0
0.6437320709228516,25.329734802246097,-1.3289035558700562,-0.0,-0.0,-1.0,0.0621627749873842,1.0,0.0
0.5036163330078125,25.038986206054688,-1.317050576210022,-0.0,-0.0,-1.0,0.0332410524357511,1.0,0.0
0.948171615600586,25.52300262451172,-1.3202742338180542,-0.0,-0.0,-1.0,0.0449444390404379,1.0,0.0
0.7706031799316406,25.016651153564453,-1.2934743165969849,-0.0,-0.0,-1.0,0.0374588481855568,1.0,0.0
1.664899826049805,24.218475341796875,-1.157265305519104,-0.0,-0.0,-1.0,0.1397921772255006,1.0,0.0
1.4976425170898438,23.31236457824707,-1.1028879880905151,-0.0,-0.0,-1.0,0.1915031395662808,1.0,0.0
0.9357681274414062,25.567626953125,-1.136845588684082,-0.0,-0.0,-1.0,0.0567971208572079,1.0,0.0
0.74200439453125,25.283782958984375,-1.1266026496887207,-0.0,-0.0,-1.0,0.0624127153507421,1.0,0.0
0.5582714080810547,24.433788299560547,-1.0734894275665283,-0.0,-0.0,-1.0,0.0485690343718238,1.0,0.0
1.1233043670654297,24.308563232421875,-1.0242245197296145,-0.0,-0.0,-1.0,0.0892555593488893,1.0,0.0
1.5893840789794922,23.349021911621097,-0.9200940132141112,-0.0,-0.0,-1.0,0.0673513141596904,1.0,0.0
2.558107376098633,23.986888885498047,-0.9004721641540527,-0.0,-0.0,-1.0,0.0657133730638819,1.0,0.0
1.672922134399414,23.16846466064453,-0.9011220932006836,-0.0,-0.0,-1.0,0.1835086724079045,2.0,0.0
1.5503253936767578,23.6102352142334,-1.0923405885696411,0.9804962612683144,-0.1254582030992136,0.1512855608244672,0.091230781909266,3.0,0.0
1.505292892456055,23.39263916015625,-1.0605157613754272,-0.0,-0.0,-1.0,0.1771997543391535,1.0,0.0
1.7078495025634766,24.695083618164062,-1.364230394363403,-0.0,-0.0,-1.0,0.0435195312956653,2.0,0.0
2.25619125366211,25.43959045410156,-1.4181320667266846,-0.0,-0.0,-1.0,0.0187830964474218,1.0,0.0
2.2521934509277344,25.198509216308594,-1.3897664546966553,-0.0,-0.0,-1.0,0.0186063247316289,1.0,0.0
2.106220245361328,23.472570419311523,-1.2016115188598633,-0.0,-0.0,-1.0,0.0265727899594728,2.0,0.0
2.3432750701904297,25.273754119873047,-1.3933372497558594,-0.0,-0.0,-1.0,0.018340665656926,2.0,0.0
0.5457305908203125,24.45566177368164,0.0261555910110473,-0.0,-0.0,-1.0,0.1472895072087235,1.0,1.0
1.4087409973144531,23.30994415283203,-0.8421362638473511,-0.0,-0.0,-1.0,0.0263914428624178,1.0,0.0
1.5347347259521484,23.415800094604492,-0.9982690811157228,-0.0,-0.0,-1.0,0.1369901320042778,1.0,0.0
1.8389015197753904,23.261749267578125,-1.0954803228378296,-0.0,-0.0,-1.0,0.0742546475962931,1.0,0.0
1.6190662384033203,23.450342178344727,-1.107364296913147,-0.0,-0.0,-1.0,0.1796916074407177,1.0,0.0
1.540365219116211,23.371505737304688,-0.951707124710083,-0.0,-0.0,-1.0,0.1261838689507971,2.0,0.0
2.6536407470703125,24.192102432250977,-1.0964056253433228,-0.0,-0.0,-1.0,0.0712066358670938,1.0,0.0
0.9203987121582032,25.18738555908203,-1.2713576555252075,-0.0,-0.0,-1.0,0.0517601714738833,1.0,0.0
0.8340625762939453,25.60171890258789,-1.3073574304580688,-0.4735919260385993,-0.8605052948672226,-0.1877267298402756,0.0575427062608264,5.0,0.0
2.69820785522461,24.017921447753903,-0.8322238922119141,-0.0,-0.0,-1.0,0.0547056474492419,2.0,0.0
1.8621234893798828,24.396652221679688,-0.9038009643554688,-0.0,-0.0,-1.0,0.0649829232285794,2.0,0.0
1.342754364013672,24.27820205688477,-1.1995115280151367,-0.0,-0.0,-1.0,0.0411464116843928,1.0,0.0
0.7181758880615234,25.362564086914062,-1.292576551437378,-0.961184859388834,-0.0753793295918464,-0.2654084074628206,0.0676759767735869,4.0,0.0
2.222909927368164,24.72928237915039,-1.0056815147399902,-0.0,-0.0,-1.0,0.0501749140199601,1.0,0.0
1.8216571807861328,23.391752243041992,-1.0253067016601562,-0.0,-0.0,-1.0,0.0812539420171332,1.0,0.0
1.7987937927246094,23.75687599182129,-1.032151460647583,-0.0,-0.0,-1.0,0.1038348851449981,1.0,0.0
1.4983043670654297,23.21009063720703,-1.0531582832336426,-0.0,-0.0,-1.0,0.1447072058116415,1.0,0.0
0.6421642303466797,24.51428985595703,-0.2088072299957275,-0.0,-0.0,-1.0,0.1528126227455501,1.0,0.0
1.6719512939453125,23.199722290039062,-0.9736498594284058,-0.1969311556093917,0.6676057199418441,-0.7179977177201065,0.1697839611437306,3.0,0.0
1.612640380859375,23.4981632232666,-0.987265944480896,0.902842547813236,0.3498864142823208,0.2499096455896896,0.0980549872122369,3.0,0.0
1.1673622131347656,23.858932495117188,-1.0368002653121948,0.9774024225657348,-0.1621985878888054,-0.1355585572714268,0.0888956024155528,3.0,0.0
1.3534317016601562,23.512544631958008,-0.9375540018081664,-0.371314382012765,-0.4509333107115724,-0.8116555790488839,0.1153587786804844,5.0,0.0
1.4054832458496094,23.27887725830078,-0.9325367212295532,-0.0,-0.0,-1.0,0.1088527912233883,1.0,0.0
1.026407241821289,23.58108139038086,-0.8348000049591064,-0.0,-0.0,-1.0,0.1300348025646238,2.0,0.0
2.6937313079833984,25.400333404541016,-1.3580036163330078,-0.0,-0.0,-1.0,0.0210923814890398,2.0,0.0
2.428995132446289,25.54119873046875,-1.3945379257202148,-0.0,-0.0,-1.0,0.0250207534237992,2.0,0.0
2.3165454864501953,25.258285522460938,-1.4060335159301758,-0.0,-0.0,-1.0,0.0169491787875356,2.0,0.0
2.0998096466064453,24.506261825561523,-0.8231401443481445,-0.0,-0.0,-1.0,0.158269417562987,1.0,0.0
1.3148059844970703,23.45635223388672,-0.8953299522399902,-0.0,-0.0,-1.0,0.0238575873169082,2.0,0.0
1.173095703125,23.680904388427734,-0.9126598834991456,-0.0,-0.0,-1.0,0.1129557777948534,2.0,0.0
1.3395862579345703,23.187191009521484,-0.8904435634613037,-0.0,-0.0,-1.0,0.0380950521347761,2.0,0.0
1.801973342895508,25.231998443603516,-1.3578178882598877,-0.0,-0.0,-1.0,0.0400985664625449,1.0,0.0
1.6794300079345703,25.488664627075195,-1.3695728778839111,-0.0,-0.0,-1.0,0.0606870214712317,2.0,0.0
1.7196941375732422,25.116493225097656,-1.3739724159240725,-0.0,-0.0,-1.0,0.0429634041644579,1.0,0.0
2.4948196411132812,24.669660568237305,-1.2668156623840332,-0.0,-0.0,-1.0,0.0624484293161381,1.0,0.0
2.301746368408203,24.66689682006836,-1.2969932556152344,-0.0,-0.0,-1.0,0.1216025895728418,1.0,0.0
1.8483028411865232,24.96609115600586,-1.3584671020507812,-0.0,-0.0,-1.0,0.0149266107098869,2.0,0.0
2.397188186645508,23.849760055541992,-1.3093225955963137,-0.0,-0.0,-1.0,0.0284158346229419,1.0,0.0
2.6201343536376953,23.31875991821289,-1.2938966751098633,-0.0,-0.0,-1.0,0.0462617273583534,1.0,0.0
2.4631881713867188,23.62919807434082,-1.306956768035889,-0.0,-0.0,-1.0,0.017885421883578,2.0,0.0
2.6960182189941406,24.21293258666992,-0.5958588123321533,-0.0,-0.0,-1.0,0.0419567015395574,1.0,0.0
2.687713623046875,24.19038772583008,-0.8713302612304688,-0.0,-0.0,-1.0,0.0576271072961051,1.0,0.0
1.370553970336914,24.6748104095459,-1.0390686988830566,-0.0,-0.0,-1.0,0.2242962766479634,1.0,0.0
1.5420780181884766,23.555191040039062,-1.0683958530426023,0.2406799543672,0.4803363153820452,-0.8434157834016405,0.1200866220992365,4.0,0.0
1.066244125366211,23.950092315673828,-1.1176204681396484,-0.0,-0.0,-1.0,0.0894618880316645,2.0,0.0
1.6758975982666016,23.213871002197266,-1.0668914318084717,0.8343902629457713,0.0691551128808968,-0.5468184885898761,0.1451968050208161,3.0,0.0
0.4062080383300781,25.257925033569336,-1.275343418121338,-0.0,-0.0,-1.0,0.034828352646864,1.0,0.0
0.8035869598388672,24.918664932250977,-1.222612380981445,-0.0,-0.0,-1.0,0.0636388272386991,1.0,0.0
0.4977321624755859,24.71430397033691,-1.2740213871002195,-0.0,-0.0,-1.0,0.0404356239349954,1.0,0.0
1.1017475128173828,24.200912475585938,-1.1953158378601074,-0.0,-0.0,-1.0,0.0482533504044566,1.0,0.0
0.8232173919677734,24.47929954528809,-1.2303941249847412,-0.0,-0.0,-1.0,0.051756684977538,1.0,0.0
2.612175941467285,24.257722854614254,-0.9634134769439696,-0.0,-0.0,-1.0,0.0505882138243458,1.0,0.0
1.6545181274414062,24.508499145507812,-1.1029813289642334,-0.0,-0.0,-1.0,0.0594451807830265,1.0,0.0
2.630795478820801,24.13190269470215,-0.9635837078094482,-0.0,-0.0,-1.0,0.0607058729180839,2.0,0.0
1.740251541137695,23.63869857788086,-1.1137068271636963,-0.0,-0.0,-1.0,0.1333331812523776,1.0,0.0
1.2434024810791016,23.997055053710938,-1.179366111755371,-0.0,-0.0,-1.0,0.051144545686415,1.0,0.0
1.8054428100585935,23.38673973083496,-1.1117162704467771,-0.0,-0.0,-1.0,0.1015861248392689,1.0,0.0
2.0188655853271484,25.474428176879883,-1.3912049531936646,-0.0,-0.0,-1.0,0.0385461805474402,1.0,0.0
2.1796998977661133,25.53357696533203,-1.364481806755066,-0.0,-0.0,-1.0,0.0167529558671155,1.0,0.0
2.0864810943603516,25.171131134033203,-1.3777610063552856,0.4516329801560031,-0.5423124028633396,-0.7084665898516305,0.0120095307276909,3.0,0.0
2.4808273315429688,24.806737899780273,-1.3085864782333374,-0.0,-0.0,-1.0,0.0410777494895181,1.0,0.0
2.263093948364258,24.775375366210938,-1.3460291624069214,-0.0,-0.0,-1.0,0.039806837503392,1.0,0.0
2.4409570693969727,23.897937774658203,-1.3175040483474731,-0.0,-0.0,-1.0,0.0329231492992617,2.0,0.0
2.5099925994873047,23.511314392089844,-1.3089078664779663,-0.0,-0.0,-1.0,0.013025782169291,2.0,0.0
2.664073944091797,23.19975852966309,-1.2855747938156128,-0.0,-0.0,-1.0,0.0508957629491153,2.0,0.0
2.548429489135742,24.060951232910156,-0.7410076856613159,-0.0,-0.0,-1.0,0.071457273183215,1.0,0.0
1.2203521728515625,23.688343048095703,-0.936930537223816,-0.0,-0.0,-1.0,0.0986917732262458,1.0,0.0
1.0954551696777344,23.814617156982425,-0.9519351720809937,-0.0,-0.0,-1.0,0.1444734655501989,1.0,0.0
1.5822639465332031,23.258224487304688,-0.8954941034317017,-0.0,-0.0,-1.0,0.1152770224767075,2.0,0.0
1.3888168334960938,23.491722106933594,-0.9174450635910034,-0.0,-0.0,-1.0,0.0423295053303285,2.0,0.0
1.5929975509643557,23.19692039489746,-0.8955541849136353,-0.2067198547796968,-0.0382238879055133,-0.977653228927951,0.1657603102381888,3.0,0.0
2.5037965774536133,25.475940704345703,-1.4129046201705933,-0.0,-0.0,-1.0,0.0187273885378208,1.0,0.0
2.679309844970703,25.35747337341309,-1.376517653465271,-0.0,-0.0,-1.0,0.0150106362550173,2.0,0.0
2.438722610473633,25.126693725585938,-1.4020007848739624,-0.0,-0.0,-1.0,0.0156233256404416,1.0,0.0
2.2974443435668945,24.98627471923828,-1.417211413383484,-0.0,-0.0,-1.0,0.0168354328032327,1.0,0.0
2.649129867553711,24.04732894897461,-1.307728886604309,0.1057930528059277,-0.5439904856280339,-0.8323954478036131,0.1529977339047091,3.0,0.0
2.486560821533203,23.840652465820312,-1.3257712125778198,-0.0,-0.0,-1.0,0.0367304057228331,2.0,0.0
2.4875383377075195,23.542892456054688,-1.3124347925186155,-0.0,-0.0,-1.0,0.0133675643927677,2.0,0.0
1.782090187072754,24.71176528930664,-0.9296091794967652,0.7922602650526633,-0.3618004573822924,-0.4913492662624497,0.0388058557187448,4.0,0.0
1.535445213317871,23.939674377441406,-0.9366856813430786,-0.0,-0.0,-1.0,0.1039914306680403,1.0,0.0
1.1711368560791016,23.835655212402344,-0.9844096899032592,-0.0,-0.0,-1.0,0.0870630848727297,2.0,0.0
1.4708433151245115,23.504261016845703,-0.933141827583313,0.6754942851912149,0.3548550251800796,-0.6463631964913028,0.0627938310812867,3.0,0.0
1.314535140991211,23.642744064331055,-0.9588638544082642,-0.0,-0.0,-1.0,0.1588983360814413,2.0,0.0
2.5522680282592773,23.36041831970215,-1.293608546257019,-0.0,-0.0,-1.0,0.0388047445972522,2.0,0.0
1.564061164855957,23.257688522338867,-0.9137119054794312,-0.0,-0.0,-1.0,0.1103070850392312,2.0,0.0
2.5835790634155273,24.040023803710938,-0.7950848340988159,-0.0,-0.0,-1.0,0.071457273183215,1.0,0.0
2.150226593017578,25.44342613220215,-1.3919198513031006,-0.0,-0.0,-1.0,0.017211373665491,1.0,0.0
2.2367124557495117,25.308704376220703,-1.36952543258667,-0.0,-0.0,-1.0,0.0156967978592795,1.0,0.0
2.0902576446533203,25.19013214111328,-1.3898983001708984,0.4516329801560031,-0.5423124028633396,-0.7084665898516305,0.0116954667350343,3.0,0.0
2.236506462097168,24.725255966186523,-1.3420555591583252,-0.0,-0.0,-1.0,0.0404571911910813,2.0,0.0
2.2970705032348633,24.450218200683594,-1.3197686672210691,-0.0,-0.0,-1.0,0.0348109325370081,2.0,0.0
2.595619201660156,24.197927474975582,-1.2546489238739014,-0.0,-0.0,-1.0,0.1514324263179866,2.0,0.0
2.3557395935058594,24.00442695617676,-1.2927842140197754,-0.0,-0.0,-1.0,0.0277457869043295,1.0,0.0
2.358692169189453,23.663402557373047,-1.281956672668457,-0.0,-0.0,-1.0,0.0212019874664431,2.0,0.0
1.1503992080688477,23.824630737304688,-0.980370283126831,-0.0,-0.0,-1.0,0.0870630848727297,2.0,0.0
1.3566131591796875,23.632720947265625,-0.9459762573242188,0.3617254211339687,0.5684533472811879,-0.7389286242055227,0.1267057159152434,3.0,0.0
1.6323556900024414,23.258567810058594,-0.8996703624725342,-0.0,-0.0,-1.0,0.1243334025364045,2.0,0.0
1.4943180084228516,23.220447540283203,-0.9220139980316162,-0.0,-0.0,-1.0,0.0874769508169691,2.0,0.0
2.521662712097168,23.192054748535156,-1.2395219802856443,-0.0,-0.0,-1.0,0.0583324713775194,1.0,0.0
2.4210824966430664,23.281265258789062,-1.260699987411499,-0.0,-0.0,-1.0,0.0534791365494917,2.0,0.0
2.7014684677124023,24.257781982421875,-0.7457311153411865,-0.0,-0.0,-1.0,0.0410766588148363,1.0,0.0
1.323521614074707,24.64470672607422,-0.8718535900115967,-0.0,-0.0,-1.0,0.1369501913311245,1.0,0.0
1.0890512466430664,23.824321746826172,-0.8719823360443115,-0.0,-0.0,-1.0,0.0951043435515876,1.0,0.0
1.0222053527832031,23.636917114257812,-0.8757922649383545,-0.0,-0.0,-1.0,0.1398160646317989,1.0,0.0
1.1008434295654297,24.938739776611328,-1.1345844268798828,-0.0,-0.0,-1.0,0.1261317270357603,1.0,0.0
1.5312862396240234,24.72945785522461,-1.059980869293213,-0.0,-0.0,-1.0,0.1186257203414196,1.0,0.0
1.1730890274047852,23.883464813232425,-1.024862289428711,-0.0,-0.0,-1.0,0.0923015085257408,2.0,0.0
1.4594793319702148,23.48985290527344,-0.952928066253662,0.5064826220349743,0.8317712624732057,-0.2272265840528073,0.0627938310812867,4.0,0.0
1.5244712829589844,23.218883514404297,-0.9216609001159668,-0.0,-0.0,-1.0,0.1005594263298247,2.0,0.0
1.4388322830200195,23.155181884765625,-0.928184986114502,-0.0,-0.0,-1.0,0.1335068669030317,2.0,0.0
1.2018308639526367,24.720487594604492,-1.077511429786682,-0.0,-0.0,-1.0,0.1635555595138602,1.0,0.0
1.278949737548828,23.725614547729492,-0.9627300500869752,-0.0115365258394373,0.8331343282612099,-0.5529503591139971,0.1169431182821818,3.0,0.0
2.4185400009155273,24.0712833404541,-1.3687626123428345,-0.0,-0.0,-1.0,0.0363006227819512,1.0,0.0
2.665225028991699,23.959548950195312,-1.3197811841964722,-0.0,-0.0,-1.0,0.1229098096494155,1.0,0.0
2.4586658477783203,23.639427185058594,-1.3068667650222778,-0.0,-0.0,-1.0,0.0180111126789101,2.0,0.0
2.440598487854004,23.22469139099121,-1.2574235200881958,-0.0,-0.0,-1.0,0.0534791365494917,1.0,0.0
1.4222698211669922,23.452831268310547,-0.918411135673523,-0.0,-0.0,-1.0,0.0491478870411772,1.0,0.0
0.5470876693725586,25.557640075683594,-1.30526864528656,-0.0,-0.0,-1.0,0.025612438779667,1.0,0.0
0.8010044097900391,25.520240783691406,-1.273412823677063,-0.0,-0.0,-1.0,0.0539613018959665,1.0,0.0
0.5957908630371094,25.129905700683594,-1.2558258771896362,-0.0,-0.0,-1.0,0.0593976764797494,1.0,0.0
0.5345859527587891,24.85651206970215,-1.2352896928787231,-0.0,-0.0,-1.0,0.0360287272661102,2.0,0.0
1.323904037475586,24.57724380493164,-1.1171969175338743,-0.0,-0.0,-1.0,0.2080998009725591,1.0,0.0
1.0975770950317385,23.95852279663086,-1.0825148820877075,-0.0,-0.0,-1.0,0.1253251190450363,2.0,0.0
1.1620283126831057,23.85004425048828,-1.0646237134933472,-0.0,-0.0,-1.0,0.1196617640724325,2.0,0.0
1.5996179580688477,23.398361206054688,-0.970296025276184,-0.0,-0.0,-1.0,0.1006043743653523,1.0,0.0
2.684173583984375,23.177377700805664,-1.3080745935440063,-0.0,-0.0,-1.0,0.0508957629491153,2.0,0.0
1.6395483016967771,23.282325744628903,-0.95476496219635,-0.0,-0.0,-1.0,0.1218329750632406,2.0,0.0
0.6625375747680664,25.121334075927734,-1.3818628787994385,-0.0,-0.0,-1.0,0.0352045640444921,1.0,0.0
0.5517787933349609,24.922454833984375,-1.35207200050354,-0.0,-0.0,-1.0,0.0385315932187166,1.0,0.0
1.0870943069458008,25.548782348632812,-1.439277172088623,-0.0,-0.0,-1.0,0.040034198836431,1.0,0.0
0.8949995040893555,25.25775909423828,-1.394237995147705,-0.0,-0.0,-1.0,0.0322115897663047,1.0,0.0
1.0652704238891602,23.304996490478516,-1.038341999053955,-0.0,-0.0,-1.0,0.0986458585185649,1.0,0.0
1.4677848815917969,25.63580322265625,-1.437464714050293,-0.0,-0.0,-1.0,0.0247661107877409,2.0,0.0
1.5837278366088867,24.957265853881836,-1.3015413284301758,-0.0,-0.0,-1.0,0.1130825770244206,1.0,0.0
2.3933897018432617,25.43588638305664,-1.3573262691497805,-0.0,-0.0,-1.0,0.0224419496040603,1.0,0.0
2.534224510192871,25.516921997070312,-1.3680272102355957,-0.0,-0.0,-1.0,0.0187273885378208,1.0,0.0
1.580317497253418,23.94967269897461,-1.1164042949676514,-0.0,-0.0,-1.0,0.1084816379844956,1.0,0.0
2.6168413162231445,23.831493377685547,-0.5206626653671265,-0.0,-0.0,-1.0,0.0832726158437654,1.0,0.0
2.5329599380493164,25.305824279785156,-1.4597456455230713,-0.3187567838919713,-0.5902671652069243,-0.7416055463664147,0.0210923814890398,3.0,0.0
2.62221622467041,24.067485809326172,-1.3243224620819092,0.6924249926761519,0.6179204518781916,-0.3724539497281274,0.1438206631408535,3.0,0.0
2.443060874938965,25.435054779052734,-1.3857903480529783,-0.0,-0.0,-1.0,0.0240280729777516,1.0,0.0
2.3717527389526367,24.771278381347656,-1.3239989280700684,-0.0,-0.0,-1.0,0.0416678380631142,1.0,0.0
1.931661605834961,24.24332046508789,-1.3098363876342771,-0.0,-0.0,-1.0,0.0532660621784656,1.0,0.0
1.6973552703857422,25.238929748535156,-1.4229695796966553,-0.0,-0.0,-1.0,0.0458318504864504,2.0,0.0
1.765481948852539,25.496509552001953,-1.3303825855255127,-0.0,-0.0,-1.0,0.1149879814857676,2.0,0.0
1.6804428100585938,23.219573974609375,-0.9575204849243164,-0.1969311556093917,0.6676057199418441,-0.7179977177201065,0.1128948584116766,3.0,0.0
0.8267431259155273,25.60663795471191,-1.3037033081054688,0.0970124849620893,-0.8973868411019613,-0.4304479471184914,0.0575427062608264,4.0,0.0
1.5409841537475586,23.586105346679688,-1.051809549331665,0.9096948976312896,-0.3907902302469049,-0.1404926658839121,0.0894692423780027,4.0,0.0
2.563035011291504,24.126697540283203,-1.386709690093994,-0.0,-0.0,-1.0,0.1038045328881172,1.0,0.0
2.6139402389526367,24.067140579223633,-1.3402810096740725,-0.0,-0.0,-1.0,0.1438206631408535,2.0,0.0
1.753683090209961,25.529462814331055,-1.3512930870056152,0.4609251881723972,-0.3519205437565032,-0.814677790166375,0.0752241798154051,3.0,0.0
1.0685644149780271,25.278017044067383,-1.3763413429260254,0.1325099797452,0.6523628717994323,-0.7462330659824206,0.0234937904737205,3.0,0.0
1.677474021911621,23.515941619873047,-1.066335916519165,0.180213330609682,0.3838336221045686,-0.905646126261606,0.1069328522514389,3.0,0.0
1.487016677856445,24.6749267578125,-1.2510528564453125,-0.0,-0.0,-1.0,0.1687974709164991,1.0,0.0
2.610109806060791,25.42671585083008,-1.3634908199310305,-0.0,-0.0,-1.0,0.01988995072664,1.0,0.0
2.66173791885376,25.507518768310547,-1.3729510307312012,-0.0,-0.0,-1.0,0.0200382379813043,1.0,0.0
2.3129000663757324,24.910812377929688,-1.3017816543579102,-0.0,-0.0,-1.0,0.0286025224078409,1.0,0.0
2.108428478240967,25.239734649658203,-1.3708701133728027,-0.0,-0.0,-1.0,0.0749595472687417,1.0,0.0
2.351749897003174,25.46883773803711,-1.3896286487579346,-0.0,-0.0,-1.0,0.0220793697769301,1.0,0.0
1.9313530921936035,23.317337036132812,-1.0746004581451416,-0.0,-0.0,-1.0,0.0429822467432362,1.0,0.0
1.847548484802246,23.88477897644043,-1.1725242137908936,-0.0,-0.0,-1.0,0.0444750711448222,1.0,0.0
1.802642822265625,24.37778663635254,-1.2554643154144287,0.5947202292499039,0.7964768150457154,-0.1092361296255745,0.1899598878652661,3.0,0.0
1.8558998107910156,24.83705139160156,-1.325317144393921,-0.0,-0.0,-1.0,0.0183473416009424,2.0,0.0
1.830662727355957,25.110340118408203,-1.3715393543243408,-0.0,-0.0,-1.0,0.0484043450283696,1.0,0.0
1.8294000625610352,23.558349609375,-1.1215980052947998,-0.0,-0.0,-1.0,0.1035492736663129,2.0,0.0
1.7445659637451172,24.323925018310547,-1.2514526844024658,-0.0,-0.0,-1.0,0.228695339048827,2.0,0.0
1.4764480590820312,24.7166805267334,-1.0377328395843506,-0.0,-0.0,-1.0,0.082189747654344,1.0,0.0
1.2709236145019531,23.6253604888916,-0.9048430919647216,-0.0,-0.0,-1.0,0.0614336128500986,2.0,0.0
2.646920680999756,24.12801170349121,-1.161069631576538,-0.0,-0.0,-1.0,0.0982226034043143,1.0,0.0
2.5182294845581055,25.40043830871582,-1.400703191757202,-0.0,-0.0,-1.0,0.0249983683658828,1.0,0.0
2.3015127182006836,24.83058738708496,-1.3193511962890625,-0.0,-0.0,-1.0,0.0305898631958895,1.0,0.0
2.080554962158203,25.204679489135746,-1.407219171524048,0.4516329801560031,-0.5423124028633396,-0.7084665898516305,0.0121977051104273,3.0,0.0
1.9991817474365232,25.22253799438477,-1.418278694152832,-0.0,-0.0,-1.0,0.0112154595957,2.0,0.0
1.8553581237792969,23.444751739501953,-1.1192190647125244,-0.0,-0.0,-1.0,0.0744947085493346,2.0,0.0
1.8888983726501465,23.77307891845703,-1.173285961151123,-0.0,-0.0,-1.0,0.0561942807428437,1.0,0.0
1.7279682159423828,24.27657127380371,-1.27811598777771,-0.0,-0.0,-1.0,0.2125105085394955,1.0,0.0
1.8199396133422852,24.415496826171875,-1.2932379245758057,-0.0,-0.0,-1.0,0.1587145409495236,1.0,0.0
1.8476481437683103,24.95228385925293,-1.385284662246704,0.6864798959211331,0.6395370948965287,-0.3460312944625366,0.0149266107098869,3.0,0.0
1.7364530563354492,23.325136184692383,-1.1107299327850342,-0.0,-0.0,-1.0,0.0958051459632017,1.0,0.0
2.3619160652160645,24.315448760986328,-1.3733689785003662,-0.0,-0.0,-1.0,0.0255627091546874,1.0,0.0
2.426680088043213,24.64416885375977,-1.4273285865783691,-0.0,-0.0,-1.0,0.0638789422614324,1.0,0.0
1.9965882301330569,23.92963600158691,-1.3463249206542969,-0.0,-0.0,-1.0,0.0335715002777132,1.0,0.0
2.0770692825317383,24.203353881835938,-1.3870580196380615,-0.0,-0.0,-1.0,0.0199327544583165,1.0,0.0
2.0711851119995117,23.344318389892575,-1.2291035652160645,-0.0,-0.0,-1.0,0.0411475575433853,1.0,0.0
1.0455799102783203,24.892343521118164,-0.9630253314971924,-0.0,-0.0,-1.0,0.1379492568992722,2.0,0.0
2.570338249206543,24.199905395507812,-1.2788593769073486,-0.0,-0.0,-1.0,0.1514324263179866,2.0,0.0
2.6281003952026367,24.921537399291992,-1.420848369598389,-0.0,-0.0,-1.0,0.0269572701506533,2.0,0.0
2.2632246017456055,24.213600158691406,-1.317267894744873,-0.0,-0.0,-1.0,0.018644302773816,1.0,0.0
2.02476167678833,23.925567626953125,-1.2870802879333496,-0.0,-0.0,-1.0,0.0288916959389954,1.0,0.0
2.039590835571289,23.486778259277344,-1.1967401504516602,-0.0,-0.0,-1.0,0.0367875507663106,2.0,0.0
2.0237040519714355,23.653959274291992,-1.2323617935180664,-0.0,-0.0,-1.0,0.042295426238384,2.0,0.0
1.4842429161071775,24.784770965576172,-0.8874962329864502,-0.0,-0.0,-1.0,0.113383617867047,2.0,0.0
2.5270891189575195,25.273542404174805,-1.431528091430664,-0.3187567838919713,-0.5902671652069243,-0.7416055463664147,0.0210923814890398,3.0,0.0
2.3647499084472656,24.709171295166016,-1.3290026187896729,-0.0,-0.0,-1.0,0.0407918623159191,1.0,0.0
2.2605671882629395,23.238588333129883,-1.030238151550293,-0.0,-0.0,-1.0,0.0859586015383055,2.0,0.0
2.114981174468994,24.605430603027344,-1.3362793922424316,-0.0,-0.0,-1.0,0.0192646959732547,1.0,0.0
2.1933650970458984,24.74384117126465,-1.356344223022461,-0.0,-0.0,-1.0,0.0338870645492667,2.0,0.0
1.810654640197754,23.327939987182617,-1.1055352687835691,-0.0,-0.0,-1.0,0.0843515945599594,2.0,0.0
1.8311429023742676,23.640100479125977,-1.1678385734558103,-0.0,-0.0,-1.0,0.1093272527705665,1.0,0.0
1.899207592010498,24.45785903930664,-1.3309073448181152,-0.0,-0.0,-1.0,0.1957302544056864,1.0,0.0
1.508854866027832,24.90303421020508,-0.8645365238189697,-0.0,-0.0,-1.0,0.0962874656637452,1.0,0.0
1.4822287559509275,24.824542999267575,-0.8535037040710449,-0.0,-0.0,-1.0,0.1108912171863357,2.0,0.0
2.6782913208007812,24.91963577270508,-1.436277151107788,-0.0,-0.0,-1.0,0.0289755953348675,2.0,0.0
2.4562950134277344,24.252838134765625,-1.314645290374756,-0.0,-0.0,-1.0,0.0523383592433971,1.0,0.0
2.049211025238037,23.482770919799805,-1.2016115188598633,-0.0,-0.0,-1.0,0.0367875507663106,2.0,0.0
2.026524543762207,23.747318267822266,-1.264115571975708,-0.0,-0.0,-1.0,0.0413116607507605,2.0,0.0
2.150174617767334,24.129470825195312,-1.3313050270080566,-0.0,-0.0,-1.0,0.0212636437061806,2.0,0.0
0.6909284591674805,25.590476989746097,-1.2683942317962646,-0.0,-0.0,-1.0,0.0650180459801563,1.0,0.0
0.3317880630493164,25.46203231811523,-1.294790744781494,-0.0,-0.0,-1.0,0.0268389541570402,1.0,0.0
2.309576988220215,23.184844970703125,-1.0953059196472168,-0.0,-0.0,-1.0,0.0839870889524819,1.0,0.0
1.3315424919128418,24.617427825927734,-0.9957969188690186,-0.0,-0.0,-1.0,0.2045655145210241,1.0,0.0
1.110109806060791,23.70796585083008,-0.8567376136779785,-0.0,-0.0,-1.0,0.1263538530963656,1.0,0.0
1.0628113746643066,24.893327713012695,-1.0850858688354492,-0.0,-0.0,-1.0,0.1801442311261785,2.0,0.0
2.65623140335083,24.715190887451172,-1.4287569522857666,-0.0,-0.0,-1.0,0.0542199805152972,1.0,0.0
2.700460910797119,24.121612548828125,-1.2729697227478027,-0.0,-0.0,-1.0,0.1376921744920174,1.0,0.0
2.4983720779418945,24.136096954345703,-1.3068187236785889,-0.0,-0.0,-1.0,0.1165729573902741,2.0,0.0
1.8198418617248535,25.363582611083984,-1.1649000644683838,-0.0,-0.0,-1.0,0.1211308356264517,1.0,0.0
2.0264101028442383,23.712501525878903,-1.2759647369384766,-0.0,-0.0,-1.0,0.0440899083326508,2.0,0.0
2.1418018341064453,23.963546752929688,-1.3191313743591309,-0.0,-0.0,-1.0,0.0218589823018057,2.0,0.0
1.863087177276611,24.440601348876953,-0.9620139598846436,-0.0,-0.0,-1.0,0.0935944978426046,1.0,0.0
2.02321195602417,23.52136993408203,-1.2299425601959229,-0.0,-0.0,-1.0,0.0499628336928155,1.0,0.0
1.3605971336364746,24.63245010375977,-1.075122356414795,-0.0,-0.0,-1.0,0.2020600136487302,1.0,0.0
0.6135153770446777,25.16253662109375,-1.2975142002105713,-0.0,-0.0,-1.0,0.054908133133891,1.0,0.0
1.1765003204345703,23.652549743652344,-0.9002556800842285,-0.0,-0.0,-1.0,0.0992366881232074,2.0,0.0
1.0969672203063965,23.648448944091797,-0.911900520324707,-0.0,-0.0,-1.0,0.1703923946157001,1.0,0.0
1.2476859092712402,25.558406829833984,-1.3493728637695312,-0.0,-0.0,-1.0,0.0360033612576381,2.0,0.0
1.0555787086486816,25.167888641357425,-1.2847542762756348,0.4105399443258689,0.6335192372304415,-0.6558279730019696,0.0519701067083968,4.0,0.0
1.0528717041015625,25.508892059326172,-1.3649656772613523,-0.0,-0.0,-1.0,0.044018613992213,1.0,0.0
0.7142925262451172,24.972835540771484,-1.2898764610290527,-0.0,-0.0,-1.0,0.0427509449537234,1.0,0.0
0.8412561416625977,25.258832931518555,-1.337078094482422,-0.0,-0.0,-1.0,0.0585047519420916,1.0,0.0
1.96813440322876,24.449085235595703,-0.9879372119903564,-0.055560849675336,0.7833349651734465,-0.6191117220018287,0.0598847111124681,3.0,0.0
1.5712175369262695,24.64990997314453,-1.0900142192840576,-0.0,-0.0,-1.0,0.137580780743702,1.0,0.0
1.4913363456726074,23.80706787109375,-0.9046921730041504,-0.0,-0.0,-1.0,0.1302192263912478,1.0,0.0
1.3271136283874512,23.671831130981445,-0.8983581066131592,-0.0,-0.0,-1.0,0.0503185892908014,2.0,0.0
1.1308183670043943,23.54211807250977,-0.8989391326904297,-0.0,-0.0,-1.0,0.122637020917846,1.0,0.0
1.5633273124694824,24.892654418945312,-0.8792212009429932,0.9956114225908962,-0.0646179493351933,0.0676935434901049,0.0962874656637452,3.0,0.0
1.3035874366760254,24.5226993560791,-0.8243308067321777,-0.0,-0.0,-1.0,0.1072963797183528,1.0,0.0
0.6764869689941406,25.039093017578125,-1.3107130527496338,-0.0,-0.0,-1.0,0.0435891221074811,1.0,0.0
0.5238790512084961,24.770410537719727,-1.29622220993042,-0.0,-0.0,-1.0,0.0360287272661102,1.0,0.0
0.9140405654907228,25.484046936035156,-1.3410298824310305,-0.0,-0.0,-1.0,0.0531822635062125,1.0,0.0
0.7881393432617188,25.20170211791992,-1.316986083984375,-0.0,-0.0,-1.0,0.0565781952636474,2.0,0.0
1.292902946472168,23.707611083984375,-0.9901471138000488,-0.0,-0.0,-1.0,0.1837405729015173,2.0,0.0
1.3626632690429688,23.556041717529297,-0.954559326171875,-0.5728734178564658,0.0943504538818332,-0.8141953321935362,0.1200259012078438,4.0,0.0
1.3543319702148438,23.22404670715332,-0.9085731506347656,-0.0,-0.0,-1.0,0.0722625621963726,2.0,0.0
1.60699462890625,23.834392547607425,-0.9498703479766846,-0.0,-0.0,-1.0,0.1503772960394217,1.0,0.0
2.2125253677368164,24.24180603027344,-1.3042173385620115,-0.0,-0.0,-1.0,0.0149857486690775,1.0,0.0
2.0918893814086914,23.90271759033203,-1.2628443241119385,-0.0,-0.0,-1.0,0.0292484998443898,1.0,0.0
2.124542236328125,23.572093963623047,-1.197188138961792,-0.0,-0.0,-1.0,0.0263685949331113,1.0,0.0
2.5423831939697266,25.03764915466309,-1.40179181098938,-0.0,-0.0,-1.0,0.0234425546176289,1.0,0.0
2.458369255065918,24.677818298339844,-1.345014572143555,-0.0,-0.0,-1.0,0.0641929456168698,1.0,0.0
2.152212142944336,23.3736572265625,-1.1569416522979736,-0.0,-0.0,-1.0,0.0663057938180491,1.0,0.0
2.125713348388672,23.147275924682617,-1.122312307357788,-0.0,-0.0,-1.0,0.0610819014184377,1.0,0.0
1.0947141647338867,25.326257705688477,-1.3412971496582031,0.1028101281929248,0.432732397649137,-0.895640971352798,0.0233997213208262,3.0,0.0
1.0549097061157229,25.130571365356445,-1.314661979675293,0.3867803365316103,0.572477521723792,-0.7229595136613661,0.0561506517679712,3.0,0.0
0.955007553100586,24.65948486328125,-1.253150463104248,-0.0,-0.0,-1.0,0.0907088783463437,1.0,0.0
1.0227842330932615,24.229726791381836,-1.1746375560760498,-0.0,-0.0,-1.0,0.0445591782343204,1.0,0.0
1.1046009063720703,25.16871452331543,-1.3135597705841064,-0.0,-0.0,-1.0,0.0293442590317487,2.0,0.0
1.1952695846557615,24.605083465576172,-1.2076401710510254,-0.0,-0.0,-1.0,0.1343531445044081,1.0,0.0
1.1833209991455078,24.163375854492188,-1.1391606330871582,-0.0,-0.0,-1.0,0.0671852543575875,1.0,0.0
1.2094173431396484,23.902183532714844,-1.0945143699645996,-0.0,-0.0,-1.0,0.0831464861342567,2.0,0.0
1.6959762573242188,24.458499908447266,-1.1078529357910156,-0.0,-0.0,-1.0,0.1258418514138349,1.0,0.0
1.8184747695922852,24.47353744506836,-1.0918729305267334,-0.0,-0.0,-1.0,0.0780058931119325,2.0,0.0
1.6359844207763672,23.342514038085938,-0.9414703845977784,-0.0,-0.0,-1.0,0.0870855819936928,1.0,0.0
1.6030960083007812,25.122623443603516,-1.409865379333496,-0.0,-0.0,-1.0,0.017104678231384,1.0,0.0
1.5148067474365234,24.871471405029297,-1.3768067359924316,-0.0,-0.0,-1.0,0.0701940028924033,1.0,0.0
1.5186405181884766,24.398426055908203,-1.2909197807312012,-0.0,-0.0,-1.0,0.0970883831662948,2.0,0.0
1.4289178848266602,24.07002067565918,-1.2464418411254885,-0.0,-0.0,-1.0,0.0307478244819073,2.0,0.0
1.5187253952026367,23.96137809753418,-1.2134742736816406,-0.0,-0.0,-1.0,0.0669745525524511,1.0,0.0
1.6210832595825195,23.61906623840332,-1.137995958328247,-0.0,-0.0,-1.0,0.1219739502090288,1.0,0.0
1.6729660034179688,23.250972747802734,-1.0666725635528564,-0.0,-0.0,-1.0,0.1631060891044057,2.0,0.0
0.4273309707641601,25.497892379760746,-1.364656925201416,-0.0,-0.0,-1.0,0.0255151606692573,1.0,0.0
0.7983541488647461,25.612014770507812,-1.330819606781006,-0.4331738603096627,-0.8554362615727577,0.2838823860877054,0.0575427062608265,3.0,0.0
0.5767536163330078,25.364980697631836,-1.3207459449768066,-0.0,-0.0,-1.0,0.0624393169706399,1.0,0.0
1.3609743118286133,24.566307067871097,-1.074537754058838,-0.0,-0.0,-1.0,0.1925168689026576,1.0,0.0
1.168069839477539,23.58535385131836,-0.9449434280395508,-0.0,-0.0,-1.0,0.1263577998525007,2.0,0.0
1.9455060958862305,24.4593448638916,-0.9729254245758056,-0.055560849675336,0.7833349651734465,-0.6191117220018287,0.0881110189010754,3.0,0.0
2.708049774169922,24.157381057739254,-0.8144707679748535,-0.0,-0.0,-1.0,0.0516802896027972,2.0,0.0
2.447694778442383,23.95815658569336,-1.245870590209961,-0.0,-0.0,-1.0,0.0839417522938838,1.0,0.0
2.3701629638671875,23.72647476196289,-1.22615385055542,-0.0,-0.0,-1.0,0.0210543518281431,1.0,0.0
2.321192741394043,23.338977813720703,-1.1793360710144043,-0.0,-0.0,-1.0,0.0731127832998048,1.0,0.0
2.6203222274780273,24.418453216552734,-1.2834091186523438,-0.0,-0.0,-1.0,0.0557655074384552,1.0,0.0
2.611469268798828,24.035234451293945,-1.2279043197631836,-0.0,-0.0,-1.0,0.156513525537083,1.0,0.0
0.9472312927246094,24.77463150024414,-0.9170770645141602,-0.0,-0.0,-1.0,0.1564988304568893,1.0,0.0
1.043950080871582,23.683305740356445,-0.7750682830810547,-0.0,-0.0,-1.0,0.1613714580206419,1.0,0.0
0.9758062362670898,23.482864379882812,-0.7633895874023438,-0.0,-0.0,-1.0,0.0955691975159974,1.0,0.0
1.4536495208740234,25.051673889160156,-1.362670660018921,-0.0,-0.0,-1.0,0.0154661311454246,1.0,0.0
1.4239387512207031,24.816980361938477,-1.3257992267608645,-0.0,-0.0,-1.0,0.1158274887743835,1.0,0.0
1.8015022277832031,25.411314010620117,-1.3787295818328855,-0.0,-0.0,-1.0,0.0640045262976629,1.0,0.0
2.1165714263916016,25.419845581054688,-1.33799147605896,-0.0,-0.0,-1.0,0.067628034860389,1.0,0.0
1.4610366821289062,24.671424865722656,-1.2953484058380127,-0.0,-0.0,-1.0,0.1646715495387283,1.0,0.0
1.44732666015625,24.23392677307129,-1.2217261791229248,-0.0,-0.0,-1.0,0.0495283054289474,1.0,0.0
1.4986095428466797,23.73490524291992,-1.1290247440338137,-0.0,-0.0,-1.0,0.1277643419422205,1.0,0.0
2.0585708618164062,24.636211395263672,-1.2068431377410889,-0.0,-0.0,-1.0,0.129108784398598,1.0,0.0
1.5896015167236328,23.73856544494629,-1.116682767868042,-0.0,-0.0,-1.0,0.0917601444131075,1.0,0.0
1.5708856582641602,23.37852478027344,-1.058227300643921,-0.0,-0.0,-1.0,0.2204045596278846,1.0,0.0
2.659217834472656,24.051128387451172,-1.0219395160675049,-0.0,-0.0,-1.0,0.0495256376122076,1.0,0.0
1.018899917602539,25.541988372802734,-1.3239154815673828,-0.0,-0.0,-1.0,0.0434987303364452,2.0,0.0
0.8260078430175781,25.195158004760746,-1.293625831604004,-0.0,-0.0,-1.0,0.0536771474984111,2.0,0.0
0.6318273544311523,24.850784301757812,-1.2648673057556152,-0.0,-0.0,-1.0,0.0404748864998883,2.0,0.0
0.9057636260986328,25.10184097290039,-1.2668952941894531,-0.0,-0.0,-1.0,0.0288328102678645,2.0,0.0
1.448598861694336,23.286415100097656,-0.8931846618652344,-0.0,-0.0,-1.0,0.0813650347564869,1.0,0.0
1.3353509902954102,25.581729888916016,-1.394258737564087,-0.0,-0.0,-1.0,0.015840488280467,2.0,0.0
1.1974544525146484,25.40930557250977,-1.3654286861419678,-0.0,-0.0,-1.0,0.0212802818305802,1.0,0.0
0.8189258575439453,24.96348571777344,-1.2940733432769775,-0.0,-0.0,-1.0,0.0354409185549201,1.0,0.0
0.5953149795532227,24.83160400390625,-1.2823669910430908,-0.0,-0.0,-1.0,0.0360287272661101,2.0,0.0
1.6617279052734375,25.525371551513672,-1.3577048778533936,-0.0,-0.0,-1.0,0.0620382511420327,2.0,0.0
1.2014703750610352,25.31507110595703,-1.3437902927398682,-0.0,-0.0,-1.0,0.020724979996842,2.0,0.0
0.9831819534301758,25.07250213623047,-1.305783987045288,-0.0,-0.0,-1.0,0.0536738393382949,2.0,0.0
0.6326656341552734,24.716060638427734,-1.2536380290985107,-0.0,-0.0,-1.0,0.0360982528055083,1.0,0.0
1.3241596221923828,24.53477478027344,-1.1587350368499756,-0.0,-0.0,-1.0,0.1987328572867049,1.0,0.0
1.6854009628295898,24.40179443359375,-1.1011388301849363,-0.0,-0.0,-1.0,0.1467823445021776,1.0,0.0
1.2435235977172852,23.712512969970703,-0.9817311763763428,0.476885465132374,-0.014905014044316,-0.878839060182135,0.1057001808404827,3.0,0.0
1.332866668701172,23.375812530517575,-0.8999674320220947,-0.0,-0.0,-1.0,0.0200472734807315,1.0,0.0
1.1177444458007812,23.155582427978516,-0.8693439960479736,-0.0,-0.0,-1.0,0.0495891940110623,1.0,0.0
1.3303966522216797,25.57978630065918,-1.3941872119903564,-0.0,-0.0,-1.0,0.015840488280467,2.0,0.0
1.693584442138672,25.601762771606445,-1.351259469985962,-0.0,-0.0,-1.0,0.0598470578490252,1.0,0.0
1.3386430740356443,25.41961097717285,-1.362004041671753,-0.0,-0.0,-1.0,0.0121480707478294,1.0,0.0
1.2384605407714844,24.852127075195312,-1.2663195133209229,-0.0,-0.0,-1.0,0.114488137053189,1.0,0.0
1.074173927307129,24.5773983001709,-1.2367489337921145,-0.0,-0.0,-1.0,0.068291493614811,1.0,0.0
1.8560056686401367,24.46605110168457,-1.10852313041687,-0.0,-0.0,-1.0,0.0778355940979072,2.0,0.0
1.3805904388427734,24.567337036132812,-1.192347764968872,-0.0,-0.0,-1.0,0.2557073885377636,1.0,0.0
1.8186826705932615,24.400850296020508,-1.100923776626587,-0.0,-0.0,-1.0,0.101846930010098,1.0,0.0
1.7753877639770508,24.345436096191406,-1.0960729122161863,-0.0,-0.0,-1.0,0.147100921162105,1.0,0.0
1.6102256774902344,23.481000900268555,-0.9545142650604248,-0.0,-0.0,-1.0,0.1196548333664012,2.0,0.0
1.6685895919799805,23.218425750732425,-0.8969829082489014,-0.0,-0.0,-1.0,0.1191657893447654,1.0,0.0
1.0629901885986328,25.59743309020996,-1.3652093410491943,-0.0,-0.0,-1.0,0.039328248788018,2.0,0.0
0.7769308090209961,25.27152442932129,-1.3239896297454834,-0.0,-0.0,-1.0,0.0615344350579108,1.0,0.0
1.046921730041504,25.16976547241211,-1.2776339054107666,-0.1279534307950742,0.9095874018605,-0.3953209808806454,0.0519701067083968,3.0,0.0
0.7131824493408203,25.024168014526367,-1.2791826725006104,-0.0,-0.0,-1.0,0.0434570526910645,1.0,0.0
1.8748626708984375,24.42255592346191,-1.0465619564056396,0.0796867357869273,-0.1548114996270653,-0.9847250498097648,0.0735763646696284,3.0,0.0
1.3329591751098633,23.49802589416504,-0.9063832759857178,-0.8583961003677227,0.2560133883568374,-0.4445371523905932,0.0299959034390556,3.0,0.0
1.1337347030639648,23.308191299438477,-0.888073205947876,-0.0,-0.0,-1.0,0.0522114653189105,2.0,0.0
0.7151060104370117,25.39666748046875,-1.305959939956665,-0.9822640248745598,-0.1381649704654728,-0.1267589301528896,0.0577598843455697,3.0,0.0
1.2359275817871094,24.839149475097656,-1.1512105464935305,-0.0,-0.0,-1.0,0.1529277706282479,1.0,0.0
1.2268991470336914,23.74838638305664,-0.9240634441375732,-0.0,-0.0,-1.0,0.1144027294149379,1.0,0.0
1.33294677734375,23.688156127929688,-0.903468370437622,-0.0,-0.0,-1.0,0.086679301321004,2.0,0.0
0.3030614852905273,25.55634117126465,-1.3228228092193604,-0.0,-0.0,-1.0,0.0255151606692573,1.0,0.0
0.7522602081298828,25.566816329956055,-1.3099138736724854,-0.0,-0.0,-1.0,0.0556935116086416,1.0,0.0
1.7782917022705078,25.00109481811523,-1.3875114917755127,-0.0,-0.0,-1.0,0.0161066546678958,2.0,0.0
2.707943916320801,25.21036720275879,-1.42926287651062,-0.0,-0.0,-1.0,0.0117631487896339,2.0,0.0
2.158421516418457,25.05516242980957,-1.395393133163452,-0.0,-0.0,-1.0,0.0144888380358907,1.0,0.0
1.9905967712402344,24.835912704467773,-1.342958688735962,-0.0,-0.0,-1.0,0.0156729402720965,1.0,0.0
1.5545639991760254,24.469419479370117,-1.2600047588348389,-0.0,-0.0,-1.0,0.1247173698692126,2.0,0.0
2.4251790046691895,24.815065383911133,-1.3321731090545654,-0.0,-0.0,-1.0,0.0403253056843239,2.0,0.0
1.824493408203125,24.365140914916992,-1.228706121444702,-0.0,-0.0,-1.0,0.1881221378696536,2.0,0.0
2.6606054306030273,24.516096115112305,-1.254915475845337,-0.0,-0.0,-1.0,0.064227790271765,1.0,0.0
1.7188372611999512,23.427005767822266,-0.9988949298858644,-0.0,-0.0,-1.0,0.0921972672676456,1.0,0.0
2.2785134315490723,24.478591918945312,-1.3513031005859375,-0.0,-0.0,-1.0,0.0220441806118319,2.0,0.0
1.990952491760254,24.51502990722656,-1.3629279136657717,-0.0,-0.0,-1.0,0.08455433089021,1.0,0.0
2.4412803649902344,24.46130752563477,-1.3458666801452637,-0.0,-0.0,-1.0,0.0353398184033239,1.0,0.0
2.069951057434082,24.317371368408203,-1.3153977394104004,-0.0,-0.0,-1.0,0.01521912836917,1.0,0.0
1.8667397499084473,24.139915466308594,-1.2759075164794922,-0.0,-0.0,-1.0,0.0397165098031435,1.0,0.0
2.577633857727051,24.134746551513672,-1.2674226760864258,-0.0,-0.0,-1.0,0.1820353359609391,1.0,0.0
1.8985042572021484,23.610050201416016,-1.1504578590393066,-0.0,-0.0,-1.0,0.0884249391624001,1.0,0.0
1.7630462646484375,23.518579483032227,-1.1309823989868164,-0.0,-0.0,-1.0,0.1054285137839625,2.0,0.0
1.808848857879639,23.309162139892575,-1.0809574127197266,0.9882172857577166,0.0776248555903575,0.1319127663428654,0.083919677884147,3.0,0.0
1.742295503616333,24.98863983154297,-1.4105608463287354,-0.0,-0.0,-1.0,0.0154053823599497,2.0,0.0
0.5670180320739746,24.56947326660156,-1.2843925952911377,-0.0,-0.0,-1.0,0.0269889694088782,1.0,0.0
2.413995265960694,24.899084091186523,-1.4116008281707764,-0.0,-0.0,-1.0,0.0362050214696846,1.0,0.0
2.0846004486083984,24.893062591552734,-1.3988802433013916,-0.0,-0.0,-1.0,0.0172258570481861,1.0,0.0
1.6990904808044434,24.704410552978516,-1.342594861984253,-0.0,-0.0,-1.0,0.0637930876224344,2.0,0.0
1.50174880027771,24.40196418762207,-1.2659499645233154,-0.0,-0.0,-1.0,0.0930142200554034,2.0,0.0
2.37365984916687,24.569026947021484,-1.3322594165802002,-0.0,-0.0,-1.0,0.0333689852655765,1.0,0.0
1.7748994827270508,24.245058059692383,-1.2366831302642822,-0.0,-0.0,-1.0,0.1599532725024029,1.0,0.0
1.692756414413452,24.25297164916992,-1.236194372177124,-0.0,-0.0,-1.0,0.1518244974918711,1.0,0.0
2.6857059001922607,23.987239837646484,-1.20629620552063,-0.0,-0.0,-1.0,0.1566187823953192,1.0,0.0
0.8771584033966064,24.285629272460938,-1.2560968399047852,-0.0,-0.0,-1.0,0.0323216021127236,1.0,0.0
0.7009730339050293,24.274974822998047,-1.249474048614502,-0.0,-0.0,-1.0,0.0255323658828072,1.0,0.0
2.304839611053467,24.676359176635746,-1.3835821151733398,-0.0,-0.0,-1.0,0.0491673515720438,1.0,0.0
1.0125141143798828,24.182153701782227,-1.2364568710327148,-0.0,-0.0,-1.0,0.0467592252215767,1.0,0.0
2.6092209815979004,24.54541015625,-1.364337921142578,-0.0,-0.0,-1.0,0.051583709635714,1.0,0.0
2.4388155937194824,24.530210494995117,-1.355316162109375,-0.0,-0.0,-1.0,0.0441036641087175,1.0,0.0
2.0600180625915527,23.677459716796875,-1.1532049179077148,-0.0,-0.0,-1.0,0.0290892136990131,1.0,0.0
0.7752571105957031,23.85009002685547,-1.2291455268859863,-0.0,-0.0,-1.0,0.093098056345082,1.0,0.0
0.8975801467895508,23.52251625061035,-1.1668782234191897,-0.0,-0.0,-1.0,0.1733394343360997,1.0,0.0
0.6137030124664307,24.46361541748047,-1.2592129707336426,-0.0,-0.0,-1.0,0.0206823547788666,1.0,0.0
2.4078729152679443,24.23432159423828,-1.3337931632995603,-0.0,-0.0,-1.0,0.0333231334631574,2.0,0.0
2.1108903884887695,24.26372718811035,-1.316749095916748,-0.0,-0.0,-1.0,0.0150777513284806,1.0,0.0
0.8248503804206848,24.218137741088867,-1.2080001831054688,-0.0,-0.0,-1.0,0.0367719307292227,1.0,0.0
2.6894690990448,24.063003540039062,-1.3128457069396973,-0.0,-0.0,-1.0,0.1589481387097961,2.0,0.0
2.485512971878052,24.1240177154541,-1.3111605644226074,-0.0,-0.0,-1.0,0.1156942647889529,2.0,0.0
1.9889397621154783,23.53316307067871,-1.1126365661621094,-0.0,-0.0,-1.0,0.0383990086930828,1.0,0.0
1.754524827003479,23.364784240722656,-1.0489702224731443,0.4091756985506312,0.2885284099545636,-0.8656365313251828,0.0976835894049291,3.0,0.0
2.2446846961975098,23.222280502319336,-1.051077365875244,-0.0,-0.0,-1.0,0.0859586015383054,2.0,0.0
1.0084532499313354,23.13907241821289,-0.9331927299499512,-0.0,-0.0,-1.0,0.088341964119724,1.0,0.0
0.6600190997123718,25.506223678588867,-1.2617316246032717,-0.0,-0.0,-1.0,0.058492507250614,1.0,0.0
