x,y,z,nx,ny,nz,curvature,density,label
6.812308311462402,15.388530731201172,-0.2552831172943115,-0.0,-0.0,-1.0,0.2167136934309729,1.0,0.0
5.47315788269043,15.470894813537598,-0.3911857604980469,-0.0,-0.0,-1.0,0.2054321539952325,1.0,0.0
7.106794357299805,15.054695129394531,-0.2605711221694946,0.0658946393229952,0.1525385240588569,-0.9860983192290906,0.2356133282317146,3.0,0.0
6.898767471313477,15.21405792236328,-0.264957070350647,-0.0,-0.0,-1.0,0.2968503188062366,2.0,0.0
5.537144660949707,15.152658462524414,-0.4172925949096679,-0.0,-0.0,-1.0,0.11274578845223,1.0,0.0
7.526609420776367,14.744117736816406,-0.252192735671997,-0.0,-0.0,-1.0,0.1791468402364716,1.0,0.0
7.098234176635742,14.795909881591797,-0.2906931638717651,-0.0,-0.0,-1.0,0.2702935957005429,2.0,0.0
6.968095779418945,14.530550003051758,-0.3347195386886596,-0.0,-0.0,-1.0,0.1736922611824002,1.0,0.0
6.449745178222656,14.183908462524414,-0.4287395477294922,-0.5669628554729624,0.1697165793891384,-0.8060703463063227,0.1721874535296994,4.0,0.0
7.109305381774902,13.79171371459961,-0.4087797403335571,-0.0,-0.0,-1.0,0.0876505283514579,1.0,0.0
6.840592384338379,14.076725006103516,-0.4013236761093139,0.6049007592212254,-0.2987604838662607,-0.7381309130320872,0.1522534506960945,3.0,0.0
7.306585311889648,13.549934387207031,-0.4193861484527588,-0.0,-0.0,-1.0,0.037525450384925,1.0,0.0
7.529689788818359,13.19915008544922,-0.4425262212753296,-0.0087705469423327,-0.872691244964789,-0.4881936792586919,0.182686674170427,3.0,0.0
7.359050750732422,13.30411148071289,-0.4454514980316162,-0.0,-0.0,-1.0,0.049917224433333,1.0,0.0
7.380462646484375,15.32928466796875,0.1741875410079956,-0.0,-0.0,-1.0,0.1328383911104715,1.0,1.0
7.582612991333008,14.403045654296877,0.0954322814941406,-0.0,-0.0,-1.0,0.1591919337406837,2.0,1.0
6.35554313659668,13.725790023803713,-0.0610324144363403,-0.0,-0.0,-1.0,0.2174266354874096,2.0,0.0
5.458001136779785,13.797884941101074,-0.1167892217636108,-0.0,-0.0,-1.0,0.1689170535964931,1.0,0.0
6.2498369216918945,13.411975860595703,-0.1014779806137085,-0.9839753164736552,0.146167917441269,-0.1021152118024156,0.1789288258975096,3.0,0.0
5.958087921142578,13.43543529510498,-0.1191788911819458,-0.0,-0.0,-1.0,0.1748268590792831,2.0,0.0
5.539811134338379,13.452482223510742,-0.1466120481491089,-0.0,-0.0,-1.0,0.0966023117794745,1.0,0.0
5.261564254760742,13.573688507080078,-0.1536515951156616,-0.0,-0.0,-1.0,0.0914404434526054,2.0,0.0
5.639350891113281,15.55914306640625,-0.441373348236084,0.5465679585000388,0.4586607871609729,-0.700638101349032,0.1061048145973609,5.0,0.0
7.638040542602539,15.588757514953612,-0.4826774597167969,0.9889674797714888,-0.0377577813749644,-0.1432399172719336,0.1755185025840717,3.0,0.0
7.188220024108887,15.45639419555664,-0.5724271535873413,-0.0,-0.0,-1.0,0.231646272597512,1.0,0.0
6.884490013122559,15.51804256439209,-0.6198896169662476,-0.0,-0.0,-1.0,0.1783078303855331,1.0,0.0
6.513156890869141,15.31369972229004,-0.3351784944534302,-0.0,-0.0,-1.0,0.1991611349785128,1.0,0.0
5.688175201416016,15.214374542236328,-0.4584958553314209,-0.0,-0.0,-1.0,0.1174351518639955,1.0,0.0
7.5210418701171875,15.23383903503418,-0.5353682041168213,-0.0804657375553574,0.3196062962058104,-0.944127682310648,0.1327275061089075,3.0,0.0
7.466192245483398,15.158588409423828,-0.5519038438796997,0.8891235639383579,0.1608556966065662,-0.4284678901840485,0.1200618241755089,3.0,0.0
5.758764266967773,14.892934799194336,-0.47246253490448,-0.0,-0.0,-1.0,0.0458256326962227,1.0,0.0
7.435957908630371,14.767569541931152,-0.595585823059082,-0.0,-0.0,-1.0,0.1438219337442262,1.0,0.0
6.455889701843262,14.320918083190918,-0.4235599040985107,-0.0,-0.0,-1.0,0.1612803926400337,1.0,0.0
7.659267425537109,14.317975997924805,-0.6064488887786865,-0.0,-0.0,-1.0,0.0756522918518681,1.0,0.0
6.750972747802734,14.088094711303713,-0.4049800634384155,-0.0,-0.0,-1.0,0.1506622116432946,1.0,0.0
6.465293884277344,14.217486381530762,-0.4314264059066772,-0.5669628554729624,0.1697165793891384,-0.8060703463063227,0.1774395347626294,4.0,0.0
7.098938941955566,13.666499137878418,-0.3994895219802856,-0.0,-0.0,-1.0,0.0743536180727675,1.0,0.0
6.960683822631836,13.917596817016602,-0.3930908441543579,-0.0,-0.0,-1.0,0.2049600097306229,1.0,0.0
7.281313896179199,13.502279281616213,-0.3927263021469116,-0.0,-0.0,-1.0,0.0261869185940576,2.0,0.0
7.418793678283691,13.17958641052246,-0.4091441631317138,-0.0,-0.0,-1.0,0.1160137041823485,2.0,0.0
7.676243782043457,15.41029453277588,-0.1656503677368164,-0.0,-0.0,-1.0,0.098041134428231,1.0,0.0
6.964519500732422,15.347326278686523,-0.2695400714874267,-0.0,-0.0,-1.0,0.2277949959736085,1.0,0.0
7.207187652587891,15.067173957824709,-0.2580845355987549,-0.0,-0.0,-1.0,0.2811174086937026,2.0,0.0
6.9051055908203125,14.953161239624023,-0.1294232606887817,-0.0,-0.0,-1.0,0.223831759014478,1.0,0.0
7.378491401672363,14.78410816192627,-0.258587121963501,-0.0,-0.0,-1.0,0.1922436664051311,1.0,0.0
7.0948076248168945,14.75316333770752,-0.2996264696121216,-0.5312013364583933,0.2139050272639062,-0.8197986212821078,0.2200591911820065,3.0,0.0
5.928784370422363,13.95270824432373,-0.1265658140182495,-0.0,-0.0,-1.0,0.1654077483616626,2.0,0.0
5.351459503173828,13.915850639343262,-0.1884758472442627,-0.0,-0.0,-1.0,0.1915397663399096,1.0,0.0
5.250823974609375,13.814685821533203,-0.2062162160873413,-0.0,-0.0,-1.0,0.1721789560758405,2.0,0.0
7.256457328796387,13.872795104980469,-0.358739972114563,-0.9697159234054132,0.0156619666133718,0.2437329085203476,0.1422285868844328,5.0,0.0
6.688783645629883,13.793426513671877,-0.0619539022445678,-0.0,-0.0,-1.0,0.2198285567232966,2.0,0.0
6.2725372314453125,13.668087005615234,-0.1135104894638061,-0.0,-0.0,-1.0,0.2306375529923339,1.0,0.0
6.121548652648926,13.615421295166016,-0.1326556205749511,-0.0,-0.0,-1.0,0.1839491138112577,2.0,0.0
5.522295951843262,13.575969696044922,-0.1961227655410766,-0.0,-0.0,-1.0,0.1901236641536538,1.0,0.0
5.4262590408325195,13.50052261352539,-0.2115544080734253,-0.0,-0.0,-1.0,0.0988019206811795,1.0,0.0
6.186099052429199,13.183870315551758,-0.1607599258422851,-0.0,-0.0,-1.0,0.0918845391538507,1.0,0.0
7.704608917236328,15.633275985717772,0.1746664047241211,-0.0,-0.0,-1.0,0.1462038231062425,1.0,1.0
7.04091739654541,15.488720893859863,0.095036506652832,-0.0,-0.0,-1.0,0.2538809440230995,2.0,1.0
7.316082000732422,15.181331634521484,0.1040815114974975,-0.0,-0.0,-1.0,0.2329023614153573,1.0,1.0
7.109881401062012,15.004018783569336,0.4144961833953857,-0.0,-0.0,-1.0,0.2308997616093525,2.0,1.0
7.593549728393555,14.421670913696287,0.0777064561843872,-0.4236118247482695,-0.7636156651852885,-0.4872824004795074,0.1591919337406837,4.0,1.0
5.213663101196289,13.250360488891602,0.1784076690673828,-0.9589677613377297,0.0806117954063324,-0.2718134859720375,0.2318277649607208,5.0,1.0
5.564992904663086,13.167104721069336,0.1973525285720825,-0.7923783821742844,0.3855694564881032,0.4727289854518463,0.1469802712437858,4.0,1.0
6.30526065826416,15.5008544921875,-0.5680185556411743,-0.0,-0.0,-1.0,0.1377099269663979,1.0,0.0
6.051274299621582,15.467885971069336,-0.6147081851959229,-0.0,-0.0,-1.0,0.0727193916295591,1.0,0.0
7.630877494812012,15.481794357299805,-0.6430182456970215,-0.0,-0.0,-1.0,0.1099194366025196,1.0,0.0
6.435632705688477,15.244428634643556,-0.5851881504058838,-0.0,-0.0,-1.0,0.1295456101055218,1.0,0.0
5.416733741760254,15.599442481994627,-0.3427982330322265,-0.0,-0.0,-1.0,0.1282174446658251,1.0,0.0
6.740423202514648,15.461856842041016,-0.3428012132644653,-0.0,-0.0,-1.0,0.1681015093573319,1.0,0.0
6.489497184753418,15.34763240814209,-0.2352888584136963,-0.0,-0.0,-1.0,0.1721733674174561,2.0,0.0
6.069451332092285,15.478504180908203,-0.2721982002258301,-0.0,-0.0,-1.0,0.1148135579158795,2.0,0.0
5.451742172241211,15.281397819519045,-0.3801500797271728,-0.0,-0.0,-1.0,0.1592867969804,1.0,0.0
5.377684593200684,15.101295471191406,-0.4143944978713989,-0.0,-0.0,-1.0,0.202199973039009,1.0,0.0
7.670950889587402,15.54304313659668,-0.3375413417816162,-0.0,-0.0,-1.0,0.1286715664650149,1.0,0.0
7.1806416511535645,15.234659194946287,-0.314171552658081,-0.4421171811105562,-0.7921085984852981,-0.4208281910382341,0.2272539847130948,3.0,0.0
6.921209335327148,15.319744110107422,-0.3383338451385498,-0.0,-0.0,-1.0,0.2568682400313989,1.0,0.0
7.619810104370117,14.843300819396973,-0.4626098871231079,-0.8249409212909526,0.4304550644934685,0.3663071304678054,0.1970180310588861,4.0,0.0
7.204601287841797,14.97686004638672,-0.3510719537734985,-0.0,-0.0,-1.0,0.2528979585309314,1.0,0.0
7.107207775115967,14.85880184173584,-0.383468747138977,-0.0,-0.0,-1.0,0.1884646403718232,2.0,0.0
7.484857082366943,14.559053421020508,-0.3827718496322632,-0.0,-0.0,-1.0,0.1443113505113747,2.0,0.0
7.176328182220459,14.6489839553833,-0.408360481262207,-0.0,-0.0,-1.0,0.2146635376436392,1.0,0.0
6.438505172729492,14.19973373413086,-0.4148904085159302,-0.5669628554729624,0.1697165793891384,-0.8060703463063227,0.1709902322386092,4.0,0.0
5.262079238891602,13.87601089477539,-0.227773904800415,-0.0,-0.0,-1.0,0.1824438993560284,1.0,0.0
7.668649673461914,14.26091194152832,-0.5617895126342773,-0.0,-0.0,-1.0,0.0560865574141372,1.0,0.0
6.841630935668945,14.01870346069336,-0.3962886333465576,-0.0,-0.0,-1.0,0.1777148133072524,1.0,0.0
7.275276184082031,13.64902114868164,-0.4099483489990234,-0.0,-0.0,-1.0,0.0283345101392929,2.0,0.0
7.455503463745117,13.31274127960205,-0.4509460926055908,-0.0,-0.0,-1.0,0.1022534590560232,2.0,0.0
7.2046613693237305,14.757969856262209,0.0737617015838623,-0.0,-0.0,-1.0,0.1375476452663284,1.0,1.0
7.556241035461426,14.44151210784912,0.0591077804565429,-0.0,-0.0,-1.0,0.1536304243425423,2.0,1.0
6.454200744628906,14.389703750610352,-0.0466094017028808,-0.0,-0.0,-1.0,0.155810815592014,1.0,0.0
5.950922966003418,13.957626342773438,-0.1539446115493774,-0.0,-0.0,-1.0,0.1654077483616626,2.0,0.0
6.345332145690918,13.638726234436035,-0.1665884256362915,0.6888532580740724,-0.050868766237766,-0.7231137928861422,0.135712940711152,3.0,0.0
6.1059112548828125,13.70804214477539,0.0013740062713623,-0.0,-0.0,-1.0,0.1600728736848171,1.0,1.0
5.654747009277344,13.446107864379885,0.1179441213607788,-0.0,-0.0,-1.0,0.1583526699496167,2.0,1.0
5.2543792724609375,13.43723487854004,0.0942317247390747,-0.0,-0.0,-1.0,0.1324044900143311,1.0,1.0
6.494614601135254,13.375240325927734,-0.1945513486862182,-0.0,-0.0,-1.0,0.1221631357509207,2.0,0.0
6.334343910217285,13.51950454711914,-0.1856805086135864,-0.0,-0.0,-1.0,0.1456662849870372,1.0,0.0
5.5391693115234375,15.614479064941406,-0.4794869422912597,-0.0,-0.0,-1.0,0.073756166465888,1.0,0.0
5.68781852722168,15.41848373413086,-0.4845763444900512,0.979308423908792,0.0103131786060977,0.2021104876257445,0.0579736655917171,3.0,0.0
5.256712913513184,15.120500564575195,-0.2539093494415283,-0.0,-0.0,-1.0,0.1552274779003998,2.0,0.0
6.742390155792236,15.38229751586914,-0.3235414028167724,-0.0,-0.0,-1.0,0.1829575459138629,1.0,0.0
5.776968955993652,15.184765815734863,-0.5061649084091187,-0.0,-0.0,-1.0,0.0877801434349519,1.0,0.0
5.242093086242676,14.633222579956056,-0.3279879093170166,-0.0,-0.0,-1.0,0.1275758863459907,1.0,0.0
7.067451000213623,15.274925231933594,-0.2909190654754638,-0.0,-0.0,-1.0,0.2711440970579324,2.0,0.0
6.921736717224121,15.152956008911133,-0.3336890935897827,-0.0,-0.0,-1.0,0.2430739195593502,1.0,0.0
5.414445877075195,14.291247367858888,-0.3615026473999023,-0.0,-0.0,-1.0,0.0795797124081383,1.0,0.0
7.068963050842285,14.87847137451172,-0.3592293262481689,0.0774955197570434,0.8304777130736032,-0.5516350356038161,0.2175358105289211,3.0,0.0
6.775475025177002,14.53586769104004,-0.4649651050567627,-0.0,-0.0,-1.0,0.2015490593542761,1.0,0.0
6.436537742614746,14.514930725097656,-0.518726110458374,-0.0,-0.0,-1.0,0.1545679513368126,1.0,0.0
5.950882911682129,14.00324249267578,-0.3479980230331421,-0.0,-0.0,-1.0,0.1285762200811214,1.0,0.0
5.604013442993164,14.042381286621094,-0.3806881904602051,-0.0,-0.0,-1.0,0.1204430051607741,2.0,0.0
7.0462236404418945,14.473041534423828,-0.4373350143432617,-0.0,-0.0,-1.0,0.0616129638907143,1.0,0.0
7.060935020446777,14.170889854431152,-0.4940109252929687,-0.0,-0.0,-1.0,0.0915697063686037,1.0,0.0
6.449920177459717,13.913530349731444,-0.3085905313491821,-0.0,-0.0,-1.0,0.1274378716205185,1.0,0.0
6.154444694519043,13.856688499450684,-0.3512842655181885,-0.0,-0.0,-1.0,0.1335951996954485,2.0,0.0
7.343017101287842,14.121134757995604,-0.4650797843933105,-0.5585192461438007,-0.5869259192404731,-0.586152042571453,0.1287483293420107,3.0,0.0
7.193338871002197,14.03244972229004,-0.503521203994751,-0.0,-0.0,-1.0,0.0929035091551786,1.0,0.0
6.59803581237793,13.659055709838867,-0.339483380317688,-0.5483248138149571,0.8361709502339126,0.012571417569555,0.2013539078578241,3.0,0.0
6.490717887878418,13.50306797027588,-0.3798978328704834,-0.0,-0.0,-1.0,0.1613372145798055,1.0,0.0
7.490496635437012,13.710397720336914,-0.5317481756210327,-0.0,-0.0,-1.0,0.043989456770619,1.0,0.0
6.8268351554870605,13.251459121704102,-0.3942675590515136,-0.0,-0.0,-1.0,0.129030907499873,2.0,0.0
6.663686275482178,13.31128215789795,-0.3988956212997436,-0.0,-0.0,-1.0,0.2403184588456447,1.0,0.0
6.723147392272949,15.52133846282959,-0.0152786970138549,-0.0,-0.0,-1.0,0.1430006935192361,1.0,0.0
7.689533233642578,15.549248695373535,-0.0208971500396728,-0.0,-0.0,-1.0,0.0800998249571099,1.0,0.0
7.16550350189209,15.133138656616213,-0.0202827453613281,-0.0,-0.0,-1.0,0.2223990498089225,1.0,0.0
6.8916707038879395,14.97317886352539,-0.0780773162841796,-0.0,-0.0,-1.0,0.2357474483690127,2.0,0.0
6.584653377532959,14.899484634399414,0.0240602493286132,-0.0,-0.0,-1.0,0.166749264522745,1.0,1.0
7.538740158081055,14.8948974609375,-0.2863926887512207,-0.0,-0.0,-1.0,0.1763658555804389,2.0,0.0
7.098019123077393,14.806787490844728,-0.0812034606933593,-0.8177558678645173,0.5058681341720421,0.2745410195261306,0.2027782096937337,3.0,0.0
6.478937149047852,14.405865669250488,-0.2193086147308349,-0.0,-0.0,-1.0,0.2250299950950229,1.0,0.0
7.596989154815674,14.55512809753418,-0.3425366878509521,-0.0,-0.0,-1.0,0.1624324542151035,1.0,0.0
6.085278511047363,13.712443351745604,-0.0510278940200805,-0.0,-0.0,-1.0,0.1435746883088673,1.0,0.0
5.934014320373535,13.456297874450684,-0.1047251224517822,-0.0,-0.0,-1.0,0.2014874749530152,2.0,0.0
5.477964401245117,13.453670501708984,-0.1402317285537719,-0.0,-0.0,-1.0,0.1472643964927777,1.0,0.0
5.216770172119141,13.23231029510498,0.1690962314605713,-0.9853045997441628,0.0016648978750789,-0.1707983426092335,0.2409490234720596,4.0,1.0
6.894463062286377,13.990431785583496,-0.2464257478713989,-0.0,-0.0,-1.0,0.2603973164060445,2.0,0.0
6.214613914489746,13.52865219116211,-0.0715042352676391,-0.0,-0.0,-1.0,0.2501249883541661,1.0,0.0
6.2125091552734375,13.34995174407959,-0.1019179821014404,-0.0,-0.0,-1.0,0.1498153874518905,1.0,0.0
7.023735523223877,13.34775733947754,-0.3559621572494507,-0.0,-0.0,-1.0,0.0660430851921203,2.0,0.0
6.740458965301514,15.00446605682373,0.2010068893432617,-0.0,-0.0,-1.0,0.2011588149502057,1.0,1.0
5.559053421020508,13.183219909667969,0.1772193908691406,-0.7923783821742844,0.3855694564881032,0.4727289854518463,0.1618187878089981,4.0,1.0
7.594261169433594,14.347785949707031,0.1689851284027099,-0.0,-0.0,-1.0,0.125041027580949,1.0,1.0
5.286111831665039,14.52690887451172,-0.3408396244049072,-0.0649171755292448,-0.8366028088583511,-0.5439499062704414,0.145502248367505,3.0,0.0
5.460352897644043,14.164973258972168,-0.3713476657867431,-0.0,-0.0,-1.0,0.1080775400263774,1.0,0.0
5.5705108642578125,14.004159927368164,-0.3820478916168213,-0.0,-0.0,-1.0,0.1163498465944126,2.0,0.0
5.2932586669921875,15.098788261413574,-0.2616351842880249,-0.0235451227222002,0.2997334999747299,-0.9537323818498012,0.1968494871527341,3.0,0.0
6.7863311767578125,14.832839965820312,-0.0914974212646484,-0.0,-0.0,-1.0,0.2400293320895895,1.0,0.0
6.4455976486206055,14.337583541870115,-0.2137640714645385,-0.0,-0.0,-1.0,0.1784229374736295,2.0,0.0
6.04130744934082,13.90231990814209,-0.337734580039978,-0.0,-0.0,-1.0,0.1418696259554724,1.0,0.0
5.642531394958496,13.400259971618652,-0.1358379125595092,-0.0,-0.0,-1.0,0.0859638540396828,2.0,0.0
5.409628868103027,13.46591854095459,-0.1473264694213867,0.9657924364221874,-0.2210985730932411,-0.1355005192825055,0.1320317628790339,3.0,0.0
6.490255832672119,13.846150398254396,-0.2906651496887207,-0.0,-0.0,-1.0,0.1656218414016737,2.0,0.0
6.316389083862305,13.620401382446287,-0.19287109375,0.1282131881630001,0.7417234527907902,-0.6583370701708876,0.1367641923589244,3.0,0.0
6.019295692443848,13.374168395996094,-0.1057244539260864,-0.0,-0.0,-1.0,0.2513555585859858,2.0,0.0
5.6493377685546875,13.294550895690918,-0.1521308422088623,-0.0,-0.0,-1.0,0.0734966589499312,1.0,0.0
6.560420989990234,13.634092330932615,-0.3197153806686401,-0.3728281917157549,0.8522943825156084,0.3668697657129817,0.1838872308410914,3.0,0.0
6.546687602996826,13.415399551391602,-0.3617112636566162,-0.0,-0.0,-1.0,0.1929574071675773,2.0,0.0
6.31591796875,13.150470733642578,-0.1169877052307128,-0.0,-0.0,-1.0,0.1027441005728212,2.0,0.0
7.150941848754883,13.216009140014648,-0.3304860591888428,-0.0,-0.0,-1.0,0.0808878201131648,2.0,0.0
6.81128454208374,13.212334632873535,-0.3696075677871704,-0.0,-0.0,-1.0,0.1359003055565405,2.0,0.0
7.526665687561035,13.259318351745604,-0.2804564237594604,-0.9310614850805484,0.2868744195334407,-0.225449724810111,0.1405159671534863,3.0,0.0
7.0897932052612305,15.552450180053713,0.051419973373413,-0.5920935724419718,-0.4103861138325242,-0.6935477193721731,0.2031074119054075,4.0,1.0
7.014863967895508,14.79026985168457,-0.0671303272247314,-0.0,-0.0,-1.0,0.1803873141237967,2.0,0.0
5.921648979187012,13.735682487487791,0.2634557485580444,0.0748991031321017,0.3988401746675625,-0.9139565850855036,0.130457148216041,3.0,1.0
5.22432804107666,13.289032936096191,0.1577955484390258,-0.931417564409143,0.1257206759026638,-0.3415488725800708,0.1830393635560105,4.0,1.0
7.425882816314697,14.672887802124023,0.0974800586700439,-0.0,-0.0,-1.0,0.1398334023488944,1.0,1.0
5.544544219970703,13.169881820678713,0.1600645780563354,-0.7923783821742844,0.3855694564881032,0.4727289854518463,0.1221882279857549,4.0,1.0
7.532530784606934,14.476570129394531,-0.0505294799804687,-0.0,-0.0,-1.0,0.1597949772090039,1.0,0.0
5.2643632888793945,15.032577514648438,-0.2954118251800537,-0.0,-0.0,-1.0,0.1298647240845124,2.0,0.0
5.326236724853516,14.447256088256836,-0.3488166332244873,-0.0,-0.0,-1.0,0.0969050861916674,1.0,0.0
6.46799898147583,15.173128128051758,-0.093172550201416,-0.0,-0.0,-1.0,0.1254436131189491,2.0,0.0
5.5765228271484375,14.05744171142578,-0.358612060546875,-0.0,-0.0,-1.0,0.1265552205078034,2.0,0.0
5.286808967590332,13.591219902038574,-0.1275572776794433,0.7782111484441363,-0.4000080750859873,-0.4841290616181407,0.0996168111212445,3.0,0.0
6.516345024108887,15.159445762634276,-0.0870695114135742,0.6295667343092662,0.3172836956796471,-0.7092085613605005,0.1065772435013122,3.0,0.0
6.038077354431152,13.951034545898438,-0.3049110174179077,0.8971855038771677,-0.1070456579325671,0.4284850041138615,0.1613803138020456,3.0,0.0
5.617793083190918,13.363691329956056,-0.1202054023742675,-0.0,-0.0,-1.0,0.090897680685683,2.0,0.0
5.391749382019043,13.291130065917969,-0.1540760993957519,-0.0,-0.0,-1.0,0.1001258539578872,1.0,0.0
6.680013179779053,14.625337600708008,-0.1226637363433837,-0.0,-0.0,-1.0,0.1533096131583482,2.0,0.0
6.468721866607666,14.340123176574709,-0.1901068687438964,0.6297930034719752,-0.1556406390867972,-0.761010357513222,0.2273081338098483,4.0,0.0
6.270534515380859,13.803504943847656,-0.2920247316360473,-0.0,-0.0,-1.0,0.162141411916552,2.0,0.0
6.39118766784668,13.604843139648438,-0.3040508031845093,-0.0,-0.0,-1.0,0.1163267069111824,1.0,0.0
5.9591217041015625,13.158490180969238,-0.11153244972229,-0.0,-0.0,-1.0,0.1536250688532653,2.0,0.0
6.561886787414551,13.404869079589844,-0.3112709522247314,-0.0,-0.0,-1.0,0.1942656673571341,1.0,0.0
7.137273788452148,13.20260238647461,-0.2678511142730713,-0.0,-0.0,-1.0,0.0735107727688732,1.0,0.0
7.263265132904053,13.212786674499512,-0.2499064207077026,-0.0,-0.0,-1.0,0.1152770217694583,1.0,0.0
5.216910362243652,13.242088317871094,0.1598203182220459,-0.9589677613377297,0.0806117954063324,-0.2718134859720375,0.2707347775156615,5.0,1.0
7.021617412567139,15.52244758605957,0.0282303094863891,-0.987067197562895,0.0065711601684052,-0.1601723051884246,0.2452973279409685,4.0,1.0
6.698460578918457,15.21857738494873,-0.0526388883590698,0.7129659896581723,-0.1487440184768513,-0.6852406252974943,0.2107734647427691,3.0,0.0
5.577486038208008,13.242069244384766,0.1872057914733886,-0.0,-0.0,-1.0,0.2676512139242399,1.0,1.0
5.546935081481934,13.16189956665039,0.175410509109497,-0.7923783821742844,0.3855694564881032,0.4727289854518463,0.1221882279857549,4.0,1.0
7.206892967224121,15.137715339660645,0.0173282623291015,-0.0,-0.0,-1.0,0.2081895214236783,1.0,1.0
6.972234725952148,14.901148796081545,-0.0458041429519653,-0.0,-0.0,-1.0,0.2322330042507754,1.0,0.0
6.782588005065918,14.77755069732666,-0.0888006687164306,-0.0,-0.0,-1.0,0.1594085172236618,1.0,0.0
7.583718299865723,14.492366790771484,-0.0067698955535888,0.6386595334796852,-0.5448188652520165,-0.5434026171827074,0.18922742615813,3.0,0.0
7.503382682800293,14.695713996887209,0.2553732395172119,-0.0,-0.0,-1.0,0.1285637737439278,2.0,1.0
5.79041862487793,15.336570739746094,-0.5008571147918701,0.8547441027754534,0.46712616927537,-0.22628667823958,0.1016374359823034,3.0,0.0
5.291726112365723,14.512883186340332,-0.3199379444122314,-0.0649171755292448,-0.8366028088583511,-0.5439499062704414,0.1867269066827826,3.0,0.0
5.391505241394043,14.28012752532959,-0.3135275840759277,-0.0,-0.0,-1.0,0.1108174732447909,2.0,0.0
5.836849212646484,15.407081604003906,-0.4889717102050781,-0.0,-0.0,-1.0,0.1953488620117474,2.0,0.0
5.800483703613281,15.318946838378906,-0.4992198944091797,0.8547441027754534,0.46712616927537,-0.22628667823958,0.0979578676981597,3.0,0.0
5.457162857055664,14.048003196716309,-0.3149951696395874,-0.0,-0.0,-1.0,0.0965794074413475,1.0,0.0
6.231212139129639,14.498895645141602,-0.4450454711914062,-0.0,-0.0,-1.0,0.1219477773184739,1.0,0.0
6.235382080078125,14.33328628540039,-0.4544312953948974,-0.0,-0.0,-1.0,0.1103492013108472,1.0,0.0
6.459129333496094,14.077096939086914,-0.4265482425689697,-0.0,-0.0,-1.0,0.0948949449471261,1.0,0.0
6.456263065338135,13.88888168334961,-0.4414769411087036,-0.0,-0.0,-1.0,0.0889909654644749,1.0,0.0
6.641354084014893,13.885047912597656,-0.4046640396118164,-0.0,-0.0,-1.0,0.1412427886922154,1.0,0.0
6.7284345626831055,13.612792015075684,-0.4112814664840698,-0.0,-0.0,-1.0,0.1175545979597972,1.0,0.0
6.714645862579346,13.353870391845703,-0.4383382797241211,-0.0,-0.0,-1.0,0.1766877213499249,1.0,0.0
6.918033123016357,13.409696578979492,-0.3935335874557495,-0.0,-0.0,-1.0,0.0961790458537592,1.0,0.0
6.931159496307373,13.233630180358888,-0.4089607000350952,-0.0,-0.0,-1.0,0.1695448374471288,2.0,0.0
5.270353317260742,15.038202285766602,-0.3037391901016235,-0.0,-0.0,-1.0,0.1548722112745359,2.0,0.0
5.404008865356445,14.99982452392578,-0.2814910411834717,-0.0499116406338488,0.8769177218564157,-0.4780419826996279,0.144149818299382,3.0,0.0
5.5026044845581055,14.11863136291504,-0.3032325506210327,-0.0,-0.0,-1.0,0.103440666215499,1.0,0.0
5.441977500915527,13.664102554321287,-0.0224107503890991,-0.3315181351562672,0.5239065138253984,-0.7846130835219537,0.1941010044460421,4.0,0.0
6.541879177093506,15.129816055297852,-0.0776584148406982,-0.4343279774786189,-0.2667252648338312,-0.8603585537894393,0.1429621041770974,6.0,0.0
6.069846153259277,13.925992965698242,-0.2185345888137817,0.2957267148633126,0.0856821668507323,-0.95142223875623,0.1492568213746994,5.0,0.0
5.600751876831055,13.432977676391602,-0.0145020484924316,-0.0,-0.0,-1.0,0.1714950154953341,1.0,0.0
7.092637538909912,15.43730640411377,-0.2212127447128296,-0.0,-0.0,-1.0,0.2292137451103077,2.0,0.0
6.850343704223633,15.239935874938965,-0.1477524042129516,-0.7863220723714558,0.3103432791190652,-0.5342140466209073,0.2249775187835707,3.0,0.0
6.852915287017822,14.850341796875,-0.1646338701248169,-0.0,-0.0,-1.0,0.162661337729129,1.0,0.0
6.448173999786377,14.23599338531494,-0.1355270147323608,-0.0,-0.0,-1.0,0.1614628267442138,1.0,0.0
6.2980852127075195,13.682872772216797,-0.1972912549972534,-0.0,-0.0,-1.0,0.1443609166385636,1.0,0.0
6.079266548156738,13.349336624145508,-0.1079130172729492,-0.0,-0.0,-1.0,0.1595508620758267,2.0,0.0
7.163573265075684,15.173444747924805,-0.2161511182785034,-0.0,-0.0,-1.0,0.2048890420719938,2.0,0.0
7.0313944816589355,14.897664070129396,-0.1287723779678344,-0.0,-0.0,-1.0,0.2553643799171736,2.0,0.0
6.865617275238037,13.888855934143066,-0.3594914674758911,-0.0,-0.0,-1.0,0.2016144165158499,2.0,0.0
6.755375385284424,13.71189308166504,-0.2563146352767944,-0.0,-0.0,-1.0,0.0882189226250727,2.0,0.0
7.636441230773926,14.493374824523926,-0.1566877365112304,-0.0,-0.0,-1.0,0.1136005149950335,2.0,0.0
7.026259422302246,13.824413299560549,-0.3331211805343628,-0.0,-0.0,-1.0,0.1376054829877313,2.0,0.0
6.982473373413086,13.549713134765623,-0.3671163320541382,0.2579331005419337,-0.0830134865682439,-0.9625898797996,0.0655872170650355,3.0,0.0
7.690221786499023,13.2091064453125,-0.2685585021972656,-0.7791320299966623,0.4326114638969274,-0.453652511442666,0.154265868456348,4.0,0.0
5.238780975341797,13.228017807006836,0.2527883052825928,-0.6905497881037732,0.0061752834445411,0.723258498756989,0.1669176960154507,3.0,1.0
5.682315826416016,13.211087226867676,0.2950290441513061,-0.0,-0.0,-1.0,0.1877043768252885,1.0,1.0
7.081196308135986,15.485599517822266,0.027724266052246,-0.7304136441336211,0.1660060520598942,-0.6625238857150224,0.2675778442443655,3.0,1.0
6.6447601318359375,14.810616493225098,0.1941732168197631,-0.0,-0.0,-1.0,0.1564890989168529,2.0,1.0
6.170780181884766,13.489831924438477,0.0637093782424926,-0.7833155700135741,0.1900375126023349,-0.5918635497969337,0.0797713242758493,9.0,1.0
7.103325366973877,15.116003036499023,0.0200001001358032,-0.0,-0.0,-1.0,0.1352748938395237,1.0,1.0
7.554585456848144,14.629351615905762,0.193623661994934,-0.8760191463912098,0.3967204450456783,-0.2742322804462936,0.1318777087904997,4.0,1.0
7.678453922271728,14.410164833068848,0.0828379392623901,-0.0,-0.0,-1.0,0.1462141984096552,2.0,1.0
5.790319919586182,15.62378978729248,-0.5416504144668579,-0.0,-0.0,-1.0,0.0374726160583448,1.0,0.0
6.177386283874512,14.407251358032228,-0.4848389625549316,-0.0,-0.0,-1.0,0.0693966752913187,1.0,0.0
5.373588562011719,15.41787052154541,-0.3346000909805298,0.9471298986161796,0.2917429783876859,0.13353272897978,0.1450118500511663,3.0,0.0
5.214592933654785,15.023090362548828,-0.3712745904922485,-0.0,-0.0,-1.0,0.1736066999777177,2.0,0.0
5.315803527832031,14.755619049072266,-0.3589873313903808,-0.0,-0.0,-1.0,0.0523032669745192,1.0,0.0
5.460318565368652,14.919717788696287,-0.3272888660430908,-0.0,-0.0,-1.0,0.1304416208325697,2.0,0.0
5.379185676574707,14.485637664794922,-0.3562458753585815,-0.0,-0.0,-1.0,0.1852000546668742,1.0,0.0
5.474710464477539,14.223173141479492,-0.3490957021713257,-0.0,-0.0,-1.0,0.0972441728547561,2.0,0.0
5.265612602233887,13.460832595825195,-0.1199582815170288,-0.0,-0.0,-1.0,0.1378726542923064,2.0,0.0
5.5842742919921875,13.994935035705566,-0.339695930480957,-0.0,-0.0,-1.0,0.1199604237887677,2.0,0.0
5.536791801452637,13.460816383361816,-0.0798406600952148,-0.0,-0.0,-1.0,0.1882930845003871,2.0,0.0
5.467171669006348,13.355642318725586,-0.0962812900543212,0.6049939362571058,-0.1597969552489663,-0.7800303008122778,0.1253676940415604,4.0,0.0
6.777502059936523,15.308257102966309,-0.3225381374359131,-0.0,-0.0,-1.0,0.2154866210645377,1.0,0.0
6.5726752281188965,15.145792961120604,-0.1128956079483032,0.9628292710619284,-0.0823877505583421,0.2572392919915078,0.150122115700846,5.0,0.0
6.315032005310059,14.729204177856444,-0.4408774375915527,-0.0,-0.0,-1.0,0.1097315454908715,1.0,0.0
6.3460469245910645,14.247509002685549,-0.4552675485610962,-0.0,-0.0,-1.0,0.1415194196533383,1.0,0.0
6.143353462219238,13.833222389221191,-0.2453484535217285,-0.0,-0.0,-1.0,0.1737627296857572,1.0,0.0
7.092485427856445,15.26123332977295,-0.2527686357498169,-0.0,-0.0,-1.0,0.2792734682708681,2.0,0.0
7.000408172607422,14.896634101867676,-0.2818746566772461,0.2970331509046026,0.4427856626184661,-0.8459977330012238,0.157966134835271,3.0,0.0
6.564935684204102,14.15040397644043,-0.2807797193527221,-0.0,-0.0,-1.0,0.1509937692957864,1.0,0.0
6.500111103057861,13.591930389404297,-0.3280917406082153,-0.0,-0.0,-1.0,0.1151081772067911,1.0,0.0
6.449038505554199,13.393186569213867,-0.2186616659164428,-0.0,-0.0,-1.0,0.1357200539849939,1.0,0.0
7.257194995880127,15.145391464233398,-0.2176258563995361,-0.0,-0.0,-1.0,0.221431637896919,1.0,0.0
7.1298627853393555,14.755494117736816,-0.2575474977493286,-0.0,-0.0,-1.0,0.2383516334661342,2.0,0.0
6.985668182373047,13.855891227722168,-0.3382624387741089,-0.0,-0.0,-1.0,0.2056090775826564,1.0,0.0
6.850353240966797,13.642438888549805,-0.3838156461715698,-0.0,-0.0,-1.0,0.1074115331559466,1.0,0.0
6.741152763366699,13.20180320739746,-0.3116558790206909,-0.0,-0.0,-1.0,0.1161073906586209,1.0,0.0
7.611337661743164,14.493824005126951,-0.1612333059310913,-0.0,-0.0,-1.0,0.1481992191298509,2.0,0.0
7.569207191467285,13.203876495361328,-0.2689160108566284,-0.0,-0.0,-1.0,0.1092478870336895,2.0,0.0
5.3296966552734375,13.21194076538086,0.1806737184524536,-0.7994245492928714,-0.3264281261391833,0.5043461791796882,0.2300680129776153,4.0,1.0
6.081784725189209,13.394160270690918,-0.0035805702209472,-0.0,-0.0,-1.0,0.09908457114745,1.0,0.0
6.87213659286499,14.860410690307615,0.0594493150711059,-0.0,-0.0,-1.0,0.1896074420672125,1.0,1.0
6.74092435836792,14.590002059936523,-0.0972069501876831,-0.0,-0.0,-1.0,0.2057969925581261,1.0,0.0
6.264098644256592,13.59505844116211,0.0353579521179199,-0.0,-0.0,-1.0,0.1363813278949496,1.0,1.0
7.24701452255249,14.705415725708008,0.0018619298934936,-0.0,-0.0,-1.0,0.1341421735233104,1.0,1.0
7.593136787414551,14.57716178894043,0.061685562133789,-0.0,-0.0,-1.0,0.1118252399246174,2.0,1.0
7.649915218353272,14.382115364074709,0.0634117126464843,0.352101049776595,0.263714765555976,-0.898041966265484,0.144843361530757,3.0,1.0
7.5302228927612305,14.620583534240724,0.2737681269645691,-0.7026604964021561,0.3509853010471855,-0.6189325853796133,0.1427999154684472,4.0,1.0
5.283519744873047,13.809381484985352,0.0786973237991333,-0.0,-0.0,-1.0,0.1968705852761917,1.0,1.0
5.331421852111816,13.499279022216797,0.0968676805496215,-0.0,-0.0,-1.0,0.2091780723312961,1.0,1.0
5.277029991149902,13.321086883544922,0.0948487520217895,-0.0,-0.0,-1.0,0.191507473668792,1.0,1.0
6.114785194396973,13.33660888671875,0.2110921144485473,-0.0,-0.0,-1.0,0.2080801980706738,1.0,1.0
5.423427581787109,13.430305480957031,-0.0616159439086914,-0.0,-0.0,-1.0,0.2642385442366941,2.0,0.0
5.577117919921875,13.298287391662598,-0.0307779312133789,0.5037167039342555,0.7812165606833235,-0.3687413287003895,0.255725289879109,3.0,0.0
5.734492301940918,13.145502090454102,0.0006682872772216,-0.0,-0.0,-1.0,0.1311340383854644,2.0,1.0
5.349618911743164,15.248262405395508,-0.2160484790802002,-0.0,-0.0,-1.0,0.1228016204885065,1.0,0.0
6.230527877807617,13.178581237792969,0.0781220197677612,-0.0,-0.0,-1.0,0.1634489948081255,1.0,1.0
5.376896858215332,13.448776245117188,0.2374341487884521,-0.0,-0.0,-1.0,0.1179860745413018,1.0,1.0
7.635919094085693,14.35760498046875,0.23213791847229,-0.0,-0.0,-1.0,0.0985079119145192,1.0,1.0
5.730205535888672,13.994359970092772,-0.3638591766357422,-0.0,-0.0,-1.0,0.2132062573195272,1.0,0.0
6.783717632293701,13.302010536193848,-0.4445264339447021,-0.0,-0.0,-1.0,0.17317634274152,1.0,0.0
6.8580241203308105,13.718116760253906,-0.4257715940475464,-0.0,-0.0,-1.0,0.1353179462815035,2.0,0.0
6.863215923309326,13.441129684448242,-0.4252742528915405,-0.0,-0.0,-1.0,0.1137547468772587,1.0,0.0
6.686620712280273,14.199365615844728,-0.4696600437164306,-0.0,-0.0,-1.0,0.0758036753177787,1.0,0.0
6.892796039581299,14.071854591369627,-0.4209952354431152,-0.5451584465374567,-0.8300121878562521,-0.1178220530246562,0.1681143413683307,4.0,0.0
5.337623596191406,13.620281219482422,-0.1078391075134277,0.1663845073615082,0.2291706374355583,-0.9590604853957064,0.1787362785863089,3.0,0.0
5.478385925292969,13.246703147888184,-0.0871634483337402,-0.0,-0.0,-1.0,0.1746642769832134,2.0,0.0
5.257107734680176,13.987524032592772,-0.1222565174102783,-0.0,-0.0,-1.0,0.1497665474397182,2.0,0.0
5.687919616699219,13.455368041992188,-0.0541576147079467,-0.0,-0.0,-1.0,0.1695676652002852,1.0,0.0
6.083603858947754,13.253063201904297,-0.1441986560821533,-0.0,-0.0,-1.0,0.1159957176814114,1.0,0.0
6.197758674621582,13.838042259216309,-0.2741317749023437,-0.0,-0.0,-1.0,0.0817515456819372,2.0,0.0
6.5039286613464355,13.556532859802246,-0.2155957221984863,-0.0,-0.0,-1.0,0.1519628255921776,2.0,0.0
6.887070178985596,13.774460792541504,-0.2805540561676025,-0.8272599887457643,0.1218807744235652,-0.5484395936165347,0.1697747585713542,3.0,0.0
7.01039457321167,13.600262641906738,-0.391350507736206,-0.0,-0.0,-1.0,0.0599349424753013,1.0,0.0
7.053327560424805,13.965169906616213,-0.38341224193573,-0.1624180313961715,0.0774154195832258,-0.983680454155792,0.1658033019755115,5.0,0.0
7.16959285736084,13.76927089691162,-0.3558963537216186,-0.0,-0.0,-1.0,0.1040753518437958,1.0,0.0
5.336875915527344,13.163437843322754,0.2161813974380493,-0.6771091197467526,0.3788083270731938,-0.630894199763943,0.2065817386840938,3.0,1.0
6.3554792404174805,13.491781234741213,0.0480027198791503,-0.0,-0.0,-1.0,0.0693982549709887,1.0,1.0
7.540288925170898,13.40044403076172,-0.3782743215560913,-0.0,-0.0,-1.0,0.1581417030993996,1.0,0.0
7.664714813232422,13.40630054473877,-0.3684817552566528,-0.0,-0.0,-1.0,0.1172468322117533,1.0,0.0
5.292028427124023,13.884027481079102,0.1223573684692382,-0.0,-0.0,-1.0,0.1288591773582104,1.0,1.0
5.545846939086914,13.888338088989258,0.1347192525863647,-0.0,-0.0,-1.0,0.2474370265811874,1.0,1.0
5.856208801269531,14.889785766601562,-0.4147318601608276,-0.0,-0.0,-1.0,0.0342087871860382,1.0,0.0
5.920297622680664,15.054585456848145,-0.4195621013641357,-0.0,-0.0,-1.0,0.0392911905538695,1.0,0.0
6.668914794921875,14.859813690185549,-0.3629491329193115,-0.0,-0.0,-1.0,0.2185357469295929,1.0,0.0
6.660480499267578,13.555150032043455,-0.2958472967147827,-0.0,-0.0,-1.0,0.1643234460990649,1.0,0.0
6.774505615234375,13.349469184875488,-0.2785210609436035,0.3963378318998637,-0.9178911403942952,0.019803469155069,0.238224942695994,3.0,0.0
6.9270477294921875,14.70863151550293,-0.3388755321502685,-0.0,-0.0,-1.0,0.2212222864835612,1.0,0.0
6.998188018798828,13.900837898254396,-0.2915247678756714,-0.0,-0.0,-1.0,0.1451174218657621,1.0,0.0
6.899341583251953,13.802689552307127,-0.2927907705307007,-0.0932667870589915,-0.3615828696039979,-0.927663265867864,0.2183380572234714,3.0,0.0
7.362899780273437,15.068756103515623,-0.3329143524169922,-0.0,-0.0,-1.0,0.2203707042290102,1.0,0.0
7.134836196899414,14.854260444641112,-0.3343667984008789,-0.0,-0.0,-1.0,0.2166143340405311,1.0,0.0
7.687114715576172,14.479634284973145,-0.2799364328384399,-0.0,-0.0,-1.0,0.1011930857217425,1.0,0.0
7.519306182861328,14.675285339355469,0.3639963269233703,-0.8835518742257903,-0.4671307478452393,-0.0335402738456416,0.083896543119177,3.0,1.0
5.3322906494140625,14.349794387817385,-0.1656231880187988,-0.0,-0.0,-1.0,0.1475403714659779,2.0,0.0
6.339977264404297,13.364398956298828,-0.0572071075439453,-0.0,-0.0,-1.0,0.1691469884858792,1.0,0.0
7.154056549072266,14.812883377075195,-0.146181583404541,-0.0,-0.0,-1.0,0.2281775445826332,2.0,0.0
7.400875091552734,15.057327270507812,-0.1598314046859741,-0.0,-0.0,-1.0,0.2207122471622917,2.0,0.0
5.384305953979492,15.206387519836426,-0.3658756017684936,-0.0,-0.0,-1.0,0.1721498770239908,2.0,0.0
5.251276016235352,14.92054557800293,-0.3489426374435425,-0.4328695509310515,0.8976006259655921,0.0832890637654614,0.095187222277137,3.0,0.0
5.248058319091797,14.515652656555176,-0.3189859390258789,-0.0649171755292448,-0.8366028088583511,-0.5439499062704414,0.1660459712091467,3.0,0.0
5.708784103393555,15.308127403259276,-0.362390398979187,-0.0,-0.0,-1.0,0.1285227268650133,1.0,0.0
5.962703704833984,15.314986228942873,-0.354262113571167,-0.0,-0.0,-1.0,0.1003234603089013,1.0,0.0
6.331851959228516,13.60112190246582,-0.2115811109542846,-0.1858095797747287,0.6034893799275411,-0.7754194789780631,0.1407338393955147,3.0,0.0
6.306901931762695,13.449908256530762,-0.2016066312789917,-0.0,-0.0,-1.0,0.158939724988292,1.0,0.0
6.438232421875,13.619216918945312,-0.2088942527770996,-0.0,-0.0,-1.0,0.1680859520754229,2.0,0.0
6.449947357177734,13.441061973571776,-0.195520281791687,-0.0,-0.0,-1.0,0.0975074213109425,2.0,0.0
7.012603759765625,14.69703483581543,-0.2703204154968261,-0.0,-0.0,-1.0,0.2226422244186569,1.0,0.0
7.197351455688477,14.652259826660156,-0.2606163024902344,-0.0,-0.0,-1.0,0.1978660421497413,1.0,0.0
6.278247833251953,13.568180084228516,-0.1027294397354126,-0.0,-0.0,-1.0,0.1503813741920598,2.0,0.0
7.080471038818359,15.271991729736328,-0.135625958442688,0.455533475825972,0.4952483885335194,-0.7397420402118977,0.2512890755397839,3.0,0.0
6.8861083984375,14.860727310180664,-0.1140486001968383,-0.0,-0.0,-1.0,0.1817448268841417,1.0,0.0
7.080507278442383,14.790945053100586,-0.1041735410690307,-0.0,-0.0,-1.0,0.2068256634626932,2.0,0.0
7.170644760131836,14.998477935791016,-0.115275502204895,-0.0,-0.0,-1.0,0.1679160388119048,2.0,0.0
7.456256866455078,14.927096366882324,-0.5225542783737183,-0.7032460608952827,-0.3887832654279338,-0.595224789771445,0.1953879094991814,3.0,0.0
7.632600784301758,14.459134101867676,-0.4801877737045288,-0.0,-0.0,-1.0,0.1973925985834949,1.0,0.0
7.483921051025391,14.085963249206545,-0.4549440145492553,-0.0,-0.0,-1.0,0.0803860146256117,1.0,0.0
7.068780899047852,15.014938354492188,-0.3676457405090332,-0.0,-0.0,-1.0,0.1113174896177908,2.0,0.0
7.423299789428711,15.160516738891602,-0.3655340671539306,-0.0,-0.0,-1.0,0.2354315292145696,1.0,0.0
7.370361328125,14.96519660949707,-0.3543276786804199,-0.0,-0.0,-1.0,0.2564875124602385,2.0,0.0
7.42608642578125,14.59594440460205,0.3173972368240356,-0.0,-0.0,-1.0,0.1211832246706145,1.0,1.0
7.596342086791992,13.292593955993652,-0.2430084943771362,-0.7257197823100945,-0.0469990030008952,-0.686383195657288,0.2093669422750345,3.0,0.0
6.807029724121094,14.641780853271484,-0.3910555839538574,-0.0,-0.0,-1.0,0.197066410308888,1.0,0.0
6.86461067199707,15.048662185668944,-0.2939870357513428,-0.0,-0.0,-1.0,0.1668307166086408,2.0,0.0
7.602742195129395,14.693235397338867,0.2193224430084228,-0.8584569193613288,-0.4174837062378245,-0.2979246089643934,0.1237925463196545,4.0,1.0
6.917228698730469,15.182561874389648,-0.1810455322265625,-0.0,-0.0,-1.0,0.2662420550814207,1.0,0.0
7.112494468688965,15.000560760498049,-0.1520843505859375,-0.0,-0.0,-1.0,0.1985305846923873,2.0,0.0
7.134794235229492,15.086435317993164,-0.0680289268493652,-0.0,-0.0,-1.0,0.2223186365457748,2.0,0.0
6.927411079406738,15.023574829101562,-0.0787391662597656,-0.4424718609416844,0.6060299019445233,-0.66101922076738,0.2780826616271301,4.0,0.0
6.590075492858887,14.990697860717772,-0.1021187305450439,-0.0,-0.0,-1.0,0.1554973274755901,2.0,0.0
7.157416343688965,14.958093643188477,-0.413872480392456,-0.0,-0.0,-1.0,0.1676809347527498,2.0,0.0
7.261740684509277,15.286439895629885,-0.1883220672607422,-0.0,-0.0,-1.0,0.1873428868063405,2.0,0.0
7.157425880432129,15.008840560913086,-0.1724374294281005,0.0009917377473089,0.9772817026550472,0.211942185776906,0.2091244492972323,4.0,0.0
6.256564140319824,15.433055877685549,-0.2975008487701416,-0.0,-0.0,-1.0,0.0933544885040994,2.0,0.0
6.158110618591309,15.411680221557615,-0.3050508499145508,-0.0,-0.0,-1.0,0.1736595720707444,1.0,0.0
5.840559005737305,15.398412704467772,-0.3346953392028808,-0.0,-0.0,-1.0,0.193333386956216,1.0,0.0
7.137842178344727,15.587668418884276,0.2090349197387695,-0.0,-0.0,-1.0,0.2400388183399267,2.0,1.0
7.553162574768066,14.701844215393066,0.3172483444213867,-0.3839752048566593,0.1540751226264088,-0.9103976596207528,0.1015953641512091,8.0,1.0
7.1127471923828125,15.148944854736328,-0.0345144271850585,-0.0,-0.0,-1.0,0.2652023930350969,2.0,0.0
7.149962902069092,15.425341606140137,0.0567455291748046,-0.0,-0.0,-1.0,0.2159155572094503,1.0,1.0
7.067289352416992,15.187902450561523,-0.0417242050170898,-0.0,-0.0,-1.0,0.1931317855938756,1.0,0.0
7.648624420166016,14.466226577758787,0.0904150009155273,-0.0,-0.0,-1.0,0.1148164611691469,2.0,1.0
7.62884521484375,14.600850105285645,-0.4908819198608398,-0.0,-0.0,-1.0,0.2060153811007579,1.0,0.0
7.0914998054504395,15.426653861999512,0.1367485523223877,-0.0,-0.0,-1.0,0.2143010755252214,1.0,1.0
7.648141384124756,14.619828224182127,-0.3233299255371094,-0.0,-0.0,-1.0,0.1425958233659719,1.0,0.0
7.376289367675781,15.108542442321776,-0.4211316108703613,-0.0,-0.0,-1.0,0.2580904359264473,2.0,0.0
7.240030288696289,14.945298194885254,-0.4099102020263672,-0.0,-0.0,-1.0,0.2437517702442718,2.0,0.0
6.550134658813477,15.130463600158691,-0.5043015480041504,-0.0,-0.0,-1.0,0.1640482352168996,1.0,0.0
6.256582736968994,15.59713077545166,-0.6017134189605713,-0.0,-0.0,-1.0,0.1529449121026457,1.0,0.0
5.809225559234619,15.529175758361816,-0.4530258178710937,0.4605941130533388,0.0330270590902061,-0.8869962099064799,0.1746101445055224,3.0,0.0
7.133248805999756,15.080122947692873,-0.2548699378967285,0.0658946393229952,0.1525385240588569,-0.9860983192290906,0.2645403933025624,3.0,0.0
6.757566452026367,14.99217128753662,-0.2782034873962402,-0.0,-0.0,-1.0,0.2403491592512668,1.0,0.0
7.376079559326172,15.255707740783691,-0.2363078594207763,-0.0,-0.0,-1.0,0.2603619125451552,1.0,0.0
7.144739627838135,15.33248233795166,-0.2706553936004638,-0.0,-0.0,-1.0,0.2340373509534195,1.0,0.0
7.224351406097412,14.868973731994627,-0.193873643875122,0.6898405528754672,0.5978755335324434,-0.4082460753170395,0.2105645780564378,3.0,0.0
7.342835903167725,15.16511344909668,-0.2037246227264404,0.913670380039678,0.3794171123114869,0.1457706812886688,0.2894901315335441,3.0,0.0
7.10447883605957,15.207698822021484,-0.2328922748565673,-0.0,-0.0,-1.0,0.2360708079411795,2.0,0.0
6.569418430328369,14.95783233642578,-0.2493810653686523,-0.0,-0.0,-1.0,0.194916606439044,1.0,0.0
7.644641399383545,14.581390380859377,-0.0888688564300537,-0.0,-0.0,-1.0,0.0878949642982725,2.0,0.0
7.260443687438965,14.811861038208008,-0.1594865322113037,-0.0,-0.0,-1.0,0.2042620858249993,1.0,0.0
6.7751030921936035,13.85707664489746,-0.0683736801147461,-0.0,-0.0,-1.0,0.1313777080154956,1.0,0.0
7.523670673370361,15.42066478729248,-0.4320812225341797,-0.0,-0.0,-1.0,0.2224576991141835,1.0,0.0
7.260751247406006,15.085598945617676,-0.404503583908081,0.8765822283266189,-0.2934544975697343,0.3814289643407199,0.1955764329200321,3.0,0.0
6.824245929718018,14.94300365447998,-0.427358865737915,-0.0,-0.0,-1.0,0.1958624192126455,1.0,0.0
7.484890460968018,14.940481185913086,-0.3587162494659424,-0.0,-0.0,-1.0,0.1235562291846304,1.0,0.0
7.113768577575684,14.979490280151367,-0.4027056694030761,-0.0,-0.0,-1.0,0.1800055951477251,2.0,0.0
7.049845218658447,15.000811576843262,-0.4127044677734375,-0.0,-0.0,-1.0,0.182279319609245,1.0,0.0
6.7331061363220215,14.77622890472412,-0.410851240158081,-0.0,-0.0,-1.0,0.2162872652753279,1.0,0.0
7.60081148147583,14.668760299682615,0.2709584236145019,-0.1039868541997455,0.9064348715282612,-0.409344058013776,0.0989145358085801,4.0,1.0
7.19917631149292,15.19726848602295,0.1681926250457763,-0.0,-0.0,-1.0,0.1981348853906005,1.0,1.0
7.619785308837891,15.144217491149902,-0.5133893489837646,-0.0,-0.0,-1.0,0.1394922840446564,1.0,0.0
7.616998672485352,14.562171936035156,-0.4084742069244385,-0.0,-0.0,-1.0,0.1806428791794216,1.0,0.0
7.597708702087402,14.824030876159668,-0.4575953483581543,-0.0819815771190068,-0.9283512117176194,-0.3625507532960149,0.1951161057997796,4.0,0.0
7.48175048828125,15.141457557678224,-0.5260498523712158,-0.0,-0.0,-1.0,0.1200618241755089,2.0,0.0
7.057859897613525,14.030315399169922,-0.3694438934326172,-0.9404943884875584,-0.2677359470834481,0.2092552696176184,0.1971167848143571,4.0,0.0
7.170421123504639,15.46051025390625,-0.0447320938110351,-0.0,-0.0,-1.0,0.1974439548239205,1.0,0.0
7.357426643371582,14.000775337219238,-0.3332498073577881,-0.7631180395424119,0.0449494000280794,-0.644694043063887,0.1421321667538149,5.0,0.0
7.1241455078125,15.047746658325195,0.0110580921173095,-0.0,-0.0,-1.0,0.171820967268161,1.0,1.0
7.17864990234375,13.14472198486328,-0.1995985507965088,-0.0,-0.0,-1.0,0.0747894445650596,2.0,0.0
7.683152198791504,14.453190803527832,0.1463687419891357,-0.0,-0.0,-1.0,0.0988062797306965,2.0,1.0
7.308553218841553,14.805312156677246,0.0625753402709961,-0.0,-0.0,-1.0,0.1710684526851494,2.0,1.0
7.217057228088379,15.233646392822266,-0.2349629402160644,-0.0,-0.0,-1.0,0.2759629318401019,2.0,0.0
6.975637912750244,15.162694931030272,-0.2474622726440429,-0.0,-0.0,-1.0,0.240260903436868,2.0,0.0
6.8058977127075195,15.19943618774414,-0.2713692188262939,-0.0,-0.0,-1.0,0.1925647724128426,1.0,0.0
7.1014204025268555,13.431597709655762,-0.4083333015441894,-0.0,-0.0,-1.0,0.0219832466084281,1.0,0.0
6.595245361328125,15.191720962524414,-0.2925138473510742,-0.0,-0.0,-1.0,0.193061707112486,1.0,0.0
5.627870559692383,15.431833267211914,-0.4417207241058349,-0.0,-0.0,-1.0,0.1747628169139305,1.0,0.0
7.330963134765625,15.199094772338867,-0.2177555561065673,0.8428223817530773,0.5381853588998671,-0.0026367180150892,0.2706121867298576,4.0,0.0
6.889628887176514,14.933686256408691,-0.2178120613098144,-0.7787364832021428,0.1706309200208381,-0.6037007361787803,0.2342009046027698,3.0,0.0
6.606330871582031,14.918449401855469,-0.2454955577850341,-0.0,-0.0,-1.0,0.2197161572038928,1.0,0.0
7.138333797454834,15.072955131530762,0.2996253967285156,-0.0,-0.0,-1.0,0.1632415810396318,1.0,1.0
6.940037250518799,14.870889663696287,0.3086097240447998,-0.0,-0.0,-1.0,0.1845571415132817,1.0,1.0
6.685568809509277,14.853747367858888,0.2867612838745117,-0.0,-0.0,-1.0,0.1918517418163727,1.0,1.0
7.552494049072266,15.169940948486328,-0.2431375980377197,-0.0,-0.0,-1.0,0.1858432390520724,1.0,0.0
7.430839538574219,15.27269172668457,-0.2733356952667236,-0.0,-0.0,-1.0,0.237990239636568,1.0,0.0
7.702054977416992,13.245010375976562,-0.271420955657959,-0.7791320299966623,0.4326114638969274,-0.453652511442666,0.154265868456348,4.0,0.0
7.179866313934326,14.94821548461914,-0.2312903404235839,-0.0,-0.0,-1.0,0.2357848693957613,1.0,0.0
7.004343032836914,15.06358528137207,-0.2692117691040039,-0.0,-0.0,-1.0,0.2112546219197338,1.0,0.0
7.580655097961426,13.235328674316406,-0.2810664176940918,-0.0,-0.0,-1.0,0.1507377590173742,2.0,0.0
7.165034294128418,13.569988250732422,-0.3999660015106201,-0.0,-0.0,-1.0,0.0293653629455184,1.0,0.0
6.742293357849121,14.811101913452148,-0.2443926334381103,-0.0,-0.0,-1.0,0.2986517336406487,2.0,0.0
6.740050315856934,15.07841682434082,-0.2962508201599121,-0.0,-0.0,-1.0,0.1513543956792115,2.0,0.0
6.9641432762146,13.612348556518556,-0.4309968948364258,-0.0,-0.0,-1.0,0.0685875357612855,1.0,0.0
6.8968024253845215,13.649658203125,-0.4467260837554931,-0.0,-0.0,-1.0,0.0935304432110964,1.0,0.0
6.510365962982178,14.488021850585938,-0.2046952247619629,-0.0,-0.0,-1.0,0.205555728118173,1.0,0.0
6.353823661804199,14.810420989990234,-0.2817537784576416,-0.0,-0.0,-1.0,0.1281153818069208,1.0,0.0
5.770725250244141,15.509527206420898,-0.4737496376037597,0.4625068244572122,0.0274117870750255,-0.8861918704546209,0.0341951781130773,4.0,0.0
7.521564483642578,14.68463897705078,0.3124151229858398,-0.5720595657800641,0.2058152880417372,-0.7939697226014487,0.1074717189494059,10.0,1.0
7.409171104431152,14.932207107543944,0.2642998695373535,-0.0,-0.0,-1.0,0.114024160331016,1.0,1.0
7.542720794677734,15.364702224731444,0.204566478729248,-0.0,-0.0,-1.0,0.122604362096561,2.0,1.0
6.625057220458984,14.835693359375,0.2174313068389892,-0.0,-0.0,-1.0,0.1560003174603505,2.0,1.0
7.562194347381592,15.24050998687744,-0.5366172790527344,-0.0,-0.0,-1.0,0.1507749846256226,2.0,0.0
7.263775825500488,15.039129257202148,-0.5104348659515381,-0.0,-0.0,-1.0,0.0948779144451716,2.0,0.0
6.835392951965332,14.880938529968262,-0.5077486038208008,-0.0,-0.0,-1.0,0.2158793916530279,1.0,0.0
6.629692077636719,14.976232528686523,-0.5481650829315186,-0.0,-0.0,-1.0,0.1549822484007341,2.0,0.0
