x,y,z,nx,ny,nz,curvature,density,label
21.3411865234375,-9.726112365722656,0.3362026214599609,-0.0,-0.0,-1.0,0.1593976485530118,1.0,1.0
21.70926284790039,-10.752517700195312,0.4070472717285156,-0.0,-0.0,-1.0,0.2360561319201349,2.0,1.0
21.780406951904297,-9.762544631958008,0.4995656013488769,-0.0,-0.0,-1.0,0.1678697956908318,1.0,1.0
21.645404815673828,-11.55099105834961,0.2356681823730468,-0.0,-0.0,-1.0,0.045236137885963,1.0,1.0
21.731101989746097,-10.48196792602539,0.4114251136779785,-0.0,-0.0,-1.0,0.0908724568151561,1.0,1.0
21.639434814453125,-11.820713996887209,0.3207850456237793,0.0891771980624306,0.5970986848828099,-0.7971954514778373,0.136827105729867,6.0,1.0
21.745927810668945,-11.287149429321287,0.3113217949867248,-0.0,-0.0,-1.0,0.057063683878144,1.0,1.0
20.707971572875977,-9.758533477783203,0.3388633131980896,-0.0,-0.0,-1.0,0.1957105605663891,1.0,1.0
20.93393325805664,-9.989665985107422,0.3510573506355285,-0.0,-0.0,-1.0,0.0993923449853448,1.0,1.0
22.031309127807617,-11.40077304840088,0.2608191967010498,-0.0,-0.0,-1.0,0.0858290412643855,2.0,1.0
22.477115631103516,-9.61097812652588,0.1194521188735961,-0.0,-0.0,-1.0,0.093629266974741,2.0,1.0
20.706113815307617,-11.785270690917969,0.3236294388771057,-0.0,-0.0,-1.0,0.2306632272466189,1.0,1.0
21.056188583374023,-9.674842834472656,0.4323163628578186,-0.0,-0.0,-1.0,0.2268496562323413,1.0,1.0
22.00378799438477,-11.271255493164062,0.2140623331069946,-0.0,-0.0,-1.0,0.0859640070788871,1.0,1.0
21.451580047607425,-9.73127269744873,0.4268036484718323,-0.0,-0.0,-1.0,0.1346511963036105,1.0,1.0
21.81552505493164,-10.772216796875,0.2770029306411743,-0.0,-0.0,-1.0,0.1564240335805235,1.0,1.0
20.89543914794922,-11.56427001953125,0.1675763130187988,-0.0,-0.0,-1.0,0.0928949958887243,1.0,1.0
20.881383895874023,-9.708404541015623,0.4845908880233764,-0.0,-0.0,-1.0,0.2257422882959624,1.0,1.0
21.801424026489254,-11.499041557312012,0.244156539440155,-0.0,-0.0,-1.0,0.0661482096288751,1.0,1.0
20.595287322998047,-10.380899429321287,0.533281683921814,-0.0,-0.0,-1.0,0.1212888006058755,1.0,1.0
22.00174331665039,-9.759130477905272,0.3843032717704773,-0.0,-0.0,-1.0,0.1825217732008539,2.0,1.0
20.72589683532715,-9.812800407409668,0.284794270992279,0.2674983447895621,0.9587898251510824,-0.0957429199554811,0.0743327654509218,3.0,1.0
22.05539321899414,-11.142474174499512,0.1967487335205078,-0.0,-0.0,-1.0,0.0675092879061544,1.0,1.0
22.028139114379883,-11.584638595581056,0.1873451471328735,0.4976394092980618,0.2481213737722405,-0.8311382569650203,0.0933027743416541,3.0,1.0
20.872495651245117,-10.340675354003906,0.39805668592453,-0.0,-0.0,-1.0,0.0963037038561385,2.0,1.0
20.55333137512207,-11.52505111694336,0.6008507013320923,-0.0489030527066349,0.088103628279402,-0.9949101678644044,0.1370881866052218,3.0,1.0
20.9227294921875,-10.189855575561523,0.3973346948623657,0.0945478106274008,0.8946670566272086,-0.4366137529803341,0.0735751760820959,3.0,1.0
22.16817283630371,-11.00639533996582,0.100895881652832,-0.0,-0.0,-1.0,0.0417029980447893,1.0,1.0
22.087324142456055,-11.689780235290527,0.3360069990158081,-0.0,-0.0,-1.0,0.096286420824051,2.0,1.0
22.055858612060547,-10.612926483154297,0.1771492958068847,-0.0,-0.0,-1.0,0.1052856365651792,1.0,1.0
21.661197662353516,-10.540781021118164,0.522108793258667,-0.0,-0.0,-1.0,0.0565132427592148,2.0,1.0
22.076068878173828,-11.181756019592283,0.0876392126083374,-0.0,-0.0,-1.0,0.0584258795993846,1.0,1.0
20.64015769958496,-9.89734935760498,0.3052331209182739,0.6924504992449357,0.3010637165673748,-0.6556469664858358,0.0858022306599274,4.0,1.0
21.79487419128418,-10.605892181396484,0.1154272556304931,-0.0,-0.0,-1.0,0.1150804564670352,1.0,1.0
20.444515228271484,-10.139270782470703,0.3680417537689209,0.5216432840710005,-0.796799190587747,-0.3049579217897653,0.1009663354078604,4.0,1.0
21.192352294921875,-10.97616195678711,0.288632869720459,-0.0,-0.0,-1.0,0.2020869324177469,1.0,1.0
21.728410720825195,-10.310802459716797,0.1725009679794311,-0.0,-0.0,-1.0,0.0386081171012725,2.0,1.0
22.099082946777344,-10.382293701171877,0.1870392560958862,0.7759692185832741,0.6195236660578216,-0.1185841431454457,0.2353148085397102,4.0,1.0
21.676206588745117,-11.784149169921877,0.1818046569824218,-0.0,-0.0,-1.0,0.1310331558456255,1.0,1.0
21.756067276000977,-10.544397354125977,0.1649007797241211,-0.0,-0.0,-1.0,0.1196962853668601,1.0,1.0
20.554649353027344,-10.025482177734377,0.3587784767150879,-0.0,-0.0,-1.0,0.0660666279080978,2.0,1.0
20.922191619873047,-10.19814109802246,0.3802403211593628,-0.0,-0.0,-1.0,0.0953569604405947,2.0,1.0
21.10358238220215,-10.958044052124023,0.2746757268905639,-0.0,-0.0,-1.0,0.2714877555924464,1.0,1.0
21.31793975830078,-9.865177154541016,0.2382076978683471,-0.0,-0.0,-1.0,0.1485579299014423,1.0,1.0
22.49808692932129,-11.5474271774292,0.2961426973342895,0.8435992198484565,0.3235946742689628,-0.4285170277315008,0.1734873924874019,5.0,1.0
21.23229217529297,-10.906906127929688,0.2367312908172607,-0.0,-0.0,-1.0,0.2382546779958505,2.0,1.0
21.495512008666992,-11.53099250793457,0.1547999382019043,-0.0,-0.0,-1.0,0.0672326631650322,1.0,1.0
20.439945220947266,-11.306564331054688,0.3213148117065429,-0.0,-0.0,-1.0,0.1777911488451235,1.0,1.0
20.60070419311523,-9.895217895507812,0.2982025146484375,-0.0,-0.0,-1.0,0.0833038357540942,2.0,1.0
22.05676651000977,-11.41567039489746,0.2516908645629883,-0.0,-0.0,-1.0,0.0845118514456255,2.0,1.0
20.547229766845703,-10.830631256103516,0.2693958282470703,-0.0,-0.0,-1.0,0.1798036776701152,1.0,1.0
20.316551208496097,-11.722347259521484,0.3523766994476318,-0.0,-0.0,-1.0,0.1606470940744221,1.0,1.0
20.728242874145508,-10.53479290008545,0.3473101854324341,-0.0788520989692757,0.3824452187003548,-0.9206074088238576,0.0723835186531576,4.0,1.0
21.584571838378903,-11.854406356811523,0.2778757810592651,-0.2733486661555002,0.6148940427725108,-0.7397200976544348,0.1055596162797128,3.0,1.0
20.309017181396484,-10.873066902160645,0.4644417762756347,-0.0,-0.0,-1.0,0.1583364503881994,1.0,1.0
20.783296585083008,-11.600252151489258,0.4400572776794433,-0.0,-0.0,-1.0,0.1210337695697888,1.0,1.0
20.262924194335938,-11.089831352233888,0.6442455053329468,0.4825076920402292,-0.8147147836482865,-0.3215993601158696,0.0553658907530723,3.0,1.0
20.283700942993164,-11.313222885131836,0.4658799171447754,-0.0,-0.0,-1.0,0.0609953900261851,2.0,1.0
21.81829833984375,-9.587668418884276,0.0223321914672851,0.1296503897060355,-0.906993387823029,-0.4006916157026218,0.1125186209549969,3.0,1.0
20.510591506958008,-10.474044799804688,0.2317557334899902,0.190902501650915,-0.1473566379468268,-0.9704855774901708,0.0393290271640991,3.0,1.0
20.790842056274418,-10.537437438964844,0.2766869068145752,-0.0,-0.0,-1.0,0.0560881161324231,2.0,1.0
20.47277069091797,-10.514877319335938,0.2369825839996338,0.1460169553477083,-0.3843568366349671,-0.911563969715207,0.0376788386960686,3.0,1.0
21.4220027923584,-10.21902847290039,0.1544539928436279,-0.0,-0.0,-1.0,0.0449341800206527,1.0,1.0
21.201473236083984,-10.807451248168944,0.2906193733215332,0.5690119938934226,-0.148993091195742,-0.8087189929644099,0.2385028516795847,3.0,1.0
20.62110137939453,-10.357183456420898,0.4131793975830078,-0.0,-0.0,-1.0,0.1326023625197755,1.0,1.0
20.8252010345459,-10.333669662475586,0.4303686618804931,-0.0,-0.0,-1.0,0.1173272171918825,2.0,1.0
21.246810913085938,-10.420528411865234,0.2384302616119384,-0.0,-0.0,-1.0,0.1076995583783086,1.0,1.0
22.475507736206055,-10.612346649169922,0.1279745101928711,-0.0,-0.0,-1.0,0.0709436457959871,1.0,1.0
21.572656631469727,-9.97532081604004,0.1654484272003173,-0.0,-0.0,-1.0,0.1817565710867913,1.0,1.0
21.782546997070312,-10.728114128112791,0.3811590671539306,-0.8562214618978315,0.4404282751670617,0.2700143378024713,0.2162073404994554,7.0,1.0
20.825908660888672,-10.07185173034668,0.4464924335479736,-0.0,-0.0,-1.0,0.0674363766501374,1.0,1.0
20.801332473754883,-10.415975570678713,0.4533455371856689,-0.0,-0.0,-1.0,0.0775623919487013,1.0,1.0
20.9117431640625,-10.17080783843994,0.4339864253997803,-0.0,-0.0,-1.0,0.081418686072388,2.0,1.0
21.061925888061523,-10.128993034362791,0.290571928024292,-0.5033270721804858,-0.1218621194095386,-0.8554598075089417,0.0781390515965774,6.0,1.0
20.697282791137695,-10.541789054870604,0.3233988285064697,0.1146435124222442,0.5075594948822745,-0.8539556336334698,0.0606762666417015,4.0,1.0
20.81866455078125,-10.357491493225098,0.4414453506469726,-0.0,-0.0,-1.0,0.1086491682182021,2.0,1.0
20.95634078979492,-10.236343383789062,0.3227555751800537,-0.5053429629378975,-0.2489996388775761,-0.8262128476657719,0.0714788118905416,4.0,1.0
21.269887924194336,-10.834940910339355,0.2013795375823974,-0.0,-0.0,-1.0,0.2048980465956907,2.0,1.0
20.85672950744629,-11.262295722961426,0.2847254276275635,-0.0,-0.0,-1.0,0.1674578585451943,1.0,1.0
22.66935157775879,-9.451072692871094,0.0809910297393798,-0.4756017994737578,0.358347748187913,-0.8033615747009404,0.1937564246279705,3.0,1.0
22.172306060791016,-10.30383586883545,0.2876830101013183,-0.0,-0.0,-1.0,0.2138685045095238,2.0,1.0
21.08971405029297,-11.632824897766112,0.2119836807250976,-0.0,-0.0,-1.0,0.0456967352916746,2.0,1.0
21.854677200317383,-10.62187385559082,0.3594884872436523,0.2808967597799207,0.1979837301359297,-0.939095018060795,0.1562086500082726,4.0,1.0
20.989341735839844,-10.03839111328125,0.3400189876556396,-0.0,-0.0,-1.0,0.0713152800432479,1.0,1.0
21.953346252441406,-11.380109786987305,0.2685456275939941,-0.0,-0.0,-1.0,0.067111286177299,2.0,1.0
22.049711227416992,-11.54092502593994,0.3575234413146972,-0.0,-0.0,-1.0,0.1055909993393464,1.0,1.0
21.58388328552246,-11.795977592468262,0.3305792808532715,-0.0,-0.0,-1.0,0.1055596162797128,2.0,1.0
22.582733154296875,-11.463128089904783,0.3304700851440429,0.5662199105179007,0.7270107388039484,0.3883946428529073,0.1471036235991357,3.0,1.0
22.15207862854004,-11.82028579711914,0.4881086349487304,-0.0,-0.0,-1.0,0.1064351018947439,1.0,1.0
22.050153732299805,-11.72813606262207,0.2732367515563965,-0.0,-0.0,-1.0,0.0880402966309877,1.0,1.0
22.23969841003418,-11.629205703735352,0.2529554367065429,-0.2504162024710785,-0.2108874572964952,-0.9448905787946998,0.1221873803609998,3.0,1.0
22.659334182739254,-11.604557991027832,0.1405978202819824,-0.0,-0.0,-1.0,0.1893249824475811,1.0,1.0
21.976036071777344,-11.783329010009766,0.2264685630798339,-0.0,-0.0,-1.0,0.085456268271688,1.0,1.0
22.24540138244629,-11.627537727355955,0.2009391784667968,-0.0,-0.0,-1.0,0.1022780617666917,1.0,1.0
20.901395797729492,-11.504877090454102,0.4125642776489258,-0.0,-0.0,-1.0,0.1384304725901487,1.0,1.0
21.100929260253903,-10.928601264953612,0.4383611679077148,-0.0,-0.0,-1.0,0.1534582112891269,1.0,1.0
21.508405685424805,-11.678177833557127,0.2154932022094726,0.4699899181519137,0.8545159255328568,0.2211605974089475,0.0602775675043266,3.0,1.0
21.75776481628418,-11.665315628051758,0.1654291152954101,-0.0,-0.0,-1.0,0.1480651616741096,1.0,1.0
21.95512962341309,-11.530645370483398,0.1316986083984375,-0.0,-0.0,-1.0,0.1443537671564692,2.0,1.0
21.908348083496097,-11.190055847167969,0.156956672668457,-0.0,-0.0,-1.0,0.0869808936891074,1.0,1.0
21.15001678466797,-10.927295684814451,0.3243875503540039,0.8783744891031026,0.0187879065972236,-0.4776036761359333,0.2280146974970889,3.0,1.0
22.078933715820312,-10.85728359222412,0.1364574432373047,-0.0,-0.0,-1.0,0.0881447546222524,1.0,1.0
22.21543312072754,-10.476970672607422,0.1239967346191406,-0.0,-0.0,-1.0,0.1954698142257312,1.0,1.0
22.60716438293457,-10.188222885131836,0.053354263305664,-0.0,-0.0,-1.0,0.0266177558225501,1.0,1.0
21.50470733642578,-9.737740516662598,0.3015432357788086,-0.0,-0.0,-1.0,0.2319454057030648,1.0,1.0
22.69990348815918,-9.695268630981444,0.0514173507690429,-0.0,-0.0,-1.0,0.1440423626900162,1.0,1.0
20.449745178222656,-11.797060012817385,0.3783712387084961,-0.8094292908881563,-0.5560740692536716,-0.1886951312460386,0.1835575005119749,3.0,1.0
21.461362838745117,-11.76941204071045,0.1744284629821777,-0.0,-0.0,-1.0,0.0664510450963376,2.0,1.0
21.560422897338867,-11.527896881103516,0.170781135559082,-0.0,-0.0,-1.0,0.0262817914559341,2.0,1.0
21.09872817993164,-10.894230842590332,0.3095526695251465,-0.0,-0.0,-1.0,0.1882154385578496,2.0,1.0
21.68876838684082,-11.16912841796875,0.1682887077331543,-0.0,-0.0,-1.0,0.0423854507555345,1.0,1.0
22.045766830444336,-10.686532020568848,0.1236538887023925,0.1317675858148442,0.8496619697887499,-0.5105994912093329,0.1084747864747857,3.0,1.0
20.599712371826172,-10.313258171081545,0.4519739151000976,-0.0,-0.0,-1.0,0.1306036793297471,1.0,1.0
20.70850372314453,-10.150516510009766,0.4395220279693603,-0.0,-0.0,-1.0,0.084103515626466,1.0,1.0
22.080232620239254,-10.343815803527832,0.1367654800415039,0.9229472698179316,-0.3254093036936575,-0.2056140126675086,0.2375603320436574,3.0,1.0
22.318262100219727,-10.20244598388672,0.0938901901245117,-0.0,-0.0,-1.0,0.0417423723922116,2.0,1.0
21.515945434570312,-9.80046844482422,0.2888765335083008,-0.0,-0.0,-1.0,0.1393960829193603,1.0,1.0
22.415287017822266,-9.975057601928713,0.08551025390625,-0.0,-0.0,-1.0,0.1300588618457901,1.0,1.0
22.515405654907227,-9.609264373779297,0.0830178260803222,0.396713499853203,-0.8900487348094271,-0.2245699193978585,0.1030346855377476,3.0,1.0
22.187076568603516,-11.553378105163574,0.1042995452880859,-0.0,-0.0,-1.0,0.2005107507144102,1.0,1.0
22.4029483795166,-11.237998962402344,0.0907273292541503,-0.0,-0.0,-1.0,0.0226868843737022,1.0,1.0
22.571393966674805,-11.121374130249023,0.0666899681091308,-0.0,-0.0,-1.0,0.018089329308833,1.0,1.0
21.794767379760746,-11.856067657470703,0.1527938842773437,-0.0,-0.0,-1.0,0.0719032335757646,1.0,1.0
20.311447143554688,-11.67215347290039,0.4667224884033203,-0.0,-0.0,-1.0,0.2397649670135267,1.0,1.0
21.451251983642575,-11.757938385009766,0.2322168350219726,-0.0,-0.0,-1.0,0.0654607212950294,1.0,1.0
21.84710121154785,-11.658001899719238,0.1629228591918945,-0.0,-0.0,-1.0,0.1315789322813394,1.0,1.0
22.179746627807617,-11.340638160705566,0.1270341873168945,-0.0,-0.0,-1.0,0.0617999703696885,1.0,1.0
21.042736053466797,-10.964613914489746,0.398104190826416,-0.0,-0.0,-1.0,0.1175663171355467,1.0,1.0
21.64203643798828,-10.762687683105469,0.29498291015625,-0.0,-0.0,-1.0,0.1389956084234184,1.0,1.0
21.991687774658203,-10.49747371673584,0.2467536926269531,-0.0,-0.0,-1.0,0.186334036660605,1.0,1.0
22.644832611083984,-9.63833999633789,0.1795883178710937,-0.0,-0.0,-1.0,0.2085595670466204,2.0,1.0
20.272375106811523,-10.780048370361328,0.5731735229492188,-0.0,-0.0,-1.0,0.1087184573734957,1.0,1.0
22.602340698242188,-10.476686477661133,0.5093550682067871,-0.4611584349324937,0.3411837998007028,-0.8191010393377405,0.0775415166974498,3.0,1.0
21.692373275756836,-11.84373378753662,0.2809095382690429,-0.2626219723706122,0.3000699039308154,-0.9170538437753368,0.1291671719615449,3.0,1.0
21.93560791015625,-11.627401351928713,0.2601270675659179,-0.0,-0.0,-1.0,0.1030344965486836,2.0,1.0
22.35690689086914,-11.536894798278809,0.1880216598510742,-0.0,-0.0,-1.0,0.1539476361761361,1.0,1.0
21.750492095947266,-10.85944938659668,0.3866496086120605,-0.0,-0.0,-1.0,0.2144223768416417,1.0,1.0
20.821516036987305,-11.626441955566406,0.4743428230285644,-0.0,-0.0,-1.0,0.1541688254222904,1.0,1.0
20.423004150390625,-11.693892478942873,0.5402851104736328,-0.0,-0.0,-1.0,0.2046188320042988,1.0,1.0
21.161657333374023,-11.035690307617188,0.4822511672973633,-0.0,-0.0,-1.0,0.159800153100801,2.0,1.0
21.920793533325195,-9.92649745941162,0.4535956382751465,-0.0,-0.0,-1.0,0.2642404436267199,1.0,1.0
22.183183670043945,-9.372201919555664,0.4538850784301758,-0.0,-0.0,-1.0,0.0795466607694041,1.0,1.0
20.987075805664062,-9.76555633544922,0.2598724365234375,-0.0,-0.0,-1.0,0.137146775737618,2.0,1.0
21.62221336364746,-9.761026382446287,0.1011962890625,-0.0,-0.0,-1.0,0.1283763532089951,1.0,1.0
21.109588623046875,-9.796316146850586,0.1995010375976562,-0.8479738413560425,-0.0700123732244707,-0.5253937875264183,0.0303004789050715,3.0,1.0
20.850133895874023,-9.80050277709961,0.2504963874816894,-0.0,-0.0,-1.0,0.0760883251717782,2.0,1.0
21.008838653564453,-9.786165237426758,0.2211241722106933,-0.0,-0.0,-1.0,0.1022802801581525,2.0,1.0
20.60413932800293,-9.805252075195312,0.2878026962280273,-0.0,-0.0,-1.0,0.0639168727035045,1.0,1.0
22.340742111206055,-11.433239936828612,0.1828198432922363,-0.0,-0.0,-1.0,0.1706404911982761,2.0,1.0
22.47592544555664,-11.37759494781494,0.1990103721618652,-0.0,-0.0,-1.0,0.0859365298622016,1.0,1.0
21.88884735107422,-11.343253135681152,0.2065515518188476,-0.0,-0.0,-1.0,0.0752311994212554,2.0,1.0
21.54634475708008,-11.313302040100098,0.2133026123046875,0.2585291959815582,0.7303523825600224,-0.6322563183662364,0.0939460061400264,4.0,1.0
21.702049255371097,-10.712691307067873,0.3850212097167969,-0.0,-0.0,-1.0,0.2185080227687454,2.0,1.0
21.0643310546875,-11.205972671508787,0.24082612991333,-0.0,-0.0,-1.0,0.0686889368113106,2.0,1.0
20.77365493774414,-11.058984756469728,0.2807826995849609,-0.0,-0.0,-1.0,0.0443400502993844,1.0,1.0
20.55365753173828,-10.328450202941896,0.488828182220459,-0.0,-0.0,-1.0,0.1093062730546223,1.0,1.0
22.410375595092773,-11.413429260253906,0.1667985916137695,-0.5623028542416791,-0.4832116804113898,-0.6710603341173298,0.0848697614253911,3.0,1.0
22.653989791870117,-11.27886199951172,0.1593360900878906,-0.0,-0.0,-1.0,0.0705769606535409,2.0,1.0
21.91980361938477,-11.667463302612305,0.1824908256530761,-0.0,-0.0,-1.0,0.0913713633635014,1.0,1.0
22.02912139892578,-11.467987060546877,0.204200267791748,-0.0,-0.0,-1.0,0.0859056507105811,1.0,1.0
22.172054290771484,-10.266921997070312,0.3918004035949707,-0.0,-0.0,-1.0,0.1767754618791993,2.0,1.0
21.550521850585938,-11.75351905822754,0.2106962203979492,-0.0,-0.0,-1.0,0.0980535916043595,2.0,1.0
21.776565551757812,-10.638643264770508,0.378873348236084,-0.9736501959351476,0.0265677817996866,-0.2264938165286045,0.1866529224692475,5.0,1.0
22.443931579589844,-11.473788261413574,0.2939159870147705,-0.0,-0.0,-1.0,0.1186218719306534,1.0,1.0
22.22789001464844,-11.600364685058594,0.2974059581756592,0.3977165152017511,-0.3605994956238845,-0.8436762277625076,0.1393077723093653,5.0,1.0
21.62030792236328,-10.363091468811035,0.5108482837677002,-0.0,-0.0,-1.0,0.1585500409997928,2.0,1.0
22.526287078857425,-9.602279663085938,0.0745575428009033,0.1773826105060773,0.0275356018080642,-0.983756677295314,0.098927564245682,4.0,1.0
20.665966033935547,-10.239086151123049,0.3953537940979004,-0.0,-0.0,-1.0,0.1600351838442499,2.0,1.0
20.79562759399414,-10.21855926513672,0.3862154483795166,-0.0,-0.0,-1.0,0.1262486030217551,2.0,1.0
22.16686248779297,-11.552658081054688,0.2296342849731445,0.1405893161751554,-0.2619909114968707,-0.954775055429519,0.1644768195470936,4.0,1.0
22.042787551879883,-11.632774353027344,0.2362787723541259,-0.0,-0.0,-1.0,0.1160103723462374,2.0,1.0
22.460689544677734,-11.534542083740234,0.2073254585266113,-0.0,-0.0,-1.0,0.147025469334014,1.0,1.0
21.860925674438477,-11.735441207885742,0.2060954570770263,-0.418348468985106,0.1155589835235928,-0.9009054777415952,0.0840867470293258,4.0,1.0
22.095966339111328,-11.523271560668944,0.1986236572265625,-0.0,-0.0,-1.0,0.1536598831205591,2.0,1.0
22.494720458984375,-11.504133224487305,0.1703310012817382,-0.0,-0.0,-1.0,0.0865410151750561,1.0,1.0
20.911697387695312,-9.907957077026367,0.2708945274353027,-0.0,-0.0,-1.0,0.0734430307318534,1.0,1.0
21.82081413269043,-9.80805778503418,0.2112162113189697,0.7180889168412801,0.6595948756285988,-0.2219975395228748,0.1851581460109275,3.0,1.0
22.142654418945312,-10.348138809204102,0.1575686931610107,-0.0,-0.0,-1.0,0.1897077908356338,2.0,1.0
22.433284759521484,-10.319055557250977,0.1376910209655761,-0.0,-0.0,-1.0,0.0547406433140689,2.0,1.0
22.69618225097656,-10.791311264038086,0.0919198989868164,-0.0,-0.0,-1.0,0.0400125837645404,1.0,1.0
22.6124210357666,-9.688390731811523,0.1592400074005127,-0.0,-0.0,-1.0,0.1430796129946931,1.0,1.0
20.760801315307617,-11.722957611083984,0.4877376556396484,-0.0,-0.0,-1.0,0.1308642682005856,1.0,1.0
21.876331329345703,-11.78192138671875,0.3744573593139648,-0.0,-0.0,-1.0,0.0641294519008629,1.0,1.0
22.124685287475582,-10.550479888916016,0.4106060266494751,-0.0,-0.0,-1.0,0.1761457497707922,1.0,1.0
22.383760452270508,-11.484481811523438,0.3378951549530029,-0.0,-0.0,-1.0,0.1495360172970421,1.0,1.0
22.602510452270508,-11.470901489257812,0.3161883354187011,-0.2148008315592564,0.9628693132457704,0.1635337530024628,0.1471036235991358,4.0,1.0
21.40983772277832,-9.6002197265625,0.0796511173248291,-0.0,-0.0,-1.0,0.0958237404082193,2.0,1.0
21.68776512145996,-9.817989349365234,0.0410926342010498,-0.0,-0.0,-1.0,0.0839392925798177,1.0,1.0
21.995962142944336,-9.484804153442385,0.0376486778259277,-0.0,-0.0,-1.0,0.1144432747765217,1.0,1.0
20.716184616088867,-9.90098762512207,0.2823307514190674,-0.0,-0.0,-1.0,0.0768233078912656,2.0,1.0
21.600221633911133,-10.350055694580078,0.1805746555328369,-0.0,-0.0,-1.0,0.0688277867282523,1.0,1.0
22.129695892333984,-10.216619491577148,0.1444981098175048,-0.0,-0.0,-1.0,0.1861382804794066,2.0,1.0
22.229049682617188,-9.847166061401367,0.1600234508514404,-0.0,-0.0,-1.0,0.2047263702443794,1.0,1.0
22.69267845153809,-10.287376403808594,0.0909717082977294,-0.0,-0.0,-1.0,0.0822873421072175,2.0,1.0
22.335290908813477,-9.553428649902344,0.169938325881958,-0.0,-0.0,-1.0,0.0648694202420662,1.0,1.0
22.505298614501953,-9.705141067504885,0.1452322006225586,-0.0,-0.0,-1.0,0.0903589503038101,1.0,1.0
21.820289611816406,-10.477344512939451,0.1287779808044433,-0.0,-0.0,-1.0,0.1029059925178389,1.0,1.0
21.723880767822266,-10.417173385620115,0.1381938457489013,-0.0,-0.0,-1.0,0.0751189674862892,2.0,1.0
22.094242095947266,-10.299514770507812,0.1295385360717773,-0.0,-0.0,-1.0,0.2089802566289015,2.0,1.0
22.36809730529785,-10.218374252319336,0.1222491264343261,-0.0,-0.0,-1.0,0.0557490108854744,1.0,1.0
22.44857406616211,-9.997678756713867,0.1357026100158691,-0.0,-0.0,-1.0,0.1212503150573176,1.0,1.0
21.515575408935547,-9.4666748046875,0.2239909172058105,-0.0,-0.0,-1.0,0.1399078468534539,2.0,1.0
21.878143310546875,-10.047500610351562,0.0612592697143554,-0.0,-0.0,-1.0,0.0693063569064939,1.0,1.0
21.739850997924805,-9.878278732299805,0.0798053741455078,-0.0,-0.0,-1.0,0.172401728563836,1.0,1.0
22.107013702392575,-9.995750427246094,0.0590972900390625,-0.0,-0.0,-1.0,0.0466860741571374,1.0,1.0
22.628921508789062,-10.828031539916992,0.0544312000274658,-0.0,-0.0,-1.0,0.0340097919419271,1.0,1.0
21.64245223999023,-9.957639694213867,0.1438121795654297,-0.0,-0.0,-1.0,0.2158875377213497,1.0,1.0
22.14799118041992,-10.263240814208984,0.1111741065979003,-0.0,-0.0,-1.0,0.1762441254405848,2.0,1.0
21.54816436767578,-9.715015411376951,0.1657321453094482,-0.0,-0.0,-1.0,0.1317826612149075,1.0,1.0
22.07643699645996,-10.370515823364258,0.1619839668273925,0.1807519701695193,-0.5840948569727585,-0.7913039386593561,0.2630113554133173,5.0,1.0
21.09615135192871,-9.65615463256836,0.2050647735595703,-0.0,-0.0,-1.0,0.1046566334200454,1.0,1.0
22.693151473999023,-9.489730834960938,0.0471712350845336,-0.0,-0.0,-1.0,0.147059158868493,1.0,1.0
20.704505920410156,-10.049230575561523,0.4497538805007934,-0.0,-0.0,-1.0,0.0808461266063385,2.0,1.0
21.995405197143555,-11.69586181640625,0.3029146194458008,-0.0,-0.0,-1.0,0.0985463144381968,1.0,1.0
21.28379249572754,-11.400440216064451,0.3036365509033203,-0.0,-0.0,-1.0,0.1326255929619048,1.0,1.0
21.347213745117188,-11.526773452758787,0.3009816408157348,-0.0,-0.0,-1.0,0.0545826225394906,1.0,1.0
21.81259536743164,-11.505346298217772,0.3062138557434082,-0.0,-0.0,-1.0,0.0635325449795813,1.0,1.0
21.660457611083984,-11.676197052001951,0.6796571016311646,-0.0,-0.0,-1.0,0.2223694100228404,1.0,1.0
21.63979721069336,-9.474997520446776,0.2826049327850342,-0.0,-0.0,-1.0,0.1939432315953139,1.0,1.0
21.940189361572266,-9.830880165100098,0.2318484783172607,-0.0,-0.0,-1.0,0.1230829037091413,1.0,1.0
21.762386322021484,-9.675414085388184,0.2560902833938598,-0.0,-0.0,-1.0,0.184703200095429,2.0,1.0
21.79169273376465,-10.666337966918944,0.4468663334846496,-0.8258572031636571,-0.0877835374681422,0.5570044259539426,0.1893480815526884,3.0,1.0
20.840065002441406,-10.229412078857422,0.4325649738311767,-0.0043527299087281,-0.4667306178975753,-0.8843888195015179,0.1021762313603956,5.0,1.0
22.165912628173828,-10.469830513000488,0.3093215227127075,-0.0,-0.0,-1.0,0.2358954778763031,2.0,1.0
21.187170028686523,-10.054184913635254,0.2950279712677002,-0.0,-0.0,-1.0,0.0419847538079642,1.0,1.0
20.805814743041992,-9.956578254699709,0.288249135017395,-0.0,-0.0,-1.0,0.0484834523494067,2.0,1.0
22.384920120239254,-11.663199424743652,0.2902414798736572,-0.0415168803658453,0.6316806399072622,-0.7741162172510274,0.10779878394309,4.0,1.0
22.191823959350582,-11.625081062316896,0.2863858938217163,-0.0913264517030249,0.1766643583280282,-0.9800250934113276,0.0930906164786436,4.0,1.0
20.850664138793945,-11.14401912689209,0.2645094394683838,-0.0,-0.0,-1.0,0.1080265805820962,1.0,1.0
20.562244415283203,-11.199257850646973,0.2566225528717041,-0.0,-0.0,-1.0,0.0445223235100287,1.0,1.0
21.805753707885746,-11.805935859680176,0.2734977006912231,-0.0,-0.0,-1.0,0.0926580562061344,1.0,1.0
20.667579650878903,-11.856078147888184,0.2455075979232788,-0.0,-0.0,-1.0,0.2103548849491965,1.0,1.0
21.38290023803711,-9.487321853637695,0.1792919635772705,-0.0,-0.0,-1.0,0.1106065909240865,1.0,1.0
21.878223419189453,-9.596928596496582,0.0869926214218139,-0.0,-0.0,-1.0,0.1702150520641947,1.0,1.0
20.370601654052734,-11.776580810546877,0.4604685306549072,-0.970220383138468,-0.0005644252705086,-0.2422232226000593,0.2141124240746342,3.0,1.0
21.17243766784668,-11.30325412750244,0.5554355382919312,-0.0,-0.0,-1.0,0.167851530949751,1.0,1.0
20.55921936035156,-11.767024993896484,0.479058027267456,-0.0,-0.0,-1.0,0.1628066266270565,1.0,1.0
22.15575408935547,-11.670171737670898,0.3020920753479004,-0.0,-0.0,-1.0,0.0804352672592291,2.0,1.0
22.629119873046875,-11.5557861328125,0.2749242782592773,-0.3018914265407744,0.9503966352866482,0.0748852603453711,0.2068553366545597,5.0,1.0
20.642179489135746,-10.23324966430664,0.4522984027862549,-0.0485011327920859,-0.7518400489827021,-0.6575592603435623,0.1482107504821414,3.0,1.0
20.7899227142334,-10.195802688598633,0.4444360733032226,-0.5496385587483424,0.7384022002922118,-0.3907168352409012,0.0715857151650014,3.0,1.0
21.810455322265625,-10.673564910888672,0.3614709377288818,0.0584560486296951,-0.4697993067357143,-0.8808356837510869,0.1599890633568947,8.0,1.0
22.17157554626465,-10.393524169921877,0.3481097221374511,-0.0,-0.0,-1.0,0.1749232200067279,2.0,1.0
20.537784576416016,-9.97365951538086,0.2841788530349731,-0.0,-0.0,-1.0,0.0450219527275333,1.0,1.0
21.989152908325195,-11.242431640625,0.15739107131958,-0.0,-0.0,-1.0,0.0742166456152789,2.0,1.0
22.13472366333008,-10.428617477416992,0.1872689723968505,0.1282647930292312,-0.8189322735162187,-0.5593729295047498,0.1685558752440788,3.0,1.0
22.114614486694336,-10.957304000854492,0.1641445159912109,-0.0,-0.0,-1.0,0.054899208429903,1.0,1.0
22.39620590209961,-11.34471321105957,0.1321228742599487,-0.0,-0.0,-1.0,0.040850861524299,1.0,1.0
22.638601303100582,-11.42609977722168,0.1158664226531982,-0.0,-0.0,-1.0,0.1291216781348382,1.0,1.0
22.031471252441406,-10.35866355895996,0.154403805732727,-0.0,-0.0,-1.0,0.1722269861285152,2.0,1.0
22.376773834228516,-10.275468826293944,0.1265438795089721,-0.0,-0.0,-1.0,0.0996990203264731,1.0,1.0
22.575637817382812,-9.733819961547852,0.1314704418182373,-0.0,-0.0,-1.0,0.126074891992811,2.0,1.0
21.692401885986328,-9.846951484680176,0.1354223489761352,-0.0,-0.0,-1.0,0.1832536802011511,2.0,1.0
21.968862533569336,-10.274628639221191,0.094352126121521,-0.0,-0.0,-1.0,0.1117973258733111,2.0,1.0
21.832714080810547,-9.861882209777832,0.1247780323028564,-0.0,-0.0,-1.0,0.2745883382708358,2.0,1.0
22.27715110778809,-10.034090995788574,0.0842405557632446,-0.0,-0.0,-1.0,0.1109074622411941,1.0,1.0
22.436521530151367,-9.801657676696776,0.0842621326446533,-0.8271785564016622,-0.2289972448894772,-0.5131626425045871,0.0906470323680285,3.0,1.0
21.844860076904297,-10.391879081726074,0.1050689220428466,-0.0,-0.0,-1.0,0.0577592250572215,1.0,1.0
22.01103401184082,-10.279047966003418,0.1077698469161987,-0.0,-0.0,-1.0,0.1356306656806779,2.0,1.0
21.696949005126953,-9.874341011047363,0.1387304067611694,-0.0,-0.0,-1.0,0.1715744507646013,2.0,1.0
20.426843643188477,-10.729758262634276,0.5797951221466064,0.1995549092399397,0.4426816910838893,-0.8741914885065781,0.1464864015610748,3.0,1.0
22.170764923095703,-10.406936645507812,0.1637921333312988,-0.0,-0.0,-1.0,0.2175712762990849,2.0,1.0
21.20085906982422,-9.610586166381836,0.185158371925354,-0.0,-0.0,-1.0,0.056811441442114,1.0,1.0
21.53647232055664,-9.65656852722168,0.1903614997863769,-0.0,-0.0,-1.0,0.1204671675475079,1.0,1.0
20.912586212158203,-11.02784252166748,0.1176282167434692,-0.0,-0.0,-1.0,0.1029874898382836,1.0,1.0
20.835142135620117,-10.895655632019045,0.1062396764755249,-0.0,-0.0,-1.0,0.0647045906688962,1.0,1.0
20.406652450561523,-11.552821159362791,0.3034026622772217,-0.0,-0.0,-1.0,0.1385817402804503,1.0,1.0
22.150480270385746,-11.612305641174316,0.3007259368896484,-0.0,-0.0,-1.0,0.127733030073196,2.0,1.0
22.449512481689453,-11.701947212219238,0.2955635786056518,-0.0,-0.0,-1.0,0.149514081395126,2.0,1.0
22.50205993652344,-11.53286075592041,0.303023099899292,0.5627074322146951,0.6586886334647251,-0.499489369130833,0.1734873924874019,4.0,1.0
20.585796356201172,-10.003226280212402,0.3696472644805908,0.5879273347611721,-0.5203412065735267,-0.6193435862122342,0.0626973882825752,3.0,1.0
20.933074951171875,-10.06250286102295,0.3684788942337036,0.3510699807585351,0.9209045654947756,-0.1693654328990428,0.0891525647740583,4.0,1.0
20.57019424438477,-11.776352882385254,0.4177522659301758,-0.0,-0.0,-1.0,0.1883168251725774,1.0,1.0
21.163198471069336,-11.43178653717041,0.2232154607772827,-0.0,-0.0,-1.0,0.0659710413417399,1.0,1.0
21.229969024658203,-11.581204414367676,0.2196366786956787,-0.0,-0.0,-1.0,0.0291777729986352,1.0,1.0
21.84510803222656,-11.461274147033691,0.2392383813858032,-0.0,-0.0,-1.0,0.0720588895290867,1.0,1.0
22.211719512939453,-11.455609321594238,0.2480576038360595,-0.0,-0.0,-1.0,0.1450750461102121,1.0,1.0
22.662994384765625,-11.448105812072754,0.2584004402160644,-0.0,-0.0,-1.0,0.1920210000971472,2.0,1.0
21.179737091064453,-10.809443473815918,0.2455410957336425,-0.0,-0.0,-1.0,0.2397476454636943,1.0,1.0
21.526630401611328,-11.200396537780762,0.2408034801483154,-0.0,-0.0,-1.0,0.0998061852865784,1.0,1.0
21.796573638916016,-11.197400093078612,0.2476565837860107,-0.0,-0.0,-1.0,0.0636228339728323,2.0,1.0
21.908029556274418,-10.642573356628418,0.270430326461792,-0.0,-0.0,-1.0,0.1331328364078394,2.0,1.0
21.131786346435547,-10.07883358001709,0.2694486975669861,-0.0,-0.0,-1.0,0.058067046098612,2.0,1.0
22.178470611572266,-10.287989616394045,0.2899484038352966,-0.0,-0.0,-1.0,0.1631582116758965,2.0,1.0
21.10244369506836,-9.97154712677002,0.2722703218460083,-0.0,-0.0,-1.0,0.0339589678693352,1.0,1.0
21.58389663696289,-9.922833442687988,0.287384033203125,-0.0,-0.0,-1.0,0.1940660587280981,1.0,1.0
21.01261329650879,-11.796958923339844,0.2591743469238281,-0.0,-0.0,-1.0,0.0918493639660344,1.0,1.0
21.725568771362305,-11.834894180297852,0.2742955684661865,-0.0,-0.0,-1.0,0.1098381209160204,2.0,1.0
20.743797302246097,-11.489797592163086,0.2624514102935791,-0.0,-0.0,-1.0,0.2281348497681124,1.0,1.0
22.199386596679688,-11.583131790161133,0.2930151224136352,0.3977165152017511,-0.3605994956238845,-0.8436762277625076,0.1287421888687431,5.0,1.0
22.589780807495117,-11.455259323120115,0.3054666519165039,0.5662199105179007,0.7270107388039484,0.3883946428529073,0.1471036235991357,3.0,1.0
20.594646453857425,-11.087690353393556,0.271281361579895,-0.0,-0.0,-1.0,0.05392819527751,1.0,1.0
20.863439559936523,-10.97630500793457,0.2817219495773315,-0.0,-0.0,-1.0,0.0988193364076154,1.0,1.0
21.913637161254883,-10.663352966308594,0.3175122737884521,-0.0,-0.0,-1.0,0.1576416531954317,2.0,1.0
21.048431396484375,-10.065542221069336,0.3149385452270508,-0.0,-0.0,-1.0,0.0839155826302665,1.0,1.0
20.83530044555664,-9.87858772277832,0.3148790597915649,-0.0,-0.0,-1.0,0.079144197612136,1.0,1.0
20.959571838378903,-9.910530090332031,0.317310094833374,-0.0,-0.0,-1.0,0.0645143225964564,1.0,1.0
22.522769927978516,-10.490467071533203,0.1320536136627197,-0.0,-0.0,-1.0,0.0794164461522003,2.0,1.0
21.967817306518555,-10.077739715576172,0.1270358562469482,-0.0,-0.0,-1.0,0.0742779451695996,1.0,1.0
22.556779861450195,-10.090450286865234,0.147456407546997,-0.0,-0.0,-1.0,0.0522114131601859,1.0,1.0
21.773361206054688,-9.618934631347656,0.1354031562805175,-0.0,-0.0,-1.0,0.174430104050466,1.0,1.0
21.945140838623047,-9.825944900512695,0.1348183155059814,-0.0,-0.0,-1.0,0.1467489752854751,1.0,1.0
22.61794662475586,-9.424175262451172,0.1729263067245483,-0.0,-0.0,-1.0,0.1896661142771592,1.0,1.0
22.187847137451172,-9.533567428588867,0.0798556804656982,-0.0,-0.0,-1.0,0.0434470074986049,1.0,1.0
22.552749633789062,-9.593570709228516,0.0867882966995239,0.1773826105060773,0.0275356018080642,-0.983756677295314,0.0877908624590227,4.0,1.0
20.28476333618164,-11.815882682800291,0.7906486988067627,-0.0,-0.0,-1.0,0.2412023962210485,1.0,1.0
21.12878799438477,-9.365787506103516,0.1795452833175659,-0.0,-0.0,-1.0,0.1071081228270652,1.0,1.0
21.366214752197266,-9.641714096069336,0.1638005971908569,-0.0,-0.0,-1.0,0.1429789536027743,1.0,1.0
21.624643325805664,-10.038414001464844,0.1398789882659912,-0.0,-0.0,-1.0,0.1512031625405596,1.0,1.0
22.163774490356445,-10.362743377685549,0.1208451986312866,-0.0,-0.0,-1.0,0.1458560102212437,2.0,1.0
21.600746154785156,-9.741161346435549,0.1587783098220825,0.5869711304086485,0.0549317869668265,-0.8077421561658302,0.241692991584563,3.0,1.0
21.771936416625977,-9.85133171081543,0.1526120901107788,-0.0,-0.0,-1.0,0.1855795243107828,1.0,1.0
22.20426368713379,-10.088376998901367,0.1389887332916259,-0.0,-0.0,-1.0,0.115969008397457,2.0,1.0
22.460166931152344,-10.335744857788086,0.123387336730957,-0.0,-0.0,-1.0,0.0526298857399568,2.0,1.0
22.573183059692383,-10.563983917236328,0.1084163188934326,-0.0,-0.0,-1.0,0.0808690381026794,1.0,1.0
21.520883560180664,-9.502286911010742,0.1364238262176513,-0.0,-0.0,-1.0,0.1378055970353927,1.0,1.0
21.772993087768555,-9.795955657958984,0.1218446493148803,-0.0,-0.0,-1.0,0.2107090749606005,2.0,1.0
21.949113845825195,-10.21335792541504,0.0979974269866943,-0.0,-0.0,-1.0,0.0931578325386368,1.0,1.0
22.365955352783203,-10.02231788635254,0.1149264574050903,-0.0,-0.0,-1.0,0.0998811887412614,2.0,1.0
22.558361053466797,-10.427433013916016,0.0910631418228149,-0.4744892262737613,0.8669985263569314,0.1522285434635597,0.0784508825934622,3.0,1.0
20.42811584472656,-10.914831161499023,0.3026489019393921,-0.0,-0.0,-1.0,0.1958427098539465,1.0,1.0
20.33590316772461,-11.243181228637695,0.2872031927108764,-0.0,-0.0,-1.0,0.1286226228262317,1.0,1.0
20.53487014770508,-11.637262344360352,0.2749747037887573,-0.0,-0.0,-1.0,0.2295248900236423,1.0,1.0
20.65701675415039,-9.911588668823242,0.3475651741027832,-0.0,-0.0,-1.0,0.0892883859699322,2.0,1.0
20.84162712097168,-10.35061264038086,0.3346509933471679,0.501373988181024,-0.8636454662459349,-0.0523510516446082,0.122856100372622,4.0,1.0
20.90134048461914,-10.080053329467772,0.3467317819595337,-0.3385652554125359,0.9097777734482804,-0.2401623841631614,0.1033781228932449,3.0,1.0
21.146446228027344,-10.894794464111328,0.3190993666648865,0.3067767345497147,-0.3880763400026399,-0.869071222322526,0.1954580193609315,4.0,1.0
21.60958671569824,-11.831405639648438,0.2877514362335205,0.5843517024331083,-0.2440137012316095,-0.7739447018196967,0.1055596162797128,7.0,1.0
21.82549476623535,-10.641847610473633,0.343984842300415,-0.056459725167745,-0.1171556433503379,-0.9915073649071656,0.1564712135346279,6.0,1.0
22.09177589416504,-11.60993766784668,0.306632399559021,-0.0,-0.0,-1.0,0.1333691710723321,2.0,1.0
22.18684196472168,-11.837791442871094,0.2979465126991272,-0.0,-0.0,-1.0,0.0859917282990301,1.0,1.0
20.748872756958008,-9.792228698730469,0.2435375452041626,-0.0,-0.0,-1.0,0.0613157420962906,1.0,1.0
20.84923553466797,-10.55244255065918,0.2229152917861938,-0.0,-0.0,-1.0,0.0610585734890743,2.0,1.0
20.883533477783203,-9.836193084716797,0.2472401857376098,-0.0,-0.0,-1.0,0.0702402392560669,2.0,1.0
21.113901138305664,-10.042814254760742,0.2492467164993286,0.1620028830184125,0.2038470065318964,-0.9655058072439064,0.0597675531938327,4.0,1.0
20.89940071105957,-10.64385223388672,0.2216795682907104,-0.0,-0.0,-1.0,0.0838073092291585,1.0,1.0
21.07198905944824,-10.809621810913086,0.2222212553024292,-0.0,-0.0,-1.0,0.1661660467869833,2.0,1.0
21.21139907836914,-11.186525344848633,0.2139548063278198,-0.0,-0.0,-1.0,0.097548143156032,2.0,1.0
21.5443115234375,-11.297048568725586,0.2213762998580932,0.4188186739324333,0.4454598541421518,-0.7913004718266826,0.093453808783591,3.0,1.0
21.631757736206055,-11.482206344604492,0.2175372838973999,-0.0,-0.0,-1.0,0.0363803310585348,1.0,1.0
21.69804573059082,-9.776042938232422,0.2793524265289306,-0.0,-0.0,-1.0,0.1548085054034262,2.0,1.0
21.883943557739254,-10.67872428894043,0.2552121877670288,-0.0,-0.0,-1.0,0.1585410089750673,2.0,1.0
21.977771759033203,-11.352312088012695,0.2338522672653198,0.1235225347259375,-0.8844533860139704,0.4499826567583494,0.0608224007119112,3.0,1.0
22.053760528564453,-11.531131744384766,0.2296088933944702,0.4726584965177936,-0.869872552117838,-0.1411229561111091,0.163235759451262,4.0,1.0
22.06970977783203,-10.310400009155272,0.2746223211288452,-0.0,-0.0,-1.0,0.1433694148084319,2.0,1.0
22.425207138061523,-11.512975692749023,0.242301344871521,0.336535549733686,0.0948625875490974,-0.936880415660897,0.1568625425301456,4.0,1.0
22.682462692260746,-10.468938827514648,0.290021538734436,-0.0,-0.0,-1.0,0.1403808572516403,1.0,1.0
20.63064193725586,-10.909272193908691,0.2543040513992309,-0.0,-0.0,-1.0,0.092204921123437,2.0,1.0
20.7056884765625,-9.88455295562744,0.3061556816101074,-0.0,-0.0,-1.0,0.0899043466264768,2.0,1.0
20.9483585357666,-10.233062744140623,0.2956138849258423,-0.5053429629378975,-0.2489996388775761,-0.8262128476657719,0.0659593209475566,4.0,1.0
20.825639724731445,-10.604246139526367,0.2742935419082641,-0.0,-0.0,-1.0,0.1372141141624461,2.0,1.0
20.99864196777344,-11.01284408569336,0.257850170135498,-0.0,-0.0,-1.0,0.121867453983903,1.0,1.0
21.00074577331543,-11.58254051208496,0.2283418178558349,-0.0,-0.0,-1.0,0.0909164538621285,1.0,1.0
21.1168270111084,-11.829500198364258,0.2177991867065429,-0.0,-0.0,-1.0,0.0219713450244479,1.0,1.0
21.038009643554688,-10.119027137756348,0.3034482598304748,0.2984772554837782,-0.1993021594660577,-0.9333755820627828,0.071242323170909,5.0,1.0
21.783679962158203,-10.551603317260742,0.29997718334198,-0.0,-0.0,-1.0,0.2123746030545485,1.0,1.0
21.89912796020508,-10.779647827148438,0.2909259796142578,-0.0,-0.0,-1.0,0.1886485236640051,2.0,1.0
21.98773956298828,-11.523748397827148,0.2532050609588623,-0.0,-0.0,-1.0,0.1656673291530811,1.0,1.0
22.15546989440918,-11.58100128173828,0.253619909286499,0.1405893161751554,-0.2619909114968707,-0.954775055429519,0.1187611011152491,4.0,1.0
22.48913955688477,-11.555301666259766,0.2619760036468506,0.9641670810324624,-0.1192229120421213,-0.2369973356338363,0.182798185249088,4.0,1.0
22.265926361083984,-10.369478225708008,0.5959457159042358,-0.0,-0.0,-1.0,0.1463535384617112,2.0,1.0
20.503742218017575,-11.848551750183104,0.5102731585502625,0.0373928926849367,-0.6683332733270384,-0.742921535117013,0.2327215551929572,5.0,1.0
21.77132797241211,-10.756866455078123,0.5697512030601501,-0.0,-0.0,-1.0,0.1412703073739032,2.0,1.0
22.263471603393555,-10.31422233581543,0.5931311249732971,-0.0,-0.0,-1.0,0.140047664974494,2.0,1.0
21.963340759277344,-9.688486099243164,0.0625048875808715,-0.0,-0.0,-1.0,0.0665828672439611,2.0,1.0
22.318849563598633,-9.692326545715332,0.0802880525588989,-0.0,-0.0,-1.0,0.0516911447599085,2.0,1.0
22.66296005249023,-10.158283233642578,0.0757019519805908,-0.0,-0.0,-1.0,0.0258640392594801,1.0,1.0
22.70350456237793,-10.282325744628906,0.0717284679412841,-0.0,-0.0,-1.0,0.0612388282224033,2.0,1.0
22.69519805908203,-9.74514865875244,0.0967073440551757,-0.0,-0.0,-1.0,0.1001610006795224,1.0,1.0
20.295711517333984,-11.012262344360352,0.6487658023834229,-0.0,-0.0,-1.0,0.0358832714976383,2.0,1.0
21.41616439819336,-9.692341804504396,0.1690666675567627,-0.0,-0.0,-1.0,0.1390640686886703,2.0,1.0
21.323301315307617,-9.946292877197266,0.1539695262908935,-0.0,-0.0,-1.0,0.1153767211697763,2.0,1.0
21.50981903076172,-10.071714401245115,0.1571753025054931,-0.0,-0.0,-1.0,0.1539576052895785,1.0,1.0
21.63127899169922,-10.227951049804688,0.1558740139007568,-0.0,-0.0,-1.0,0.0290545367710079,1.0,1.0
22.067657470703125,-10.931608200073242,0.1429102420806884,-0.0,-0.0,-1.0,0.0908632701993892,2.0,1.0
22.12031936645508,-11.04842758178711,0.1395807266235351,-0.0,-0.0,-1.0,0.0423692106393667,1.0,1.0
21.62662696838379,-9.771489143371582,0.1755229234695434,-0.0,-0.0,-1.0,0.1967282014379419,2.0,1.0
21.90915870666504,-10.249855041503906,0.1675343513488769,-0.0,-0.0,-1.0,0.1072573384433082,2.0,1.0
22.05011749267578,-10.486871719360352,0.1630550622940063,-0.0,-0.0,-1.0,0.1065199292945129,1.0,1.0
22.021032333374023,-10.64443588256836,0.1544265747070312,0.240344853153427,-0.1355582912117678,-0.961175478904036,0.1349977620829965,3.0,1.0
22.35480499267578,-11.136112213134766,0.1454560756683349,-0.0,-0.0,-1.0,0.0266687126310921,1.0,1.0
22.54707717895508,-11.280353546142578,0.1465241909027099,-0.0,-0.0,-1.0,0.0535738872896263,1.0,1.0
21.694881439208984,-9.368412017822266,0.0786269903182983,-0.0,-0.0,-1.0,0.1673567099692323,1.0,1.0
21.88725852966309,-9.675411224365234,0.0806620121002197,-0.0,-0.0,-1.0,0.1305323389282683,1.0,1.0
22.51792907714844,-9.75062370300293,0.1170994043350219,-0.0,-0.0,-1.0,0.0898251999549023,2.0,1.0
22.356924057006836,-9.983809471130373,0.0989547967910766,-0.9646802296586604,0.0426411777008578,0.2599495806305484,0.1128493406028696,4.0,1.0
22.56080436706543,-9.95376968383789,0.1125012636184692,-0.0,-0.0,-1.0,0.0811527609474107,1.0,1.0
22.475492477416992,-10.254825592041016,0.0962586402893066,-0.0,-0.0,-1.0,0.0500740196635617,2.0,1.0
20.445308685302734,-10.651369094848633,0.6217846870422363,-0.0,-0.0,-1.0,0.1707234445515191,1.0,1.0
20.3039493560791,-11.079893112182615,0.6086119413375854,-0.0,-0.0,-1.0,0.0644461680008257,2.0,1.0
20.78812789916992,-9.906673431396484,0.3731350898742676,-0.0,-0.0,-1.0,0.0648747084693401,1.0,1.0
21.926801681518555,-9.634259223937988,0.4305333495140075,-0.0,-0.0,-1.0,0.1697078281684801,1.0,1.0
21.591964721679688,-9.676884651184082,0.4145079851150512,-0.0,-0.0,-1.0,0.1826828600709434,1.0,1.0
20.983491897583008,-10.132089614868164,0.3768276572227478,0.5252174233456022,-0.1500057144869691,-0.837642491660649,0.0891352223308844,3.0,1.0
20.844194412231445,-10.364423751831056,0.3652111291885376,0.773483347827143,-0.5556667563896516,-0.3048900891756214,0.0984586350092446,4.0,1.0
21.845420837402344,-10.586271286010742,0.404159665107727,-0.0,-0.0,-1.0,0.1318022166946029,2.0,1.0
20.361555099487305,-11.367703437805176,0.3194581866264343,-0.0,-0.0,-1.0,0.1335600546366827,1.0,1.0
21.87979507446289,-10.703645706176758,0.4027037024497986,-0.0,-0.0,-1.0,0.1295632997673882,1.0,1.0
20.67688751220703,-11.582924842834473,0.327686607837677,-0.0,-0.0,-1.0,0.1930493443192635,1.0,1.0
20.42746353149414,-11.661303520202637,0.3147979378700256,-0.0,-0.0,-1.0,0.2205395142660164,1.0,1.0
20.728994369506836,-10.202629089355469,0.459498643875122,-0.1721246962115736,0.083994256267331,-0.9814876738238596,0.1074397633759915,3.0,1.0
20.531158447265625,-10.726150512695312,0.4414445161819458,-0.0,-0.0,-1.0,0.0776304833345202,1.0,1.0
20.578704833984375,-11.55679988861084,0.4260010719299316,-0.0,-0.0,-1.0,0.1826932737485705,2.0,1.0
20.446210861206055,-11.804475784301758,0.4153859615325928,-0.0,-0.0,-1.0,0.1794410208364582,2.0,1.0
22.60637664794922,-9.49394989013672,0.1004174947738647,-0.0,-0.0,-1.0,0.1073203699395085,1.0,1.0
22.25175094604492,-9.47832202911377,0.0794510841369628,-0.0,-0.0,-1.0,0.0285093944293327,1.0,1.0
21.822263717651367,-9.486059188842772,0.0522607564926147,-0.0,-0.0,-1.0,0.115057911694169,1.0,1.0
22.62313461303711,-9.776450157165527,0.0841703414916992,-0.0,-0.0,-1.0,0.1090864907076634,1.0,1.0
21.548778533935547,-10.334542274475098,0.5467869639396667,-0.0,-0.0,-1.0,0.117723936975247,1.0,1.0
20.40915298461914,-10.694466590881348,0.497022271156311,-0.0,-0.0,-1.0,0.1623447638929257,1.0,1.0
20.844161987304688,-11.28657054901123,0.4807198047637939,-0.0,-0.0,-1.0,0.1293557704462223,1.0,1.0
20.374744415283203,-11.765042304992676,0.4438478946685791,-0.970220383138468,-0.0005644252705086,-0.2422232226000593,0.2581986301392918,3.0,1.0
21.07683753967285,-9.383624076843262,0.4429160356521606,-0.0,-0.0,-1.0,0.1516566565333413,1.0,1.0
21.817222595214844,-9.99082088470459,0.4537514448165893,-0.0,-0.0,-1.0,0.221588920020292,1.0,1.0
21.028060913085938,-9.562929153442385,0.434868574142456,-0.0,-0.0,-1.0,0.2327452250312003,1.0,1.0
20.862548828125,-9.509317398071287,0.4296451807022095,-0.0,-0.0,-1.0,0.2144727733290551,1.0,1.0
21.51956558227539,-10.035365104675291,0.4396983385086059,-0.0,-0.0,-1.0,0.2362516574071487,2.0,1.0
20.799251556396484,-10.293424606323242,0.4005578160285949,-0.0,-0.0,-1.0,0.1518241703046665,2.0,1.0
22.034732818603516,-10.776887893676758,0.4356588125228882,-0.0,-0.0,-1.0,0.1882897488179462,1.0,1.0
21.00310707092285,-10.55146598815918,0.4003114700317383,-0.0,-0.0,-1.0,0.2028556156765968,1.0,1.0
21.890060424804688,-10.946537017822266,0.4236817359924316,-0.0,-0.0,-1.0,0.1581127905644908,1.0,1.0
20.861072540283203,-10.780577659606934,0.3864646553993225,-0.0,-0.0,-1.0,0.0844270614772086,1.0,1.0
20.59656524658203,-11.311270713806152,0.3569974899291992,-0.0,-0.0,-1.0,0.1420310013137768,1.0,1.0
20.498767852783203,-11.8463716506958,0.3341577053070068,-0.0,-0.0,-1.0,0.166487374743071,1.0,1.0
20.506336212158203,-11.775672912597656,0.3369626998901367,-0.5166694488553432,0.8496920660549049,-0.1052429261416818,0.2315866218398748,3.0,1.0
21.60669708251953,-9.605414390563965,0.102710485458374,-0.0,-0.0,-1.0,0.1479782148599563,1.0,1.0
21.460968017578125,-9.58244514465332,0.0965780019760131,-0.0,-0.0,-1.0,0.1184819672645001,1.0,1.0
21.82699203491211,-9.916176795959473,0.0929023027420044,-0.0,-0.0,-1.0,0.2393414565984412,1.0,1.0
22.288833618164062,-10.389724731445312,0.0835988521575927,-0.0,-0.0,-1.0,0.0914048725191971,2.0,1.0
21.93694305419922,-10.14111042022705,0.0829658508300781,-0.0,-0.0,-1.0,0.0455233938780931,1.0,1.0
22.60889434814453,-9.514263153076172,0.1618907451629638,-0.0,-0.0,-1.0,0.2096089196427739,1.0,1.0
22.53977394104004,-9.894302368164062,0.1317089796066284,-0.0,-0.0,-1.0,0.0896457757726649,1.0,1.0
22.194801330566406,-10.080500602722168,0.1006639003753662,-0.0,-0.0,-1.0,0.1078398491289994,2.0,1.0
22.468429565429688,-10.126239776611328,0.1116425991058349,-0.9691334917012884,0.1077538396160398,0.2217417085504433,0.0595896833386071,3.0,1.0
22.32320785522461,-10.313066482543944,0.0908137559890747,-0.0,-0.0,-1.0,0.0741575552116571,1.0,1.0
20.361328125,-10.76150131225586,0.5592035055160522,-0.0,-0.0,-1.0,0.1464864015610748,2.0,1.0
20.99377822875977,-11.375632286071776,0.5377624034881592,-0.0,-0.0,-1.0,0.135462658652306,2.0,1.0
20.271623611450195,-11.200148582458496,0.5330256223678589,-0.0,-0.0,-1.0,0.0421955957824246,1.0,1.0
20.46942901611328,-11.713311195373535,0.5082979798316956,-0.0,-0.0,-1.0,0.1887554552054717,2.0,1.0
20.598817825317383,-9.567168235778809,0.1972113847732544,-0.0,-0.0,-1.0,0.096553517451346,1.0,1.0
21.020416259765625,-10.336055755615234,0.1940943002700805,-0.0,-0.0,-1.0,0.0280580417502167,2.0,1.0
21.26694107055664,-10.608734130859377,0.1981140375137329,-0.0,-0.0,-1.0,0.1428346511525351,1.0,1.0
21.090164184570312,-10.565505981445312,0.1893236637115478,-0.0,-0.0,-1.0,0.0825645708782265,2.0,1.0
21.412757873535156,-10.937922477722168,0.193471074104309,-0.0,-0.0,-1.0,0.0781885688958493,1.0,1.0
21.268518447875977,-10.930793762207031,0.1853375434875488,-0.0,-0.0,-1.0,0.1842003121680022,1.0,1.0
21.6227970123291,-11.272249221801758,0.191961407661438,-0.0,-0.0,-1.0,0.0943178295719032,1.0,1.0
21.77179527282715,-9.61672592163086,0.266294002532959,-0.0,-0.0,-1.0,0.2129680577459951,1.0,1.0
