x,y,z,nx,ny,nz,curvature,density,label
45.85576629638672,-1.0271087884902954,-0.9645915031433104,-0.0,-0.0,-1.0,0.1145580487518572,1.0,0.0
46.16792678833008,-1.562968373298645,-0.8200778961181641,-0.0,-0.0,-1.0,0.214593133808396,2.0,0.0
46.92079162597656,-1.5253185033798218,-0.7129764556884766,0.5650316737865089,-0.7226182008217168,0.3981986231256971,0.0430618012769236,4.0,0.0
47.476200103759766,-1.223147749900818,-0.827650785446167,-0.0,-0.0,-1.0,0.0317714552310745,2.0,0.0
47.40403747558594,-1.425765872001648,-0.8215937614440918,-0.0,-0.0,-1.0,0.0241791445394758,1.0,0.0
45.30440902709961,-0.646582841873169,-0.5185956954956055,-0.0,-0.0,-1.0,0.1458088172930243,2.0,0.0
46.532447814941406,-1.8421803712844849,-0.6432057619094849,-0.4873793467155152,0.3895113774358487,-0.7815000059137458,0.0735010867897974,3.0,0.0
45.39370346069336,-1.3514440059661863,-0.9250755310058594,-0.0,-0.0,-1.0,0.0938631921202437,2.0,0.0
45.98531723022461,-0.7292625904083252,-0.8246824741363525,-0.0,-0.0,-1.0,0.0809680780468079,1.0,0.0
46.21092987060547,-1.1471238136291504,-0.8716096878051758,-0.0,-0.0,-1.0,0.0781256721381148,1.0,0.0
47.29716491699219,-0.6208386421203613,-0.8300209045410156,-0.0,-0.0,-1.0,0.1100749580832478,2.0,0.0
47.29766082763672,-0.9778904914855956,-0.8219492435455322,-0.0,-0.0,-1.0,0.1531368878363333,2.0,0.0
45.441932678222656,0.3467221260070801,-0.6038904190063477,0.4118479004868682,0.904227328723798,0.1129346928697442,0.258921039118559,3.0,0.0
45.70603561401367,-1.6808881759643557,-0.7127139568328857,-0.0,-0.0,-1.0,0.122714759768147,1.0,0.0
46.42652893066406,-1.378071427345276,-0.6527429819107056,-0.0,-0.0,-1.0,0.0486347962315431,1.0,0.0
45.670875549316406,-0.8182849884033203,-0.9412167072296144,-0.0,-0.0,-1.0,0.0950350162510818,1.0,0.0
45.493133544921875,-0.673865556716919,-0.8874131441116333,-0.0,-0.0,-1.0,0.2495231629497487,2.0,0.0
45.75044250488281,-0.5126681327819824,-0.9451647996902466,-0.9886312431149844,-0.094164988136572,-0.1172229505948387,0.250603168579538,4.0,0.0
45.34394836425781,-0.9232240915298462,-0.897598147392273,-0.0,-0.0,-1.0,0.1850601661446062,1.0,0.0
46.08788299560547,-1.2126805782318115,-0.8373069763183594,0.2339447746681019,0.9675049002695713,-0.0959380548054752,0.1263824812962719,4.0,0.0
45.33921813964844,-0.5852952003479004,-0.4781594276428222,0.2729510711952718,0.6653730209001422,-0.6948211682091825,0.1629058943391571,5.0,0.0
47.647178649902344,0.5098605155944824,-0.8729469776153564,-0.0,-0.0,-1.0,0.0972835382922685,1.0,0.0
45.28775405883789,-1.0776920318603516,-0.8389840126037598,-0.0,-0.0,-1.0,0.1878321403253681,1.0,0.0
45.256103515625,-0.5765924453735352,-0.6457391977310181,-0.0,-0.0,-1.0,0.0525880429590083,2.0,0.0
45.746124267578125,0.2857389450073242,-1.016627311706543,-0.0,-0.0,-1.0,0.1791263970025317,1.0,0.0
47.378631591796875,0.2103118896484375,-0.9558156728744508,-0.0,-0.0,-1.0,0.0396731414937222,2.0,0.0
45.60256576538086,-1.318401336669922,-0.7947131395339966,0.887970237591707,0.347525927109346,-0.3012218238078321,0.141307461092653,3.0,0.0
46.47788619995117,0.3432216644287109,-1.05588698387146,-0.0,-0.0,-1.0,0.0238170028053487,2.0,0.0
47.66585540771485,0.1746702194213867,-0.8670670986175537,0.0211431301618367,-0.9458488266844314,-0.3239181456890677,0.0853858536757795,4.0,0.0
45.33433532714844,-0.6188087463378906,-0.7079312801361084,-0.7661705237779548,0.3607996074452633,-0.5317954228471304,0.1357902627003619,5.0,0.0
45.44026565551758,-1.1728224754333496,-0.8497145175933838,-0.0,-0.0,-1.0,0.1598073531639099,1.0,0.0
45.41121673583984,-1.150655746459961,-0.9544260501861572,-0.0,-0.0,-1.0,0.2078924995220613,2.0,0.0
46.0416259765625,0.3217849731445312,-1.0165231227874756,-0.0,-0.0,-1.0,0.1780295438387125,1.0,0.0
45.61395263671875,-1.335186004638672,-0.780510663986206,0.887970237591707,0.347525927109346,-0.3012218238078321,0.1299829019537532,3.0,0.0
45.33810043334961,0.0992546081542968,-1.0753426551818848,-0.0,-0.0,-1.0,0.0621995054770422,1.0,0.0
45.37646484375,-0.2684879302978515,-0.7383689880371094,-0.0,-0.0,-1.0,0.2068000613462581,1.0,0.0
45.933929443359375,0.3429088592529297,-1.0884652137756348,-0.0,-0.0,-1.0,0.1906459812611741,1.0,0.0
47.2210807800293,0.1357169151306152,-1.2504637241363523,-0.0,-0.0,-1.0,0.278583417493252,1.0,0.0
45.44371795654297,-0.851170539855957,-0.866480827331543,-0.0,-0.0,-1.0,0.1560790102751401,1.0,0.0
45.48927688598633,-1.2424745559692385,-0.7907958030700684,-0.0335873607742878,0.6170612935676006,-0.7861979707280459,0.1671454822316859,3.0,0.0
45.38853454589844,-1.8096227645874023,-0.7156014442443848,-0.0,-0.0,-1.0,0.0829988633936934,2.0,0.0
45.936824798583984,-1.6457586288452148,-0.7086896896362305,-0.0,-0.0,-1.0,0.0855300523079048,1.0,0.0
45.65215301513672,0.5004787445068359,-1.2394046783447266,-0.0,-0.0,-1.0,0.0806933077544488,1.0,0.0
45.54985046386719,0.1317570805549621,-1.1046736240386963,-0.0,-0.0,-1.0,0.1645285218664975,2.0,0.0
45.84797668457031,0.3645528852939605,-1.13706374168396,-0.0,-0.0,-1.0,0.1313761212678434,2.0,0.0
45.25081253051758,-0.0264192521572113,-1.0737106800079346,0.9597324493641354,0.0979675022987951,-0.2632793082087016,0.1830469157325457,3.0,0.0
45.23492431640625,0.4768427610397339,-1.2475733757019043,-0.0,-0.0,-1.0,0.0449058723395925,2.0,0.0
45.987789154052734,-1.6766549348831177,-0.6984190940856934,-0.0,-0.0,-1.0,0.0521541958396042,1.0,0.0
46.060546875,-1.3099919557571411,-0.7207012176513672,-0.2995070867504205,-0.049606451071573,-0.952803602532211,0.2069077184396917,4.0,0.0
47.07806396484375,-0.8249365091323853,-0.8626384735107422,0.3284846256429272,0.3024369753794295,-0.8947791496450777,0.0295647791649994,3.0,0.0
47.17510223388672,-0.4459805786609649,-0.8887462615966797,-0.8652391036796752,-0.4844939575032422,-0.1289453318520617,0.0468737524556107,3.0,0.0
47.11308670043945,-0.0665667504072189,-0.895688533782959,-0.0,-0.0,-1.0,0.0651734060414336,2.0,0.0
47.05370330810547,0.3921684622764587,-0.9062089920043944,-0.0,-0.0,-1.0,0.0600280894828605,1.0,0.0
46.02444076538086,-0.1763852536678314,-1.0859870910644531,-0.0,-0.0,-1.0,0.1473539190849665,1.0,0.0
46.16109848022461,0.3919823169708252,-1.1281323432922363,0.3157056759633687,-0.0557840405610747,-0.9472159558322446,0.137573481303299,3.0,0.0
46.06566619873047,0.5349332690238953,-1.1214985847473145,-0.0,-0.0,-1.0,0.1346759321603929,1.0,0.0
45.25947952270508,-1.3070671558380127,-0.9383554458618164,-0.0,-0.0,-1.0,0.1001987125512003,2.0,0.0
45.23521423339844,-0.3201369643211365,-0.9746108055114746,-0.0,-0.0,-1.0,0.1348276672073811,1.0,0.0
45.8077392578125,-0.5430576205253601,-1.0419979095458984,-0.2274143454405763,0.2921121620681333,-0.9289527438248486,0.1677755628092759,4.0,0.0
45.5880126953125,-0.0320529006421566,-1.0336780548095703,-0.0,-0.0,-1.0,0.1075815266194129,1.0,0.0
45.81724166870117,0.1032662689685821,-1.0699701309204102,0.5442565993161916,-0.7974143426220903,-0.2606052959579947,0.170893056981474,3.0,0.0
45.55034637451172,0.2447827607393264,-1.0402798652648926,-0.0,-0.0,-1.0,0.1693805264698711,1.0,0.0
45.40150451660156,-0.4671413898468017,-1.1887140274047852,-0.0,-0.0,-1.0,0.0953855378966161,1.0,0.0
45.37639999389648,-0.0516129732131958,-1.2071661949157717,-0.0,-0.0,-1.0,0.0991716795621803,1.0,0.0
45.71723175048828,0.2236027121543884,-1.2721843719482422,-0.0,-0.0,-1.0,0.1354674618688053,1.0,0.0
45.774662017822266,0.6342829465866089,-1.303612232208252,-0.0,-0.0,-1.0,0.0604948059794322,1.0,0.0
45.3282470703125,-1.8369975090026855,-0.8077821731567383,0.9405929424974748,-0.3219881039791932,0.1077431084563004,0.1224248106542321,4.0,0.0
45.48491668701172,-1.4413702487945557,-0.8437910079956055,-0.0,-0.0,-1.0,0.1219922294569881,2.0,0.0
45.86922073364258,-0.9899141788482666,-0.914794921875,-0.0,-0.0,-1.0,0.1253336467655347,1.0,0.0
46.55963134765625,-0.5321047306060791,-1.0300631523132324,-0.0,-0.0,-1.0,0.0161529225153768,2.0,0.0
46.686466217041016,-0.3880776166915893,-1.0537538528442385,-0.0,-0.0,-1.0,0.0286891061755158,1.0,0.0
46.040279388427734,-0.6502025127410889,-0.9520206451416016,-0.0,-0.0,-1.0,0.0857397183637224,1.0,0.0
46.666561126708984,-0.0324958860874176,-1.0655550956726074,0.515162929327933,-0.8570877302752803,-0.0027890603851202,0.0933540053669269,4.0,0.0
46.58047103881836,0.3082231879234314,-1.06785249710083,-0.0,-0.0,-1.0,0.0291299379734267,2.0,0.0
46.43888854980469,0.4505596160888672,-1.05403470993042,0.9673524217675592,-0.2525672488345434,-0.0209541622735794,0.0439385624441073,3.0,0.0
46.32439422607422,-1.842244029045105,-0.6751899719238281,-0.0,-0.0,-1.0,0.0570879786873758,1.0,0.0
47.09022903442383,-0.8979239463806152,-0.8703908920288086,-0.3202500050795522,-0.0911200022406149,-0.9429406553109362,0.0302001094877035,3.0,0.0
46.167293548583984,-1.4289230108261108,-0.6925191879272461,-0.0,-0.0,-1.0,0.1371956280626351,1.0,0.0
47.16159439086914,-0.4850488901138305,-0.9200592041015624,-0.305604624633191,0.0959577443975371,-0.9473108912563728,0.0381699620066128,3.0,0.0
46.00600051879883,-1.1507375240325928,-0.6967215538024902,-0.0,-0.0,-1.0,0.1951729265329035,2.0,0.0
45.98365783691406,-1.013856291770935,-0.7067198753356934,-0.0,-0.0,-1.0,0.1831977840505706,2.0,0.0
47.10292434692383,-0.0639299601316452,-0.9529953002929688,0.1638119592956092,0.8335518047548613,-0.5275955181591736,0.0938684852070512,5.0,0.0
47.02568054199219,0.4256293177604675,-0.9905076026916504,0.4605632822776652,-0.8781317502274086,-0.1294839459553627,0.05372743916941,3.0,0.0
45.41658401489258,0.2006914764642715,-0.7464408874511719,-0.0,-0.0,-1.0,0.1482050697067335,1.0,0.0
45.733428955078125,-1.7208709716796875,-0.8303093910217285,0.0519620644105159,-0.1133488886280285,-0.992195531792493,0.0634822632796701,3.0,0.0
45.88861846923828,-1.2121660709381104,-0.9058189392089844,-0.0,-0.0,-1.0,0.0880959816675657,1.0,0.0
45.45963287353515,-1.3843817710876465,-0.8246750831604004,-0.3865582020276924,-0.7608477873420646,-0.521232578549923,0.1595609411555657,3.0,0.0
45.88334655761719,-1.0806291103363037,-0.9188809394836426,-0.0,-0.0,-1.0,0.1178408455495845,2.0,0.0
45.889854431152344,-0.6806600093841553,-0.9624967575073242,-0.0,-0.0,-1.0,0.0897855077525258,2.0,0.0
46.42778015136719,-0.3093600273132324,-1.0821309089660645,-0.0,-0.0,-1.0,0.0274695957442443,1.0,0.0
45.45829772949219,-0.9299383163452148,-0.8721985816955566,-0.0,-0.0,-1.0,0.1452370324078893,1.0,0.0
45.97727584838867,0.035256803035736,-1.053752899169922,-0.0,-0.0,-1.0,0.1161278259585028,1.0,0.0
46.179412841796875,0.3619866371154785,-1.1202616691589355,-0.0,-0.0,-1.0,0.08159799848594,2.0,0.0
45.3079833984375,-0.406437873840332,-0.9063539505004884,-0.0,-0.0,-1.0,0.1063640467291328,1.0,0.0
46.998435974121094,-0.976160764694214,-0.9204444885253906,-0.0,-0.0,-1.0,0.0342148591361138,2.0,0.0
47.10822296142578,-0.6663451194763184,-0.9380621910095216,-0.0,-0.0,-1.0,0.0364176955628164,2.0,0.0
47.15589141845703,-0.1947731971740722,-0.9487051963806152,0.1537074262882635,-0.6677137016401374,-0.7283765782518433,0.101742673331223,3.0,0.0
47.1077880859375,0.3344495296478271,-0.9472737312316896,-0.0,-0.0,-1.0,0.0440915191714017,2.0,0.0
45.952850341796875,-1.850756883621216,-0.7690348625183105,-0.0,-0.0,-1.0,0.0462507957478226,1.0,0.0
46.10795593261719,-1.4132859706878662,-0.7921938896179199,-0.7129551233634543,0.5451501873704324,-0.4410286445116504,0.1738710653170813,6.0,0.0
45.47166061401367,0.1983094215393066,-0.7130618095397949,-0.0,-0.0,-1.0,0.1454322132391853,1.0,0.0
46.00785827636719,-1.444329023361206,-0.7707114219665527,0.7742970749224581,0.2853535791814401,-0.5648339354313504,0.1166881308553849,3.0,0.0
45.99888610839844,-1.125504732131958,-0.7005290985107422,-0.0,-0.0,-1.0,0.2121564835935956,2.0,0.0
45.68955993652344,-1.7218072414398191,-0.7964687347412109,-0.5705932419873604,0.816988374948006,0.0833867339459354,0.1084783315845555,3.0,0.0
45.299190521240234,-1.789987325668335,-0.7686748504638672,-0.0,-0.0,-1.0,0.1183541876795172,1.0,0.0
46.28472900390625,0.4146766662597656,-1.0899527072906494,-0.0,-0.0,-1.0,0.0509991315900929,1.0,0.0
46.164085388183594,-0.1727461814880371,-1.070984125137329,-0.0,-0.0,-1.0,0.169800453582563,1.0,0.0
46.28704071044922,0.3385744094848633,-1.0689022541046145,-0.3472849733734499,-0.7570453891609138,-0.5534215626619575,0.0792962553262692,3.0,0.0
46.31241607666016,0.5365409851074219,-1.0661022663116455,0.0648228516595493,-0.6929268539229219,-0.718087998099958,0.1028408735004942,3.0,0.0
45.87017822265625,-0.323819637298584,-1.0459024906158447,-0.0,-0.0,-1.0,0.1348615875466731,1.0,0.0
45.90299987792969,0.1989002227783203,-1.0341002941131592,0.7699397351305831,-0.1701578980308759,-0.6150114584337121,0.1205651212636107,3.0,0.0
46.43798828125,-0.1287183761596679,-1.0635147094726562,-0.0,-0.0,-1.0,0.032494625054597,1.0,0.0
46.481422424316406,0.5310630798339844,-1.0346465110778809,0.490382416711306,-0.7199644670888209,-0.4910969878851725,0.1316839972993212,3.0,0.0
45.73009490966797,-0.5892596244812012,-1.0193560123443604,0.3307402883225704,0.0601569425570683,-0.9418025291654768,0.1833392247117282,3.0,0.0
45.90087890625,-0.4218807220458984,-1.026950120925903,-0.0,-0.0,-1.0,0.1649544329160008,1.0,0.0
46.96197891235352,-0.028815746307373,-1.1075682640075684,-0.0,-0.0,-1.0,0.1312123487514394,1.0,0.0
46.92964172363281,0.3842744827270508,-1.0797245502471924,-0.0,-0.0,-1.0,0.0539287668352406,1.0,0.0
46.686954498291016,-0.3168206214904785,-1.0992631912231443,-0.0,-0.0,-1.0,0.0301336267512943,1.0,0.0
46.811302185058594,-0.2049007415771484,-1.1040902137756348,-0.0,-0.0,-1.0,0.021099188136849,1.0,0.0
45.67342376708984,-0.7731552124023438,-1.0327134132385254,-0.0,-0.0,-1.0,0.08868140442709,1.0,0.0
45.7143440246582,-0.5879635810852051,-1.0248045921325684,0.3307402883225704,0.0601569425570683,-0.9418025291654768,0.149505413434506,3.0,0.0
45.391845703125,-1.1109895706176758,-1.0281291007995603,-0.0,-0.0,-1.0,0.2383693614229957,1.0,0.0
45.394229888916016,-0.9781198501586914,-1.0197405815124512,-0.0,-0.0,-1.0,0.1400769148198823,1.0,0.0
45.54949951171875,0.4598150253295898,-1.171863317489624,-0.0,-0.0,-1.0,0.1287229811406103,2.0,0.0
45.21678161621094,0.4905939102172851,-1.2345073223114014,-0.0,-0.0,-1.0,0.0449058723395925,2.0,0.0
45.96770858764648,-0.3193693161010742,-1.068325757980347,-0.0,-0.0,-1.0,0.1683907435998624,2.0,0.0
45.50754165649414,-0.4448814392089844,-1.0344491004943848,-0.0,-0.0,-1.0,0.1552442735945549,1.0,0.0
46.96230697631836,-0.4128150939941406,-0.981353759765625,0.8201677642785076,-0.5005937035086442,-0.2770032173926756,0.0272517113158063,3.0,0.0
47.0743408203125,-0.0825471878051757,-0.9854884147644044,0.7948216584586572,-0.314350349399235,-0.5190784035939161,0.0809866930199433,3.0,0.0
47.14983367919922,0.3364734649658203,-0.9849081039428712,0.628611850417356,-0.5810269579602393,-0.5169669386318025,0.06220009055445,3.0,0.0
46.796504974365234,-0.5724334716796875,-0.9690194129943848,0.1953990973484996,0.9796789674640072,-0.0452582971845839,0.0454862207523803,3.0,0.0
45.90810012817383,-0.9011125564575196,-0.8930797576904297,0.8141191280738342,0.5015238936063184,-0.2927180032834632,0.1207892308069603,3.0,0.0
45.99660873413086,-0.7133293151855469,-0.8971748352050781,-0.0,-0.0,-1.0,0.1110126280412815,1.0,0.0
45.50820541381836,-1.3191232681274414,-0.8656582832336426,-0.0,-0.0,-1.0,0.1474618267454174,2.0,0.0
45.5921516418457,-0.9901103973388672,-0.8657169342041016,-0.0,-0.0,-1.0,0.1234237775370791,1.0,0.0
45.5509033203125,0.3701887130737304,-1.1119356155395508,-0.0,-0.0,-1.0,0.1828279144625217,1.0,0.0
46.44319915771485,-1.683319091796875,-0.7506387233734131,-0.0,-0.0,-1.0,0.0747937369971122,1.0,0.0
46.30250549316406,-1.3820133209228516,-0.7322325706481934,-0.0,-0.0,-1.0,0.1151161180076801,2.0,0.0
47.58766174316406,0.2968025207519531,-0.9385390281677246,-0.0,-0.0,-1.0,0.0651425044732589,2.0,0.0
47.10457992553711,-0.5167179107666016,-0.9442801475524902,0.2505720611886027,0.5618098036287592,-0.7884055978354736,0.0308369090392986,5.0,0.0
47.26422119140625,-0.1120376586914062,-0.9358522891998292,0.8019293842253784,0.2838691440141665,-0.525668690139112,0.0634553801709046,3.0,0.0
47.3344841003418,0.0924320220947265,-0.9310500621795654,-0.8080760706203648,-0.587248166047832,0.0463967193259305,0.0582589436005532,3.0,0.0
46.89835739135742,-0.8078823089599609,-0.944598913192749,-0.0,-0.0,-1.0,0.0349386015628399,2.0,0.0
46.942100524902344,-0.6754131317138672,-0.9411337375640868,-0.0,-0.0,-1.0,0.0425306791342406,2.0,0.0
45.82258987426758,-1.1290740966796875,-0.8901491165161133,0.2198592590043157,-0.1363669560408095,-0.9659533940777044,0.1275911422440074,4.0,0.0
45.927825927734375,-0.9296932220458984,-0.88718581199646,0.8141191280738342,0.5015238936063184,-0.2927180032834632,0.1091073675019961,3.0,0.0
45.43986511230469,-1.3105945587158203,-0.8744351863861084,-0.5217404991317741,-0.7907291105165488,-0.3202098145707511,0.1565315785952418,3.0,0.0
45.44195938110352,0.4663887023925781,-0.788496732711792,-0.0,-0.0,-1.0,0.1643307993894409,2.0,0.0
45.39264678955078,-1.0461978912353516,-0.85821533203125,0.6122870644640069,-0.6423126056890268,-0.4610195953134984,0.1432207241850475,4.0,0.0
46.140663146972656,-1.2859573364257812,-0.7271642684936523,-0.2582844418474714,0.9659177478097156,-0.0170895162525742,0.2446778697086802,4.0,0.0
46.07677459716797,-0.7366199493408203,-0.6989433765411377,-0.0,-0.0,-1.0,0.1259905392316818,1.0,0.0
45.859962463378906,-1.8049449920654297,-0.7347474098205566,-0.6271197023446001,0.7367667120721321,-0.2527759698105028,0.0667056485093383,4.0,0.0
46.052772521972656,-1.4853439331054688,-0.7311379909515381,0.0813092853964608,0.8001612380366759,0.5942480906590546,0.1003009862381384,3.0,0.0
45.4678955078125,0.4322967529296875,-0.6124289035797119,-0.2301473532400971,0.8856852878641479,0.4032291738671439,0.1704756772533604,4.0,0.0
47.13235855102539,-0.9759044647216796,-0.8594362735748291,-0.0,-0.0,-1.0,0.0260955321425863,1.0,0.0
47.337554931640625,-0.9173107147216796,-0.864567756652832,-0.0,-0.0,-1.0,0.1564227830121256,1.0,0.0
47.00977325439453,-1.0818462371826172,-0.8613848686218262,-0.0,-0.0,-1.0,0.0225780642332335,1.0,0.0
46.144290924072266,-1.4508895874023438,-0.8492019176483154,0.4757117735297955,0.2979078149987024,-0.8276166034389569,0.1512171601795386,3.0,0.0
46.10903549194336,-1.1643829345703125,-0.8271579742431641,0.5784533484438649,-0.2275341962350415,-0.7833389516791274,0.2313670875360358,5.0,0.0
46.236324310302734,-0.9770660400390624,-0.8194699287414551,-0.0,-0.0,-1.0,0.1388069979979719,2.0,0.0
45.70403671264648,-1.5248527526855469,-0.8352437019348145,-0.0,-0.0,-1.0,0.0744429727391807,1.0,0.0
45.3171272277832,-1.7197723388671875,-0.8325591087341309,-0.0,-0.0,-1.0,0.1483864534306474,1.0,0.0
45.45283889770508,0.5094280242919922,-0.6799752712249756,-0.0,-0.0,-1.0,0.1249606078743282,1.0,0.0
47.26210021972656,-0.5495147705078125,-0.8293731212615967,-0.0,-0.0,-1.0,0.0778680875458701,1.0,0.0
47.45581817626953,-0.1248416900634765,-0.8145847320556641,-0.0,-0.0,-1.0,0.0263934285862421,1.0,0.0
46.911468505859375,-0.8768100738525391,-0.8311553001403809,-0.0,-0.0,-1.0,0.0377769856152633,1.0,0.0
46.05247497558594,-1.0599517822265625,-0.8001611232757568,0.8066102629778092,-0.5070286873840574,0.3038121028340858,0.1768947859271102,4.0,0.0
45.627159118652344,-1.5096549987792969,-0.8067672252655029,0.1918057772438896,0.0573159417098714,-0.979757840816688,0.0702819776043813,3.0,0.0
45.66947937011719,-1.1762676239013672,-0.7886507511138916,-0.0,-0.0,-1.0,0.0526904645684288,1.0,0.0
45.53028869628906,0.4834709167480469,-0.6839206218719482,-0.0,-0.0,-1.0,0.2266504755582485,2.0,0.0
45.34657287597656,-1.4411563873291016,-0.7892682552337646,0.4598502234502581,0.4105290365433751,-0.7874031255637203,0.1228444009458898,3.0,0.0
45.294586181640625,-0.2315387725830078,-0.7141678333282471,-0.6503030284711286,-0.6903753694389629,-0.3169981394792309,0.2347477153424777,4.0,0.0
45.84819412231445,-1.8013992309570312,-0.7556958198547363,-0.6271197023446001,0.7367667120721321,-0.2527759698105028,0.0654945320807117,4.0,0.0
45.99161148071289,-1.5245647430419922,-0.7458288669586182,0.2071051006122672,-0.2952600336560185,-0.9326998390832012,0.1542027199082302,4.0,0.0
46.07682418823242,-1.2191104888916016,-0.7317500114440918,0.0976177089742592,0.2301263420770704,-0.9682523687432136,0.2006455135027705,4.0,0.0
46.066131591796875,-0.8436050415039062,-0.7093260288238525,-0.0,-0.0,-1.0,0.1537621070103517,1.0,0.0
45.53464126586914,-1.764753341674805,-0.7392408847808838,-0.0,-0.0,-1.0,0.0878004728344627,1.0,0.0
46.00103759765625,0.4196548461914062,-1.1119060516357422,-0.0,-0.0,-1.0,0.1283205252865486,1.0,0.0
45.63789367675781,0.3045768737792969,-1.093461990356445,-0.0,-0.0,-1.0,0.1921677588574417,1.0,0.0
47.233306884765625,-0.2651004791259765,-0.9327335357666016,-0.5768376539364779,-0.3349666497415692,-0.7450205799586807,0.0767666349851113,7.0,0.0
47.32903289794922,0.0994987487792968,-0.9365475177764891,-0.8080760706203648,-0.587248166047832,0.0463967193259305,0.0573957211443997,3.0,0.0
47.387935638427734,0.3815765380859375,-0.938391923904419,-0.0,-0.0,-1.0,0.0342965011259352,2.0,0.0
47.00368881225586,-0.6289768218994141,-0.9186365604400636,-0.0,-0.0,-1.0,0.0145872189324778,2.0,0.0
46.08423614501953,-1.2019195556640625,-0.8537499904632568,0.4371504663085493,0.7939114571208755,0.4226157451615188,0.1327063244772136,3.0,0.0
45.49757766723633,-1.5776405334472656,-0.8130733966827393,-0.0,-0.0,-1.0,0.0881590800349669,2.0,0.0
45.736907958984375,-1.45709228515625,-0.8299973011016846,-0.0,-0.0,-1.0,0.0585017692946186,1.0,0.0
46.70585632324219,-0.9484786987304688,-0.9018263816833496,-0.0,-0.0,-1.0,0.0246655029793309,2.0,0.0
47.04169464111328,-0.6627006530761719,-0.9244487285614014,0.6374655719977771,-0.3704414120966525,-0.6755818268140322,0.013315260172936,6.0,0.0
47.20956802368164,-0.24224853515625,-0.9328370094299316,-0.7142112891492578,-0.4586576779936257,-0.5287110447770602,0.0765272998632141,4.0,0.0
47.3013801574707,0.0227928161621093,-0.9372034072875975,-0.2045497887761188,-0.7412522238398086,-0.6393000270328346,0.0700700765938625,3.0,0.0
47.59518051147461,0.3324394226074219,-0.9571235179901124,-0.0,-0.0,-1.0,0.0770331093774415,2.0,0.0
46.00122833251953,-1.4856109619140625,-0.8546442985534668,-0.0,-0.0,-1.0,0.0925344567476402,1.0,0.0
46.512638092041016,-1.0096168518066406,-0.8877050876617432,-0.0,-0.0,-1.0,0.0260004714052844,2.0,0.0
47.23647689819336,0.4072151184082031,-0.9281556606292723,-0.0,-0.0,-1.0,0.0873063066396754,2.0,0.0
45.33925247192383,-1.7928733825683594,-0.8087685108184814,0.5284932978795688,-0.1504926820366419,-0.835491942959234,0.1360204566896332,3.0,0.0
45.721553802490234,-1.6766090393066406,-0.8359878063201904,0.3099263794268403,-0.041674225153573,-0.9498467762187855,0.069591618360563,4.0,0.0
45.608489990234375,-1.3582038879394531,-0.8231701850891113,0.887970237591707,0.347525927109346,-0.3012218238078321,0.1260175937191721,3.0,0.0
45.44914245605469,0.3962345123291015,-0.7890465259552002,-0.0,-0.0,-1.0,0.2416161699884272,2.0,0.0
45.34880828857422,-0.7761268615722656,-0.9759104251861572,-0.0,-0.0,-1.0,0.2168171423973404,1.0,0.0
45.72650909423828,-0.6655006408691406,-0.995002269744873,-0.0,-0.0,-1.0,0.2002662406382702,2.0,0.0
46.14752197265625,0.20391845703125,-0.989842176437378,-0.0,-0.0,-1.0,0.1556564387175479,1.0,0.0
46.428375244140625,0.5237083435058594,-0.9960129261016846,-0.0,-0.0,-1.0,0.1086588478899142,2.0,0.0
45.29365539550781,0.1357192993164062,-1.0444631576538086,-0.0,-0.0,-1.0,0.1371717710757876,1.0,0.0
45.72444152832031,0.4032096862792969,-1.082777976989746,-0.0,-0.0,-1.0,0.0979655375536176,1.0,0.0
46.167240142822266,0.5523872375488281,-1.123563528060913,-0.0,-0.0,-1.0,0.1072656200934201,1.0,0.0
45.529937744140625,-1.2574996948242188,-0.8955755233764648,-0.0,-0.0,-1.0,0.2117523668282313,2.0,0.0
45.63911437988281,-0.9002609252929688,-0.887387752532959,-0.0,-0.0,-1.0,0.0954880737980922,1.0,0.0
46.20444869995117,-0.8563194274902344,-0.91759991645813,-0.0,-0.0,-1.0,0.0866090050776405,1.0,0.0
46.75470352172851,-0.6934127807617188,-0.9424796104431152,-0.0,-0.0,-1.0,0.0295542461588047,1.0,0.0
47.13071060180664,-0.4630088806152344,-0.95499849319458,-0.0,-0.0,-1.0,0.0293760628201703,2.0,0.0
47.26926040649414,-0.2413253784179687,-0.9543509483337402,-0.0,-0.0,-1.0,0.065722968391116,2.0,0.0
45.73783493041992,0.5228614807128906,-0.8366844654083252,-0.0,-0.0,-1.0,0.2460125071442785,1.0,0.0
47.38850402832031,0.114013671875,-0.947514533996582,-0.0,-0.0,-1.0,0.0390517904601471,1.0,0.0
47.49528121948242,0.2470245361328125,-0.94858980178833,-0.0,-0.0,-1.0,0.0395924115070312,2.0,0.0
47.48966598510742,0.4945144653320312,-0.9387927055358888,0.486201081045254,0.0329191947959749,-0.8732266804240527,0.0298131898638369,3.0,0.0
45.24251937866211,-1.2942047119140625,-0.9370279312133788,-0.0128612804554411,0.0858602779862524,-0.9962241716246252,0.0925652083425324,3.0,0.0
45.44706726074219,-0.9270973205566406,-0.9383037090301514,-0.0,-0.0,-1.0,0.2513846808124712,2.0,0.0
45.336544036865234,-1.0462646484375,-0.9348931312561036,-0.0,-0.0,-1.0,0.1723239493027946,1.0,0.0
45.79613494873047,-0.8066368103027344,-0.957860231399536,-0.0,-0.0,-1.0,0.083627950567141,1.0,0.0
46.30330657958984,-0.8633384704589844,-0.9942176342010498,-0.0,-0.0,-1.0,0.0753157558836448,2.0,0.0
46.56065368652344,-0.8867111206054688,-1.0125298500061035,-0.0,-0.0,-1.0,0.0326446816058058,1.0,0.0
46.766578674316406,-0.7362556457519531,-1.0216078758239746,-0.0,-0.0,-1.0,0.0574549801993567,2.0,0.0
46.93946075439453,-0.3360061645507812,-1.0202994346618652,-0.0,-0.0,-1.0,0.0370483665497272,2.0,0.0
46.999141693115234,0.6257667541503906,-0.9932198524475098,0.9434730933115648,-0.2069837864501935,-0.2588749395825079,0.0608658140510619,3.0,0.0
47.0343132019043,0.1403999328613281,-1.0113110542297363,-0.0,-0.0,-1.0,0.0597293347775182,1.0,0.0
45.31412124633789,-1.8441486358642576,-0.7698624134063721,0.6449735312089921,-0.7579828234009381,0.0973200054919093,0.1224248106542321,3.0,0.0
45.521026611328125,-1.7565956115722656,-0.7882308959960938,-0.0,-0.0,-1.0,0.059492783163004,1.0,0.0
45.62371063232422,0.4091911315917969,-0.7709977626800537,-0.6383719784070297,0.4350559171763636,-0.6349862723827404,0.2049635597085624,4.0,0.0
45.82958984375,-1.370014190673828,-0.8124074935913086,-0.0,-0.0,-1.0,0.0905587176673015,1.0,0.0
45.814910888671875,-1.5505695343017578,-0.8133466243743896,-0.0,-0.0,-1.0,0.0826965447094647,2.0,0.0
46.174034118652344,-0.9375648498535156,-0.8397712707519531,-0.0,-0.0,-1.0,0.1505221188003791,1.0,0.0
46.049346923828125,-1.1947765350341797,-0.8310794830322266,0.4371504663085493,0.7939114571208755,0.4226157451615188,0.1531960549324034,3.0,0.0
46.16963195800781,-1.4829235076904297,-0.8461668491363525,-0.0,-0.0,-1.0,0.1967956476406055,2.0,0.0
46.37254333496094,-0.9246749877929688,-0.8585751056671143,-0.0,-0.0,-1.0,0.0738537615115529,1.0,0.0
46.64597702026367,-0.964365005493164,-0.8852047920227051,-0.3576996432738846,-0.2152707644642566,-0.9086855689228868,0.0295693374973391,4.0,0.0
46.879127502441406,-0.8906631469726562,-0.9066641330718994,-0.0,-0.0,-1.0,0.0334996124167862,1.0,0.0
47.27457809448242,-0.1419448852539062,-0.9362027645111084,0.8523179846399926,-0.2268430842090001,-0.4712709074468416,0.0591145189214191,4.0,0.0
47.18914031982422,-0.5165481567382812,-0.932136297225952,-0.305604624633191,0.0959577443975371,-0.9473108912563728,0.0402441822432636,3.0,0.0
47.464385986328125,0.3236217498779297,-0.9496009349822998,-0.0,-0.0,-1.0,0.0378182137587005,1.0,0.0
47.37500762939453,0.0406112670898437,-0.9439280033111572,-0.0,-0.0,-1.0,0.0398269833301459,2.0,0.0
45.259185791015625,-1.613420486450195,-0.8422667980194092,0.3867982922580497,-0.8370622906613143,-0.3869286790341206,0.1494267638876772,6.0,0.0
45.52899169921875,-1.0409278869628906,-0.8645474910736084,-0.0,-0.0,-1.0,0.0934447389307936,2.0,0.0
45.5322380065918,-1.4081401824951172,-0.8682527542114258,-0.0,-0.0,-1.0,0.160987120123436,2.0,0.0
45.963016510009766,-0.6205062866210938,-0.9055788516998292,-0.0,-0.0,-1.0,0.059621140296454,2.0,0.0
45.9259033203125,-0.9366569519042968,-0.9044642448425292,0.8141191280738342,0.5015238936063184,-0.2927180032834632,0.1190360592340092,3.0,0.0
46.21638488769531,-0.5632476806640625,-0.931290864944458,0.1660580369164593,0.906740169178934,0.3876170713124101,0.0491441661845102,3.0,0.0
46.87835311889648,-0.5008678436279297,-0.9993908405303956,-0.0,-0.0,-1.0,0.0451806348892018,1.0,0.0
46.793453216552734,-0.6893692016601562,-0.9920556545257568,-0.0,-0.0,-1.0,0.0644984537676515,1.0,0.0
46.87480163574219,0.5238971710205078,-0.9915847778320312,-0.0,-0.0,-1.0,0.0566779478091662,2.0,0.0
47.09669494628906,0.1015548706054687,-1.0176823139190674,-0.0,-0.0,-1.0,0.0551983754409022,2.0,0.0
46.99889373779297,-0.2446155548095703,-1.0099947452545166,0.8295072438377097,-0.5562976379431592,0.0495042466827672,0.0555431320198087,3.0,0.0
45.21451568603515,-0.3463001251220703,-0.8260395526885986,-0.0,-0.0,-1.0,0.0976964510274025,1.0,0.0
45.327728271484375,0.0269374847412109,-1.087993860244751,-0.0,-0.0,-1.0,0.1377802757820682,2.0,0.0
45.562400817871094,0.1590480804443359,-1.109527349472046,-0.1315501088548857,-0.1146263964731181,-0.9846600215769176,0.1491381321520955,3.0,0.0
45.96305084228515,0.3266277313232422,-1.1478374004364014,-0.0,-0.0,-1.0,0.1495943286089226,2.0,0.0
46.222938537597656,0.4462127685546875,-1.1725375652313232,-0.0,-0.0,-1.0,0.045916348312807,1.0,0.0
45.41222381591797,-0.0397815704345703,-1.148590326309204,-0.0,-0.0,-1.0,0.1163751403520649,1.0,0.0
45.23403549194336,-0.1408538818359375,-1.124565362930298,-0.0,-0.0,-1.0,0.1060320845044412,1.0,0.0
45.617401123046875,0.5313968658447266,-1.179764986038208,-0.0,-0.0,-1.0,0.0934366318621645,1.0,0.0
45.679710388183594,0.2081928253173828,-1.1854703426361084,0.8373956740080625,0.1433905527230434,-0.5274539169845676,0.1341542837148044,3.0,0.0
45.625091552734375,-0.3317470550537109,-0.7236630916595459,-0.0,-0.0,-1.0,0.1267233701091676,1.0,0.0
45.89633560180664,-1.6451358795166016,-0.7422845363616943,-0.0,-0.0,-1.0,0.079279598631795,2.0,0.0
46.94479751586914,-1.400861740112305,-0.8664870262145996,-0.0,-0.0,-1.0,0.0312001774998797,1.0,0.0
47.39288711547851,0.2427959442138672,-0.9374852180480956,-0.0,-0.0,-1.0,0.0404628870641198,2.0,0.0
47.37044143676758,-0.0360622406005859,-0.9314632415771484,0.5841006299641273,-0.6397950080235759,-0.4994885401924872,0.0428425697566073,3.0,0.0
45.24542236328125,0.5531997680664062,-1.147965431213379,-0.0,-0.0,-1.0,0.107078090616778,1.0,0.0
45.53153991699219,0.6281948089599609,-1.1853511333465576,-0.0,-0.0,-1.0,0.0830382918133987,1.0,0.0
45.96593475341797,-1.652669906616211,-0.7832872867584229,-0.0,-0.0,-1.0,0.0809257628051826,1.0,0.0
46.29621124267578,-1.5221271514892578,-0.8315260410308838,-0.0,-0.0,-1.0,0.1236061320615372,1.0,0.0
46.63801193237305,-0.9347743988037108,-0.8926596641540527,-0.0,-0.0,-1.0,0.02939411967487,2.0,0.0
46.82464599609375,-0.8607769012451172,-0.9203619956970216,-0.0,-0.0,-1.0,0.0360870960423949,2.0,0.0
47.11068344116211,-0.3737850189208984,-0.9726343154907228,-0.0,-0.0,-1.0,0.0428860718987503,2.0,0.0
47.17310333251953,-0.0222434997558593,-0.9907455444335938,-0.0,-0.0,-1.0,0.087152757417694,2.0,0.0
45.89299011230469,-1.5089969635009766,-0.7764959335327148,0.8174261467026417,0.571242686677852,0.0741369516768801,0.1271131198789252,3.0,0.0
45.378570556640625,-0.7423305511474609,-0.7234361171722412,0.6741062236287743,-0.1199746979288724,-0.7288256795159106,0.1136133219298846,3.0,0.0
45.304779052734375,-0.3429183959960937,-0.7227339744567871,-0.0,-0.0,-1.0,0.1720924270720487,1.0,0.0
46.14043426513672,-1.006025314331055,-0.8221731185913086,0.1057570889696755,0.390317610665354,-0.9145860270839202,0.1073940473902456,3.0,0.0
46.019813537597656,-0.1312103271484375,-0.8269679546356201,-0.0,-0.0,-1.0,0.1523100986657993,2.0,0.0
45.56150817871094,0.42572021484375,-0.7774615287780762,0.4676126812200643,-0.0691149012796184,-0.8812272753287264,0.2106003062945802,5.0,0.0
47.11028289794922,0.4746761322021484,-0.9955787658691406,-0.0,-0.0,-1.0,0.0748816466590136,1.0,0.0
45.41998291015625,-0.5297451019287109,-1.029071807861328,-0.0,-0.0,-1.0,0.182194684081876,2.0,0.0
45.64188003540039,-0.3681659698486328,-1.0621628761291504,-0.0,-0.0,-1.0,0.1497054054635848,1.0,0.0
45.636695861816406,0.1376552581787109,-1.0660364627838137,0.0519402676785202,0.9958201608443734,-0.0751293274918018,0.1491324510877953,4.0,0.0
45.92431640625,0.2619342803955078,-1.1089744567871094,-0.0,-0.0,-1.0,0.1392768020114964,1.0,0.0
46.124794006347656,0.3786792755126953,-1.139449119567871,-0.0,-0.0,-1.0,0.1051876472997207,2.0,0.0
46.05443572998047,-1.6950340270996094,-0.7210180759429932,-0.0,-0.0,-1.0,0.077642516861607,2.0,0.0
46.08245849609375,-1.3906974792480469,-0.7237503528594971,-0.0,-0.0,-1.0,0.2013277635002159,2.0,0.0
46.266746520996094,-1.1477165222167969,-0.7467689514160156,-0.0,-0.0,-1.0,0.2336087482812656,1.0,0.0
46.886962890625,-1.2630538940429688,-0.8260974884033203,-0.0,-0.0,-1.0,0.0196452718171987,1.0,0.0
46.96562194824219,-1.1218318939208984,-0.8361828327178955,-0.0,-0.0,-1.0,0.023590534218027,2.0,0.0
47.07845306396485,-1.004741668701172,-0.8507659435272217,-0.0,-0.0,-1.0,0.0247612148475721,1.0,0.0
47.47420120239258,-0.8342247009277344,-0.9021499156951904,-0.0,-0.0,-1.0,0.0688547295198229,1.0,0.0
47.29920196533203,-0.4555168151855469,-0.8803074359893799,0.5216968087925448,0.1695314836954869,-0.8361169270692239,0.0749566109098401,4.0,0.0
47.38043594360352,-0.195810317993164,-0.8917500972747803,-0.0,-0.0,-1.0,0.0471328875793873,2.0,0.0
47.429256439208984,0.216470718383789,-0.8998773097991943,-0.0,-0.0,-1.0,0.0419762398025359,1.0,0.0
45.20990753173828,-0.3682212829589844,-0.6112174987792969,-0.0,-0.0,-1.0,0.0752256623836253,2.0,0.0
45.49114227294922,0.352029800415039,-0.6474361419677734,-0.0449014147126477,0.880513057112747,0.4718904737444562,0.2729213494718872,7.0,0.0
45.34204864501953,-1.0697994232177734,-0.8875422477722168,0.441164065608101,0.8825288544153963,0.1628406839225979,0.2557954778918173,3.0,0.0
45.38716506958008,-0.8489418029785156,-0.8892590999603271,-0.0,-0.0,-1.0,0.2045425082194932,1.0,0.0
45.485958099365234,-0.7364425659179688,-0.9001233577728271,-0.0,-0.0,-1.0,0.2145661848849341,2.0,0.0
45.94320297241211,-0.5880374908447266,-0.957604169845581,-0.0732504306893786,0.8177866046794224,-0.5708409967852016,0.0814634832885766,4.0,0.0
45.21099090576172,-0.214019775390625,-0.8549418449401855,-0.4797366932035504,-0.5257354099392855,-0.702463510746355,0.1154259602164708,3.0,0.0
46.100887298583984,-0.4542598724365234,-0.976262092590332,-0.0,-0.0,-1.0,0.0763311565191911,1.0,0.0
46.519622802734375,-0.384683609008789,-1.0308101177215576,-0.0,-0.0,-1.0,0.0342839470511073,2.0,0.0
45.46520233154297,0.3207683563232422,-0.8799822330474854,-0.2799392240261376,0.4568683157426731,-0.8443372388578495,0.2180813427272304,3.0,0.0
45.989723205566406,0.3117198944091797,-0.9500575065612792,-0.8130839266583351,-0.0870513641664227,0.575601066891495,0.1785573719174796,3.0,0.0
46.55445861816406,0.2089691162109375,-1.0271427631378174,-0.0,-0.0,-1.0,0.0325810404588288,1.0,0.0
46.65281677246094,-0.0363292694091796,-1.043602466583252,0.8835889831398644,-0.380002078780466,0.273621872291643,0.0928348670652174,5.0,0.0
45.519020080566406,0.3960494995117187,-0.8860287666320801,0.62067399548128,-0.6944653091134609,-0.3639803920148017,0.2053134199484439,6.0,0.0
46.533409118652344,0.5259170532226562,-1.0203132629394531,0.6429470967460315,-0.6248176184914886,0.44296949602481,0.1553716138700174,3.0,0.0
45.32904815673828,-1.5232620239257812,-0.8443374633789062,-0.0,-0.0,-1.0,0.1062586070850103,1.0,0.0
45.474266052246094,-1.1176185607910156,-0.856412410736084,0.7777815331209879,-0.3117467797220283,-0.5457745249358112,0.1109851310051447,3.0,0.0
45.78895568847656,-1.120256423950195,-0.8988292217254639,0.2198592590043157,-0.1363669560408095,-0.9659533940777044,0.1130560675249301,4.0,0.0
45.25742721557617,-0.5632972717285156,-0.8178083896636963,-0.0,-0.0,-1.0,0.0933824939971958,2.0,0.0
45.98124313354492,-0.5895862579345703,-0.9165449142456056,0.0722629841332959,-0.2861943673079916,-0.9554427482823497,0.0698939736961751,4.0,0.0
46.139617919921875,-0.5267543792724609,-0.937258243560791,0.3921380736221378,0.919036946655547,-0.0399852710128097,0.0568056655535122,4.0,0.0
46.50738525390625,-0.6235980987548828,-0.989022731781006,-0.0,-0.0,-1.0,0.0170754744580671,1.0,0.0
46.65458679199219,-0.361551284790039,-1.0057826042175293,-0.0,-0.0,-1.0,0.0288065641568607,1.0,0.0
46.76862335205078,0.0399932861328125,-1.016700267791748,-0.0,-0.0,-1.0,0.0438499095553122,1.0,0.0
45.48316955566406,0.3412113189697265,-0.8351535797119141,0.9412969138490112,0.0042482772095196,-0.3375530656342472,0.1785037867352077,3.0,0.0
46.12129211425781,0.3339672088623047,-0.9233863353729248,-0.0,-0.0,-1.0,0.1946967787685763,2.0,0.0
46.63324737548828,0.4404983520507812,-0.993431568145752,-0.0,-0.0,-1.0,0.0721741917893858,1.0,0.0
46.728702545166016,-1.5235595703125,-0.7398645877838135,-0.0,-0.0,-1.0,0.0137751798621113,1.0,0.0
47.56683349609375,-1.766559600830078,-0.8529908657073975,-0.0,-0.0,-1.0,0.021544325426125,2.0,0.0
46.2475700378418,-1.3064498901367188,-0.67388916015625,-0.0,-0.0,-1.0,0.1446230659783671,1.0,0.0
47.31573867797851,-1.3709373474121094,-0.8143565654754639,-0.0,-0.0,-1.0,0.0207760627118113,2.0,0.0
47.37091064453125,-0.930490493774414,-0.8157274723052979,-0.0,-0.0,-1.0,0.1981146889697965,2.0,0.0
47.53947067260742,-0.3474941253662109,-0.831230878829956,0.7590325396206409,-0.6505101905942083,-0.0265724618755391,0.0712754021820353,3.0,0.0
46.01905822753906,-0.1430091857910156,-0.6266093254089355,0.6742717355456078,0.7158943660966617,-0.1812536433713066,0.1424183778184261,5.0,0.0
47.62859344482422,-0.0587444305419921,-0.8402035236358643,-0.6569769272233535,0.451238117107719,-0.6039581763377668,0.038718054341092,3.0,0.0
46.81056594848633,-1.672952651977539,-0.7326838970184326,-0.0,-0.0,-1.0,0.0322633074895589,2.0,0.0
47.4568977355957,-1.2090339660644531,-0.8115041255950928,-0.0,-0.0,-1.0,0.0329687376278861,2.0,0.0
46.00470733642578,-0.1154155731201171,-0.5980532169342041,0.7928162265622164,0.4504470057107883,-0.410536144505978,0.1685164649712805,6.0,0.0
45.51527404785156,0.3286705017089844,-1.1781487464904783,-0.0,-0.0,-1.0,0.1068406255113909,1.0,0.0
46.20399475097656,-1.7297096252441406,-0.7799878120422363,-0.0,-0.0,-1.0,0.1119551472112646,1.0,0.0
46.681739807128906,-1.2134075164794922,-0.8271732330322266,-0.0,-0.0,-1.0,0.0127940782106589,1.0,0.0
46.858646392822266,-1.0770835876464844,-0.8472979068756104,-0.4862769856367099,0.6640213048041633,-0.5679880280483487,0.0215437948973407,3.0,0.0
47.09048843383789,-0.8696975708007812,-0.873206615447998,-0.7592347207338833,-0.0576893654224494,-0.6482550238519539,0.0318602386242588,3.0,0.0
47.34599685668945,-0.8691902160644531,-0.909681797027588,-0.0,-0.0,-1.0,0.117267820017077,2.0,0.0
47.27433013916016,-0.5109767913818359,-0.8880317211151123,-0.0,-0.0,-1.0,0.0913261596297519,2.0,0.0
47.38639068603515,-0.7853317260742188,-0.9127919673919678,-0.0,-0.0,-1.0,0.0798346865265789,2.0,0.0
45.923583984375,-1.6943302154541016,-0.7402820587158203,0.7011533651530045,0.6399879481725977,-0.314323694188724,0.0454521666892165,3.0,0.0
46.108943939208984,-1.3892536163330078,-0.7539262771606445,-0.5994697407946681,0.7018247565867619,-0.3848090967135603,0.2413761846619149,6.0,0.0
46.20236587524414,-1.052326202392578,-0.7543830871582031,-0.0,-0.0,-1.0,0.2679553213722384,2.0,0.0
45.27384948730469,-0.313608169555664,-0.5982222557067871,-0.0,-0.0,-1.0,0.2196113407694538,2.0,0.0
46.071903228759766,-0.1557750701904297,-0.7045571804046631,-0.0,-0.0,-1.0,0.1871146329088601,2.0,0.0
47.30899429321289,-0.3058204650878906,-0.8867249488830566,-0.0,-0.0,-1.0,0.0617524669487958,2.0,0.0
47.41587448120117,-0.1078224182128906,-0.8963594436645508,-0.0,-0.0,-1.0,0.0348996881518839,2.0,0.0
47.58574676513672,0.1314620971679687,-0.9143991470336914,-0.0,-0.0,-1.0,0.0846495851591833,1.0,0.0
47.57016372680664,0.6177167892456055,-0.8989300727844238,0.5978873386892287,0.5267776157476254,-0.604182152816813,0.0834366139973505,3.0,0.0
46.24264907836914,-1.5254268646240234,-0.6738685369491577,-0.0,-0.0,-1.0,0.1526662708737709,2.0,0.0
46.799800872802734,-1.593280792236328,-0.7348452806472778,-0.0,-0.0,-1.0,0.0306951947201551,2.0,0.0
46.888427734375,-1.5640735626220703,-0.7434870004653931,0.8554291706694307,-0.5146959780744703,-0.0576973493479078,0.0420042684671533,4.0,0.0
46.28045272827149,-1.3778228759765625,-0.6735726594924927,-0.0,-0.0,-1.0,0.0834391924119677,2.0,0.0
47.53160858154297,-1.0232677459716797,-0.7988888025283813,0.2039623173853336,-0.9632962248130812,-0.1745272366929311,0.1290748478561941,4.0,0.0
45.271827697753906,0.3378734588623047,-1.170612096786499,-0.0,-0.0,-1.0,0.0910083638088931,2.0,0.0
45.5703125,0.4690818786621094,-1.2032601833343506,-0.0,-0.0,-1.0,0.1165266567767608,2.0,0.0
45.21905517578125,-1.2208099365234375,-0.8868818283081055,-0.0,-0.0,-1.0,0.1103084813973843,1.0,0.0
45.34415817260742,-0.9806156158447266,-0.895209550857544,-0.0,-0.0,-1.0,0.1445902492121588,1.0,0.0
45.66694641113281,-0.7489070892333984,-0.9286119937896729,-0.0,-0.0,-1.0,0.1283525591856502,1.0,0.0
45.94696044921875,-0.680206298828125,-0.9614481925964355,-0.0,-0.0,-1.0,0.078586151131231,1.0,0.0
45.99678421020508,-0.4997406005859375,-0.9631202220916748,-0.0,-0.0,-1.0,0.0889362842376676,1.0,0.0
46.42802047729492,-0.3337059020996094,-1.013484001159668,-0.0,-0.0,-1.0,0.0283524586659985,1.0,0.0
46.64381408691406,-0.1711883544921875,-1.0372803211212158,-0.0,-0.0,-1.0,0.0283263372036398,1.0,0.0
46.70891571044922,-0.1257343292236328,-1.0446181297302246,0.211299203833388,0.3195722508867756,-0.9237024536735498,0.0325313432537933,3.0,0.0
45.468475341796875,0.3296241760253906,-0.8762755393981934,-0.054190111944241,0.8815180949944964,-0.4690301482471511,0.2104442456345578,5.0,0.0
45.61794662475586,0.3363571166992187,-0.8949694633483887,-0.0,-0.0,-1.0,0.2008842135680613,1.0,0.0
45.99479293823242,0.3079471588134765,-0.9434666633605956,-0.8130839266583351,-0.0870513641664227,0.575601066891495,0.1629108508782843,3.0,0.0
46.526485443115234,0.4049758911132812,-1.009610652923584,-0.0,-0.0,-1.0,0.0487662343120918,2.0,0.0
47.31673812866211,-0.8711109161376953,-0.9173426628112792,-0.0,-0.0,-1.0,0.0914480634549185,2.0,0.0
47.389305114746094,-0.8334026336669922,-0.9249429702758788,0.9338225006483518,0.1398458843400244,-0.3292698982840902,0.05685456833983,3.0,0.0
45.79719924926758,-1.7526569366455078,-0.7690858840942383,-0.0,-0.0,-1.0,0.0681955587243817,2.0,0.0
46.13484191894531,-1.6772346496582031,-0.8043181896209717,-0.0,-0.0,-1.0,0.1784307253716195,1.0,0.0
45.988983154296875,-1.1485557556152344,-0.7717654705047607,-0.0,-0.0,-1.0,0.2344577821008621,2.0,0.0
46.31953048706055,-1.0868663787841797,-0.8074796199798584,-0.0,-0.0,-1.0,0.116722637989993,1.0,0.0
47.043514251708984,-0.8527946472167969,-0.8847382068634033,-0.0,-0.0,-1.0,0.035524708733236,2.0,0.0
47.25887298583984,-0.3305187225341797,-0.8967139720916748,-0.9680020600463884,0.080703208281505,0.2376110349268746,0.0794068858716457,4.0,0.0
46.07516860961914,-0.06353759765625,-0.7502405643463135,-0.0,-0.0,-1.0,0.1532303427177126,1.0,0.0
47.33208465576172,-0.0105857849121093,-0.897707462310791,0.0059044690511446,-0.8465273489604447,-0.5323124878370086,0.0430986351861381,4.0,0.0
47.49342346191406,-0.0135669708251953,-0.9172513484954834,-0.0,-0.0,-1.0,0.0334481623062521,1.0,0.0
45.43343353271485,0.3606319427490234,-0.6640872955322266,-0.1024440879706712,0.9947381176668254,-0.0011340637187955,0.2266128080006054,7.0,0.0
47.59204864501953,0.3913030624389648,-0.9199783802032472,0.0733650685088369,-0.8644572652802233,0.4973240424782739,0.077653035616451,3.0,0.0
45.34919738769531,-1.5914936065673828,-0.7912466526031494,-0.0,-0.0,-1.0,0.198345068613289,2.0,0.0
45.547950744628906,-1.6846275329589844,-0.8182446956634521,-0.0,-0.0,-1.0,0.0756485348737998,2.0,0.0
45.48105239868164,-1.2456932067871094,-0.7929706573486328,0.2449041261030692,0.6884921392790037,-0.6826423244779896,0.1750501227463974,4.0,0.0
46.00381088256836,-1.0888900756835938,-0.8493483066558838,0.2194787834017722,0.8123970714692245,-0.5402222338118875,0.1466080137812049,3.0,0.0
46.03147506713867,-0.8101387023925781,-0.8423213958740234,0.6908004908547062,-0.3718488208502719,-0.6200992954899719,0.1008177739589431,3.0,0.0
46.46099090576172,-0.9383316040039062,-0.8994455337524414,-0.0,-0.0,-1.0,0.0354649619037727,1.0,0.0
46.78020477294922,-0.7943172454833984,-0.9337606430053712,-0.0,-0.0,-1.0,0.0397935779705133,2.0,0.0
46.94757461547851,-0.4617290496826172,-0.9432954788208008,-0.0,-0.0,-1.0,0.0249129265707001,1.0,0.0
45.27222442626953,-0.2017288208007812,-0.7277519702911377,0.8143085579185596,0.4365190465009275,-0.3825607070028455,0.1976450882591515,3.0,0.0
46.06095886230469,-0.1686077117919922,-0.822648286819458,-0.0,-0.0,-1.0,0.1630658611739322,1.0,0.0
47.1059455871582,-0.0646400451660156,-0.9502408504486084,0.2154307561834972,0.8410609933820906,-0.4961914899525558,0.0938684852070512,4.0,0.0
45.48110580444336,0.3558616638183594,-0.7325165271759033,0.1539951538324724,-0.3679189567949392,-0.9170175210032996,0.1196738743520075,6.0,0.0
47.129051208496094,0.4179649353027344,-0.9378840923309326,-0.0,-0.0,-1.0,0.0704092646630261,1.0,0.0
45.49020004272461,0.1434097290039062,-1.1499433517456057,-0.5042528942181406,0.1616125707692904,-0.848298529788877,0.1673984626240214,3.0,0.0
45.687652587890625,0.2185268402099609,-1.1700518131256104,0.046407768743919,0.9356397087591768,-0.3498923468629368,0.1442706023781148,4.0,0.0
45.76972579956055,0.2796573638916015,-1.176565170288086,-0.0,-0.0,-1.0,0.1810679563319986,1.0,0.0
46.084510803222656,-0.0359210968017578,-0.5253063440322876,-0.1616971856358826,0.2520441219196823,-0.954110989750758,0.1261204175412531,3.0,0.0
45.48726272583008,0.0655097961425781,-1.11322820186615,0.8162755091519248,0.4812331342585715,-0.3195449321307372,0.1306081532962104,3.0,0.0
45.75410079956055,0.1340675354003906,-1.1433573961257937,0.5876331384199678,0.1916366491873558,-0.786106029310895,0.1276698276411388,4.0,0.0
45.8262825012207,0.2029151916503906,-1.1482075452804563,-0.697844332288019,0.2350041566813359,-0.6765990941731912,0.1330510193616664,4.0,0.0
45.24468994140625,-0.5566616058349609,-0.4365469217300415,-0.0,-0.0,-1.0,0.2083244499352242,1.0,0.0
47.11247253417969,-1.5002517700195312,-0.8181672096252441,-0.0,-0.0,-1.0,0.0318680390431773,1.0,0.0
47.38720703125,-1.5911102294921875,-0.8502407073974609,-0.0,-0.0,-1.0,0.0245638401527839,2.0,0.0
46.856685638427734,-1.3884410858154297,-0.786719799041748,-0.0,-0.0,-1.0,0.0283800778790408,2.0,0.0
47.29878234863281,-1.164873123168945,-0.8145196437835693,-0.0,-0.0,-1.0,0.0435397554952329,2.0,0.0
47.531436920166016,-1.0030498504638672,-0.8271369934082031,-0.0,-0.0,-1.0,0.1810078002410798,2.0,0.0
45.419559478759766,0.3877058029174804,-1.179572582244873,0.3731849283046662,0.5712050109844905,-0.7310662382523551,0.0809799010958619,3.0,0.0
45.735965728759766,-1.828168869018555,-0.7159550189971924,-0.0,-0.0,-1.0,0.086781630618483,1.0,0.0
46.018463134765625,-1.534893035888672,-0.7202229499816895,0.5273260373566697,-0.3970382082465346,-0.7511909953654227,0.1205481067137397,6.0,0.0
46.12146759033203,-1.5064830780029297,-0.7274045944213867,-0.0,-0.0,-1.0,0.2050033332997492,1.0,0.0
46.0750732421875,-1.0470333099365234,-0.6921186447143555,0.5961631547853069,-0.4958250657265344,-0.6314641692714704,0.2421837107713627,3.0,0.0
46.28058624267578,-1.2126922607421875,-0.7219297885894775,-0.0,-0.0,-1.0,0.1394450845061144,2.0,0.0
46.66861343383789,-1.3411312103271484,-0.7660796642303467,-0.0,-0.0,-1.0,0.0237012515286772,1.0,0.0
47.387454986572266,-0.9710254669189452,-0.8109352588653564,-0.6754159248047167,-0.3522636926229561,-0.6478608024721272,0.1582231420074557,3.0,0.0
47.417362213134766,-0.5573329925537109,-0.7881288528442383,-0.0,-0.0,-1.0,0.1156730905233102,2.0,0.0
45.9841423034668,-0.1204605102539062,-0.6219645738601685,0.4687035334982689,0.6315489687260645,-0.6176268272891661,0.1613507115034632,6.0,0.0
45.407257080078125,0.2128772735595703,-1.1247007846832275,-0.0,-0.0,-1.0,0.1528787484204897,1.0,0.0
45.29075622558594,0.2925338745117187,-1.1052255630493164,-0.0,-0.0,-1.0,0.0776974236685233,1.0,0.0
