x,y,z,nx,ny,nz,curvature,density,label
46.12681198120117,17.477046966552734,-2.2578930854797363,-0.0,-0.0,-1.0,0.0169305084238477,1.0,0.0
45.95442962646485,15.798261642456056,-2.11476993560791,-0.0,-0.0,-1.0,0.0447779963394193,1.0,0.0
45.992767333984375,16.229961395263672,-2.148009777069092,-0.0,-0.0,-1.0,0.0353459172911366,2.0,0.0
46.01386642456055,17.24648666381836,-2.2185397148132324,-0.0,-0.0,-1.0,0.010255490316359,1.0,0.0
45.94739532470703,17.44325828552246,-2.221607208251953,-0.0,-0.0,-1.0,0.0168684150046279,2.0,0.0
45.82474899291992,17.822669982910156,-2.2289681434631348,-0.0,-0.0,-1.0,0.0968634377082854,1.0,0.0
46.53473663330078,16.374013900756836,-2.1294467449188232,-0.0,-0.0,-1.0,0.0747362338396836,2.0,0.0
46.143028259277344,17.21465492248535,-2.1325838565826416,-0.0,-0.0,-1.0,0.0116573366840796,1.0,0.0
46.35826873779297,15.806610107421877,-2.01391077041626,-0.0,-0.0,-1.0,0.0538785858457752,2.0,0.0
46.508888244628906,16.11885643005371,-2.0360498428344727,-0.9829550998305762,0.1333067694040217,0.1266040163190915,0.0702407462072103,3.0,0.0
46.46784973144531,15.665895462036133,-1.9880506992340088,-0.0,-0.0,-1.0,0.1004572811343546,1.0,0.0
46.11305618286133,17.42882537841797,-2.2371416091918945,-0.0,-0.0,-1.0,0.0151939515430231,1.0,0.0
46.268104553222656,16.758689880371094,-2.2052624225616455,-0.0,-0.0,-1.0,0.0141663840796463,1.0,0.0
46.34365463256836,17.178482055664062,-2.211257219314575,-0.0,-0.0,-1.0,0.0107630942363952,2.0,0.0
46.43486022949219,17.58405113220215,-2.219604253768921,-0.0,-0.0,-1.0,0.0281498676897404,2.0,0.0
46.3409309387207,17.83795166015625,-2.2068560123443604,-0.0,-0.0,-1.0,0.0693810278956391,1.0,0.0
46.40275573730469,18.11091423034668,-2.2128655910491943,-0.0,-0.0,-1.0,0.0657147564222278,2.0,0.0
45.9069709777832,17.458759307861328,-2.2159945964813232,-0.0,-0.0,-1.0,0.0151020022075514,2.0,0.0
45.8522834777832,17.777042388916016,-2.2093617916107178,-0.0,-0.0,-1.0,0.043463045071662,1.0,0.0
45.795536041259766,18.087100982666016,-2.202651262283325,-0.0,-0.0,-1.0,0.2605146352274759,1.0,0.0
47.660888671875,16.313718795776367,-2.0645534992218018,-0.0,-0.0,-1.0,0.0092669972519653,1.0,0.0
45.34872055053711,17.7613525390625,-2.0719432830810547,-0.0,-0.0,-1.0,0.0470818007455069,1.0,0.0
45.42620086669922,18.09250259399414,-2.0650267601013184,-0.0,-0.0,-1.0,0.1067081952160509,1.0,0.0
45.44639205932617,16.47705841064453,-2.220202922821045,-0.0,-0.0,-1.0,0.0056997325975875,2.0,0.0
45.793601989746094,17.0186767578125,-2.2469544410705566,-0.0,-0.0,-1.0,0.0131208621501267,1.0,0.0
45.72978210449219,16.836532592773438,-2.2444515228271484,-0.0,-0.0,-1.0,0.0130778899698308,2.0,0.0
45.89767837524414,17.32263946533203,-2.2511000633239746,-0.0,-0.0,-1.0,0.0133679355009375,1.0,0.0
45.836578369140625,17.90526580810547,-2.226851463317871,-0.0,-0.0,-1.0,0.2007548558559309,2.0,0.0
45.93501663208008,17.579299926757812,-2.2484326362609863,-0.0,-0.0,-1.0,0.0165552580767475,1.0,0.0
46.0141487121582,18.108184814453125,-2.243912696838379,-0.0,-0.0,-1.0,0.0940189449908395,1.0,0.0
45.31216049194336,18.12818145751953,-2.2908122539520264,-0.0,-0.0,-1.0,0.0612607110723423,1.0,0.0
45.40480041503906,18.046459197998047,-2.311323881149292,-0.0,-0.0,-1.0,0.0591345025478554,1.0,0.0
45.54511260986328,17.944721221923828,-2.243983745574951,-0.0,-0.0,-1.0,0.0566398125336991,2.0,0.0
45.32700729370117,16.443294525146484,-2.2143642902374268,-0.0,-0.0,-1.0,0.0067850974444522,1.0,0.0
45.5709114074707,16.745071411132812,-2.2447054386138916,-0.0,-0.0,-1.0,0.010317168693216,1.0,0.0
45.41976547241211,16.528423309326172,-2.2264297008514404,-0.0,-0.0,-1.0,0.0056997325975876,1.0,0.0
45.82051467895508,18.050682067871097,-2.2595055103302,-0.0,-0.0,-1.0,0.2113893167247746,1.0,0.0
45.81240463256836,17.7169189453125,-2.263556718826294,-0.0,-0.0,-1.0,0.0419380949744433,1.0,0.0
45.80508041381836,17.28357696533203,-2.2697813510894775,-0.0,-0.0,-1.0,0.0117018742728036,1.0,0.0
46.58298110961914,15.776864051818848,-1.944751977920532,-0.0,-0.0,-1.0,0.0871907097394825,2.0,0.0
46.26960754394531,15.941888809204102,-2.044928789138794,-0.0,-0.0,-1.0,0.0464780006413417,1.0,0.0
46.552268981933594,16.431499481201172,-2.088783025741577,-0.0,-0.0,-1.0,0.0837543652142422,2.0,0.0
46.62704849243164,17.95738983154297,-2.110377073287964,-0.0,-0.0,-1.0,0.1619621941829085,1.0,0.0
46.89814376831055,17.18511199951172,-2.144597291946411,-0.0,-0.0,-1.0,0.0316572679934066,2.0,0.0
46.745079040527344,16.890911102294922,-2.1199119091033936,-0.0,-0.0,-1.0,0.0287631194325871,1.0,0.0
47.09400177001953,17.422454833984375,-2.175522565841675,-0.0,-0.0,-1.0,0.0346794361942316,2.0,0.0
47.39265441894531,17.645238876342773,-2.2218434810638428,-0.0,-0.0,-1.0,0.0229605366262698,1.0,0.0
46.06819915771485,15.828828811645508,-2.1453661918640137,-0.0,-0.0,-1.0,0.0363813029060746,1.0,0.0
46.15634536743164,16.073528289794922,-2.1671576499938965,-0.0,-0.0,-1.0,0.0239550699472875,1.0,0.0
46.46783828735352,16.655729293823242,-2.2361650466918945,-0.0,-0.0,-1.0,0.0345078939066877,1.0,0.0
46.3764762878418,16.30562400817871,-2.209989070892334,-0.0,-0.0,-1.0,0.0380883141311263,1.0,0.0
46.38030242919922,17.474302291870117,-2.250157356262207,-0.0,-0.0,-1.0,0.011594792876365,2.0,0.0
46.50466537475586,17.058700561523438,-2.2557106018066406,-0.0,-0.0,-1.0,0.0071735187941136,1.0,0.0
46.410865783691406,15.930774688720703,-1.992115259170532,-0.0,-0.0,-1.0,0.0925593268196392,1.0,0.0
46.49531555175781,16.226869583129883,-2.018639326095581,-0.0,-0.0,-1.0,0.0461445979671501,1.0,0.0
46.74784851074219,16.714969635009766,-2.0806682109832764,-0.0,-0.0,-1.0,0.0741016772295287,1.0,0.0
46.6336669921875,16.46883773803711,-2.0513288974761963,-0.0,-0.0,-1.0,0.068477823068987,1.0,0.0
46.860008239746094,17.013803482055664,-2.1123712062835693,-0.0,-0.0,-1.0,0.0333767506086862,1.0,0.0
46.71106719970703,17.987558364868164,-2.137118101119995,-0.0,-0.0,-1.0,0.1322151778963245,1.0,0.0
47.291709899902344,17.299135208129883,-2.1937177181243896,-0.0,-0.0,-1.0,0.0187533105566898,1.0,0.0
47.05818176269531,18.13232421875,-2.198862791061402,-0.0,-0.0,-1.0,0.0224374611525811,1.0,0.0
47.442195892333984,17.713132858276367,-2.2377421855926514,-0.0,-0.0,-1.0,0.0234042411517696,1.0,0.0
47.46345520019531,17.501638412475586,-2.2305471897125244,-0.0,-0.0,-1.0,0.0187442159451035,1.0,0.0
46.416114807128906,15.78818416595459,-1.969024419784546,-0.0,-0.0,-1.0,0.086616554524647,1.0,0.0
46.4852409362793,16.030826568603516,-1.9920189380645752,-0.0,-0.0,-1.0,0.0867766497271604,2.0,0.0
46.66587829589844,16.399696350097656,-2.039226770401001,-0.7384010616517591,-0.2793318230461801,-0.6137895443759633,0.0760859423830312,3.0,0.0
46.85231018066406,16.795618057250977,-2.0891950130462646,0.1409897803762401,0.5330983353064069,-0.834223019775286,0.062575748204722,3.0,0.0
46.808197021484375,16.65253448486328,-2.074735403060913,-0.0,-0.0,-1.0,0.0689937575480128,1.0,0.0
47.06721878051758,17.090160369873047,-2.1387360095977783,-0.0,-0.0,-1.0,0.0394793739243432,1.0,0.0
46.80363464355469,17.85422706604004,-2.1389429569244385,-0.0,-0.0,-1.0,0.0702683827855567,1.0,0.0
47.45417404174805,17.329303741455078,-2.212700128555298,-0.0,-0.0,-1.0,0.0128908699472114,1.0,0.0
47.17552947998047,18.10677719116211,-2.211862802505493,-0.0,-0.0,-1.0,0.0202660195576133,1.0,0.0
47.477806091308594,17.642112731933594,-2.2335736751556396,-0.0,-0.0,-1.0,0.0233226789774682,1.0,0.0
46.22523498535156,16.091835021972656,-2.136815071105957,-0.0,-0.0,-1.0,0.0314165339898333,1.0,0.0
46.19539642333984,16.258834838867188,-2.142770290374756,-0.0,-0.0,-1.0,0.0375769996862268,1.0,0.0
46.24394989013672,16.31485939025879,-2.155816555023194,-0.0,-0.0,-1.0,0.0254089142424392,1.0,0.0
46.328834533691406,16.691646575927734,-2.198587417602539,-0.0,-0.0,-1.0,0.023893072598352,2.0,0.0
46.28195571899414,17.11672592163086,-2.2211804389953613,-0.0,-0.0,-1.0,0.0095754159845756,1.0,0.0
46.32563781738281,17.288869857788086,-2.242403507232666,-0.0,-0.0,-1.0,0.0123741057057989,1.0,0.0
46.22978973388672,17.50348663330078,-2.2410287857055664,-0.0,-0.0,-1.0,0.0113656866841849,1.0,0.0
45.918758392333984,18.042509078979492,-2.225708484649658,-0.0,-0.0,-1.0,0.2258206457337034,1.0,0.0
46.05718231201172,17.83014488220215,-2.2344632148742676,-0.0,-0.0,-1.0,0.0478407454066323,2.0,0.0
46.15338134765625,16.150876998901367,-2.0798795223236084,-0.0,-0.0,-1.0,0.0385427049379671,1.0,0.0
46.384727478027344,16.436307907104492,-2.140172243118286,-0.0,-0.0,-1.0,0.0591752088035915,1.0,0.0
46.466575622558594,16.81064796447754,-2.1773293018341064,-0.0,-0.0,-1.0,0.0171046640321266,1.0,0.0
46.42598342895508,17.306640625,-2.199322462081909,-0.0,-0.0,-1.0,0.0146018820071744,2.0,0.0
46.405670166015625,17.678285598754883,-2.2188565731048584,-0.0,-0.0,-1.0,0.0509018713638313,2.0,0.0
45.87480926513672,18.067325592041016,-2.1421539783477783,-0.930657753564622,-0.1558739076688355,-0.3310279000901566,0.2450643273276899,3.0,0.0
46.20770263671875,18.11289978027344,-2.209357500076294,-0.0,-0.0,-1.0,0.0290696526822756,2.0,0.0
46.473876953125,16.174034118652344,-2.103440761566162,-0.0,-0.0,-1.0,0.0403492454831082,2.0,0.0
46.468650817871094,16.33477210998535,-2.111820697784424,-0.0,-0.0,-1.0,0.0740141294427338,2.0,0.0
46.61161804199219,16.527698516845703,-2.151811122894287,-0.0,-0.0,-1.0,0.0440981534211804,2.0,0.0
46.66108703613281,16.843158721923828,-2.1811270713806152,-0.0,-0.0,-1.0,0.028219744430677,1.0,0.0
46.66533660888672,17.246328353881836,-2.2078356742858887,-0.0,-0.0,-1.0,0.0170770416748854,1.0,0.0
46.49996566772461,17.679161071777344,-2.203977584838867,-0.9644601779084016,0.1312438528028498,0.2293286208268767,0.0745541725332702,3.0,0.0
46.578887939453125,17.480690002441406,-2.20615816116333,-0.0,-0.0,-1.0,0.0249546763831891,1.0,0.0
46.482940673828125,18.01188087463379,-2.223850727081299,-0.0,-0.0,-1.0,0.0979746293527442,2.0,0.0
46.37287902832031,16.05614471435547,-2.0765600204467773,-0.0,-0.0,-1.0,0.0813066418913434,2.0,0.0
46.37525177001953,18.1157283782959,-2.209803581237793,-0.0,-0.0,-1.0,0.0623111507982741,2.0,0.0
45.48614883422851,16.497493743896484,-2.226374387741089,-0.0,-0.0,-1.0,0.0056997325975876,2.0,0.0
45.51180267333984,16.29340934753418,-2.21976637840271,-0.0,-0.0,-1.0,0.0157322411634427,1.0,0.0
45.44126892089844,16.872804641723633,-2.2402541637420654,-0.0,-0.0,-1.0,0.0049041982366454,1.0,0.0
45.52317810058594,16.664901733398438,-2.24591326713562,-0.0,-0.0,-1.0,0.0108471057406424,1.0,0.0
45.39661407470703,17.178874969482422,-2.250757932662964,-0.0,-0.0,-1.0,0.0019555138076893,1.0,0.0
45.3935546875,17.570886611938477,-2.2783687114715576,-0.0,-0.0,-1.0,0.0164506707530587,1.0,0.0
45.3253288269043,17.92123031616211,-2.2888448238372803,-0.0,-0.0,-1.0,0.0464863360796565,1.0,0.0
46.137550354003906,15.869367599487305,-2.1035540103912354,-0.0,-0.0,-1.0,0.0266365964573819,2.0,0.0
46.10069274902344,16.175447463989258,-2.114614248275757,-0.0,-0.0,-1.0,0.0375803694030344,2.0,0.0
46.256385803222656,16.375036239624023,-2.1653120517730713,-0.0,-0.0,-1.0,0.0216687913433241,1.0,0.0
46.31117248535156,16.67742919921875,-2.1997010707855225,-0.0,-0.0,-1.0,0.0108891006668111,2.0,0.0
46.32723617553711,17.04999351501465,-2.230980157852173,-0.0,-0.0,-1.0,0.0093433679850785,2.0,0.0
46.27950668334961,17.486316680908203,-2.2535622119903564,-0.0,-0.0,-1.0,0.0100403633328465,1.0,0.0
45.83742141723633,18.02463722229004,-2.192692518234253,-0.2772842763821111,0.2806551009613864,-0.9188830961420515,0.263599947336023,4.0,0.0
46.096290588378906,17.87015151977539,-2.241384267807007,-0.0,-0.0,-1.0,0.050928005563996,1.0,0.0
45.98664093017578,15.999332427978516,-2.1528725624084473,-0.0,-0.0,-1.0,0.0290703287784006,1.0,0.0
46.04869842529297,16.21480369567871,-2.184647560119629,-0.1171511126615129,-0.9344787159602144,-0.3361921269445765,0.0347790648905647,3.0,0.0
46.09450149536133,16.583410263061523,-2.2246975898742676,-0.0,-0.0,-1.0,0.022180337901441,1.0,0.0
46.06748962402344,16.98845863342285,-2.2507925033569336,-0.0,-0.0,-1.0,0.0138377010056765,1.0,0.0
46.004276275634766,17.3883056640625,-2.2691774368286133,-0.0,-0.0,-1.0,0.0140495059221407,2.0,0.0
45.84935760498047,17.8458309173584,-2.271541118621826,-0.0,-0.0,-1.0,0.0790557002885698,1.0,0.0
45.92828369140625,17.63407325744629,-2.2719011306762695,-0.0,-0.0,-1.0,0.0169430387804784,1.0,0.0
46.381103515625,15.886014938354492,-2.038832187652588,-0.0,-0.0,-1.0,0.0543533135021933,2.0,0.0
46.51424789428711,16.2781925201416,-2.090051651000977,-0.3162749893569681,-0.4252865668174258,-0.8479985065976805,0.0564593914108524,3.0,0.0
46.59919738769531,16.520952224731445,-2.1231298446655273,-0.0,-0.0,-1.0,0.0563351887090751,2.0,0.0
46.682220458984375,16.735605239868164,-2.1547160148620605,-0.0,-0.0,-1.0,0.0556851271180508,2.0,0.0
46.81729507446289,17.07807159423828,-2.2066760063171387,0.0939772797381566,0.1680819985629348,-0.9812831969681868,0.0299219934620392,3.0,0.0
46.551025390625,17.64434242248535,-2.189643383026123,-0.0,-0.0,-1.0,0.0661071903353708,1.0,0.0
46.860107421875,17.419151306152344,-2.239800453186035,-0.0,-0.0,-1.0,0.0153537978460142,1.0,0.0
45.84020233154297,18.073060989379883,-2.069814682006836,-0.0,-0.0,-1.0,0.131677362811235,1.0,0.0
46.523555755615234,17.83169937133789,-2.197925567626953,-0.0,-0.0,-1.0,0.1227243989908216,1.0,0.0
46.745025634765625,18.037309646606445,-2.261484146118164,-0.0,-0.0,-1.0,0.0610178159254104,1.0,0.0
46.59013366699219,15.875406265258787,-1.9525363445281985,-0.0,-0.0,-1.0,0.086597397760734,1.0,0.0
45.81801986694336,17.967254638671875,-1.9207420349121096,0.5962342957648556,-0.04663607421319,-0.8014547654957006,0.0743069875732098,3.0,0.0
45.79598617553711,16.103904724121094,-2.177215576171875,-0.0,-0.0,-1.0,0.0272663365694201,2.0,0.0
45.8475341796875,16.33616065979004,-2.205453634262085,-0.0,-0.0,-1.0,0.0253317781664327,2.0,0.0
45.839691162109375,16.748973846435547,-2.233356237411499,-0.0868524281013248,-0.656147603324102,-0.749617888250368,0.0159939361177474,3.0,0.0
45.785587310791016,17.155073165893555,-2.2518978118896484,-0.0,-0.0,-1.0,0.0084283036234225,2.0,0.0
45.71389389038086,17.540691375732422,-2.2666585445404053,-0.0,-0.0,-1.0,0.0120670690070835,2.0,0.0
45.584007263183594,17.964509963989258,-2.273076057434082,0.4276875343454589,-0.103490775132456,-0.8979827573110666,0.0230995349148119,3.0,0.0
45.287750244140625,16.1635799407959,-2.194342851638794,-0.0,-0.0,-1.0,0.0079646831267743,1.0,0.0
45.30978012084961,16.39446258544922,-2.2162070274353027,-0.0,-0.0,-1.0,0.0067850974444522,1.0,0.0
46.68473815917969,16.376392364501953,-2.0513100624084473,-0.814105871459713,-0.3694472502615917,-0.4480405777705523,0.0810283398972731,4.0,0.0
45.24448776245117,16.80574607849121,-2.2290213108062744,-0.0,-0.0,-1.0,0.0006572885631937,1.0,0.0
46.832298278808594,16.76300048828125,-2.1134209632873535,-0.2928872891789686,0.6793927398940568,-0.6727871437658735,0.064843713430303,3.0,0.0
45.2318229675293,17.222171783447266,-2.2595632076263428,-0.0,-0.0,-1.0,0.0079191682932219,1.0,0.0
46.93061447143555,17.12384796142578,-2.163925886154175,-0.0,-0.0,-1.0,0.0427121306951206,1.0,0.0
47.00815200805664,17.491016387939453,-2.211803674697876,-0.0,-0.0,-1.0,0.039633374034509,1.0,0.0
47.11042785644531,17.57195281982422,-2.242527484893799,-0.0,-0.0,-1.0,0.0277136541339703,1.0,0.0
46.59923553466797,17.89115333557129,-2.1514265537261963,-0.0,-0.0,-1.0,0.1779333029344724,2.0,0.0
46.91228866577149,17.94072151184082,-2.2286813259124756,-0.0,-0.0,-1.0,0.0334034680662796,1.0,0.0
46.52843475341797,15.999082565307615,-1.989833116531372,-0.0,-0.0,-1.0,0.069316263899537,1.0,0.0
45.826805114746094,17.956506729125977,-1.9780938625335691,-0.0,-0.0,-1.0,0.1060522422845409,1.0,0.0
45.91624069213867,18.064159393310547,-2.008769989013672,-0.0,-0.0,-1.0,0.0908983549483489,1.0,0.0
45.806190490722656,16.092628479003906,-2.1662328243255615,-0.0,-0.0,-1.0,0.030060484070153,2.0,0.0
45.85124206542969,16.333051681518555,-2.1940672397613525,-0.0,-0.0,-1.0,0.0253317781664328,2.0,0.0
45.836204528808594,16.73076629638672,-2.217015027999878,-0.0,-0.0,-1.0,0.0158163940655617,2.0,0.0
47.689205169677734,16.685104370117188,-2.198953866958618,-0.0,-0.0,-1.0,0.0179113328802463,1.0,0.0
45.79364013671875,17.12809944152832,-2.235117197036743,-0.0,-0.0,-1.0,0.0076424914736661,2.0,0.0
47.585716247558594,17.09967613220215,-2.2032463550567627,-0.0,-0.0,-1.0,0.0150556074631942,1.0,0.0
47.64020919799805,17.064733505249023,-2.2140393257141113,-0.0,-0.0,-1.0,0.0189814686748704,1.0,0.0
45.74818801879883,17.54189682006836,-2.2567732334136963,-0.0,-0.0,-1.0,0.0120670690070836,2.0,0.0
47.576629638671875,17.41643714904785,-2.225167751312256,-0.0,-0.0,-1.0,0.0134614074550536,1.0,0.0
45.615535736083984,17.964590072631836,-2.2580690383911133,0.4276875343454589,-0.103490775132456,-0.8979827573110666,0.0501115311396205,3.0,0.0
45.71100616455078,17.799983978271484,-2.269383430480957,-0.0,-0.0,-1.0,0.0312088781579299,2.0,0.0
47.57189178466797,17.842941284179688,-2.2587473392486572,-0.0,-0.0,-1.0,0.0238627026159036,1.0,0.0
47.667015075683594,18.01117706298828,-2.2962703704833984,-0.0,-0.0,-1.0,0.0228535508576371,1.0,0.0
46.70399475097656,15.981229782104492,-1.912961483001709,-0.0,-0.0,-1.0,0.0681014264522999,1.0,0.0
47.541221618652344,17.0584774017334,-2.1892220973968506,-0.0,-0.0,-1.0,0.0166482423061738,1.0,0.0
47.12914276123047,17.626373291015625,-2.132786512374878,-0.0,-0.0,-1.0,0.0253635041514043,1.0,0.0
47.38935089111328,17.599830627441406,-2.194094657897949,-0.0,-0.0,-1.0,0.0196886674426249,1.0,0.0
45.882137298583984,18.030101776123047,-1.8637974262237549,-0.0,-0.0,-1.0,0.0709838112861867,1.0,0.0
45.932228088378906,15.941511154174805,-2.1894352436065674,-0.0,-0.0,-1.0,0.0398355282149597,2.0,0.0
46.71274948120117,16.00554847717285,-1.9672155380249023,-0.0,-0.0,-1.0,0.0622407638638024,1.0,0.0
47.681610107421875,15.844175338745115,-2.218863725662231,-0.0,-0.0,-1.0,0.0125071972361434,1.0,0.0
45.99592208862305,16.32431411743164,-2.2332894802093506,-0.0,-0.0,-1.0,0.0333265990853409,2.0,0.0
47.6461067199707,16.2331600189209,-2.233330249786377,-0.0,-0.0,-1.0,0.0089950075502058,1.0,0.0
45.98904037475586,16.709339141845703,-2.259092330932617,-0.0,-0.0,-1.0,0.0198084058012394,1.0,0.0
47.62058639526367,16.676485061645508,-2.257120132446289,-0.0,-0.0,-1.0,0.0150061159248806,1.0,0.0
45.92272186279297,17.255064010620117,-2.2840332984924316,-0.0,-0.0,-1.0,0.0103015690060568,1.0,0.0
45.95399475097656,17.046924591064453,-2.2755448818206787,-0.0,-0.0,-1.0,0.0145059853830547,1.0,0.0
47.40553283691406,17.08990478515625,-2.230849266052246,-0.0,-0.0,-1.0,0.0141727291063039,1.0,0.0
47.56935119628906,16.90038299560547,-2.2599587440490723,-0.0,-0.0,-1.0,0.0194341531018604,1.0,0.0
45.87824630737305,17.548898696899414,-2.2978761196136475,-0.0,-0.0,-1.0,0.0148054607491984,1.0,0.0
47.07850646972656,17.56405258178711,-2.183103084564209,-0.0,-0.0,-1.0,0.0320696669278296,1.0,0.0
47.47897720336914,17.357419967651367,-2.2726712226867676,-0.0,-0.0,-1.0,0.0143885764860184,1.0,0.0
45.765159606933594,17.927167892456055,-2.301635503768921,-0.0,-0.0,-1.0,0.0487875767001738,1.0,0.0
47.0974006652832,17.77387237548828,-2.2072787284851074,-0.0,-0.0,-1.0,0.026488690166204,2.0,0.0
47.49540328979492,17.98332405090332,-2.3337860107421875,-0.0,-0.0,-1.0,0.0226230787672768,1.0,0.0
45.85536575317383,17.96068572998047,-1.8925766944885256,0.5962342957648556,-0.04663607421319,-0.8014547654957006,0.078178025384119,3.0,0.0
46.39457321166992,15.949305534362791,-2.119734764099121,-0.0,-0.0,-1.0,0.0578449666326638,1.0,0.0
46.48885345458984,16.338584899902344,-2.175295352935791,-0.0,-0.0,-1.0,0.0631823925221633,1.0,0.0
46.547977447509766,16.74395179748535,-2.2247252464294434,-0.0,-0.0,-1.0,0.0176739210796805,1.0,0.0
46.50082015991211,17.15005874633789,-2.244324207305908,-0.0,-0.0,-1.0,0.0060669089704161,2.0,0.0
46.45469284057617,17.552106857299805,-2.268021583557129,-0.0,-0.0,-1.0,0.0213156041917082,1.0,0.0
46.19539642333984,18.051727294921875,-2.2391772270202637,-0.0,-0.0,-1.0,0.0265603870174624,2.0,0.0
46.398292541503906,17.85648536682129,-2.2816762924194336,-0.0,-0.0,-1.0,0.0766039707929758,1.0,0.0
45.951560974121094,18.002971649169922,-1.7543569803237915,-0.0,-0.0,-1.0,0.0769710452968452,1.0,0.0
46.24236297607422,15.662147521972656,-1.9914404153823853,-0.0,-0.0,-1.0,0.0356829662569217,2.0,0.0
46.36151885986328,15.965750694274902,-2.0197887420654297,-0.0,-0.0,-1.0,0.0861878881638137,1.0,0.0
47.013877868652344,17.27501678466797,-2.159778118133545,-0.0,-0.0,-1.0,0.0321448709428383,1.0,0.0
47.00589370727539,17.57544708251953,-2.173954963684082,-0.0,-0.0,-1.0,0.036391512415209,1.0,0.0
47.492652893066406,17.799072265625,-2.2417259216308594,-0.0,-0.0,-1.0,0.0238627026159037,1.0,0.0
46.539817810058594,15.688061714172363,-2.09452223777771,-0.0,-0.0,-1.0,0.1095609949350263,2.0,0.0
46.83856201171875,16.654855728149414,-2.246335744857788,-0.0,-0.0,-1.0,0.0608368666795248,1.0,0.0
46.446014404296875,17.048484802246094,-2.2520735263824463,-0.0,-0.0,-1.0,0.0070225863318592,1.0,0.0
46.59202575683594,16.864913940429688,-2.2451908588409424,-0.0,-0.0,-1.0,0.0197954114568894,1.0,0.0
47.01490783691406,17.689929962158203,-2.1421689987182617,-0.0,-0.0,-1.0,0.0256837330552268,2.0,0.0
47.20795440673828,17.82099723815918,-2.324307441711426,-0.0,-0.0,-1.0,0.0231611533859712,1.0,0.0
47.4817008972168,17.769588470458984,-2.343989849090576,-0.0,-0.0,-1.0,0.0238627026159036,1.0,0.0
45.87340545654297,18.006208419799805,-2.220269680023194,-0.6712682250383333,-0.2899147024902359,-0.6821645221893936,0.2334614395381463,3.0,0.0
46.55767059326172,17.85717010498047,-2.2629690170288086,-0.0,-0.0,-1.0,0.1208715577048641,2.0,0.0
45.9068717956543,18.13530540466309,-2.2481651306152344,-0.0,-0.0,-1.0,0.1958443444645753,1.0,0.0
47.16523361206055,17.25871467590332,-2.129720687866211,-0.0,-0.0,-1.0,0.0305759913299705,1.0,0.0
47.00209045410156,17.657983779907227,-2.1460845470428467,-0.0,-0.0,-1.0,0.0248344418358748,2.0,0.0
46.451045989990234,16.619640350341797,-2.189964771270752,-0.0,-0.0,-1.0,0.0372909606815543,1.0,0.0
46.07637405395508,17.645687103271484,-2.2473835945129395,-0.0,-0.0,-1.0,0.0168947881328484,1.0,0.0
46.133792877197266,17.566448211669922,-2.247189998626709,-0.0,-0.0,-1.0,0.0134942553736146,1.0,0.0
45.71826171875,18.081846237182617,-2.2432632446289062,-0.0,-0.0,-1.0,0.135478029481508,2.0,0.0
45.92795944213867,17.87738037109375,-2.2516584396362305,-0.0,-0.0,-1.0,0.1174014836962623,2.0,0.0
46.219051361083984,15.824590682983398,-2.064908981323242,-0.0,-0.0,-1.0,0.0376064828964028,1.0,0.0
46.29308319091797,15.932421684265137,-2.0887460708618164,-0.0,-0.0,-1.0,0.0464780006413415,1.0,0.0
46.276756286621094,16.219524383544922,-2.1169471740722656,-0.0,-0.0,-1.0,0.0272261319285361,1.0,0.0
46.331581115722656,16.240737915039062,-2.1284213066101074,-0.0,-0.0,-1.0,0.0325623951188331,1.0,0.0
46.363243103027344,15.642087936401367,-1.967344045639038,-0.0,-0.0,-1.0,0.1023803622432203,1.0,0.0
46.50204086303711,16.069561004638672,-2.0373077392578125,-0.8117391221162921,0.1272990383618198,-0.5699776771576471,0.0954909242102088,3.0,0.0
46.594146728515625,16.44295310974121,-2.0943870544433594,-0.0,-0.0,-1.0,0.0837849916938378,2.0,0.0
46.7236213684082,16.804704666137695,-2.157356977462769,-0.0,-0.0,-1.0,0.0544006708812032,1.0,0.0
46.79701232910156,17.10367774963379,-2.2042324542999268,0.0939772797381566,0.1680819985629348,-0.9812831969681868,0.0228382033997133,3.0,0.0
46.49573516845703,17.622846603393555,-2.215465545654297,-0.0,-0.0,-1.0,0.0523956500740364,1.0,0.0
45.88494110107422,18.065139770507812,-2.169609546661377,-0.930657753564622,-0.1558739076688355,-0.3310279000901566,0.2576067749115734,3.0,0.0
46.24592971801758,18.118404388427734,-2.235464334487915,-0.0,-0.0,-1.0,0.0329336518373551,2.0,0.0
46.4583740234375,17.947040557861328,-2.2489421367645264,-0.0,-0.0,-1.0,0.0967403671149783,2.0,0.0
46.097110748291016,15.78398895263672,-2.0977630615234375,-0.0,-0.0,-1.0,0.0355913981425207,2.0,0.0
46.119258880615234,16.19974136352539,-2.1543264389038086,-0.0,-0.0,-1.0,0.0356275312915584,1.0,0.0
46.14502716064453,16.62689208984375,-2.2148139476776123,-0.0,-0.0,-1.0,0.0223193148185838,1.0,0.0
46.08734130859375,16.835124969482422,-2.231672525405884,-0.0,-0.0,-1.0,0.0110049850444592,1.0,0.0
45.81685256958008,17.608633041381836,-2.2892417907714844,-0.0,-0.0,-1.0,0.0167408826380795,1.0,0.0
45.499881744384766,17.950496673583984,-2.281792163848877,-0.0,-0.0,-1.0,0.0587120038941425,1.0,0.0
45.69990158081055,17.756885528564453,-2.2894508838653564,0.0426780595937105,0.4126627204055408,-0.9098835433267348,0.0227019516834965,3.0,0.0
45.845123291015625,18.022127151489254,-1.7824807167053225,-0.0,-0.0,-1.0,0.0715772074146047,1.0,0.0
46.40733337402344,16.055330276489258,-2.089345932006836,-0.0,-0.0,-1.0,0.0857087012863542,2.0,0.0
46.43329620361328,16.324859619140625,-2.1302921772003174,0.4950010661344413,-0.6070292697344927,-0.6216827247168565,0.0705760466368076,3.0,0.0
46.50538635253906,16.71108055114746,-2.196908473968506,-0.0,-0.0,-1.0,0.0309077987151331,1.0,0.0
46.349578857421875,17.156692504882812,-2.2299704551696777,-0.0,-0.0,-1.0,0.0105041609129512,2.0,0.0
46.45227813720703,16.97538948059082,-2.2235825061798096,-0.0,-0.0,-1.0,0.0123660055341333,1.0,0.0
46.07090759277344,17.71506118774414,-2.2599637508392334,-0.0,-0.0,-1.0,0.0185966409835836,1.0,0.0
46.203338623046875,17.543758392333984,-2.2589995861053467,-0.0,-0.0,-1.0,0.0113779110248116,1.0,0.0
45.67635726928711,18.1052188873291,-2.247807025909424,-0.0,-0.0,-1.0,0.0852934792976939,2.0,0.0
45.90594482421875,17.91931915283203,-2.2607903480529785,-0.0,-0.0,-1.0,0.1727735730133363,2.0,0.0
46.26134490966797,15.649558067321776,-2.0080127716064453,-0.0,-0.0,-1.0,0.0573547055292121,2.0,0.0
46.267356872558594,15.761943817138672,-2.0236451625823975,-0.0,-0.0,-1.0,0.0396631301065577,2.0,0.0
46.350189208984375,15.886604309082031,-2.0560667514801025,-0.0,-0.0,-1.0,0.048240428326371,2.0,0.0
45.844268798828125,18.044822692871097,-1.7249464988708496,-0.0,-0.0,-1.0,0.0715772074146047,1.0,0.0
46.03173828125,15.91099739074707,-2.1549301147460938,-0.0,-0.0,-1.0,0.0383245351732615,1.0,0.0
45.99756622314453,16.340774536132812,-2.209314346313477,-0.0,-0.0,-1.0,0.0333265990853409,2.0,0.0
45.879005432128906,16.758817672729492,-2.246527671813965,-0.0,-0.0,-1.0,0.016678359803657,2.0,0.0
45.96308135986328,16.564102172851562,-2.2349700927734375,-0.0,-0.0,-1.0,0.0249072025732017,1.0,0.0
45.25818634033203,17.757545471191406,-2.278709888458252,-0.0,-0.0,-1.0,0.0305684675052509,1.0,0.0
45.33152389526367,17.681598663330078,-2.280759811401367,-0.0,-0.0,-1.0,0.0277144733130841,1.0,0.0
47.0605583190918,17.216686248779297,-2.030423164367676,-0.0,-0.0,-1.0,0.0338479819123375,1.0,0.0
45.8870849609375,18.090023040771484,-1.9404360055923464,-0.0,-0.0,-1.0,0.0709838112861865,1.0,0.0
46.42577362060547,15.86756420135498,-2.009104013442993,-0.0,-0.0,-1.0,0.0809178450770469,1.0,0.0
47.2373046875,15.706626892089844,-2.1596264839172363,-0.0,-0.0,-1.0,0.0111927113604851,1.0,0.0
47.41427230834961,15.640633583068848,-2.1886394023895264,-0.0,-0.0,-1.0,0.0110656586667452,1.0,0.0
46.54034805297851,16.275619506835938,-2.0984957218170166,-0.3162749893569681,-0.4252865668174258,-0.8479985065976805,0.0570639793146498,3.0,0.0
46.64312744140625,16.663917541503906,-2.183643341064453,-0.0,-0.0,-1.0,0.0641125655706054,2.0,0.0
46.50556182861328,17.129840850830078,-2.2342822551727295,-0.0,-0.0,-1.0,0.0059454821811826,2.0,0.0
46.64412689208984,16.8873233795166,-2.221160888671875,-0.0,-0.0,-1.0,0.0199604321847081,1.0,0.0
46.23236846923828,17.621047973632812,-2.266047239303589,-0.0,-0.0,-1.0,0.0126301683072888,2.0,0.0
46.36345672607422,17.428939819335938,-2.2577664852142334,-0.0,-0.0,-1.0,0.0103928626199248,2.0,0.0
45.83919906616211,17.968242645263672,-2.2532424926757812,-0.8738087888045737,-0.1261607516943095,-0.4696186381946639,0.1526050055951901,3.0,0.0
46.06487274169922,17.816112518310547,-2.2686543464660645,-0.0,-0.0,-1.0,0.0341412739978764,2.0,0.0
46.58638381958008,16.000091552734375,-1.9906092882156372,-0.0,-0.0,-1.0,0.0611373895896199,1.0,0.0
47.56513977050781,15.730093002319336,-2.1812334060668945,-0.0,-0.0,-1.0,0.0108164147524701,1.0,0.0
46.699180603027344,16.36002540588379,-2.0698952674865723,-0.0,-0.0,-1.0,0.0768967384121785,2.0,0.0
47.44544219970703,15.837803840637209,-2.1673989295959473,-0.0,-0.0,-1.0,0.0105467943069988,1.0,0.0
46.76344680786133,16.674373626708984,-2.1324315071105957,-0.0,-0.0,-1.0,0.0759155303168743,2.0,0.0
46.8045539855957,17.266223907470703,-2.235450267791748,-0.0,-0.0,-1.0,0.0260736250199393,2.0,0.0
46.859771728515625,16.976619720458984,-2.201099395751953,-0.0,-0.0,-1.0,0.036001064041524,1.0,0.0
45.89207458496094,18.036842346191406,-2.176340103149414,-0.930657753564622,-0.1558739076688355,-0.3310279000901566,0.2788401332688548,3.0,0.0
45.99005889892578,17.973934173583984,-2.184846878051758,-0.0,-0.0,-1.0,0.1620606679387515,2.0,0.0
46.49361801147461,17.696760177612305,-2.2407450675964355,-0.0,-0.0,-1.0,0.0794383610200619,2.0,0.0
46.66521072387695,17.426937103271484,-2.2316384315490723,-0.0,-0.0,-1.0,0.0118224726307439,1.0,0.0
46.21661758422851,18.07341766357422,-2.2490034103393555,-0.0,-0.0,-1.0,0.0265603870174624,2.0,0.0
46.39501190185547,17.942535400390625,-2.262427806854248,-0.0,-0.0,-1.0,0.0701539957704729,1.0,0.0
46.535797119140625,15.778345108032228,-1.946700930595398,0.0517768896111812,0.5758116459231061,-0.8159412369291769,0.1033508191462667,3.0,0.0
45.382957458496094,16.567398071289062,-2.2226409912109375,-0.0,-0.0,-1.0,0.0055103674797556,1.0,0.0
45.51316452026367,16.408342361450195,-2.2203903198242188,-0.0,-0.0,-1.0,0.0062870008025291,1.0,0.0
45.60142517089844,16.247896194458008,-2.2087554931640625,-0.0,-0.0,-1.0,0.0151290102534902,1.0,0.0
45.658241271972656,16.09777069091797,-2.1926143169403076,-0.0,-0.0,-1.0,0.0225512133071478,2.0,0.0
46.11479568481445,18.10677719116211,-2.1892800331115723,-0.0,-0.0,-1.0,0.0738911073371793,1.0,0.0
46.56968307495117,17.83462905883789,-2.2314858436584473,-0.0,-0.0,-1.0,0.1087979987105574,2.0,0.0
45.76005172729492,16.830276489257812,-2.215132236480713,0.271071753308464,-0.8453949722151686,-0.4602471569837122,0.0151703813164483,3.0,0.0
45.916725158691406,16.54728889465332,-2.195751667022705,-0.0,-0.0,-1.0,0.0226325449961195,1.0,0.0
46.0224609375,16.208261489868164,-2.157320022583008,-0.366232425931526,-0.8980315999954275,-0.2437479345675815,0.0353459172911366,4.0,0.0
45.84836196899414,15.845832824707031,-2.1384618282318115,-0.0,-0.0,-1.0,0.0409253927007306,1.0,0.0
46.941741943359375,17.666332244873047,-2.121263027191162,-0.0,-0.0,-1.0,0.0225352961502947,1.0,0.0
47.474063873291016,17.927406311035156,-2.2513551712036133,-0.0,-0.0,-1.0,0.0227613561178391,1.0,0.0
47.59884262084961,17.731164932250977,-2.242852210998535,-0.0,-0.0,-1.0,0.0234617959440512,1.0,0.0
45.561771392822266,15.784443855285645,-2.109569549560547,-0.0,-0.0,-1.0,0.0272012186128545,1.0,0.0
45.38056564331055,15.918890953063965,-2.1186599731445312,-0.0,-0.0,-1.0,0.0144029501625668,1.0,0.0
45.41963195800781,18.12085723876953,-2.219956398010254,-0.0,-0.0,-1.0,0.0809971959173259,1.0,0.0
47.55217361450195,17.950714111328125,-2.3693594932556152,-0.0,-0.0,-1.0,0.0232654726024952,1.0,0.0
47.263885498046875,17.955135345458984,-2.3449413776397705,-0.0,-0.0,-1.0,0.0230497743521385,1.0,0.0
46.44506072998047,17.925935745239258,-2.273618221282959,-0.0,-0.0,-1.0,0.0947583692177319,2.0,0.0
46.105506896972656,17.938915252685547,-2.2483503818511963,-0.0,-0.0,-1.0,0.0563410148267597,1.0,0.0
47.66142272949219,17.545917510986328,-2.329876184463501,-0.0,-0.0,-1.0,0.0139185744050194,1.0,0.0
47.69414520263672,17.011287689208984,-2.268420457839966,-0.0,-0.0,-1.0,0.0133800731156712,1.0,0.0
46.51032257080078,17.851390838623047,-2.288639545440674,-0.0,-0.0,-1.0,0.1293628511497279,1.0,0.0
45.8447151184082,17.98964500427246,-2.3091211318969727,-0.0,-0.0,-1.0,0.1656976095281487,1.0,0.0
46.529571533203125,17.869461059570312,-1.980963945388794,-0.0,-0.0,-1.0,0.1326681105524115,1.0,0.0
45.84626770019531,18.012130737304688,-1.9693419933319092,-0.0,-0.0,-1.0,0.0715772074146048,1.0,0.0
46.453163146972656,17.90614891052246,-2.120806932449341,-0.0,-0.0,-1.0,0.1453056624826003,1.0,0.0
46.52156066894531,16.038679122924805,-1.9393377304077148,-0.0,-0.0,-1.0,0.0614536038221335,1.0,0.0
46.55103302001953,17.82131004333496,-2.1492481231689453,-0.5139285675288853,0.6314599793197345,-0.5806338966984517,0.1605858187146274,3.0,0.0
46.43242645263672,17.83506965637207,-2.144829273223877,-0.0,-0.0,-1.0,0.1606149535898342,1.0,0.0
46.62457275390625,16.597761154174805,-2.153731346130371,-0.0,-0.0,-1.0,0.0605563574994822,1.0,0.0
46.578495025634766,16.983308792114258,-2.192383050918579,-0.0,-0.0,-1.0,0.0116898504786947,1.0,0.0
46.40819549560547,17.317747116088867,-2.2164573669433594,-0.0,-0.0,-1.0,0.0154376213926233,2.0,0.0
46.425514221191406,16.110004425048828,-2.0852746963500977,-0.0,-0.0,-1.0,0.0879248353268072,1.0,0.0
46.286277770996094,17.705276489257812,-2.2509312629699707,-0.0,-0.0,-1.0,0.0240064891477755,1.0,0.0
46.23749542236328,15.723745346069336,-2.0288782119750977,0.786839922582266,-0.5905502452631908,-0.1792577586893213,0.0328958721398067,3.0,0.0
46.302223205566406,16.00669288635254,-2.0644030570983887,-0.0,-0.0,-1.0,0.0720673024667188,1.0,0.0
47.679813385009766,15.756123542785645,-2.183598518371582,-0.0,-0.0,-1.0,0.0108312988322809,1.0,0.0
46.40380096435547,16.162967681884766,-2.119259834289551,-0.0,-0.0,-1.0,0.0373210530577783,1.0,0.0
46.450477600097656,16.572948455810547,-2.170785903930664,-0.0,-0.0,-1.0,0.0416542952237394,1.0,0.0
46.440635681152344,16.893028259277344,-2.2076234817504883,-0.0,-0.0,-1.0,0.0122243478453286,1.0,0.0
46.21418762207031,15.950289726257324,-2.0787925720214844,-0.0,-0.0,-1.0,0.0355767669768818,2.0,0.0
46.78925704956055,17.08313751220703,-2.20849347114563,0.0939772797381566,0.1680819985629348,-0.9812831969681868,0.0258084555133119,3.0,0.0
46.507347106933594,16.304128646850586,-2.100485324859619,-0.3162749893569681,-0.4252865668174258,-0.8479985065976805,0.0697106647927029,3.0,0.0
46.66357421875,16.64960479736328,-2.1513473987579346,0.8266143511822045,0.4647386764584815,-0.3173746634866149,0.0634896093856796,3.0,0.0
46.73827362060547,17.0491886138916,-2.19986629486084,-0.0,-0.0,-1.0,0.0201914391360134,2.0,0.0
46.59478759765625,17.363880157470703,-2.2185041904449463,-0.0,-0.0,-1.0,0.0080627743597701,1.0,0.0
46.33479690551758,15.761707305908203,-2.028772354125977,-0.0,-0.0,-1.0,0.0538670134435023,2.0,0.0
46.469940185546875,16.08517837524414,-2.0747101306915283,-0.0,-0.0,-1.0,0.0954909242102087,2.0,0.0
45.95404815673828,15.753389358520508,-2.23502779006958,-0.0,-0.0,-1.0,0.0459294138307555,1.0,0.0
45.92233657836914,16.001935958862305,-2.2606983184814453,-0.0,-0.0,-1.0,0.0258929666182302,1.0,0.0
46.51604461669922,16.37598991394043,-2.11983871459961,-0.0,-0.0,-1.0,0.0747362338396835,2.0,0.0
46.65651321411133,16.758832931518555,-2.1766343116760254,-0.0,-0.0,-1.0,0.0562575292877855,2.0,0.0
46.736724853515625,17.02623176574707,-2.2145333290100098,-0.0,-0.0,-1.0,0.0201373333930109,2.0,0.0
46.39697265625,16.0084228515625,-2.0675230026245117,-0.0,-0.0,-1.0,0.090086866891851,1.0,0.0
46.21288299560547,17.875286102294922,-2.251215934753418,-0.0,-0.0,-1.0,0.0223272138380028,1.0,0.0
45.81888198852539,17.991687774658203,-2.2217373847961426,-0.9453782440952124,0.1989573440236556,-0.2582168678659573,0.1646217094105861,4.0,0.0
47.07427978515625,17.895246505737305,-2.2000274658203125,-0.0,-0.0,-1.0,0.0205797547092302,1.0,0.0
46.57966613769531,17.848407745361328,-2.1451220512390137,-0.7494265973782251,0.4904807979079929,-0.4447340351554332,0.1581123236811988,4.0,0.0
45.807037353515625,17.966262817382812,-2.083606243133545,-0.0,-0.0,-1.0,0.1724401706429567,1.0,0.0
45.8973388671875,15.743234634399414,-2.152334213256836,-0.0,-0.0,-1.0,0.0445688538927893,1.0,0.0
45.49616622924805,17.162736892700195,-2.2332630157470703,-0.0,-0.0,-1.0,0.0024128142648291,1.0,0.0
45.45030975341797,17.43109703063965,-2.254425525665283,-0.0,-0.0,-1.0,0.0134309710047651,1.0,0.0
45.981292724609375,15.699403762817385,-2.1444406509399414,-0.0,-0.0,-1.0,0.041314163515171,1.0,0.0
45.74433517456055,17.095802307128906,-2.2438066005706787,-0.0,-0.0,-1.0,0.0088181398067842,1.0,0.0
45.767066955566406,17.320112228393555,-2.269810676574707,-0.0,-0.0,-1.0,0.0060370200223046,1.0,0.0
47.376129150390625,17.59012222290039,-2.2709414958953857,-0.0,-0.0,-1.0,0.0225908235931686,1.0,0.0
46.94432830810547,16.962373733520508,-2.176307201385498,-0.0,-0.0,-1.0,0.0546256351844675,1.0,0.0
47.061737060546875,17.314010620117188,-2.2107203006744385,-0.0,-0.0,-1.0,0.0377103052032554,2.0,0.0
46.82536697387695,16.843881607055664,-2.1533098220825195,-0.0,-0.0,-1.0,0.0595342622569158,2.0,0.0
46.6526985168457,17.679840087890625,-2.1698548793792725,-0.0,-0.0,-1.0,0.0617300999006733,1.0,0.0
46.56234359741211,17.816747665405273,-2.1642210483551025,-0.5139285675288853,0.6314599793197345,-0.5806338966984517,0.1612802969370169,3.0,0.0
46.39179229736328,15.818374633789062,-2.046844720840454,-0.0,-0.0,-1.0,0.0522182124562109,2.0,0.0
46.338829040527344,15.733060836791992,-2.035905361175537,-0.0,-0.0,-1.0,0.0770534511664668,2.0,0.0
46.0616455078125,17.3210506439209,-2.2289772033691406,-0.0,-0.0,-1.0,0.0117407551534664,1.0,0.0
45.984981536865234,17.767757415771484,-2.2301993370056152,-0.0,-0.0,-1.0,0.0455513631994499,2.0,0.0
45.853416442871094,18.049415588378903,-2.2189626693725586,-0.6712682250383333,-0.2899147024902359,-0.6821645221893936,0.2823414659999253,3.0,0.0
46.08683395385742,16.94482421875,-2.223142623901367,-0.0,-0.0,-1.0,0.0140141278305439,1.0,0.0
45.975074768066406,17.7325439453125,-2.2407970428466797,-0.0,-0.0,-1.0,0.0403990584921643,2.0,0.0
45.827754974365234,17.946613311767578,-2.226138114929199,-0.9746745400003264,-0.1485830637809183,-0.1671305305221869,0.1734768030360302,5.0,0.0
46.05421829223633,17.086158752441406,-2.231855869293213,-0.0,-0.0,-1.0,0.0129034088798157,1.0,0.0
46.0372314453125,17.370895385742188,-2.238109588623047,-0.0,-0.0,-1.0,0.0142394470368141,2.0,0.0
45.9945068359375,17.576732635498047,-2.23834228515625,-0.0,-0.0,-1.0,0.0156581155022717,1.0,0.0
45.75193786621094,18.01303482055664,-2.217118740081787,-0.0,-0.0,-1.0,0.1394316060135993,1.0,0.0
46.584022521972656,16.38273811340332,-2.011948585510254,-0.0,-0.0,-1.0,0.0927269694510921,1.0,0.0
46.36651611328125,18.041160583496097,-2.2033073902130127,-0.0,-0.0,-1.0,0.0623111507982741,2.0,0.0
46.3654899597168,17.65756607055664,-2.205573797225952,-0.0,-0.0,-1.0,0.0309811201089327,2.0,0.0
46.375640869140625,17.917646408081055,-2.2052547931671143,-0.0,-0.0,-1.0,0.0754047655396821,1.0,0.0
46.35388946533203,17.085330963134766,-2.209585666656494,-0.0,-0.0,-1.0,0.0102978546615609,2.0,0.0
46.05876922607422,16.527881622314453,-2.1745693683624268,-0.0,-0.0,-1.0,0.0269685759461102,1.0,0.0
46.11800384521485,16.73362922668457,-2.179926633834839,-0.0,-0.0,-1.0,0.0195095008719012,1.0,0.0
46.49161911010742,16.022018432617188,-2.03308367729187,-0.9477188202955557,0.1059800337971234,-0.3009938040790225,0.0831915712556542,4.0,0.0
45.90176773071289,16.049571990966797,-2.1776909828186035,-0.0,-0.0,-1.0,0.0340548768370674,1.0,0.0
45.96026611328125,15.942455291748049,-2.181324005126953,-0.0,-0.0,-1.0,0.0402171982706049,2.0,0.0
46.25154495239258,17.68728256225586,-2.294245719909668,-0.0,-0.0,-1.0,0.0136428421348858,1.0,0.0
46.34920501708984,16.726062774658203,-2.2424607276916504,-0.0,-0.0,-1.0,0.0104501287990921,1.0,0.0
45.9412727355957,15.77377223968506,-2.0456032752990723,-0.0,-0.0,-1.0,0.0404002058663354,1.0,0.0
46.25456619262695,15.67449188232422,-1.9363126754760744,-0.0,-0.0,-1.0,0.0337206197358565,1.0,0.0
46.38636779785156,17.981952667236328,-2.1765642166137695,-0.0,-0.0,-1.0,0.0709916833207783,2.0,0.0
46.50973892211914,17.905075073242188,-2.175739288330078,-0.0,-0.0,-1.0,0.144978097228111,1.0,0.0
46.59226608276367,17.771808624267578,-2.134874105453491,-0.0,-0.0,-1.0,0.1463872594554447,1.0,0.0
45.9078369140625,17.913284301757812,-2.1247975826263428,-0.0,-0.0,-1.0,0.1933888937320434,2.0,0.0
45.859107971191406,15.854656219482422,-2.253974199295044,-0.0,-0.0,-1.0,0.0390361678627035,1.0,0.0
45.58600616455078,15.870193481445312,-2.2467753887176514,-0.0,-0.0,-1.0,0.0240760415920055,1.0,0.0
46.00462341308594,16.768503189086914,-2.2256195545196533,-0.0,-0.0,-1.0,0.0178733816111698,1.0,0.0
46.149166107177734,15.830656051635742,-2.1312201023101807,-0.0,-0.0,-1.0,0.0374868040676584,2.0,0.0
46.04145431518555,16.472185134887695,-2.1949799060821533,-0.0,-0.0,-1.0,0.0331909999157302,1.0,0.0
45.7966194152832,16.8448429107666,-2.220350980758667,-0.0,-0.0,-1.0,0.0155746632241095,2.0,0.0
46.86427307128906,16.806406021118164,-2.191734313964844,-0.0,-0.0,-1.0,0.0607695687660423,2.0,0.0
46.79743194580078,17.268056869506836,-2.241790294647217,-0.0,-0.0,-1.0,0.014328734101094,2.0,0.0
46.54364776611328,17.312788009643555,-2.2312803268432617,-0.0,-0.0,-1.0,0.0081413576418079,2.0,0.0
46.53593444824219,17.739429473876953,-2.281543731689453,-0.0,-0.0,-1.0,0.0876466020291776,1.0,0.0
46.44621658325195,17.42121124267578,-2.2381420135498047,-0.0,-0.0,-1.0,0.0113301318637038,1.0,0.0
46.49564743041992,15.810352325439451,-2.0520410537719727,-0.0,-0.0,-1.0,0.1049957031566322,1.0,0.0
46.50934982299805,16.009723663330078,-2.076080322265625,-0.0,-0.0,-1.0,0.0836383128265632,2.0,0.0
46.06380081176758,16.198957443237305,-2.1458640098571777,-0.1475982117819243,-0.9088723840219368,-0.3900842953017452,0.0369096342638429,4.0,0.0
46.579193115234375,15.76089859008789,-2.002305269241333,-0.0,-0.0,-1.0,0.0943292859953768,1.0,0.0
46.79078674316406,16.12883758544922,-2.046053647994995,-0.0,-0.0,-1.0,0.0506345702561582,1.0,0.0
46.9404296875,16.444103240966797,-2.079601526260376,-0.0,-0.0,-1.0,0.0511826606232665,1.0,0.0
45.954837799072266,16.764774322509766,-2.1053876876831055,-0.0,-0.0,-1.0,0.017669074225298,1.0,0.0
45.938907623291016,16.531055450439453,-2.08211612701416,-0.0,-0.0,-1.0,0.0248258879816528,1.0,0.0
46.00213623046875,16.257572174072266,-2.067601203918457,-0.0,-0.0,-1.0,0.0325558973476684,1.0,0.0
46.21444320678711,15.95655632019043,-2.0735397338867188,-0.0,-0.0,-1.0,0.0355767669768819,2.0,0.0
46.3531494140625,15.808978080749512,-2.0819268226623535,-0.0,-0.0,-1.0,0.045247330952482,1.0,0.0
45.29285430908203,17.338245391845703,-2.2483839988708496,-0.0,-0.0,-1.0,0.0104718424518957,1.0,0.0
45.571754455566406,17.95000648498535,-2.27724027633667,-0.2866009475781766,0.9551487297560862,0.0745036971742056,0.0495668954050849,4.0,0.0
46.71843719482422,16.521554946899414,-2.0872325897216797,-0.0,-0.0,-1.0,0.0703904661126853,1.0,0.0
46.88605117797851,16.768882751464844,-2.1005773544311523,-0.0,-0.0,-1.0,0.064843713430303,2.0,0.0
47.68395233154297,17.178382873535156,-2.2334728240966797,-0.0,-0.0,-1.0,0.0108596694595751,1.0,0.0
46.500492095947266,16.098224639892578,-2.0795135498046875,-0.4141579426805643,0.8506639424084129,-0.3237963180778601,0.0846548347436005,3.0,0.0
46.56985855102539,16.349157333374023,-2.0713062286376953,-0.0,-0.0,-1.0,0.0918304984857489,1.0,0.0
47.21398162841797,17.008102416992188,-2.2311272621154785,-0.0,-0.0,-1.0,0.021909053809285,1.0,0.0
47.40738677978515,17.260725021362305,-2.2635531425476074,-0.0,-0.0,-1.0,0.0168744698397712,1.0,0.0
47.584861755371094,17.58851432800293,-2.289405345916748,-0.0,-0.0,-1.0,0.0195390911513435,1.0,0.0
46.38189697265625,15.869117736816406,-2.098071575164795,-0.0,-0.0,-1.0,0.0506370730903554,1.0,0.0
46.51226806640625,16.17534637451172,-2.111891269683838,-0.0,-0.0,-1.0,0.0319087478893918,2.0,0.0
46.64753723144531,16.411996841430664,-2.1308465003967285,-0.0,-0.0,-1.0,0.0763173460376251,1.0,0.0
46.762298583984375,16.647201538085938,-2.145470142364502,-0.0,-0.0,-1.0,0.0763877712106416,2.0,0.0
47.69956970214844,16.375274658203125,-2.2196269035339355,-0.0,-0.0,-1.0,0.0087497517967683,1.0,0.0
47.438682556152344,16.62679672241211,-2.233097553253174,-0.0,-0.0,-1.0,0.0146801908682413,1.0,0.0
47.283084869384766,16.83115577697754,-2.251626491546631,-0.0,-0.0,-1.0,0.0148526124111759,1.0,0.0
46.994163513183594,16.8872013092041,-2.2256264686584473,-0.0,-0.0,-1.0,0.0456195813140251,1.0,0.0
46.71175765991211,17.123592376708984,-2.2349162101745605,-0.0,-0.0,-1.0,0.0183482140281542,1.0,0.0
46.5529670715332,17.32284164428711,-2.253152370452881,-0.0,-0.0,-1.0,0.0079105478095145,2.0,0.0
46.210060119628906,17.61771011352539,-2.2673802375793457,-0.0,-0.0,-1.0,0.0129605510637485,2.0,0.0
45.81440734863281,17.88471221923828,-2.2705445289611816,-0.0,-0.0,-1.0,0.0860823370821587,1.0,0.0
45.49604415893555,18.09409523010254,-2.272733211517334,-0.0,-0.0,-1.0,0.0648954327404326,1.0,0.0
45.95985794067383,18.05597686767578,-2.312777042388916,-0.0,-0.0,-1.0,0.1772734555316472,1.0,0.0
45.825218200683594,17.66415786743164,-2.3054003715515137,-0.0,-0.0,-1.0,0.0226205666181493,1.0,0.0
47.592674255371094,17.68461799621582,-2.350870132446289,-0.0,-0.0,-1.0,0.0219048044856316,1.0,0.0
46.08306884765625,15.780267715454102,-2.11800479888916,-0.0,-0.0,-1.0,0.0337705792981652,2.0,0.0
46.2703742980957,16.02222442626953,-2.1461992263793945,-0.0,-0.0,-1.0,0.0384399135604749,1.0,0.0
46.418121337890625,16.34589195251465,-2.1629114151000977,-0.0,-0.0,-1.0,0.0658072584837847,2.0,0.0
46.90436172485352,17.167560577392578,-2.2295522689819336,-0.0,-0.0,-1.0,0.0399594359097849,1.0,0.0
45.9059944152832,15.681208610534668,-2.1806230545043945,-0.0,-0.0,-1.0,0.0400364613585304,1.0,0.0
46.57982635498047,16.549373626708984,-2.0155463218688965,-0.0,-0.0,-1.0,0.0569077484106023,1.0,0.0
46.511417388916016,17.689346313476562,-2.1616454124450684,-0.0,-0.0,-1.0,0.0864287381125121,2.0,0.0
46.36033630371094,18.01949119567871,-2.187882900238037,-0.3393218386350645,-0.479349889534887,-0.8093728270878703,0.0627780452343555,3.0,0.0
46.444923400878906,16.03388214111328,-1.9292569160461424,-0.0,-0.0,-1.0,0.0774460950333622,1.0,0.0
46.54865264892578,16.34659194946289,-1.9843344688415527,-0.0,-0.0,-1.0,0.0770516353228518,1.0,0.0
0.0,0.0,0.0,0.0,0.0,0.0,0.0,0.0,0.0
0.0,0.0,0.0,0.0,0.0,0.0,0.0,0.0,0.0
0.0,0.0,0.0,0.0,0.0,0.0,0.0,0.0,0.0
0.0,0.0,0.0,0.0,0.0,0.0,0.0,0.0,0.0
0.0,0.0,0.0,0.0,0.0,0.0,0.0,0.0,0.0
0.0,0.0,0.0,0.0,0.0,0.0,0.0,0.0,0.0
0.0,0.0,0.0,0.0,0.0,0.0,0.0,0.0,0.0
0.0,0.0,0.0,0.0,0.0,0.0,0.0,0.0,0.0
0.0,0.0,0.0,0.0,0.0,0.0,0.0,0.0,0.0
0.0,0.0,0.0,0.0,0.0,0.0,0.0,0.0,0.0
0.0,0.0,0.0,0.0,0.0,0.0,0.0,0.0,0.0
0.0,0.0,0.0,0.0,0.0,0.0,0.0,0.0,0.0
0.0,0.0,0.0,0.0,0.0,0.0,0.0,0.0,0.0
0.0,0.0,0.0,0.0,0.0,0.0,0.0,0.0,0.0
0.0,0.0,0.0,0.0,0.0,0.0,0.0,0.0,0.0
0.0,0.0,0.0,0.0,0.0,0.0,0.0,0.0,0.0
0.0,0.0,0.0,0.0,0.0,0.0,0.0,0.0,0.0
0.0,0.0,0.0,0.0,0.0,0.0,0.0,0.0,0.0
0.0,0.0,0.0,0.0,0.0,0.0,0.0,0.0,0.0
0.0,0.0,0.0,0.0,0.0,0.0,0.0,0.0,0.0
0.0,0.0,0.0,0.0,0.0,0.0,0.0,0.0,0.0
0.0,0.0,0.0,0.0,0.0,0.0,0.0,0.0,0.0
0.0,0.0,0.0,0.0,0.0,0.0,0.0,0.0,0.0
0.0,0.0,0.0,0.0,0.0,0.0,0.0,0.0,0.0
0.0,0.0,0.0,0.0,0.0,0.0,0.0,0.0,0.0
0.0,0.0,0.0,0.0,0.0,0.0,0.0,0.0,0.0
0.0,0.0,0.0,0.0,0.0,0.0,0.0,0.0,0.0
0.0,0.0,0.0,0.0,0.0,0.0,0.0,0.0,0.0
0.0,0.0,0.0,0.0,0.0,0.0,0.0,0.0,0.0
0.0,0.0,0.0,0.0,0.0,0.0,0.0,0.0,0.0
0.0,0.0,0.0,0.0,0.0,0.0,0.0,0.0,0.0
0.0,0.0,0.0,0.0,0.0,0.0,0.0,0.0,0.0
0.0,0.0,0.0,0.0,0.0,0.0,0.0,0.0,0.0
0.0,0.0,0.0,0.0,0.0,0.0,0.0,0.0,0.0
0.0,0.0,0.0,0.0,0.0,0.0,0.0,0.0,0.0
0.0,0.0,0.0,0.0,0.0,0.0,0.0,0.0,0.0
0.0,0.0,0.0,0.0,0.0,0.0,0.0,0.0,0.0
0.0,0.0,0.0,0.0,0.0,0.0,0.0,0.0,0.0
0.0,0.0,0.0,0.0,0.0,0.0,0.0,0.0,0.0
0.0,0.0,0.0,0.0,0.0,0.0,0.0,0.0,0.0
0.0,0.0,0.0,0.0,0.0,0.0,0.0,0.0,0.0
0.0,0.0,0.0,0.0,0.0,0.0,0.0,0.0,0.0
0.0,0.0,0.0,0.0,0.0,0.0,0.0,0.0,0.0
0.0,0.0,0.0,0.0,0.0,0.0,0.0,0.0,0.0
0.0,0.0,0.0,0.0,0.0,0.0,0.0,0.0,0.0
0.0,0.0,0.0,0.0,0.0,0.0,0.0,0.0,0.0
0.0,0.0,0.0,0.0,0.0,0.0,0.0,0.0,0.0
0.0,0.0,0.0,0.0,0.0,0.0,0.0,0.0,0.0
0.0,0.0,0.0,0.0,0.0,0.0,0.0,0.0,0.0
0.0,0.0,0.0,0.0,0.0,0.0,0.0,0.0,0.0
0.0,0.0,0.0,0.0,0.0,0.0,0.0,0.0,0.0
0.0,0.0,0.0,0.0,0.0,0.0,0.0,0.0,0.0
0.0,0.0,0.0,0.0,0.0,0.0,0.0,0.0,0.0
0.0,0.0,0.0,0.0,0.0,0.0,0.0,0.0,0.0
0.0,0.0,0.0,0.0,0.0,0.0,0.0,0.0,0.0
0.0,0.0,0.0,0.0,0.0,0.0,0.0,0.0,0.0
0.0,0.0,0.0,0.0,0.0,0.0,0.0,0.0,0.0
0.0,0.0,0.0,0.0,0.0,0.0,0.0,0.0,0.0
0.0,0.0,0.0,0.0,0.0,0.0,0.0,0.0,0.0
0.0,0.0,0.0,0.0,0.0,0.0,0.0,0.0,0.0
0.0,0.0,0.0,0.0,0.0,0.0,0.0,0.0,0.0
0.0,0.0,0.0,0.0,0.0,0.0,0.0,0.0,0.0
0.0,0.0,0.0,0.0,0.0,0.0,0.0,0.0,0.0
0.0,0.0,0.0,0.0,0.0,0.0,0.0,0.0,0.0
