x,y,z,nx,ny,nz,curvature,density,label
63.86176300048828,23.229167938232425,-3.3674511909484863,-0.0,-0.0,-1.0,0.131138568586982,1.0,0.0
63.0946159362793,23.856121063232425,-3.253167152404785,-0.0,-0.0,-1.0,0.0086624729697717,1.0,0.0
63.29177474975586,23.76970672607422,-3.3511743545532227,-0.0,-0.0,-1.0,0.1055285846865383,1.0,0.0
63.34708786010742,25.146244049072266,-3.7543814182281494,-0.0,-0.0,-1.0,0.0690868991872285,1.0,0.0
63.313438415527344,23.67198181152344,-3.639992475509643,-0.0,-0.0,-1.0,0.1293440102946638,1.0,0.0
62.764686584472656,25.379154205322266,2.1983790397644043,-0.0,-0.0,-1.0,0.0707824340627286,1.0,3.0
62.99802017211914,23.2491397857666,-3.3156373500823975,-0.0,-0.0,-1.0,0.0637825418378875,1.0,0.0
62.78137969970703,25.161924362182617,-2.8574745655059814,-0.0,-0.0,-1.0,0.0460654517847773,2.0,0.0
62.95724105834961,25.25847053527832,-0.7053742408752441,-0.0,-0.0,-1.0,0.0264184274174902,1.0,0.0
63.7668342590332,23.307762145996097,-3.413499116897583,-0.0,-0.0,-1.0,0.1244330430782327,2.0,0.0
63.05497741699219,23.667285919189453,-3.325389623641968,-0.0,-0.0,-1.0,0.0557063175402065,1.0,0.0
63.14178466796875,23.251869201660156,-3.4050114154815674,-0.0,-0.0,-1.0,0.0876090070996452,1.0,0.0
63.38069915771485,25.535236358642575,5.004566669464111,-0.0,-0.0,-1.0,0.0401877874446947,1.0,3.0
62.85563278198242,25.372150421142575,0.3317075967788696,-0.0,-0.0,-1.0,0.0375036707254272,1.0,1.0
62.74568939208984,25.355451583862305,-1.937097430229187,-0.0,-0.0,-1.0,0.0119257543413682,1.0,0.0
62.87190246582031,25.500415802001953,3.360818386077881,-0.0,-0.0,-1.0,0.07246241347633,1.0,3.0
62.76074981689453,25.52593040466309,1.4799093008041382,-0.0,-0.0,-1.0,0.0449501261239354,1.0,2.0
62.95611953735352,25.082590103149418,0.5962586402893066,-0.0,-0.0,-1.0,0.051704722131744,1.0,1.0
62.77186584472656,25.33705711364746,0.3492805957794189,-0.0,-0.0,-1.0,0.0339736907379311,2.0,1.0
62.7770881652832,25.380922317504883,0.4513065814971924,-0.0,-0.0,-1.0,0.0391441647358866,2.0,1.0
62.790428161621094,25.403528213500977,1.804419755935669,-0.0,-0.0,-1.0,0.0200100519778848,1.0,2.0
62.77388000488281,25.36197853088379,-1.0012803077697754,-0.0,-0.0,-1.0,0.0203088411228083,1.0,0.0
62.714717864990234,25.27553367614746,-1.471479892730713,-0.0,-0.0,-1.0,0.0139732979480869,1.0,0.0
62.87925338745117,25.434917449951172,2.6798415184020996,-0.0,-0.0,-1.0,0.044285073738588,1.0,3.0
63.27689743041992,25.553466796875,4.761019229888916,-0.0,-0.0,-1.0,0.0223541299520255,1.0,3.0
62.788917541503906,25.515132904052734,0.7014157772064209,-0.0,-0.0,-1.0,0.0307035299302588,1.0,1.0
62.72267150878906,25.289697647094727,-0.1958777904510498,-0.0,-0.0,-1.0,0.0310519988961617,1.0,0.0
63.07496643066406,25.520864486694336,3.8346707820892334,-0.0,-0.0,-1.0,0.0472665713234381,1.0,3.0
63.4243049621582,25.512924194335938,5.5949506759643555,-0.0,-0.0,-1.0,0.0275466453541831,1.0,3.0
63.35320281982422,25.60099220275879,5.196008682250977,-0.0,-0.0,-1.0,0.0306936725377543,1.0,3.0
63.13581848144531,25.595081329345703,3.776087999343872,-0.0,-0.0,-1.0,0.0487239109531473,2.0,3.0
62.78800201416016,25.43384552001953,1.308079481124878,-0.0,-0.0,-1.0,0.0492295167460949,1.0,2.0
62.73101806640625,25.328027725219727,-0.2437379360198974,-0.0,-0.0,-1.0,0.0316538177342152,2.0,0.0
62.77117919921875,25.47368621826172,3.021484613418579,-0.0,-0.0,-1.0,0.0537454965798789,2.0,3.0
62.78053283691406,25.06258773803711,-0.936309814453125,-0.0,-0.0,-1.0,0.0192926807798077,1.0,0.0
62.78139877319336,25.017791748046875,0.93727707862854,-0.0,-0.0,-1.0,0.0433080929101602,1.0,1.0
62.829437255859375,24.12625503540039,2.105332374572754,-0.0,-0.0,-1.0,0.0928040797338423,1.0,3.0
63.74803924560547,23.35072898864746,-3.3558058738708496,-0.0,-0.0,-1.0,0.134512824212001,1.0,0.0
64.02542114257812,23.49839782714844,-3.3937292098999023,-0.0,-0.0,-1.0,0.0478841880478987,1.0,0.0
63.99798202514648,23.318111419677734,-3.3153066635131836,-0.0,-0.0,-1.0,0.1398500728919059,1.0,0.0
62.74443054199219,25.550498962402344,0.4789943695068359,-0.0,-0.0,-1.0,0.0391441647358866,2.0,1.0
63.86181640625,23.359188079833984,-3.426919221878052,-0.0,-0.0,-1.0,0.1408329589047333,1.0,0.0
63.131629943847656,25.600587844848633,4.481406211853027,-0.0,-0.0,-1.0,0.0261479057005674,1.0,3.0
62.91398620605469,25.40661239624023,3.5082623958587646,-0.0,-0.0,-1.0,0.035657907802174,1.0,3.0
63.974517822265625,23.550207138061523,-3.336246967315674,-0.0,-0.0,-1.0,0.0494712591603368,1.0,0.0
62.72103118896485,25.473724365234375,-1.5689697265625,-0.0,-0.0,-1.0,0.0139732979480869,1.0,0.0
62.73500061035156,25.56381607055664,-0.1052083969116211,-0.0,-0.0,-1.0,0.0342244176033931,2.0,0.0
62.742225646972656,25.58502960205078,1.3594284057617188,-0.0,-0.0,-1.0,0.0308385865180748,2.0,2.0
62.892616271972656,25.562652587890625,2.8283352851867676,-0.0,-0.0,-1.0,0.0509614180991226,1.0,3.0
62.72007751464844,25.509456634521484,1.2769262790679932,-0.0,-0.0,-1.0,0.0341522523268981,1.0,2.0
62.73564910888672,25.57596969604492,2.700629234313965,-0.0,-0.0,-1.0,0.0362552907179525,2.0,3.0
63.462623596191406,24.34389877319336,-3.199110984802246,-0.0,-0.0,-1.0,0.0833430453489471,1.0,0.0
62.710960388183594,25.386558532714844,-1.7755465507507324,-0.0,-0.0,-1.0,0.0154943156540538,1.0,0.0
62.753562927246094,25.596332550048828,-0.3901436328887939,-0.0,-0.0,-1.0,0.0216499505842392,1.0,0.0
62.75758361816406,25.604419708251953,1.0069301128387451,-0.9108715794648272,-0.0058522373014355,-0.4126484181986143,0.0530920385650989,3.0,2.0
62.88648223876953,25.555316925048828,2.405400037765503,-0.0,-0.0,-1.0,0.0701843996338986,1.0,3.0
62.729248046875,25.423734664916992,-0.180896520614624,-0.7715150470445262,-0.636187278592896,0.0055026121476596,0.0334331055910908,4.0,0.0
62.71482849121094,25.431381225585938,1.1759899854660034,-0.0,-0.0,-1.0,0.0325921860905843,1.0,2.0
63.325294494628906,25.291519165039062,1.173104763031006,-0.0,-0.0,-1.0,0.0518322293311253,1.0,2.0
62.715614318847656,25.49100875854492,2.5266828536987305,-0.0,-0.0,-1.0,0.0402528651523185,1.0,3.0
63.05413818359375,25.63698387145996,3.8919081687927246,-0.0,-0.0,-1.0,0.0431868466778201,1.0,3.0
63.31501770019531,25.61879539489746,5.285499572753906,-0.0,-0.0,-1.0,0.019920583964126,1.0,3.0
63.89093017578125,25.327159881591797,5.344568252563477,-0.0,-0.0,-1.0,0.0889118844929308,1.0,3.0
62.75257873535156,25.41046142578125,-0.3096802234649658,-0.0,-0.0,-1.0,0.0380630328747116,1.0,0.0
62.74528503417969,25.416996002197266,1.0131354331970217,-0.5695909543608901,0.7699903210672513,0.2875431275009044,0.0526295878418003,3.0,2.0
62.71533966064453,25.46545791625977,2.329911708831787,-0.0,-0.0,-1.0,0.0649404701446342,1.0,3.0
63.084129333496094,25.617008209228516,3.6590170860290527,-0.0,-0.0,-1.0,0.0310611164395027,1.0,3.0
63.283668518066406,25.58533477783203,5.0116705894470215,-0.0,-0.0,-1.0,0.0329493653559862,1.0,3.0
63.693565368652344,25.40781021118164,5.0503082275390625,-0.0,-0.0,-1.0,0.0962747610847917,1.0,3.0
63.847686767578125,25.305519104003903,5.066145896911621,-0.0,-0.0,-1.0,0.0984845796023475,1.0,3.0
62.76765441894531,25.513906478881836,0.9212641716003418,-0.0,-0.0,-1.0,0.0416391828820591,2.0,1.0
62.769779205322266,25.508459091186523,2.2057628631591797,-0.0,-0.0,-1.0,0.0707824340627286,2.0,3.0
63.696346282958984,25.467266082763672,4.848896503448486,-0.0,-0.0,-1.0,0.0433384610739971,2.0,3.0
62.80149841308594,25.539474487304688,1.4520385265350342,-0.0,-0.0,-1.0,0.0468645598348318,1.0,2.0
62.75309371948242,25.53255271911621,2.6975128650665283,0.6357937529444627,0.3063099545159449,-0.708477604078799,0.0362552907179525,3.0,3.0
63.49063491821289,25.60903549194336,5.2576704025268555,-0.0,-0.0,-1.0,0.0304458491171979,1.0,3.0
63.79335403442383,25.54985237121582,5.288517951965332,-0.0,-0.0,-1.0,0.0865991307147454,2.0,3.0
62.74889373779297,25.495105743408203,1.0599312782287598,-0.6031422647389396,0.7857691508776471,-0.1370629417990307,0.0370321958592058,3.0,2.0
62.75127029418945,25.485454559326172,2.2793452739715576,-0.0,-0.0,-1.0,0.0755884789829037,1.0,3.0
63.694149017333984,25.47305679321289,4.817885398864746,-0.0,-0.0,-1.0,0.0408657254078774,2.0,3.0
63.9841194152832,25.283458709716797,4.85203218460083,-0.0,-0.0,-1.0,0.0613790409495237,1.0,3.0
62.968265533447266,23.46902656555176,-3.319859266281128,-0.0,-0.0,-1.0,0.0570539093155296,1.0,0.0
63.52074432373047,23.40261459350586,-3.384648084640503,-0.0,-0.0,-1.0,0.0456862712751926,1.0,0.0
62.939815521240234,23.813344955444336,-3.3408896923065186,-0.0,-0.0,-1.0,0.0191172088818659,1.0,0.0
63.09516906738281,23.61115074157715,-3.345924615859986,-0.0,-0.0,-1.0,0.0722433657002,1.0,0.0
62.78987884521485,25.542301177978516,1.3278216123580933,-0.0,-0.0,-1.0,0.0488012483003245,1.0,2.0
62.78587341308594,25.522552490234375,2.515491008758545,-0.0,-0.0,-1.0,0.0402528651523185,1.0,3.0
63.44749450683594,25.618465423583984,3.755435943603515,-0.0,-0.0,-1.0,0.032857493123648,1.0,3.0
63.69601058959961,25.462158203125,5.00443172454834,-0.0,-0.0,-1.0,0.0910963971268429,1.0,3.0
63.9202995300293,25.39026641845703,5.030656814575195,-0.0,-0.0,-1.0,0.0984845796023475,2.0,3.0
62.80875396728515,25.434728622436523,-0.0943384170532226,-0.0,-0.0,-1.0,0.0342244176033931,1.0,0.0
62.715309143066406,25.52700424194336,-0.0975537300109863,0.0786821316654584,-0.2431252926340147,-0.966798435165368,0.0342244176033931,3.0,0.0
62.739479064941406,25.584003448486328,1.0471832752227783,-0.9108715794648272,-0.0058522373014355,-0.4126484181986143,0.0378600583854815,3.0,2.0
62.87590408325195,25.50094223022461,2.2045161724090576,-0.0,-0.0,-1.0,0.0707824340627286,1.0,3.0
62.80224609375,25.589828491210938,3.350362777709961,-0.0,-0.0,-1.0,0.0708778350291777,1.0,3.0
63.74150848388672,25.544544219970703,4.610769748687744,-0.0,-0.0,-1.0,0.0449644827062312,1.0,3.0
63.86052703857422,23.787343978881836,-3.205430269241333,-0.0,-0.0,-1.0,0.1357533353656033,1.0,0.0
63.464847564697266,24.39561462402344,-3.2104074954986572,-0.0,-0.0,-1.0,0.1035806721894869,1.0,0.0
62.7171630859375,25.465681076049805,0.1431577205657959,-0.0,-0.0,-1.0,0.0255363635427652,1.0,1.0
62.83979034423828,25.499433517456055,1.253464698791504,-0.0,-0.0,-1.0,0.0557191318441684,1.0,2.0
62.716896057128906,25.570022583007812,2.359478235244751,-0.0,-0.0,-1.0,0.0649404701446342,1.0,3.0
63.70701599121094,25.61318588256836,4.705145835876465,-0.0,-0.0,-1.0,0.0424882716946799,1.0,3.0
64.05481719970703,23.38054847717285,-3.344470739364624,-0.0,-0.0,-1.0,0.1340292863166576,1.0,0.0
63.317100524902344,23.712448120117188,-3.273237943649292,-0.0,-0.0,-1.0,0.0496294215498921,1.0,0.0
63.680667877197266,23.632118225097656,-3.3151156902313232,-0.0,-0.0,-1.0,0.0543105183354309,2.0,0.0
62.71605682373047,25.484886169433594,-1.164982557296753,-0.0,-0.0,-1.0,0.0151899936035899,1.0,0.0
62.73883438110352,25.491167068481445,-0.0866270065307617,-0.0,-0.0,-1.0,0.0342244176033931,2.0,0.0
62.765869140625,25.484783172607425,0.9904893636703492,-0.9672832451674128,-0.1151524305754512,0.2260598180813312,0.0552112088782267,4.0,1.0
62.769493103027344,25.52462387084961,2.065964460372925,-0.0,-0.0,-1.0,0.0576434900222181,1.0,3.0
62.78132247924805,25.572837829589844,3.144653558731079,-0.0,-0.0,-1.0,0.0541091351014435,1.0,3.0
62.73484802246094,25.42313766479492,-0.7895693778991699,-0.0,-0.0,-1.0,0.0222459869622035,2.0,0.0
62.74553680419922,25.58275032043457,1.2854292392730713,-0.0,-0.0,-1.0,0.0329659662773959,1.0,2.0
62.78926086425781,25.493274688720703,1.2902450561523438,-0.0,-0.0,-1.0,0.0557191318441684,1.0,2.0
62.90068435668945,25.615333557128903,3.383211374282837,-0.0,-0.0,-1.0,0.0632266554410707,1.0,3.0
63.68367767333984,25.590572357177734,4.528009414672852,-0.0,-0.0,-1.0,0.0831395560682571,1.0,3.0
63.77193832397461,25.50680923461914,4.539533615112305,-0.0,-0.0,-1.0,0.0486565241956909,1.0,3.0
62.81207275390625,25.43641662597656,0.9479645490646362,-0.0,-0.0,-1.0,0.0449179047979478,1.0,1.0
62.73626708984375,25.495086669921875,2.948829174041748,-0.0,-0.0,-1.0,0.0384885020929827,2.0,3.0
62.88605499267578,25.23055076599121,2.9664125442504883,-0.0,-0.0,-1.0,0.0537997219760912,2.0,3.0
62.74309158325195,25.401832580566406,-0.1993312835693359,-0.7715150470445262,-0.636187278592896,0.0055026121476596,0.0310519988961617,4.0,0.0
62.75868225097656,25.42475318908691,0.7630618810653687,-0.0,-0.0,-1.0,0.032327295871699,1.0,1.0
62.849609375,25.308612823486328,1.7357442378997805,-0.0,-0.0,-1.0,0.0318895594198224,1.0,2.0
62.794795989990234,25.44727325439453,2.6921167373657227,-0.0,-0.0,-1.0,0.0462460984630896,1.0,3.0
63.32973098754883,25.585784912109375,3.7108564376831055,-0.0,-0.0,-1.0,0.0430752017779952,1.0,3.0
63.84084701538086,25.40311050415039,4.777942180633545,-0.0,-0.0,-1.0,0.0570939580502772,1.0,3.0
62.73380279541016,25.485984802246097,0.0629698038101196,-0.0,-0.0,-1.0,0.0296686143781163,2.0,1.0
62.75244140625,25.505634307861328,0.992340624332428,-0.8000778844547728,-0.5386754490818223,0.2640154150099416,0.0552112088782267,3.0,1.0
62.74253845214844,25.549379348754883,1.9202797412872312,-0.0,-0.0,-1.0,0.0373992310985609,1.0,2.0
63.902809143066406,25.51262664794922,4.8934526443481445,-0.0,-0.0,-1.0,0.0762435954053791,1.0,3.0
64.65184783935547,25.1867618560791,-3.3750030994415283,-0.0,-0.0,-1.0,0.0298379306442894,1.0,0.0
64.69778442382812,25.304298400878903,-3.393970727920532,-0.0,-0.0,-1.0,0.0359731371391385,1.0,0.0
62.74911117553711,25.39783096313477,-0.3983474969863891,-0.0,-0.0,-1.0,0.0324268042176714,1.0,0.0
62.73155975341797,25.489418029785156,0.4925563335418701,-0.0,-0.0,-1.0,0.0391441647358866,1.0,1.0
62.786415100097656,25.451072692871097,1.3896805047988892,-0.0,-0.0,-1.0,0.0481327316490391,1.0,2.0
62.76178741455078,25.537214279174805,1.3854361772537231,-0.0,-0.0,-1.0,0.0485583658192279,1.0,2.0
62.7891845703125,25.529727935791016,3.182488441467285,-0.0,-0.0,-1.0,0.0541091351014435,2.0,3.0
64.61253356933594,25.237884521484375,-3.4931647777557373,-0.0,-0.0,-1.0,0.0359731371391385,1.0,0.0
63.72532653808594,23.799468994140625,-3.199573278427124,-0.0,-0.0,-1.0,0.0480278233257965,1.0,0.0
62.72166442871094,25.44399642944336,-0.6069188117980957,-0.0,-0.0,-1.0,0.0305719629503982,1.0,0.0
62.719146728515625,25.492076873779297,0.2510137557983398,-0.0242689546557054,-0.2292463150266487,-0.9730658481760738,0.0260553270056937,3.0,1.0
62.741844177246094,25.53644371032715,1.1079277992248535,-0.0,-0.0,-1.0,0.0400427158208958,2.0,2.0
62.80535125732422,25.46512031555176,1.1120012998580933,-0.0,-0.0,-1.0,0.0400427158208958,2.0,2.0
62.77658462524414,25.529006958007812,2.831590414047241,-0.0,-0.0,-1.0,0.0414677766939866,1.0,3.0
62.970611572265625,25.233604431152344,2.852915525436402,-0.0,-0.0,-1.0,0.0614980502056836,1.0,3.0
63.38816833496094,25.62137222290039,3.76325011253357,-0.0,-0.0,-1.0,0.0431868466778201,1.0,3.0
63.779815673828125,25.479888916015625,5.625039100646973,-0.0,-0.0,-1.0,0.0437074585543407,1.0,3.0
64.73844909667969,25.254823684692383,-3.375998020172119,-0.0,-0.0,-1.0,0.0295291819805608,1.0,0.0
62.76050567626953,25.475786209106445,0.2538201808929443,-0.0242689546557054,-0.2292463150266487,-0.9730658481760738,0.0333085437365063,3.0,1.0
62.7335205078125,25.553802490234375,0.250166654586792,-0.0,-0.0,-1.0,0.0205455988171385,1.0,1.0
62.750736236572266,25.499591827392575,1.077541708946228,-0.8877488138950067,0.2351758779651843,-0.3957200397393503,0.0399209324431259,4.0,2.0
62.789268493652344,25.53211212158203,2.729785919189453,-0.0,-0.0,-1.0,0.0398601568558314,2.0,3.0
63.48052215576172,25.632570266723633,3.632681369781494,-0.0,-0.0,-1.0,0.0430752017779952,1.0,3.0
63.86431884765625,25.39977645874023,5.42190408706665,-0.0,-0.0,-1.0,0.077163126684573,1.0,3.0
63.97102355957031,23.778560638427734,-3.2023496627807617,-0.0,-0.0,-1.0,0.1294572361017152,1.0,0.0
64.66835021972656,25.205482482910156,-3.4704508781433105,-0.0,-0.0,-1.0,0.0354640957420638,1.0,0.0
64.67608642578125,25.300931930541992,-3.4820799827575684,-0.0,-0.0,-1.0,0.0359731371391385,2.0,0.0
62.72849655151367,25.455469131469727,-0.7552167177200317,-0.0,-0.0,-1.0,0.0221523788751426,2.0,0.0
62.72710037231445,25.48904800415039,0.0367047786712646,-0.0,-0.0,-1.0,0.0296331970432134,2.0,1.0
62.77808380126953,25.489805221557617,0.8275208473205566,-0.0,-0.0,-1.0,0.0380285811313552,2.0,1.0
62.75511169433594,25.56955337524414,2.4092600345611572,-0.0,-0.0,-1.0,0.0592585222313987,1.0,3.0
62.79199981689453,25.564584732055664,3.2081782817840576,-0.0,-0.0,-1.0,0.0515065697793759,2.0,3.0
64.04248809814453,25.36208724975586,5.009467601776123,-0.0,-0.0,-1.0,0.0864683374023597,1.0,3.0
63.565731048583984,25.628734588623047,5.784727573394775,-0.0,-0.0,-1.0,0.0417318312027869,1.0,3.0
64.70889282226562,25.315162658691406,-3.470475435256958,-0.0,-0.0,-1.0,0.0359731371391385,2.0,0.0
63.98885345458984,23.861644744873047,-3.1877996921539307,-0.0,-0.0,-1.0,0.1325318294900133,1.0,0.0
64.02461242675781,23.707988739013672,-3.177996873855591,-0.0,-0.0,-1.0,0.1120809553796889,1.0,0.0
63.48911666870117,24.34630966186523,-3.152026891708374,-0.0,-0.0,-1.0,0.0520096453191678,1.0,0.0
62.72776794433594,25.453346252441406,1.4497215747833252,-0.0,-0.0,-1.0,0.0449501261239354,2.0,2.0
62.73121643066406,25.555561065673828,2.2052183151245117,-0.0,-0.0,-1.0,0.0707824340627286,1.0,3.0
62.938507080078125,25.442386627197266,2.217111825942993,-0.0,-0.0,-1.0,0.0656891402189256,1.0,3.0
62.725364685058594,25.528762817382812,2.9647555351257324,-0.0,-0.0,-1.0,0.0369312592212576,2.0,3.0
62.91968536376953,25.32953643798828,2.980192184448242,-0.0,-0.0,-1.0,0.0523611404950949,1.0,3.0
63.6629638671875,25.538440704345703,4.638151168823242,-0.0,-0.0,-1.0,0.0459893986579893,1.0,3.0
62.71681594848633,25.507831573486328,0.7296848297119141,-0.0,-0.0,-1.0,0.0317193743864758,2.0,1.0
62.97270965576172,25.28600692749023,2.906266927719116,-0.0,-0.0,-1.0,0.0546435088283713,1.0,3.0
62.742340087890625,25.570327758789062,2.88931941986084,-0.0,-0.0,-1.0,0.041468052957886,1.0,3.0
62.815162658691406,25.52706527709961,2.894967555999756,-0.0,-0.0,-1.0,0.0430057258770234,1.0,3.0
63.515480041503906,25.522716522216797,5.223639965057373,-0.0,-0.0,-1.0,0.0519923688076913,2.0,3.0
63.78447723388672,25.570140838623047,5.274716377258301,-0.0,-0.0,-1.0,0.0865991307147454,2.0,3.0
63.996803283691406,23.796537399291992,-3.2904062271118164,-0.0,-0.0,-1.0,0.0568302892709707,1.0,0.0
64.01253509521484,24.122215270996097,-3.3327178955078125,-0.0,-0.0,-1.0,0.1431525305427075,1.0,0.0
64.70295715332031,24.006187438964844,-3.4565820693969727,-0.0,-0.0,-1.0,0.1326844794881689,1.0,0.0
63.86900329589844,24.527414321899418,-3.3540191650390625,-0.0,-0.0,-1.0,0.0606251747265436,1.0,0.0
64.57199096679688,24.19465446472168,-3.452932357788086,-0.0,-0.0,-1.0,0.0744592814878906,1.0,0.0
63.60898208618164,25.196317672729492,-3.3878402709960938,-0.0,-0.0,-1.0,0.0791427857907512,1.0,0.0
64.62701416015625,25.27212905883789,-3.5970535278320312,-0.0,-0.0,-1.0,0.0359731371391385,1.0,0.0
64.79654693603516,25.1019344329834,-3.6089601516723633,-0.0,-0.0,-1.0,0.0434836737103045,1.0,0.0
64.52119445800781,25.475177764892575,-3.6022238731384277,-0.0,-0.0,-1.0,0.0424528768194353,1.0,0.0
63.654258728027344,23.737234115600582,-3.21487808227539,-0.0,-0.0,-1.0,0.0557906635527068,1.0,0.0
63.52008819580078,24.13866424560547,-3.2368578910827637,-0.0,-0.0,-1.0,0.0374859097650191,1.0,0.0
62.725868225097656,25.502975463867188,0.2482784986495971,-0.0242689546557054,-0.2292463150266487,-0.9730658481760738,0.0260553270056938,3.0,1.0
62.7342414855957,25.481857299804688,0.9350975751876832,-0.0,-0.0,-1.0,0.0449179047979478,2.0,1.0
63.12354278564453,25.044509887695312,1.638492226600647,-0.0,-0.0,-1.0,0.0551944027466415,1.0,2.0
62.74723815917969,25.55782699584961,2.3067922592163086,-0.0,-0.0,-1.0,0.0791044605594907,2.0,3.0
62.86967468261719,25.404834747314453,3.0051608085632324,-0.0,-0.0,-1.0,0.0530720841705561,2.0,3.0
62.80999755859375,25.527355194091797,3.001760482788086,-0.0,-0.0,-1.0,0.0391871788950234,2.0,3.0
63.789398193359375,25.602317810058594,4.551105499267578,-0.0,-0.0,-1.0,0.0443396970805647,1.0,3.0
63.49456024169922,25.54698181152344,5.234925746917725,-0.0,-0.0,-1.0,0.0365365007156424,2.0,3.0
62.86058044433594,23.37238311767578,-3.344400405883789,-0.0,-0.0,-1.0,0.0594426676331632,1.0,0.0
63.06331634521485,23.16273498535156,-3.3613786697387695,-0.0,-0.0,-1.0,0.0651763405753203,1.0,0.0
62.73237609863281,23.602523803710938,-3.3478174209594727,-0.0,-0.0,-1.0,0.0273171389725479,1.0,0.0
62.742454528808594,25.365142822265625,-2.247201681137085,-0.0,-0.0,-1.0,0.0239065114098435,1.0,0.0
62.72127532958984,25.513751983642575,-0.2697464227676391,-0.0,-0.0,-1.0,0.0314669682283344,1.0,0.0
62.75225067138672,25.51947975158691,0.38295978307724,-0.0,-0.0,-1.0,0.0334841897377354,1.0,1.0
62.74556350708008,25.56757354736328,1.033985614776611,-0.9108715794648272,-0.0058522373014355,-0.4126484181986143,0.0527872066383447,3.0,2.0
63.012481689453125,25.135297775268555,1.7022839784622192,-0.0,-0.0,-1.0,0.0308730806629851,1.0,2.0
62.774932861328125,25.57961654663086,2.341700553894043,-0.0,-0.0,-1.0,0.0791044605594907,2.0,3.0
62.89690780639648,25.439762115478516,3.0074353218078613,-0.0,-0.0,-1.0,0.0517297479132061,2.0,3.0
62.811180114746094,25.540328979492188,3.0012683868408203,-0.0,-0.0,-1.0,0.0391871788950234,2.0,3.0
63.77942657470703,25.61932373046875,4.484303951263428,-0.0,-0.0,-1.0,0.0399669258124204,1.0,3.0
63.66444396972656,25.464656829833984,5.159557819366455,-0.0,-0.0,-1.0,0.0890400023818888,1.0,3.0
63.897125244140625,25.39781951904297,5.1994500160217285,-0.0,-0.0,-1.0,0.097679102496446,1.0,3.0
63.95353698730469,23.299142837524418,-3.363377571105957,-0.0,-0.0,-1.0,0.145907078093632,1.0,0.0
63.406402587890625,23.867263793945312,-3.2954487800598145,-0.0,-0.0,-1.0,0.0765393207932526,1.0,0.0
63.70304870605469,23.62170791625977,-3.3382272720336914,-0.0,-0.0,-1.0,0.0566521786426831,2.0,0.0
62.89188766479492,24.257644653320312,-3.2208590507507324,-0.0,-0.0,-1.0,0.0498138917274084,1.0,0.0
63.39508056640625,24.11927032470703,-3.321653366088867,-0.0,-0.0,-1.0,0.1703927133815381,1.0,0.0
63.582176208496094,24.442626953125,-3.4031028747558594,-0.0,-0.0,-1.0,0.0953782166575122,1.0,0.0
63.5853271484375,24.970245361328125,-3.4677085876464844,-0.0,-0.0,-1.0,0.0494971189515861,1.0,0.0
63.56493377685547,25.23255157470703,-3.4957141876220703,-0.0,-0.0,-1.0,0.0791427857907512,1.0,0.0
62.74714660644531,25.37640380859375,-0.7610658407211304,-0.0,-0.0,-1.0,0.0236440076703001,1.0,0.0
62.768585205078125,25.379791259765625,-0.1375895738601684,-0.0,-0.0,-1.0,0.0345958992365109,1.0,0.0
62.7656364440918,25.408184051513672,0.4842529296875,-0.9198723753795992,0.078103125803196,-0.3843627385078632,0.0391441647358866,3.0,1.0
62.78852462768555,25.421607971191406,1.104727864265442,-0.0,-0.0,-1.0,0.0399209324431258,2.0,2.0
63.05495071411133,25.033855438232425,1.7253817319869995,-0.0,-0.0,-1.0,0.0400596183521844,1.0,2.0
62.79865264892578,25.41998291015625,1.7261167764663696,-0.0,-0.0,-1.0,0.0198122546868943,1.0,2.0
62.843849182128906,25.401412963867188,2.3502516746520996,-0.0,-0.0,-1.0,0.0791044605594908,1.0,3.0
62.92987823486328,25.23011779785156,2.9745075702667236,-0.0,-0.0,-1.0,0.0511141936952708,2.0,3.0
62.79742813110352,25.476150512695312,2.9765992164611816,-0.0,-0.0,-1.0,0.0522032227685388,2.0,3.0
63.44343566894531,25.522769927978516,3.680856704711914,-0.0,-0.0,-1.0,0.0430752017779952,1.0,3.0
63.91779327392578,25.26313591003418,5.057431221008301,-0.0,-0.0,-1.0,0.0984845796023475,1.0,3.0
64.13685607910156,23.454174041748047,-3.382122755050659,-0.0,-0.0,-1.0,0.0752669494466558,1.0,0.0
63.62179183959961,24.04684829711914,-3.335045099258423,-0.0,-0.0,-1.0,0.0996775942158634,1.0,0.0
63.8531494140625,23.87131118774414,-3.3668220043182373,-0.0,-0.0,-1.0,0.1475200653759918,1.0,0.0
64.1363754272461,23.693771362304688,-3.4116952419281006,-0.0,-0.0,-1.0,0.1365014030749196,1.0,0.0
63.78218460083008,24.45446395874023,-3.426966428756714,-0.0,-0.0,-1.0,0.0841561285664989,1.0,0.0
63.85777282714844,24.748353958129883,-3.4846742153167725,-0.0,-0.0,-1.0,0.0737222343438967,1.0,0.0
63.62310791015625,25.184476852416992,-3.4916741847991943,-0.0,-0.0,-1.0,0.061766204172219,1.0,0.0
63.91318130493164,25.104461669921875,-3.5469982624053955,-0.0,-0.0,-1.0,0.0530029068976329,1.0,0.0
63.83709335327149,25.541004180908203,-3.591898202896118,-0.0,-0.0,-1.0,0.0412796717838099,1.0,0.0
63.8563117980957,25.47771644592285,-3.587117910385132,-0.0,-0.0,-1.0,0.0412796717838099,1.0,0.0
63.53755569458008,23.662450790405273,-3.265064001083374,-0.0,-0.0,-1.0,0.0492056528411889,1.0,0.0
63.790077209472656,23.657026290893555,-3.3244307041168213,-0.0,-0.0,-1.0,0.0401592913139567,1.0,0.0
63.53156280517578,23.997943878173828,-3.3072659969329834,-0.0,-0.0,-1.0,0.0775530411070226,1.0,0.0
62.72641372680664,25.394512176513672,-0.8326947689056396,-0.0,-0.0,-1.0,0.0205722878597992,1.0,0.0
62.72570037841797,25.423175811767575,-0.2297217845916748,-0.7715150470445262,-0.636187278592896,0.0055026121476596,0.0371295991346425,4.0,0.0
62.773956298828125,25.415987014770508,0.369448184967041,-0.0,-0.0,-1.0,0.0339736907379311,1.0,1.0
62.74401092529297,25.43221664428711,0.9698533415794371,-0.5695909543608901,0.7699903210672513,0.2875431275009044,0.0449179047979478,3.0,1.0
62.77881622314453,25.51380157470703,2.7758264541625977,-0.0,-0.0,-1.0,0.0436469768512291,2.0,3.0
63.520774841308594,25.5930233001709,3.4637866020202637,-0.0,-0.0,-1.0,0.0283470330852367,1.0,3.0
63.32423782348633,25.61528778076172,4.714297771453857,-0.0,-0.0,-1.0,0.0210139269231301,1.0,3.0
63.79619598388672,25.53487777709961,4.782567024230957,-0.0,-0.0,-1.0,0.0474097205282542,1.0,3.0
63.98268127441406,25.31532859802246,4.791229248046875,-0.0,-0.0,-1.0,0.0564810822917848,1.0,3.0
63.86878204345703,25.34972763061523,5.433999061584473,-0.0,-0.0,-1.0,0.077163126684573,1.0,3.0
63.25171661376953,23.79596710205078,-3.284604549407959,-0.0,-0.0,-1.0,0.0494682875174338,1.0,0.0
63.569602966308594,23.56895446777344,-3.3353400230407715,-0.0,-0.0,-1.0,0.0388559856581513,1.0,0.0
63.76559829711914,23.29763984680176,-3.35129451751709,-0.0,-0.0,-1.0,0.1244330430782327,2.0,0.0
63.120113372802734,24.175952911376953,-3.302546977996826,-0.0,-0.0,-1.0,0.0538007704067512,1.0,0.0
63.20645904541016,24.06044006347656,-3.3083348274230957,-0.0,-0.0,-1.0,0.0554861200421089,1.0,0.0
63.21912384033203,24.728940963745117,-3.4034924507141113,-0.0,-0.0,-1.0,0.0653920127863068,1.0,0.0
63.258636474609375,25.008583068847656,-3.452772617340088,-0.0,-0.0,-1.0,0.0749927840275155,1.0,0.0
63.25567626953125,24.934139251708984,-3.441420078277588,-0.0,-0.0,-1.0,0.0758379558366696,1.0,0.0
62.894771575927734,25.491382598876953,0.8141942620277405,-0.0,-0.0,-1.0,0.0353729827780859,1.0,1.0
62.8162956237793,25.48092269897461,2.582974433898926,-0.0,-0.0,-1.0,0.0517667440469447,1.0,3.0
62.91536331176758,25.481590270996097,2.5878138542175293,-0.0,-0.0,-1.0,0.0462735573055777,1.0,3.0
63.92267990112305,25.246713638305664,5.225900173187256,-0.0,-0.0,-1.0,0.0878941479181653,1.0,3.0
63.40746307373047,25.591108322143555,-3.523172378540039,-0.0,-0.0,-1.0,0.1223620787612574,1.0,0.0
63.471492767333984,25.56835174560547,-3.532104015350342,-0.0,-0.0,-1.0,0.1240085003470381,1.0,0.0
63.5399055480957,25.290847778320312,-3.4953670501708984,-0.0,-0.0,-1.0,0.0791427857907512,1.0,0.0
63.72742462158203,24.96294593811035,-3.4757080078125,-0.0,-0.0,-1.0,0.0590797683764105,1.0,0.0
62.84389877319336,25.311031341552734,-2.1001739501953125,-0.0,-0.0,-1.0,0.0119257543413682,1.0,0.0
62.75371551513672,24.11463928222656,-3.3145856857299805,-0.0,-0.0,-1.0,0.0621404376891877,1.0,0.0
63.10860061645508,23.783145904541016,-3.3209872245788574,-0.0,-0.0,-1.0,0.0448794275731479,1.0,0.0
62.94593048095703,23.908966064453125,-3.313316822052002,-0.0,-0.0,-1.0,0.0621404376891876,1.0,0.0
64.2944107055664,25.314481735229492,-4.018389701843262,-0.0,-0.0,-1.0,0.0526575636868231,1.0,0.0
63.40901184082031,25.104848861694336,-3.7675745487213135,-0.0,-0.0,-1.0,0.0899396223829406,1.0,0.0
63.60829544067383,24.444923400878903,-3.7725117206573486,-0.0,-0.0,-1.0,0.1110366847693349,1.0,0.0
63.58051300048828,24.058080673217773,-3.7383687496185303,-0.0,-0.0,-1.0,0.1977909553602932,1.0,0.0
63.251338958740234,24.06343460083008,-3.6497957706451416,-0.0,-0.0,-1.0,0.1592402109892057,1.0,0.0
63.82828521728515,23.69244956970215,-3.7819879055023193,-0.0,-0.0,-1.0,0.1610723011160819,1.0,0.0
63.42253112792969,23.84979248046875,-3.6817448139190674,-0.0,-0.0,-1.0,0.2134962589530512,1.0,0.0
63.76045227050781,23.24271011352539,-3.735316038131714,-0.0,-0.0,-1.0,0.1624883178335623,1.0,0.0
62.74893951416016,23.199548721313477,-3.3024396896362305,-0.0,-0.0,-1.0,0.0594426676331633,1.0,0.0
62.7314338684082,25.428245544433594,1.467470407485962,-0.0,-0.0,-1.0,0.0449501261239354,2.0,2.0
62.75095748901367,25.482568740844727,2.184202194213867,-0.0,-0.0,-1.0,0.0707824340627285,2.0,3.0
62.7755012512207,25.488191604614254,2.9039199352264404,-0.0,-0.0,-1.0,0.0430057258770234,1.0,3.0
63.80815887451172,25.37691116333008,5.211723327636719,-0.0,-0.0,-1.0,0.0994602404875137,1.0,3.0
63.56681442260742,25.458070755004883,5.190549373626709,-0.0,-0.0,-1.0,0.0585329053598626,1.0,3.0
63.239933013916016,23.17330741882324,-3.3479130268096924,-0.0,-0.0,-1.0,0.0528136682291504,1.0,0.0
62.88979721069336,23.45228576660156,-3.3287885189056396,-0.0,-0.0,-1.0,0.0554989674374608,1.0,0.0
62.81694412231445,25.1954345703125,-2.867609739303589,-0.0,-0.0,-1.0,0.0503562580126183,2.0,0.0
62.8199348449707,25.211254119873047,-2.1366660594940186,-0.0,-0.0,-1.0,0.0144232949821808,1.0,0.0
62.87401580810547,25.26948928833008,-1.4223449230194092,-0.0,-0.0,-1.0,0.0139732979480869,1.0,0.0
62.884864807128906,25.289531707763672,-0.7035031318664551,-0.0,-0.0,-1.0,0.0264184274174902,1.0,0.0
62.9346809387207,25.301021575927734,0.011038064956665,-0.0,-0.0,-1.0,0.0311461586640273,1.0,1.0
62.94263458251953,25.32846450805664,1.4400238990783691,-0.0,-0.0,-1.0,0.0355229564379238,1.0,2.0
63.015525817871094,25.51631736755371,2.1604557037353516,-0.0,-0.0,-1.0,0.0585459593703084,1.0,3.0
62.755096435546875,25.573938369750977,2.1495473384857178,-0.0,-0.0,-1.0,0.0665676139105086,2.0,3.0
62.98018264770508,25.35089111328125,2.8755393028259277,-0.0,-0.0,-1.0,0.0557022573532764,1.0,3.0
63.19983673095703,25.508197784423828,3.628446578979492,-0.0,-0.0,-1.0,0.0308059078006378,1.0,3.0
63.51129913330078,25.512794494628903,4.405285835266113,-0.0,-0.0,-1.0,0.0461199554227727,1.0,3.0
63.351531982421875,25.559097290039062,4.389047622680664,-0.0,-0.0,-1.0,0.0291231132836019,1.0,3.0
63.98992156982422,25.38212203979492,5.219300270080566,-0.0,-0.0,-1.0,0.0856461023684121,1.0,3.0
63.82958984375,25.22243881225586,5.1783647537231445,-0.0,-0.0,-1.0,0.0954247622073762,1.0,3.0
63.49720764160156,25.51608657836914,5.157279968261719,-0.0,-0.0,-1.0,0.0536251624093591,1.0,3.0
62.81478500366211,24.17688369750977,-3.35176157951355,-0.0,-0.0,-1.0,0.0526668314062998,1.0,0.0
63.74540710449219,23.294036865234375,-3.407625913619995,-0.0,-0.0,-1.0,0.1244330430782327,2.0,0.0
63.52010726928711,23.482213973999023,-3.388854742050171,-0.0,-0.0,-1.0,0.0880815489553194,2.0,0.0
63.19780349731445,23.66326332092285,-3.351818323135376,-0.0,-0.0,-1.0,0.0595657160418951,1.0,0.0
62.903526306152344,23.942874908447266,-3.335232973098755,-0.0,-0.0,-1.0,0.0621404376891876,1.0,0.0
62.71696472167969,25.43280029296875,0.1888291835784912,-0.0,-0.0,-1.0,0.0263165948693299,1.0,1.0
62.748626708984375,25.45713996887207,1.6407556533813477,-0.0,-0.0,-1.0,0.0271368035585273,2.0,2.0
62.7748908996582,25.48951530456543,2.3701090812683105,-0.0,-0.0,-1.0,0.0649404701446342,1.0,3.0
62.788211822509766,25.497264862060547,3.1027872562408447,-0.0,-0.0,-1.0,0.0397861252931944,1.0,3.0
62.76839447021485,23.568286895751953,-3.5478615760803223,-0.0,-0.0,-1.0,0.0554704982776512,1.0,0.0
62.86669158935547,23.30128288269043,-3.5501012802124023,-0.0,-0.0,-1.0,0.0930106850635682,1.0,0.0
62.86081314086914,25.23858070373535,-0.6553744077682495,-0.0,-0.0,-1.0,0.0281728757600195,1.0,0.0
62.76206970214844,25.48376083374023,1.5940101146697998,-0.0,-0.0,-1.0,0.0288922699101279,1.0,2.0
62.917755126953125,25.292985916137695,1.578842282295227,-0.0,-0.0,-1.0,0.0200082117567994,1.0,2.0
62.80512237548828,25.42333221435547,1.58936870098114,-0.0,-0.0,-1.0,0.0288922699101279,1.0,2.0
62.81143951416016,25.45377540588379,2.3371362686157227,-0.0,-0.0,-1.0,0.0791044605594907,2.0,3.0
63.19773864746094,25.61120223999023,3.879971504211426,-0.0,-0.0,-1.0,0.0431868466778201,1.0,3.0
62.779415130615234,23.57984161376953,-3.3686306476593018,-0.0,-0.0,-1.0,0.0299939604256091,1.0,0.0
62.90690612792969,23.36216163635254,-3.3703649044036865,-0.0,-0.0,-1.0,0.0603510701029326,1.0,0.0
62.77709197998047,24.99102783203125,-0.3687918186187744,-0.0,-0.0,-1.0,0.0331186554176734,1.0,0.0
63.326759338378906,25.19890594482422,4.267230033874512,-0.0,-0.0,-1.0,0.0268809298761561,1.0,3.0
62.82337951660156,24.620506286621097,-1.9685063362121584,-0.0,-0.0,-1.0,0.0216797172936658,1.0,0.0
62.93479919433594,24.50173568725586,-1.9605979919433592,-0.0,-0.0,-1.0,0.0218391778661373,1.0,0.0
62.929595947265625,24.562026977539062,-0.4513401985168457,-0.0,-0.0,-1.0,0.0292719521844339,1.0,0.0
62.71736145019531,25.551992416381836,3.2319984436035156,-0.0,-0.0,-1.0,0.0498237347635391,1.0,3.0
62.7232551574707,25.49474716186523,1.1605291366577148,-0.0,-0.0,-1.0,0.0371444491123618,2.0,2.0
62.71792984008789,25.568111419677734,2.5936977863311768,-0.0,-0.0,-1.0,0.0471306720201982,1.0,3.0
63.79460906982422,23.32083511352539,-3.373879909515381,-0.0,-0.0,-1.0,0.1282654367897361,2.0,0.0
62.85054016113281,23.86370086669922,-3.344749927520752,-0.0,-0.0,-1.0,0.019117208881866,1.0,0.0
63.73706817626953,23.598575592041016,-3.3961782455444336,-0.0,-0.0,-1.0,0.0306729122403113,1.0,0.0
62.724327087402344,25.499126434326172,0.7154041528701782,-0.0,-0.0,-1.0,0.0313864251338252,2.0,1.0
62.73673248291016,25.581071853637695,2.1097512245178223,-0.0,-0.0,-1.0,0.0643495564626524,2.0,3.0
63.84627532958984,25.43894386291504,5.040588855743408,-0.0,-0.0,-1.0,0.1021151050338567,1.0,3.0
62.732025146484375,25.587717056274418,1.5612059831619265,-0.0,-0.0,-1.0,0.0288922699101279,1.0,2.0
62.81208801269531,25.5010986328125,2.9518914222717285,-0.0,-0.0,-1.0,0.0386259492034112,2.0,3.0
63.763427734375,23.82523727416992,-3.2554407119750977,-0.0,-0.0,-1.0,0.0582427221348605,1.0,0.0
62.81024169921875,25.408740997314453,0.5179128646850586,-0.0,-0.0,-1.0,0.0467999703530681,2.0,1.0
62.72059631347656,25.56155776977539,0.5120550990104675,-0.0,-0.0,-1.0,0.0302513447702656,2.0,1.0
63.8614387512207,23.203285217285156,-3.280247449874878,-0.0,-0.0,-1.0,0.129779003286284,1.0,0.0
63.691253662109375,23.8077392578125,-3.311126470565796,-0.0,-0.0,-1.0,0.0428190863012347,1.0,0.0
63.13953399658203,24.086212158203125,-3.2758023738861084,-0.0,-0.0,-1.0,0.0535773059662359,1.0,0.0
63.30347442626953,24.032743453979492,-3.2886531352996826,-0.0,-0.0,-1.0,0.0601715102300958,1.0,0.0
63.705474853515625,24.077640533447266,-3.3347432613372803,-0.0,-0.0,-1.0,0.101553352825391,1.0,0.0
63.8939323425293,24.703828811645508,-3.406407117843628,-0.0,-0.0,-1.0,0.0737222343438967,1.0,0.0
62.92127227783203,23.289390563964844,-3.371504545211792,-0.0,-0.0,-1.0,0.0603510701029326,1.0,0.0
63.22751235961914,23.262969970703125,-3.4069974422454834,-0.0,-0.0,-1.0,0.0872080398445331,1.0,0.0
62.79339218139648,25.49395179748535,0.8687820434570312,-0.0,-0.0,-1.0,0.0367924196883031,2.0,1.0
62.7338981628418,25.294544219970703,-1.51986563205719,-0.0,-0.0,-1.0,0.0139732979480869,1.0,0.0
62.823692321777344,25.377269744873047,0.6253194212913513,-0.0,-0.0,-1.0,0.0283881379567324,1.0,1.0
63.71350860595703,25.351226806640625,5.025517463684082,-0.0,-0.0,-1.0,0.0985006350352788,1.0,3.0
63.99384307861328,25.266456604003903,5.0479960441589355,-0.0,-0.0,-1.0,0.0984845796023475,1.0,3.0
63.3170280456543,25.62440299987793,5.004188060760498,-0.0,-0.0,-1.0,0.0329493653559862,1.0,3.0
63.868690490722656,25.571964263916016,5.055327892303467,-0.0,-0.0,-1.0,0.1017652883920165,1.0,3.0
63.9378662109375,25.36193084716797,5.048561096191406,-0.0,-0.0,-1.0,0.0984845796023475,2.0,3.0
63.229515075683594,23.58482551574707,-3.339147567749023,-0.0,-0.0,-1.0,0.0795195398095713,1.0,0.0
63.529197692871094,23.455169677734375,-3.3699917793273926,-0.0,-0.0,-1.0,0.0823600957292148,2.0,0.0
63.03385162353515,23.957557678222656,-3.341224670410156,-0.0,-0.0,-1.0,0.0798300995800759,1.0,0.0
63.23016357421875,23.765363693237305,-3.352844715118408,-0.0,-0.0,-1.0,0.0937506701336122,1.0,0.0
63.94208908081055,23.92387962341309,-2.7757320404052734,-0.0,-0.0,-1.0,0.1252863140531593,1.0,0.0
64.0505599975586,24.105167388916016,1.8784568309783936,-0.0,-0.0,-1.0,0.0945020363874234,1.0,2.0
62.858497619628906,25.11350440979004,-1.998752474784851,-0.0,-0.0,-1.0,0.0133796809123711,2.0,0.0
62.90593338012695,25.40195655822754,3.0753936767578125,-0.0,-0.0,-1.0,0.0444635227986785,1.0,3.0
62.81235122680664,25.38318634033203,-1.309535026550293,-0.0,-0.0,-1.0,0.0120678649865818,1.0,0.0
62.75109100341797,25.395994186401367,1.764291763305664,-0.0,-0.0,-1.0,0.0172441211468974,1.0,2.0
62.82113265991211,25.409765243530273,3.3044557571411133,-0.0,-0.0,-1.0,0.047776782572207,1.0,3.0
62.71967697143555,25.489030838012695,1.4916611909866333,-0.0,-0.0,-1.0,0.0449501261239354,1.0,2.0
62.76125717163086,25.506742477416992,3.004122257232666,-0.0,-0.0,-1.0,0.0391871788950234,2.0,3.0
62.775630950927734,25.498367309570312,0.3251368999481201,-0.0,-0.0,-1.0,0.0326785783568699,1.0,1.0
62.93119812011719,25.486860275268555,3.3348135948181152,-0.0,-0.0,-1.0,0.0642257609263459,1.0,3.0
63.32167053222656,25.61507797241211,4.8825364112854,-0.0,-0.0,-1.0,0.0232025685189974,2.0,3.0
62.723358154296875,25.42205238342285,-0.1804760694503784,-0.7715150470445262,-0.636187278592896,0.0055026121476596,0.0334331055910908,4.0,0.0
62.724884033203125,25.457565307617188,1.3028419017791748,-0.0,-0.0,-1.0,0.0523500025200661,1.0,2.0
62.789276123046875,25.470230102539062,2.7907843589782715,-0.8320360612044592,-0.3480314374682028,-0.4319607752900551,0.0479631212659429,3.0,3.0
62.843482971191406,25.4913330078125,1.8887786865234375,-0.0,-0.0,-1.0,0.0337164575728676,1.0,2.0
62.771507263183594,25.451879501342773,3.363529920578003,-0.0,-0.0,-1.0,0.0708778350291777,2.0,3.0
63.28258514404297,25.59767723083496,4.883721351623535,-0.0,-0.0,-1.0,0.0232025685189974,2.0,3.0
62.81190490722656,25.465593338012695,0.6089200973510742,-0.0,-0.0,-1.0,0.0308235017283564,1.0,1.0
62.71038436889648,25.48174476623535,2.0759401321411133,-0.0,-0.0,-1.0,0.0576434900222181,1.0,3.0
63.458194732666016,23.706104278564453,-3.319638729095459,-0.0,-0.0,-1.0,0.11772975988756,1.0,0.0
62.79427337646485,25.449567794799805,-0.4746617078781128,-0.0,-0.0,-1.0,0.0294865913993634,1.0,0.0
62.76307678222656,25.437639236450195,0.9930999279022216,-0.9277754564862892,0.3247205087173166,0.1838186431242069,0.0552112088782267,4.0,1.0
62.76651382446289,25.50068092346191,2.4571056365966797,-0.0,-0.0,-1.0,0.0540386093761695,1.0,3.0
62.71173095703125,25.496543884277344,1.1735354661941528,-0.0,-0.0,-1.0,0.0325921860905843,2.0,2.0
62.74625015258789,25.444992065429688,2.63447904586792,-0.0,-0.0,-1.0,0.0447682961662103,2.0,3.0
63.3365478515625,25.605541229248047,5.631762504577637,-0.0,-0.0,-1.0,0.019663838194346,1.0,3.0
63.70140075683594,25.459285736083984,5.679373264312744,-0.0,-0.0,-1.0,0.0335485607262185,1.0,3.0
62.73133087158203,25.40430450439453,1.2320184707641602,-0.0,-0.0,-1.0,0.0320609962878697,1.0,2.0
62.74234771728515,25.47397232055664,2.6731081008911133,-0.0,-0.0,-1.0,0.0368276147786356,2.0,3.0
62.849945068359375,25.50792694091797,3.223830223083496,-0.0,-0.0,-1.0,0.047776782572207,1.0,3.0
62.731388092041016,25.382747650146484,0.235559344291687,-0.0,-0.0,-1.0,0.0333085437365063,1.0,1.0
62.74813461303711,25.468894958496097,1.6410112380981443,-0.0,-0.0,-1.0,0.0271368035585273,2.0,2.0
62.82484817504883,25.518028259277344,3.0558695793151855,-0.0,-0.0,-1.0,0.0402060076991782,1.0,3.0
62.74527740478515,25.390172958374023,-0.0414087772369384,-0.0,-0.0,-1.0,0.0302462742092991,1.0,0.0
63.342376708984375,25.58329391479492,4.848140239715576,-0.0,-0.0,-1.0,0.0232025685189974,1.0,3.0
62.763816833496094,25.501663208007812,3.2811012268066406,-0.0,-0.0,-1.0,0.0473075975518179,1.0,3.0
62.718902587890625,25.604360580444336,3.3517675399780273,-0.0,-0.0,-1.0,0.0708778350291776,1.0,3.0
63.09208679199219,25.108386993408203,-2.475135564804077,-0.0,-0.0,-1.0,0.0366437639547972,1.0,0.0
63.226959228515625,25.21541976928711,1.997907280921936,-0.0,-0.0,-1.0,0.0360588544749456,1.0,2.0
62.94775390625,25.2657413482666,-1.5424561500549316,-0.0,-0.0,-1.0,0.0130316863495558,1.0,0.0
63.40663146972656,25.168800354003903,2.6148505210876465,-0.0,-0.0,-1.0,0.0758865342924855,1.0,3.0
62.82813262939453,25.285934448242188,-0.2237493991851806,-0.0,-0.0,-1.0,0.0316538177342152,1.0,0.0
62.86357879638672,25.48488426208496,-0.6439032554626465,-0.0,-0.0,-1.0,0.0268176673127737,1.0,0.0
63.45980453491211,25.561933517456055,5.796891689300537,-0.0,-0.0,-1.0,0.0301517557734629,1.0,3.0
62.72943115234375,25.352304458618164,-0.891951322555542,-0.0,-0.0,-1.0,0.0189677614080245,1.0,0.0
62.86381149291992,25.39872932434082,0.7029449939727783,-0.0,-0.0,-1.0,0.0317288756582538,1.0,1.0
62.85759735107422,25.26531219482422,-1.6001052856445312,-0.0,-0.0,-1.0,0.0174395315337396,1.0,0.0
62.89319610595703,25.31427001953125,0.4834485054016113,-0.0,-0.0,-1.0,0.0312393229594257,1.0,1.0
63.51679992675781,25.611841201782227,6.059664726257324,-0.0,-0.0,-1.0,0.0417318312027869,1.0,3.0
62.743595123291016,25.35226249694824,-0.4615511894226074,-0.0,-0.0,-1.0,0.0337435204711305,1.0,0.0
62.75455474853515,25.371828079223633,0.5033864974975586,-0.856909020932876,0.4191200995758706,0.3000754438060077,0.0391441647358866,3.0,1.0
62.7752685546875,25.39019012451172,0.5368912220001221,-0.5217656425750041,0.8417327402396305,-0.1387321456511629,0.044213299598525,3.0,1.0
62.847434997558594,25.4887638092041,0.2289743423461914,-0.0,-0.0,-1.0,0.0299591523862771,1.0,1.0
62.805870056152344,25.37142562866211,0.3464903831481933,-0.0,-0.0,-1.0,0.0339736907379311,2.0,1.0
62.72764205932617,25.394729614257812,0.573284387588501,-0.0,-0.0,-1.0,0.0327037739330848,1.0,1.0
63.31165313720703,25.5755615234375,5.2168498039245605,-0.0,-0.0,-1.0,0.0306936725377543,1.0,3.0
62.77708053588867,25.46327781677246,3.31943416595459,-0.0,-0.0,-1.0,0.047776782572207,2.0,3.0
62.94211196899414,25.423255920410156,3.4203882217407227,-0.0,-0.0,-1.0,0.0504041036624796,1.0,3.0
62.902565002441406,24.80328369140625,2.872004985809326,-0.0,-0.0,-1.0,0.1228933412065607,1.0,3.0
62.71058654785156,25.598106384277344,2.40802001953125,-0.0,-0.0,-1.0,0.0533057987354779,1.0,3.0
62.734153747558594,25.34101104736328,-0.2726564407348633,-0.0,-0.0,-1.0,0.0370459132544049,2.0,0.0
62.78020858764648,25.355709075927734,0.065645694732666,-0.0,-0.0,-1.0,0.0311785386060326,1.0,1.0
62.88526153564453,23.164127349853516,-3.3895974159240723,-0.0,-0.0,-1.0,0.0612934326713355,1.0,0.0
62.7847900390625,25.175065994262695,-1.1722254753112793,-0.0,-0.0,-1.0,0.0163522679474313,1.0,0.0
63.35960388183594,23.155590057373047,-3.393129825592041,-0.0,-0.0,-1.0,0.0857268551308046,1.0,0.0
63.10274124145508,23.396320343017575,-3.3603577613830566,-0.0,-0.0,-1.0,0.0649372371043933,1.0,0.0
62.77073287963867,24.939367294311523,0.7891840934753418,-0.0,-0.0,-1.0,0.0464434561323945,1.0,1.0
63.2606315612793,23.307092666625977,-3.156461238861084,-0.0,-0.0,-1.0,0.0484380078396386,1.0,0.0
63.20081329345703,23.258228302001953,-3.126918315887451,-0.0,-0.0,-1.0,0.0577763225549075,1.0,0.0
64.04609680175781,25.023176193237305,-3.480534076690674,-0.0,-0.0,-1.0,0.0513799822962877,1.0,0.0
63.79119491577149,23.17421531677246,-3.137209415435791,-0.0,-0.0,-1.0,0.0767542843084098,1.0,0.0
63.6235466003418,23.34967803955078,-3.1512093544006348,-0.0,-0.0,-1.0,0.0758373459290505,1.0,0.0
63.621192932128906,23.841014862060547,-3.235292911529541,-0.0,-0.0,-1.0,0.0377079702674718,1.0,0.0
62.86152648925781,25.141477584838867,-2.002845287322998,-0.0,-0.0,-1.0,0.0133796809123711,2.0,0.0
62.864498138427734,25.197776794433594,-0.4751162528991699,-0.0,-0.0,-1.0,0.0336193253457092,1.0,0.0
62.95195388793945,25.15521240234375,0.7222781181335449,-0.0,-0.0,-1.0,0.0458787579033899,1.0,1.0
62.75722885131836,25.591981887817383,1.3482903242111206,-0.0,-0.0,-1.0,0.0324801394835276,2.0,2.0
0.0,0.0,0.0,0.0,0.0,0.0,0.0,0.0,0.0
0.0,0.0,0.0,0.0,0.0,0.0,0.0,0.0,0.0
0.0,0.0,0.0,0.0,0.0,0.0,0.0,0.0,0.0
0.0,0.0,0.0,0.0,0.0,0.0,0.0,0.0,0.0
0.0,0.0,0.0,0.0,0.0,0.0,0.0,0.0,0.0
0.0,0.0,0.0,0.0,0.0,0.0,0.0,0.0,0.0
0.0,0.0,0.0,0.0,0.0,0.0,0.0,0.0,0.0
0.0,0.0,0.0,0.0,0.0,0.0,0.0,0.0,0.0
0.0,0.0,0.0,0.0,0.0,0.0,0.0,0.0,0.0
0.0,0.0,0.0,0.0,0.0,0.0,0.0,0.0,0.0
0.0,0.0,0.0,0.0,0.0,0.0,0.0,0.0,0.0
0.0,0.0,0.0,0.0,0.0,0.0,0.0,0.0,0.0
0.0,0.0,0.0,0.0,0.0,0.0,0.0,0.0,0.0
0.0,0.0,0.0,0.0,0.0,0.0,0.0,0.0,0.0
0.0,0.0,0.0,0.0,0.0,0.0,0.0,0.0,0.0
0.0,0.0,0.0,0.0,0.0,0.0,0.0,0.0,0.0
0.0,0.0,0.0,0.0,0.0,0.0,0.0,0.0,0.0
0.0,0.0,0.0,0.0,0.0,0.0,0.0,0.0,0.0
0.0,0.0,0.0,0.0,0.0,0.0,0.0,0.0,0.0
0.0,0.0,0.0,0.0,0.0,0.0,0.0,0.0,0.0
0.0,0.0,0.0,0.0,0.0,0.0,0.0,0.0,0.0
0.0,0.0,0.0,0.0,0.0,0.0,0.0,0.0,0.0
0.0,0.0,0.0,0.0,0.0,0.0,0.0,0.0,0.0
0.0,0.0,0.0,0.0,0.0,0.0,0.0,0.0,0.0
0.0,0.0,0.0,0.0,0.0,0.0,0.0,0.0,0.0
0.0,0.0,0.0,0.0,0.0,0.0,0.0,0.0,0.0
0.0,0.0,0.0,0.0,0.0,0.0,0.0,0.0,0.0
0.0,0.0,0.0,0.0,0.0,0.0,0.0,0.0,0.0
0.0,0.0,0.0,0.0,0.0,0.0,0.0,0.0,0.0
0.0,0.0,0.0,0.0,0.0,0.0,0.0,0.0,0.0
0.0,0.0,0.0,0.0,0.0,0.0,0.0,0.0,0.0
0.0,0.0,0.0,0.0,0.0,0.0,0.0,0.0,0.0
0.0,0.0,0.0,0.0,0.0,0.0,0.0,0.0,0.0
0.0,0.0,0.0,0.0,0.0,0.0,0.0,0.0,0.0
0.0,0.0,0.0,0.0,0.0,0.0,0.0,0.0,0.0
0.0,0.0,0.0,0.0,0.0,0.0,0.0,0.0,0.0
0.0,0.0,0.0,0.0,0.0,0.0,0.0,0.0,0.0
0.0,0.0,0.0,0.0,0.0,0.0,0.0,0.0,0.0
0.0,0.0,0.0,0.0,0.0,0.0,0.0,0.0,0.0
0.0,0.0,0.0,0.0,0.0,0.0,0.0,0.0,0.0
0.0,0.0,0.0,0.0,0.0,0.0,0.0,0.0,0.0
0.0,0.0,0.0,0.0,0.0,0.0,0.0,0.0,0.0
0.0,0.0,0.0,0.0,0.0,0.0,0.0,0.0,0.0
0.0,0.0,0.0,0.0,0.0,0.0,0.0,0.0,0.0
0.0,0.0,0.0,0.0,0.0,0.0,0.0,0.0,0.0
0.0,0.0,0.0,0.0,0.0,0.0,0.0,0.0,0.0
0.0,0.0,0.0,0.0,0.0,0.0,0.0,0.0,0.0
0.0,0.0,0.0,0.0,0.0,0.0,0.0,0.0,0.0
0.0,0.0,0.0,0.0,0.0,0.0,0.0,0.0,0.0
0.0,0.0,0.0,0.0,0.0,0.0,0.0,0.0,0.0
0.0,0.0,0.0,0.0,0.0,0.0,0.0,0.0,0.0
0.0,0.0,0.0,0.0,0.0,0.0,0.0,0.0,0.0
0.0,0.0,0.0,0.0,0.0,0.0,0.0,0.0,0.0
0.0,0.0,0.0,0.0,0.0,0.0,0.0,0.0,0.0
0.0,0.0,0.0,0.0,0.0,0.0,0.0,0.0,0.0
0.0,0.0,0.0,0.0,0.0,0.0,0.0,0.0,0.0
0.0,0.0,0.0,0.0,0.0,0.0,0.0,0.0,0.0
0.0,0.0,0.0,0.0,0.0,0.0,0.0,0.0,0.0
0.0,0.0,0.0,0.0,0.0,0.0,0.0,0.0,0.0
0.0,0.0,0.0,0.0,0.0,0.0,0.0,0.0,0.0
0.0,0.0,0.0,0.0,0.0,0.0,0.0,0.0,0.0
0.0,0.0,0.0,0.0,0.0,0.0,0.0,0.0,0.0
0.0,0.0,0.0,0.0,0.0,0.0,0.0,0.0,0.0
0.0,0.0,0.0,0.0,0.0,0.0,0.0,0.0,0.0
0.0,0.0,0.0,0.0,0.0,0.0,0.0,0.0,0.0
0.0,0.0,0.0,0.0,0.0,0.0,0.0,0.0,0.0
0.0,0.0,0.0,0.0,0.0,0.0,0.0,0.0,0.0
0.0,0.0,0.0,0.0,0.0,0.0,0.0,0.0,0.0
0.0,0.0,0.0,0.0,0.0,0.0,0.0,0.0,0.0
0.0,0.0,0.0,0.0,0.0,0.0,0.0,0.0,0.0
0.0,0.0,0.0,0.0,0.0,0.0,0.0,0.0,0.0
0.0,0.0,0.0,0.0,0.0,0.0,0.0,0.0,0.0
0.0,0.0,0.0,0.0,0.0,0.0,0.0,0.0,0.0
0.0,0.0,0.0,0.0,0.0,0.0,0.0,0.0,0.0
0.0,0.0,0.0,0.0,0.0,0.0,0.0,0.0,0.0
0.0,0.0,0.0,0.0,0.0,0.0,0.0,0.0,0.0
0.0,0.0,0.0,0.0,0.0,0.0,0.0,0.0,0.0
0.0,0.0,0.0,0.0,0.0,0.0,0.0,0.0,0.0
0.0,0.0,0.0,0.0,0.0,0.0,0.0,0.0,0.0
0.0,0.0,0.0,0.0,0.0,0.0,0.0,0.0,0.0
0.0,0.0,0.0,0.0,0.0,0.0,0.0,0.0,0.0
0.0,0.0,0.0,0.0,0.0,0.0,0.0,0.0,0.0
0.0,0.0,0.0,0.0,0.0,0.0,0.0,0.0,0.0
0.0,0.0,0.0,0.0,0.0,0.0,0.0,0.0,0.0
0.0,0.0,0.0,0.0,0.0,0.0,0.0,0.0,0.0
0.0,0.0,0.0,0.0,0.0,0.0,0.0,0.0,0.0
0.0,0.0,0.0,0.0,0.0,0.0,0.0,0.0,0.0
0.0,0.0,0.0,0.0,0.0,0.0,0.0,0.0,0.0
0.0,0.0,0.0,0.0,0.0,0.0,0.0,0.0,0.0
0.0,0.0,0.0,0.0,0.0,0.0,0.0,0.0,0.0
0.0,0.0,0.0,0.0,0.0,0.0,0.0,0.0,0.0
0.0,0.0,0.0,0.0,0.0,0.0,0.0,0.0,0.0
0.0,0.0,0.0,0.0,0.0,0.0,0.0,0.0,0.0
0.0,0.0,0.0,0.0,0.0,0.0,0.0,0.0,0.0
0.0,0.0,0.0,0.0,0.0,0.0,0.0,0.0,0.0
0.0,0.0,0.0,0.0,0.0,0.0,0.0,0.0,0.0
0.0,0.0,0.0,0.0,0.0,0.0,0.0,0.0,0.0
0.0,0.0,0.0,0.0,0.0,0.0,0.0,0.0,0.0
0.0,0.0,0.0,0.0,0.0,0.0,0.0,0.0,0.0
0.0,0.0,0.0,0.0,0.0,0.0,0.0,0.0,0.0
0.0,0.0,0.0,0.0,0.0,0.0,0.0,0.0,0.0
0.0,0.0,0.0,0.0,0.0,0.0,0.0,0.0,0.0
0.0,0.0,0.0,0.0,0.0,0.0,0.0,0.0,0.0
0.0,0.0,0.0,0.0,0.0,0.0,0.0,0.0,0.0
0.0,0.0,0.0,0.0,0.0,0.0,0.0,0.0,0.0
0.0,0.0,0.0,0.0,0.0,0.0,0.0,0.0,0.0
0.0,0.0,0.0,0.0,0.0,0.0,0.0,0.0,0.0
0.0,0.0,0.0,0.0,0.0,0.0,0.0,0.0,0.0
0.0,0.0,0.0,0.0,0.0,0.0,0.0,0.0,0.0
