x,y,z,nx,ny,nz,curvature,density,label
8.762748718261719,4.281133651733398,0.0964467525482177,-0.0785711899655359,0.9034500052051512,-0.4214316744173501,0.0586604426029309,3.0,1.0
9.118755340576172,4.18889045715332,0.0815353393554687,-0.0058935375383958,-0.9341357578927504,-0.3568692366139461,0.1350287042078098,3.0,1.0
9.293658256530762,4.094575881958008,0.0671660900115966,-0.0,-0.0,-1.0,0.1131440848080154,1.0,1.0
9.558088302612305,4.291826248168945,0.0912950038909912,-0.9552048165265006,-0.2100799329623586,0.2084470682238197,0.0436420935322475,3.0,1.0
9.72148323059082,3.982522964477539,0.0468127727508544,-0.0,-0.0,-1.0,0.1085717709453903,2.0,1.0
10.133811950683594,4.075254440307617,0.0536596775054931,-0.0,-0.0,-1.0,0.0587731651722549,1.0,1.0
9.889728546142578,5.299432754516602,0.2253181934356689,-0.0,-0.0,-1.0,0.1330782025726022,2.0,1.0
8.265562057495117,4.018646240234375,0.7552071809768677,-0.4564277576957857,-0.8888195634894386,0.0409082578856798,0.1542585607801643,4.0,1.0
7.934205055236816,4.72684383392334,0.1618900299072265,-0.6712276414889353,-0.1297860313547443,-0.7298006846847892,0.1545952208181383,7.0,1.0
8.325239181518555,4.685787200927734,0.1623773574829101,-0.0,-0.0,-1.0,0.2344259784439873,2.0,1.0
8.237417221069336,4.292865753173828,0.109421968460083,-0.0,-0.0,-1.0,0.1968803763407762,2.0,1.0
8.327679634094238,4.053361892700195,0.0787525177001953,0.4439852667695748,0.0920095428613018,-0.8912975523998726,0.1700521876175835,4.0,1.0
8.530759811401367,4.565799713134766,0.1491737365722656,-0.2226178576400133,0.8625408874048456,-0.4543836561922447,0.1769321667692032,5.0,1.0
8.744441032409668,4.287864685058594,0.1142897605895996,-0.0785711899655359,0.9034500052051512,-0.4214316744173501,0.0715488612965485,3.0,1.0
9.020411491394045,4.208782196044922,0.1059839725494384,-0.0,-0.0,-1.0,0.0996476626936151,1.0,1.0
9.157461166381836,4.129230499267578,0.0960900783538818,-0.0,-0.0,-1.0,0.1271633222848165,1.0,1.0
9.579903602600098,4.059881210327148,0.088353157043457,-0.0,-0.0,-1.0,0.0888598760966961,1.0,1.0
9.80436897277832,3.789241790771485,0.051443338394165,-0.0,-0.0,-1.0,0.0549139656635673,1.0,1.0
10.109790802001951,4.024927139282227,0.0839514732360839,-0.0,-0.0,-1.0,0.0514370460310771,2.0,1.0
8.043065071105957,5.335695266723633,0.2427654266357422,-0.0,-0.0,-1.0,0.1886767575691639,2.0,1.0
9.796429634094238,5.306421279907227,0.2596373558044433,-0.0,-0.0,-1.0,0.1820685581807809,1.0,1.0
9.210861206054688,5.559154510498047,-0.0769071578979492,-0.0,-0.0,-1.0,0.0771055639457487,2.0,0.0
9.6611909866333,5.393505096435547,-0.0935866832733154,-0.0,-0.0,-1.0,0.1328360461456603,2.0,0.0
10.019161224365234,5.418272018432617,-0.0830576419830322,-0.0,-0.0,-1.0,0.0772663580904994,1.0,0.0
8.131035804748535,4.132242202758789,0.3023109436035156,-0.3089788909445717,-0.9303213903905896,-0.1975706342865306,0.1739355165636165,6.0,1.0
8.241155624389648,4.075884819030762,0.2961163520812988,-0.0,-0.0,-1.0,0.2157099186100239,2.0,1.0
8.306591987609863,4.600894927978516,0.3647413253784179,-0.0,-0.0,-1.0,0.1351833659773523,1.0,1.0
8.637662887573242,3.440767288208008,0.2149801254272461,-0.0,-0.0,-1.0,0.0967656982780228,1.0,1.0
8.702946662902832,4.626010894775391,0.3719406127929687,-0.0,-0.0,-1.0,0.2368067558870573,1.0,1.0
9.017830848693848,4.63053035736084,0.3747484683990478,-0.0,-0.0,-1.0,0.2163965833228406,2.0,1.0
8.141695022583008,4.1369428634643555,0.2214717864990234,0.2843400677403943,-0.7383763721688842,-0.6115153791198594,0.1723292638836918,4.0,1.0
8.134307861328125,4.296968460083008,0.2410459518432617,-0.0,-0.0,-1.0,0.1826201637297388,2.0,1.0
8.393378257751465,4.145216941833496,0.2293472290039062,-0.0,-0.0,-1.0,0.2231661467327727,2.0,1.0
8.51086711883545,5.108835220336914,0.352052092552185,-0.0,-0.0,-1.0,0.1811655381166918,1.0,1.0
9.899288177490234,5.545162200927734,-0.1148114204406738,-0.0,-0.0,-1.0,0.0680895525380624,1.0,0.0
10.194906234741213,5.384142875671387,-0.1303248405456543,-0.0,-0.0,-1.0,0.0685389100666095,1.0,0.0
8.418078422546387,4.1470489501953125,0.8510144948959351,0.9583530351914966,0.1265960762223099,-0.2559939323975495,0.1719388232191905,3.0,1.0
8.517631530761719,5.413966178894043,-0.0396039485931396,-0.9486605562949408,0.31604768458588,-0.012530363046512,0.0430037438591937,4.0,0.0
8.635656356811523,5.135229110717773,-0.0703101158142089,-0.2676872975421754,-0.5231693685100132,-0.8090966089333218,0.0858414109969629,3.0,0.0
8.680835723876953,5.6272735595703125,-0.000598669052124,-0.0,-0.0,-1.0,0.0300450584060525,1.0,0.0
9.065406799316406,5.214093208312988,-0.0348410606384277,-0.4855684625693248,-0.2128684574242393,-0.8478857753211143,0.0667932545628108,6.0,0.0
9.346253395080566,5.093194007873535,-0.0367281436920166,-0.0,-0.0,-1.0,0.0566968730029665,1.0,0.0
9.543634414672852,5.050403594970703,-0.032827615737915,-0.0,-0.0,-1.0,0.0955949029879325,1.0,0.0
9.805419921875,4.842558860778809,-0.0506000518798828,-0.6044224474853632,0.1810744564163391,-0.7758128293662917,0.0549691235155114,3.0,0.0
10.083011627197266,4.661920547485352,-0.064967393875122,-0.0,-0.0,-1.0,0.0408064558444879,2.0,0.0
8.088677406311035,4.182111740112305,0.3896533250808716,-0.0,-0.0,-1.0,0.2035941796570907,1.0,1.0
8.192120552062988,3.953547477722168,0.368746280670166,-0.0,-0.0,-1.0,0.2339801898138173,2.0,1.0
8.206570625305176,4.141119003295898,0.389716625213623,-0.0,-0.0,-1.0,0.2688272232702315,2.0,1.0
8.315727233886719,4.032234191894531,0.3818697929382324,-0.0,-0.0,-1.0,0.16267875024771,1.0,1.0
8.738697052001953,4.577976226806641,0.4569897651672363,-0.0,-0.0,-1.0,0.1352046743763138,1.0,1.0
7.931007385253906,5.570344924926758,0.0176568031311035,-0.0,-0.0,-1.0,0.0697707747582871,1.0,1.0
8.288866996765137,5.336915016174316,0.0150535106658935,-0.0,-0.0,-1.0,0.0562514909524943,2.0,1.0
8.396150588989258,4.982649803161621,-0.022083044052124,-0.0,-0.0,-1.0,0.0441116294196381,1.0,0.0
8.741905212402344,4.904682159423828,-0.0095751285552978,-0.0,-0.0,-1.0,0.0712723088290761,2.0,0.0
9.062180519104004,4.9437103271484375,0.0153095722198486,-0.0,-0.0,-1.0,0.0784722959159651,1.0,1.0
9.268760681152344,4.802933692932129,0.0087988376617431,-0.0,-0.0,-1.0,0.0561896030532999,2.0,1.0
9.657629013061523,4.517782211303711,-0.0085856914520263,-0.1753656372825273,-0.5831849096014552,-0.7931848803864304,0.034071513628339,3.0,0.0
9.922433853149414,4.258851051330566,-0.031278371810913,-0.7654799706906825,-0.6048196702495778,-0.2196214492042694,0.0356295881423131,3.0,0.0
10.124008178710938,4.128042221069336,-0.0403392314910888,-0.0,-0.0,-1.0,0.0529069057755652,1.0,0.0
8.09142017364502,3.919651985168457,0.4480997323989868,0.1111996531863458,-0.0114058440540152,-0.993732631975348,0.2005464412559915,6.0,1.0
8.239118576049805,4.212088584899902,0.4838097095489502,-0.0,-0.0,-1.0,0.1968623464550883,1.0,1.0
8.273308753967285,3.893564224243164,0.4530661106109619,-0.0,-0.0,-1.0,0.1497347148739332,2.0,1.0
9.983327865600586,5.379301071166992,0.1261107921600341,-0.0,-0.0,-1.0,0.167181911082417,2.0,1.0
7.880484580993652,4.138155937194824,0.1950080394744873,-0.0,-0.0,-1.0,0.1298278907458339,1.0,1.0
8.17678451538086,4.02269172668457,0.2017602920532226,-0.0,-0.0,-1.0,0.2046603086710815,2.0,1.0
7.87043571472168,4.716611862182617,0.2540132999420166,-0.0,-0.0,-1.0,0.1687303911996419,2.0,1.0
8.226014137268066,4.2238006591796875,0.226264476776123,-0.0,-0.0,-1.0,0.2627793021972272,1.0,1.0
8.481185913085938,4.769787788391113,0.3003113269805908,-0.2257718808788383,0.5352091763941393,0.8139890633834945,0.1681846463120617,3.0,1.0
9.318022727966309,5.569528579711914,-0.1164429187774658,-0.0,-0.0,-1.0,0.1165782031459037,1.0,0.0
9.590840339660645,5.340956687927246,-0.1243839263916015,-0.0,-0.0,-1.0,0.1148052021525986,2.0,0.0
10.073631286621094,5.160486221313477,-0.1114950180053711,-0.0,-0.0,-1.0,0.0486665227855649,1.0,0.0
9.910207748413086,5.441377639770508,-0.0847773551940918,0.3558872820288071,-0.6580902396085021,-0.6635220260263953,0.1474451347821988,5.0,0.0
10.108373641967772,5.232173919677734,-0.0988368988037109,-0.0,-0.0,-1.0,0.0730260580119382,2.0,0.0
8.421313285827637,5.047252655029297,0.3252615928649902,0.8947020273429821,-0.1907511034576386,0.4038840165171818,0.2264238460976562,5.0,1.0
8.298746109008789,4.161564826965332,0.8355367183685303,0.7543081317348204,-0.5692421325614407,0.3270820033502731,0.1632928458920682,6.0,1.0
8.257725715637207,3.718064308166504,0.0476436614990234,0.2752118692293882,-0.6429103065474102,-0.7147900144590583,0.1171545449964308,3.0,1.0
8.347734451293945,3.636024475097656,0.0471863746643066,0.5148183130961187,-0.8404510779018398,-0.1691274376158459,0.1107139257833194,3.0,1.0
8.706807136535645,3.4157581329345703,0.0544092655181884,-0.0,-0.0,-1.0,0.1484778103646296,2.0,1.0
7.985462188720703,4.136385917663574,0.0639958381652832,-0.0,-0.0,-1.0,0.2739566098199215,2.0,1.0
8.497289657592773,3.7165660858154297,0.0677390098571777,-0.0,-0.0,-1.0,0.1398503509995977,1.0,1.0
8.774909973144531,3.6323862075805664,0.082061767578125,-0.0,-0.0,-1.0,0.0778234456165728,2.0,1.0
8.065735816955566,4.310947418212891,0.0876040458679199,-0.0,-0.0,-1.0,0.1964843936955091,2.0,1.0
8.317594528198242,4.164506912231445,0.0961289405822753,0.4135106349908672,-0.8528708636674526,-0.3187793039966419,0.1953673004334892,4.0,1.0
8.761954307556152,3.8441162109375,0.1024589538574218,-0.6266449659755304,0.094767235379896,-0.7735213363029991,0.0929789685008454,6.0,1.0
7.822770118713379,4.854662895202637,0.1142816543579101,-0.0,-0.0,-1.0,0.0819409668275396,2.0,1.0
8.178776741027832,4.685600280761719,0.1326062679290771,-0.0,-0.0,-1.0,0.2330740010353149,2.0,1.0
8.00013542175293,5.323019027709961,0.1724812984466552,-0.0,-0.0,-1.0,0.1850014555893669,1.0,1.0
10.070484161376951,5.581229209899902,-0.1556930541992187,-0.0,-0.0,-1.0,0.0520676194647636,1.0,0.0
8.177990913391113,3.9985036849975586,0.6900850534439087,-0.1567781262027518,-0.987616271041608,-0.0058923949479578,0.2562432294153302,3.0,1.0
9.812560081481934,4.244525909423828,-0.0209426879882812,-0.646493110823654,0.6176992529527151,-0.4477658881147741,0.0293394892469245,3.0,0.0
9.955670356750488,4.14694881439209,-0.0146176815032958,0.0279389555137618,0.9935542945107751,-0.1098602686324579,0.0339546978419872,3.0,0.0
9.492449760437012,4.663935661315918,-0.0184369087219238,0.5749895511809325,-0.553267803290368,-0.6027285905571437,0.0632229308798335,3.0,0.0
9.700201034545898,4.505775451660156,-0.0091700553894042,0.0191074255885512,0.1160802669075214,-0.9930560295985604,0.0389127976258496,3.0,0.0
8.569079399108887,5.394208908081055,-0.0686969757080078,-0.0,-0.0,-1.0,0.0333034802529085,1.0,0.0
8.830883026123047,5.2500505447387695,-0.0474624633789062,-0.0,-0.0,-1.0,0.0620354550272248,2.0,0.0
9.175121307373049,5.10672664642334,-0.0174877643585205,0.3106265926062037,0.1533397835954929,-0.938082102341126,0.0439607930313,3.0,0.0
9.491267204284668,4.906590461730957,0.002821922302246,-0.9797491522730876,0.093379384022648,-0.1771211146637159,0.0471055805004045,4.0,1.0
9.761178016662598,5.344952583312988,0.0722866058349609,-0.0,-0.0,-1.0,0.2484317163511776,1.0,1.0
7.857236862182617,3.5878734588623047,0.3551821708679199,-0.0,-0.0,-1.0,0.0602637710133253,1.0,1.0
8.09091854095459,4.001855850219727,0.4016361236572265,-0.9122821197481285,-0.2077006650517082,-0.3529897558356888,0.2818199090407766,5.0,1.0
8.044824600219727,4.266230583190918,0.4125711917877197,-0.0,-0.0,-1.0,0.1678786931531005,2.0,1.0
8.381305694580078,3.23793888092041,0.0395550727844238,-0.0,-0.0,-1.0,0.0372124533767865,1.0,1.0
8.609148025512695,3.2798118591308594,0.0670161247253418,-0.0,-0.0,-1.0,0.1257081934499336,2.0,1.0
8.258811950683594,3.709144592285156,0.0560846328735351,0.2752118692293882,-0.6429103065474102,-0.7147900144590583,0.1160206297276806,3.0,1.0
8.223881721496582,3.8606443405151367,0.0615272521972656,-0.0,-0.0,-1.0,0.1732868293721216,1.0,1.0
8.439949989318848,3.7055063247680664,0.0760664939880371,-0.0,-0.0,-1.0,0.1236830298509339,1.0,1.0
8.383011817932129,4.085662841796875,0.0932583808898925,-0.0,-0.0,-1.0,0.1969245495732036,2.0,1.0
8.758354187011719,3.798147201538086,0.1171374320983886,-0.9247784488719464,-0.2408414829953275,-0.2945847935155657,0.0931358854859735,6.0,1.0
8.290298461914062,4.3352203369140625,0.0975191593170166,-0.0,-0.0,-1.0,0.20890895389011,1.0,1.0
8.227973937988281,4.359224319458008,0.2628133296966553,-0.0,-0.0,-1.0,0.2208712580433525,1.0,1.0
8.306270599365234,3.603032112121582,0.2682716846466064,-0.0,-0.0,-1.0,0.1302416799073505,1.0,1.0
8.143524169921875,4.189781188964844,0.4747765064239502,-0.1721987790677374,-0.979603143820237,-0.1035628365056132,0.2752211191605505,4.0,1.0
8.147029876708984,3.9688234329223633,0.4763251543045044,-0.0,-0.0,-1.0,0.1800160957875003,2.0,1.0
8.243453979492188,4.801364421844482,0.2123348712921142,0.8438821200231876,-0.2983427249990585,0.4459311448478414,0.1427078943882911,3.0,1.0
8.209259033203125,4.136868953704834,0.2155244350433349,0.203806636727799,-0.9738912101899184,0.0999938275120995,0.1971570913283395,3.0,1.0
9.710247039794922,4.824702262878418,0.0025410652160644,-0.0,-0.0,-1.0,0.0306403770788634,1.0,1.0
9.285175323486328,5.100195407867432,-0.0012750625610351,0.0171050743396535,-0.0456992657888878,-0.998808787275218,0.0518408220494595,3.0,0.0
9.051483154296877,5.198855400085449,-0.0049704313278198,-0.5263957783244918,-0.4816083127640738,-0.7006860335690263,0.0698397786116709,4.0,0.0
9.920215606689451,4.253475666046143,-0.008743405342102,-0.0,-0.0,-1.0,0.0356295881423131,2.0,0.0
9.16775894165039,4.519038200378418,-0.0220506191253662,-0.0,-0.0,-1.0,0.0405239566035806,1.0,0.0
8.783767700195312,4.867968559265137,-0.0224683284759521,-0.0,-0.0,-1.0,0.0681100448386518,2.0,0.0
8.135238647460938,5.2511162757873535,-0.0294656753540039,-0.967854227411488,0.1557707059152961,0.197468178855132,0.0617194876034422,3.0,0.0
7.79705810546875,5.403127193450928,-0.0345702171325683,-0.0,-0.0,-1.0,0.0550103300462119,1.0,0.0
8.308082580566406,3.887425422668457,0.7244442105293274,-0.0,-0.0,-1.0,0.1548933709680383,1.0,1.0
7.827018737792969,4.021183013916016,0.4285067319869995,0.3409878383905595,-0.9398903473775704,-0.0182600376835311,0.209266722273728,3.0,1.0
8.05416488647461,3.8973073959350586,0.456470787525177,-0.233623681194429,-0.0758310516966512,-0.969365579739524,0.250277372816107,5.0,1.0
8.963703155517578,4.526165962219238,0.4107228517532348,0.6212359599304023,0.7695525319854524,0.1478336315055913,0.2776321772533944,3.0,1.0
8.034809112548828,4.162187576293945,0.3829985857009887,-0.0545722535642024,-0.7739004064477207,0.6309516859799782,0.2204753580435515,4.0,1.0
8.073226928710938,3.834332466125488,0.3741689920425415,-0.5152650529165245,0.5041607955228335,-0.6930539787785037,0.2274477699013811,5.0,1.0
8.010086059570312,4.016866683959961,0.3783087730407715,-0.5535310551267867,-0.3017698246662379,-0.7762334339173583,0.2476437934430669,4.0,1.0
9.957319259643556,5.299622535705566,0.3022018671035766,-0.0,-0.0,-1.0,0.1047203896177068,1.0,1.0
8.422231674194336,4.983059883117676,0.2554267644882202,-0.0,-0.0,-1.0,0.1958570675635405,2.0,1.0
8.495195388793945,4.642406463623047,0.2455623149871826,-0.3002407743768525,0.8769627107813194,0.3752224424267128,0.1864351006840649,3.0,1.0
8.247661590576172,4.145651817321777,0.2227934598922729,-0.2727587067025793,-0.9367278315778124,0.2194166298744606,0.2243991049466626,5.0,1.0
8.195903778076172,3.8806943893432617,0.2124884128570556,-0.0,-0.0,-1.0,0.1527195502957201,2.0,1.0
10.170228958129885,5.632176399230957,-0.1470235586166381,-0.0,-0.0,-1.0,0.0580032969803051,1.0,0.0
8.398300170898438,4.055655479431152,0.85694420337677,-0.0,-0.0,-1.0,0.1719388232191905,1.0,1.0
10.00309944152832,5.315732002258301,-0.0545964241027832,-0.9248452243173844,0.3011707304239825,0.2322875420534041,0.1576275469768023,3.0,0.0
9.641572952270508,5.620277404785156,-0.0608115196228027,0.1918897106767351,0.9802697735756356,0.047428999044579,0.1603798153911808,6.0,0.0
9.636075973510742,5.349806785583496,-0.0686092376708984,-0.4271990431895082,-0.5335901756569833,-0.7299195174403262,0.1376397818898712,3.0,0.0
9.51934814453125,5.602579116821289,0.0243926048278808,-0.8041419365753478,0.5824757719864606,-0.1186495718054895,0.1215282331594162,3.0,1.0
9.911872863769531,5.272943496704102,0.0267319679260253,0.0598191547553285,0.762150749048305,-0.6446300523939801,0.1982235526364568,8.0,1.0
8.532569885253906,5.4750518798828125,-0.0155993700027465,-0.0,-0.0,-1.0,0.0416110138793031,2.0,0.0
9.666244506835938,4.713057518005371,-0.0021512508392333,-0.0,-0.0,-1.0,0.0531553014622254,2.0,0.0
9.476205825805664,4.950284957885742,-0.000425100326538,-0.1255622939033985,-0.1164947748897242,-0.9852223494080458,0.0441099209034786,3.0,0.0
8.965314865112305,5.136689186096191,-0.0120723247528076,-0.0,-0.0,-1.0,0.0767296204393727,1.0,0.0
9.71619987487793,4.518350601196289,-0.0073922872543334,-0.0,-0.0,-1.0,0.0408112240515965,2.0,0.0
8.991619110107422,4.579988479614258,0.3620301485061645,-0.4984775426641544,0.6248763761809264,-0.6008740749528967,0.2241104902079487,3.0,1.0
8.365686416625977,4.643550872802734,0.3503495454788208,-0.0,-0.0,-1.0,0.1673283886079311,1.0,1.0
8.147546768188477,4.121159553527832,0.3292931914329529,0.0304416638249438,-0.854873910825648,-0.5179419868027992,0.1779893840017032,5.0,1.0
8.189838409423828,3.811138153076172,0.3204799890518188,0.3249792002431863,0.7043584659118836,-0.6310845196228132,0.2434602864514745,4.0,1.0
8.102882385253906,3.9412546157836914,0.3226808309555053,0.1511225687880144,0.7899337005918278,-0.5942783168450726,0.1911945589984668,6.0,1.0
8.599905014038086,4.562345504760742,0.2045707702636718,-0.0,-0.0,-1.0,0.2360663228096567,2.0,1.0
8.331090927124023,4.606049537658691,0.1981964111328125,-0.0,-0.0,-1.0,0.2551700839085694,1.0,1.0
8.034526824951172,4.691939353942871,0.1924171447753906,0.4951634654444996,-0.7838796916119111,-0.3746275104252345,0.0917086440072945,3.0,1.0
8.461328506469727,3.967209815979004,0.1803174018859863,-0.0,-0.0,-1.0,0.19708315421462,1.0,1.0
8.314146041870117,4.06302547454834,0.1793006658554077,0.8635405540922165,0.1052272440402652,-0.4931784043830369,0.2507301722586391,3.0,1.0
8.356456756591797,3.702106475830078,0.1682119369506836,-0.0,-0.0,-1.0,0.1487909806976049,2.0,1.0
8.628339767456055,4.5377655029296875,0.4594950079917907,-0.7278948518602821,-0.6197480956265713,-0.2933962893469107,0.2131893002810981,3.0,1.0
8.236539840698242,4.561293601989746,0.4516375660896301,-0.0,-0.0,-1.0,0.1719184752637679,1.0,1.0
8.079883575439453,4.015171051025391,0.4327853918075561,0.4092112738044779,-0.7776041732284847,0.4773655655459039,0.2474428554546822,3.0,1.0
9.973222732543944,5.290841102600098,0.1584019660949707,-0.0,-0.0,-1.0,0.1430472995552756,2.0,1.0
8.161590576171875,5.361205101013184,0.0991586446762085,-0.4091667399501674,-0.0294782622800666,-0.9119833391962264,0.1815952482176205,5.0,1.0
7.864902496337891,5.5216064453125,0.0946122407913208,-0.0,-0.0,-1.0,0.1338570718557669,2.0,1.0
9.07749366760254,4.698457717895508,0.1066709756851196,-0.0,-0.0,-1.0,0.1081658187375473,2.0,1.0
8.543561935424805,4.785107612609863,0.0916810035705566,0.7601114982357987,0.4214316611922504,0.4945966692108528,0.1212480697559255,3.0,1.0
7.95777702331543,5.069719314575195,0.081884741783142,-0.0,-0.0,-1.0,0.0772086733078098,1.0,1.0
9.53493881225586,4.17684268951416,0.1031755208969116,-0.0,-0.0,-1.0,0.0504421321133825,1.0,1.0
9.20145034790039,4.207239151000977,0.0930444002151489,-0.5241180067704309,-0.7946474708342727,0.3063261531043079,0.1214243657444124,3.0,1.0
8.962148666381836,4.3868513107299805,0.0914912223815918,-0.0,-0.0,-1.0,0.0934590667395831,2.0,1.0
8.61244010925293,4.716813087463379,0.0915650129318237,-0.0,-0.0,-1.0,0.1263461444176202,2.0,1.0
8.155023574829102,4.803330421447754,0.0791226625442504,-0.0,-0.0,-1.0,0.2193810257736663,2.0,1.0
7.973133087158203,4.922961235046387,0.0772074460983276,-0.0,-0.0,-1.0,0.0893016064729605,2.0,1.0
9.56003189086914,3.987131118774414,0.0970778465270996,-0.0,-0.0,-1.0,0.1116279049208406,2.0,1.0
9.155332565307615,4.185163497924805,0.0906869173049926,-0.0,-0.0,-1.0,0.1434833932888249,2.0,1.0
9.85586166381836,5.326790809631348,0.2524938583374023,-0.0,-0.0,-1.0,0.1308460036798319,1.0,1.0
9.139801025390623,4.561575889587402,0.2132934331893921,-0.0,-0.0,-1.0,0.0571107114168097,1.0,1.0
7.713008880615234,5.115883827209473,0.1604930162429809,-0.0,-0.0,-1.0,0.0222768656850693,2.0,1.0
8.533475875854492,4.568849563598633,0.1881781816482544,0.8617785845466143,0.4967992512191511,-0.1026068964783784,0.2109844606430009,6.0,1.0
8.140283584594727,4.6797990798950195,0.1731535196304321,0.7610279563867216,0.3921064206108697,-0.5168065445730944,0.2057609920088369,4.0,1.0
7.776819229125977,4.799813270568848,0.159420371055603,-0.0,-0.0,-1.0,0.141373302542714,1.0,1.0
8.312288284301758,4.046540260314941,0.1725304126739502,0.964809202603902,-0.087585205389075,-0.2479355447848823,0.2357775855186376,4.0,1.0
8.546960830688477,3.626747131347656,0.1769602298736572,-0.0,-0.0,-1.0,0.1275093063468734,1.0,1.0
8.316232681274414,3.7044620513916016,0.1684005260467529,-0.0585339916460674,-0.9882022888021024,-0.1415274115790447,0.1780343559104401,3.0,1.0
9.908885955810549,5.305185317993164,0.1725329160690307,-0.0917546284790245,-0.9115368230021096,-0.4008512298395714,0.1745767181169718,8.0,1.0
8.113079071044922,5.375923156738281,0.1093584299087524,-0.4705296404221832,-0.744423687582185,-0.473745956025708,0.1464322062254716,5.0,1.0
7.80457878112793,5.555122375488281,0.1039208173751831,-0.0,-0.0,-1.0,0.1341965846202079,1.0,1.0
8.052295684814453,5.2532958984375,0.103086233139038,-0.0,-0.0,-1.0,0.1745353697879164,1.0,1.0
7.81623649597168,4.985409736633301,0.0855909585952758,-0.0,-0.0,-1.0,0.0300616862957916,2.0,1.0
8.87022590637207,4.484228134155273,0.1072332859039306,-0.0,-0.0,-1.0,0.0767390063506903,2.0,1.0
8.466567993164062,4.746016502380371,0.1013542413711547,-0.3646509416688132,-0.1122634229204522,-0.9243519971386612,0.1801966784753007,4.0,1.0
7.982120513916016,4.826268196105957,0.086371898651123,-0.0,-0.0,-1.0,0.0893267261138449,2.0,1.0
9.524682998657228,3.991421699523926,0.1141513586044311,-0.0,-0.0,-1.0,0.0996988164636907,2.0,1.0
9.222249984741213,4.150393486022949,0.108672022819519,-0.6456404910827582,-0.4895124374488545,-0.5861108511683567,0.1325658522156475,3.0,1.0
8.899213790893555,4.25587272644043,0.1005781888961792,-0.0,-0.0,-1.0,0.0790067738735903,1.0,1.0
8.972824096679688,4.549861907958984,0.3462922573089599,-0.5179090885016139,0.6270654265811338,-0.5818583391462633,0.2147149699808554,3.0,1.0
8.37216567993164,4.284395217895508,0.3212050199508667,0.705037448764461,-0.2360932805414649,-0.6687168000901947,0.1728906869008691,3.0,1.0
8.173799514770508,3.8186731338500977,0.3004661202430725,0.3249792002431863,0.7043584659118836,-0.6310845196228132,0.2090617389878166,4.0,1.0
8.300573348999023,4.533998489379883,0.3795516490936279,-0.0,-0.0,-1.0,0.154048450558412,1.0,1.0
8.223264694213867,4.199830055236816,0.3648847341537475,-0.0,-0.0,-1.0,0.1998839156011814,2.0,1.0
8.086690902709961,3.825746536254883,0.3473472595214844,-0.9534862388110784,-0.0091129640655069,-0.3012987658186531,0.2661188894974904,5.0,1.0
8.959539413452148,4.532808303833008,0.3936430811882019,0.566702968131407,0.7990807751163856,-0.2007925814128845,0.2776321772533944,4.0,1.0
8.58004379272461,4.5213823318481445,0.3850681781768799,-0.0,-0.0,-1.0,0.1754364283177132,1.0,1.0
9.019979476928713,4.532283782958984,0.3702867031097412,-0.0,-0.0,-1.0,0.1916599522782927,1.0,1.0
8.49905014038086,4.4941558837890625,0.3634933829307556,-0.0,-0.0,-1.0,0.1608651370251702,1.0,1.0
8.033052444458008,4.554340362548828,0.3630602955818176,-0.0,-0.0,-1.0,0.078380625104913,2.0,1.0
8.275299072265625,4.201879501342773,0.3438582420349121,-0.0,-0.0,-1.0,0.1578346550452876,1.0,1.0
9.01332664489746,4.581872940063477,0.2960076332092285,-0.0569327303842101,0.8884561396399113,0.4554166796979942,0.1550676400544808,7.0,1.0
8.134208679199219,3.993056297302246,0.24784517288208,0.3040314196450607,-0.2884808374568773,-0.9079337543503864,0.1855530543318155,5.0,1.0
8.110004425048828,5.405500411987305,0.0336744785308837,-0.0,-0.0,-1.0,0.1731543328061878,2.0,1.0
9.864879608154297,5.384463310241699,0.0820716619491577,-0.8479062785054436,0.5134090291538977,0.1321594175770332,0.2527965103558881,7.0,1.0
8.935705184936523,5.070563316345215,0.0340455770492553,0.0674469243557562,-0.1457706427305852,-0.9870166321358828,0.0576837931580883,3.0,1.0
8.512102127075195,5.01883602142334,0.0184767246246337,-0.0,-0.0,-1.0,0.1003465014068021,1.0,1.0
8.161588668823242,5.039463996887207,0.0099043846130371,-0.0,-0.0,-1.0,0.0223507892359697,2.0,1.0
9.245060920715332,4.751900672912598,0.0200486183166503,-0.0,-0.0,-1.0,0.0568998923255262,2.0,1.0
9.14731502532959,4.846365928649902,0.0240600109100341,-0.0,-0.0,-1.0,0.0745148051822331,1.0,1.0
9.730705261230469,4.403613090515137,0.0080336332321167,-0.0,-0.0,-1.0,0.0299583402553199,2.0,1.0
9.586134910583496,4.542098045349121,0.0142092704772949,-0.0,-0.0,-1.0,0.044669614077277,2.0,1.0
9.250704765319824,4.543717384338379,0.0053168535232543,-0.0,-0.0,-1.0,0.0562477842531698,2.0,1.0
9.782597541809082,4.145900726318359,-0.0093677043914794,-0.0,-0.0,-1.0,0.0387638291921145,2.0,0.0
8.285953521728516,3.9954328536987305,0.6568568348884583,-0.4819675276376716,-0.7017557870449426,-0.5246390355775701,0.2069665026226864,5.0,1.0
8.105445861816406,3.8581619262695312,0.6500737071037292,-0.0,-0.0,-1.0,0.113534145590674,1.0,1.0
8.091985702514648,5.283364295959473,0.190026044845581,-0.0,-0.0,-1.0,0.1301425058390871,2.0,1.0
8.31888484954834,4.708629608154297,0.1640667915344238,-0.409054911420541,-0.0463891120684834,-0.9113298687765212,0.222856927733552,3.0,1.0
8.027889251708984,4.705559730529785,0.1551443338394165,-0.0,-0.0,-1.0,0.0916766865894781,2.0,1.0
9.066094398498535,4.552252769470215,0.1768865585327148,0.4192114363008652,0.8882510271735317,0.1878081052556872,0.1717062532308659,4.0,1.0
8.516508102416992,4.577099800109863,0.1622951030731201,-0.2226178576400133,0.8625408874048456,-0.4543836561922447,0.1704950411293361,5.0,1.0
8.250269889831543,4.441424369812012,0.1465054750442505,-0.0,-0.0,-1.0,0.1713395488310161,1.0,1.0
8.290305137634277,4.039813995361328,0.1241571903228759,-0.8282966971802831,-0.1564014940419189,-0.5380178009152577,0.2130017593163455,5.0,1.0
8.336578369140625,3.6476430892944336,0.1022268533706665,-0.0,-0.0,-1.0,0.1663339294234389,1.0,1.0
8.256336212158203,3.50223445892334,0.0912812948226928,-0.0,-0.0,-1.0,0.104457681255954,1.0,1.0
8.53370475769043,3.4210634231567383,0.0942199230194091,-0.0,-0.0,-1.0,0.1370495475429732,1.0,1.0
8.334033012390137,4.035256385803223,0.8013027310371399,-0.0,-0.0,-1.0,0.1010393965705728,1.0,1.0
8.383373260498047,3.654804229736328,0.0623468160629272,0.5148183130961187,-0.8404510779018398,-0.1691274376158459,0.1107139257833193,3.0,1.0
8.690240859985352,3.3695154190063477,0.0407137870788574,-0.0,-0.0,-1.0,0.1407202356687767,1.0,1.0
8.36440658569336,3.470616340637207,0.0459871292114257,-0.0,-0.0,-1.0,0.0829610006324742,1.0,1.0
7.760107040405273,5.621649742126465,0.2176207304000854,-0.0,-0.0,-1.0,0.1667140952137971,1.0,1.0
8.094001770019531,5.290419578552246,0.1965775489807129,-0.0,-0.0,-1.0,0.12188589524452,2.0,1.0
7.949690818786621,4.725358009338379,0.1477117538452148,-0.765794697158118,-0.1605874518513478,-0.6227119334912392,0.122514792217802,6.0,1.0
8.553048133850098,4.561297416687012,0.1427404880523681,-0.3566912971075312,0.473349179330166,-0.8054265161982225,0.1704412258479821,6.0,1.0
8.197172164916992,4.6124773025512695,0.1419452428817749,-0.0,-0.0,-1.0,0.1841018911902319,2.0,1.0
9.991106033325195,5.257579803466797,0.2216670513153076,-0.0,-0.0,-1.0,0.1418301069365748,1.0,1.0
8.6473388671875,4.517882347106934,0.1403321027755737,0.3002118983355559,0.2371971152445798,-0.9239103552928776,0.1694588165565146,3.0,1.0
8.373432159423828,4.095780372619629,0.1004618406295776,-0.0,-0.0,-1.0,0.2475767599835562,2.0,1.0
8.487214088439941,3.906906127929687,0.0855859518051147,-0.0,-0.0,-1.0,0.118592256529381,1.0,1.0
8.805617332458496,3.638577461242676,0.0658241510391235,-0.0,-0.0,-1.0,0.0736248579920126,2.0,1.0
9.807647705078123,3.8705339431762695,0.0969475507736206,-0.0,-0.0,-1.0,0.0850917744716357,2.0,1.0
9.774335861206056,3.762533187866211,0.0868747234344482,-0.0,-0.0,-1.0,0.0610701956893969,1.0,1.0
9.468806266784668,5.613506317138672,-0.1082596778869628,-0.0,-0.0,-1.0,0.1493656432632524,2.0,0.0
9.96547794342041,5.576493263244629,-0.0952609777450561,-0.0,-0.0,-1.0,0.0630246206404945,2.0,0.0
9.533666610717772,5.495340347290039,-0.1182049512863159,-0.0,-0.0,-1.0,0.1422281087639351,1.0,0.0
8.409408569335938,4.790536880493164,0.35934579372406,-0.0,-0.0,-1.0,0.2131900737905457,1.0,1.0
8.005254745483398,4.5640363693237305,0.3382961750030517,-0.0,-0.0,-1.0,0.1605185760962385,2.0,1.0
8.023834228515625,4.353477478027344,0.321219801902771,-0.0,-0.0,-1.0,0.2046932242962035,1.0,1.0
8.965949058532715,4.817320823669434,0.3649149537086487,-0.0,-0.0,-1.0,0.134677520966682,1.0,1.0
8.791096687316895,4.790158271789551,0.3616601228713989,-0.0,-0.0,-1.0,0.1088683609935171,1.0,1.0
8.185779571533203,4.098642349243164,0.3012250065803528,-0.0,-0.0,-1.0,0.2061150132913145,1.0,1.0
8.098602294921875,5.4183759689331055,0.2844204306602478,-0.0,-0.0,-1.0,0.1850035713901414,2.0,1.0
8.039669036865234,4.853243827819824,0.2363209724426269,-0.0,-0.0,-1.0,0.219091988332789,1.0,1.0
8.485899925231934,4.77470588684082,0.2384493350982666,-0.0,-0.0,-1.0,0.1505696868238955,1.0,1.0
8.190089225769043,4.616583824157715,0.2193068265914917,-0.0,-0.0,-1.0,0.2179027904501705,1.0,1.0
8.210515022277832,4.28706169128418,0.1914124488830566,-0.0,-0.0,-1.0,0.1612228426662958,1.0,1.0
9.00987434387207,4.68476676940918,0.240389347076416,-0.0,-0.0,-1.0,0.0822747217749104,1.0,1.0
8.351842880249023,4.004726409912109,0.1693341732025146,-0.0,-0.0,-1.0,0.2081338233489579,2.0,1.0
8.240362167358398,3.697707176208496,0.1403608322143554,-0.0,-0.0,-1.0,0.1853498647571855,1.0,1.0
8.750503540039062,3.820615768432617,0.1596386432647705,-0.73747935983909,-0.6209236635456955,0.2656651988129374,0.0892627079402932,6.0,1.0
8.440692901611328,3.566351890563965,0.1319165229797363,-0.0,-0.0,-1.0,0.1374186878826278,1.0,1.0
8.61242389678955,3.2596731185913086,0.1068973541259765,-0.8542885516590246,-0.48885027660115,-0.176681854108749,0.1235505917594679,3.0,1.0
8.274728775024414,4.195660591125488,0.7525366544723511,-0.0,-0.0,-1.0,0.0947227983660386,1.0,1.0
8.211669921875,4.005165100097656,0.7406452298164368,-0.0,-0.0,-1.0,0.2345520524168164,2.0,1.0
7.811956405639648,5.459588050842285,0.1218374967575073,-0.0,-0.0,-1.0,0.1344704768704028,1.0,1.0
8.085813522338867,5.454845428466797,0.1356419324874878,-0.0,-0.0,-1.0,0.2085489675567459,1.0,1.0
7.946407318115234,4.972127914428711,0.0964308977127075,0.4512188736672977,0.5810231545978117,-0.6773578240986241,0.0654600977615765,3.0,1.0
8.473261833190918,4.846386909484863,0.1133896112442016,-0.0,-0.0,-1.0,0.205063031199682,2.0,1.0
8.202530860900879,4.860797882080078,0.1013871431350708,-0.0,-0.0,-1.0,0.113775594632317,2.0,1.0
8.740272521972656,4.736556053161621,0.1181187629699707,-0.0,-0.0,-1.0,0.0992122699228704,2.0,1.0
8.635693550109863,4.470911979675293,0.0939904451370239,0.2528358578418134,0.8875368676319849,0.3851653379827926,0.1488089816783204,3.0,1.0
9.896690368652344,5.399342060089111,0.2198145389556884,-0.0,-0.0,-1.0,0.1741082074561534,1.0,1.0
8.953047752380371,4.515582084655762,0.1117352247238159,-0.6879753559806847,0.1200864713852625,-0.7157298016385003,0.2622906168806528,3.0,1.0
9.042838096618652,4.330623626708984,0.1018458604812622,-0.0,-0.0,-1.0,0.0667351771363812,1.0,1.0
9.459053993225098,4.195222854614258,0.1094070672988891,-0.0,-0.0,-1.0,0.056203231464495,1.0,1.0
9.30958366394043,4.157243728637695,0.1000756025314331,-0.0,-0.0,-1.0,0.1142557602559718,1.0,1.0
9.6808500289917,4.041524887084961,0.1064776182174682,-0.0,-0.0,-1.0,0.0816718502855069,2.0,1.0
9.752613067626951,3.9057559967041016,0.0984933376312255,0.7420729128600482,-0.632830221924918,0.2210287361812086,0.1076174949024084,4.0,1.0
8.24970817565918,4.66025447845459,0.6163440346717834,0.1717990602408617,-0.4294478316971206,-0.8866000466676046,0.2236735058432472,4.0,1.0
8.112127304077148,4.108124732971191,0.5852779746055603,-0.0,-0.0,-1.0,0.1735903512582721,1.0,1.0
7.797689437866211,4.118741989135742,0.5802261233329773,-0.0,-0.0,-1.0,0.1786436816227557,1.0,1.0
8.190155982971191,4.069942474365234,0.5846119523048401,0.6679814161792004,-0.3019701027376829,-0.6801579850974501,0.1898471664756131,6.0,1.0
8.134214401245117,3.9312238693237305,0.5762814283370972,-0.0,-0.0,-1.0,0.1424848516270977,2.0,1.0
8.19762134552002,5.463621616363525,-0.0211737155914306,-0.0,-0.0,-1.0,0.0611301565331677,2.0,0.0
8.42817211151123,5.460202217102051,-0.0111331939697265,-0.0159586560470728,0.0950679515877652,-0.995342858455355,0.0352238723234073,5.0,0.0
8.352509498596191,5.2370429039001465,-0.0388047695159912,0.0936817996683033,-0.457310196248386,-0.8843591492251159,0.0488318046646706,3.0,0.0
8.843868255615234,5.231749057769775,-0.0181419849395751,-0.0,-0.0,-1.0,0.0688122882110894,2.0,0.0
8.659132957458496,5.226354598999023,-0.0266118049621582,0.9655785588464648,-0.2030410244096307,0.1625804081144833,0.0855497073948811,3.0,0.0
9.165450096130373,5.140670299530029,-0.0151417255401611,-0.3527080389954839,0.389437177033723,-0.8508441246033052,0.040024355521792,4.0,0.0
9.461739540100098,4.877519607543945,-0.0341960191726684,0.4252245971623311,0.1658537474945422,-0.8897620897802679,0.0901020695406605,3.0,0.0
8.241065979003906,4.655609130859375,0.3839759230613708,-0.0,-0.0,-1.0,0.1720885607985308,2.0,1.0
8.048580169677734,4.650047302246094,0.3811380267143249,-0.0,-0.0,-1.0,0.0856113416085976,1.0,1.0
8.515958786010742,4.660147190093994,0.3875551223754883,-0.0,-0.0,-1.0,0.1631247604013261,1.0,1.0
8.273822784423828,4.387694835662842,0.3587440848350525,-0.0,-0.0,-1.0,0.2129293419425282,1.0,1.0
8.15855598449707,3.9267187118530273,0.3126188516616821,0.1596441743193011,0.654191473469674,-0.7392883426955177,0.2653214702492089,4.0,1.0
8.978330612182617,4.657066822052002,0.3920937776565552,0.3196055102962299,-0.1047114437276995,-0.941747222635006,0.2447336360909262,5.0,1.0
9.73105812072754,5.298674583435059,0.0258706808090209,-0.0,-0.0,-1.0,0.1221852227649227,2.0,1.0
9.881545066833496,4.778839588165283,-0.0305253267288208,-0.0,-0.0,-1.0,0.0457634948793639,2.0,0.0
8.515588760375977,5.429244518280029,-0.0690239667892456,-0.0,-0.0,-1.0,0.0430037438591937,2.0,0.0
8.509783744812012,5.232203960418701,-0.0778661966323852,-0.3954062691153887,-0.3801746478912047,-0.8361346299759669,0.0383367610589707,3.0,0.0
8.725271224975586,5.278683185577393,-0.0557700395584106,-0.0,-0.0,-1.0,0.070602113486492,2.0,0.0
8.539253234863281,5.198702812194824,-0.07656991481781,-0.1744634510252854,-0.3619249255938501,-0.9157362352174524,0.0601051981401532,4.0,0.0
7.838955879211426,4.344479084014893,0.3021084070205688,-0.0,-0.0,-1.0,0.1410406500446732,1.0,1.0
8.402911186218262,5.056716442108154,0.358220100402832,0.5384505392485688,-0.6914147005906894,0.4816811482609768,0.2264238460976561,5.0,1.0
8.1010103225708,4.680954456329346,0.3285585641860962,-0.0,-0.0,-1.0,0.1254117395776848,1.0,1.0
8.168268203735352,4.3253068923950195,0.3209573030471802,-0.0,-0.0,-1.0,0.2566089043030187,1.0,1.0
8.09934139251709,3.9336729049682617,0.3026312589645386,0.1273468915768961,0.6563567033815886,-0.7436253405659033,0.2212250009018915,7.0,1.0
8.408784866333008,4.4173502922058105,0.3382200002670288,-0.0,-0.0,-1.0,0.1840588125232034,1.0,1.0
8.21588134765625,3.85746431350708,0.306174635887146,-0.0,-0.0,-1.0,0.2362054858908197,1.0,1.0
9.08016586303711,5.202389717102051,-0.0264455080032348,-0.2469291010355458,-0.5847617915847727,-0.7727093024963164,0.0700711582940503,5.0,0.0
9.13705348968506,5.0515360832214355,-0.0287095308303833,-0.0,-0.0,-1.0,0.0508279960718489,1.0,0.0
8.945016860961914,4.640945911407471,0.377254843711853,-0.4875344835911351,0.6392869108155605,0.5946615617049945,0.1703184343114764,6.0,1.0
9.846611976623535,5.426746845245361,0.0541332960128784,-0.7372587782821067,-0.4110275040762133,-0.536195752257377,0.2374834079351058,3.0,1.0
9.389945030212402,5.083726406097412,-0.0044590234756469,-0.0,-0.0,-1.0,0.0420061477684997,2.0,0.0
9.393789291381836,4.745915412902832,-0.0229197740554809,-0.0,-0.0,-1.0,0.0676069149407135,2.0,0.0
9.623476028442385,4.571817398071289,-0.0136526823043823,-0.5759435716701292,0.0261847368135256,-0.8170699858701589,0.0491764327817799,4.0,0.0
9.7490816116333,4.280194282531738,-0.0222092866897583,-0.0,-0.0,-1.0,0.023107579370088,1.0,0.0
8.2740478515625,4.123051643371582,0.7918983697891235,0.099804867801072,-0.9941651367699186,-0.0409227222268957,0.1214878315569985,5.0,1.0
7.860496520996094,5.3145294189453125,0.0891996622085571,-0.0,-0.0,-1.0,0.0588143931000111,2.0,1.0
7.914546012878418,4.972484111785889,0.0755121707916259,0.4512188736672977,0.5810231545978117,-0.6773578240986241,0.0439535623439352,3.0,1.0
8.056489944458008,5.376809120178223,0.1074932813644409,0.1927581656980731,-0.3820049918967878,-0.9038343187347166,0.175210041418253,4.0,1.0
8.190472602844238,4.835315704345703,0.0883538722991943,-0.2789768586114537,0.5386347158109709,-0.7950122988246912,0.1475782418705755,3.0,1.0
8.471342086791992,4.738114833831787,0.1031560897827148,-0.3646509416688132,-0.1122634229204522,-0.9243519971386612,0.1822573436175912,4.0,1.0
8.734356880187988,4.4764509201049805,0.1058816909790039,-0.0,-0.0,-1.0,0.106474955195526,1.0,1.0
8.902172088623047,4.314629554748535,0.1070172786712646,-0.0,-0.0,-1.0,0.0822557283639566,2.0,1.0
10.203954696655272,5.469895839691162,-0.1205580234527587,-0.0,-0.0,-1.0,0.0700751743349565,1.0,0.0
7.858448028564453,4.123664379119873,0.5061578750610352,-0.0,-0.0,-1.0,0.2335906062462024,2.0,1.0
8.178629875183105,4.620284080505371,0.5403668880462646,-0.0,-0.0,-1.0,0.1481706896086388,2.0,1.0
8.175317764282227,4.056475639343262,0.5159033536911011,0.884315655034923,-0.4464100714508419,-0.1367620940443993,0.2323244034213276,3.0,1.0
8.072635650634766,3.843843936920166,0.5022264719009399,-0.0,-0.0,-1.0,0.1580503299387319,1.0,1.0
8.830517768859863,4.689146518707275,0.125860333442688,-0.0,-0.0,-1.0,0.1157988036268184,1.0,1.0
8.855843544006348,4.60224723815918,0.1222661733627319,-0.0,-0.0,-1.0,0.1014479658437643,1.0,1.0
9.085420608520508,4.1780619621276855,0.110430359840393,-0.0,-0.0,-1.0,0.1138029361809584,2.0,1.0
9.274904251098633,4.199121952056885,0.1244807243347168,-0.0,-0.0,-1.0,0.1134362833667261,1.0,1.0
9.329687118530272,4.025680065155029,0.1160039901733398,-0.0,-0.0,-1.0,0.0678394677358307,2.0,1.0
9.749791145324709,5.334237098693848,0.2304662466049194,-0.0,-0.0,-1.0,0.2409534674297723,2.0,1.0
9.634589195251465,3.922341346740722,0.1281788349151611,-0.0,-0.0,-1.0,0.1266680949626402,1.0,1.0
9.6478853225708,3.636620044708252,0.1078377962112426,-0.0,-0.0,-1.0,0.0456446765437403,1.0,1.0
9.88912582397461,5.365205764770508,0.6424790024757385,-0.0,-0.0,-1.0,0.1338503135562566,1.0,1.0
8.086827278137207,5.582431793212891,0.0566054582595825,-0.0,-0.0,-1.0,0.1674461315763783,2.0,1.0
8.132503509521484,5.355769634246826,0.0478527545928955,-0.8484378377306758,-0.0556030268617146,0.5263663542730586,0.0848461208784735,5.0,1.0
8.143942832946777,5.047468185424805,0.0310578346252441,0.5531488522990546,0.8191999024704141,0.1514525238901714,0.0216983540925943,3.0,1.0
8.488624572753906,4.941817760467529,0.0515825748443603,-0.0,-0.0,-1.0,0.1767255471742209,1.0,1.0
8.010151863098145,4.017940044403076,0.4383232593536377,0.4834919296468012,-0.6689608812665334,-0.5645590255248039,0.2292401985871328,4.0,1.0
8.06701374053955,3.8849329948425297,0.434259831905365,0.0319025102257359,0.2817882354340909,-0.95894609870015,0.2427486896157718,4.0,1.0
8.215353965759277,4.4109978675842285,0.4664017558097839,-0.0,-0.0,-1.0,0.1766923424610113,1.0,1.0
8.855576515197754,4.868499279022217,0.0751135349273681,-0.0,-0.0,-1.0,0.0606892366835627,1.0,1.0
9.095369338989258,4.639345645904541,0.0778460502624511,0.423481684502497,0.5887426288243665,-0.688509535079872,0.1006251128401059,3.0,1.0
9.148911476135254,4.332936763763428,0.0604815483093261,-0.0,-0.0,-1.0,0.050839473491127,2.0,1.0
9.492347717285156,4.537111759185791,0.0996594429016113,0.0387785146784772,0.9051616569780928,-0.4232949344558772,0.0416446984861324,3.0,1.0
9.555801391601562,4.297750949859619,0.0867863893508911,-0.9552048165265006,-0.2100799329623586,0.2084470682238197,0.0436420935322475,3.0,1.0
9.637578010559082,4.005462169647217,0.0704469680786132,-0.0,-0.0,-1.0,0.0844467235949603,2.0,1.0
9.81223487854004,5.499946594238281,0.1883120536804199,-0.0,-0.0,-1.0,0.1214783649421972,2.0,1.0
9.79614543914795,5.307674884796143,0.1746634244918823,-0.8339291727751306,0.233146565174081,-0.5002047720105381,0.0985130856428884,3.0,1.0
9.95733642578125,3.990328311920166,0.0907840728759765,-0.0,-0.0,-1.0,0.055983630333389,1.0,1.0
8.609588623046875,4.545101642608643,0.4905189275741577,-0.7278948518602821,-0.6197480956265713,-0.2933962893469107,0.1801918298337615,3.0,1.0
8.301773071289062,4.135228633880615,0.9266699552536012,-0.2493562002301784,-0.58099361739699,-0.7747695799079409,0.1696883447555539,3.0,1.0
8.316251754760742,5.2049174308776855,-0.024707555770874,0.2132592295525702,-0.1786128368864167,-0.9605300388379484,0.042033442475352,5.0,0.0
8.481117248535156,5.113147735595703,-0.0114471912384033,0.0679779104106168,0.9970045279841208,0.0368913929713506,0.050829529131416,4.0,0.0
8.007665634155273,4.179254055023193,0.3906300663948059,-0.0545722535642024,-0.7739004064477207,0.6309516859799782,0.1978227781191847,4.0,1.0
8.06772232055664,3.9254040718078618,0.3887422084808349,0.4251533465627872,0.388558581526334,-0.8174759082864194,0.1555539535230261,3.0,1.0
8.239828109741211,4.425922870635986,0.4107263088226318,-0.0,-0.0,-1.0,0.189936355440949,1.0,1.0
8.42269515991211,5.456787109375,-0.0064501762390136,-0.9313684556990106,0.316657369599628,-0.179668889925564,0.0352238723234073,6.0,0.0
8.935194969177246,5.086531162261963,0.0316524505615234,0.0674469243557562,-0.1457706427305852,-0.9870166321358828,0.0714534630391356,3.0,1.0
9.18047046661377,4.715481758117676,0.0407465696334838,-0.0,-0.0,-1.0,0.0276830557502324,2.0,1.0
9.25202751159668,4.464165687561035,0.0367839336395263,-0.0,-0.0,-1.0,0.0719712348120717,1.0,1.0
9.540397644042969,4.052353382110596,0.0438048839569091,-0.5689286855372446,0.0359241768246617,-0.8216018526587763,0.0884116402366465,4.0,1.0
9.53568172454834,4.437055587768555,0.0614103078842163,-0.4874364816733635,0.0303208785269751,-0.87263183568974,0.0599309768915047,3.0,1.0
9.637977600097656,4.0613298416137695,0.0527484416961669,-0.0,-0.0,-1.0,0.0625482922504842,1.0,1.0
9.753459930419922,3.8867969512939458,0.0541067123413085,-0.9919115154555316,-0.0202365432935088,0.1253077324918145,0.0898492401072392,5.0,1.0
9.822258949279783,5.352858543395996,0.1263837814331054,0.0219847576213463,-0.9823823714219526,-0.1855843386487968,0.2363618534331765,5.0,1.0
8.55623722076416,4.689625263214111,0.4365503787994385,-0.0,-0.0,-1.0,0.1366395732244552,1.0,1.0
8.993980407714844,4.639701843261719,0.4636095762252807,-0.2712534909805152,0.7944092298337909,-0.5434478072324579,0.2299429242217214,3.0,1.0
8.300163269042969,4.173796653747559,0.8796873688697815,0.0057867646611747,-0.9918524716578272,-0.1272603151851184,0.1078096737615795,5.0,1.0
8.205101013183594,5.203494071960449,-0.0422351360321044,-0.0,-0.0,-1.0,0.0348410122514011,2.0,0.0
8.289654731750488,5.326840400695801,-0.0295414924621582,-0.9768502599653798,0.2043098926607206,-0.0634116500852581,0.0582114841557751,3.0,0.0
8.522162437438965,5.1167802810668945,-0.0175058841705322,-0.0,-0.0,-1.0,0.0554476425468609,2.0,0.0
9.21156883239746,4.502291679382324,0.01042902469635,-0.7902579467448019,0.5406304253504707,-0.2884633785978025,0.0595553269809872,4.0,1.0
8.856755256652832,5.146812438964844,0.013539433479309,0.2437011887458915,0.9675046825644636,-0.067412312077807,0.0854446926932805,3.0,1.0
9.216858863830566,4.581489562988281,0.0153306722640991,-0.0,-0.0,-1.0,0.0503023167590949,1.0,1.0
8.027379035949707,4.003115653991699,0.3710166215896606,-0.5535310551267867,-0.3017698246662379,-0.7762334339173583,0.1983883015663087,4.0,1.0
8.065115928649902,3.886065006256103,0.3686882257461548,-0.9796295877074722,0.0038254060778019,0.2007765851797152,0.1646645030842974,5.0,1.0
8.12629508972168,4.656306743621826,0.3986513614654541,-0.0,-0.0,-1.0,0.1627692905534008,1.0,1.0
8.218436241149902,4.25177526473999,0.3902318477630615,-0.0,-0.0,-1.0,0.2138223076564167,1.0,1.0
8.227998733520508,4.603727340698242,0.4027292728424072,-0.0,-0.0,-1.0,0.2471635445657841,1.0,1.0
8.595022201538086,4.603175163269043,0.4231153726577759,-0.0,-0.0,-1.0,0.1917585754904636,1.0,1.0
9.140727043151855,4.910220623016357,0.0264647006988525,-0.0,-0.0,-1.0,0.0875521757059536,1.0,1.0
9.398213386535645,4.595743656158447,0.0310314893722534,-0.0,-0.0,-1.0,0.0305191311568235,1.0,1.0
9.640329360961914,4.272274017333984,0.0312904119491577,0.4672193485272346,-0.2658358397967634,-0.8432303283453081,0.0389847468482923,4.0,1.0
9.744277954101562,4.011343955993652,0.0227075815200805,-0.0,-0.0,-1.0,0.0668098732841833,2.0,1.0
9.873988151550291,5.406281471252441,0.1149698495864868,-0.9052446715770056,0.0521417777471205,0.4216791666596881,0.2311895357862303,4.0,1.0
8.988035202026367,4.6252264976501465,0.445417046546936,0.0124621057408517,0.9505880691290284,-0.3102048013007684,0.2299429242217214,4.0,1.0
7.80607795715332,4.112191200256348,0.0668501853942871,-0.0,-0.0,-1.0,0.2031199725865056,2.0,1.0
8.14333438873291,3.67532730102539,0.0752748250961303,-0.0,-0.0,-1.0,0.0779807894967474,1.0,1.0
8.508273124694824,3.478693962097168,0.0930871963500976,-0.0,-0.0,-1.0,0.1266397233941425,1.0,1.0
8.576933860778809,3.156571865081787,0.0833081007003784,0.2260583161657279,-0.9394589280143998,-0.2575161359339461,0.0832384536950718,3.0,1.0
7.904745101928711,4.758026599884033,0.095202088356018,-0.0,-0.0,-1.0,0.1262827025441342,2.0,1.0
8.229750633239746,4.119014263153076,0.0987309217453002,-0.487149125270516,-0.6955964007396945,0.5280448627021697,0.2013197684742951,3.0,1.0
8.334930419921875,4.0391340255737305,0.1034959554672241,-0.8150027115672175,-0.0882794148070873,-0.5726930461070759,0.1693598415138511,6.0,1.0
8.756077766418457,3.802413940429687,0.1244807243347168,-0.9548351195709835,-0.1949324799711713,-0.2242570460122808,0.0931358854859735,7.0,1.0
7.785593032836914,5.404885768890381,0.1026610136032104,-0.0,-0.0,-1.0,0.0952659641414786,2.0,1.0
7.786020278930664,5.017770290374756,0.0931030511856079,-0.0,-0.0,-1.0,0.0283197602284126,2.0,1.0
8.108075141906738,4.790815830230713,0.1119136810302734,-0.0,-0.0,-1.0,0.1655595512135824,2.0,1.0
8.408956527709961,4.545485973358154,0.1271604299545288,-0.0,-0.0,-1.0,0.1179440269852946,2.0,1.0
7.960379600524902,5.376235485076904,0.116073727607727,-0.0,-0.0,-1.0,0.1522082576258513,2.0,1.0
10.06800937652588,5.449792861938477,-0.1279085874557495,-0.0,-0.0,-1.0,0.0766498000332121,2.0,0.0
10.146917343139648,5.355127811431885,-0.1241627931594848,-0.0,-0.0,-1.0,0.0744027308397861,1.0,0.0
9.94356918334961,5.589937210083008,-0.1348344087600708,-0.0,-0.0,-1.0,0.0531754609813995,2.0,0.0
8.0864839553833,3.938697338104248,0.576367974281311,-0.1408258368562972,-0.9040783174831069,0.4034978061038726,0.2425844902195734,3.0,1.0
8.183084487915039,4.100979804992676,0.5838906764984131,0.8995040717095009,0.2854674632787315,-0.3307578455414703,0.1910548203376479,4.0,1.0
8.178775787353516,4.629260063171387,0.5934467315673828,0.1569250983396348,0.8455717297788341,-0.5102773396006598,0.1949576412987386,4.0,1.0
8.216133117675781,4.5441999435424805,0.5936851501464844,0.6451901662935328,-0.7598858305924732,-0.079392529767672,0.166905750123956,3.0,1.0
9.863103866577148,4.473723888397217,-0.035414695739746,-0.0,-0.0,-1.0,0.020055499785206,1.0,0.0
9.496832847595217,4.950460910797119,-0.0712165832519531,-0.0,-0.0,-1.0,0.0578370798289042,2.0,0.0
9.801734924316406,4.880762577056885,-0.0388123989105224,-0.6700543544229491,-0.0401042381007424,-0.7412279084095549,0.0482371678680477,4.0,0.0
9.84173583984375,4.613065242767334,-0.0363938808441162,-0.0,-0.0,-1.0,0.0313677631663752,2.0,0.0
