x,y,z,nx,ny,nz,curvature,density,label
22.334367752075195,20.350418090820312,-1.4686986207962036,-0.0,-0.0,-1.0,0.059775511520321,1.0,0.0
22.03955841064453,20.12198257446289,-1.4617716073989868,-0.0,-0.0,-1.0,0.0736470246255536,1.0,0.0
22.650808334350582,20.48250961303711,-1.4662905931472778,-0.0,-0.0,-1.0,0.1582635644926464,2.0,0.0
22.57395362854004,20.343873977661133,-1.456957459449768,-0.0,-0.0,-1.0,0.071934726051998,1.0,0.0
22.56702995300293,19.589277267456055,-1.387990117073059,-0.0,-0.0,-1.0,0.1644239777850823,1.0,0.0
22.12369728088379,19.41779899597168,-1.3940140008926392,0.8453271268932301,-0.3717007701013539,-0.3837454703895501,0.0964552032187938,3.0,0.0
22.21586036682129,19.083234786987305,-1.3594433069229126,-0.0,-0.0,-1.0,0.0233913873184313,1.0,0.0
22.157251358032227,18.858320236206055,-1.3423291444778442,-0.0,-0.0,-1.0,0.0287871624707036,1.0,0.0
22.096750259399418,18.232019424438477,-1.290228247642517,-0.0,-0.0,-1.0,0.0776504414467562,1.0,0.0
22.370073318481445,19.140737533569336,-1.332002878189087,-0.0,-0.0,-1.0,0.0330192059043135,2.0,0.0
22.341054916381836,19.025121688842773,-1.3225014209747314,-0.0,-0.0,-1.0,0.023474209319635,1.0,0.0
22.489736557006836,18.67413330078125,-1.284210443496704,-0.0,-0.0,-1.0,0.0801608282142445,1.0,0.0
22.21677017211914,18.366313934326172,-1.2674000263214111,-0.0,-0.0,-1.0,0.1101067506812855,1.0,0.0
22.660459518432617,18.22457504272461,-1.236039400100708,-0.0,-0.0,-1.0,0.1890387505739241,1.0,0.0
20.26791000366211,18.220767974853516,-1.042344093322754,-0.0,-0.0,-1.0,0.2066106606365653,1.0,0.0
20.297155380249023,18.255762100219727,-0.9923602342605592,-0.0,-0.0,-1.0,0.2066106606365654,2.0,0.0
20.449787139892575,18.419614791870117,-1.0421271324157717,-0.0,-0.0,-1.0,0.1519136921497545,1.0,0.0
22.426877975463867,18.446876525878903,-1.1646045446395874,-0.0,-0.0,-1.0,0.1484498163976883,1.0,0.0
22.172447204589844,20.615711212158203,-1.424651265144348,0.3556418621082495,0.204902593957761,-0.9118847476000228,0.1156431656092946,3.0,0.0
22.284828186035156,18.248027801513672,-1.1422449350357056,-0.0,-0.0,-1.0,0.1387918501800885,2.0,0.0
22.598520278930664,18.29903221130371,-1.286264181137085,-0.0,-0.0,-1.0,0.1762941798377495,2.0,0.0
20.23113250732422,18.38999366760254,-1.1668784618377686,-0.0,-0.0,-1.0,0.1734058569690047,2.0,0.0
22.65433883666992,20.550575256347656,-1.5449464321136477,-0.0,-0.0,-1.0,0.1594385658555482,1.0,0.0
22.325847625732425,20.474308013916016,-1.5633544921875,-0.0,-0.0,-1.0,0.0646525527030629,1.0,0.0
21.967994689941406,20.284751892089844,-1.5688698291778564,-0.0,-0.0,-1.0,0.1181385693127347,2.0,0.0
22.151968002319336,20.35809898376465,-1.5619633197784424,-0.0,-0.0,-1.0,0.0823828044898813,1.0,0.0
22.303150177001953,18.24449920654297,-1.222597599029541,-0.0,-0.0,-1.0,0.1376804061803224,1.0,0.0
22.12455368041992,18.602943420410156,-1.2956979274749756,-0.7180525776039781,0.6956659830329165,-0.0211975434220262,0.1295045855962586,3.0,0.0
22.155986785888672,19.45566177368164,-1.4228148460388184,-0.0,-0.0,-1.0,0.0567001718793873,2.0,0.0
21.842668533325195,19.028554916381836,-1.390000343322754,-0.0,-0.0,-1.0,0.0362642269499587,1.0,0.0
21.868209838867188,19.221431732177734,-1.41658616065979,-0.0,-0.0,-1.0,0.0679057389083891,1.0,0.0
20.256893157958984,18.3170108795166,-1.104054570198059,0.992771926920474,-0.0576875993799987,-0.1052427764570177,0.2066106606365654,6.0,0.0
22.631031036376953,18.762537002563477,-1.354636311531067,-0.0,-0.0,-1.0,0.0585920112001761,2.0,0.0
22.64521026611328,18.15662384033203,-1.226988673210144,-0.0,-0.0,-1.0,0.1338762924061464,2.0,0.0
22.499271392822266,18.434486389160156,-1.2904554605484009,-0.0,-0.0,-1.0,0.1518703632923263,2.0,0.0
22.27401351928711,18.4161376953125,-1.2948919534683228,-0.0,-0.0,-1.0,0.1381365616483446,1.0,0.0
22.597261428833008,18.834678649902344,-1.4170550107955933,-0.0,-0.0,-1.0,0.055168596645753,2.0,0.0
22.316932678222656,18.38042449951172,-1.3284112215042114,-0.0,-0.0,-1.0,0.1278735301353921,1.0,0.0
22.37748908996582,18.625686645507812,-1.3805149793624878,-0.0,-0.0,-1.0,0.0914237379001252,1.0,0.0
20.29434585571289,18.216129302978516,-0.9981776475906372,-0.0,-0.0,-1.0,0.2066106606365654,2.0,0.0
22.221424102783203,18.758625030517575,-1.2873718738555908,-0.0,-0.0,-1.0,0.0638415877329563,1.0,0.0
22.372194290161133,19.161670684814453,-1.3763983249664309,-0.0,-0.0,-1.0,0.030365044845399,2.0,0.0
22.52818489074707,19.383853912353516,-1.422368049621582,-0.0,-0.0,-1.0,0.0957683671848388,1.0,0.0
22.036909103393555,18.592838287353516,-1.2579565048217771,-0.4910510177956327,0.8685579993759074,0.0669021647033527,0.0957640988985226,4.0,0.0
20.598533630371097,18.147144317626953,-1.2558739185333252,-0.0,-0.0,-1.0,0.0498529707271876,1.0,0.0
22.618507385253903,18.217300415039062,-1.136955738067627,-0.817144156985125,0.0477473724618053,-0.5744524480999826,0.1631745163123693,4.0,0.0
22.305877685546875,18.316669464111328,-1.1769568920135498,-0.0,-0.0,-1.0,0.1650764947780654,1.0,0.0
22.452430725097656,18.23532485961914,-1.2062512636184692,-0.0,-0.0,-1.0,0.165331229525747,2.0,0.0
22.410690307617188,18.666330337524418,-1.3260363340377808,-0.0,-0.0,-1.0,0.0903912265251752,1.0,0.0
22.54372787475586,19.089900970458984,-1.4307984113693235,-0.0,-0.0,-1.0,0.0362136651499594,1.0,0.0
22.07185173034668,18.148048400878903,-1.2156060934066772,-0.0,-0.0,-1.0,0.1001672786539147,1.0,0.0
22.146635055541992,18.552085876464844,-1.3172625303268433,-0.0,-0.0,-1.0,0.1093227188596741,1.0,0.0
22.2196102142334,20.563758850097656,-1.4419447183609009,-0.2936318602969911,-0.4430407800523405,-0.8470508826682973,0.1379100882039174,3.0,0.0
21.915307998657227,20.55654525756836,-1.4603263139724731,-0.0,-0.0,-1.0,0.0740063697249952,2.0,0.0
21.485340118408203,20.635658264160156,-1.509628415107727,-0.0,-0.0,-1.0,0.0200573790319203,2.0,0.0
20.997817993164062,20.42533302307129,-1.499378323554993,-0.0,-0.0,-1.0,0.0341664975696001,1.0,0.0
21.22295188903809,20.566547393798828,-1.5136419534683228,0.4579824503145601,0.1000854355703343,-0.8833091082914111,0.0481652634235793,4.0,0.0
20.53308486938477,20.089035034179688,-1.4632903337478638,-0.0,-0.0,-1.0,0.015527525842055,2.0,0.0
20.73701858520508,20.26862907409668,-1.4857441186904907,-0.0,-0.0,-1.0,0.0160131787915553,1.0,0.0
20.315448760986328,19.920337677001953,-1.4457401037216189,-0.0,-0.0,-1.0,0.0067576740323978,1.0,0.0
21.983060836791992,19.42762565612793,-1.1907511949539185,-0.0,-0.0,-1.0,0.1693727242901018,1.0,0.0
20.84244728088379,18.936676025390625,-1.173972249031067,-0.0,-0.0,-1.0,0.1501792639950264,1.0,0.0
20.713212966918945,18.801530838012695,-1.1561552286148071,-0.0,-0.0,-1.0,0.1134985892384514,1.0,0.0
20.25278091430664,18.365066528320312,-1.1074382066726685,0.9502629716237012,0.3109866158841436,0.0169590536829268,0.198716987183854,5.0,0.0
22.671844482421875,18.35867691040039,-1.328545093536377,-0.0,-0.0,-1.0,0.1319646205963853,1.0,0.0
22.44801902770996,18.41431999206543,-1.3761274814605713,-0.0,-0.0,-1.0,0.1396856932848728,1.0,0.0
22.65385055541992,19.809673309326172,-1.421433448791504,-0.0,-0.0,-1.0,0.099346296329444,1.0,0.0
22.46796417236328,20.00386619567871,-1.494807481765747,-0.0,-0.0,-1.0,0.019661031770855,2.0,0.0
21.845844268798828,19.12218856811523,-1.337942600250244,-0.0,-0.0,-1.0,0.0393121418072853,1.0,0.0
21.948944091796875,19.308557510375977,-1.3733274936676023,-0.0,-0.0,-1.0,0.1617018550969558,2.0,0.0
22.138158798217773,19.67984962463379,-1.4475266933441162,-0.0,-0.0,-1.0,0.0452792302335473,1.0,0.0
21.710674285888672,19.026899337768555,-1.3316659927368164,-0.0,-0.0,-1.0,0.0398483021242073,2.0,0.0
20.61086654663086,18.501110076904297,-1.367375135421753,-0.0,-0.0,-1.0,0.0724058158248253,1.0,0.0
20.340641021728516,20.40342903137207,-1.4881479740142822,-0.0,-0.0,-1.0,0.0138675351821133,2.0,0.0
20.55148696899414,20.55130195617676,-1.4927136898040771,-0.0,-0.0,-1.0,0.0138051952321654,2.0,0.0
20.271907806396484,20.256420135498047,-1.4653382301330566,-0.0,-0.0,-1.0,0.0116111547557929,2.0,0.0
20.81463050842285,18.99884796142578,-1.1149609088897705,0.7378876622637618,-0.5980110608771183,-0.3128970580678956,0.1476292035274752,3.0,0.0
20.25124168395996,18.36193466186523,-1.0621051788330078,0.7745767464707681,-0.6313971123571573,-0.036993922930702,0.1992369169137264,5.0,0.0
22.47843360900879,20.227745056152344,-1.496457576751709,-0.0,-0.0,-1.0,0.0336489986069513,1.0,0.0
22.594314575195312,20.37261962890625,-1.5201444625854492,-0.0,-0.0,-1.0,0.071934726051998,1.0,0.0
21.987030029296875,19.81045913696289,-1.45878267288208,-0.0,-0.0,-1.0,0.0283937325004703,2.0,0.0
22.18736267089844,20.058773040771484,-1.4948880672454834,-0.0,-0.0,-1.0,0.0492398144444309,1.0,0.0
21.550392150878903,18.6392765045166,-1.2184832096099854,-0.0,-0.0,-1.0,0.0657482955360631,2.0,0.0
21.537572860717773,18.877046585083008,-1.2851133346557615,-0.3743297373002484,-0.8919519138918341,0.2535725361260974,0.0514831890417573,4.0,0.0
21.64212226867676,19.413196563720703,-1.410993576049805,-0.0,-0.0,-1.0,0.0244594952371524,2.0,0.0
21.82935905456543,19.636972427368164,-1.4381699562072754,-0.0,-0.0,-1.0,0.0624062125725673,1.0,0.0
21.43210792541504,19.413496017456055,-1.4510619640350342,-0.0,-0.0,-1.0,0.0192288537030937,1.0,0.0
20.9569149017334,18.183349609375,-1.2259674072265625,-0.0,-0.0,-1.0,0.0483673827959191,2.0,0.0
21.018211364746097,18.47189140319824,-1.286271333694458,-0.0,-0.0,-1.0,0.0197349134910923,1.0,0.0
20.862403869628903,20.494029998779297,-1.4945108890533447,0.6678455881874381,0.7177528929435205,-0.1970102916341729,0.0321566551215116,3.0,0.0
20.58036231994629,18.162046432495117,-1.306997537612915,-0.0,-0.0,-1.0,0.0471538361138365,1.0,0.0
20.610374450683594,18.38986587524414,-1.3567287921905518,-0.0,-0.0,-1.0,0.0531425551009713,2.0,0.0
20.307981491088867,19.84838104248047,-1.4465534687042236,-0.0,-0.0,-1.0,0.0092455998522891,2.0,0.0
20.49079132080078,20.10093879699707,-1.4698827266693115,-0.0,-0.0,-1.0,0.0135383801701208,2.0,0.0
20.655826568603516,20.313718795776367,-1.4887802600860596,-0.0,-0.0,-1.0,0.0167161189191221,2.0,0.0
21.900217056274418,18.24832534790039,-1.0434558391571045,-0.0,-0.0,-1.0,0.0613714782004528,1.0,0.0
21.16053009033203,18.21713638305664,-1.1893551349639893,-0.0,-0.0,-1.0,0.0584480126394212,1.0,0.0
20.791614532470703,18.9926815032959,-1.1574528217315674,-0.0,-0.0,-1.0,0.1976109282141032,2.0,0.0
20.65184783935547,18.83721923828125,-1.1498897075653076,-0.0,-0.0,-1.0,0.1509339940683541,2.0,0.0
20.552165985107425,20.628028869628903,-1.493059158325195,-0.0,-0.0,-1.0,0.0115754281857302,2.0,0.0
20.29755592346191,20.392070770263672,-1.4937798976898191,-0.0,-0.0,-1.0,0.0136681383006106,2.0,0.0
20.222375869750977,18.32349395751953,-1.05222749710083,-0.0,-0.0,-1.0,0.1992369169137265,2.0,0.0
21.76279067993164,18.936494827270508,-1.3611538410186768,-0.0,-0.0,-1.0,0.0411069491406756,2.0,0.0
21.622812271118164,18.72154426574707,-1.3117163181304932,0.5296630665954897,-0.644614540039731,-0.5512976788034104,0.0498388901488609,3.0,0.0
21.887096405029297,19.543487548828125,-1.4934178590774536,-0.0,-0.0,-1.0,0.0334142150808557,2.0,0.0
21.786069869995117,19.235153198242188,-1.4318572282791138,-0.0,-0.0,-1.0,0.0349705178925753,1.0,0.0
21.64661407470703,18.983224868774418,-1.3653398752212524,-0.0,-0.0,-1.0,0.0423994178185195,1.0,0.0
21.334978103637695,18.329973220825195,-1.2739497423171997,-0.0,-0.0,-1.0,0.065177901612168,1.0,0.0
21.444860458374023,18.436317443847656,-1.3149672746658323,-0.0,-0.0,-1.0,0.0461215653074123,1.0,0.0
21.06106185913086,20.615158081054688,-1.45890474319458,-0.0,-0.0,-1.0,0.0386799588828159,1.0,0.0
21.135751724243164,20.502967834472656,-1.466977834701538,-0.0,-0.0,-1.0,0.0566444574469773,2.0,0.0
21.3771915435791,19.659820556640625,-1.513905644416809,-0.0,-0.0,-1.0,0.0039646406785677,1.0,0.0
20.781173706054688,18.69759750366211,-1.338593602180481,-0.0,-0.0,-1.0,0.1293389070755392,1.0,0.0
22.59334373474121,20.024568557739254,-1.5435668230056765,-0.0,-0.0,-1.0,0.0841698573274073,1.0,0.0
22.370548248291016,18.165306091308594,-1.1929879188537598,-0.0,-0.0,-1.0,0.135919716642285,1.0,0.0
22.43404960632324,18.18807601928711,-1.2371156215667725,-0.0,-0.0,-1.0,0.1252821360013445,1.0,0.0
22.07809829711914,19.694091796875,-1.4517462253570557,-0.0,-0.0,-1.0,0.0446752702912116,2.0,0.0
21.05238151550293,20.027339935302734,-1.4994385242462158,-0.0,-0.0,-1.0,0.0164083368527995,2.0,0.0
21.182395935058594,20.149879455566406,-1.5231530666351318,-0.0,-0.0,-1.0,0.0246973141575715,2.0,0.0
22.64672088623047,18.183822631835938,-1.1915004253387451,-0.7915209149356273,0.5008673640934053,-0.3501807030742718,0.1400766266669847,3.0,0.0
22.25892448425293,20.533023834228516,-1.439497470855713,-0.6133119588158885,-0.7883594303163409,-0.0483513164734141,0.1445728579850195,3.0,0.0
21.560745239257812,19.19167709350586,-1.4506173133850098,-0.0,-0.0,-1.0,0.0368677619857937,1.0,0.0
21.440637588500977,18.839191436767575,-1.3780784606933594,-0.0,-0.0,-1.0,0.0389356955137522,2.0,0.0
21.00271987915039,19.810039520263672,-1.5283794403076172,-0.0,-0.0,-1.0,0.0150434473743696,1.0,0.0
20.740802764892575,19.77779197692871,-1.5065584182739258,-0.0,-0.0,-1.0,0.0241741164579588,1.0,0.0
20.607322692871097,19.824922561645508,-1.5076351165771484,-0.0,-0.0,-1.0,0.0152551225618311,2.0,0.0
20.213523864746097,19.75558280944824,-1.4724371433258057,-0.0,-0.0,-1.0,0.0088508551317869,2.0,0.0
22.22943115234375,20.63201332092285,-1.399254560470581,-0.0,-0.0,-1.0,0.1378465231868847,1.0,0.0
22.527748107910156,19.984548568725582,-1.484178066253662,-0.0,-0.0,-1.0,0.0167351469945407,1.0,0.0
22.387386322021484,20.253652572631836,-1.51765775680542,-0.0,-0.0,-1.0,0.063348489219341,1.0,0.0
21.88115692138672,20.36615753173828,-1.4919304847717283,-0.0,-0.0,-1.0,0.0900012773582257,2.0,0.0
22.213695526123047,19.440523147583008,-1.361604928970337,-0.0,-0.0,-1.0,0.0581369575400194,1.0,0.0
22.015670776367188,19.53364944458008,-1.3591556549072266,-0.0,-0.0,-1.0,0.1463919547090492,1.0,0.0
21.90105438232422,19.49502944946289,-1.3419523239135742,-0.0,-0.0,-1.0,0.135429632772553,1.0,0.0
22.397558212280273,20.50078392028809,-1.471752643585205,-0.0,-0.0,-1.0,0.0958353558265982,1.0,0.0
22.35182762145996,20.560646057128903,-1.479755401611328,-0.0,-0.0,-1.0,0.1234817924415076,1.0,0.0
22.08181381225586,20.59320068359375,-1.4672417640686035,-0.0,-0.0,-1.0,0.0934585473039977,1.0,0.0
21.99979591369629,20.56072425842285,-1.4552955627441406,-0.0,-0.0,-1.0,0.0977780418394695,1.0,0.0
21.72216796875,19.21659469604492,-1.3926198482513428,-0.0,-0.0,-1.0,0.0648746459834571,1.0,0.0
21.698320388793945,19.86678695678711,-1.520275354385376,-0.0,-0.0,-1.0,0.0099467538652669,1.0,0.0
21.21656036376953,20.00128936767578,-1.5065219402313232,-0.7243567459601121,0.6703780079265096,0.1609367300232061,0.0177104372032268,3.0,0.0
20.98486328125,20.01960563659668,-1.4911487102508545,0.3227508313942488,0.1398184053306569,-0.9360997352660202,0.0172938167603975,3.0,0.0
20.829023361206055,20.139938354492188,-1.5033743381500244,-0.0,-0.0,-1.0,0.0169395376386846,2.0,0.0
20.52720642089844,20.165264129638672,-1.4848301410675049,-0.0,-0.0,-1.0,0.0169743202080811,1.0,0.0
21.473609924316406,18.480405807495117,-1.224808692932129,-0.0,-0.0,-1.0,0.0378635610302528,2.0,0.0
21.553932189941406,18.863840103149418,-1.307619333267212,-0.3743297373002484,-0.8919519138918341,0.2535725361260974,0.0522622917615127,4.0,0.0
22.44986915588379,19.38705825805664,-1.4339499473571775,-0.0,-0.0,-1.0,0.0535826628189424,2.0,0.0
22.299495697021484,19.230653762817383,-1.3879964351654053,0.6039451862372883,-0.0407027415655866,-0.7959858659862323,0.0294068977153493,3.0,0.0
22.195253372192383,19.50887680053711,-1.4331927299499512,-0.0,-0.0,-1.0,0.0633073255002379,1.0,0.0
22.09457015991211,19.89040756225586,-1.500556707382202,-0.0,-0.0,-1.0,0.0210184373274949,1.0,0.0
21.938947677612305,20.127531051635746,-1.5345008373260498,-0.0,-0.0,-1.0,0.053441117019887,1.0,0.0
21.60311508178711,20.28311538696289,-1.5365846157073977,-0.0,-0.0,-1.0,0.0354016261097167,2.0,0.0
21.384366989135746,20.37628746032715,-1.5369641780853271,-0.0,-0.0,-1.0,0.0147814039861836,1.0,0.0
21.18590545654297,20.434892654418945,-1.5325052738189695,-0.0,-0.0,-1.0,0.0293754771930561,1.0,0.0
20.800617218017575,20.524272918701172,-1.5198843479156494,-0.0,-0.0,-1.0,0.0110257474730924,2.0,0.0
20.23948860168457,18.353649139404297,-1.0151779651641846,-0.0,-0.0,-1.0,0.1992369169137265,2.0,0.0
21.870113372802734,19.077632904052734,-1.3863458633422852,-0.0,-0.0,-1.0,0.0392631063679497,1.0,0.0
21.86412811279297,19.764179229736328,-1.5186254978179932,-0.0,-0.0,-1.0,0.0163959339865614,1.0,0.0
21.78264617919922,19.077404022216797,-1.375164270401001,-0.0,-0.0,-1.0,0.0430091729983909,1.0,0.0
21.747127532958984,19.470102310180664,-1.4466757774353027,-0.0,-0.0,-1.0,0.0749415396764279,2.0,0.0
21.685813903808594,19.93876075744629,-1.531304121017456,-0.0,-0.0,-1.0,0.0111871771063732,1.0,0.0
21.453998565673828,20.098833084106445,-1.5356810092926023,-0.0,-0.0,-1.0,0.0161122139109141,1.0,0.0
21.12225341796875,20.239442825317383,-1.5253517627716064,-0.0,-0.0,-1.0,0.0388150394586839,1.0,0.0
20.9539794921875,20.328920364379883,-1.5244767665863037,-0.0,-0.0,-1.0,0.0149400196247373,1.0,0.0
20.685691833496097,20.431921005249023,-1.515843629837036,-0.0,-0.0,-1.0,0.0121416348706354,1.0,0.0
21.912887573242188,18.781097412109375,-1.3354332447052002,-0.4146825729949894,0.871378636103597,-0.2621786341342297,0.0248694886039607,3.0,0.0
20.90066146850586,18.866565704345703,-1.2241065502166748,-0.0,-0.0,-1.0,0.1293204572088298,1.0,0.0
22.17417907714844,18.93477439880371,-1.371941089630127,-0.0,-0.0,-1.0,0.0131194048227786,1.0,0.0
22.110008239746097,19.42796516418457,-1.4340157508850098,-0.1325659485660406,-0.9705206756349528,-0.2012855867812216,0.0666136325599407,3.0,0.0
22.07527732849121,19.670255661010746,-1.4649794101715088,-0.0,-0.0,-1.0,0.0446394143055762,2.0,0.0
21.906734466552734,20.173377990722656,-1.5155689716339111,-0.0,-0.0,-1.0,0.1008484296384274,2.0,0.0
21.714496612548828,20.36950302124023,-1.5159270763397217,-0.0,-0.0,-1.0,0.053935019589259,2.0,0.0
21.802743911743164,18.95999336242676,-1.3116168975830078,-0.0,-0.0,-1.0,0.0420188353309425,1.0,0.0
21.596263885498047,20.536489486694336,-1.5244033336639404,0.7255398597511362,0.0318291025953501,-0.6874436850682942,0.0444399814002401,4.0,0.0
21.67056655883789,18.2956485748291,-1.1915338039398191,-0.0,-0.0,-1.0,0.061214644562086,1.0,0.0
22.379722595214844,20.605152130126953,-1.3097491264343262,-0.0,-0.0,-1.0,0.1466455280022564,2.0,0.0
21.0228214263916,18.69047164916992,-1.3633451461791992,-0.0,-0.0,-1.0,0.039347525198996,1.0,0.0
20.812185287475582,19.224853515625,-1.4340953826904297,-0.0,-0.0,-1.0,0.0264213239618363,1.0,0.0
20.601240158081055,19.468936920166016,-1.449689865112305,-0.0,-0.0,-1.0,0.016105295505927,1.0,0.0
20.37217140197754,19.63230323791504,-1.4474196434020996,-0.3822158089279369,-0.811319211809661,-0.442348518652559,0.0099571050731306,3.0,0.0
21.20397186279297,18.31739616394043,-1.2839536666870115,-0.0,-0.0,-1.0,0.0610081218930472,1.0,0.0
21.226892471313477,18.809337615966797,-1.380360126495361,-0.0,-0.0,-1.0,0.0384364640392774,1.0,0.0
21.170150756835938,19.197824478149418,-1.445157527923584,-0.0,-0.0,-1.0,0.0202156031781061,2.0,0.0
21.039485931396484,19.433927536010746,-1.4690170288085938,-0.0,-0.0,-1.0,0.0288154578302169,1.0,0.0
20.837663650512695,19.64587020874023,-1.476755142211914,-0.0,-0.0,-1.0,0.0395675929412725,2.0,0.0
20.644105911254883,19.833953857421875,-1.482645034790039,-0.0,-0.0,-1.0,0.0178752825424798,2.0,0.0
20.463489532470703,19.961257934570312,-1.4790353775024414,-0.0,-0.0,-1.0,0.0148132199070049,1.0,0.0
20.257339477539062,18.21254539489746,-1.0924935340881348,-0.0,-0.0,-1.0,0.2066106606365654,2.0,0.0
20.259830474853516,18.32990837097168,-1.1154906749725342,0.3218585747938785,0.4911735395863985,-0.8094168344195848,0.198716987183854,5.0,0.0
22.681732177734375,20.451698303222656,-1.498732089996338,-0.0,-0.0,-1.0,0.1583748743020984,2.0,0.0
22.48035049438477,20.565135955810547,-1.4824881553649902,-0.0,-0.0,-1.0,0.1179150572761248,1.0,0.0
22.139881134033203,20.628204345703125,-1.4345450401306152,-0.0,-0.0,-1.0,0.1125467694674844,2.0,0.0
22.68511390686035,18.186424255371097,-1.1556391716003418,-0.0,-0.0,-1.0,0.1734160418539883,1.0,0.0
22.50066375732422,18.152402877807617,-1.115818977355957,-0.0,-0.0,-1.0,0.1234449065152026,2.0,0.0
22.12918472290039,20.051328659057617,-1.4892089366912842,-0.0,-0.0,-1.0,0.0529437470702256,2.0,0.0
21.8338565826416,20.538450241088867,-1.4834916591644287,-0.0,-0.0,-1.0,0.0726871361644941,2.0,0.0
22.19505500793457,19.737051010131836,-1.468334436416626,-0.0,-0.0,-1.0,0.0422420172027811,1.0,0.0
21.889158248901367,20.3469181060791,-1.4721767902374268,0.2616660856022785,-0.6362919609064148,-0.7257157846784448,0.0968562322224861,3.0,0.0
22.069011688232425,19.4280948638916,-1.4076409339904783,-0.0,-0.0,-1.0,0.1569383724114887,2.0,0.0
21.92321014404297,18.978099822998047,-1.3291258811950684,-0.5714831616692148,0.6739307063454291,-0.4682140525158436,0.0314753825080895,3.0,0.0
21.971454620361328,19.196399688720703,-1.3619434833526611,-0.0,-0.0,-1.0,0.0306663450686098,2.0,0.0
21.773365020751953,18.581871032714844,-1.2568745613098145,-0.0,-0.0,-1.0,0.021561224753598,1.0,0.0
20.716482162475582,19.02964782714844,-1.069509744644165,0.2544469147403524,-0.0530673052526853,-0.9656296540042328,0.2263884312375817,3.0,0.0
21.204484939575195,20.61193084716797,-1.516191005706787,-0.0,-0.0,-1.0,0.0428340264637909,2.0,0.0
21.50557518005371,19.85205078125,-1.501065731048584,-0.0,-0.0,-1.0,0.0072925415733573,1.0,0.0
21.399337768554688,20.142955780029297,-1.507701396942139,-0.0,-0.0,-1.0,0.0240899945419113,1.0,0.0
21.24275779724121,20.473121643066406,-1.508920192718506,-0.0,-0.0,-1.0,0.0401535202554805,1.0,0.0
21.48227310180664,19.535987854003903,-1.4642596244812012,-0.0,-0.0,-1.0,0.0103164569108776,1.0,0.0
21.31368637084961,18.99604034423828,-1.374667406082153,-0.0,-0.0,-1.0,0.0428287114601939,1.0,0.0
21.39430046081543,19.262725830078125,-1.4178063869476318,-0.0,-0.0,-1.0,0.0378477020976408,1.0,0.0
21.18471908569336,18.529081344604492,-1.3037734031677246,0.609515127553439,0.3822723394246395,-0.6945208188343439,0.0331925974892114,3.0,0.0
20.954343795776367,18.97481918334961,-1.2900047302246094,-0.0,-0.0,-1.0,0.1547361876091831,1.0,0.0
21.14024543762207,18.364280700683594,-1.2796261310577393,-0.0,-0.0,-1.0,0.0541469724761715,1.0,0.0
20.398290634155273,20.320131301879883,-1.4971306324005127,-0.0,-0.0,-1.0,0.0160661633177113,1.0,0.0
20.320499420166016,20.52130126953125,-1.5048797130584717,-0.0,-0.0,-1.0,0.0144243054902754,1.0,0.0
20.621274948120117,19.312824249267575,-1.43163800239563,-0.0,-0.0,-1.0,0.0208572891784365,1.0,0.0
20.55303192138672,19.686616897583008,-1.4572656154632568,-0.0,-0.0,-1.0,0.0192995473252542,2.0,0.0
20.62320899963379,18.864856719970703,-1.38507080078125,-0.0,-0.0,-1.0,0.1917052839973826,1.0,0.0
20.5888614654541,19.047780990600582,-1.3956756591796875,-0.0,-0.0,-1.0,0.0527600728855179,2.0,0.0
22.663604736328125,19.55842399597168,-1.2172672748565674,-0.0,-0.0,-1.0,0.1089152209051609,2.0,0.0
22.301467895507812,20.632875442504883,-1.2336199283599854,-0.1977222649979881,-0.9802426742384008,-0.0054959554231737,0.141070761085075,3.0,0.0
22.268434524536133,18.609603881835938,-1.245208740234375,-0.0,-0.0,-1.0,0.1240295010087626,1.0,0.0
21.263805389404297,20.281972885131836,-1.524038553237915,-0.5174466500762179,0.8156719332199895,0.2587049703466578,0.0287180319625745,3.0,0.0
21.20495986938477,20.550962448120117,-1.5223615169525146,-0.0,-0.0,-1.0,0.0542493043474396,2.0,0.0
21.12668800354004,19.44390869140625,-1.4586365222930908,-0.0,-0.0,-1.0,0.0263163723936174,1.0,0.0
21.188236236572266,19.85338973999023,-1.48793625831604,-0.0,-0.0,-1.0,0.0131452717097834,2.0,0.0
21.188663482666016,20.303844451904297,-1.506885290145874,0.9850668842718064,-0.0781541462025545,-0.1534117431697647,0.0406754040150552,3.0,0.0
20.903593063354492,18.995147705078125,-1.391939640045166,-0.0,-0.0,-1.0,0.1030369360073746,1.0,0.0
20.981170654296875,19.239328384399418,-1.417182207107544,-0.0,-0.0,-1.0,0.0300648712354319,1.0,0.0
20.83090591430664,18.64017105102539,-1.3665645122528076,-0.0,-0.0,-1.0,0.0527178408893801,1.0,0.0
20.816478729248047,18.781103134155273,-1.3658661842346191,-0.0,-0.0,-1.0,0.1449841395704296,1.0,0.0
22.52930450439453,18.329116821289062,-1.1909193992614746,-0.0,-0.0,-1.0,0.1388093126493981,1.0,0.0
22.24336624145508,18.324562072753903,-1.1318700313568115,-0.0,-0.0,-1.0,0.1206120851616027,1.0,0.0
21.738866806030273,19.55862045288086,-1.4346699714660645,-0.0,-0.0,-1.0,0.0720796513695228,1.0,0.0
21.92033576965332,19.823686599731445,-1.4862556457519531,-0.0,-0.0,-1.0,0.021092682729604,1.0,0.0
21.918561935424805,20.19186019897461,-1.501441478729248,-0.3601136483715252,0.7009872571393184,-0.6155769859122778,0.1050160455740108,3.0,0.0
21.516429901123047,18.999286651611328,-1.366444110870361,-0.0,-0.0,-1.0,0.047920625443667,1.0,0.0
21.63409423828125,19.323192596435547,-1.402897834777832,-0.0,-0.0,-1.0,0.0347689905668079,1.0,0.0
21.209856033325195,18.521738052368164,-1.285754919052124,0.609515127553439,0.3822723394246395,-0.6945208188343439,0.0388656160804934,3.0,0.0
21.33949851989746,18.776086807250977,-1.320591688156128,-0.0,-0.0,-1.0,0.0302923252706155,2.0,0.0
21.028465270996097,18.248037338256836,-1.2400774955749512,-0.0,-0.0,-1.0,0.0588292658309158,2.0,0.0
20.50647354125977,19.688018798828125,-1.459157943725586,-0.0,-0.0,-1.0,0.0184327086817839,2.0,0.0
20.497501373291016,20.00941467285156,-1.4635610580444336,-0.0,-0.0,-1.0,0.0149394258710636,2.0,0.0
20.547985076904297,20.32486343383789,-1.4837961196899414,-0.0,-0.0,-1.0,0.0193018167207939,1.0,0.0
20.389583587646484,19.614452362060547,-1.4297242164611816,-0.3822158089279369,-0.811319211809661,-0.442348518652559,0.0099571050731306,3.0,0.0
22.645837783813477,19.73944854736328,-1.4588510990142822,-0.0,-0.0,-1.0,0.1199625730184874,2.0,0.0
22.436552047729492,19.54004669189453,-1.411381721496582,-0.0,-0.0,-1.0,0.0996005906115044,1.0,0.0
22.58770179748535,19.78666114807129,-1.4471399784088137,-0.0,-0.0,-1.0,0.1013666418312882,1.0,0.0
22.61195182800293,20.505123138427734,-1.4660050868988037,-0.0935511987431167,-0.1483178927654295,-0.9845049394997204,0.1488387218897493,3.0,0.0
21.924854278564453,18.750732421875,-1.2972803115844729,-0.0,-0.0,-1.0,0.0229273795067162,2.0,0.0
21.9804744720459,19.02771759033203,-1.309936761856079,-0.0,-0.0,-1.0,0.0275087135140739,1.0,0.0
22.216064453125,19.348628997802734,-1.3622865676879885,-0.0,-0.0,-1.0,0.0568255475992304,1.0,0.0
21.46257781982422,18.308935165405273,-1.200632095336914,-0.0,-0.0,-1.0,0.051449814801399,1.0,0.0
21.604005813598633,18.62780380249023,-1.2293641567230225,-0.0,-0.0,-1.0,0.0641325243361962,2.0,0.0
20.839262008666992,19.059646606445312,-1.0672876834869385,-0.0,-0.0,-1.0,0.108848322037419,1.0,0.0
20.25116539001465,18.280519485473633,-0.946326494216919,-0.0,-0.0,-1.0,0.1992369169137264,1.0,0.0
21.46812629699707,19.20087623596191,-1.402392864227295,-0.0,-0.0,-1.0,0.041003583311144,1.0,0.0
21.630708694458008,19.48412322998047,-1.4400522708892822,-0.0,-0.0,-1.0,0.0629126800455859,2.0,0.0
21.786441802978516,19.83362197875977,-1.477964162826538,-0.0,-0.0,-1.0,0.0148729803086782,1.0,0.0
21.832937240600582,20.11625289916992,-1.4917423725128174,-0.0,-0.0,-1.0,0.049947736829214,1.0,0.0
20.990943908691406,18.204591751098633,-1.301319599151611,0.6684323806976368,0.3468974745025974,-0.6579211917992984,0.0588292658309158,3.0,0.0
20.979719161987305,18.435932159423828,-1.2963693141937256,-0.0,-0.0,-1.0,0.0210844209147758,1.0,0.0
21.123510360717773,18.812503814697266,-1.3257806301116943,-0.0,-0.0,-1.0,0.0478346933306969,1.0,0.0
21.460628509521484,19.300432205200195,-1.400869846343994,-0.0,-0.0,-1.0,0.0343959092232746,2.0,0.0
21.72014617919922,20.36404609680176,-1.4696190357208252,0.7724579912743592,-0.0240851787161203,-0.6346089787283148,0.049860371295468,4.0,0.0
20.949125289916992,18.237091064453125,-1.317798376083374,-0.0,-0.0,-1.0,0.0588292658309158,2.0,0.0
21.00712013244629,18.603572845458984,-1.3242475986480713,-0.0,-0.0,-1.0,0.0163176769897433,1.0,0.0
21.214082717895508,18.94053649902344,-1.3668067455291748,-0.0,-0.0,-1.0,0.0508595663237147,2.0,0.0
21.465486526489254,19.247543334960938,-1.4216690063476562,-0.0,-0.0,-1.0,0.0392864596256648,1.0,0.0
21.686532974243164,19.572608947753903,-1.4712576866149902,0.4515873064694296,0.5700302538937062,-0.6863923180525572,0.0613457790157783,3.0,0.0
21.81273078918457,19.957983016967773,-1.500755786895752,-0.0,-0.0,-1.0,0.0157152518653004,1.0,0.0
21.736099243164062,20.459880828857425,-1.4858098030090332,-0.0,-0.0,-1.0,0.0524036138022911,1.0,0.0
20.31538200378418,18.6033992767334,-1.3017067909240725,-0.0,-0.0,-1.0,0.0897102767155297,1.0,0.0
20.612462997436523,18.80381774902344,-1.365307331085205,-0.0,-0.0,-1.0,0.1322936022451661,1.0,0.0
20.831031799316406,19.26205825805664,-1.404174566268921,-0.0,-0.0,-1.0,0.0171837807727474,1.0,0.0
20.995708465576172,19.478879928588867,-1.4388234615325928,-0.0,-0.0,-1.0,0.0304150125988806,1.0,0.0
21.05327796936035,19.677753448486328,-1.4486725330352783,-0.0,-0.0,-1.0,0.0216593387869586,1.0,0.0
21.193010330200195,19.96902847290039,-1.4781358242034912,-0.712232706113286,-0.0923459247179673,-0.6958425127358413,0.0200994543287618,3.0,0.0
21.313974380493164,20.30202865600586,-1.5039865970611572,-0.0,-0.0,-1.0,0.0267802016272377,1.0,0.0
21.265865325927734,20.56186866760254,-1.4899122714996338,0.3876694825432797,0.7351436625049469,-0.5561260358798519,0.0435024448190467,3.0,0.0
22.523101806640625,18.24288558959961,-1.149213790893555,-0.5794818582605732,0.2623799096858978,-0.771594167253805,0.189413375301019,3.0,0.0
22.526912689208984,18.199626922607425,-1.2588677406311035,0.4565652810358773,0.6201890595798303,-0.637897855875152,0.1619539541978909,3.0,0.0
22.6476993560791,18.284194946289062,-1.2829415798187256,-0.0,-0.0,-1.0,0.1704761110057256,2.0,0.0
21.81561851501465,18.162710189819336,-1.1060588359832764,-0.0,-0.0,-1.0,0.0879824209564459,1.0,0.0
22.408241271972656,18.46733856201172,-1.2261593341827393,-0.0,-0.0,-1.0,0.17935521651446,1.0,0.0
20.26534843444824,18.843278884887695,-1.3471362590789795,-0.0,-0.0,-1.0,0.0728653924442364,1.0,0.0
20.664400100708008,19.33847999572754,-1.4258027076721191,-0.0,-0.0,-1.0,0.0214463344433786,1.0,0.0
20.844106674194336,19.626619338989254,-1.461134910583496,-0.0,-0.0,-1.0,0.0395487124850213,2.0,0.0
20.866870880126953,19.83389663696289,-1.460303783416748,-0.0,-0.0,-1.0,0.0247872821773443,1.0,0.0
21.0111141204834,20.07579040527344,-1.4907565116882324,-0.0,-0.0,-1.0,0.0111964661491984,1.0,0.0
21.12799835205078,20.39666175842285,-1.5133795738220217,-0.0,-0.0,-1.0,0.034307301992498,1.0,0.0
20.981578826904297,18.247045516967773,-1.288450002670288,0.5665501242667953,0.3509841204231751,-0.7455408130371194,0.0588292658309158,3.0,0.0
21.08721923828125,18.45287322998047,-1.3020060062408447,-0.0,-0.0,-1.0,0.0308043533323453,2.0,0.0
21.21630859375,18.682756423950195,-1.3211514949798584,-0.0,-0.0,-1.0,0.0270086048506118,1.0,0.0
21.436786651611328,18.972816467285156,-1.3606634140014648,-0.0,-0.0,-1.0,0.0430083431853997,1.0,0.0
21.552337646484375,19.170650482177734,-1.3802039623260498,-0.0,-0.0,-1.0,0.0384028700382828,1.0,0.0
21.68087577819824,19.364992141723633,-1.404158115386963,-0.0,-0.0,-1.0,0.0733985817272666,1.0,0.0
21.95584487915039,19.651243209838867,-1.4622180461883545,-0.0,-0.0,-1.0,0.0381718391274508,1.0,0.0
22.04675674438477,19.86357307434082,-1.47825026512146,-0.0,-0.0,-1.0,0.0250745006558778,1.0,0.0
22.117366790771484,20.084060668945312,-1.4899299144744873,-0.0,-0.0,-1.0,0.0665039420577055,2.0,0.0
22.062164306640625,20.385589599609375,-1.4684498310089111,-0.0,-0.0,-1.0,0.1220296563875982,1.0,0.0
20.21454620361328,18.257692337036133,-1.1070494651794434,-0.0,-0.0,-1.0,0.2066106606365653,1.0,0.0
21.110870361328125,18.671871185302734,-1.2961571216583252,-0.0,-0.0,-1.0,0.0220401250769398,2.0,0.0
21.945541381835938,20.58479881286621,-1.4343864917755127,-0.4297930287765642,0.8155933049176548,-0.3874087162010747,0.0978501822779532,3.0,0.0
22.017988204956055,18.585092544555664,-1.2992820739746094,-0.0,-0.0,-1.0,0.0707881496039232,2.0,0.0
22.17755889892578,18.690704345703125,-1.3306846618652344,-0.0,-0.0,-1.0,0.1053033246782208,1.0,0.0
22.458330154418945,18.828105926513672,-1.389775276184082,-0.0,-0.0,-1.0,0.0630094611234061,2.0,0.0
21.50566673278809,18.16778564453125,-1.2071754932403564,-0.0,-0.0,-1.0,0.0433218142411934,1.0,0.0
21.62531280517578,18.393226623535156,-1.2195959091186523,-0.0,-0.0,-1.0,0.0482298588502672,1.0,0.0
20.74250602722168,19.10507583618164,-0.9679059982299804,-0.0,-0.0,-1.0,0.2040557360329383,1.0,0.0
22.348630905151367,20.57400131225586,-1.2863481044769287,-0.0,-0.0,-1.0,0.1895790091878643,2.0,0.0
22.27435302734375,18.317054748535156,-1.2782716751098633,-0.0,-0.0,-1.0,0.1100467731303473,1.0,0.0
22.58507919311523,18.45690536499023,-1.344444751739502,-0.0,-0.0,-1.0,0.1192303417711644,1.0,0.0
22.406850814819336,20.39933204650879,-1.2001192569732666,-0.0,-0.0,-1.0,0.1654300861748837,1.0,0.0
22.6733341217041,18.183513641357425,-1.0914876461029053,-0.0,-0.0,-1.0,0.1631745163123694,1.0,0.0
21.59784889221191,18.246376037597656,-1.219754934310913,-0.0,-0.0,-1.0,0.0605708756689556,1.0,0.0
21.80039405822754,18.48775100708008,-1.2393503189086914,-0.0446218703443387,0.9858206676861136,0.1617606251529668,0.029830577521479,3.0,0.0
22.099853515625,18.577232360839844,-1.302788019180298,-0.0,-0.0,-1.0,0.1226428719705234,2.0,0.0
22.321598052978516,18.69746780395508,-1.3443539142608645,-0.0,-0.0,-1.0,0.0971666637809173,1.0,0.0
22.58402633666992,18.797273635864254,-1.3993961811065674,-0.0,-0.0,-1.0,0.0577070102775972,2.0,0.0
22.55123710632324,20.55335998535156,-1.217926025390625,-0.0,-0.0,-1.0,0.1361426541926612,2.0,0.0
20.311569213867188,18.153751373291016,-0.9269590377807616,-0.0,-0.0,-1.0,0.2211627357579052,1.0,0.0
20.343372344970703,18.216100692749023,-0.9256711006164552,-0.0,-0.0,-1.0,0.2211627357579053,1.0,0.0
22.415565490722656,18.195777893066406,-1.1781117916107178,-0.0,-0.0,-1.0,0.1403856211286425,1.0,0.0
21.319095611572266,20.523181915283203,-1.4806833267211914,-0.0,-0.0,-1.0,0.0280781193824155,1.0,0.0
21.680774688720703,20.033998489379883,-1.4715614318847656,-0.0,-0.0,-1.0,0.0135862207498096,1.0,0.0
21.50552749633789,20.31327438354492,-1.4828968048095703,0.3317146246245148,0.9433588299830687,-0.0062869470486534,0.0238943840531723,3.0,0.0
21.83942413330078,19.801410675048828,-1.465412139892578,-0.0,-0.0,-1.0,0.0194707182331263,1.0,0.0
21.831363677978516,19.274415969848633,-1.376460075378418,-0.0,-0.0,-1.0,0.0745877272489843,1.0,0.0
21.758853912353516,19.417085647583008,-1.3848161697387695,-0.0,-0.0,-1.0,0.0749675458237587,1.0,0.0
21.75509262084961,18.76653289794922,-1.2776603698730469,-0.0,-0.0,-1.0,0.0385610013898928,1.0,0.0
21.670883178710938,18.526506423950195,-1.2211542129516602,-0.0,-0.0,-1.0,0.0308879588366822,1.0,0.0
20.401113510131836,20.62745475769043,-1.464161396026611,-0.0,-0.0,-1.0,0.0140962575204575,1.0,0.0
20.923242568969727,19.977209091186523,-1.4572272300720217,-0.0,-0.0,-1.0,0.0168245827784102,1.0,0.0
20.864622116088867,20.1383056640625,-1.4732766151428225,0.5215431783261503,-0.5561790739393189,-0.6470375188916474,0.0161707337965899,3.0,0.0
20.536922454833984,20.450517654418945,-1.4605326652526855,-0.0,-0.0,-1.0,0.0150758040147874,1.0,0.0
21.238361358642575,19.517824172973633,-1.4436068534851074,-0.0,-0.0,-1.0,0.023214385267374,1.0,0.0
21.02326011657715,19.776611328125,-1.4431405067443848,-0.0,-0.0,-1.0,0.0172081235227448,1.0,0.0
21.32056999206543,19.246803283691406,-1.4144339561462402,-0.0,-0.0,-1.0,0.0289437193521351,2.0,0.0
21.297502517700195,18.661821365356445,-1.3103795051574707,-0.0,-0.0,-1.0,0.0402690158439952,1.0,0.0
21.012861251831055,18.935121536254883,-1.2960715293884275,-0.0,-0.0,-1.0,0.1014851591804934,1.0,0.0
21.223285675048828,18.42939186096191,-1.2555346488952637,-0.6934969488204229,0.1099084399798158,-0.7120267669111656,0.0664066320546047,3.0,0.0
21.69909286499023,20.617843627929688,-1.507591724395752,-0.0,-0.0,-1.0,0.0730358283744107,1.0,0.0
22.20834732055664,19.794458389282227,-1.4599909782409668,0.0306170545066066,-0.6009662139276952,-0.7986878023926188,0.0329893951980944,3.0,0.0
21.88641357421875,20.203693389892575,-1.4691596031188965,-0.0,-0.0,-1.0,0.0882019756568009,2.0,0.0
22.30562973022461,19.394132614135746,-1.4077935218811035,-0.0,-0.0,-1.0,0.0271248076183465,1.0,0.0
22.303524017333984,19.067176818847656,-1.348970890045166,-0.0,-0.0,-1.0,0.0244765566795905,1.0,0.0
22.548919677734375,18.569625854492188,-1.3115630149841309,-0.0,-0.0,-1.0,0.11303123773962,1.0,0.0
22.48902702331543,20.530712127685547,-1.2933783531188965,-0.0,-0.0,-1.0,0.1486653326276459,1.0,0.0
21.27651596069336,18.492082595825195,-1.360850811004639,-0.0,-0.0,-1.0,0.0457852624750088,1.0,0.0
21.275142669677734,18.853330612182617,-1.4092135429382324,-0.0,-0.0,-1.0,0.0356929758007845,2.0,0.0
21.192947387695312,19.226146697998047,-1.4398808479309082,-0.0,-0.0,-1.0,0.0196515715975732,2.0,0.0
20.987937927246097,19.669937133789062,-1.4511876106262207,-0.0,-0.0,-1.0,0.0304328681472587,1.0,0.0
20.845897674560547,19.952722549438477,-1.4563050270080566,-0.0,-0.0,-1.0,0.0203960595996163,2.0,0.0
20.690433502197266,20.298587799072266,-1.4676499366760254,-0.0,-0.0,-1.0,0.0166610735704388,2.0,0.0
20.55408096313477,20.59516143798828,-1.4772639274597168,0.9901652593422444,-0.0093912434224397,-0.1395871188136144,0.0127254731291596,3.0,0.0
21.258544921875,18.25428771972656,-1.32468843460083,-0.0,-0.0,-1.0,0.0561517874698259,1.0,0.0
21.24051094055176,18.313119888305664,-1.342134952545166,-0.0,-0.0,-1.0,0.0640896901505392,1.0,0.0
21.205493927001953,18.686267852783203,-1.386979579925537,-0.0,-0.0,-1.0,0.023606141529644,1.0,0.0
21.121959686279297,19.04532814025879,-1.4182124137878418,-0.0,-0.0,-1.0,0.0409071892494991,1.0,0.0
21.012514114379883,19.339893341064453,-1.4341216087341309,-0.0,-0.0,-1.0,0.0290477689133681,2.0,0.0
20.801719665527344,19.826820373535156,-1.4543108940124512,-0.0,-0.0,-1.0,0.0276693553487796,1.0,0.0
20.653383255004883,20.160064697265625,-1.4682021141052246,0.5189934590533828,0.8132457283738287,-0.2632055750578349,0.0190894410117521,3.0,0.0
20.523839950561523,20.382957458496097,-1.4703211784362793,-0.0,-0.0,-1.0,0.0162740885298423,2.0,0.0
20.361921310424805,20.53805923461914,-1.4541592597961426,-0.0,-0.0,-1.0,0.0135502001244791,1.0,0.0
20.822120666503903,18.24108505249023,-1.2729244232177734,-0.0,-0.0,-1.0,0.0200854415981035,1.0,0.0
20.85949325561523,18.405845642089844,-1.2915668487548828,-0.0,-0.0,-1.0,0.0167079102482956,1.0,0.0
20.866291046142575,18.91986083984375,-1.3162212371826172,-0.0,-0.0,-1.0,0.2327152444267108,2.0,0.0
21.05948829650879,19.347095489501953,-1.3961906433105469,-0.0,-0.0,-1.0,0.0272823127704526,2.0,0.0
21.112855911254883,19.6828556060791,-1.4288692474365234,-0.0,-0.0,-1.0,0.0197268122188471,1.0,0.0
21.152050018310547,20.018932342529297,-1.4576663970947266,-0.0,-0.0,-1.0,0.0278324787576543,2.0,0.0
21.092723846435547,20.52648544311523,-1.465471267700195,0.2765411566633938,0.556165970821656,-0.7837119378772263,0.0441517683048581,3.0,0.0
20.229389190673828,18.354740142822266,-1.0919952392578125,0.9502629716237012,0.3109866158841436,0.0169590536829268,0.1992369169137263,5.0,0.0
20.48531913757324,19.55814743041992,-1.4028668403625488,-0.0,-0.0,-1.0,0.0107715458735446,2.0,0.0
20.546585083007812,20.02759552001953,-1.4404921531677246,-0.0,-0.0,-1.0,0.0158400261149201,1.0,0.0
20.546894073486328,20.383045196533203,-1.4545302391052246,-0.0,-0.0,-1.0,0.0147349272976362,2.0,0.0
20.346221923828125,18.917943954467773,-1.3348870277404783,-0.0,-0.0,-1.0,0.0856299406506495,1.0,0.0
20.372522354125977,19.171119689941406,-1.3518271446228027,-0.0,-0.0,-1.0,0.0327828571165768,1.0,0.0
20.21345329284668,20.319786071777344,-1.4492206573486328,-0.0,-0.0,-1.0,0.0113393008233905,1.0,0.0
20.228445053100582,20.56433868408203,-1.4605255126953125,-0.0,-0.0,-1.0,0.0136347735385107,2.0,0.0
21.864961624145508,18.195201873779297,-1.0189752578735352,-0.0,-0.0,-1.0,0.0693367599857903,1.0,0.0
22.47747039794922,18.834980010986328,-1.3298659324645996,-0.0,-0.0,-1.0,0.0526275627061882,2.0,0.0
22.6549015045166,19.128482818603516,-1.392833232879639,-0.0,-0.0,-1.0,0.0493514374706101,1.0,0.0
22.68990707397461,19.56987762451172,-1.4081692695617676,-0.0,-0.0,-1.0,0.1222613408679003,1.0,0.0
22.28229522705078,18.548742294311523,-1.2612576484680176,-0.0,-0.0,-1.0,0.1018548691305131,1.0,0.0
21.672191619873047,18.200592041015625,-1.0483431816101074,-0.0,-0.0,-1.0,0.0885066891298143,1.0,0.0
21.48546600341797,19.03580093383789,-1.3833322525024414,-0.0,-0.0,-1.0,0.0404205719650434,1.0,0.0
21.529510498046875,19.22083282470703,-1.412454605102539,-0.0,-0.0,-1.0,0.0421291089748608,1.0,0.0
21.627845764160156,19.429758071899418,-1.4630804061889648,-0.0,-0.0,-1.0,0.0223794664586706,2.0,0.0
21.665199279785156,19.799840927124023,-1.504899978637695,-0.0,-0.0,-1.0,0.0311522667665359,1.0,0.0
21.612693786621097,20.108747482299805,-1.5111122131347656,-0.0,-0.0,-1.0,0.0140376086108297,1.0,0.0
21.58025360107422,20.30677795410156,-1.5160188674926758,-0.0,-0.0,-1.0,0.0427588337498219,2.0,0.0
21.5078125,20.59774398803711,-1.515493392944336,-0.0,-0.0,-1.0,0.0189422874496622,2.0,0.0
21.26227569580078,18.269956588745117,-1.251230239868164,-0.0,-0.0,-1.0,0.0623475357217591,1.0,0.0
21.40833282470703,18.66417694091797,-1.3297605514526367,-0.0,-0.0,-1.0,0.0495624454681534,1.0,0.0
21.432308197021484,18.801464080810547,-1.3477802276611328,-0.0,-0.0,-1.0,0.042481218707414,2.0,0.0
21.417652130126953,18.18086624145508,-1.0806884765625,-0.0,-0.0,-1.0,0.0357381332185789,1.0,0.0
21.48264503479004,18.591777801513672,-1.1871109008789062,-0.0,-0.0,-1.0,0.0550993612928215,1.0,0.0
20.610517501831055,19.115825653076172,-1.218488693237305,-0.0,-0.0,-1.0,0.0905195005964147,1.0,0.0
21.518056869506836,19.04702377319336,-1.3011760711669922,-0.0,-0.0,-1.0,0.0439101308166279,1.0,0.0
21.40625,19.27721405029297,-1.3446645736694336,-0.0,-0.0,-1.0,0.0378477020976408,1.0,0.0
21.41266441345215,19.814632415771484,-1.4759368896484375,-0.0,-0.0,-1.0,0.0069814080019668,2.0,0.0
20.279537200927734,20.252845764160156,-1.460688591003418,-0.0,-0.0,-1.0,0.0105614693274879,2.0,0.0
20.66633415222168,20.14904022216797,-1.476728439331055,0.5189934590533828,0.8132457283738287,-0.2632055750578349,0.0171522754351408,3.0,0.0
21.01869201660156,20.010440826416016,-1.480854034423828,-0.0751687337011895,0.1283684426898615,-0.9888737049771016,0.0172166899219084,4.0,0.0
21.941425323486328,19.660839080810547,-1.3806791305541992,-0.0,-0.0,-1.0,0.0712862871263099,1.0,0.0
21.758878707885746,19.985715866088867,-1.4503393173217771,-0.0,-0.0,-1.0,0.0159835505206059,1.0,0.0
21.02227020263672,20.32164001464844,-1.4756860733032229,-0.0,-0.0,-1.0,0.0281284232019374,1.0,0.0
21.365976333618164,20.26123046875,-1.4891557693481443,-0.0,-0.0,-1.0,0.0281364240300892,1.0,0.0
21.6209659576416,20.191082000732425,-1.4926261901855469,-0.0,-0.0,-1.0,0.0328875090440502,1.0,0.0
20.458799362182617,20.4709529876709,-1.467818260192871,-0.0,-0.0,-1.0,0.0162924832496092,2.0,0.0
20.808839797973633,20.42615509033203,-1.4853734970092771,-0.0,-0.0,-1.0,0.0168837214198474,2.0,0.0
22.251300811767575,19.72567367553711,-1.4606561660766602,-0.0,-0.0,-1.0,0.0408684692549832,1.0,0.0
22.196975708007812,19.831130981445312,-1.488020896911621,0.779098431261038,-0.2099126905111646,-0.5907133795411732,0.0300322426919415,3.0,0.0
22.265859603881836,20.15451431274414,-1.5887775421142578,-0.0,-0.0,-1.0,0.0609558863071526,1.0,0.0
21.7674560546875,20.3566951751709,-1.6148271560668943,-0.0,-0.0,-1.0,0.0595801894642765,1.0,0.0
22.1243953704834,20.25008201599121,-1.6073570251464844,-0.0,-0.0,-1.0,0.0829413899559496,1.0,0.0
20.838773727416992,20.21385955810547,-1.5105905532836914,-0.0,-0.0,-1.0,0.0173953175369988,2.0,0.0
21.274890899658203,20.302202224731445,-1.5656471252441406,-0.0,-0.0,-1.0,0.0276423209318556,2.0,0.0
21.54732322692871,19.76870346069336,-1.4774880409240725,-0.0,-0.0,-1.0,0.0320515052413455,1.0,0.0
21.25898551940918,19.95919418334961,-1.4788060188293457,-0.0,-0.0,-1.0,0.0172780886930052,2.0,0.0
21.816408157348633,18.612071990966797,-1.2409415245056152,-0.0,-0.0,-1.0,0.0275770840720862,2.0,0.0
21.621328353881836,18.93533515930176,-1.2867493629455566,-0.0,-0.0,-1.0,0.0439038577510705,2.0,0.0
21.801898956298828,18.80309295654297,-1.2842564582824707,-0.0,-0.0,-1.0,0.038806953138897,2.0,0.0
21.605791091918945,19.19585609436035,-1.3471531867980957,-0.0,-0.0,-1.0,0.039110963601477,1.0,0.0
20.82050514221191,20.22663688659668,-1.4769244194030762,-0.0,-0.0,-1.0,0.0193391421245881,2.0,0.0
21.063304901123047,20.078235626220703,-1.477658748626709,-0.0,-0.0,-1.0,0.022060477536166,2.0,0.0
20.23122787475586,20.562170028686523,-1.471147060394287,-0.0,-0.0,-1.0,0.0136347735385107,2.0,0.0
20.5942440032959,20.309085845947266,-1.46266508102417,-0.0,-0.0,-1.0,0.01976408197407,2.0,0.0
21.248210906982425,18.228139877319336,-1.1841344833374023,-0.0,-0.0,-1.0,0.0508541435912489,1.0,0.0
21.142942428588867,18.61011505126953,-1.287759780883789,-0.0,-0.0,-1.0,0.024135637864442,1.0,0.0
20.29671287536621,19.069656372070312,-1.323765754699707,-0.0,-0.0,-1.0,0.0535605144348094,1.0,0.0
20.66649627685547,19.03584671020508,-1.359196662902832,-0.0,-0.0,-1.0,0.1714869310397165,2.0,0.0
20.86594581604004,18.925676345825195,-1.350020408630371,-0.0,-0.0,-1.0,0.1959784713565226,2.0,0.0
20.243562698364254,18.28097152709961,-1.0728425979614258,-0.0,-0.0,-1.0,0.2066106606365653,2.0,0.0
21.28508186340332,18.946313858032227,-1.3718533515930176,-0.0,-0.0,-1.0,0.0433812803956209,1.0,0.0
21.19608688354492,19.013660430908203,-1.3641695976257324,-0.0,-0.0,-1.0,0.0487809070709575,1.0,0.0
21.290119171142575,19.959308624267575,-1.5018115043640137,-0.0,-0.0,-1.0,0.0159653479616636,2.0,0.0
21.425416946411133,19.779979705810547,-1.502953052520752,-0.0,-0.0,-1.0,0.0067488291028595,2.0,0.0
20.839130401611328,20.515649795532227,-1.494639873504639,0.5209007980168673,0.8012916929524733,-0.2942685532481344,0.0307583937432363,4.0,0.0
21.11795425415039,20.32875633239746,-1.5192193984985352,-0.0,-0.0,-1.0,0.0381443134284045,2.0,0.0
21.182064056396484,18.579553604125977,-1.3072295188903809,-0.0,-0.0,-1.0,0.032627527388962,2.0,0.0
21.649621963500977,18.296157836914062,-1.0742583274841309,-0.0,-0.0,-1.0,0.0704130972610876,2.0,0.0
22.14774513244629,19.27247428894043,-1.290855884552002,-0.0,-0.0,-1.0,0.1070063610578334,1.0,0.0
22.207048416137695,19.83921241760254,-1.3884577751159668,-0.0,-0.0,-1.0,0.0300322426919415,1.0,0.0
21.97830581665039,20.159761428833008,-1.4117083549499512,-0.0,-0.0,-1.0,0.0934421738032262,1.0,0.0
21.6415958404541,20.45694351196289,-1.4186673164367676,-0.0,-0.0,-1.0,0.0544899319261365,1.0,0.0
0.0,0.0,0.0,0.0,0.0,0.0,0.0,0.0,0.0
0.0,0.0,0.0,0.0,0.0,0.0,0.0,0.0,0.0
0.0,0.0,0.0,0.0,0.0,0.0,0.0,0.0,0.0
0.0,0.0,0.0,0.0,0.0,0.0,0.0,0.0,0.0
0.0,0.0,0.0,0.0,0.0,0.0,0.0,0.0,0.0
0.0,0.0,0.0,0.0,0.0,0.0,0.0,0.0,0.0
0.0,0.0,0.0,0.0,0.0,0.0,0.0,0.0,0.0
0.0,0.0,0.0,0.0,0.0,0.0,0.0,0.0,0.0
0.0,0.0,0.0,0.0,0.0,0.0,0.0,0.0,0.0
0.0,0.0,0.0,0.0,0.0,0.0,0.0,0.0,0.0
0.0,0.0,0.0,0.0,0.0,0.0,0.0,0.0,0.0
0.0,0.0,0.0,0.0,0.0,0.0,0.0,0.0,0.0
0.0,0.0,0.0,0.0,0.0,0.0,0.0,0.0,0.0
0.0,0.0,0.0,0.0,0.0,0.0,0.0,0.0,0.0
0.0,0.0,0.0,0.0,0.0,0.0,0.0,0.0,0.0
0.0,0.0,0.0,0.0,0.0,0.0,0.0,0.0,0.0
0.0,0.0,0.0,0.0,0.0,0.0,0.0,0.0,0.0
0.0,0.0,0.0,0.0,0.0,0.0,0.0,0.0,0.0
0.0,0.0,0.0,0.0,0.0,0.0,0.0,0.0,0.0
0.0,0.0,0.0,0.0,0.0,0.0,0.0,0.0,0.0
0.0,0.0,0.0,0.0,0.0,0.0,0.0,0.0,0.0
0.0,0.0,0.0,0.0,0.0,0.0,0.0,0.0,0.0
0.0,0.0,0.0,0.0,0.0,0.0,0.0,0.0,0.0
0.0,0.0,0.0,0.0,0.0,0.0,0.0,0.0,0.0
0.0,0.0,0.0,0.0,0.0,0.0,0.0,0.0,0.0
0.0,0.0,0.0,0.0,0.0,0.0,0.0,0.0,0.0
0.0,0.0,0.0,0.0,0.0,0.0,0.0,0.0,0.0
0.0,0.0,0.0,0.0,0.0,0.0,0.0,0.0,0.0
0.0,0.0,0.0,0.0,0.0,0.0,0.0,0.0,0.0
0.0,0.0,0.0,0.0,0.0,0.0,0.0,0.0,0.0
0.0,0.0,0.0,0.0,0.0,0.0,0.0,0.0,0.0
0.0,0.0,0.0,0.0,0.0,0.0,0.0,0.0,0.0
0.0,0.0,0.0,0.0,0.0,0.0,0.0,0.0,0.0
0.0,0.0,0.0,0.0,0.0,0.0,0.0,0.0,0.0
0.0,0.0,0.0,0.0,0.0,0.0,0.0,0.0,0.0
0.0,0.0,0.0,0.0,0.0,0.0,0.0,0.0,0.0
0.0,0.0,0.0,0.0,0.0,0.0,0.0,0.0,0.0
0.0,0.0,0.0,0.0,0.0,0.0,0.0,0.0,0.0
