x,y,z,nx,ny,nz,curvature,density,label
46.97407150268555,28.722999572753903,-2.5946741104125977,-0.0,-0.0,-1.0,0.0438974917660784,1.0,0.0
47.62052917480469,29.3850154876709,-2.6854758262634277,-0.0,-0.0,-1.0,0.1780831624597836,1.0,0.0
46.32081604003906,28.272783279418945,-2.504878044128418,-0.0,-0.0,-1.0,0.1421176493805439,1.0,0.0
45.58741760253906,30.314849853515625,-2.7823903560638428,-0.0,-0.0,-1.0,0.0561136144194575,1.0,0.0
45.707672119140625,30.49197006225586,-2.798259019851685,-0.0,-0.0,-1.0,0.0759113100484223,1.0,0.0
45.60628509521485,28.42914581298828,-1.546459674835205,-0.0,-0.0,-1.0,0.0437525149384735,1.0,0.0
45.65946578979492,29.615861892700195,-1.7061796188354492,-0.0,-0.0,-1.0,0.0614974804211515,1.0,0.0
45.394256591796875,28.254716873168945,-2.6099228858947754,-0.0,-0.0,-1.0,0.0445860202041617,1.0,0.0
45.22686004638672,28.64306640625,-2.5981292724609375,-0.0,-0.0,-1.0,0.0446446203177126,1.0,0.0
45.650203704833984,28.462291717529297,-2.65648889541626,-0.0,-0.0,-1.0,0.0543296376734536,1.0,0.0
45.818603515625,28.684776306152344,-2.690382480621338,-0.0,-0.0,-1.0,0.0341984956720782,1.0,0.0
45.99713516235352,28.901947021484375,-2.725858211517334,-0.0,-0.0,-1.0,0.0536383552184936,1.0,0.0
45.63933944702149,29.447189331054688,-2.69185733795166,-0.0,-0.0,-1.0,0.1319777589673309,1.0,0.0
45.7562255859375,29.247587203979492,-2.7020373344421387,-0.0,-0.0,-1.0,0.0486740174769467,1.0,0.0
46.162540435791016,29.882080078125,-2.789785861968994,-0.0,-0.0,-1.0,0.0433507057746882,2.0,0.0
45.939453125,30.27107810974121,-2.771665573120117,0.7616123202487144,0.5146461225005873,-0.3938096522947099,0.0900602150454352,4.0,0.0
46.04729080200195,30.01622009277344,-2.777587413787842,-0.0,-0.0,-1.0,0.0389383459582267,1.0,0.0
47.471099853515625,29.796348571777344,-2.733476161956787,-0.0,-0.0,-1.0,0.1568375278857631,2.0,0.0
46.24253463745117,28.26742935180664,-2.586374282836914,-0.0,-0.0,-1.0,0.1554201018459081,1.0,0.0
46.31352996826172,28.4422607421875,-2.5928754806518555,-0.0,-0.0,-1.0,0.1803310311255391,2.0,0.0
46.481224060058594,28.666671752929688,-2.6122474670410156,-0.0,-0.0,-1.0,0.1236044091170121,1.0,0.0
45.479129791259766,29.506351470947266,-1.25132155418396,-0.0,-0.0,-1.0,0.0556228824387109,1.0,0.0
45.82476043701172,28.2160587310791,-2.612506628036499,-0.0,-0.0,-1.0,0.0829170657483596,1.0,0.0
46.033973693847656,28.36706161499023,-2.645946741104126,-0.0,-0.0,-1.0,0.111179418528919,1.0,0.0
46.147064208984375,28.647504806518555,-2.666590929031372,-0.0,-0.0,-1.0,0.1510245898365135,2.0,0.0
46.190040588378906,28.642070770263672,-2.6730568408966064,-0.0,-0.0,-1.0,0.206068480001215,2.0,0.0
46.455810546875,28.911775588989254,-2.717001676559448,-0.0,-0.0,-1.0,0.0566891329432036,2.0,0.0
46.70027160644531,29.06578254699707,-2.7563135623931885,-0.0,-0.0,-1.0,0.1228909845518251,1.0,0.0
47.049842834472656,29.64809799194336,-2.818641424179077,-0.0,-0.0,-1.0,0.0127729968372626,2.0,0.0
46.16228485107422,30.327564239501953,-2.69588303565979,-0.0,-0.0,-1.0,0.0369722923287887,1.0,0.0
47.001930236816406,29.959875106811523,-2.816811800003052,-0.2235443257553871,-0.3617493506679395,-0.905077533537262,0.0237287106952732,3.0,0.0
45.46772766113281,29.47513771057129,-1.3876092433929443,-0.0,-0.0,-1.0,0.0646715243446806,1.0,0.0
45.47465133666992,29.31190299987793,-0.9007654190063475,-0.0,-0.0,-1.0,0.0557189524447415,1.0,0.0
45.70927429199219,28.47550392150879,-2.6778693199157715,-0.0,-0.0,-1.0,0.0558127910577403,1.0,0.0
45.939483642578125,28.852025985717773,-2.709470272064209,-0.0,-0.0,-1.0,0.0570867522934308,1.0,0.0
45.97541046142578,28.675737380981445,-2.7166528701782227,-0.0,-0.0,-1.0,0.0595030442795122,1.0,0.0
46.22177505493164,29.002058029174805,-2.751498222351074,-0.0,-0.0,-1.0,0.0390167490714644,1.0,0.0
45.94398498535156,30.131940841674805,-2.7015089988708496,-0.0,-0.0,-1.0,0.0855253633397861,1.0,0.0
46.20054626464844,29.998119354248047,-2.7416067123413086,-0.0,-0.0,-1.0,0.0312488008788271,2.0,0.0
46.349876403808594,29.64057350158691,-2.766547203063965,-0.0,-0.0,-1.0,0.0245606674363994,1.0,0.0
46.35393524169922,29.34600830078125,-2.769113063812256,-0.0,-0.0,-1.0,0.0839728446248379,1.0,0.0
45.51752471923828,29.243379592895508,-1.4793801307678225,-0.0,-0.0,-1.0,0.0667872408855188,1.0,0.0
45.32143783569336,28.970348358154297,-2.719735860824585,-0.0,-0.0,-1.0,0.0156970200636051,1.0,0.0
45.450313568115234,29.410634994506836,-2.778898000717163,-0.0,-0.0,-1.0,0.1194008189188814,2.0,0.0
45.477027893066406,29.309907913208008,-2.7738354206085205,-0.0,-0.0,-1.0,0.0976312034769216,1.0,0.0
46.169776916503906,28.660850524902344,-2.2724404335021973,-0.0,-0.0,-1.0,0.1567244751617217,1.0,0.0
45.549278259277344,29.502674102783203,-2.25278377532959,-0.0,-0.0,-1.0,0.025367433215899,1.0,0.0
45.25422668457031,28.349010467529297,-2.5748372077941895,-0.0,-0.0,-1.0,0.0445734183419288,1.0,0.0
45.635986328125,28.846946716308594,-2.685451030731201,-0.0,-0.0,-1.0,0.0090387243370351,1.0,0.0
45.49683380126953,29.117502212524418,-2.69530725479126,-0.0,-0.0,-1.0,0.0429114661200177,1.0,0.0
45.44071960449219,29.578594207763672,-2.738941192626953,-0.0,-0.0,-1.0,0.1437205871617215,1.0,0.0
45.49242401123047,29.55353546142578,-2.118466854095459,-0.0,-0.0,-1.0,0.0309336189850074,1.0,0.0
46.24939727783203,28.59235382080078,-2.498721122741699,-0.0,-0.0,-1.0,0.1350277612494575,1.0,0.0
47.36815643310547,29.921730041503903,-2.822746753692627,-0.0,-0.0,-1.0,0.0885337267188508,1.0,0.0
47.65580749511719,29.727441787719727,-2.837465286254883,-0.0,-0.0,-1.0,0.1750210824534791,1.0,0.0
45.33095932006836,30.31416702270508,-2.596651077270508,-0.0,-0.0,-1.0,0.1796345774509903,1.0,0.0
46.097137451171875,30.417518615722656,-2.713940143585205,-0.0,-0.0,-1.0,0.0529362915209509,1.0,0.0
46.377899169921875,30.298416137695312,-2.7362875938415527,-0.0,-0.0,-1.0,0.0692187387133363,1.0,0.0
47.02530670166016,30.368404388427734,-2.8336849212646484,-0.0,-0.0,-1.0,0.0469105611251427,2.0,0.0
47.16765213012695,30.15889549255371,-2.825819969177246,-0.0,-0.0,-1.0,0.048705107574687,1.0,0.0
46.20575714111328,28.589324951171875,-2.3115198612213135,-0.0,-0.0,-1.0,0.183913640558126,2.0,0.0
45.550636291503906,29.512798309326172,-1.3923497200012207,-0.0,-0.0,-1.0,0.0646715243446806,1.0,0.0
47.54247283935547,28.306690216064453,-2.5344247817993164,-0.0,-0.0,-1.0,0.0376873056306669,1.0,0.0
47.46588897705078,29.713605880737305,-2.689633846282959,-0.0,-0.0,-1.0,0.2025427905935672,2.0,0.0
47.42545318603515,29.85395050048828,-2.7006607055664062,-0.0,-0.0,-1.0,0.0909232239116975,1.0,0.0
47.30501937866211,30.60467529296875,-2.775132179260254,-0.0,-0.0,-1.0,0.0610587635266787,1.0,0.0
47.54388427734375,30.465734481811523,-2.792827606201172,-0.0,-0.0,-1.0,0.050169338541171,1.0,0.0
46.16750717163086,28.589733123779297,-2.3625965118408203,-0.0,-0.0,-1.0,0.1761613625949129,2.0,0.0
46.19450378417969,28.705060958862305,-2.380368709564209,-0.0,-0.0,-1.0,0.1135789041183389,1.0,0.0
45.52552795410156,29.47864151000977,-1.4732451438903809,0.7621307822587166,0.369374859653067,-0.5317131593161804,0.0677265177175948,3.0,0.0
47.59231185913086,28.250226974487305,-2.6062722206115723,-0.0,-0.0,-1.0,0.0376873056306669,1.0,0.0
47.496116638183594,28.56559181213379,-2.641101360321045,-0.0,-0.0,-1.0,0.0400582319111085,1.0,0.0
47.31556701660156,29.87167739868164,-2.82681655883789,-0.0,-0.0,-1.0,0.1092020329278021,1.0,0.0
47.5447998046875,29.75632095336914,-2.8433995246887207,-0.0,-0.0,-1.0,0.202777429289188,1.0,0.0
46.24933624267578,30.30364990234375,-2.7359938621520996,-0.0,-0.0,-1.0,0.034866627635712,1.0,0.0
46.52687072753906,30.319053649902344,-2.7809247970581055,-0.0,-0.0,-1.0,0.0639033088455827,1.0,0.0
46.93693542480469,30.175277709960938,-2.819272994995117,-0.0,-0.0,-1.0,0.0175345674577227,1.0,0.0
47.094276428222656,30.037620544433594,-2.8202390670776367,0.7279281629237521,-0.5917911677158738,-0.3462712858958045,0.0605157335162061,3.0,0.0
46.351287841796875,30.634916305541992,-2.8088998794555664,-0.0,-0.0,-1.0,0.0654244511945795,1.0,0.0
46.80262756347656,30.431198120117188,-2.8423304557800293,-0.0,-0.0,-1.0,0.0438977313429017,1.0,0.0
47.29718399047851,28.300601959228516,-2.566664695739746,-0.0,-0.0,-1.0,0.0376873056306669,1.0,0.0
46.20574188232422,28.60264587402344,-2.4417428970336914,-0.0,-0.0,-1.0,0.1455579169647022,2.0,0.0
46.604400634765625,28.54178810119629,-2.4948339462280273,-0.0,-0.0,-1.0,0.1318329170312391,1.0,0.0
45.35127258300781,30.237525939941406,-2.5889668464660645,-0.0,-0.0,-1.0,0.1599680390446429,2.0,0.0
46.06583786010742,30.262229919433594,-2.7009663581848145,-0.0,-0.0,-1.0,0.046439359032343,1.0,0.0
45.5419921875,29.458545684814453,-0.9234182834625244,-0.0,-0.0,-1.0,0.0511705311804621,2.0,0.0
45.271034240722656,28.47054100036621,-2.6021742820739746,-0.0,-0.0,-1.0,0.0448367507357777,2.0,0.0
45.75440979003906,28.69478988647461,-2.708710193634033,-0.0,-0.0,-1.0,0.0307995890633088,2.0,0.0
45.34183120727539,29.059160232543945,-2.70479154586792,-0.0,-0.0,-1.0,0.0474131583413903,1.0,0.0
45.605812072753906,29.03210067749023,-2.7392473220825195,-0.0,-0.0,-1.0,0.0144995947638283,1.0,0.0
45.44841003417969,29.373733520507812,-2.7701754570007324,-0.0,-0.0,-1.0,0.0949490915400394,2.0,0.0
45.224334716796875,29.855701446533203,-2.815247058868408,-0.0,-0.0,-1.0,0.0771360111565681,1.0,0.0
45.5706787109375,29.75477600097656,-2.8487319946289062,-0.0,-0.0,-1.0,0.0148074176584574,1.0,0.0
45.605560302734375,29.5008602142334,-1.2963277101516724,-0.0,-0.0,-1.0,0.0408162569703922,2.0,0.0
46.2252197265625,28.54560089111328,-2.462841272354126,-0.5908314657417181,-0.8066961065837223,-0.0126321301511959,0.14897864422149,4.0,0.0
47.37311553955078,28.476104736328125,-2.6150715351104736,-0.0,-0.0,-1.0,0.0376873056306668,1.0,0.0
47.508575439453125,29.69679832458496,-2.787203550338745,-0.0,-0.0,-1.0,0.2188327459638988,1.0,0.0
47.157127380371094,30.107635498046875,-2.791792631149292,-0.0,-0.0,-1.0,0.0546596496530919,1.0,0.0
47.434913635253906,29.786296844482425,-2.7884681224823,0.5170763309740614,0.6384491982315512,-0.5701005957056106,0.1883952319669224,4.0,0.0
45.273902893066406,30.365617752075195,-2.573871374130249,-0.0,-0.0,-1.0,0.1796345774509903,1.0,0.0
46.1503791809082,30.403623580932617,-2.694950819015503,-0.0,-0.0,-1.0,0.0352990001329652,1.0,0.0
46.44695281982422,30.263233184814453,-2.715977907180786,-0.0,-0.0,-1.0,0.0704085984099465,1.0,0.0
47.05013275146485,30.392189025878903,-2.814432382583618,-0.0,-0.0,-1.0,0.0465816009817185,2.0,0.0
47.36643600463867,30.209651947021484,-2.833656072616577,-0.0,-0.0,-1.0,0.029258813056674,1.0,0.0
47.650638580322266,30.14943504333496,-2.8648087978363037,-0.0,-0.0,-1.0,0.0194784694970089,1.0,0.0
45.58633041381836,29.499040603637695,-1.770613431930542,-0.0,-0.0,-1.0,0.0617147193780362,2.0,0.0
46.24980163574219,28.522912979125977,-2.566068172454834,-0.0,-0.0,-1.0,0.1402034025420423,1.0,0.0
46.904052734375,28.43146514892578,-2.645171880722046,-0.0,-0.0,-1.0,0.0300509983106434,1.0,0.0
46.16566467285156,28.72355842590332,-2.583631753921509,-0.0,-0.0,-1.0,0.2171639383363847,2.0,0.0
46.83674621582031,29.604766845703125,-2.806558132171631,-0.0,-0.0,-1.0,0.0148458211366404,1.0,0.0
47.080535888671875,29.57352066040039,-2.8357467651367188,0.6033864099738182,0.7251405368515347,-0.3318072363188838,0.0270750391008239,3.0,0.0
46.131587982177734,30.077701568603516,-2.780916690826416,-0.0,-0.0,-1.0,0.0366527720798875,1.0,0.0
46.47657775878906,29.95334243774414,-2.809025287628174,-0.0,-0.0,-1.0,0.0333902759741302,1.0,0.0
46.68804168701172,29.754711151123047,-2.808265686035156,0.1120733972113234,-0.3119319974698015,-0.9434712409989042,0.0115141351671985,4.0,0.0
45.77985763549805,30.37506103515625,-2.7791080474853516,-0.0,-0.0,-1.0,0.1057931110112556,1.0,0.0
45.97087097167969,30.21988296508789,-2.7808895111083984,-0.0,-0.0,-1.0,0.0490617728894145,2.0,0.0
45.57402801513672,29.48659896850586,-1.9140799045562744,-0.0,-0.0,-1.0,0.0475819535045018,1.0,0.0
46.193851470947266,28.60708999633789,-2.3184330463409424,0.4361619082344498,-0.0571678385405035,-0.8980504596301312,0.1761613625949129,3.0,0.0
45.546531677246094,29.442222595214844,-1.691659450531006,-0.0,-0.0,-1.0,0.0868044198697989,1.0,0.0
45.59605407714844,29.437397003173828,-1.6385693550109863,-0.0,-0.0,-1.0,0.0869892887092054,1.0,0.0
45.58763885498047,29.42578887939453,-0.9972777366638184,-0.0,-0.0,-1.0,0.0511705311804621,2.0,0.0
46.28852844238281,29.30398941040039,-2.753831386566162,-0.0,-0.0,-1.0,0.079837547345754,2.0,0.0
46.482460021972656,29.002992630004883,-2.72363805770874,-0.0,-0.0,-1.0,0.0677159396591444,1.0,0.0
46.18013000488281,29.556570053100582,-2.784515857696533,-0.0,-0.0,-1.0,0.0239860442615638,1.0,0.0
45.38409423828125,30.11212921142578,-2.776712417602539,-0.0,-0.0,-1.0,0.1386932714586287,1.0,0.0
45.79038619995117,29.938457489013672,-2.800194263458252,-0.0,-0.0,-1.0,0.0147639519582809,1.0,0.0
46.02956771850586,29.764583587646484,-2.801358699798584,-0.0,-0.0,-1.0,0.0389668422630946,2.0,0.0
46.5474739074707,28.34276580810547,-2.615424633026123,-0.0,-0.0,-1.0,0.1550852467381621,1.0,0.0
46.21852493286133,28.552078247070312,-2.603723526000977,-0.0,-0.0,-1.0,0.1618500002524868,2.0,0.0
46.49580764770508,28.7069149017334,-2.672456741333008,-0.0,-0.0,-1.0,0.081997214293102,1.0,0.0
46.486854553222656,28.918224334716797,-2.709024429321289,-0.0,-0.0,-1.0,0.0606101568838599,2.0,0.0
45.5461540222168,29.485401153564453,-2.6813855171203613,-0.0,-0.0,-1.0,0.1584691991936879,1.0,0.0
45.47312545776367,29.41108131408691,-1.4155521392822266,-0.0,-0.0,-1.0,0.062550345456838,1.0,0.0
45.53424835205078,29.486730575561523,-0.8179502487182617,-0.0,-0.0,-1.0,0.0511705311804621,1.0,0.0
46.23033142089844,28.553794860839844,-2.601373195648194,-0.0,-0.0,-1.0,0.1492807313542835,2.0,0.0
46.32390213012695,28.443286895751953,-2.595064640045166,-0.0,-0.0,-1.0,0.1680591630809895,2.0,0.0
46.11382293701172,28.681663513183594,-2.607748031616211,-0.0,-0.0,-1.0,0.1450749323526382,1.0,0.0
46.3360710144043,28.852903366088867,-2.673463821411133,-0.0,-0.0,-1.0,0.0758244837491581,1.0,0.0
46.38895034790039,29.050498962402344,-2.7186012268066406,-0.0,-0.0,-1.0,0.0593146116923764,1.0,0.0
46.22179412841797,29.64496612548828,-2.8065576553344727,-0.0,-0.0,-1.0,0.0256596573833003,1.0,0.0
46.34574508666992,29.511253356933594,-2.7993316650390625,-0.0,-0.0,-1.0,0.0411672505901064,1.0,0.0
45.337310791015625,30.18087577819824,-2.783919334411621,-0.0,-0.0,-1.0,0.159968039044643,2.0,0.0
45.734466552734375,30.057771682739254,-2.8157858848571777,0.4044757652821836,0.2674865191219365,-0.8745572121864995,0.0801054388458757,3.0,0.0
46.014793395996094,29.830848693847656,-2.812011241912842,-0.0,-0.0,-1.0,0.031045249124858,2.0,0.0
45.3023681640625,30.208660125732425,-2.7844996452331543,-0.0350826783072019,-0.0649505421493819,-0.99727159427976,0.159968039044643,3.0,0.0
45.52792739868164,29.47195053100586,-1.474454045295715,0.7621307822587166,0.369374859653067,-0.5317131593161804,0.0677265177175948,3.0,0.0
45.535552978515625,29.520368576049805,-0.8925844430923462,-0.0,-0.0,-1.0,0.0511705311804621,1.0,0.0
45.856346130371094,28.3862361907959,-2.6621859073638916,-0.0,-0.0,-1.0,0.086980502824332,1.0,0.0
45.33333206176758,28.830764770507812,-2.6979994773864746,-0.0,-0.0,-1.0,0.0080788204693314,1.0,0.0
45.77861022949219,29.05553817749023,-2.807178020477295,-0.0,-0.0,-1.0,0.0204542412890267,1.0,0.0
45.545074462890625,29.459213256835938,-1.1432876586914062,0.0005674302263223,-0.8250976165955858,-0.5649899123977544,0.0635368795006238,3.0,0.0
47.59708023071289,29.712600708007812,-2.891312837600708,-0.0,-0.0,-1.0,0.1993657881904314,1.0,0.0
46.133155822753906,28.549034118652344,-2.4495551586151123,-0.8620415440730044,0.0186431288263147,-0.5064946298232549,0.1748738842721734,3.0,0.0
46.338775634765625,28.47713279724121,-2.4579317569732666,-0.0,-0.0,-1.0,0.1207818715241985,1.0,0.0
47.18058776855469,28.321870803833008,-2.5283052921295166,-0.0,-0.0,-1.0,0.032218771391073,1.0,0.0
46.854591369628906,29.161209106445312,-2.675605535507202,-0.0,-0.0,-1.0,0.1306491412202908,1.0,0.0
46.54848861694336,29.80596351623535,-2.787116289138794,-0.0,-0.0,-1.0,0.0121134753189272,1.0,0.0
46.70965194702149,29.743309020996097,-2.791390180587769,0.1120733972113234,-0.3119319974698015,-0.9434712409989042,0.0144536725013365,4.0,0.0
47.08815002441406,29.640514373779297,-2.812743902206421,-0.0,-0.0,-1.0,0.0146267809396057,2.0,0.0
45.63300323486328,30.197673797607425,-2.778244733810425,-0.0,-0.0,-1.0,0.1003691296066207,1.0,0.0
45.953983306884766,30.00861358642578,-2.767894506454468,-0.0,-0.0,-1.0,0.0301005744783672,1.0,0.0
46.39268112182617,29.931995391845703,-2.798614740371704,-0.0,-0.0,-1.0,0.0166076398325049,1.0,0.0
45.30047225952149,30.291688919067383,-2.7663590908050537,-0.0,-0.0,-1.0,0.1796345774509903,2.0,0.0
45.44524002075195,30.264114379882812,-2.774510622024536,-0.0,-0.0,-1.0,0.1563506952341938,1.0,0.0
45.548336029052734,29.46761131286621,-2.0330557823181152,-0.0,-0.0,-1.0,0.0514684136661045,1.0,0.0
45.57193756103515,29.524627685546875,-1.489687204360962,-0.0,-0.0,-1.0,0.0755369602322657,1.0,0.0
46.1536979675293,28.549301147460938,-2.4845075607299805,-0.0,-0.0,-1.0,0.167960531937496,2.0,0.0
46.48356628417969,28.417499542236328,-2.4975790977478027,0.4662344131693995,-0.8800307096356699,0.0903959184627527,0.1689847077723551,3.0,0.0
47.549190521240234,28.19408416748047,-2.5960781574249268,-0.0,-0.0,-1.0,0.0376873056306669,1.0,0.0
46.08236312866211,28.795333862304688,-2.532737970352173,-0.0,-0.0,-1.0,0.1203210721525235,1.0,0.0
45.97874450683594,29.815454483032227,-2.760676145553589,-0.0,-0.0,-1.0,0.0303655444301547,2.0,0.0
46.21630859375,29.79617691040039,-2.7854011058807373,-0.0,-0.0,-1.0,0.0300133983674754,2.0,0.0
46.56462097167969,29.677040100097656,-2.801095724105835,-0.0,-0.0,-1.0,0.0137759084871916,2.0,0.0
46.97893905639648,29.47058868408203,-2.806934118270874,-0.0,-0.0,-1.0,0.0612849346371845,1.0,0.0
47.431617736816406,29.562728881835938,-2.8890955448150635,-0.0,-0.0,-1.0,0.2590845553890415,1.0,0.0
47.68218231201172,29.58745574951172,-2.9291207790374756,-0.0,-0.0,-1.0,0.235873727457637,1.0,0.0
45.496307373046875,30.189640045166016,-2.7934439182281494,0.5270285193626464,0.3030244731587662,-0.7939881034658316,0.1246216169891744,3.0,0.0
45.78093338012695,30.09872055053711,-2.804705858230591,-0.0,-0.0,-1.0,0.0694482784759109,2.0,0.0
46.288692474365234,29.87368392944336,-2.8125598430633545,-0.0,-0.0,-1.0,0.0268589435732447,2.0,0.0
45.314083099365234,30.251609802246097,-2.7877089977264404,-0.697526853640731,0.1377114351950034,-0.7032011441021655,0.159968039044643,3.0,0.0
46.20530700683594,28.404605865478516,-2.4575932025909424,-0.0,-0.0,-1.0,0.1581419308754856,1.0,0.0
45.53849792480469,29.41830825805664,-2.0666403770446777,-0.0,-0.0,-1.0,0.0388993093771111,1.0,0.0
45.54543685913086,29.42291831970215,-1.5303478240966797,-0.0,-0.0,-1.0,0.0730598300852818,1.0,0.0
45.5404052734375,29.409690856933594,-0.9973981380462646,-0.0,-0.0,-1.0,0.0511705311804621,2.0,0.0
47.59418869018555,28.301721572875977,-2.6272013187408447,-0.0,-0.0,-1.0,0.0376873056306669,1.0,0.0
46.34074020385742,29.7698974609375,-2.8143904209136963,-0.0,-0.0,-1.0,0.0181559011808401,1.0,0.0
46.45061492919922,29.692100524902344,-2.8088181018829346,-0.0,-0.0,-1.0,0.0122491506788636,1.0,0.0
46.94975280761719,29.39312171936035,-2.7995574474334717,-0.0,-0.0,-1.0,0.0882552098916923,1.0,0.0
47.366844177246094,29.54429626464844,-2.8913919925689697,-0.0,-0.0,-1.0,0.1707420718715301,1.0,0.0
47.55870056152344,29.55949592590332,-2.9209530353546143,-0.0,-0.0,-1.0,0.2534882239358872,1.0,0.0
46.13290023803711,29.81807327270508,-2.801128625869751,-0.0,-0.0,-1.0,0.037011313588262,2.0,0.0
46.12040710449219,28.394914627075195,-2.4492392539978027,-0.0,-0.0,-1.0,0.1955355238362457,1.0,0.0
46.40510940551758,28.368000030517575,-2.479505777359009,-0.0,-0.0,-1.0,0.0874167107449836,1.0,0.0
47.44199752807617,28.249217987060547,-2.593034267425537,-0.0,-0.0,-1.0,0.0376873056306669,1.0,0.0
46.17828369140625,28.727752685546875,-2.5379855632781982,-0.0,-0.0,-1.0,0.1894031989832668,2.0,0.0
47.46485900878906,29.74100875854492,-2.7614517211914062,0.6253792353815748,-0.7258717058456912,-0.2863757646977543,0.1778010503470411,4.0,0.0
47.19572067260742,30.047847747802734,-2.8023719787597656,-0.0,-0.0,-1.0,0.0597767477837824,1.0,0.0
47.45543670654297,30.03335952758789,-2.8308911323547363,-0.0,-0.0,-1.0,0.0467275108091775,2.0,0.0
46.72987747192383,30.33207130432129,-2.803208827972412,-0.0,-0.0,-1.0,0.0499685160130354,1.0,0.0
46.87343978881836,30.421329498291016,-2.8291382789611816,-0.0,-0.0,-1.0,0.0403978940461189,1.0,0.0
47.19091033935547,30.499412536621097,-2.8550171852111816,-0.0,-0.0,-1.0,0.1033572503367185,1.0,0.0
47.44120788574219,30.565839767456055,-2.877777576446533,-0.0,-0.0,-1.0,0.0580855445926977,1.0,0.0
45.35569381713867,28.891725540161133,-2.747663974761963,-0.0,-0.0,-1.0,0.0093841720115168,1.0,0.0
46.78522491455078,29.548816680908203,-2.8197951316833496,-0.0,-0.0,-1.0,0.020505828751601,1.0,0.0
46.48572540283203,29.32941246032715,-2.7836380004882812,-0.0,-0.0,-1.0,0.0897847713435301,1.0,0.0
46.956668853759766,29.650705337524418,-2.8357748985290527,-0.0,-0.0,-1.0,0.0190114434308269,2.0,0.0
46.646766662597656,29.32854461669922,-2.77589750289917,-0.0,-0.0,-1.0,0.0975260175522565,1.0,0.0
46.73410415649414,29.2170467376709,-2.7466225624084473,-0.0,-0.0,-1.0,0.1177369897854857,1.0,0.0
46.41912078857422,28.84034538269043,-2.676227569580078,-0.0,-0.0,-1.0,0.084671967172088,1.0,0.0
45.25213623046875,29.529808044433594,-2.7951064109802246,-0.0,-0.0,-1.0,0.0911321914981556,1.0,0.0
46.17838668823242,29.83452415466309,-2.812295913696289,-0.0845626996023929,-0.3889265500191379,-0.917379577125067,0.0376817305868728,3.0,0.0
45.86182403564453,29.758329391479492,-2.811192035675049,-0.0,-0.0,-1.0,0.0164585340105205,1.0,0.0
46.98443984985352,29.924232482910156,-2.798245906829834,-0.0,-0.0,-1.0,0.0217573209573043,2.0,0.0
46.7109260559082,29.892807006835938,-2.8020100593566895,-0.0,-0.0,-1.0,0.0136440412052108,1.0,0.0
46.40373229980469,29.856544494628903,-2.806856632232666,-0.0,-0.0,-1.0,0.0148693142414348,1.0,0.0
47.55524063110352,30.270158767700195,-2.8552350997924805,-0.0,-0.0,-1.0,0.0416630623256961,1.0,0.0
47.208404541015625,29.96808624267578,-2.799975872039795,-0.0,-0.0,-1.0,0.0738129612292676,2.0,0.0
47.50257110595703,29.758317947387695,-2.744445323944092,0.4810339624115627,0.1808786606647898,-0.8578398668299013,0.158696272967704,4.0,0.0
46.88857650756836,28.930448532104492,-2.585243225097656,-0.0,-0.0,-1.0,0.0940198575079283,2.0,0.0
46.00734329223633,30.60613250732422,-2.275230407714844,-0.0,-0.0,-1.0,0.1739224632708418,1.0,0.0
46.502708435058594,28.428119659423828,-2.4929184913635254,-0.0,-0.0,-1.0,0.1675195498178038,2.0,0.0
45.480960845947266,30.146541595458984,-2.6464662551879883,-0.0,-0.0,-1.0,0.1395456174163727,1.0,0.0
46.109989166259766,30.369972229003903,-2.672194480895996,-0.0,-0.0,-1.0,0.0402418716639803,2.0,0.0
45.59425354003906,30.19024085998535,-2.6597282886505127,-0.0,-0.0,-1.0,0.149622558572581,1.0,0.0
45.53763961791992,30.145048141479492,-2.653442144393921,-0.0,-0.0,-1.0,0.1246659139089825,1.0,0.0
46.11899948120117,28.461729049682617,-2.288419723510742,-0.0,-0.0,-1.0,0.1266178419072899,1.0,0.0
47.34388732910156,30.513999938964844,-2.7147631645202637,-0.0,-0.0,-1.0,0.0617965626024188,1.0,0.0
47.07033157348633,30.54070281982422,-2.723724842071533,-0.0,-0.0,-1.0,0.0596017882142597,1.0,0.0
46.23655319213867,30.510169982910156,-2.7324628829956055,-0.0,-0.0,-1.0,0.050220666777137,1.0,0.0
46.56686019897461,30.191600799560547,-2.6597299575805664,-0.0,-0.0,-1.0,0.0697025850388787,1.0,0.0
46.20890808105469,30.360157012939453,-2.7020649909973145,-0.0,-0.0,-1.0,0.0326637000789751,1.0,0.0
46.018348693847656,30.285503387451172,-2.6911587715148926,-0.0,-0.0,-1.0,0.0848968000927498,1.0,0.0
45.61381912231445,30.23725128173828,-2.692002296447754,-0.0,-0.0,-1.0,0.1426209830769513,1.0,0.0
45.5596809387207,29.41075134277344,-1.857190489768982,-0.0,-0.0,-1.0,0.0665867578186649,2.0,0.0
45.50791931152344,29.47402572631836,-0.6196562051773071,-0.0,-0.0,-1.0,0.0511705311804621,1.0,0.0
45.63838195800781,29.435314178466797,-1.7241041660308838,-0.0,-0.0,-1.0,0.0795308837468874,1.0,0.0
45.63191223144531,29.46741104125977,-1.0893774032592771,-0.0,-0.0,-1.0,0.0565452575787692,1.0,0.0
47.564083099365234,29.829967498779297,-2.8450381755828857,-0.0,-0.0,-1.0,0.1215083590716952,1.0,0.0
47.3753662109375,29.743141174316406,-2.831465482711792,-0.0,-0.0,-1.0,0.132949199764479,1.0,0.0
47.25906753540039,29.184001922607425,-2.7065465450286865,-0.0,-0.0,-1.0,0.0697945578812534,1.0,0.0
47.098899841308594,29.573402404785156,-2.8026106357574463,0.6033864099738182,0.7251405368515347,-0.3318072363188838,0.0346919978584965,3.0,0.0
46.75888442993164,29.34493637084961,-2.770231008529663,-0.0,-0.0,-1.0,0.1110594683213175,1.0,0.0
45.4033203125,29.536190032958984,-1.5883054733276367,-0.0,-0.0,-1.0,0.0905856358676008,1.0,0.0
45.39143371582031,29.52186584472656,-0.9508211612701416,-0.0,-0.0,-1.0,0.0511705311804621,1.0,0.0
45.30484390258789,30.222877502441406,-2.589660167694092,-0.0,-0.0,-1.0,0.159968039044643,2.0,0.0
45.457366943359375,29.516891479492188,-1.8040974140167236,-0.0,-0.0,-1.0,0.060778230916387,1.0,0.0
45.572044372558594,29.399280548095703,-1.163440227508545,-0.0,-0.0,-1.0,0.0626966136078462,2.0,0.0
45.79808807373047,30.33102035522461,-2.5472159385681152,-0.0,-0.0,-1.0,0.1047924883886586,1.0,0.0
45.412445068359375,29.48614501953125,-2.347007751464844,-0.0,-0.0,-1.0,0.0519421501778164,1.0,0.0
45.21686172485352,29.643260955810547,-2.3741250038146973,-0.0,-0.0,-1.0,0.0688476496429079,1.0,0.0
45.59504318237305,29.52315139770508,-1.7490204572677612,-0.0,-0.0,-1.0,0.0584297881711617,2.0,0.0
45.5681037902832,29.451568603515625,-1.1321004629135132,0.0758336958609554,-0.638631704896707,-0.7657668026708874,0.0635368795006238,4.0,0.0
47.55315780639648,30.488040924072266,-2.878554105758667,-0.0,-0.0,-1.0,0.050169338541171,1.0,0.0
46.90843200683594,30.286375045776367,-2.8298542499542236,-0.0,-0.0,-1.0,0.0382121868306948,1.0,0.0
46.62870788574219,30.213459014892575,-2.8140451908111572,-0.0,-0.0,-1.0,0.0540002126129082,1.0,0.0
46.019752502441406,30.12236213684082,-2.7994792461395264,-0.0,-0.0,-1.0,0.0479642252648609,1.0,0.0
45.694305419921875,30.158872604370117,-2.814399480819702,-0.0,-0.0,-1.0,0.0876752798459918,1.0,0.0
45.32587814331055,30.082807540893555,-2.805175542831421,-0.0,-0.0,-1.0,0.1203969081341195,1.0,0.0
45.56808853149414,29.422292709350582,-2.641071081161499,-0.0,-0.0,-1.0,0.1579855028582523,1.0,0.0
46.9957389831543,29.151798248291016,-2.5607645511627197,-0.0,-0.0,-1.0,0.0897998781489296,1.0,0.0
46.552711486816406,29.26863670349121,-2.5898356437683105,-0.0,-0.0,-1.0,0.0851948649504672,1.0,0.0
46.476043701171875,29.317480087280273,-2.6020147800445557,-0.0,-0.0,-1.0,0.1015681143566049,1.0,0.0
46.291690826416016,28.61542320251465,-2.436605215072632,-0.0,-0.0,-1.0,0.1483881021106941,2.0,0.0
46.17742538452149,28.566774368286133,-2.426276922225952,-0.4531697798152901,0.0685756889206533,-0.8887826087133003,0.1346993986254605,4.0,0.0
45.595176696777344,29.4342041015625,-1.438687086105347,-0.0,-0.0,-1.0,0.0694289366185604,1.0,0.0
46.84193801879883,29.28897476196289,-1.3923935890197754,-0.0,-0.0,-1.0,0.0467176546422418,1.0,0.0
45.58143615722656,29.43282699584961,-0.8476500511169434,-0.0,-0.0,-1.0,0.0511705311804621,1.0,0.0
47.368125915527344,30.556896209716797,-2.7060422897338867,-0.0,-0.0,-1.0,0.0558770652816036,1.0,0.0
45.58189010620117,29.442249298095703,-2.4385428428649902,-0.0,-0.0,-1.0,0.1504111679719014,1.0,0.0
45.56549453735352,29.43897247314453,-1.8407484292984009,-0.0,-0.0,-1.0,0.0748894700372967,2.0,0.0
45.5491828918457,29.40993881225586,-1.2471896409988403,-0.0,-0.0,-1.0,0.0357851966610222,2.0,0.0
47.488895416259766,29.734798431396484,-2.83349609375,-0.0,-0.0,-1.0,0.2240675585547587,1.0,0.0
46.938236236572266,29.65171241760254,-2.79266357421875,-0.0,-0.0,-1.0,0.0171228263031692,2.0,0.0
46.72881317138672,29.77199363708496,-2.815373420715332,0.1745654680456299,-0.6976070010720075,-0.6948894656140143,0.0167005779404624,3.0,0.0
46.198387145996094,29.851449966430664,-2.821315288543701,-0.0,-0.0,-1.0,0.0356242185921464,2.0,0.0
45.76504135131836,29.971994400024418,-2.843221664428711,-0.0,-0.0,-1.0,0.020175643310793,1.0,0.0
45.381446838378906,29.946531295776367,-2.8323397636413574,-0.0,-0.0,-1.0,0.067020986462539,1.0,0.0
46.935062408447266,29.010513305664062,-2.6364030838012695,-0.0,-0.0,-1.0,0.1157150164934311,1.0,0.0
46.45952606201172,28.407262802124023,-2.4732446670532227,-0.0,-0.0,-1.0,0.1170123551331782,2.0,0.0
46.20114517211914,28.52426528930664,-2.4944639205932617,-0.0,-0.0,-1.0,0.168354647135368,2.0,0.0
46.04438018798828,28.15072250366211,-2.398502826690674,-0.0,-0.0,-1.0,0.1526764827466217,1.0,0.0
45.557273864746094,29.4171085357666,-0.93407142162323,-0.0,-0.0,-1.0,0.0511705311804621,2.0,0.0
47.421878814697266,29.954818725585938,-2.8354172706604004,-0.0,-0.0,-1.0,0.0758107979576294,1.0,0.0
47.402679443359375,29.80043029785156,-2.7983880043029785,0.4711645799479126,0.7579380938807047,-0.4511471871207789,0.1731312890019511,3.0,0.0
46.97330474853515,29.974964141845703,-2.815772533416748,-0.0,-0.0,-1.0,0.0231975103679612,2.0,0.0
46.65546798706055,29.99502944946289,-2.805037021636963,-0.0,-0.0,-1.0,0.0434514611490418,1.0,0.0
46.21221923828125,30.046955108642575,-2.798098087310791,-0.0,-0.0,-1.0,0.0344824025029052,1.0,0.0
45.79741287231445,30.11807632446289,-2.799823760986328,-0.0,-0.0,-1.0,0.0720475858989958,2.0,0.0
45.481056213378906,30.183948516845703,-2.805739402770996,0.5270285193626464,0.3030244731587662,-0.7939881034658316,0.1262383558494344,3.0,0.0
45.20988845825195,30.14482879638672,-2.7889113426208496,-0.0,-0.0,-1.0,0.127829409373741,1.0,0.0
46.85066604614258,28.956214904785156,-2.5698046684265137,-0.0870499020464355,0.4146571877682181,-0.9058044663092903,0.0974216666168643,3.0,0.0
46.15862655639648,29.07613182067871,-2.5641050338745117,-0.0,-0.0,-1.0,0.0543383582643585,1.0,0.0
45.6866455078125,29.449268341064453,-2.6348962783813477,-0.0,-0.0,-1.0,0.1288024847181376,1.0,0.0
46.55218505859375,28.521944046020508,-2.451849937438965,-0.0,-0.0,-1.0,0.151625960484861,1.0,0.0
46.18687057495117,28.53852081298828,-2.437685966491699,-0.5611092817519007,0.1417338424755641,-0.8155169476037742,0.1449769033558068,3.0,0.0
45.551368713378906,29.464855194091797,-1.4457834959030151,0.7621307822587166,0.369374859653067,-0.5317131593161804,0.0694289366185604,3.0,0.0
45.52579116821289,29.41922378540039,-0.8564440011978149,-0.0,-0.0,-1.0,0.0511705311804621,1.0,0.0
47.41657257080078,30.01706314086914,-2.8425817489624023,-0.0,-0.0,-1.0,0.0534921998061311,2.0,0.0
47.1065788269043,30.052492141723633,-2.819793224334717,0.7279281629237521,-0.5917911677158738,-0.3462712858958045,0.0572027512085426,3.0,0.0
46.61762237548828,30.286548614501953,-2.8253793716430664,-0.0,-0.0,-1.0,0.1089353378968148,1.0,0.0
46.489200592041016,30.28615379333496,-2.813991069793701,-0.0,-0.0,-1.0,0.0702274381846292,1.0,0.0
47.46244812011719,29.757843017578125,-2.791831970214844,0.7939888529424022,0.5794106651668941,0.1840244073324674,0.177801050347041,4.0,0.0
47.02302932739258,30.012006759643555,-2.802887439727783,-0.0,-0.0,-1.0,0.0449759726372419,2.0,0.0
46.27146911621094,30.212543487548828,-2.779163360595703,-0.0,-0.0,-1.0,0.0641267804676385,2.0,0.0
45.96982192993164,30.23773956298828,-2.7599329948425293,0.7319890290011345,0.5225211668055828,-0.4372227025922934,0.0866390026900537,4.0,0.0
46.757625579833984,29.222206115722656,-2.606555461883545,-0.0,-0.0,-1.0,0.1208123394819646,1.0,0.0
46.917724609375,29.022377014160156,-2.5792055130004883,-0.0,-0.0,-1.0,0.1243848291535211,1.0,0.0
46.2653694152832,28.6062068939209,-2.4263463020324707,-0.0,-0.0,-1.0,0.148388102110694,2.0,0.0
46.13724899291992,28.579822540283203,-2.408808708190918,-0.073261882352193,-0.8724461019380404,0.4831878473299303,0.1687679299325871,3.0,0.0
45.5238037109375,29.42300796508789,-1.3589221239089966,-0.0,-0.0,-1.0,0.0646715243446806,1.0,0.0
45.51407623291016,29.402124404907227,-1.1237200498580933,-0.0,-0.0,-1.0,0.061033597453265,1.0,0.0
47.25022888183594,30.582416534423828,-2.7938551902770996,-0.0,-0.0,-1.0,0.0933185413813521,1.0,0.0
47.69375991821289,29.66611099243164,-2.913221597671509,-0.0,-0.0,-1.0,0.2269846002486367,1.0,0.0
47.49498748779297,29.64957618713379,-2.884690999984741,-0.0,-0.0,-1.0,0.1893547559296322,1.0,0.0
47.43505096435547,29.667055130004883,-2.8805935382843018,-0.0,-0.0,-1.0,0.2437306740567759,1.0,0.0
46.69267272949219,29.707340240478516,-2.79852557182312,0.5748291399029613,-0.1105108422276752,-0.8107766731156932,0.0151959868353172,3.0,0.0
46.49788284301758,29.87372779846191,-2.809938669204712,-0.0,-0.0,-1.0,0.012642674433034,1.0,0.0
46.11125564575195,29.989967346191406,-2.7907826900482178,-0.0,-0.0,-1.0,0.0397869796993028,2.0,0.0
45.75945663452149,30.205150604248047,-2.7986390590667725,-0.0,-0.0,-1.0,0.0802873012730837,2.0,0.0
45.38653945922851,30.332672119140625,-2.7882468700408936,-0.0,-0.0,-1.0,0.1796345774509903,1.0,0.0
46.33072662353515,29.87783432006836,-2.797090530395508,-0.0,-0.0,-1.0,0.0257413584411077,2.0,0.0
45.88127136230469,30.079120635986328,-2.778531551361084,-0.0,-0.0,-1.0,0.0291972165930423,2.0,0.0
45.55289077758789,30.247020721435547,-2.771392345428467,-0.0,-0.0,-1.0,0.0917667138961914,1.0,0.0
45.22285461425781,30.377471923828125,-2.7585201263427734,-0.0,-0.0,-1.0,0.1796345774509903,1.0,0.0
46.58877944946289,29.658687591552734,-2.789888381958008,-0.0,-0.0,-1.0,0.0133834174740353,2.0,0.0
46.091644287109375,29.853675842285156,-2.7615408897399902,-0.0,-0.0,-1.0,0.0375154819107072,2.0,0.0
45.98545837402344,29.851558685302734,-2.747612476348877,-0.6585632450219888,0.361314584547139,-0.6601107659322306,0.0293117484686657,3.0,0.0
46.22322082519531,28.640155792236328,-2.306273937225342,-0.0,-0.0,-1.0,0.1684979597618733,2.0,0.0
46.922454833984375,30.166025161743164,-2.8977701663970947,-0.0,-0.0,-1.0,0.0187248080983526,1.0,0.0
46.69353485107422,30.32562255859375,-2.8894593715667725,-0.0,-0.0,-1.0,0.117575616971679,1.0,0.0
47.265968322753906,29.82236671447754,-2.8965861797332764,-0.0,-0.0,-1.0,0.0588159593244377,1.0,0.0
47.042999267578125,29.95357131958008,-2.8829314708709717,-0.0,-0.0,-1.0,0.0296534843368815,1.0,0.0
46.758148193359375,30.093460083007812,-2.862483263015747,-0.0,-0.0,-1.0,0.0321212910805339,1.0,0.0
46.71336364746094,30.144433975219727,-2.8639047145843506,-0.0,-0.0,-1.0,0.1139954775389098,1.0,0.0
46.87507247924805,29.976085662841797,-2.8614938259124756,-0.0,-0.0,-1.0,0.0199642922795574,1.0,0.0
46.36195755004883,30.16344451904297,-2.816323518753052,-0.0,-0.0,-1.0,0.0774596631703056,1.0,0.0
46.08388137817383,30.22417449951172,-2.7867820262908936,-0.267475625482297,-0.3504441629846341,-0.8975776726294239,0.0462257236003533,3.0,0.0
45.374267578125,30.186891555786133,-2.6831586360931396,-0.0,-0.0,-1.0,0.159968039044643,1.0,0.0
46.4256591796875,28.405073165893555,-2.5578863620758057,-0.0,-0.0,-1.0,0.1844947750228969,1.0,0.0
46.17865753173828,28.47184944152832,-2.529551267623902,-0.0,-0.0,-1.0,0.213343638346157,2.0,0.0
45.58059310913086,29.50135040283203,-1.2769248485565186,-0.0,-0.0,-1.0,0.0408162569703922,2.0,0.0
47.54044342041016,30.41020965576172,-2.8170318603515625,-0.0,-0.0,-1.0,0.0489461197521168,1.0,0.0
47.17298889160156,30.556243896484375,-2.781050205230713,-0.0,-0.0,-1.0,0.0922814735141148,2.0,0.0
47.58076477050781,30.34871482849121,-2.815303325653076,-0.0,-0.0,-1.0,0.0454629845896508,1.0,0.0
47.354488372802734,30.484352111816406,-2.7987136840820312,-0.0,-0.0,-1.0,0.0607355704085885,1.0,0.0
47.0811653137207,30.57286834716797,-2.769684314727783,-0.0,-0.0,-1.0,0.0955981492679075,1.0,0.0
47.460662841796875,29.66426467895508,-2.7115302085876465,-0.0,-0.0,-1.0,0.2528783187175464,1.0,0.0
47.583213806152344,28.51158142089844,-2.5938448905944824,-0.0,-0.0,-1.0,0.0400582319111085,1.0,0.0
47.518836975097656,28.37782859802246,-2.568169116973877,-0.0,-0.0,-1.0,0.0376873056306669,2.0,0.0
46.14146423339844,28.59713363647461,-2.3769125938415527,-0.4700068541466811,-0.7482454016020745,0.4682118922416325,0.1469310351979561,3.0,0.0
45.59068298339844,29.63651657104492,-2.827672004699707,-0.0,-0.0,-1.0,0.0338179215314349,1.0,0.0
45.27172088623047,29.79656982421875,-2.8068785667419434,-0.0,-0.0,-1.0,0.0715647159545047,1.0,0.0
45.81150817871094,29.019031524658203,-2.768200397491455,-0.0,-0.0,-1.0,0.0313344741507446,1.0,0.0
45.24415969848633,29.407669067382812,-2.7436137199401855,-0.0,-0.0,-1.0,0.1110825600763903,1.0,0.0
45.7404899597168,28.703662872314453,-2.71195387840271,-0.0,-0.0,-1.0,0.0313802374080152,2.0,0.0
45.43796157836914,28.96221160888672,-2.704838275909424,-0.0,-0.0,-1.0,0.0151135760017714,1.0,0.0
45.39806365966797,28.927339553833008,-2.6938743591308594,-0.0,-0.0,-1.0,0.013935048705283,1.0,0.0
45.210205078125,28.980026245117188,-2.6742618083953857,-0.0,-0.0,-1.0,0.0156970200636051,1.0,0.0
45.247928619384766,28.4517822265625,-2.6021032333374023,-0.0,-0.0,-1.0,0.0448367507357777,2.0,0.0
45.744667053222656,30.041656494140625,-2.8159971237182617,0.4044757652821836,0.2674865191219365,-0.8745572121864995,0.075323970755023,3.0,0.0
45.50878143310547,30.162757873535156,-2.7954235076904297,0.5270285193626464,0.3030244731587662,-0.7939881034658316,0.1005590005882965,3.0,0.0
46.08367919921875,29.63532257080078,-2.8188138008117676,-0.0,-0.0,-1.0,0.0295752953813664,1.0,0.0
45.90791320800781,29.811094284057617,-2.8127541542053223,-0.0,-0.0,-1.0,0.0257553637779991,1.0,0.0
46.146366119384766,29.33108901977539,-2.792628765106201,-0.0,-0.0,-1.0,0.0427562572331533,2.0,0.0
46.04609680175781,28.97210693359375,-2.734710216522217,-0.0,-0.0,-1.0,0.0476901862687827,1.0,0.0
45.95147705078125,28.63629913330078,-2.680968761444092,-0.0,-0.0,-1.0,0.0781742022726657,1.0,0.0
45.723785400390625,28.34048843383789,-2.61057186126709,-0.0,-0.0,-1.0,0.0737928092497278,1.0,0.0
46.239044189453125,29.36014175415039,-2.8793041706085205,-0.0,-0.0,-1.0,0.0443728353037563,1.0,0.0
46.47315216064453,29.340110778808594,-2.892472982406616,-0.0,-0.0,-1.0,0.0840911496946151,1.0,0.0
46.86042022705078,29.093448638916016,-2.886251211166382,-0.0,-0.0,-1.0,0.1036349804310125,1.0,0.0
47.13133239746094,28.89358901977539,-2.87846302986145,-0.0,-0.0,-1.0,0.046818853254518,1.0,0.0
46.133148193359375,29.559375762939453,-2.8985836505889893,-0.0,-0.0,-1.0,0.0181156196720908,1.0,0.0
46.62993240356445,29.32613754272461,-2.9012444019317627,-0.0,-0.0,-1.0,0.0994627819059623,1.0,0.0
47.01076889038086,29.20844268798828,-2.911606550216675,-0.0,-0.0,-1.0,0.0817181079284969,1.0,0.0
46.51497650146485,28.284107208251953,-2.756310224533081,-0.0,-0.0,-1.0,0.1468480948209551,1.0,0.0
47.43450164794922,29.793371200561523,-2.7770133018493652,0.5170763309740614,0.6384491982315512,-0.5701005957056106,0.1883952319669225,4.0,0.0
45.72602081298828,30.38257598876953,-2.737412929534912,-0.0,-0.0,-1.0,0.0950834298079637,1.0,0.0
46.06443405151367,30.298364639282227,-2.748901844024658,-0.0,-0.0,-1.0,0.0475797097782394,1.0,0.0
46.304595947265625,30.25444984436035,-2.759280204772949,-0.0,-0.0,-1.0,0.0644915957421749,2.0,0.0
47.21498107910156,30.15908432006836,-2.80896520614624,-0.0,-0.0,-1.0,0.0484295431350108,1.0,0.0
46.97276306152344,30.49778175354004,-2.836399555206299,-0.0,-0.0,-1.0,0.0444497503069232,1.0,0.0
47.1704216003418,30.259178161621097,-2.8188676834106445,-0.0,-0.0,-1.0,0.0247037030174857,2.0,0.0
47.664825439453125,30.44291114807129,-2.8767457008361816,-0.0,-0.0,-1.0,0.0465577528906401,2.0,0.0
46.50944137573242,30.25843811035156,-2.668691396713257,-0.0,-0.0,-1.0,0.0699197148239012,1.0,0.0
46.10386657714844,30.382305145263672,-2.6495182514190674,-0.0,-0.0,-1.0,0.044593265019752,2.0,0.0
47.23466491699219,30.54400634765625,-2.7627317905426025,-0.0,-0.0,-1.0,0.0960119956517123,1.0,0.0
46.974082946777344,30.625972747802734,-2.750347852706909,-0.0,-0.0,-1.0,0.0483185949733687,1.0,0.0
45.81945037841797,30.20201110839844,-2.6048824787139893,-0.0,-0.0,-1.0,0.1036812712293085,1.0,0.0
46.0897102355957,28.30075454711914,-2.557281017303467,-0.0,-0.0,-1.0,0.2066166296445187,1.0,0.0
47.10698699951172,29.556610107421875,-2.8246026039123535,0.6033864099738182,0.7251405368515347,-0.3318072363188838,0.0313407503550249,3.0,0.0
46.09321212768555,29.98331069946289,-2.798342704772949,-0.0,-0.0,-1.0,0.047768225683665,2.0,0.0
46.32130432128906,30.01127243041992,-2.8215818405151367,-0.0,-0.0,-1.0,0.0267980830783109,1.0,0.0
46.779815673828125,29.742809295654297,-2.82243013381958,-0.0,-0.0,-1.0,0.0140168691459501,1.0,0.0
46.98983001708984,29.689868927001953,-2.833177089691162,-0.0,-0.0,-1.0,0.0177609255508113,1.0,0.0
45.63214492797851,30.29448699951172,-2.8054518699645996,-0.0,-0.0,-1.0,0.0983179690532888,1.0,0.0
45.844825744628906,30.151683807373047,-2.802063465118408,-0.0,-0.0,-1.0,0.0697256154477583,1.0,0.0
45.497596740722656,30.559574127197266,-2.833312511444092,-0.0,-0.0,-1.0,0.0945250192180369,1.0,0.0
45.53239440917969,29.515609741210938,-1.838345289230347,-0.0,-0.0,-1.0,0.0546149315456802,1.0,0.0
46.05559539794922,29.792415618896484,-2.791518211364746,-0.0,-0.0,-1.0,0.0313519286317547,2.0,0.0
46.43014144897461,29.598119735717773,-2.795166492462158,-0.0,-0.0,-1.0,0.0261324358491787,1.0,0.0
45.29705047607422,30.140647888183594,-2.7802271842956543,-0.0,-0.0,-1.0,0.140647643588879,1.0,0.0
45.77023696899414,30.04093360900879,-2.8043923377990723,0.4044757652821836,0.2674865191219365,-0.8745572121864995,0.0684645329625758,3.0,0.0
45.96866607666016,29.88978576660156,-2.7985658645629883,-0.0,-0.0,-1.0,0.0326806509282045,2.0,0.0
45.31623840332031,29.442310333251953,-1.82445764541626,-0.0,-0.0,-1.0,0.0738544224381264,1.0,0.0
45.41446304321289,29.353105545043945,-1.8445128202438352,-0.0,-0.0,-1.0,0.0738544224381263,1.0,0.0
45.45421600341797,29.390151977539062,-1.918062210083008,-0.0,-0.0,-1.0,0.0590808820397433,1.0,0.0
45.543975830078125,29.351232528686523,-1.600032091140747,-0.0,-0.0,-1.0,0.0847604320764187,1.0,0.0
45.59111022949219,29.41482734680176,-1.2200863361358645,-0.0,-0.0,-1.0,0.0353301330317518,2.0,0.0
46.290992736816406,30.18267250061035,-2.791001319885254,-0.261376793780519,0.2031247774100524,-0.9436220093210698,0.0640381634290559,3.0,0.0
45.9225959777832,30.283267974853516,-2.793623924255371,-0.0,-0.0,-1.0,0.0797142925984392,2.0,0.0
45.71388244628906,30.40481185913086,-2.8032078742980957,-0.0,-0.0,-1.0,0.0947397740018253,1.0,0.0
47.125221252441406,30.061208724975582,-2.7955002784729004,0.7279281629237521,-0.5917911677158738,-0.3462712858958045,0.0603311572322026,3.0,0.0
46.789947509765625,30.027191162109375,-2.7712974548339844,-0.0,-0.0,-1.0,0.0313556533990543,1.0,0.0
46.424461364746094,30.119699478149418,-2.760536193847656,-0.0,-0.0,-1.0,0.0716477959593243,1.0,0.0
46.204219818115234,28.447450637817383,-2.5489349365234375,-0.0,-0.0,-1.0,0.2093470517542096,2.0,0.0
45.96112060546875,30.259525299072266,-2.7500734329223633,0.7300117717648552,0.5016350791648907,-0.4641605976771082,0.0903986150614626,3.0,0.0
47.262939453125,29.98788833618164,-2.818911075592041,-0.0,-0.0,-1.0,0.0654171527279535,1.0,0.0
47.044185638427734,29.99251937866211,-2.80867338180542,-0.0,-0.0,-1.0,0.0716668185196805,2.0,0.0
46.94050598144531,30.12211227416992,-2.8207812309265137,-0.0,-0.0,-1.0,0.0242869594859854,1.0,0.0
46.720802307128906,30.051769256591797,-2.800642490386963,-0.0,-0.0,-1.0,0.0291012763947054,1.0,0.0
46.67554473876953,30.15442276000977,-2.8121252059936523,-0.0,-0.0,-1.0,0.0545770794308303,1.0,0.0
46.25611877441406,30.10605239868164,-2.7853503227233887,-0.8652005260474631,0.0956535219135697,-0.492217892272034,0.0339457754420596,3.0,0.0
45.86857604980469,30.25085067749023,-2.78633451461792,-0.0,-0.0,-1.0,0.0732508232709688,1.0,0.0
45.51769256591797,30.34262466430664,-2.7822046279907227,-0.0,-0.0,-1.0,0.1028515069889699,1.0,0.0
45.57423400878906,29.409358978271484,-2.0141897201538086,-0.0,-0.0,-1.0,0.0514684136661045,1.0,0.0
46.13697814941406,28.67518615722656,-2.3832058906555176,-0.0,-0.0,-1.0,0.1329452785929744,1.0,0.0
47.69615173339844,30.46802520751953,-2.8803579807281494,-0.0,-0.0,-1.0,0.0465577528906401,2.0,0.0
47.378929138183594,30.574474334716797,-2.8501837253570557,-0.0,-0.0,-1.0,0.057842214926183,1.0,0.0
47.30030059814453,29.915611267089844,-2.7896249294281006,-0.0,-0.0,-1.0,0.0654910084788992,1.0,0.0
47.12104797363281,30.322546005249023,-2.799123525619507,-0.0,-0.0,-1.0,0.0567919992066495,2.0,0.0
46.311370849609375,30.397621154785156,-2.707589626312256,-0.0,-0.0,-1.0,0.0521334502713308,1.0,0.0
46.069034576416016,28.6788330078125,-2.5457446575164795,-0.0,-0.0,-1.0,0.1390301243943887,2.0,0.0
47.29449462890625,30.00640869140625,-2.6712915897369385,-0.0,-0.0,-1.0,0.0646653584144816,1.0,0.0
47.20848083496094,30.12840461730957,-2.6687378883361816,-0.0,-0.0,-1.0,0.0481995665071095,1.0,0.0
46.62773895263672,29.3525390625,-2.5479912757873535,-0.0,-0.0,-1.0,0.0857727942910638,1.0,0.0
46.17723083496094,28.213851928710938,-2.423689603805542,-0.0,-0.0,-1.0,0.1991987494477127,1.0,0.0
45.67583465576172,28.187049865722656,-2.359318733215332,-0.0,-0.0,-1.0,0.089626734107545,1.0,0.0
45.35491180419922,28.34152603149414,-2.3285093307495117,-0.0,-0.0,-1.0,0.0436876646872871,1.0,0.0
46.22575378417969,28.553756713867188,-2.3708138465881348,-0.0,-0.0,-1.0,0.1349969948758727,1.0,0.0
46.12950134277344,28.52094268798828,-2.444369316101074,-0.0,-0.0,-1.0,0.1849643062809439,2.0,0.0
46.53565216064453,30.12798118591309,-3.1249330043792725,-0.0,-0.0,-1.0,0.0820714179636026,1.0,0.0
45.94932556152344,30.629283905029297,-2.8241257667541504,-0.0,-0.0,-1.0,0.0692988380635793,1.0,0.0
46.02709197998047,30.184524536132812,-2.779000759124756,-0.0,-0.0,-1.0,0.0498856440548966,2.0,0.0
46.26400375366211,30.144689559936523,-2.7917017936706543,-0.7847588516981001,0.3180886954292711,-0.5319521844316307,0.0669475478957106,4.0,0.0
46.66814804077149,29.23368453979492,-2.8283112049102783,-0.0,-0.0,-1.0,0.0978438599990727,1.0,0.0
46.47405242919922,29.562639236450195,-2.852872610092163,-0.0,-0.0,-1.0,0.0252834438947029,1.0,0.0
46.9942626953125,29.91939163208008,-2.7353475093841553,-0.0,-0.0,-1.0,0.0345881695697547,1.0,0.0
46.304969787597656,30.20665740966797,-2.6778371334075928,-0.0,-0.0,-1.0,0.0422783562031686,1.0,0.0
47.27293395996094,30.16028213500977,-2.818115711212158,-0.0,-0.0,-1.0,0.0424584005929825,1.0,0.0
46.8862419128418,29.753887176513672,-2.7761921882629395,-0.0,-0.0,-1.0,0.0180446283432391,1.0,0.0
47.29897689819336,28.403152465820312,-2.5581204891204834,-0.0,-0.0,-1.0,0.0376873056306668,1.0,0.0
47.49785232543945,28.411760330200195,-2.567375898361206,-0.0,-0.0,-1.0,0.0376873056306668,2.0,0.0
45.90504455566406,28.31715965270996,-2.6088311672210693,-0.0,-0.0,-1.0,0.1025291271060687,1.0,0.0
46.08649826049805,28.599260330200195,-2.655390501022339,-0.0,-0.0,-1.0,0.1327425960566203,1.0,0.0
46.3656005859375,29.09506607055664,-2.732661008834839,-0.0,-0.0,-1.0,0.0695970284722247,1.0,0.0
46.40884780883789,29.518993377685547,-2.7740747928619385,-0.0,-0.0,-1.0,0.0507350818845927,1.0,0.0
45.939510345458984,29.958343505859375,-2.751283884048462,-0.0,-0.0,-1.0,0.0268839009266358,1.0,0.0
46.20097351074219,29.771953582763672,-2.7688944339752197,-0.0,-0.0,-1.0,0.0298602899681299,2.0,0.0
45.76240158081055,30.217979431152344,-2.751070737838745,-0.0,-0.0,-1.0,0.1198904258609067,2.0,0.0
45.54449462890625,29.41633415222168,-1.2729060649871826,-0.0,-0.0,-1.0,0.0369470646203178,2.0,0.0
47.34703063964844,28.219791412353516,-2.561981678009033,-0.0,-0.0,-1.0,0.0376873056306668,1.0,0.0
47.46485900878906,28.354711532592773,-2.5874648094177246,-0.0,-0.0,-1.0,0.0376873056306669,1.0,0.0
47.49581527709961,29.60588836669922,-2.6908912658691406,-0.0,-0.0,-1.0,0.2075202993875904,2.0,0.0
47.70174789428711,30.606754302978516,-2.8001627922058105,-0.0,-0.0,-1.0,0.0491659334558568,1.0,0.0
45.55133056640625,29.30984115600586,-1.0754365921020508,-0.0,-0.0,-1.0,0.0609606885114444,1.0,0.0
46.44026184082031,28.243919372558594,-2.7387354373931885,-0.0,-0.0,-1.0,0.1742458987225891,1.0,0.0
46.49113464355469,28.508882522583008,-2.7672832012176514,-0.0,-0.0,-1.0,0.1494561309192008,1.0,0.0
45.89415740966797,28.74762725830078,-2.7040836811065674,-0.0,-0.0,-1.0,0.0512906002248788,1.0,0.0
