x,y,z,nx,ny,nz,curvature,density,label
32.42737579345703,-8.658388137817383,-0.0257289409637451,-0.0356305563867398,0.9922735350219508,-0.1188431535538046,0.1655542800348975,3.0,0.0
31.591354370117188,-8.72935676574707,-0.1036893129348754,0.2594513840171938,-0.9634537082308824,-0.0666478163762643,0.1286389164815925,3.0,0.0
32.16919708251953,-8.136926651000977,-0.0979995727539062,0.2072340057932578,0.9053855922699316,-0.3705819695464211,0.18868542066265,3.0,0.0
31.992290496826172,-7.969921112060547,-0.0939661264419555,-0.0,-0.0,-1.0,0.1520082039250035,1.0,0.0
31.74341583251953,-8.688966751098633,0.0080096721649169,-0.2392946780257724,-0.5855080233997576,-0.774544002367232,0.2197738193529376,7.0,1.0
32.26540756225586,-8.381669998168945,0.0734589099884033,-0.0,-0.0,-1.0,0.1434543171808146,2.0,1.0
32.06192398071289,-8.210969924926758,-0.103805661201477,0.5518570658452209,-0.7259843591615378,-0.4103662865410786,0.1685627669431565,3.0,0.0
32.64385986328125,-8.67735481262207,-0.0776816606521606,0.4449129411292281,-0.7797779033600775,0.4404530579381889,0.2323118639145765,3.0,0.0
31.867679595947266,-8.488103866577148,-0.0686193704605102,0.4579146458343077,0.8290191903773184,0.3210005593711267,0.1549459606939047,3.0,0.0
31.85629653930664,-8.627447128295898,0.0809770822525024,0.3050831418589803,0.9515719853867658,-0.0378818318002448,0.1136965172192293,5.0,1.0
32.38704299926758,-8.768863677978516,0.0733426809310913,-0.0,-0.0,-1.0,0.0706800496100845,2.0,1.0
31.80144500732422,-8.640148162841797,-0.012068748474121,-0.0546955689804196,-0.862016305088587,-0.5039209109526299,0.1966929560572177,3.0,0.0
32.473106384277344,-8.655191421508789,-0.0127487182617187,0.002218667659174,0.0370551998051538,-0.9993107573128684,0.176536915403221,5.0,0.0
31.95539093017578,-8.60702896118164,0.0518733263015747,0.3349509539580537,0.7905493535122511,-0.5126788254881915,0.2363783684171959,10.0,1.0
32.502628326416016,-8.73908805847168,0.0408993959426879,0.0016332149288057,0.3329897004564372,-0.9429290492921132,0.1603817210932435,4.0,1.0
32.63157653808594,-8.619205474853516,-0.0128799676895141,-0.0,-0.0,-1.0,0.1527775796244109,2.0,0.0
32.124305725097656,-8.33275032043457,-0.0013071298599243,0.1170965865004853,0.8818447729579871,0.4567692916961591,0.1584306460917288,6.0,0.0
32.65679931640625,-8.590475082397461,-0.0449650287628173,-0.0,-0.0,-1.0,0.1649302684191664,2.0,0.0
32.64237976074219,-8.661317825317383,-0.2437189817428589,-0.0,-0.0,-1.0,0.131462911327109,1.0,0.0
32.335113525390625,-8.946442604064941,0.11137056350708,-0.0,-0.0,-1.0,0.0509939002467808,1.0,1.0
32.66612243652344,-8.806793212890625,-0.0334559679031372,-0.0,-0.0,-1.0,0.1231201875213512,1.0,0.0
32.20235824584961,-8.405377388000488,0.0322874784469604,-0.318047065993482,0.6644515734673979,-0.6762766965744397,0.2229705014824845,5.0,1.0
32.17265319824219,-8.983268737792969,0.0895065069198608,-0.0,-0.0,-1.0,0.0301548057437927,1.0,1.0
32.17584228515625,-8.187515258789062,-0.1300388574600219,0.2248537644708917,-0.7418106073628268,-0.6317893694952954,0.1701866375886833,8.0,0.0
32.678855895996094,-8.608524322509766,-0.134818434715271,-0.0,-0.0,-1.0,0.1767620893118602,2.0,0.0
32.06434631347656,-8.329862594604492,0.0499945878982543,-0.0,-0.0,-1.0,0.1515955545717122,1.0,1.0
31.977977752685547,-6.937013626098633,-0.4056329727172851,-0.0,-0.0,-1.0,0.0144747386535058,2.0,0.0
31.932514190673828,-8.60322093963623,-0.0347955226898193,-0.1146420406456353,0.8867712615760671,-0.4477654879056612,0.1509964973546678,4.0,0.0
31.94178009033203,-8.862080574035645,-0.005631685256958,-0.0,-0.0,-1.0,0.2043586884183612,1.0,0.0
32.019859313964844,-7.455509185791016,-0.3219048976898193,0.6220196722711018,0.7158705520322406,0.3172079444793368,0.0759122389317544,3.0,0.0
30.525447845458984,-8.129383087158203,-0.2861906290054321,0.3263747049701965,0.7591404606645389,-0.5631920746403033,0.01934474979713,6.0,0.0
31.81531524658203,-8.76764965057373,0.0547999143600463,0.5978851296807945,-0.0731247384559586,0.7982394028938476,0.1477935656740649,6.0,1.0
32.16730880737305,-8.443894386291504,0.025019884109497,-0.4247910974523611,0.0408184098392678,-0.9043707099101634,0.2380065358129275,3.0,1.0
31.87706756591797,-8.697603225708008,0.0952754020690918,-0.0,-0.0,-1.0,0.1933375690900695,2.0,1.0
31.7113037109375,-7.403958320617676,-0.3562706708908081,0.4925251384363316,-0.8517679481262588,-0.1786346846305486,0.0883953945085249,3.0,0.0
31.84453773498535,-8.696977615356445,0.0084980726242065,-0.0,-0.0,-1.0,0.2323849222766152,2.0,1.0
32.2465934753418,-8.397266387939453,0.0071972608566284,-0.2520745519409345,0.5662230288038903,-0.7847610476545877,0.183695937454947,6.0,1.0
31.955154418945312,-8.66464614868164,0.127432107925415,-0.0,-0.0,-1.0,0.1223293800522702,2.0,1.0
32.10706329345703,-7.875658988952637,-0.2296786308288574,-0.307614116885966,-0.0508382970906571,-0.9501521050028724,0.2041725345117945,4.0,0.0
32.09498596191406,-7.863858222961426,-0.1653163433074951,0.5912764161116647,-0.7548346810305937,0.2839309846839327,0.1793012563316267,5.0,0.0
31.026819229125977,-8.030596733093262,-0.3332117795944214,-0.0,-0.0,-1.0,0.0281811024682139,2.0,0.0
31.53497886657715,-7.216671943664551,-0.2885633707046509,0.0319489069112928,0.9001179147167995,-0.4344732522872417,0.1345340332349819,6.0,0.0
32.033477783203125,-8.044251441955566,-0.1028294563293457,-0.0,-0.0,-1.0,0.1335284034776127,1.0,0.0
31.333600997924805,-9.202126502990724,-0.1851236820220947,-0.7081351119310478,-0.5673372322594405,-0.4203250267859397,0.0305811179893793,4.0,0.0
32.07558822631836,-7.8940629959106445,-0.1057329177856445,-0.0171864615173492,-0.4914273940205152,-0.8707489546055843,0.2580588888056895,3.0,0.0
31.15888786315918,-8.748974800109863,-0.2085766792297363,-0.0,-0.0,-1.0,0.0629660778656092,2.0,0.0
31.624338150024418,-8.459223747253418,-0.1887524127960205,-0.0,-0.0,-1.0,0.0688829993586753,2.0,0.0
32.20155715942383,-8.033308982849121,-0.160682201385498,0.8757078588004659,0.3051576840357561,-0.3741851599262549,0.1708074160382096,3.0,0.0
30.460189819335938,-9.36187744140625,-0.2225974798202514,-0.212743387661365,0.9735448891632884,0.0833702572288651,0.0505421625689204,3.0,0.0
31.28299140930176,-9.164823532104492,-0.209619402885437,-0.0,-0.0,-1.0,0.0311523856694322,2.0,0.0
32.049842834472656,-7.949460983276367,-0.1195584535598754,-0.0,-0.0,-1.0,0.1957033885728193,1.0,0.0
32.09841537475586,-7.864669799804688,-0.1790189743041992,0.4162949847333248,-0.1666850950116997,-0.8938202083119524,0.1868661639390769,4.0,0.0
31.876697540283203,-8.64423942565918,0.0695977210998535,0.3031011183173567,0.9027098896397872,-0.3053597341191049,0.226723823578928,7.0,1.0
32.53916931152344,-8.707317352294922,0.0504983663558959,-0.6648167273628902,0.6575295129339478,0.3545048076392503,0.1850507204696258,3.0,1.0
30.38767433166504,-8.128604888916016,-0.2726771831512451,0.5729239400000575,-0.3522954007602427,-0.7400311544644523,0.05710116554288,5.0,0.0
30.901390075683594,-8.191152572631836,-0.2757009267807007,-0.4072102676165964,-0.5569804752094741,-0.7238456659972817,0.0417786339942343,5.0,0.0
31.30266571044922,-8.337087631225586,-0.2902709245681762,-0.0,-0.0,-1.0,0.0223252546064647,2.0,0.0
32.6314582824707,-6.929502964019775,-0.1394264698028564,0.2410053564625054,0.7068075772965349,-0.6650860597190292,0.1908453949781575,6.0,0.0
30.76205825805664,-7.610795497894287,-0.3224761486053467,0.9408603931528904,0.2085414438129053,-0.2670059677397063,0.0167166388928836,3.0,0.0
32.59933090209961,-6.956806659698486,-0.172376275062561,-0.2604531946403677,0.8737372624413461,-0.4107886678367957,0.13249564093094,6.0,0.0
31.79481315612793,-8.732015609741211,0.0689003467559814,0.074129685792187,0.5372607660447668,-0.8401521641663147,0.2087719328343932,9.0,1.0
32.46501159667969,-8.896635055541992,0.0606038570404052,-0.1620292827448817,0.2668089821131871,-0.9500313040089284,0.0584729600615435,4.0,1.0
32.2347297668457,-8.049224853515625,-0.2129913568496704,-0.0,-0.0,-1.0,0.140636129320402,1.0,0.0
32.086219787597656,-9.223987579345703,0.109486699104309,0.4850295266103203,0.7113298533532907,0.5086808410433349,0.1223009013371653,4.0,1.0
32.55087661743164,-6.996109485626221,-0.0762690305709838,-0.0,-0.0,-1.0,0.1232817487622797,2.0,0.0
31.807355880737305,-8.79931640625,0.1383168697357177,-0.0,-0.0,-1.0,0.1876578777350861,1.0,1.0
30.927715301513672,-8.252958297729492,-0.2726149559020996,-0.3861576218200037,-0.0963881043716532,-0.9173830303891384,0.0330954933509037,4.0,0.0
31.13994789123535,-8.533807754516602,-0.2959719896316528,-0.0,-0.0,-1.0,0.0258325205912837,2.0,0.0
32.24336624145508,-8.129433631896973,-0.191404104232788,0.6172825063161446,0.7682217800055406,-0.1696985684122821,0.1658820308684464,4.0,0.0
31.86060333251953,-8.805952072143555,0.1347450017929077,0.9870608115293614,-0.1602595498077799,-0.0052755130941276,0.1317169503733183,4.0,1.0
32.1963996887207,-9.209811210632324,0.1001434326171875,-0.0,-0.0,-1.0,0.1383651994433304,1.0,1.0
32.180381774902344,-8.007908821105957,-0.214147686958313,0.8297082714492884,0.2309740364393785,-0.5081684551204798,0.178584482368985,6.0,0.0
31.976240158081055,-8.587074279785156,0.0992002487182617,0.7664231247130229,0.6369816154715546,-0.0827648201615554,0.1743959135771379,6.0,1.0
32.267860412597656,-9.099453926086426,0.0725691318511962,-0.4379534084659892,-0.0596947834182896,-0.89701357004544,0.1360510241546431,3.0,1.0
32.58707809448242,-7.480813026428223,-0.3803237676620483,0.0686483846254406,0.9975649165098924,0.0123140828699747,0.0526434754039185,3.0,0.0
30.903379440307617,-6.881372451782227,-0.160487413406372,0.8662872621563279,0.4224516597567827,-0.2666101547098921,0.0827356414250291,5.0,0.0
30.941913604736328,-8.208294868469238,-0.2816780805587768,-0.0899483590440922,-0.132180132453672,-0.9871361128485802,0.0394209476051199,6.0,0.0
31.82317352294922,-8.332221984863281,-0.2086255550384521,-0.6506847405971056,0.3023079482879339,-0.6965768247336522,0.0733859344344345,4.0,0.0
32.239463806152344,-8.579516410827637,-0.1978996992111206,-0.0,-0.0,-1.0,0.2022510716105455,2.0,0.0
32.26472854614258,-8.174081802368164,-0.1505930423736572,-0.0,-0.0,-1.0,0.1081097087176928,1.0,0.0
31.87206268310547,-8.77045726776123,0.1303673982620239,0.9173880103629968,-0.3900171351398728,0.0792834960096261,0.1400714989475524,4.0,1.0
32.064369201660156,-9.19044303894043,0.1067662239074707,0.017768758391559,0.7025752977114302,-0.7113875331146292,0.1375815326568746,8.0,1.0
32.12199401855469,-7.510204315185547,-0.3269106149673462,-0.6719450154269208,0.5021504129143991,0.5443664749530542,0.1110323742360075,5.0,0.0
32.528656005859375,-7.545915603637695,-0.2867187261581421,-0.0,-0.0,-1.0,0.0742243187555435,2.0,0.0
32.044498443603516,-7.674982070922852,-0.0267266035079956,-0.0,-0.0,-1.0,0.2036487651172608,2.0,0.0
31.854135513305664,-8.376375198364258,-0.1248946189880371,-0.1062315885532036,-0.2927212189444171,-0.9502784526511988,0.0931475869284138,6.0,0.0
32.26114273071289,-8.241205215454102,-0.075529932975769,0.5726866554096387,0.7375199076856145,0.3579027528297658,0.1504513353390769,6.0,0.0
32.680442810058594,-8.667149543762207,-0.0965676307678222,-0.0,-0.0,-1.0,0.1855139951414861,2.0,0.0
30.894268035888672,-6.883432865142822,-0.1989490985870361,-0.0715818114731751,-0.990132179111785,-0.1204753591136654,0.0846047121910646,6.0,0.0
32.0177001953125,-7.795984745025635,-0.1773996353149414,-0.0,-0.0,-1.0,0.1742505200814121,2.0,0.0
32.187870025634766,-8.032556533813477,-0.1921006441116333,0.7989550527471249,-0.1985795210397564,-0.5676592265730033,0.1822478140034331,5.0,0.0
32.2253303527832,-8.411885261535645,-0.2430390119552612,-0.0,-0.0,-1.0,0.1438462553753982,2.0,0.0
32.57487487792969,-6.944931507110596,-0.0002635717391967,0.1204046005637076,-0.1408352917432255,-0.9826841571749768,0.1693695423876196,6.0,0.0
31.94878578186035,-8.527713775634766,0.0301364660263061,0.7927107805051549,-0.0405636666487474,0.608246830997842,0.2349644529292613,9.0,1.0
32.42737579345703,-9.063249588012695,-0.0011327266693115,0.7952499613737786,0.48317464066976,0.3662236550916019,0.0974159606901167,3.0,0.0
32.102474212646484,-7.783449649810791,-0.3195555210113525,-0.0,-0.0,-1.0,0.1382933490987895,1.0,0.0
32.63121795654297,-6.901175498962402,-0.106286883354187,-0.5254583097292671,0.8482568128602906,0.0659844237116873,0.1682800615306199,6.0,0.0
32.06842041015625,-7.712115287780762,-0.0436537265777587,0.4193248248816411,0.5861530901065662,-0.6932468868999735,0.2116893743081299,3.0,0.0
31.874187469482425,-8.318185806274414,-0.1460741758346557,-0.0,-0.0,-1.0,0.054380943618225,2.0,0.0
32.226470947265625,-8.21124267578125,-0.0888000726699829,0.6881784626478864,0.6794101210503181,0.2545825818118431,0.1066323249466221,7.0,0.0
32.50227737426758,-9.0372314453125,-0.1739426851272583,-0.0,-0.0,-1.0,0.1800563265432505,2.0,0.0
32.65812301635742,-9.203205108642578,-0.1823326349258422,-0.0,-0.0,-1.0,0.1197769986825354,2.0,0.0
31.981172561645508,-8.60804557800293,0.1193897724151611,0.956527135332382,0.2740843687482874,-0.0996674379156988,0.1730294426225204,4.0,1.0
32.24544143676758,-9.117683410644531,0.0847280025482177,-0.4253233730964231,0.9036434193002776,0.0502851772710771,0.1308292227571115,5.0,1.0
32.6331672668457,-6.943562030792236,-0.3586797714233398,0.0902507135659545,0.9213133518386512,-0.3782016874957936,0.2233465298285213,4.0,0.0
30.972158432006836,-8.148967742919922,-0.3042906522750854,-0.4500916228581929,-0.1375786196558975,-0.8823206075154632,0.0250793561798843,4.0,0.0
32.23967361450195,-7.684028625488281,-0.3114365339279175,0.1576372029756363,0.9018717973347622,0.4022160780105436,0.0784633218817088,4.0,0.0
32.20981979370117,-8.176950454711914,-0.1299836635589599,0.5135926308082757,-0.1772730425755523,-0.8395218150563097,0.1116169794596374,7.0,0.0
31.727882385253903,-8.41872787475586,-0.2293071746826172,-0.0,-0.0,-1.0,0.0887922929145725,1.0,0.0
32.66686248779297,-6.889763832092285,-0.1179091930389404,-0.5432893013976061,-0.2373838206718366,-0.8052860713250555,0.1271642390323259,7.0,0.0
32.04335021972656,-7.72412109375,-0.0931806564331054,0.1062631253119111,-0.0340968494813367,-0.9937532656823788,0.1355207261771197,3.0,0.0
32.44340896606445,-9.03061580657959,0.0547977685928344,0.3205703040403768,0.3070111101090952,-0.8960908762157108,0.0691885413801132,4.0,1.0
32.09371566772461,-8.46931266784668,0.085232138633728,0.6697448762061166,0.7363049514229907,-0.0964200150676244,0.1727839935943093,3.0,1.0
30.740079879760746,-6.984554767608643,-0.3801653385162353,-0.0,-0.0,-1.0,0.1096921021408078,2.0,0.0
32.2308464050293,-7.932219982147217,-0.2447280883789062,-0.0,-0.0,-1.0,0.1388219383623121,2.0,0.0
31.946630477905273,-8.444707870483398,-0.1077712774276733,0.949019431816013,-0.3072497806976811,0.0704250686676172,0.0812731755016962,6.0,0.0
32.543643951416016,-9.145856857299805,-0.136609673500061,0.6728788331391913,0.7302678962821395,-0.1180799541535275,0.1281785463685886,4.0,0.0
32.69303512573242,-6.950641632080078,-0.0199618339538574,0.0878982322411362,0.427517883246204,-0.899723491009081,0.1176199104057568,3.0,0.0
32.115535736083984,-7.755936145782471,0.0054826736450195,0.4722657283495612,-0.6237605593373845,-0.6228064277458701,0.1833079717493587,3.0,1.0
32.63264465332031,-8.754098892211914,-0.0676876306533813,-0.5353551230698225,-0.7913668928888293,-0.2951835582182294,0.2651064375039597,3.0,0.0
32.100528717041016,-9.19361686706543,0.0813963413238525,-0.6626806875942617,0.7029880315851083,0.258190111618728,0.1731371887075403,6.0,1.0
31.880809783935547,-8.766911506652832,0.1093915700912475,0.2331690259017547,0.9268698164173071,-0.294184548837247,0.1648318211644417,5.0,1.0
31.846420288085938,-8.250856399536133,-0.2312537431716919,-0.0,-0.0,-1.0,0.0766300783214292,2.0,0.0
32.30775451660156,-8.65873908996582,-0.2646747827529907,-0.0,-0.0,-1.0,0.1798763805575125,2.0,0.0
31.05350685119629,-9.13504123687744,-0.2423439025878906,-0.0,-0.0,-1.0,0.0260512701573792,1.0,0.0
32.05414581298828,-8.602771759033203,-0.0436487197875976,-0.0,-0.0,-1.0,0.1657109681146713,1.0,0.0
32.62349319458008,-8.837189674377441,-0.0432355403900146,-0.0,-0.0,-1.0,0.1215167861502075,1.0,0.0
32.58313751220703,-9.188610076904297,-0.1184176206588745,-0.0,-0.0,-1.0,0.1197769986825353,1.0,0.0
30.938278198242188,-7.110414505004883,-0.4132964611053467,-0.8309866216669068,0.5117575829712943,0.2180949584057368,0.0509854721321384,3.0,0.0
31.4383487701416,-7.41204833984375,-0.3590995073318481,-0.0,-0.0,-1.0,0.0497371975397861,1.0,0.0
30.88555908203125,-6.961852073669434,-0.1708309650421142,0.1903610019430074,-0.8534957202447706,-0.4850852960697888,0.0859659148137251,3.0,0.0
31.81006622314453,-7.470997333526611,-0.2952926158905029,-0.0,-0.0,-1.0,0.0514491845953487,1.0,0.0
32.27347946166992,-8.648710250854492,-0.2127667665481567,-0.0,-0.0,-1.0,0.1996426508415828,1.0,0.0
32.62321090698242,-6.902604103088379,-0.0299670696258544,0.7616795624949615,-0.1695004157057626,-0.6253909602425172,0.1784614904431924,5.0,0.0
31.99367904663086,-8.564855575561523,-0.001888632774353,0.4820280326753001,0.3943556049131263,-0.7823890544919336,0.2645717532803879,5.0,0.0
32.502906799316406,-9.112465858459473,-0.0274074077606201,-0.0,-0.0,-1.0,0.0750601989728313,2.0,0.0
32.20940399169922,-8.58822250366211,-0.2037988901138305,-0.0,-0.0,-1.0,0.143777127223902,2.0,0.0
32.57867431640625,-6.92819881439209,-0.0047904253005981,0.4888102990871091,0.0063017470585846,-0.8723673420585963,0.1693695423876196,5.0,0.0
31.982980728149418,-7.788919448852539,-0.0754542350769043,-0.3946637259799928,0.6208110962144495,-0.6773729594636939,0.1652261373731981,3.0,0.0
31.946189880371097,-8.536659240722656,0.0055708885192871,0.6493461238261674,0.7435027255230925,0.159854022819774,0.2323798782178174,6.0,1.0
32.45508575439453,-9.143807411193848,-0.052342414855957,-0.0,-0.0,-1.0,0.0720852379115389,2.0,0.0
32.2085075378418,-8.437311172485352,-0.2497445344924926,-0.0,-0.0,-1.0,0.1213888237598235,2.0,0.0
32.03976058959961,-7.779552459716797,-0.126023530960083,0.1315433440334301,0.2163033370141097,-0.9674240099548196,0.1819448186912426,4.0,0.0
31.53388214111328,-8.086738586425781,-0.0867543220520019,-0.0,-0.0,-1.0,0.1740073642097282,1.0,0.0
31.796470642089844,-8.458295822143555,-0.1175016164779663,0.2028056285818812,0.9076791910376552,0.3674076253600842,0.1106013508954097,3.0,0.0
30.235782623291016,-9.015657424926758,-0.2249773740768432,0.8744074814427986,-0.1302526541044896,-0.4673818593993545,0.0224644640165298,3.0,0.0
32.59153366088867,-8.727580070495605,-0.0642224550247192,-0.3695968210691195,-0.7237850452324739,-0.5826949443348783,0.2308351057490454,4.0,0.0
32.55567169189453,-9.167207717895508,-0.1662245988845825,-0.0,-0.0,-1.0,0.1197769986825353,2.0,0.0
31.73761749267578,-8.732112884521484,0.0306551456451416,0.7827257460540248,-0.6078482674233087,0.1336446416982437,0.1816681115620701,11.0,1.0
32.41259765625,-9.00907039642334,0.0593730211257934,0.3127632518127172,0.5557917060613428,-0.7702432912975983,0.0875165254527788,5.0,1.0
30.218748092651367,-9.019708633422852,-0.2557176351547241,0.8744074814427986,-0.1302526541044896,-0.4673818593993545,0.0224644640165298,3.0,0.0
31.817049026489254,-8.509625434875488,-0.1159248352050781,-0.0,-0.0,-1.0,0.1235442678892536,2.0,0.0
32.5595703125,-8.782205581665039,-0.1066960096359252,-0.0,-0.0,-1.0,0.1810787923368778,1.0,0.0
31.652524948120117,-8.816079139709473,-0.0265507698059082,-0.3501193591986588,0.3791606232953232,-0.8565358463348881,0.152678318503134,3.0,0.0
32.43034744262695,-8.926368713378906,0.0221378803253173,-0.0,-0.0,-1.0,0.0687520802108381,1.0,1.0
31.724760055541992,-8.830865859985352,0.0602139234542846,0.4449943269532694,-0.6635511417684292,-0.6013983132976188,0.2206370685783649,4.0,1.0
32.40213394165039,-9.03543758392334,0.0328457355499267,0.8505733183240984,-0.2695970135998929,-0.451489180837317,0.0873860078535948,6.0,1.0
32.607398986816406,-7.941091537475586,-0.0912830829620361,-0.0,-0.0,-1.0,0.1113203700967954,1.0,0.0
31.69698715209961,-8.331803321838379,-0.2150520086288452,-0.4004544702627271,0.1173863275750338,-0.908766563725276,0.1288104469731853,4.0,0.0
31.170913696289062,-8.796847343444824,-0.2356081008911132,0.8429398903726922,-0.3269742488063297,0.4272472139593308,0.0600081065447754,5.0,0.0
31.77728271484375,-8.800843238830566,0.0464565753936767,0.579431841949538,-0.4107275436186102,-0.7039613806509478,0.2185168056077079,12.0,1.0
31.766361236572266,-8.815871238708496,0.067777395248413,0.4626375063352305,-0.4640869324768722,-0.7553739847493606,0.1771318683083797,13.0,1.0
32.252662658691406,-8.48136043548584,0.0314760208129882,0.9877282786773004,0.151001228043738,-0.0398933156112706,0.1203385614809763,4.0,1.0
31.01104736328125,-7.1570587158203125,-0.3910441398620605,0.4439505035025262,0.84928121069511,-0.2857085500997511,0.0450816713443663,4.0,0.0
31.353073120117188,-6.864972114562988,-0.4142206907272339,-0.0,-0.0,-1.0,0.0165416217442047,1.0,0.0
31.649089813232425,-9.020916938781738,0.0672093629837036,-0.0,-0.0,-1.0,0.1334976963935769,1.0,1.0
31.222545623779297,-7.112982749938965,-0.3938997983932495,-0.0,-0.0,-1.0,0.0821098049436633,2.0,0.0
32.011817932128906,-8.788108825683594,0.0392367839813232,-0.0,-0.0,-1.0,0.1817827784348574,2.0,1.0
31.91675567626953,-8.712629318237305,-0.1765680313110351,-0.0,-0.0,-1.0,0.1299703036377134,2.0,0.0
32.2066650390625,-7.855451107025147,-0.1282691955566406,-0.0,-0.0,-1.0,0.1844182179051787,1.0,0.0
31.7392635345459,-9.290072441101074,-0.0793999433517456,-0.5244855280468458,-0.5158773245964093,-0.6773370777070101,0.103813023216611,4.0,0.0
30.218929290771484,-9.035385131835938,-0.2510098218917846,0.8744074814427986,-0.1302526541044896,-0.4673818593993545,0.0217389660511603,3.0,0.0
30.938140869140625,-8.219171524047852,-0.283626914024353,-0.0899483590440922,-0.132180132453672,-0.9871361128485802,0.0394209476051199,6.0,0.0
31.86919403076172,-8.997455596923828,0.0855838060379028,-0.6482163035871692,0.5466716397010573,-0.5300620172303844,0.1163677272378524,3.0,1.0
32.29253387451172,-8.513206481933594,0.0564168691635131,-0.1217725645562612,-0.0915329189743757,-0.9883284713421048,0.1105306789095005,3.0,1.0
31.754241943359375,-7.381012916564941,-0.2750370502471924,0.0993012193380519,-0.161267088267689,-0.9819023342877016,0.0876583428234812,4.0,0.0
31.86707305908203,-8.786845207214355,0.1061189174652099,0.8882409934447255,-0.4497088421678228,-0.0937544390437244,0.1229060328263543,5.0,1.0
32.24307632446289,-8.499412536621094,0.0800029039382934,0.7964953839500094,-0.5656838640391416,-0.2135342345200719,0.0902479082002109,4.0,1.0
31.21475601196289,-7.806013584136963,-0.3124666213989258,-0.2514163899283363,-0.3142661659162319,-0.9154379147903552,0.0166103592079571,3.0,0.0
30.444110870361328,-8.165573120117188,-0.2560982704162597,-0.0,-0.0,-1.0,0.0450812269602476,2.0,0.0
31.52444839477539,-7.244649410247803,-0.3024070262908935,-0.3342195350280806,0.4476325540339502,-0.8294108746421502,0.1027326007073519,5.0,0.0
31.722702026367188,-8.864402770996094,-0.0132708549499511,-0.0,-0.0,-1.0,0.246456478588192,2.0,0.0
32.12132263183594,-8.447818756103516,-0.0272620916366577,-0.4736096517655732,0.7732141596880164,-0.4217034040797476,0.1938583296499736,5.0,0.0
32.62444305419922,-6.988353252410889,0.0023319721221923,-0.0340661267169645,0.0071908017719608,-0.9993937118975588,0.2016494078318317,6.0,1.0
31.917499542236328,-8.715336799621582,-0.1532874107360839,-0.0,-0.0,-1.0,0.1524668687015816,2.0,0.0
30.40653610229492,-8.194659233093262,-0.2512316703796386,-0.5215987057442097,0.8521211763380594,-0.0427117197289822,0.0455070663951327,4.0,0.0
32.043270111083984,-9.194241523742676,0.1225907802581787,0.3077885513573241,0.5201122446799167,-0.7967116546074741,0.148423216502312,5.0,1.0
30.282180786132812,-7.462078094482422,-0.3118566274642944,0.218663587752931,0.882532376159769,-0.4163205981221785,0.0533436125900802,3.0,0.0
30.948299407958984,-8.280844688415527,-0.278708815574646,-0.0,-0.0,-1.0,0.0268015034779214,2.0,0.0
32.00621032714844,-9.22620677947998,0.111073613166809,-0.0,-0.0,-1.0,0.1292260685627465,2.0,1.0
32.13692855834961,-7.514862060546875,-0.2830425500869751,0.5984534260673177,0.7498380192132968,-0.2821284136179285,0.1248038105962471,4.0,0.0
31.844989776611328,-9.27151107788086,-0.0210059881210327,-0.0,-0.0,-1.0,0.1683884439699232,2.0,0.0
32.2418212890625,-8.333300590515137,-0.0463725328445434,-0.3705543566739636,0.1421914447937139,-0.9178622237446212,0.1220792309767684,4.0,0.0
32.170867919921875,-7.795493125915527,-0.000862717628479,0.0684717474723923,-0.134946470385664,-0.988484228467267,0.2165521359657175,3.0,0.0
32.659889221191406,-6.98464298248291,-0.0781377553939819,-0.0,-0.0,-1.0,0.1702592824078842,2.0,0.0
31.674448013305664,-7.356435775756836,-0.2901003360748291,-0.0,-0.0,-1.0,0.0905809995000688,2.0,0.0
32.26317596435547,-7.859402656555176,-0.2280116081237793,-0.0,-0.0,-1.0,0.2021358629574417,2.0,0.0
31.805572509765625,-8.921123504638672,0.0562543869018554,-0.316257808460356,0.7617050049606761,-0.5654966701986044,0.2099363190590386,3.0,1.0
32.16361618041992,-8.466697692871094,0.0257251262664794,0.21010231510666,-0.0641942998264891,-0.9755696331152424,0.2276133052244288,3.0,1.0
32.23640441894531,-8.400420188903809,0.0139788389205932,-0.4297101924906675,0.6847284736411448,-0.5886391660896355,0.1320290273219875,6.0,1.0
32.03050994873047,-8.465789794921875,-0.0707690715789794,0.1126220712560032,-0.4281654470513221,-0.8966552397757732,0.2102474115601613,3.0,0.0
32.051170349121094,-9.16450309753418,0.0972297191619873,-0.6754383160387455,-0.010661727403922,-0.7373394122081826,0.1678087743696025,7.0,1.0
32.35557556152344,-8.71569538116455,0.062857985496521,-0.4943278811355709,0.5047532620462214,-0.7077175216042876,0.0747403791181346,3.0,1.0
32.06039810180664,-8.36783504486084,-0.1538137197494506,-0.0,-0.0,-1.0,0.2161889065493311,1.0,0.0
32.530128479003906,-7.050114154815674,-0.0085275173187255,-0.0,-0.0,-1.0,0.1563703279221416,1.0,0.0
31.599212646484375,-9.319153785705566,-0.2005385160446167,-0.0,-0.0,-1.0,0.0357171100304585,1.0,0.0
31.9574031829834,-9.145342826843262,-0.0423462390899658,0.4877343874643907,-0.7689493384668319,-0.4133183786818068,0.2096625341882764,3.0,0.0
30.70026397705078,-8.609813690185547,-0.3127796649932861,-0.4545680108355567,0.0543941366820214,-0.8890496057136648,0.0247566871173278,3.0,0.0
32.31066131591797,-9.026944160461426,0.0507664680480957,-0.0,-0.0,-1.0,0.0897487254060074,2.0,1.0
31.749038696289062,-8.692204475402832,0.0623948574066162,0.8081191314228321,0.2571103091255277,0.5299412782278645,0.190322521338406,3.0,1.0
32.488136291503906,-8.881023406982422,0.0712118148803711,-0.5182574951341868,0.8471808963860097,-0.117020073217527,0.0504215739330577,3.0,1.0
31.91373062133789,-8.610079765319824,0.1017444133758544,0.9792448559776832,-0.2021565336490542,0.0145687317308576,0.1614319300552871,4.0,1.0
31.000497817993164,-8.890496253967285,-0.2165768146514892,-0.0,-0.0,-1.0,0.0507732627703239,2.0,0.0
31.479829788208008,-7.151965141296387,-0.2786102294921875,-0.0,-0.0,-1.0,0.145588162127348,1.0,0.0
32.04130172729492,-9.210594177246094,0.0815179347991943,-0.6382690641483646,0.5715741695990763,-0.5156700208450137,0.1485413482634532,6.0,1.0
32.480709075927734,-9.081985473632812,-0.0078060626983642,0.6376228745994188,0.6876540466486686,-0.3472304449717571,0.0852864587651587,3.0,0.0
31.76149559020996,-8.795042991638184,0.0354719161987304,-0.7881658499744415,-0.6015022935045229,-0.1303440978443798,0.2336373343251296,14.0,1.0
31.478300094604492,-8.90877914428711,-0.245854377746582,-0.0,-0.0,-1.0,0.0630715717391702,1.0,0.0
32.27260971069336,-9.122076988220217,0.0717558860778808,-0.4379534084659892,-0.0596947834182896,-0.89701357004544,0.1332390990407504,3.0,1.0
31.82575225830078,-8.855205535888672,0.0652966499328613,-0.238699716113016,-0.9669886353999314,-0.0891931865948508,0.2092480633670443,10.0,1.0
32.298397064208984,-7.828188896179199,-0.0474038124084472,-0.0,-0.0,-1.0,0.2178343954598444,1.0,0.0
30.30172538757324,-9.150208473205566,-0.2330443859100341,-0.0,-0.0,-1.0,0.0288015742078908,2.0,0.0
30.51006507873535,-7.902593612670898,-0.323967695236206,-0.0,-0.0,-1.0,0.0469488338783755,2.0,0.0
30.877216339111328,-8.192564964294434,-0.263139009475708,-0.1303555456774258,0.9814614931149908,-0.1405018478299602,0.0365314309979213,3.0,0.0
31.529277801513672,-8.912737846374512,-0.1177902221679687,-0.8485385212928847,-0.1210408129343029,-0.515103387181921,0.0881779940203635,4.0,0.0
32.42515563964844,-9.161108016967772,-0.0730936527252197,0.5338170955419782,0.0855468445516193,-0.8412615799466819,0.0744681335152982,3.0,0.0
32.169097900390625,-8.8579683303833,0.0721180438995361,-0.0,-0.0,-1.0,0.0528688974911287,2.0,1.0
31.718233108520508,-8.897582054138184,0.078221321105957,0.9186588983935002,0.1696928339281254,-0.3567494506174921,0.1370709987508676,4.0,1.0
31.012317657470703,-8.604171752929688,-0.3036177158355713,-0.0,-0.0,-1.0,0.0220394285410062,2.0,0.0
32.670326232910156,-9.211111068725586,-0.2007150650024414,-0.0,-0.0,-1.0,0.1197769986825353,2.0,0.0
30.408281326293945,-9.35354995727539,-0.2351629734039306,-0.0,-0.0,-1.0,0.051740134309504,1.0,0.0
32.19499206542969,-7.832834243774414,0.0059061050415039,-0.0,-0.0,-1.0,0.2679288962062329,2.0,1.0
31.16514587402344,-8.83773422241211,-0.2108800411224365,0.9979985023321292,-0.0507674800998702,0.0377048048282455,0.0555846334521399,4.0,0.0
32.61651611328125,-9.29284381866455,-0.1888885498046875,-0.0,-0.0,-1.0,0.0782519661163721,2.0,0.0
32.234012603759766,-8.756345748901367,0.0809326171875,0.9409712517936596,-0.2534335770094241,-0.2243758573066224,0.0421100344943413,3.0,1.0
31.840953826904297,-8.913700103759766,0.203557014465332,-0.0,-0.0,-1.0,0.2001768086217966,1.0,1.0
32.21725845336914,-9.154094696044922,0.1755068302154541,-0.0,-0.0,-1.0,0.0718439176640298,1.0,1.0
32.352439880371094,-9.081439971923828,0.0275542736053466,0.3978844630349674,0.914151363717246,-0.0775579672843166,0.0997693856596777,3.0,1.0
31.781343460083008,-8.942853927612305,0.040534496307373,-0.0,-0.0,-1.0,0.2120809696993101,2.0,1.0
30.984628677368164,-7.213327407836914,-0.3774023056030273,-0.0,-0.0,-1.0,0.0323640975935924,2.0,0.0
31.52422332763672,-8.867155075073242,-0.1395630836486816,-0.9315896855748274,-0.2623327306862891,-0.251639019512613,0.091254259037213,7.0,0.0
32.595706939697266,-9.244426727294922,-0.1652259826660156,0.1073563859761526,0.7300664564752846,-0.6748907878462711,0.1197769986825354,4.0,0.0
31.55803680419922,-8.897317886352539,-0.1499483585357666,-0.3876405464761038,-0.4340230926516355,-0.8132396705601719,0.0899146914987031,9.0,0.0
32.464080810546875,-8.664156913757324,0.0723257064819336,0.6121080025557782,-0.4395868628372644,-0.6573333881890281,0.0938962229997952,3.0,1.0
31.957969665527344,-8.77348518371582,0.1112294197082519,-0.0,-0.0,-1.0,0.168069732726829,2.0,1.0
32.543087005615234,-9.146014213562012,-0.1066441535949707,0.6873335619568095,-0.7262866339280186,0.0089610259051605,0.1281785463685886,3.0,0.0
30.88241195678711,-7.462959289550781,-0.3365144729614258,-0.0,-0.0,-1.0,0.0153438229572614,2.0,0.0
31.998023986816406,-9.28984832763672,-0.046860933303833,-0.897654490614607,-0.0845353172901825,-0.4325161217921004,0.1352677877320678,4.0,0.0
31.66695022583008,-8.805122375488281,-0.1178739070892334,-0.0,-0.0,-1.0,0.1475592039196855,1.0,0.0
31.716766357421875,-8.767111778259277,-0.0574965476989746,0.3489443061123761,-0.4454930861159931,-0.8244839485730457,0.2300042668141391,4.0,0.0
31.995285034179688,-9.155218124389648,0.0720512866973877,-0.0,-0.0,-1.0,0.1438269820095548,2.0,1.0
32.47496795654297,-8.981439590454102,0.0371229648590087,-0.0,-0.0,-1.0,0.0763206189745562,2.0,1.0
31.93396377563477,-8.695954322814941,0.0479507446289062,0.9156788756236242,-0.274164001696496,-0.2938814334224247,0.1671135477816723,6.0,1.0
32.509578704833984,-8.922417640686035,0.0480823516845703,-0.0,-0.0,-1.0,0.057133631102211,1.0,1.0
32.05581283569336,-8.84733772277832,0.0928623676300048,-0.0,-0.0,-1.0,0.0609647945543575,2.0,1.0
30.53966903686523,-8.115334510803223,-0.2663094997406006,-0.3780895686894284,0.865289272960656,-0.3291242199344512,0.0153190835047757,4.0,0.0
30.4326171875,-7.791980743408203,-0.3192698955535888,-0.6776248244778218,0.2034664389009552,-0.7067007892257973,0.0172222508056783,4.0,0.0
32.683685302734375,-6.90629768371582,-0.2513360977172851,-0.8904789653122915,0.2692850300033689,0.3667871112136239,0.1119069336031028,3.0,0.0
32.1567497253418,-8.600834846496582,0.0948343276977539,-0.0,-0.0,-1.0,0.0647975880932608,2.0,1.0
32.11685562133789,-8.475099563598633,0.0162074565887451,-0.1278273620537509,0.972680352165016,-0.1937862173182581,0.2403883848764967,5.0,1.0
32.12080764770508,-9.107898712158203,0.0938622951507568,-0.0,-0.0,-1.0,0.1211551996538583,2.0,1.0
32.02106857299805,-7.470380306243896,-0.290715217590332,-0.0918849519548583,0.8974410002187306,0.4314589282083031,0.0759122389317544,3.0,0.0
31.87514877319336,-8.382711410522461,-0.1471495628356933,0.2057362319067492,0.7348455343109366,-0.6462775282988622,0.0932384234280922,8.0,0.0
31.704082489013672,-8.78305721282959,-0.0656824111938476,0.3267513968316369,-0.478459302742134,-0.8150522807084739,0.217537955362797,5.0,0.0
32.67933654785156,-6.956109046936035,-0.3726236820220947,0.3237521467172417,0.9011082068296228,0.2884242484263062,0.1931861317600424,5.0,0.0
32.17995834350586,-8.18562126159668,-0.1402368545532226,0.0470248028286889,-0.5865541122733793,-0.8085437163778534,0.1246738544328418,8.0,0.0
32.03126525878906,-9.335460662841797,-0.0045766830444335,-0.0,-0.0,-1.0,0.1370162101873323,2.0,0.0
31.745845794677734,-8.823095321655273,0.009918212890625,0.5605030239481591,-0.6995578371956704,-0.4432326618866043,0.2041104974550615,10.0,1.0
32.64977264404297,-6.935154438018799,-0.3931665420532226,-0.0403710031783883,0.96705936692702,-0.2513291923774123,0.2233465298285213,5.0,0.0
32.135826110839844,-8.179095268249512,-0.1552400588989257,0.3550378141299392,0.3182662206075916,-0.87900782895148,0.1458024488472463,9.0,0.0
31.956689834594727,-9.216389656066896,-0.022247314453125,0.429303120429349,0.2916575617034435,-0.8547717224445517,0.1535683422410031,5.0,0.0
31.71349334716797,-8.826417922973633,-0.0074243545532226,0.6265719553300044,0.3984486039314401,-0.6698106410165647,0.1678702673108479,5.0,0.0
31.963642120361328,-7.456188678741455,-0.2864534854888916,0.4195191873115612,0.5735386881077583,-0.7036028885110395,0.0692006012873207,3.0,0.0
31.895292282104492,-8.591346740722656,-0.1715567111968994,-0.0,-0.0,-1.0,0.1393684710408094,2.0,0.0
32.580421447753906,-6.914300918579102,-0.2082676887512207,-0.0,-0.0,-1.0,0.1071206715933354,1.0,0.0
32.091224670410156,-8.336482048034668,-0.0174932479858398,-0.7604423842900881,0.54270688701865,0.3566463443773568,0.2371673767321271,6.0,0.0
31.934494018554688,-9.20235824584961,0.0557577610015869,-0.5025864489964922,0.1737745151328722,-0.8468820928414009,0.1805115874431516,3.0,1.0
31.079986572265625,-6.933612823486328,-0.4209599494934082,-0.3531898584701073,0.9133892183434686,-0.2024279123238022,0.0922178663206463,3.0,0.0
32.20265197753906,-8.197195053100586,-0.0872681140899658,0.4769083506152075,0.760600516681604,0.4405057084047372,0.098285723962287,3.0,0.0
31.69781494140625,-8.784547805786133,0.0094995498657226,0.456320173693704,0.4327078204919215,-0.7775190294554075,0.1869517867146426,5.0,1.0
31.66255569458008,-7.285555839538574,-0.2695319652557373,-0.0,-0.0,-1.0,0.0865149384919371,2.0,0.0
30.934398651123047,-8.146848678588867,-0.2591226100921631,-0.0,-0.0,-1.0,0.0340738500559789,1.0,0.0
32.109798431396484,-8.373940467834473,0.0339539051055908,-0.6091457226674771,0.7069597566732879,0.3593736092152036,0.2836746009722879,8.0,1.0
31.717100143432617,-8.77246379852295,0.0342319011688232,0.7352162878648415,0.3732578085081542,-0.5658052831548437,0.2079741481654137,8.0,1.0
30.571887969970703,-8.075448989868164,-0.2960407733917236,-0.054962725577287,0.0399092528571353,-0.9976905082907732,0.0127955534002148,4.0,0.0
32.170570373535156,-8.25762939453125,-0.0593159198760986,-0.0,-0.0,-1.0,0.1058341415585944,1.0,0.0
31.945432662963867,-9.27490520477295,-0.0294497013092041,0.251603883877271,0.2816197148817547,-0.92595130639132,0.1444022326750604,4.0,0.0
31.72520637512207,-8.766664505004883,0.0215368270874023,0.0756247420436833,0.2818398469049747,-0.9564764498341852,0.2079741481654137,8.0,1.0
30.52220916748047,-8.11522102355957,-0.2792353630065918,0.6029932845922122,0.5629281964884353,-0.5652529914427459,0.0190265189347199,7.0,0.0
32.15248107910156,-8.351519584655762,-0.026782751083374,-0.9899273702418038,0.1369072677544738,-0.0360583094743976,0.1424322061360773,5.0,0.0
31.769451141357425,-8.795007705688477,0.0332968235015869,0.9564848077559296,-0.013688002473383,-0.2914608912365279,0.2015138885340949,13.0,1.0
31.999860763549805,-9.332886695861816,-0.0260612964630126,0.5072234497818261,-0.3573575573129277,-0.7842320754870726,0.13440987308222,3.0,0.0
32.113502502441406,-7.786912441253662,-0.0983688831329345,0.5684780208922255,0.2166767772309581,-0.7936522626259337,0.1851772522098572,6.0,0.0
31.996158599853516,-8.436665534973145,-0.0889909267425537,-0.3590961125395328,-0.2016535945233983,-0.9112550739363748,0.2095092324956602,5.0,0.0
31.685401916503903,-8.820385932922363,-0.041896104812622,-0.5362893664698754,-0.6110992227122499,-0.5821953756358973,0.1997921463178203,7.0,0.0
32.70484924316406,-6.959200859069824,-0.3838880062103271,0.2194871239111207,0.9462956901654428,0.2373812739276875,0.1931861317600423,3.0,0.0
32.18522644042969,-7.482676982879639,-0.2965846061706543,-0.3281368316759627,0.5809487711750021,-0.7448655885244773,0.1864799513687308,6.0,0.0
31.638586044311523,-8.283919334411621,-0.2176482677459716,0.5993569243700377,-0.5028075265924228,-0.6228610345909422,0.1135700452040417,3.0,0.0
32.1068115234375,-7.489226818084717,-0.3123388290405273,-0.6719450154269208,0.5021504129143991,0.5443664749530542,0.0884249150423841,5.0,0.0
31.559776306152344,-7.233732223510742,-0.3107726573944092,0.1392884348791865,0.809147157323844,-0.5708586600058277,0.1480816753600614,5.0,0.0
32.11732482910156,-8.37112045288086,0.0739505290985107,0.286808575866173,0.9579739244325224,-0.0051769602055689,0.1806343151531502,5.0,1.0
31.957836151123047,-9.184764862060549,0.0455152988433837,-0.9306773583185852,0.0388560711509069,-0.3637717147440903,0.1833798266665548,4.0,1.0
31.80465316772461,-8.701602935791016,0.0963180065155029,-0.2485280078921262,0.9032330265491926,-0.349862728857987,0.1771818336641449,5.0,1.0
31.57672882080078,-8.200982093811035,-0.2341279983520507,-0.0,-0.0,-1.0,0.1357649424337885,2.0,0.0
31.189117431640625,-8.789880752563477,-0.222996711730957,0.2673096322297585,-0.9617484914365956,0.059878207526806,0.0623196801398373,4.0,0.0
31.931617736816406,-8.395116806030273,-0.0971689224243164,0.6980633953294179,0.6815421886104561,-0.2195626134960922,0.0969127433962179,4.0,0.0
31.623268127441406,-8.814696311950684,-0.0884380340576171,-0.0,-0.0,-1.0,0.1108836636093366,1.0,0.0
32.07355499267578,-8.12112045288086,-0.201284646987915,-0.0,-0.0,-1.0,0.0836797825938716,2.0,0.0
31.654876708984375,-8.53072738647461,-0.200610876083374,0.7086416370403383,-0.445353049884521,-0.5472546858742687,0.0581977972014058,4.0,0.0
32.244537353515625,-7.853485107421875,-0.2235829830169677,-0.4479339510073161,-0.8940541425981862,0.0047292322841739,0.1808234674256235,4.0,0.0
31.693527221679688,-8.234895706176758,-0.1976242065429687,0.7595762686241585,-0.5989882161715999,0.2534896625714051,0.1267442802443673,5.0,0.0
31.328950881958008,-9.170768737792969,-0.1919307708740234,0.5423519596710803,-0.1162729996675922,-0.832066668836842,0.0339272702090287,6.0,0.0
32.21889877319336,-7.837623596191406,-0.2189583778381347,-0.0687236337723272,-0.2155506428018637,-0.9740713436647392,0.1920625886348637,4.0,0.0
31.88006591796875,-8.370330810546875,-0.1475541591644287,-0.4154835574184521,0.9095068651425045,0.0130642938409219,0.0921948056609247,8.0,0.0
31.5135498046875,-7.808361053466797,-0.3285040855407715,-0.3760543499487701,-0.6811189286737985,-0.62821981096338,0.0172931811768675,3.0,0.0
30.23157501220703,-9.08981704711914,-0.2360885143280029,-0.0,-0.0,-1.0,0.0257112104374142,1.0,0.0
30.522533416748047,-9.352838516235352,-0.1895043849945068,-0.0,-0.0,-1.0,0.0458425222135487,2.0,0.0
30.945804595947266,-7.948205947875977,-0.3276247978210449,-0.3008129671830925,-0.6547152923931673,-0.6934402964070038,0.0139980633972121,3.0,0.0
31.171642303466797,-8.794898986816406,-0.1966249942779541,0.9067789839012166,0.0407512225112173,0.4196322344850531,0.0610263282438769,5.0,0.0
32.151275634765625,-7.859169006347656,-0.2460498809814453,0.4555128451068607,-0.828086024806157,-0.326774514709133,0.1827175019767056,9.0,0.0
31.777912139892575,-9.19525146484375,-0.0820143222808837,-0.0,-0.0,-1.0,0.131690865087526,2.0,0.0
32.204345703125,-8.321487426757812,-0.0972359180450439,0.7145083085066137,-0.2827753328340199,-0.6399343624276063,0.1643745896887056,4.0,0.0
32.27043914794922,-7.515346527099609,-0.2702202796936035,-0.3252422527436578,0.836186379299917,-0.4415991577251096,0.2025931270453289,5.0,0.0
31.780527114868164,-8.839715003967285,0.0551681518554687,0.2655723917053468,-0.095274475995847,-0.9593717105416536,0.1842868796796218,13.0,1.0
31.835887908935547,-8.806657791137695,0.0333747863769531,0.3907983124085988,0.5373070934054587,-0.7473806034376119,0.225127983992373,6.0,1.0
31.86911964416504,-7.552408218383789,-0.3082437515258789,-0.0,-0.0,-1.0,0.0364185829056528,2.0,0.0
30.792495727539062,-8.788749694824219,-0.2558550834655761,-0.4696170810313789,-0.1934986013380885,-0.8614047181689749,0.027737877165024,4.0,0.0
32.07292175292969,-7.834471702575684,-0.1246862411499023,0.0155881803140846,-0.0281717288057676,-0.9994815467684182,0.1711681068864296,3.0,0.0
30.23015594482422,-7.315567970275879,-0.375424861907959,-0.0,-0.0,-1.0,0.0529999657860011,1.0,0.0
30.21897315979004,-7.267772674560547,-0.3653745651245117,0.9143385767669095,0.3444946562584155,-0.2128576962321496,0.0539834809414708,3.0,0.0
32.152305603027344,-8.141273498535156,-0.0118870735168457,-0.0,-0.0,-1.0,0.227016491929001,2.0,0.0
32.178192138671875,-7.833028793334961,-0.2229304313659668,0.4439834316685958,-0.2132184067173991,-0.8702968593765414,0.1921427577479204,7.0,0.0
32.152252197265625,-8.32530689239502,0.0622196197509765,-0.0,-0.0,-1.0,0.1370863182921005,1.0,1.0
32.013214111328125,-8.40642261505127,0.0145268440246582,0.22050973213586,-0.4009041417469479,-0.889185766397278,0.1608116010665008,3.0,1.0
32.07575225830078,-7.861935615539551,-0.1238679885864257,-0.7673192135596112,-0.5155867231569368,-0.3813024461061747,0.2450348308514484,5.0,0.0
30.24222946166992,-6.930877685546875,-0.3738923072814941,-0.0,-0.0,-1.0,0.0458700511137899,1.0,0.0
32.181678771972656,-8.731207847595215,0.0003333091735839,-0.0,-0.0,-1.0,0.1119918777223531,1.0,1.0
32.14570236206055,-9.036358833312988,0.0098085403442382,-0.0,-0.0,-1.0,0.1176531608389774,1.0,1.0
32.33876037597656,-8.005672454833984,-0.0835304260253906,-0.0,-0.0,-1.0,0.1954790326546577,1.0,0.0
31.91380500793457,-9.11113166809082,-0.0274176597595214,0.5570307551477888,-0.5373178213802576,-0.6332505796654737,0.1605953117330786,4.0,0.0
32.27836608886719,-8.2750825881958,0.0143337249755859,-0.0,-0.0,-1.0,0.109203356620969,1.0,1.0
32.28955078125,-8.392675399780273,-0.0012831687927246,-0.1835103001110804,-0.6560996554170441,-0.7320226853826167,0.2090794319013671,4.0,0.0
32.501426696777344,-7.378197193145752,-0.1642632484436035,-0.0,-0.0,-1.0,0.1922773618114977,1.0,0.0
32.17531204223633,-7.797712802886963,-0.1675624847412109,-0.0,-0.0,-1.0,0.1708863643772812,1.0,0.0
30.52248191833496,-9.354653358459473,-0.1366252899169922,-0.0,-0.0,-1.0,0.0458425222135487,1.0,0.0
30.26234436035156,-7.578089237213135,-0.1753406524658203,-0.0,-0.0,-1.0,0.089796554286466,1.0,0.0
31.769908905029297,-8.798307418823242,0.0702962875366211,-0.1012008737565719,0.171177322193668,-0.9800289319798222,0.1986267657740258,9.0,1.0
32.04738998413086,-8.450724601745605,0.0156149864196777,0.86187516055886,0.3421081901141548,-0.3743436841572959,0.2259055631688496,3.0,1.0
30.25005531311035,-7.704148769378662,-0.414762020111084,-0.0,-0.0,-1.0,0.0327724665338099,1.0,0.0
30.44045639038086,-7.316107749938965,-0.4483256340026855,-0.0,-0.0,-1.0,0.0247410053806213,1.0,0.0
30.414152145385746,-6.921812534332275,-0.4500679969787597,-0.0,-0.0,-1.0,0.0335060843267495,1.0,0.0
31.71495246887207,-9.039328575134276,-0.0950093269348144,-0.0,-0.0,-1.0,0.063289747597614,1.0,0.0
31.817562103271484,-9.234956741333008,-0.1157732009887695,-0.0,-0.0,-1.0,0.0976793299280839,1.0,0.0
31.678863525390625,-8.863520622253418,-0.0843114852905273,-0.0,-0.0,-1.0,0.162913740158026,2.0,0.0
31.867095947265625,-8.648005485534668,-0.1038885116577148,0.7706681986314493,-0.6343740600414995,0.0603330718977659,0.2324940874882511,4.0,0.0
31.868900299072266,-9.2365083694458,0.0380363464355468,-0.0,-0.0,-1.0,0.1608690471533529,2.0,1.0
31.726253509521484,-8.928261756896973,0.060462474822998,-0.3448730250784813,0.4010777347884166,-0.848645536858711,0.1709199016533681,3.0,1.0
31.861610412597656,-8.662626266479492,0.0374455451965332,0.724036091954131,0.286725407534742,-0.6273438277546256,0.1977417081637549,4.0,1.0
31.995716094970703,-8.498130798339844,0.0147652626037597,0.1568641121374048,0.9705980551479972,-0.1825734527971394,0.1911980109540721,6.0,1.0
32.010616302490234,-9.009729385375977,0.0225753784179687,-0.0,-0.0,-1.0,0.148752558581326,1.0,1.0
32.04816436767578,-8.772710800170898,0.0181608200073242,-0.0,-0.0,-1.0,0.1437325356863442,2.0,1.0
30.719074249267575,-9.344230651855469,-0.19091796875,-0.0,-0.0,-1.0,0.0721839384038433,1.0,0.0
30.884048461914062,-9.125018119812012,-0.2153348922729492,-0.0,-0.0,-1.0,0.0735721029189982,2.0,0.0
31.02037048339844,-8.896674156188965,-0.2346053123474121,-0.0,-0.0,-1.0,0.0532224981842852,2.0,0.0
31.17034912109375,-8.668038368225098,-0.257209300994873,-0.0,-0.0,-1.0,0.029968465991909,1.0,0.0
31.297340393066406,-8.425719261169434,-0.275644302368164,-0.0,-0.0,-1.0,0.0128425091865817,2.0,0.0
31.41473388671875,-8.183844566345215,-0.2930588722229004,-0.0,-0.0,-1.0,0.0426888403858208,1.0,0.0
31.525161743164062,-7.752365589141846,-0.3065834045410156,-0.0,-0.0,-1.0,0.0299903742286409,1.0,0.0
31.70092010498047,-7.2942986488342285,-0.3342270851135254,-0.0,-0.0,-1.0,0.1192670134422209,2.0,0.0
31.828842163085938,-7.006528377532959,-0.3559622764587402,-0.0,-0.0,-1.0,0.0169528573757779,2.0,0.0
30.32561683654785,-6.977545738220215,-0.3697657585144043,-0.0,-0.0,-1.0,0.0351822536485534,2.0,0.0
31.730653762817383,-9.19845485687256,0.0302481651306152,-0.0,-0.0,-1.0,0.0956082638066017,1.0,1.0
31.639047622680664,-8.972606658935547,0.0384750366210937,-0.0,-0.0,-1.0,0.1344296535010096,1.0,1.0
31.76688575744629,-8.729307174682617,0.0014510154724121,-0.1857546694755977,-0.0785121029771109,-0.9794544667589828,0.2225415183811054,7.0,1.0
31.975048065185547,-8.418821334838867,-0.05546236038208,-0.5090274196200049,0.7098340711454675,-0.4868538564251601,0.1713624448347859,5.0,0.0
32.112586975097656,-8.17668342590332,-0.0953707695007324,-0.3323701979957429,0.0389995500454268,-0.9423423404371286,0.1769358765086212,4.0,0.0
32.11091995239258,-7.887851715087891,-0.1099357604980468,0.0370661025973578,-0.4287840231249459,-0.902646312544968,0.2142795967706869,5.0,0.0
32.68796157836914,-8.061189651489258,-0.3517909049987793,-0.0,-0.0,-1.0,0.0656564412888312,1.0,0.0
31.98886489868164,-8.378917694091797,-0.2016201019287109,-0.0,-0.0,-1.0,0.1615884259907874,1.0,0.0
32.0960807800293,-8.17983341217041,-0.2280454635620117,-0.0,-0.0,-1.0,0.071014262088895,1.0,0.0
32.31072235107422,-7.74836540222168,-0.2833132743835449,0.1133795444195368,0.7912680745161408,0.6008659693798093,0.0785937010033352,4.0,0.0
32.69865417480469,-7.137880325317383,-0.3831372261047363,-0.0,-0.0,-1.0,0.1036471918418562,1.0,0.0
31.61797332763672,-9.170303344726562,-0.1130604743957519,-0.0,-0.0,-1.0,0.0485985287804685,2.0,0.0
31.772621154785156,-8.808886528015137,-0.1495928764343261,-0.0,-0.0,-1.0,0.1829495108167648,1.0,0.0
31.853744506835938,-8.507867813110352,-0.1715807914733886,-0.0,-0.0,-1.0,0.1534241790649753,1.0,0.0
31.336421966552734,-9.206451416015623,-0.1625304222106933,-0.7081351119310478,-0.5673372322594405,-0.4203250267859397,0.0284004012417789,4.0,0.0
