x,y,z,nx,ny,nz,curvature,density,label
18.443359375,18.996780395507812,-1.2981860637664795,-0.0,-0.0,-1.0,0.0247891178682206,1.0,0.0
18.48981475830078,18.577800750732425,-1.2739346027374268,-0.0,-0.0,-1.0,0.006582837076141,1.0,0.0
18.649158477783203,18.29886054992676,-1.2253189086914062,-0.0,-0.0,-1.0,0.0051568557531718,2.0,0.0
19.52654266357422,19.50509262084961,-1.0344653129577637,0.943295988777966,0.2275748895794818,0.2416657757902144,0.1604862494291386,11.0,0.0
19.431175231933594,18.736572265625,-1.2367596626281738,-0.0,-0.0,-1.0,0.1098033441707873,2.0,0.0
19.626163482666016,19.010719299316406,-1.312964916229248,-0.0,-0.0,-1.0,0.0196141335445706,2.0,0.0
18.679302215576172,20.261064529418945,-1.296402931213379,-0.0,-0.0,-1.0,0.0272537917976592,1.0,0.0
18.896568298339844,20.439720153808594,-1.3381521701812744,-0.0,-0.0,-1.0,0.0190322971557416,1.0,0.0
19.0455379486084,20.456655502319336,-1.3410425186157229,-0.0,-0.0,-1.0,0.0282577755419433,2.0,0.0
19.50823211669922,20.4227237701416,-1.3307950496673584,0.1155941329841939,0.9896389995596896,-0.085162473954961,0.0781766039603314,3.0,0.0
19.508909225463867,20.62030792236328,-1.380645513534546,-0.0,-0.0,-1.0,0.0409012827705883,2.0,0.0
19.0029296875,19.49801254272461,-1.10201096534729,0.9213988699898374,-0.3445219749703308,0.1798019219696869,0.2132571656764293,3.0,0.0
19.08711624145508,19.707502365112305,-1.153329372406006,-0.0,-0.0,-1.0,0.1640115911255029,2.0,0.0
19.60420036315918,19.513870239257812,-1.101680040359497,0.8288175971103863,-0.5586770084345427,0.0306820952152113,0.1365403269216578,4.0,0.0
17.839176177978516,19.671123504638672,-1.258508324623108,-0.0,-0.0,-1.0,0.0342286248620704,1.0,0.0
17.86810302734375,19.88334274291992,-1.296970248222351,0.4518562754090406,-0.6182439146084765,-0.6431176940677781,0.0691260754729647,4.0,0.0
18.369428634643555,19.262619018554688,-1.2464396953582764,-0.0,-0.0,-1.0,0.0446478071297767,1.0,0.0
18.66917610168457,19.331897735595703,-1.2322440147399902,-0.0,-0.0,-1.0,0.1559687928535239,1.0,0.0
18.956871032714844,19.25165367126465,-1.1905083656311035,-0.7435996918767918,-0.2984517614373159,-0.5983193497921525,0.2197713427466406,3.0,0.0
18.635961532592773,19.396154403686523,-1.2478384971618652,-0.0,-0.0,-1.0,0.1365509473671076,2.0,0.0
19.032222747802734,19.541500091552734,-1.241529941558838,0.3471943425983806,-0.5666842287530801,-0.7472115318637723,0.2043942306552767,4.0,0.0
19.540510177612305,19.33796501159668,-1.187705397605896,-0.0,-0.0,-1.0,0.1556774601996543,1.0,0.0
19.57101058959961,19.437580108642575,-1.194365382194519,-0.4862196656832316,-0.6712455544129065,-0.5594817623334972,0.1672514059543801,3.0,0.0
19.425737380981445,19.809715270996097,-1.2641888856887815,-0.0,-0.0,-1.0,0.0862577842940049,2.0,0.0
19.581787109375,19.52850341796875,-1.2034193277359009,-0.8127327392952333,-0.5529295479409853,-0.1836692938175679,0.2180633130154793,4.0,0.0
19.49110412597656,20.054492950439453,-1.2824496030807495,-0.0,-0.0,-1.0,0.0298322052342582,1.0,0.0
19.612205505371097,20.431903839111328,-1.3074036836624146,-0.0,-0.0,-1.0,0.0400762417800954,1.0,0.0
19.6127986907959,19.44687271118164,-0.7482219934463501,-0.0,-0.0,-1.0,0.0879467787035771,1.0,0.0
17.8214111328125,18.994958877563477,-1.282480001449585,-0.0,-0.0,-1.0,0.0210573222024338,1.0,0.0
18.1732234954834,19.112661361694336,-1.2837804555892944,-0.0,-0.0,-1.0,0.0301565904178257,1.0,0.0
17.98916244506836,18.65349006652832,-1.2598270177841189,-0.0,-0.0,-1.0,0.0069110236108598,1.0,0.0
19.843198776245117,19.837617874145508,-1.041730880737305,-0.0,-0.0,-1.0,0.1424901820867551,1.0,0.0
19.98555564880371,19.828353881835938,-1.0346932411193848,-0.0,-0.0,-1.0,0.0928039953055357,1.0,0.0
19.490333557128903,19.394744873046875,-0.9116429090499878,-0.0,-0.0,-1.0,0.1912869738550443,1.0,0.0
19.422748565673828,19.417980194091797,-1.1328357458114624,-0.8984511841481498,-0.3959174294090861,-0.1898284983686298,0.2238099619104432,3.0,0.0
19.4686222076416,19.356632232666016,-1.1264339685440063,-0.0,-0.0,-1.0,0.2002864949942492,1.0,0.0
20.18509864807129,18.160430908203125,-1.0110539197921753,-0.0,-0.0,-1.0,0.0850488664952923,1.0,0.0
19.539140701293945,19.391891479492188,-1.15838360786438,-0.0,-0.0,-1.0,0.1997044083598004,1.0,0.0
18.91962623596191,19.291688919067383,-1.1799213886260986,-0.0,-0.0,-1.0,0.1689463871399861,2.0,0.0
19.654157638549805,19.48125457763672,-1.1149734258651731,0.0934076916026575,-0.8118960396398446,-0.5762810286367226,0.1267150702587677,3.0,0.0
19.504188537597656,19.52137565612793,-1.1216193437576294,0.0122062787786689,-0.8507866087883978,-0.5253695395288112,0.1347945014173604,6.0,0.0
19.6358585357666,19.58420753479004,-0.9906907081604004,0.9542977523971334,0.0140162220776224,0.2985286339506651,0.1533277294597488,3.0,0.0
19.809232711791992,19.584348678588867,-1.1508290767669678,-0.0,-0.0,-1.0,0.1890722036648793,1.0,0.0
19.446868896484375,19.67234230041504,-1.182581663131714,-0.3455231158264917,-0.8921151388885695,-0.2911088377143176,0.2204834911732424,4.0,0.0
19.21315574645996,19.57401657104492,-1.1952674388885498,-0.0,-0.0,-1.0,0.1581990230135679,2.0,0.0
19.630207061767575,19.55247688293457,-0.9711350202560424,-0.3818930678670288,0.1616577490307624,-0.9099584918519174,0.2315893436406661,6.0,0.0
19.3091983795166,19.43429183959961,-1.2506476640701294,-0.0,-0.0,-1.0,0.1763846049874656,1.0,0.0
19.61482048034668,19.46933364868164,-1.144051194190979,-0.0,-0.0,-1.0,0.2227889080817587,2.0,0.0
19.452560424804688,19.48147201538086,-1.1565622091293335,-0.0,-0.0,-1.0,0.1839933095386017,1.0,0.0
19.66817855834961,19.5411376953125,-0.8525090217590332,-0.0,-0.0,-1.0,0.0783303255562444,1.0,0.0
20.139646530151367,18.22716522216797,-0.8746004104614258,0.3452353803261741,-0.9380891299311612,-0.0283075339095216,0.096502373516516,5.0,0.0
19.576488494873047,19.543853759765625,-1.1417821645736694,0.1383094066976163,-0.2747187600305538,-0.9515251499073624,0.1320755473481275,7.0,0.0
19.510238647460938,19.525468826293945,-1.1448687314987185,-0.1685526391904043,-0.5024881358323584,-0.8479950950151015,0.1340861080182158,7.0,0.0
18.940032958984375,19.379390716552734,-1.1735163927078247,-0.0,-0.0,-1.0,0.1684998045149935,2.0,0.0
17.965179443359375,19.118921279907227,-1.2249118089675903,-0.0,-0.0,-1.0,0.0539740707215938,2.0,0.0
19.533843994140625,19.489843368530273,-1.0687849521636963,-0.6507641798997529,-0.7218972077761524,0.235309165916665,0.1654018005551546,8.0,0.0
19.98851203918457,19.958215713500977,-1.3901987075805664,0.6498836468946086,-0.5297626098176499,-0.5449796535084184,0.0515028338534102,3.0,0.0
20.081092834472656,20.509754180908203,-1.45550799369812,-0.0,-0.0,-1.0,0.0133034674577583,2.0,0.0
19.833900451660156,19.682106018066406,-1.3660457134246826,-0.0,-0.0,-1.0,0.0459967458111654,2.0,0.0
18.12928581237793,20.44784927368164,-1.4276585578918457,-0.0,-0.0,-1.0,0.0308745052450873,1.0,0.0
17.874740600585938,19.828229904174805,-1.3968496322631836,-0.0,-0.0,-1.0,0.0327578010178132,1.0,0.0
18.063642501831055,20.23991584777832,-1.414428472518921,-0.0,-0.0,-1.0,0.066372617546532,1.0,0.0
20.07151985168457,20.58884048461914,-1.4491022825241089,-0.0,-0.0,-1.0,0.012703892721731,2.0,0.0
19.867610931396484,19.986927032470703,-1.3835030794143677,-0.0,-0.0,-1.0,0.0329917184316073,2.0,0.0
19.97310447692871,20.530593872070312,-1.450706124305725,-0.0,-0.0,-1.0,0.0127038927217309,2.0,0.0
19.550373077392575,19.28041076660156,-1.3166481256484983,0.5395332943474185,-0.8368287933760868,-0.0928514666946337,0.1293718105230328,3.0,0.0
19.72035026550293,19.774885177612305,-1.3686436414718628,-0.0,-0.0,-1.0,0.038391946530353,2.0,0.0
19.75650405883789,19.82893943786621,-1.3725358247756958,-0.0,-0.0,-1.0,0.0384842626518386,1.0,0.0
19.631622314453125,19.529172897338867,-0.7980211973190308,-0.0167466082431463,0.998765863753924,-0.0467578925126996,0.1063342068952006,4.0,0.0
19.608793258666992,19.528987884521484,-1.1444450616836548,0.7222580194044785,-0.3863976238701295,-0.5736202835268622,0.1635966538145819,7.0,0.0
19.297176361083984,19.520294189453125,-1.158483386039734,-0.0,-0.0,-1.0,0.143475403579303,2.0,0.0
19.400779724121097,20.38987922668457,-1.298500657081604,-0.4275295481537889,0.6737925834863316,0.6026790521448642,0.1172422183817714,4.0,0.0
18.989673614501953,19.422080993652344,-1.1582094430923462,-0.0,-0.0,-1.0,0.1995246412461741,1.0,0.0
18.67098617553711,19.820499420166016,-1.2409192323684692,-0.0,-0.0,-1.0,0.0340056318390769,1.0,0.0
18.35776138305664,20.266706466674805,-1.3312801122665403,0.0532395339711193,-0.72639648010703,-0.6852107016901122,0.1239589706923936,3.0,0.0
17.917388916015625,19.889463424682617,-1.294649958610535,-0.0,-0.0,-1.0,0.070546956778245,2.0,0.0
18.147510528564453,20.11309051513672,-1.3178404569625854,-0.0,-0.0,-1.0,0.0970955003524588,1.0,0.0
17.722835540771484,19.68310546875,-1.2729076147079468,-0.0,-0.0,-1.0,0.0215241435483271,1.0,0.0
19.57018661499023,19.45698928833008,-1.270452857017517,0.5617259471729974,-0.5954933433740721,-0.5743271178255196,0.2485609840483267,5.0,0.0
19.681228637695312,19.955774307250977,-1.3545979261398315,0.1660027697518775,-0.9860455724717512,-0.0125383190086088,0.0980562687428452,3.0,0.0
19.846176147460938,20.19632911682129,-1.3888283967971802,-0.0,-0.0,-1.0,0.0150298496554124,1.0,0.0
19.44109535217285,19.35464859008789,-1.2602237462997437,-0.0,-0.0,-1.0,0.1991783836593365,1.0,0.0
18.876922607421875,19.186180114746097,-1.2681940793991089,-0.0,-0.0,-1.0,0.0928077623055651,1.0,0.0
18.897443771362305,19.246082305908203,-1.2774807214736938,-0.1856152916244807,-0.0202258232367091,-0.9824143115761074,0.1319232112184414,3.0,0.0
19.6519775390625,20.320667266845703,-1.361640691757202,-0.0,-0.0,-1.0,0.0293859980925794,2.0,0.0
18.214984893798828,19.215587615966797,-1.2634985446929932,0.5161262338430159,0.400513962400608,-0.757101232769561,0.0474237331210213,5.0,0.0
18.416259765625,19.35729598999023,-1.2723701000213623,-0.0,-0.0,-1.0,0.0422710658010111,1.0,0.0
17.937149047851562,19.034461975097656,-1.2551548480987549,-0.0,-0.0,-1.0,0.0388794303234873,1.0,0.0
19.824466705322266,19.53881072998047,-1.1974449157714844,-0.0,-0.0,-1.0,0.1804704481925867,1.0,0.0
19.357851028442383,19.51372528076172,-1.226470708847046,-0.8154740723046109,-0.5733430438009807,-0.0792451356485766,0.1626678042927502,3.0,0.0
19.12064743041992,19.620616912841797,-1.2649834156036377,-0.0,-0.0,-1.0,0.1558307477050329,1.0,0.0
18.732662200927734,19.29709243774414,-1.23467755317688,-0.0,-0.0,-1.0,0.0574755803425134,1.0,0.0
18.70113754272461,19.37054443359375,-1.2510664463043213,-0.0,-0.0,-1.0,0.1106722821289535,1.0,0.0
18.146190643310547,19.159748077392575,-1.259282112121582,-0.0,-0.0,-1.0,0.0376549132872129,2.0,0.0
17.749303817749023,18.810462951660156,-1.2319939136505127,-0.0,-0.0,-1.0,0.0104924999285096,2.0,0.0
18.00848388671875,19.05284309387207,-1.252025842666626,0.0930069228934719,-0.969227705834952,-0.2279196492972979,0.0528853033609519,5.0,0.0
17.728652954101562,18.68251037597656,-1.2109558582305908,-0.0,-0.0,-1.0,0.0063033128772817,2.0,0.0
19.64430809020996,19.550697326660156,-0.7745215892791748,-0.0167466082431463,0.998765863753924,-0.0467578925126996,0.1092570930731944,4.0,0.0
20.00366973876953,19.4415225982666,-1.3703140020370483,-0.0,-0.0,-1.0,0.0189231340868245,2.0,0.0
20.118457794189453,19.64244079589844,-1.4031144380569458,-0.0,-0.0,-1.0,0.0285447516518994,1.0,0.0
19.683853149414062,18.67782211303711,-1.2388335466384888,-0.0,-0.0,-1.0,0.0321171220349016,1.0,0.0
19.574119567871097,18.88368225097656,-1.2957009077072144,-0.0,-0.0,-1.0,0.0285459881343641,1.0,0.0
19.871246337890625,19.36357879638672,-1.3671518564224243,-0.0,-0.0,-1.0,0.0750326282947979,2.0,0.0
19.182531356811523,18.44779586791992,-1.2496858835220337,-0.0,-0.0,-1.0,0.0172064094979756,1.0,0.0
19.49457359313965,18.776872634887695,-1.281941294670105,0.1097749638371481,0.5998449542298323,-0.7925499909782111,0.0599418250230001,3.0,0.0
18.178102493286133,20.375877380371097,-1.3169971704483032,-0.0,-0.0,-1.0,0.0587392773661437,1.0,0.0
18.37178611755371,20.619922637939453,-1.3422013521194458,-0.0,-0.0,-1.0,0.0301903147711734,1.0,0.0
17.846296310424805,20.241809844970703,-1.3268800973892212,-0.0933257734091712,0.0284983426022284,-0.9952276847468152,0.0881644576044591,3.0,0.0
19.729148864746097,18.532773971557617,-1.202476143836975,-0.0,-0.0,-1.0,0.0793346716880551,1.0,0.0
19.654693603515625,19.909345626831055,-1.0912412405014038,-0.0137895455303968,0.0598641863584595,-0.998111280181576,0.1956129904719291,3.0,0.0
19.526290893554688,19.48816299438477,-1.0243040323257446,0.9984037617763072,-0.012834553517489,-0.0550018427593579,0.1994861179216185,11.0,0.0
19.32574462890625,19.557926177978516,-1.0559355020523071,0.1159448423905374,-0.878117451429443,0.4641837298075981,0.2184596960333237,3.0,0.0
18.93681907653809,19.54273223876953,-1.0905386209487915,0.4436812374559514,0.8088900685311536,0.3858028208310838,0.2010510374761607,3.0,0.0
18.532867431640625,20.526206970214844,-1.3094111680984497,-0.0,-0.0,-1.0,0.0287529244476358,1.0,0.0
18.119548797607425,20.27362632751465,-1.3044246435165403,-0.0,-0.0,-1.0,0.067055460928778,2.0,0.0
18.46577835083008,20.467212677001953,-1.3051129579544067,-0.0,-0.0,-1.0,0.0242451114374787,2.0,0.0
19.89312744140625,19.66270446777344,-1.3912899494171145,-0.325902047399186,-0.0327197712401126,-0.944837166961066,0.0356172529919315,3.0,0.0
20.032007217407227,19.888168334960938,-1.4194095134735107,-0.0,-0.0,-1.0,0.0556113577308943,1.0,0.0
19.87740707397461,19.61920166015625,-1.3843610286712646,-0.0,-0.0,-1.0,0.0397424232862344,2.0,0.0
19.507265090942383,18.791669845581055,-1.268984079360962,-0.0,-0.0,-1.0,0.0837931420213722,2.0,0.0
19.44131851196289,19.02981758117676,-1.328460454940796,-0.0,-0.0,-1.0,0.0395063913564209,1.0,0.0
19.645797729492188,19.479360580444336,-1.2012803554534912,-0.0,-0.0,-1.0,0.1693876252512121,2.0,0.0
19.625314712524418,19.888166427612305,-1.0921056270599363,-0.0137895455303968,0.0598641863584595,-0.998111280181576,0.150363470116116,3.0,0.0
19.09196662902832,18.3541202545166,-1.2501866817474363,-0.0,-0.0,-1.0,0.0116381311229444,1.0,0.0
19.3449764251709,19.55328369140625,-1.06952166557312,0.3562925731973467,-0.6058225036597505,0.7113611574607127,0.2035028845609451,3.0,0.0
18.95284652709961,19.54945373535156,-1.123063087463379,-0.0,-0.0,-1.0,0.2085119390814353,2.0,0.0
18.57099723815918,20.35902404785156,-1.3181421756744385,-0.4565811118503248,-0.0480865974158662,-0.8883813187198871,0.0296186937875351,3.0,0.0
18.613054275512695,20.59717559814453,-1.354367971420288,-0.0,-0.0,-1.0,0.0343463261417118,2.0,0.0
17.866920471191406,19.3223934173584,-1.243100881576538,-0.0,-0.0,-1.0,0.0705089035265695,2.0,0.0
17.92535400390625,19.60200881958008,-1.2809488773345947,-0.0,-0.0,-1.0,0.0264819157702713,1.0,0.0
18.09899520874023,19.995296478271484,-1.3220460414886477,0.2762972726940472,0.3351538466607958,-0.9007395384739714,0.0467596586142434,4.0,0.0
18.24639129638672,20.26889419555664,-1.347893238067627,-0.0,-0.0,-1.0,0.0906505585426425,1.0,0.0
19.91213607788086,19.041179656982425,-1.3469154834747314,-0.0,-0.0,-1.0,0.0699172600180912,2.0,0.0
20.017627716064453,19.294204711914062,-1.3804242610931396,-0.0,-0.0,-1.0,0.0158357964922442,1.0,0.0
20.191753387451172,19.64194107055664,-1.4226138591766355,-0.0,-0.0,-1.0,0.0329879232089919,1.0,0.0
19.85721969604492,18.986289978027344,-1.3466811180114746,-0.0,-0.0,-1.0,0.0751491861323147,1.0,0.0
19.472034454345703,20.617088317871097,-1.400336980819702,-0.1861666789362165,0.9637658954431196,0.1910425775438065,0.0389255892359493,3.0,0.0
19.912532806396484,18.29326629638672,-1.187514305114746,-0.0,-0.0,-1.0,0.0799712742713011,2.0,0.0
20.173337936401367,18.402158737182617,-1.1537189483642578,-0.599283707816083,-0.7657264939033592,0.2334994091655834,0.1351353153044816,4.0,0.0
19.867610931396484,19.487064361572266,-1.112081527709961,-0.0,-0.0,-1.0,0.0695099452101294,1.0,0.0
19.739517211914062,18.367626190185547,-1.241407871246338,-0.3049824403591179,0.5200325010063372,-0.7978420325914719,0.0548915385728694,3.0,0.0
19.719539642333984,19.470918655395508,-1.136573076248169,-0.0,-0.0,-1.0,0.1376181825839517,1.0,0.0
19.56482315063477,19.547224044799805,-1.1796791553497314,-0.7243403594326551,-0.6485008706399831,-0.2340462870377471,0.1975444369564297,8.0,0.0
19.482091903686523,20.28095436096191,-1.3338630199432373,-0.0,-0.0,-1.0,0.0699887183578735,1.0,0.0
19.473501205444336,20.48418617248535,-1.3744275569915771,-0.0,-0.0,-1.0,0.0854171038448357,1.0,0.0
19.32470703125,19.589921951293945,-1.232994794845581,-0.0,-0.0,-1.0,0.1718916939032598,1.0,0.0
19.18254852294922,20.248546600341797,-1.3827576637268066,-0.5687356574503102,0.7472308223564679,-0.343781689543001,0.0371335949473268,3.0,0.0
19.38969993591309,20.378585815429688,-1.3693759441375732,-0.0,-0.0,-1.0,0.1008458145281379,1.0,0.0
18.82040023803711,19.2894229888916,-1.2769827842712402,-0.1631718592088144,-0.9694622560238264,-0.1830788860232979,0.0901138265845852,3.0,0.0
18.987812042236328,19.525928497314453,-1.28621244430542,-0.0,-0.0,-1.0,0.1960066484363679,2.0,0.0
18.332735061645508,18.180456161499023,-1.1899983882904053,-0.0,-0.0,-1.0,0.0065177162698352,1.0,0.0
18.30327033996582,18.635982513427734,-1.2708477973937988,0.3054171149677789,-0.1595818029624635,-0.9387513164028096,0.0083177400437056,3.0,0.0
18.423561096191406,18.864429473876953,-1.2841007709503174,-0.0,-0.0,-1.0,0.0261516223074499,1.0,0.0
18.313631057739254,20.188146591186523,-1.1464693546295166,-0.0,-0.0,-1.0,0.1299529246719788,2.0,0.0
18.26165771484375,18.441871643066406,-1.2477717399597168,-0.0,-0.0,-1.0,0.0070719377676266,2.0,0.0
19.581544876098633,19.535253524780273,-0.8311593532562256,-0.4295057028842609,0.8891369942839893,-0.1579881533075518,0.1086522891106484,3.0,0.0
20.1907958984375,20.05988311767578,-1.4411382675170898,0.447169373230788,0.7621914992813323,0.4680851098546704,0.0479409668651117,4.0,0.0
19.909683227539062,19.575475692749023,-1.3999552726745603,-0.0,-0.0,-1.0,0.0449490000217043,1.0,0.0
20.035072326660156,19.824169158935547,-1.424717664718628,-0.0,-0.0,-1.0,0.0437008404873023,1.0,0.0
19.87287712097168,18.68663024902344,-1.2194175720214844,-0.0,-0.0,-1.0,0.1064020439457453,1.0,0.0
19.69106101989746,19.120264053344727,-1.3574581146240234,-0.0,-0.0,-1.0,0.024510578352608,1.0,0.0
19.797164916992188,19.346920013427734,-1.3785150051116943,-0.0,-0.0,-1.0,0.0876219335120001,2.0,0.0
19.371789932250977,20.323408126831055,-1.3501722812652588,-0.0,-0.0,-1.0,0.1162739416530516,1.0,0.0
19.44273567199707,20.609310150146484,-1.3896489143371582,-0.1835823675304038,-0.4840922367559666,-0.8555420624636387,0.058923973968648,3.0,0.0
19.51689910888672,18.228443145751953,-1.2248387336730957,-0.0,-0.0,-1.0,0.024890415561454,1.0,0.0
19.54552841186523,18.521881103515625,-1.27390718460083,-0.0,-0.0,-1.0,0.0321256009403893,2.0,0.0
19.09569549560547,19.573657989501953,-1.274691104888916,-0.0,-0.0,-1.0,0.1539414230560846,1.0,0.0
19.157983779907227,20.230758666992188,-1.380782127380371,-0.5687356574503102,0.7472308223564679,-0.343781689543001,0.034987302908507,3.0,0.0
19.216920852661133,20.338558197021484,-1.3877136707305908,-0.0,-0.0,-1.0,0.0627357233090185,1.0,0.0
18.87176513671875,19.256248474121097,-1.2728383541107178,-0.0,-0.0,-1.0,0.1061013149136019,2.0,0.0
18.625274658203125,18.88410758972168,-1.2713284492492676,-0.0,-0.0,-1.0,0.0255882123103064,1.0,0.0
18.70325469970703,18.995471954345703,-1.2701375484466553,-0.0,-0.0,-1.0,0.0537845488735011,2.0,0.0
19.549022674560547,19.48694229125977,-0.9968173503875732,0.3279398050174537,0.5794105066338758,-0.7461494147202621,0.2027925586784067,11.0,0.0
19.518701553344727,19.64007568359375,-1.1881952285766602,-0.820349472968058,-0.4527972071864047,-0.3492870329188034,0.1296435391095484,3.0,0.0
19.370906829833984,19.490800857543945,-1.1949622631072998,-0.8154740723046109,-0.5733430438009807,-0.0792451356485766,0.1696056515372143,3.0,0.0
19.26441192626953,19.52159881591797,-1.2254960536956787,-0.0,-0.0,-1.0,0.2072433474157514,2.0,0.0
18.462751388549805,18.468971252441406,-1.246729850769043,-0.0,-0.0,-1.0,0.0054122130599122,1.0,0.0
18.555438995361328,18.71798515319824,-1.2624547481536863,-0.0,-0.0,-1.0,0.0211813229213124,1.0,0.0
18.165876388549805,20.224042892456055,-1.2440598011016846,-0.0,-0.0,-1.0,0.1193474871123084,1.0,0.0
17.986404418945312,20.517921447753903,-1.3263163566589355,-0.0,-0.0,-1.0,0.0229571181887015,1.0,0.0
18.416276931762695,18.393156051635746,-1.247178077697754,-0.0,-0.0,-1.0,0.0057163537171074,2.0,0.0
17.801122665405273,20.223384857177734,-1.323171615600586,0.3353276415136658,-0.8863856557041069,-0.3191799526895185,0.1176439441655601,3.0,0.0
18.38765335083008,20.49795913696289,-1.3278990983963013,0.2533739393261458,-0.71099218295475,-0.6559662816392241,0.0286701197579814,3.0,0.0
18.18671417236328,20.27730941772461,-1.3296886682510376,-0.0,-0.0,-1.0,0.0795273572776565,2.0,0.0
17.87327003479004,19.873809814453125,-1.3252631425857544,-0.0,-0.0,-1.0,0.0300755974585185,2.0,0.0
19.556928634643555,19.487180709838867,-0.8784595727920532,0.9339286754042332,-0.3014293214143557,-0.1921395155853549,0.1383914950897285,4.0,0.0
18.09696388244629,20.036405563354492,-1.304937481880188,-0.0,-0.0,-1.0,0.0551542349894325,2.0,0.0
17.911514282226562,19.770830154418945,-1.2990483045578003,-0.0,-0.0,-1.0,0.0341271402430575,1.0,0.0
17.764049530029297,19.53828239440918,-1.29255473613739,-0.0,-0.0,-1.0,0.0433690999415155,1.0,0.0
18.91078758239746,19.30632781982422,-1.2630224227905271,-0.0,-0.0,-1.0,0.1741775716317042,2.0,0.0
18.95798683166504,19.23099136352539,-1.2661008834838867,-0.0,-0.0,-1.0,0.1314935726525223,1.0,0.0
19.03813934326172,19.116649627685547,-1.2742223739624023,-0.0,-0.0,-1.0,0.0720166209992289,1.0,0.0
19.681983947753903,20.141014099121097,-1.3392925262451172,-0.0,-0.0,-1.0,0.0268247735848674,2.0,0.0
19.96097183227539,19.66130256652832,-1.3564672470092771,-0.0,-0.0,-1.0,0.039752189865382,2.0,0.0
20.021352767944336,19.54376220703125,-1.359297275543213,-0.0,-0.0,-1.0,0.0432116663303793,1.0,0.0
19.382753372192383,19.56042861938477,-1.165632247924805,-0.0,-0.0,-1.0,0.2763106470167179,1.0,0.0
19.531585693359375,19.95668601989746,-1.2672691345214844,-0.0,-0.0,-1.0,0.2259684261516325,1.0,0.0
19.56754493713379,19.549144744873047,-1.0715649127960205,-0.0,-0.0,-1.0,0.1100445018897503,2.0,0.0
17.751346588134766,20.47162628173828,-1.355656981468201,-0.0,-0.0,-1.0,0.0525191826225084,2.0,0.0
17.80508804321289,20.21856689453125,-1.3056257963180542,-0.0,-0.0,-1.0,0.1176439441655601,2.0,0.0
18.333297729492188,18.60704040527344,-1.2561585903167725,0.3054171149677789,-0.1595818029624635,-0.9387513164028096,0.0102919654371165,3.0,0.0
18.460142135620117,18.386972427368164,-1.2367877960205078,-0.0,-0.0,-1.0,0.0055807862730744,2.0,0.0
18.228063583374023,19.77939224243164,-1.332221746444702,-0.0,-0.0,-1.0,0.0648242386544999,1.0,0.0
18.461353302001953,19.59856414794922,-1.3150386810302734,-0.0,-0.0,-1.0,0.0612742697214586,2.0,0.0
18.72699737548828,19.741947174072266,-1.300120234489441,-0.0,-0.0,-1.0,0.0243237540421694,1.0,0.0
18.88616943359375,19.592334747314453,-1.2809730768203735,-0.0,-0.0,-1.0,0.1756069529051835,1.0,0.0
19.94154167175293,19.51838493347168,-1.3836761713027954,-0.0,-0.0,-1.0,0.0486645185771038,1.0,0.0
20.149385452270508,19.46090507507324,-1.4023844003677368,-0.0,-0.0,-1.0,0.0131011378660104,1.0,0.0
17.890153884887695,20.31705665588379,-1.30185067653656,-0.0,-0.0,-1.0,0.0800982045984022,2.0,0.0
18.05591583251953,20.25766372680664,-1.2957490682601929,-0.0,-0.0,-1.0,0.066372617546532,1.0,0.0
18.378721237182617,19.342700958251953,-1.308374524116516,-0.0,-0.0,-1.0,0.045418756048716,2.0,0.0
18.650596618652344,19.2454776763916,-1.2957783937454224,-0.0,-0.0,-1.0,0.0745533231609814,2.0,0.0
19.337060928344727,18.374431610107425,-1.2450408935546875,-0.0,-0.0,-1.0,0.0281055916055596,2.0,0.0
18.980379104614254,19.566974639892575,-1.234227180480957,-0.0,-0.0,-1.0,0.1930946061221859,2.0,0.0
19.102481842041016,19.703319549560547,-1.2764294147491455,-0.0,-0.0,-1.0,0.1389813510385195,1.0,0.0
19.888866424560547,19.795032501220703,-1.4188899993896484,-0.0,-0.0,-1.0,0.0235432989203655,1.0,0.0
20.105974197387695,18.385251998901367,-1.0579252243041992,-0.0331406446190883,-0.1727507305441311,-0.9844078843501308,0.1169519185022824,3.0,0.0
19.553979873657227,19.41468811035156,-1.3072936534881592,0.4550987660293773,-0.7332770323959725,0.5051632477913397,0.1898545818324878,3.0,0.0
19.642578125,19.55717086791992,-1.3474886417388916,-0.0,-0.0,-1.0,0.1441813868225474,1.0,0.0
19.479021072387695,19.493209838867188,-0.95105242729187,-0.0,-0.0,-1.0,0.2439083113480567,2.0,0.0
19.52276611328125,19.572017669677734,-0.970245361328125,0.5095219816103695,0.576593106887506,-0.6386922101808157,0.197916510278758,3.0,0.0
19.019697189331055,19.70391082763672,-1.2969233989715576,-0.0,-0.0,-1.0,0.1404671969637906,1.0,0.0
18.810752868652344,19.522193908691406,-1.286323308944702,-0.0,-0.0,-1.0,0.1315935711048493,1.0,0.0
19.5403995513916,19.4921932220459,-0.9881148338317872,-0.3520208915543331,0.7251703754848811,-0.5917847737382314,0.2118207837227986,8.0,0.0
19.745920181274418,19.460878372192383,-1.3437323570251465,0.8435349031409161,-0.5348340716999733,0.0490039073123043,0.2004637848979704,3.0,0.0
19.562917709350582,19.168479919433594,-1.3109970092773438,-0.0,-0.0,-1.0,0.0641602969049334,1.0,0.0
19.340736389160156,19.137264251708984,-1.3172059059143066,-0.0,-0.0,-1.0,0.1424301059847423,1.0,0.0
18.235820770263672,19.927719116210938,-1.3831732273101809,-0.0,-0.0,-1.0,0.0427034429872921,1.0,0.0
18.112136840820312,19.126001358032227,-1.2731363773345947,-0.0,-0.0,-1.0,0.0388979820557233,2.0,0.0
18.004642486572266,19.149333953857425,-1.281404733657837,0.0249525725511923,-0.8633695236910641,-0.5039547942866924,0.0478472904599952,3.0,0.0
20.20389175415039,19.76582717895508,-1.4459068775177002,0.6661528224996354,0.535033718800228,-0.5195953587384781,0.0313513849245179,3.0,0.0
19.777023315429688,19.327720642089844,-1.363602876663208,-0.0410658198631315,-0.5856656558929048,-0.8095117898749236,0.0776441234685052,3.0,0.0
19.76984405517578,18.600276947021484,-1.228485345840454,-0.0,-0.0,-1.0,0.0741215883607602,1.0,0.0
19.670080184936523,19.2540283203125,-1.3498103618621826,-0.0,-0.0,-1.0,0.0837961497580795,2.0,0.0
19.441877365112305,18.871715545654297,-1.2786448001861572,-0.0,-0.0,-1.0,0.0696120870049609,2.0,0.0
19.23180389404297,19.073081970214844,-1.3165485858917236,-0.0,-0.0,-1.0,0.1197015938279797,1.0,0.0
19.01305770874023,19.0699462890625,-1.3166491985321045,-0.0,-0.0,-1.0,0.0532714860763113,2.0,0.0
18.478864669799805,18.95183563232422,-1.2977492809295654,-0.0,-0.0,-1.0,0.0265419572812242,1.0,0.0
18.102752685546875,18.77410125732422,-1.2678511142730713,-0.0,-0.0,-1.0,0.0147703220992551,1.0,0.0
17.768234252929688,18.679866790771484,-1.254120111465454,-0.0,-0.0,-1.0,0.0072893524103893,1.0,0.0
19.52066421508789,19.505577087402344,-1.2159357070922852,-0.3708632833685436,-0.9072387925127796,-0.1984394073994813,0.1832167877865661,5.0,0.0
19.3654727935791,19.74032211303711,-1.2592082023620603,-0.0,-0.0,-1.0,0.0886949148859043,1.0,0.0
19.143157958984375,19.54572868347168,-1.222496509552002,-0.0,-0.0,-1.0,0.181455610187671,1.0,0.0
19.002927780151367,19.797393798828125,-1.2696561813354492,-0.0,-0.0,-1.0,0.1384662921490257,1.0,0.0
18.801298141479492,19.918790817260746,-1.292649269104004,-0.0,-0.0,-1.0,0.0358459509637862,1.0,0.0
18.651151657104492,20.02170753479004,-1.312469482421875,-0.0,-0.0,-1.0,0.0244922154803336,1.0,0.0
18.389842987060547,20.21626663208008,-1.3503780364990234,-0.0,-0.0,-1.0,0.1255313350956454,2.0,0.0
18.24125099182129,20.107831954956055,-1.3308539390563965,-0.0,-0.0,-1.0,0.1002457748653665,2.0,0.0
18.036340713500977,20.08877182006836,-1.3288722038269043,-0.0,-0.0,-1.0,0.0549616906895851,1.0,0.0
19.488018035888672,19.50778579711914,-1.125873327255249,-0.107487699958279,-0.7420327776393014,-0.6616900719117539,0.1244600549229892,8.0,0.0
18.618915557861328,20.357322692871097,-1.2841274738311768,-0.0,-0.0,-1.0,0.0288153163372395,1.0,0.0
19.41136932373047,20.460908889770508,-1.3161816596984863,-0.9023072093633078,0.4081511273523346,-0.1387600705246952,0.1133624472933268,5.0,0.0
18.686189651489254,20.566328048706055,-1.3310480117797852,-0.0,-0.0,-1.0,0.0343678254521916,2.0,0.0
19.536056518554688,19.557580947875977,-1.1537137031555176,-0.0719330422113303,-0.6615973350012075,-0.7464011011229299,0.2246256199067861,6.0,0.0
19.83157730102539,18.19444274902344,-1.251256227493286,-0.0,-0.0,-1.0,0.0615469084086474,2.0,0.0
19.905611038208008,18.46784210205078,-1.3055150508880615,-0.0,-0.0,-1.0,0.0329724053780616,1.0,0.0
19.737348556518555,18.149667739868164,-1.238903284072876,-0.0,-0.0,-1.0,0.0642254962928074,1.0,0.0
19.48213577270508,18.464263916015625,-1.287975549697876,-0.0,-0.0,-1.0,0.0249984990490069,1.0,0.0
18.388051986694336,18.66860580444336,-1.291881084442139,-0.0,-0.0,-1.0,0.0108822092749504,1.0,0.0
18.155332565307617,18.620073318481445,-1.2767391204833984,-0.0,-0.0,-1.0,0.0082188481939705,1.0,0.0
19.643836975097656,19.434152603149418,-1.0091524124145508,-0.0,-0.0,-1.0,0.1776753376598879,1.0,0.0
19.73603057861328,19.33478546142578,-1.3666346073150637,-0.0,-0.0,-1.0,0.0875655487750068,2.0,0.0
19.56578254699707,19.294057846069336,-1.3501031398773191,-0.0,-0.0,-1.0,0.0786123257222078,2.0,0.0
19.389421463012695,19.398691177368164,-1.3614892959594729,-0.0,-0.0,-1.0,0.0562302753794788,1.0,0.0
19.0539493560791,19.309701919555664,-1.3285324573516846,-0.0,-0.0,-1.0,0.123963301188945,2.0,0.0
18.72563743591309,19.32637405395508,-1.3173420429229736,-0.0,-0.0,-1.0,0.0334567719589649,2.0,0.0
18.444822311401367,19.52638053894043,-1.3453373908996582,-0.0,-0.0,-1.0,0.0229978001907268,1.0,0.0
18.124053955078125,19.59413719177246,-1.3469126224517822,-0.0,-0.0,-1.0,0.0184595958480135,1.0,0.0
17.913537979125977,19.646913528442383,-1.3502655029296875,-0.0,-0.0,-1.0,0.0237891593131098,1.0,0.0
19.674663543701172,19.763471603393555,-1.0902276039123535,-0.0,-0.0,-1.0,0.1114630595153955,1.0,0.0
19.56960105895996,19.511072158813477,-1.149651288986206,0.0538873867895999,-0.7323894658351157,-0.6787501895975735,0.2188064651714741,9.0,0.0
18.362144470214844,20.16258430480957,-1.1880536079406738,-0.0,-0.0,-1.0,0.1207888298120029,2.0,0.0
19.55998992919922,19.457212448120117,-1.0886662006378174,0.7727983897383076,-0.0170181521657164,0.6344233849053353,0.2050666151475901,4.0,0.0
19.442047119140625,19.508893966674805,-1.0922951698303225,-0.4580875875520716,-0.818745013231562,0.3461392284026367,0.2072149886569191,6.0,0.0
18.34929084777832,20.1660213470459,-1.170729637145996,-0.6548816680567716,-0.6680336982811654,-0.3533567302372624,0.1221133104626491,3.0,0.0
20.203041076660156,18.362905502319336,-1.0886609554290771,-0.0,-0.0,-1.0,0.09361030349221,2.0,0.0
20.114267349243164,19.91011428833008,-1.399965524673462,-0.0,-0.0,-1.0,0.0611955078132317,1.0,0.0
20.118595123291016,19.972747802734375,-1.4134318828582764,-0.0,-0.0,-1.0,0.0574803750896163,1.0,0.0
19.538623809814453,19.447998046875,-1.2599992752075195,0.1465306800313004,-0.2645987883715042,-0.9531611831174708,0.2666276878810804,5.0,0.0
19.606876373291016,20.00225067138672,-1.381901741027832,-0.0,-0.0,-1.0,0.027623416585384,1.0,0.0
19.288021087646484,19.509618759155273,-1.2548367977142334,-0.0,-0.0,-1.0,0.1998118496759949,2.0,0.0
19.051437377929688,19.76681900024414,-1.2928807735443115,0.8907479845432758,0.0149096019384458,-0.4542529381326331,0.1597192588439372,3.0,0.0
19.00108528137207,19.51374053955078,-1.235393762588501,0.3471943425983806,-0.5666842287530801,-0.7472115318637723,0.2592360983584305,4.0,0.0
18.830307006835938,19.87380027770996,-1.3009724617004397,-0.0,-0.0,-1.0,0.0341521584292834,1.0,0.0
18.622264862060547,20.185503005981445,-1.3548662662506104,-0.0,-0.0,-1.0,0.022729858642774,1.0,0.0
18.325485229492188,20.29120826721191,-1.35976243019104,0.7400778016354882,0.1838101319918051,-0.6469147416032026,0.0844595306761017,4.0,0.0
17.93252944946289,20.33972930908203,-1.347482442855835,-0.0,-0.0,-1.0,0.0438118462636133,2.0,0.0
17.794910430908203,20.6268253326416,-1.4034464359283447,-0.0,-0.0,-1.0,0.0516762019726754,1.0,0.0
19.85630226135254,20.553756713867188,-1.4539034366607666,-0.0,-0.0,-1.0,0.0157025259789047,1.0,0.0
20.06607437133789,20.62733459472656,-1.485410451889038,0.3347101322931307,-0.3341489258295019,-0.8810866147589039,0.012703892721731,3.0,0.0
19.424484252929688,20.40882110595703,-1.3912129402160645,-0.7903980209601505,-0.6040984271873763,-0.1016664090642316,0.117635697247902,3.0,0.0
19.335121154785156,20.553874969482425,-1.417344093322754,-0.6239400661408165,-0.0940119857430335,-0.7757967133217603,0.057854671021894,3.0,0.0
19.122880935668945,20.56085968017578,-1.4047672748565674,-0.0,-0.0,-1.0,0.0351362180231067,2.0,0.0
19.643295288085938,19.515579223632812,-1.2112705707550049,-0.0,-0.0,-1.0,0.1502982083500351,2.0,0.0
19.421463012695312,19.57818603515625,-1.2079663276672363,0.6295440474167981,0.2381906180063229,-0.7395535963375758,0.2134788242482274,3.0,0.0
19.03309631347656,19.531688690185547,-1.169334888458252,-0.0,-0.0,-1.0,0.2102960380689511,1.0,0.0
18.737966537475582,20.414087295532227,-1.346792459487915,-0.0,-0.0,-1.0,0.0275099951618018,1.0,0.0
18.731853485107425,20.478668212890625,-1.3610737323760986,-0.0,-0.0,-1.0,0.0247548384226329,2.0,0.0
20.05724334716797,20.631383895874023,-1.4903008937835691,0.3347101322931307,-0.3341489258295019,-0.8810866147589039,0.0127038927217309,3.0,0.0
20.19537353515625,18.2613582611084,-1.0187814235687256,0.3256237599902063,-0.8735919061978092,0.3616716029155717,0.0490482063956499,3.0,0.0
19.804367065429688,19.443878173828125,-1.2133512496948242,-0.0,-0.0,-1.0,0.1691043319594024,1.0,0.0
19.88040351867676,20.60108184814453,-1.4655473232269287,-0.0,-0.0,-1.0,0.0150257197315234,1.0,0.0
19.495765686035156,19.512514114379883,-1.1942925453186035,-0.2208008616863016,-0.9127632723081324,-0.3436716284535815,0.181871840808027,6.0,0.0
19.471620559692383,19.750490188598633,-1.2419683933258057,-0.0,-0.0,-1.0,0.1388525608002917,1.0,0.0
19.4466609954834,20.376792907714844,-1.3733139038085938,-0.0,-0.0,-1.0,0.0789149112199652,2.0,0.0
19.316444396972656,20.591379165649418,-1.4068679809570312,-0.6239400661408165,-0.0940119857430335,-0.7757967133217603,0.0508600181967966,3.0,0.0
19.089031219482425,19.719362258911133,-1.195756435394287,-0.0,-0.0,-1.0,0.1675409349136762,2.0,0.0
18.37602996826172,20.253189086914062,-1.2433874607086182,-0.0,-0.0,-1.0,0.1212568566105738,1.0,0.0
19.59563446044922,19.487539291381836,-1.0419206619262695,-0.0,-0.0,-1.0,0.2060145334084218,2.0,0.0
20.181537628173828,19.788848876953125,-1.4508605003356934,0.6661528224996354,0.535033718800228,-0.5195953587384781,0.0421111834822526,3.0,0.0
19.835205078125,19.864978790283203,-1.4149136543273926,-0.0,-0.0,-1.0,0.0166424770202921,1.0,0.0
19.590473175048828,19.923599243164062,-1.3911457061767578,-0.0,-0.0,-1.0,0.0474924919749237,1.0,0.0
18.97260856628418,20.22766494750977,-1.3706448078155518,-0.0,-0.0,-1.0,0.0149152755892428,1.0,0.0
18.7354736328125,20.275142669677734,-1.3489093780517578,-0.0,-0.0,-1.0,0.0223449118734698,2.0,0.0
18.501869201660156,20.52499008178711,-1.375502109527588,-0.0,-0.0,-1.0,0.0248908137362683,1.0,0.0
18.29381942749023,20.60019302368164,-1.366036891937256,0.788699413479029,-0.6017348617008894,-0.1259698034913424,0.0283673154510771,3.0,0.0
20.14149475097656,18.246139526367188,-1.128844976425171,-0.0,-0.0,-1.0,0.1432943896999481,1.0,0.0
19.423864364624023,19.492267608642575,-1.272932052612305,-0.0,-0.0,-1.0,0.1509195643699701,1.0,0.0
19.035324096679688,19.50003242492676,-1.217353343963623,0.2551814904592153,-0.4726817707699877,-0.8434775340865708,0.2527719784017599,3.0,0.0
19.06146240234375,19.739904403686523,-1.2741060256958008,0.8907479845432758,0.0149096019384458,-0.4542529381326331,0.166858646015166,3.0,0.0
18.647306442260746,20.292652130126953,-1.3410139083862305,-0.0,-0.0,-1.0,0.0307439256260311,2.0,0.0
18.60364151000977,20.321632385253903,-1.3418183326721191,-0.0,-0.0,-1.0,0.0290348799530196,2.0,0.0
20.18526077270508,20.069122314453125,-1.4566073417663574,0.447169373230788,0.7621914992813323,0.4680851098546704,0.0479409668651116,4.0,0.0
19.885047912597656,20.15443420410156,-1.426464319229126,-0.0,-0.0,-1.0,0.0197157529316324,2.0,0.0
19.580982208251953,20.263261795043945,-1.4024295806884766,-0.0,-0.0,-1.0,0.0330463459618448,1.0,0.0
20.20140838623047,18.2330379486084,-1.0864276885986328,-0.0,-0.0,-1.0,0.0604651352514149,1.0,0.0
20.15674591064453,18.31912612915039,-1.095090389251709,0.3731273969100673,-0.9027986147211198,0.2138471578785759,0.1098252312588016,5.0,0.0
19.713417053222656,19.489927291870117,-1.2567098140716553,-0.0,-0.0,-1.0,0.1698014022328197,1.0,0.0
19.59709930419922,20.21048927307129,-1.393338918685913,-0.0,-0.0,-1.0,0.0266856468985324,1.0,0.0
19.48360824584961,19.516895294189453,-1.2251358032226562,-0.1450611896678655,-0.9845841906620884,-0.0977303573636333,0.1923014773437864,5.0,0.0
19.34813690185547,20.402524948120117,-1.397688388824463,-0.0,-0.0,-1.0,0.1074734670314804,1.0,0.0
19.13422584533691,20.628488540649418,-1.416388988494873,-0.0,-0.0,-1.0,0.0243780811502627,1.0,0.0
19.00860023498535,19.49134826660156,-1.1438393592834473,0.9213988699898374,-0.3445219749703308,0.1798019219696869,0.2150272800033752,3.0,0.0
20.1383113861084,18.246360778808594,-0.8602867126464844,0.3452353803261741,-0.9380891299311612,-0.0283075339095216,0.1054186704069562,5.0,0.0
19.624103546142575,19.9256591796875,-1.0898401737213137,-0.0137895455303968,0.0598641863584595,-0.998111280181576,0.1573992175442101,3.0,0.0
19.503999710083008,19.532804489135746,-1.018878936767578,-0.5797784411439469,-0.0134335145360532,-0.8146634273562945,0.1521586511919478,3.0,0.0
20.15563583374023,18.347375869750977,-1.0493173599243164,-0.7467678038911589,-0.6607488156374579,-0.0758211692423183,0.0770094960295989,6.0,0.0
19.978181838989254,20.027603149414062,-1.3642425537109375,-0.0,-0.0,-1.0,0.0388815079200878,1.0,0.0
20.148296356201172,18.448793411254883,-1.230271816253662,-0.0,-0.0,-1.0,0.1857115417041663,2.0,0.0
19.43270492553711,19.611480712890625,-1.1876733303070068,0.6295440474167981,0.2381906180063229,-0.7395535963375758,0.1568207906739055,3.0,0.0
19.394216537475582,19.785709381103516,-1.199967384338379,-0.0,-0.0,-1.0,0.1088220330967344,1.0,0.0
20.13083267211914,18.282302856445312,-1.210169553756714,-0.4227096482379504,-0.6659930503741917,-0.6146298155311273,0.14103981706647,3.0,0.0
20.207530975341797,18.352012634277344,-1.2105648517608645,-0.0,-0.0,-1.0,0.1426295502578459,2.0,0.0
19.650236129760746,19.47132110595703,-1.101614236831665,0.0934076916026575,-0.8118960396398446,-0.5762810286367226,0.1309786584957081,3.0,0.0
20.171838760375977,18.33384895324707,-1.0476136207580566,-0.3152413959853084,-0.9407418558557508,-0.1250104911529899,0.0770094960295989,5.0,0.0
20.08504867553711,18.852752685546875,-1.3489890098571775,-0.0,-0.0,-1.0,0.0438322212889896,1.0,0.0
20.181819915771484,19.087066650390625,-1.3735427856445312,-0.0,-0.0,-1.0,0.0054288722827099,1.0,0.0
20.09087371826172,19.052104949951172,-1.351430892944336,-0.0,-0.0,-1.0,0.0366579766397618,1.0,0.0
20.093528747558594,19.85358238220215,-1.362656593322754,-0.0,-0.0,-1.0,0.0468519302790541,1.0,0.0
19.787105560302734,18.42095184326172,-1.2780766487121582,-0.0,-0.0,-1.0,0.0613919884363022,1.0,0.0
19.924480438232425,18.65378761291504,-1.3103969097137451,-0.0,-0.0,-1.0,0.0327750670379576,1.0,0.0
20.053924560546875,18.91620635986328,-1.341807842254639,-0.0,-0.0,-1.0,0.0404269028319796,1.0,0.0
19.61576271057129,18.22929954528809,-1.2386255264282229,-0.0,-0.0,-1.0,0.0456692355313604,1.0,0.0
19.446468353271484,19.51493263244629,-1.2013330459594729,-0.0302211764734332,-0.9911990413763716,-0.1288842149649184,0.1697499793322248,3.0,0.0
19.406177520751953,19.68259620666504,-1.193953514099121,-0.0,-0.0,-1.0,0.1582600738755355,2.0,0.0
19.088472366333008,18.696073532104492,-1.2817366123199463,-0.0,-0.0,-1.0,0.0163386232092501,1.0,0.0
19.13578987121582,18.964262008666992,-1.2894008159637451,-0.0,-0.0,-1.0,0.051116081964921,1.0,0.0
19.12620735168457,19.188810348510746,-1.284435510635376,-0.0,-0.0,-1.0,0.0544615792416057,1.0,0.0
19.216163635253903,19.94655418395996,-1.3045251369476318,-0.0,-0.0,-1.0,0.0469117144039314,1.0,0.0
19.42997169494629,20.18532371520996,-1.3595373630523682,-0.0,-0.0,-1.0,0.0468381711961315,1.0,0.0
19.454389572143555,20.5700740814209,-1.3699486255645752,-0.0,-0.0,-1.0,0.0772457496545935,2.0,0.0
18.71001625061035,18.29422187805176,-1.1979386806488037,-0.0,-0.0,-1.0,0.0048146351071128,1.0,0.0
18.95324325561523,18.532203674316406,-1.2517225742340088,-0.0,-0.0,-1.0,0.0093547972559447,1.0,0.0
18.967002868652344,19.43764877319336,-1.2431511878967283,-0.0,-0.0,-1.0,0.1954176777036828,2.0,0.0
19.06502342224121,19.756378173828125,-1.266582489013672,0.8907479845432758,0.0149096019384458,-0.4542529381326331,0.1597192588439372,3.0,0.0
20.153623580932617,18.37162399291992,-0.9250247478485109,-0.0,-0.0,-1.0,0.053856200246247,2.0,0.0
19.613075256347656,19.55457305908203,-0.8081498146057129,0.6206026295437452,0.2091461776390333,-0.7557183685622383,0.0974307171427269,4.0,0.0
18.29790496826172,18.592947006225582,-1.265277624130249,0.3054171149677789,-0.1595818029624635,-0.9387513164028096,0.0088149705914,3.0,0.0
18.32704734802246,18.720523834228516,-1.268869161605835,-0.0,-0.0,-1.0,0.0139185158573407,1.0,0.0
17.999744415283203,18.204036712646484,-1.2035772800445557,-0.0,-0.0,-1.0,0.0065435277190848,1.0,0.0
18.20079803466797,18.431272506713867,-1.2458827495574951,-0.0,-0.0,-1.0,0.0064299719839904,2.0,0.0
18.35212516784668,18.946958541870117,-1.2693262100219729,-0.0,-0.0,-1.0,0.0249705678744904,1.0,0.0
18.43616485595703,19.295137405395508,-1.2832772731781006,-0.0,-0.0,-1.0,0.017611396782885,2.0,0.0
18.490055084228516,19.689910888671875,-1.2911241054534912,-0.0,-0.0,-1.0,0.0588669319656733,1.0,0.0
18.58158493041992,20.097476959228516,-1.311495304107666,-0.0,-0.0,-1.0,0.0368878058020856,1.0,0.0
18.672964096069336,20.449106216430664,-1.334777593612671,-0.3114352213300687,-0.2216098117802933,-0.9240655789703426,0.0300915717324716,3.0,0.0
20.176748275756836,18.30560874938965,-1.1201188564300537,-0.9491542959337368,-0.2188524622273973,0.2262956523831998,0.1098252312588016,4.0,0.0
19.589637756347656,19.55331039428711,-0.979698896408081,-0.1168529562633295,0.5976372775413604,-0.7932055667388317,0.1687015171897405,5.0,0.0
18.180418014526367,18.3930606842041,-1.256373643875122,-0.0,-0.0,-1.0,0.0058871384900385,2.0,0.0
18.341529846191406,18.771080017089844,-1.2810719013214111,-0.0,-0.0,-1.0,0.017874734641233,1.0,0.0
18.438949584960938,19.16509056091309,-1.2916512489318848,-0.0,-0.0,-1.0,0.0160713696192709,1.0,0.0
18.464496612548828,19.37983512878418,-1.2913596630096436,-0.0,-0.0,-1.0,0.0187355252077628,1.0,0.0
18.533462524414062,19.605222702026367,-1.3031933307647705,-0.0,-0.0,-1.0,0.0625676989381864,2.0,0.0
18.61161231994629,19.948522567749023,-1.315744161605835,-0.0,-0.0,-1.0,0.0176864269707692,1.0,0.0
18.764572143554688,20.33166885375977,-1.35007643699646,-0.0,-0.0,-1.0,0.0296775633865556,2.0,0.0
20.155532836914062,18.334646224975582,-1.1373095512390137,-0.9491542959337368,-0.2188524622273973,0.2262956523831998,0.146203620584069,4.0,0.0
20.20403289794922,18.37896156311035,-1.147189378738403,-0.799235907297675,-0.5797174883768139,0.1585862483197733,0.1021079191078333,5.0,0.0
19.552268981933594,19.534940719604492,-0.9801812171936036,-0.2590434642963063,0.3126953059154563,-0.9138479792962324,0.1890105930172519,8.0,0.0
18.566577911376953,20.00440788269043,-1.3027560710906982,-0.0,-0.0,-1.0,0.0308352364176649,1.0,0.0
18.68638038635254,20.402572631835938,-1.3281395435333252,-0.0,-0.0,-1.0,0.0298529255017821,2.0,0.0
20.019485473632812,18.38966178894043,-1.2404754161834717,-0.8895663915249609,-0.1963250131488114,0.4124659068109502,0.1050917629281966,3.0,0.0
19.946678161621097,18.329734802246097,-1.2258617877960205,-0.0,-0.0,-1.0,0.0723381983089264,1.0,0.0
19.446605682373047,19.51012802124023,-1.0622060298919678,0.6737907260783039,-0.735413988865274,-0.0719188600586727,0.1797166092816185,3.0,0.0
19.555063247680664,19.740514755249023,-1.0816667079925537,-0.0,-0.0,-1.0,0.1222385573527928,1.0,0.0
19.785615921020508,18.37552261352539,-1.253882646560669,-0.0,-0.0,-1.0,0.054819786972319,2.0,0.0
20.013885498046875,18.597158432006836,-1.2974224090576172,-0.0,-0.0,-1.0,0.0312474628023385,2.0,0.0
20.131567001342773,18.753808975219727,-1.3183865547180176,-0.0,-0.0,-1.0,0.045810093225675,1.0,0.0
19.442075729370117,19.517650604248047,-1.1115272045135498,0.2609717663233428,-0.2534332127592884,-0.9314855575115372,0.2259470246800842,6.0,0.0
19.55335235595703,19.506053924560547,-0.8783571720123291,0.8366217514371506,0.1613713697109662,-0.5234723737312614,0.1679223055850666,3.0,0.0
20.178680419921875,18.213764190673828,-0.902884006500244,-0.0,-0.0,-1.0,0.0424915244720899,1.0,0.0
18.153759002685547,20.506603240966797,-1.3796024322509766,-0.0,-0.0,-1.0,0.024218532495358,1.0,0.0
18.435047149658203,20.07430648803711,-1.3590154647827148,-0.0,-0.0,-1.0,0.0729217775426687,2.0,0.0
18.32522964477539,20.25596618652344,-1.3692045211791992,0.7961521234900285,0.1512012383852325,-0.5859009999761824,0.0856016954138564,3.0,0.0
18.667015075683594,19.53436279296875,-1.3100128173828125,-0.0,-0.0,-1.0,0.0633606241694185,2.0,0.0
18.528003692626953,19.74814796447754,-1.3190622329711914,-0.0,-0.0,-1.0,0.0608432595182353,1.0,0.0
19.103130340576172,19.148115158081055,-1.3350191116333008,-0.0,-0.0,-1.0,0.0475266965671322,1.0,0.0
18.780960083007812,19.29891586303711,-1.2920989990234375,-0.1631718592088144,-0.9694622560238264,-0.1830788860232979,0.0707182210525295,3.0,0.0
19.58682632446289,19.436994552612305,-0.9404478073120116,-0.0,-0.0,-1.0,0.1953805390517731,1.0,0.0
19.534318923950195,19.424421310424805,-1.070265293121338,0.7627643799476259,-0.6417678364515643,-0.0795270066039949,0.2011102266401426,3.0,0.0
20.18463706970215,18.26263999938965,-1.006019115447998,-0.000667016872213,-0.6210606516167818,-0.7837622229361599,0.0450893047794777,4.0,0.0
18.030431747436523,20.311553955078125,-1.3471531867980957,-0.0,-0.0,-1.0,0.0627301879758119,1.0,0.0
17.863431930541992,20.575340270996097,-1.343294620513916,-0.0,-0.0,-1.0,0.0555666912633154,2.0,0.0
18.208620071411133,19.40987014770508,-1.263892650604248,-0.0,-0.0,-1.0,0.0399006886284486,1.0,0.0
18.11835479736328,19.71935653686523,-1.2846026420593262,-0.0,-0.0,-1.0,0.0566811443117997,1.0,0.0
18.033275604248047,20.021697998046875,-1.306093692779541,-0.0,-0.0,-1.0,0.0454103085396912,1.0,0.0
18.267162322998047,18.92760848999023,-1.2116780281066897,-0.0,-0.0,-1.0,0.0201851290040178,1.0,0.0
18.254423141479492,19.208345413208008,-1.2473959922790527,0.3320998440172918,-0.2270735596313033,-0.9155038460432916,0.0523157581561682,3.0,0.0
19.936012268066406,18.888954162597656,-1.0856060981750488,-0.0,-0.0,-1.0,0.1141941702536939,1.0,0.0
19.81058692932129,19.176549911499023,-1.1048970222473145,-0.0,-0.0,-1.0,0.1869419393183312,1.0,0.0
19.258615493774418,20.339252471923828,-1.245492935180664,-0.0,-0.0,-1.0,0.075929013126664,1.0,0.0
19.485464096069336,18.237728118896484,-1.0810842514038086,-0.0,-0.0,-1.0,0.0418950026842943,1.0,0.0
19.44272232055664,18.676036834716797,-1.1146907806396484,-0.0,-0.0,-1.0,0.1046741365370757,1.0,0.0
19.411157608032227,19.14480781555176,-1.155914306640625,-0.0,-0.0,-1.0,0.1856452847934845,1.0,0.0
19.283945083618164,19.440011978149418,-1.151289939880371,-0.0,-0.0,-1.0,0.1825390783968106,1.0,0.0
19.127864837646484,20.00383186340332,-1.1692981719970703,-0.0,-0.0,-1.0,0.163579410897703,1.0,0.0
19.036985397338867,19.65051651000977,-1.1030769348144531,-0.0,-0.0,-1.0,0.1813170136918964,1.0,0.0
19.06359100341797,19.821075439453125,-1.1299924850463867,-0.0,-0.0,-1.0,0.149682643523579,1.0,0.0
20.13594436645508,18.42417907714844,-1.065765380859375,0.1743227615007686,-0.0463201969418128,-0.9835985025293692,0.1151316950456031,4.0,0.0
19.50875473022461,19.59986114501953,-0.92620849609375,-0.0,-0.0,-1.0,0.2326388283779715,1.0,0.0
20.07811737060547,18.54121780395508,-1.2330479621887207,-0.0,-0.0,-1.0,0.0541568695553834,1.0,0.0
19.45340347290039,19.425750732421875,-1.0516047477722168,-0.0,-0.0,-1.0,0.1943600533317291,1.0,0.0
