x,y,z,nx,ny,nz,curvature,density,label
48.728782653808594,25.499027252197266,-2.3284318447113037,-0.0,-0.0,-1.0,0.1333171032642513,2.0,0.0
49.12467956542969,25.199771881103516,-2.3503854274749756,0.3583738865581414,0.2612899992110573,-0.8962676462672844,0.1190220584104102,4.0,0.0
48.71581268310547,25.24783706665039,-2.406360149383545,-0.0,-0.0,-1.0,0.115425540762166,1.0,0.0
49.15583801269531,25.207942962646484,-2.3380677700042725,0.4918869039115939,-0.6998834560509315,-0.5178903568386553,0.1417461455385007,5.0,0.0
48.82740020751953,25.45964241027832,-2.29158091545105,-0.0,-0.0,-1.0,0.1220086836432874,1.0,0.0
49.22409439086914,25.209030151367188,-2.3381168842315674,-0.0,-0.0,-1.0,0.1120524276405013,1.0,0.0
49.227928161621094,24.83238220214844,-2.624997854232788,-0.0,-0.0,-1.0,0.0851309646486731,2.0,0.0
49.13053131103515,25.10997200012207,-2.424156188964844,-0.0,-0.0,-1.0,0.0828462790672032,2.0,0.0
49.17777633666992,25.06042861938477,-2.431912422180176,0.3802864554572863,-0.8228886703876007,0.4221805868860626,0.1192179516869263,3.0,0.0
48.75093460083008,25.50006866455078,-2.444058418273926,0.9737790176192782,0.2269600466220573,-0.015606475635036,0.1145677227506475,6.0,0.0
49.91801452636719,23.642623901367188,-2.714235305786133,-0.0,-0.0,-1.0,0.0095954785805218,1.0,0.0
50.15420150756836,23.959243774414062,-2.715906858444214,-0.0,-0.0,-1.0,0.0031862830776889,2.0,0.0
49.60548782348633,24.293960571289062,-2.6200435161590576,-0.0,-0.0,-1.0,0.0187543008403147,2.0,0.0
48.59330368041992,25.44158935546875,-2.355539321899414,-0.0,-0.0,-1.0,0.1691036331892752,1.0,0.0
48.81028747558594,25.17894744873047,-2.3975300788879395,-0.0088887689770354,-0.5273776569140591,-0.8495844847770647,0.1062566106744597,3.0,0.0
49.10232162475586,24.981660842895508,-2.4492268562316895,-0.0,-0.0,-1.0,0.1941525608321534,1.0,0.0
49.02649688720703,25.14269638061523,-2.4430856704711914,0.4722304291173687,-0.5835120188113391,-0.660690658113418,0.0820298140734969,3.0,0.0
48.783935546875,25.546762466430664,-2.441160202026367,-0.0,-0.0,-1.0,0.1698071131281188,2.0,0.0
48.87744140625,25.38117218017578,-2.441242218017578,0.8451337716091303,0.3469109872404989,-0.4066960474574953,0.1529380976661277,3.0,0.0
48.96449661254883,25.142736434936523,-2.411749839782715,0.9810002953635748,0.1931206541172457,0.0185157622015989,0.1267895320621028,3.0,0.0
48.74615859985352,25.305259704589844,-2.410200595855713,-0.0,-0.0,-1.0,0.1316448111130136,1.0,0.0
49.102500915527344,25.086957931518555,-2.5393881797790527,-0.1187496131419702,-0.8172192807810711,0.5639602614531463,0.1278840521068579,6.0,0.0
48.79253387451172,25.217039108276367,-2.5262060165405273,-0.0,-0.0,-1.0,0.2718182180390102,1.0,0.0
48.76032257080078,25.505170822143555,-2.55904483795166,-0.0,-0.0,-1.0,0.1009780567665455,1.0,0.0
48.99044418334961,25.300058364868164,-2.2714037895202637,0.565043939112929,-0.5620052491382781,-0.604049208933152,0.1500227742663964,3.0,0.0
50.0790901184082,25.085561752319336,-2.7827486991882324,-0.0,-0.0,-1.0,0.1006080050928014,1.0,0.0
49.0914421081543,24.8322811126709,-2.635767936706543,-0.0,-0.0,-1.0,0.1401509321644652,1.0,0.0
48.91621017456055,25.010478973388672,-2.631575107574463,-0.0,-0.0,-1.0,0.1074965972662323,1.0,0.0
47.731201171875,23.34648895263672,-2.345707416534424,-0.0,-0.0,-1.0,0.0920142368984709,1.0,0.0
48.947906494140625,24.777742385864254,-2.62221097946167,-0.0,-0.0,-1.0,0.1137631140574621,2.0,0.0
49.03396224975586,25.18215560913086,-2.3216888904571533,-0.0,-0.0,-1.0,0.1272916725890329,1.0,0.0
48.88154220581055,25.274250030517575,-2.4318108558654785,-0.0,-0.0,-1.0,0.1715197222243038,2.0,0.0
48.8662109375,25.416126251220703,-2.4347639083862305,0.8451337716091303,0.3469109872404989,-0.4066960474574953,0.1702635326947927,3.0,0.0
48.818363189697266,25.45978546142578,-2.4511091709136963,0.2597785054129261,-0.7663365402924921,0.5875741954323387,0.1911999894176911,3.0,0.0
49.00095748901367,25.122615814208984,-2.3508195877075195,-0.0,-0.0,-1.0,0.1977713881694547,1.0,0.0
48.80513381958008,25.262157440185547,-2.421668529510498,0.9996296270313384,0.0047459659798134,-0.0267970999943229,0.1703100606750577,6.0,0.0
48.8098030090332,25.47510528564453,-2.4273438453674316,0.2597785054129261,-0.7663365402924921,0.5875741954323387,0.1411345768049108,3.0,0.0
48.76991653442383,25.46892738342285,-2.2682816982269287,-0.0,-0.0,-1.0,0.1096502071623198,1.0,0.0
48.725006103515625,25.49524688720703,-2.5215799808502197,-0.0,-0.0,-1.0,0.0902438525613398,2.0,0.0
47.81508255004883,23.435245513916016,-2.12186050415039,-0.0,-0.0,-1.0,0.0917725054201631,1.0,0.0
49.02094650268555,25.52772521972656,-2.1971869468688965,-0.0,-0.0,-1.0,0.1117066242036138,2.0,0.0
48.61717224121094,25.267986297607425,-2.4819350242614746,-0.0,-0.0,-1.0,0.1163183707290377,1.0,0.0
49.77386093139648,24.2808837890625,-2.641507625579834,-0.0,-0.0,-1.0,0.0177361982087799,2.0,0.0
50.009552001953125,24.42961883544922,-2.6726131439208984,-0.0,-0.0,-1.0,0.012110715797383,1.0,0.0
47.95353698730469,23.307117462158203,-2.1537961959838867,-0.0,-0.0,-1.0,0.0951775809072304,1.0,0.0
48.74424743652344,25.479650497436523,-2.4066262245178223,-0.2329286465994804,-0.8356463887828156,-0.4974327678265404,0.1005571180981566,3.0,0.0
48.99944686889648,25.266681671142575,-2.4289331436157227,-0.0,-0.0,-1.0,0.1911073177497739,2.0,0.0
47.933563232421875,24.189449310302734,-2.5453057289123535,-0.0,-0.0,-1.0,0.0151484243909275,1.0,0.0
48.10040283203125,24.708641052246097,-2.6205554008483887,-0.0,-0.0,-1.0,0.0220151465479595,1.0,0.0
48.26439666748047,24.43302345275879,-2.6185994148254395,-0.0,-0.0,-1.0,0.0188964805818287,1.0,0.0
48.89241027832031,25.309276580810547,-2.489281177520752,-0.0,-0.0,-1.0,0.2361787441875414,1.0,0.0
49.10148239135742,25.113384246826172,-2.4984073638916016,-0.1404395478755307,-0.95613048078547,0.2570821602240462,0.1112574845512244,7.0,0.0
48.69969177246094,25.60782814025879,-2.49409818649292,0.0317566332794745,-0.2796378103998434,-0.959580226576983,0.093660147576746,4.0,0.0
48.79343032836914,25.392173767089844,-2.3572518825531006,0.6055741676300082,-0.7471474360185436,0.2739537120576009,0.1832520769274663,4.0,0.0
49.000633239746094,25.204177856445312,-2.3704206943511963,-0.1338047040704573,0.6307038618668691,-0.7644010333554206,0.1446595294768105,4.0,0.0
48.76458740234375,25.585208892822266,-2.371638059616089,0.0294762866349936,-0.9992215737752912,-0.0262182193949555,0.1614916145906435,3.0,0.0
48.98210144042969,25.242918014526367,-2.4237537384033203,-0.0,-0.0,-1.0,0.2127542791520478,2.0,0.0
49.212669372558594,25.07109260559082,-2.4425573348999023,-0.3260777374561954,0.13262078335588,-0.935994143655569,0.1476272242040683,3.0,0.0
48.8148193359375,25.48105812072754,-2.421797752380371,0.2597785054129261,-0.7663365402924921,0.5875741954323387,0.1754853345626331,3.0,0.0
49.15475845336914,25.49523544311523,-2.2185609340667725,-0.0,-0.0,-1.0,0.0609076407139873,1.0,0.0
49.20365905761719,25.368757247924805,-2.212627649307251,-0.0,-0.0,-1.0,0.1155441411012146,1.0,0.0
48.95464324951172,25.625587463378903,-2.166747808456421,-0.0,-0.0,-1.0,0.1720108678160413,2.0,0.0
49.080039978027344,25.34781265258789,-2.156390428543091,-0.0,-0.0,-1.0,0.0694473155902568,1.0,0.0
48.40303421020508,24.32628631591797,-2.6720526218414307,-0.0,-0.0,-1.0,0.0165954984206137,1.0,0.0
48.452903747558594,24.346525192260746,-2.6841557025909424,-0.0,-0.0,-1.0,0.0406989420892237,1.0,0.0
48.27790832519531,24.490148544311523,-2.6684534549713135,-0.0,-0.0,-1.0,0.0185529343687122,1.0,0.0
48.10232925415039,23.92715072631836,-2.564725160598755,-0.0,-0.0,-1.0,0.0402011157720813,1.0,0.0
48.2624397277832,24.108795166015625,-2.6179792881011963,-0.0,-0.0,-1.0,0.0351834195729649,1.0,0.0
48.01490020751953,24.686832427978516,-2.6429035663604736,-0.0,-0.0,-1.0,0.0291058245718939,2.0,0.0
48.834739685058594,25.39264488220215,-2.3880109786987305,0.1223302425549889,-0.7876384390562191,-0.6038716760020462,0.188132267233803,3.0,0.0
48.991912841796875,25.200714111328125,-2.388516902923584,-0.2486209940786149,0.576356078978713,-0.7784608349349663,0.1409755625174624,5.0,0.0
48.80908203125,25.63726043701172,-2.4177961349487305,-0.0,-0.0,-1.0,0.1633031367821718,1.0,0.0
49.9892463684082,23.255123138427734,-2.673549175262451,-0.0,-0.0,-1.0,0.0073887948777707,1.0,0.0
50.1380615234375,23.468420028686523,-2.7225775718688965,-0.0,-0.0,-1.0,0.0085371402868522,1.0,0.0
50.09721374511719,23.532794952392575,-2.7227296829223633,-0.0,-0.0,-1.0,0.0085371402868522,1.0,0.0
49.46400451660156,24.25166702270508,-2.697183609008789,-0.0,-0.0,-1.0,0.027377040372707,1.0,0.0
48.79973602294922,24.602224349975582,-2.627272605895996,-0.0,-0.0,-1.0,0.1613185551185884,1.0,0.0
49.40401077270508,24.4761962890625,-2.713608741760254,-0.0,-0.0,-1.0,0.0240839403061984,1.0,0.0
48.39729309082031,25.02674865722656,-2.6124892234802246,-0.0,-0.0,-1.0,0.045205903692198,1.0,0.0
48.740928649902344,24.825515747070312,-2.6446518898010254,-0.0,-0.0,-1.0,0.0494567825010433,1.0,0.0
48.87980651855469,25.219161987304688,-2.4636993408203125,-0.629111054131425,-0.042889609527976,-0.7761312794651332,0.1600494619361438,3.0,0.0
49.12238311767578,25.088733673095703,-2.4869561195373535,-0.2586139417440574,-0.9647784547696144,0.0481805183446155,0.1148755940351425,7.0,0.0
50.007293701171875,25.19228172302246,-2.6327950954437256,-0.5160015174421264,0.8227648191815043,-0.2383285260195455,0.1048419268064916,6.0,0.0
48.752777099609375,25.4727725982666,-2.4713118076324463,0.459984593338628,0.6335295166978483,-0.6221370631650938,0.1623992517002725,5.0,0.0
49.947723388671875,25.25813102722168,-2.630452871322632,-0.0,-0.0,-1.0,0.0876774876147704,2.0,0.0
48.753570556640625,25.208070755004883,-2.4888734817504883,-0.0,-0.0,-1.0,0.1564658772422476,2.0,0.0
49.057498931884766,25.12487411499023,-2.525646448135376,-0.0,-0.0,-1.0,0.1307243736027454,2.0,0.0
49.626800537109375,25.12483787536621,-2.6140031814575195,-0.0,-0.0,-1.0,0.1485641096110073,1.0,0.0
50.01145935058594,25.186023712158203,-2.681295156478882,-0.4149521868607058,0.909019902541072,-0.0386975374376441,0.1035095229263861,5.0,0.0
48.76220703125,25.44665145874023,-2.5198559761047363,0.0493092697148806,-0.9783052091046798,0.2012150932679595,0.1282435870905027,3.0,0.0
47.9974365234375,24.51729202270508,-2.6525888442993164,-0.0,-0.0,-1.0,0.0239794073581129,1.0,0.0
48.12664794921875,24.37262725830078,-2.6554455757141113,-0.0,-0.0,-1.0,0.0228019923015724,2.0,0.0
47.92197799682617,24.61684799194336,-2.6532487869262695,-0.0,-0.0,-1.0,0.0202898204214354,1.0,0.0
47.873016357421875,24.004703521728516,-2.558647871017456,-0.013062790688018,-0.1934303679291542,-0.9810270415550398,0.0437544516000187,4.0,0.0
48.997859954833984,25.285289764404297,-2.2507262229919434,0.7038750001256271,-0.686749881574477,-0.1814788812936379,0.1669392065139385,4.0,0.0
48.879112243652344,25.410564422607425,-2.249171018600464,0.3478442788681994,-0.039633070452213,-0.93671424531988,0.078947540375748,3.0,0.0
49.38554763793945,23.263601303100582,-2.66504168510437,-0.0,-0.0,-1.0,0.0089942161087662,1.0,0.0
49.45881652832031,23.19575309753418,-2.670811891555786,-0.0,-0.0,-1.0,0.0048386425443179,1.0,0.0
49.317405700683594,23.333276748657227,-2.6605687141418457,-0.0,-0.0,-1.0,0.0093367020667599,1.0,0.0
48.240692138671875,23.996780395507812,-2.540193557739258,-0.0,-0.0,-1.0,0.0383419887405129,1.0,0.0
48.4661750793457,24.248247146606445,-2.6173484325408936,-0.0,-0.0,-1.0,0.0561149007789358,1.0,0.0
48.18040084838867,24.74591827392578,-2.6326417922973633,-0.0,-0.0,-1.0,0.020590734420454,1.0,0.0
48.47543716430664,24.56218719482422,-2.6624433994293213,-0.0,-0.0,-1.0,0.0456478581066435,1.0,0.0
48.91968536376953,25.4012393951416,-2.205904483795166,-0.0,-0.0,-1.0,0.06646170426853,2.0,0.0
49.715824127197266,25.1691837310791,-2.6210405826568604,-0.0,-0.0,-1.0,0.0703642436771652,1.0,0.0
50.00442886352539,25.18950653076172,-2.674459934234619,-0.4149521868607058,0.909019902541072,-0.0386975374376441,0.1035095229263861,5.0,0.0
48.8391227722168,24.59600067138672,-2.3850202560424805,-0.0,-0.0,-1.0,0.1664848295782112,1.0,0.0
48.90936279296875,25.211524963378903,-2.4872348308563232,-0.0,-0.0,-1.0,0.1691289170415602,2.0,0.0
49.13740158081055,25.079811096191406,-2.5073132514953613,-0.6879373811500743,-0.688939842009506,0.2282631238467883,0.1165021366876829,6.0,0.0
49.48503112792969,25.107162475585938,-2.5717756748199463,-0.0,-0.0,-1.0,0.0864216685868855,2.0,0.0
48.76327896118164,25.451217651367188,-2.497917890548706,0.8949177982132195,0.337784847407643,0.2915879478013429,0.1308889000295255,5.0,0.0
48.864070892333984,24.6556339263916,-2.381821632385254,-0.0,-0.0,-1.0,0.1802330121586386,1.0,0.0
48.79842376708984,25.24230575561523,-2.4598965644836426,0.9841629746044124,-0.0727725798899787,0.1616396951059738,0.1850932854588947,4.0,0.0
49.07638931274414,25.09525680541992,-2.4874539375305176,0.0872758258693848,-0.9805023431405672,0.1760627311916812,0.0894497922056273,7.0,0.0
49.453617095947266,25.096187591552734,-2.556210994720459,-0.0,-0.0,-1.0,0.0810245124413033,2.0,0.0
49.95127487182617,25.20165252685547,-2.6632189750671387,-0.0,-0.0,-1.0,0.0869311390291107,1.0,0.0
48.7354621887207,25.486433029174805,-2.4868030548095703,0.8792212860833083,0.3673522571732761,-0.303351692343577,0.0857108224428585,7.0,0.0
48.96500778198242,23.23873710632324,-2.6414856910705566,-0.0,-0.0,-1.0,0.0159595371538273,1.0,0.0
48.9332275390625,23.277568817138672,-2.641965866088867,-0.0,-0.0,-1.0,0.0135658456516307,1.0,0.0
47.80891036987305,24.473663330078125,-2.6474597454071045,-0.0,-0.0,-1.0,0.0225565102323661,1.0,0.0
47.9892578125,24.364295959472656,-2.66101598739624,-0.0,-0.0,-1.0,0.0199846897096405,1.0,0.0
47.74753952026367,24.582263946533203,-2.658324956893921,-0.0,-0.0,-1.0,0.0267706945393499,1.0,0.0
47.82123947143555,24.546276092529297,-2.6654441356658936,-0.0,-0.0,-1.0,0.0255733801299877,1.0,0.0
47.88590621948242,23.96932029724121,-2.557352066040039,-0.0,-0.0,-1.0,0.0449320290002351,2.0,0.0
48.92088317871094,24.61023330688477,-2.352545976638794,-0.0,-0.0,-1.0,0.1375350981753491,1.0,0.0
48.86932373046875,25.20240592956543,-2.4542763233184814,-0.0,-0.0,-1.0,0.1790012098368654,2.0,0.0
49.12298583984375,25.074554443359375,-2.4742701053619385,-0.8107035787372876,-0.409132408849309,-0.4187724673993223,0.1144283197423741,3.0,0.0
49.99531555175781,25.17520523071289,-2.6465530395507812,-0.7785261988511081,0.6213799629256842,-0.0882264097474244,0.1035095229263861,4.0,0.0
48.73521423339844,25.45363998413086,-2.4792630672454834,0.8949177982132195,0.337784847407643,0.2915879478013429,0.1077662792400424,5.0,0.0
49.8713493347168,25.305849075317383,-2.648627281188965,-0.0,-0.0,-1.0,0.0974062246707066,1.0,0.0
49.903045654296875,24.34992218017578,-2.6881768703460693,-0.0,-0.0,-1.0,0.0108552326389481,2.0,0.0
49.03853988647461,24.8253173828125,-2.613360643386841,-0.0,-0.0,-1.0,0.1559367840297075,1.0,0.0
49.47339630126953,24.79678726196289,-2.692243814468384,-0.0,-0.0,-1.0,0.0362767314186187,1.0,0.0
49.779571533203125,24.64009666442871,-2.7210962772369385,-0.0,-0.0,-1.0,0.0112117715711995,1.0,0.0
48.36299133300781,25.21512222290039,-2.568190336227417,-0.0,-0.0,-1.0,0.0619161454962217,2.0,0.0
48.672332763671875,25.090843200683594,-2.599323987960815,-0.0,-0.0,-1.0,0.0782585789007314,1.0,0.0
48.89541244506836,24.96178436279297,-2.6143195629119873,-0.0,-0.0,-1.0,0.0889621837776837,2.0,0.0
48.252960205078125,25.50728225708008,-2.6119117736816406,-0.0,-0.0,-1.0,0.103364743965885,2.0,0.0
48.543941497802734,25.34439468383789,-2.6298322677612305,-0.0,-0.0,-1.0,0.0693948126748933,1.0,0.0
49.0947265625,25.301998138427734,-2.184995412826538,-0.0,-0.0,-1.0,0.1148773613030883,1.0,0.0
48.85520935058594,25.632572174072266,-2.209883213043213,-0.0,-0.0,-1.0,0.1216086413110202,1.0,0.0
48.95176696777344,25.44810485839844,-2.189812421798706,-0.0,-0.0,-1.0,0.0683876101227287,2.0,0.0
50.10877227783203,24.121137619018555,-2.7215092182159424,-0.0,-0.0,-1.0,0.0052460609674811,1.0,0.0
49.73753356933594,24.356122970581055,-2.687797784805298,-0.0,-0.0,-1.0,0.0177444189090761,1.0,0.0
49.91788101196289,24.133548736572266,-2.681938886642456,-0.0,-0.0,-1.0,0.0080007904902366,1.0,0.0
48.90702819824219,24.77760124206543,-2.6000161170959473,-0.0,-0.0,-1.0,0.1499936247859827,2.0,0.0
49.29592514038086,24.67929458618164,-2.6604273319244385,-0.0,-0.0,-1.0,0.0574574274573404,1.0,0.0
49.5341796875,24.594226837158203,-2.6931488513946533,-0.0,-0.0,-1.0,0.0248226301355974,1.0,0.0
48.2283935546875,25.263851165771484,-2.569866418838501,-0.0,-0.0,-1.0,0.0540058166004276,1.0,0.0
48.46807098388672,25.118648529052734,-2.58520245552063,-0.0,-0.0,-1.0,0.1202401583398342,1.0,0.0
48.744911193847656,24.95429801940918,-2.604944229125977,-0.0,-0.0,-1.0,0.0739366704230876,1.0,0.0
48.14789581298828,25.519264221191406,-2.6124885082244873,-0.0,-0.0,-1.0,0.0912308780318858,1.0,0.0
48.2901496887207,25.48527717590332,-2.6324398517608643,-0.0,-0.0,-1.0,0.0847793249309968,2.0,0.0
48.9825325012207,25.273983001708984,-2.213831663131714,-0.2321317286679935,0.9336379227581842,-0.2728279489593966,0.1357292158968291,4.0,0.0
49.13456726074219,25.21565055847168,-2.229386568069458,0.4713997460386653,-0.6007885582003017,-0.6456279019452963,0.0900254364963134,3.0,0.0
48.872535705566406,25.495708465576172,-2.2381083965301514,0.7305647651518458,0.6429061846512382,-0.2301016333184464,0.0786422566693834,3.0,0.0
48.559226989746094,23.27359390258789,-2.5429718494415283,-0.0,-0.0,-1.0,0.0391527725215502,1.0,0.0
49.13521957397461,23.140714645385746,-2.6567189693450928,-0.0,-0.0,-1.0,0.0093367020667599,1.0,0.0
48.82245635986328,23.330829620361328,-2.622609853744507,-0.0,-0.0,-1.0,0.0220181503506836,1.0,0.0
47.87848281860352,24.018482208251953,-2.5670511722564697,-0.1015712353718357,-0.4883080532890017,-0.8667401740072653,0.0437544516000187,3.0,0.0
47.861358642578125,24.36225128173828,-2.6538121700286865,-0.0,-0.0,-1.0,0.0178877799503798,1.0,0.0
50.137210845947266,24.396488189697266,-2.7052180767059326,-0.0,-0.0,-1.0,0.0117421502761481,1.0,0.0
49.20895767211914,24.842809677124023,-2.604904890060425,-0.0,-0.0,-1.0,0.0946898755497127,2.0,0.0
49.565616607666016,24.804563522338867,-2.671552896499634,-0.0,-0.0,-1.0,0.0844539082316002,1.0,0.0
49.97711181640625,24.62533187866211,-2.7202932834625244,-0.0,-0.0,-1.0,0.0126335919325298,1.0,0.0
48.573204040527344,25.144386291503903,-2.5447299480438232,-0.0,-0.0,-1.0,0.1502883634016387,2.0,0.0
48.872432708740234,25.099292755126953,-2.5947887897491455,-0.0,-0.0,-1.0,0.0797437089254071,1.0,0.0
48.99650573730469,24.940454483032227,-2.5831284523010254,-0.0,-0.0,-1.0,0.1061563863285159,1.0,0.0
49.74148941040039,24.853790283203125,-2.720097303390503,-0.0,-0.0,-1.0,0.0805181400802341,1.0,0.0
48.49382400512695,25.48391342163086,-2.610456705093384,-0.0,-0.0,-1.0,0.0741267428178377,1.0,0.0
48.643184661865234,25.343891143798828,-2.60636830329895,-0.0,-0.0,-1.0,0.0854445270314082,1.0,0.0
48.96482849121094,25.29862594604492,-2.1770267486572266,-0.4183201539809182,0.7602839274941059,-0.4969674017151607,0.0924551133756718,4.0,0.0
49.11403274536133,25.25296401977539,-2.194049119949341,-0.0,-0.0,-1.0,0.1234633597456514,1.0,0.0
48.88284683227539,25.496158599853516,-2.204113245010376,0.6310211393266218,0.7491889690192496,-0.2013161951329448,0.0860557241749915,3.0,0.0
50.15330505371094,23.603851318359375,-2.7398924827575684,-0.0,-0.0,-1.0,0.0095810865792479,2.0,0.0
50.05467224121094,23.740249633789062,-2.747468948364258,-0.0,-0.0,-1.0,0.009581086579248,1.0,0.0
48.18201446533203,23.73845672607422,-2.29609751701355,-0.0,-0.0,-1.0,0.0947152229553136,1.0,0.0
49.870758056640625,23.718597412109375,-2.696277141571045,-0.0,-0.0,-1.0,0.0082933540806604,1.0,0.0
49.55862808227539,24.074310302734375,-2.7069616317749023,-0.0,-0.0,-1.0,0.0204440516882586,1.0,0.0
49.75348281860352,23.900907516479492,-2.711817741394043,-0.0,-0.0,-1.0,0.0077396272679085,1.0,0.0
48.78001022338867,24.512184143066406,-2.6364307403564453,-0.0,-0.0,-1.0,0.1747079079035068,1.0,0.0
49.07499313354492,24.466354370117188,-2.6922922134399414,-0.0,-0.0,-1.0,0.1159602127987091,1.0,0.0
49.35904693603515,24.254413604736328,-2.704655170440674,-0.0,-0.0,-1.0,0.027560892613602,1.0,0.0
47.95369720458984,24.965330123901367,-2.577874183654785,-0.0,-0.0,-1.0,0.0228563540335197,1.0,0.0
48.215354919433594,24.906230926513672,-2.6175103187561035,-0.0,-0.0,-1.0,0.0425577223839586,1.0,0.0
48.6165771484375,24.723106384277344,-2.655884265899658,-0.0,-0.0,-1.0,0.0658856190006847,2.0,0.0
47.81498718261719,25.194034576416016,-2.6131811141967773,-0.0,-0.0,-1.0,0.0877814366882017,1.0,0.0
48.81224822998047,25.2960205078125,-2.3922178745269775,0.8810663317915671,0.1838465768684775,-0.4358010499724555,0.165232280838849,4.0,0.0
49.0244026184082,25.181018829345703,-2.406224012374878,-0.3863425329193957,-0.8590372668088588,0.3358488074878205,0.1424083627011108,4.0,0.0
49.2489013671875,25.10871124267578,-2.433623790740967,0.6696084921540211,-0.6825098861352107,0.2929244314886011,0.1015614888888599,3.0,0.0
49.98386001586914,25.27114486694336,-2.62117338180542,-0.0,-0.0,-1.0,0.0876774876147703,2.0,0.0
50.16007232666016,25.28363037109375,-2.6605286598205566,-0.0,-0.0,-1.0,0.1048419268064916,1.0,0.0
48.80031204223633,25.526958465576172,-2.446099758148194,-0.0,-0.0,-1.0,0.1236094428498454,2.0,0.0
49.964088439941406,25.34785270690918,-2.634845495223999,-0.0,-0.0,-1.0,0.086584325615496,1.0,0.0
48.83348846435547,24.54313087463379,-2.216665267944336,-0.0,-0.0,-1.0,0.1901593318451983,1.0,0.0
49.74775695800781,24.57001495361328,-2.743757724761963,-0.0,-0.0,-1.0,0.0099258028560262,1.0,0.0
49.92655944824219,24.341331481933594,-2.7272391319274902,-0.0,-0.0,-1.0,0.010855232638948,2.0,0.0
48.498836517333984,25.01317024230957,-2.5813417434692383,-0.0,-0.0,-1.0,0.0743207514772078,2.0,0.0
48.81761169433594,24.962196350097656,-2.636597156524658,-0.0,-0.0,-1.0,0.0824818140449975,1.0,0.0
49.21647644042969,24.74963760375977,-2.6677188873291016,-0.0,-0.0,-1.0,0.1097598772754589,1.0,0.0
49.576515197753906,24.679290771484375,-2.73238468170166,-0.0,-0.0,-1.0,0.0258106334963972,1.0,0.0
48.15876007080078,25.323516845703125,-2.5984816551208496,-0.0,-0.0,-1.0,0.0809131325889529,1.0,0.0
48.364845275878906,25.215347290039062,-2.610462188720703,-0.8424811238838279,-0.5372529604456082,-0.0398097022328935,0.0666209058611549,3.0,0.0
48.72663879394531,25.04888153076172,-2.640787124633789,-0.0,-0.0,-1.0,0.0619366834074919,1.0,0.0
48.03802490234375,25.529983520507812,-2.6341562271118164,-0.0,-0.0,-1.0,0.0933278384607676,1.0,0.0
48.13802719116211,23.783052444458008,-2.157560348510742,-0.0,-0.0,-1.0,0.0712209493806875,1.0,0.0
48.92825698852539,25.3065185546875,-2.316000461578369,-0.0,-0.0,-1.0,0.0941214286851907,2.0,0.0
49.15196228027344,25.203048706054688,-2.3343687057495117,0.4918869039115939,-0.6998834560509315,-0.5178903568386553,0.1417461455385006,5.0,0.0
47.83039093017578,25.48006820678711,-2.155398368835449,-0.0,-0.0,-1.0,0.1108035502380312,1.0,0.0
48.80449676513672,25.558162689208984,-2.3553543090820312,-0.0069964050311225,-0.7968118980607233,-0.6041869325179983,0.2129087992222044,3.0,0.0
49.13578414916992,25.015457153320312,-2.5448989868164062,-0.0,-0.0,-1.0,0.1054915317719774,1.0,0.0
48.7224235534668,25.212984085083008,-2.515159845352173,-0.0,-0.0,-1.0,0.1139438922420572,2.0,0.0
48.97667694091797,25.17388343811035,-2.5568535327911377,-0.0,-0.0,-1.0,0.1666679116810923,1.0,0.0
49.46810531616211,25.101703643798828,-2.642256259918213,-0.0,-0.0,-1.0,0.0906205003788261,1.0,0.0
49.87568664550781,25.15563201904297,-2.7487523555755615,-0.0,-0.0,-1.0,0.0837928019223291,1.0,0.0
50.16046905517578,25.064212799072266,-2.7884280681610107,-0.0,-0.0,-1.0,0.0453452764541507,1.0,0.0
48.61957931518555,25.542144775390625,-2.591834306716919,-0.0,-0.0,-1.0,0.1022275721054671,1.0,0.0
49.05374526977539,25.34313201904297,-2.2004339694976807,-0.0,-0.0,-1.0,0.109325160085552,1.0,0.0
48.84024810791016,25.572763442993164,-2.220519542694092,-0.0,-0.0,-1.0,0.1071958090511994,1.0,0.0
48.907772064208984,25.474349975585938,-2.2071454524993896,-0.0,-0.0,-1.0,0.1048838976810819,2.0,0.0
48.80255889892578,25.49995994567871,-2.3615260124206543,-0.0,-0.0,-1.0,0.1404470431979367,1.0,0.0
49.240386962890625,25.265411376953125,-2.3715178966522217,-0.0,-0.0,-1.0,0.1562546186968392,2.0,0.0
49.389312744140625,25.382659912109375,-2.4356770515441895,-0.0,-0.0,-1.0,0.0721662147571226,1.0,0.0
48.76529693603515,25.58548164367676,-2.381235361099243,-0.1116501730744727,-0.9493059544233428,-0.2938578631733833,0.1406703957872801,4.0,0.0
48.851829528808594,25.3887882232666,-2.336264133453369,0.7006482048594548,0.6656286818894419,-0.2569641042506662,0.1630710079831819,3.0,0.0
49.04229736328125,25.281417846679688,-2.338830947875977,-0.0,-0.0,-1.0,0.1028802838039831,2.0,0.0
49.460594177246094,25.633132934570312,-2.224825382232666,-0.0,-0.0,-1.0,0.0839405522394643,1.0,0.0
48.73072814941406,25.500518798828125,-2.3318064212799072,-0.0,-0.0,-1.0,0.1348106438535994,2.0,0.0
48.96411895751953,25.262420654296875,-2.2610111236572266,0.2373667762670461,-0.8025461321680942,-0.5473360204359125,0.1353772888770558,5.0,0.0
49.31585693359375,25.397945404052734,-2.288517713546753,-0.0,-0.0,-1.0,0.0995657164779986,1.0,0.0
49.18828582763672,25.272464752197266,-2.257715940475464,0.3713918551213949,-0.7962389663057058,-0.4775684228316503,0.1235780061351702,3.0,0.0
49.05327224731445,25.237987518310547,-2.2519192695617676,-0.0,-0.0,-1.0,0.1393591009065757,2.0,0.0
49.14622116088867,25.249820709228516,-2.2526745796203613,0.7320691476190943,-0.5672622807343929,0.3772111715740508,0.1407200062368345,5.0,0.0
48.8463249206543,25.375749588012695,-2.259873390197754,0.036146539961496,0.5300445224636686,-0.8471990509054371,0.0802701602064211,4.0,0.0
49.26951217651367,25.243175506591797,-2.217108249664306,0.7611771100720636,0.5234042128789882,-0.3829587928783831,0.1305147672434071,4.0,0.0
49.046539306640625,25.200271606445312,-2.21018648147583,0.882691927292687,-0.4593221692419099,-0.0993886630115728,0.1404010189871336,3.0,0.0
47.74553298950195,25.312131881713867,-2.6299123764038086,-0.0,-0.0,-1.0,0.0788597369261302,1.0,0.0
48.56743240356445,25.13680648803711,-2.549868583679199,-0.0,-0.0,-1.0,0.1276029626466757,2.0,0.0
48.302730560302734,25.248966217041016,-2.58982515335083,-0.0,-0.0,-1.0,0.0568195099122644,2.0,0.0
47.995849609375,25.199520111083984,-2.5879220962524414,-0.0,-0.0,-1.0,0.06644553813863,1.0,0.0
49.481163024902344,25.278589248657227,-2.5691399574279785,-0.0,-0.0,-1.0,0.0828828685872138,2.0,0.0
49.199832916259766,25.09119415283203,-2.5216784477233887,-0.0,-0.0,-1.0,0.1311499276039557,1.0,0.0
48.78748321533203,25.11288070678711,-2.5370259284973145,-0.0,-0.0,-1.0,0.0731781029917945,1.0,0.0
48.34183120727539,25.25069999694824,-2.6005256175994873,-0.2666965292215182,0.0959288820993694,-0.9589945833425548,0.0641283661779056,3.0,0.0
48.11421203613281,25.183378219604492,-2.589174509048462,-0.0,-0.0,-1.0,0.0343855991937574,1.0,0.0
50.12508010864258,25.389909744262695,-2.61616587638855,-0.0,-0.0,-1.0,0.0985518028930504,1.0,0.0
49.50156784057617,25.274696350097656,-2.5853629112243652,-0.0,-0.0,-1.0,0.0811287738363434,2.0,0.0
49.269378662109375,25.12977600097656,-2.5475473403930664,-0.0,-0.0,-1.0,0.0974369755242903,1.0,0.0
48.84244918823242,25.086441040039062,-2.5425057411193848,-0.0,-0.0,-1.0,0.0923608593147332,1.0,0.0
48.55964279174805,25.056812286376953,-2.540677070617676,-0.0,-0.0,-1.0,0.1104512201854449,1.0,0.0
47.976314544677734,25.093360900878903,-2.5692272186279297,-0.0,-0.0,-1.0,0.0431106359873912,1.0,0.0
47.779075622558594,25.54610061645508,-2.163756847381592,-0.0,-0.0,-1.0,0.1108035502380311,1.0,0.0
48.10713195800781,23.725078582763672,-2.185960054397583,-0.0,-0.0,-1.0,0.0944988584444491,1.0,0.0
50.055763244628906,25.290821075439453,-2.68386173248291,-0.0,-0.0,-1.0,0.1048419268064917,1.0,0.0
49.78209686279297,25.27383804321289,-2.6719584465026855,-0.0,-0.0,-1.0,0.0797794937270729,1.0,0.0
49.5491943359375,25.10788345336914,-2.6202144622802734,-0.0,-0.0,-1.0,0.1148039936555624,1.0,0.0
49.276126861572266,24.96748161315918,-2.5761895179748535,-0.0,-0.0,-1.0,0.1004838133320972,1.0,0.0
48.890079498291016,25.020828247070312,-2.5872278213500977,-0.0,-0.0,-1.0,0.1166527843204192,1.0,0.0
48.48746109008789,25.063007354736328,-2.5980582237243652,-0.0,-0.0,-1.0,0.0802142541032757,1.0,0.0
48.11265563964844,25.092796325683594,-2.6081933975219727,-0.0,-0.0,-1.0,0.0470662259298463,1.0,0.0
47.90713119506836,24.934497833251953,-2.5656299591064453,-0.0,-0.0,-1.0,0.0218012963113845,1.0,0.0
49.31159973144531,25.633495330810547,-2.2263646125793457,-0.0,-0.0,-1.0,0.0709206541960218,1.0,0.0
49.20580291748047,25.571840286254883,-2.210043430328369,-0.0,-0.0,-1.0,0.0535898428163021,1.0,0.0
49.00972366333008,25.588651657104492,-2.212345600128174,-0.0,-0.0,-1.0,0.1909259520434298,1.0,0.0
48.150997161865234,23.67416000366211,-2.207871437072754,-0.0,-0.0,-1.0,0.0933488210357179,1.0,0.0
48.06112289428711,23.728038787841797,-2.2239303588867188,-0.0,-0.0,-1.0,0.0944988584444491,1.0,0.0
49.516300201416016,25.347496032714844,-2.2833306789398193,-0.0,-0.0,-1.0,0.0865376872509341,1.0,0.0
49.32328796386719,25.327125549316406,-2.2773478031158447,-0.0,-0.0,-1.0,0.1831033184253111,1.0,0.0
49.169376373291016,25.442516326904297,-2.308163642883301,-0.0,-0.0,-1.0,0.1582661595521423,1.0,0.0
47.87334442138672,25.447811126708984,-2.3289601802825928,-0.0,-0.0,-1.0,0.1108035502380311,1.0,0.0
48.76679229736328,25.38415908813477,-2.316789388656616,-0.3639611921916949,-0.8384237260240961,-0.4056820259985305,0.1446943341145526,3.0,0.0
48.713035583496094,25.594219207763672,-2.3409249782562256,-0.0,-0.0,-1.0,0.1269623893097619,2.0,0.0
48.93927383422851,25.25283432006836,-2.326143980026245,-0.520116684661293,-0.4222526124201892,-0.7424158980256758,0.1337919726624849,3.0,0.0
49.88804244995117,25.226709365844727,-2.626887321472168,-0.0,-0.0,-1.0,0.0873930312016108,2.0,0.0
48.73991012573242,25.51643943786621,-2.448373317718506,0.9661361555520752,-0.2579092892302,0.0079829483168313,0.1202330907296759,4.0,0.0
49.067771911621094,25.09825134277344,-2.452444314956665,-0.0,-0.0,-1.0,0.0813551308401517,2.0,0.0
48.80849075317383,25.213550567626953,-2.4189910888671875,0.4706705860816995,-0.1719947331701373,-0.8653825808041453,0.1422922807624263,5.0,0.0
48.74935150146485,24.57903480529785,-2.3226912021636963,-0.0,-0.0,-1.0,0.1508689879630289,1.0,0.0
48.11557388305664,24.529165267944336,-2.65739369392395,-0.0,-0.0,-1.0,0.0212864728885427,1.0,0.0
47.923439025878906,24.79190444946289,-2.6512012481689453,-0.0,-0.0,-1.0,0.0193254944071203,1.0,0.0
48.19414520263672,24.28936004638672,-2.643815040588379,-0.0,-0.0,-1.0,0.0176874521541346,1.0,0.0
48.795875549316406,25.524627685546875,-2.3075644969940186,-0.0,-0.0,-1.0,0.1176992487550382,2.0,0.0
48.92375183105469,25.331892013549805,-2.3093295097351074,0.0223631576421401,0.2579181205769623,-0.9659079315640392,0.0936914753922417,3.0,0.0
48.15779495239258,24.346141815185547,-2.6695282459259033,-0.0,-0.0,-1.0,0.0207627157275495,2.0,0.0
47.9864387512207,24.583560943603516,-2.6607346534729004,-0.0,-0.0,-1.0,0.016816455824556,2.0,0.0
47.86779022216797,24.83278465270996,-2.665431261062622,-0.0,-0.0,-1.0,0.0123284806267161,1.0,0.0
48.81129837036133,25.54654312133789,-2.2975568771362305,-0.0,-0.0,-1.0,0.1081568206774839,2.0,0.0
49.01609802246094,25.246734619140625,-2.304278612136841,-0.0,-0.0,-1.0,0.135202670584819,1.0,0.0
48.86753845214844,25.342296600341797,-2.2870078086853027,-0.0,-0.0,-1.0,0.0948285478796945,2.0,0.0
47.975006103515625,24.566444396972656,-2.6561665534973145,-0.0,-0.0,-1.0,0.0205247271835558,2.0,0.0
48.14168930053711,24.268571853637695,-2.657325506210327,-0.0,-0.0,-1.0,0.0154631376246052,1.0,0.0
47.85050201416016,24.02552795410156,-2.567741632461548,-0.1015712353718357,-0.4883080532890017,-0.8667401740072653,0.0451567970181678,3.0,0.0
50.01034164428711,25.041244506835938,-2.7968881130218506,-0.0,-0.0,-1.0,0.0471858088458608,1.0,0.0
48.74955368041992,25.3819637298584,-2.586071729660034,-0.0,-0.0,-1.0,0.1400804425924237,1.0,0.0
48.676002502441406,25.59262466430664,-2.5937631130218506,-0.0,-0.0,-1.0,0.1025874785416813,1.0,0.0
49.07193756103515,24.95892333984375,-2.606553316116333,-0.0,-0.0,-1.0,0.1115705228188036,1.0,0.0
48.95561981201172,25.142318725585938,-2.60163950920105,-0.0,-0.0,-1.0,0.1663647407380395,2.0,0.0
48.67800521850586,25.15808868408203,-2.5501012802124023,-0.0,-0.0,-1.0,0.1312085332399379,1.0,0.0
49.038482666015625,24.982654571533203,-2.2776639461517334,-0.0,-0.0,-1.0,0.177924928752133,1.0,0.0
49.2679443359375,24.857372283935547,-2.2863118648529053,-0.0,-0.0,-1.0,0.1675965188043906,1.0,0.0
48.93522644042969,25.362213134765625,-2.3009674549102783,-0.0,-0.0,-1.0,0.1027734600451152,2.0,0.0
49.01521682739258,24.780094146728516,-2.4846861362457275,-0.0,-0.0,-1.0,0.1745763988003041,1.0,0.0
49.21595764160156,24.585018157958984,-2.4749934673309326,-0.0,-0.0,-1.0,0.1607858177494168,1.0,0.0
48.0297737121582,24.89002990722656,-2.6319165229797363,-0.0,-0.0,-1.0,0.0233754861286369,2.0,0.0
47.940650939941406,24.959461212158203,-2.6302433013916016,-0.0,-0.0,-1.0,0.0202701831281607,1.0,0.0
48.8322639465332,25.44301414489746,-2.34268856048584,0.4744294802467517,-0.5363836889732241,-0.6980037295575663,0.1751449638681528,4.0,0.0
49.06986999511719,25.251598358154297,-2.338693857192993,-0.3740620708161137,-0.3498256565298677,-0.8588943923499605,0.1025457345235426,3.0,0.0
49.732276916503906,23.52665328979492,-2.759620189666748,-0.0,-0.0,-1.0,0.0082642959968858,1.0,0.0
48.790000915527344,24.614559173583984,-2.253082036972046,-0.0,-0.0,-1.0,0.1724865667281884,1.0,0.0
48.821044921875,25.420015335083008,-2.339313268661499,0.4234473285029991,0.0649221475619242,-0.9035914313115307,0.1429036917927024,5.0,0.0
49.10758972167969,25.231666564941406,-2.347003221511841,-0.2233158322037521,-0.0163068512126406,-0.9746097299384376,0.1328978967512557,3.0,0.0
49.01886749267578,25.52621841430664,-2.1904397010803223,-0.0,-0.0,-1.0,0.1117066242036138,2.0,0.0
48.13005828857422,24.438426971435547,-2.651366710662842,-0.0,-0.0,-1.0,0.023792810763726,1.0,0.0
49.81795501708984,23.314701080322266,-2.6725685596466064,-0.0,-0.0,-1.0,0.0071048979776999,1.0,0.0
49.496604919433594,23.8291015625,-2.695286989212036,-0.0,-0.0,-1.0,0.0144744021861518,1.0,0.0
49.67977142333984,23.66468048095703,-2.697758436203003,-0.0,-0.0,-1.0,0.0050600206478462,1.0,0.0
48.18842315673828,24.66156005859375,-2.64220929145813,-0.0,-0.0,-1.0,0.0381883377439504,2.0,0.0
48.77364730834961,25.262451171875,-2.4060168266296387,-0.4451770689554883,-0.0085457017621943,-0.8954017803520339,0.1748612138427905,3.0,0.0
48.95977020263672,25.166900634765625,-2.41336989402771,0.9810002953635748,0.1931206541172457,0.0185157622015989,0.1262427403335524,3.0,0.0
48.73365783691406,25.49765968322754,-2.4319214820861816,-0.4020479310037422,-0.7217243457900029,-0.563446031017703,0.1465183613075294,4.0,0.0
48.80078125,25.274986267089844,-2.4196269512176514,0.4039849114879194,-0.6902740073401944,0.6002649299106251,0.1656755203681675,4.0,0.0
49.05754089355469,25.15439224243164,-2.4312264919281006,-0.19403793426366,0.375732130073087,-0.906186871730899,0.0908432590707842,4.0,0.0
49.826297760009766,23.555774688720703,-2.690145969390869,-0.0,-0.0,-1.0,0.0082392298321048,2.0,0.0
49.23481750488281,23.939512252807617,-2.66386079788208,-0.0,-0.0,-1.0,0.0272930957937328,1.0,0.0
49.535423278808594,23.877281188964844,-2.695047378540039,-0.0,-0.0,-1.0,0.0156551644837132,1.0,0.0
48.04667282104492,24.713125228881836,-2.6227927207946777,-0.0,-0.0,-1.0,0.0185325301635763,2.0,0.0
48.34659957885742,24.67352294921875,-2.6543707847595215,-0.0,-0.0,-1.0,0.0221387777679921,1.0,0.0
48.009334564208984,24.864269256591797,-2.6404919624328613,-0.0,-0.0,-1.0,0.0233403410070769,2.0,0.0
49.83404541015625,24.094167709350582,-2.6961028575897217,-0.0,-0.0,-1.0,0.0073286682558848,1.0,0.0
49.957767486572266,24.06723976135254,-2.707474946975708,-0.0,-0.0,-1.0,0.0048162560496014,1.0,0.0
49.484519958496094,24.395679473876953,-2.6992037296295166,-0.0,-0.0,-1.0,0.0271251080624963,1.0,0.0
49.69660186767578,24.26105499267578,-2.7045416831970215,-0.0,-0.0,-1.0,0.0192910245538028,1.0,0.0
50.17144012451172,24.129911422729492,-2.7437899112701416,-0.0,-0.0,-1.0,0.0042796782101937,1.0,0.0
47.80419921875,24.90862464904785,-2.5834553241729736,-0.0,-0.0,-1.0,0.011608648912087,1.0,0.0
48.228721618652344,24.828388214111328,-2.6187024116516113,-0.0,-0.0,-1.0,0.0411647860060412,1.0,0.0
48.55882263183594,24.735042572021484,-2.6419143676757812,-0.0,-0.0,-1.0,0.024213104728972,1.0,0.0
50.13550567626953,25.06637191772461,-2.637523651123047,-0.0,-0.0,-1.0,0.1006080050928014,1.0,0.0
49.027496337890625,24.690521240234375,-2.6320459842681885,-0.0,-0.0,-1.0,0.138373287752841,1.0,0.0
49.38829803466797,24.58971405029297,-2.6410391330718994,-0.0,-0.0,-1.0,0.0407842969519989,1.0,0.0
49.95452117919922,24.42934226989746,-2.6560332775115967,-0.0,-0.0,-1.0,0.0126785971626765,1.0,0.0
49.615726470947266,24.31634521484375,-2.623205184936523,-0.0,-0.0,-1.0,0.0185651067164965,2.0,0.0
48.104000091552734,23.141454696655273,-2.402905225753784,-0.0,-0.0,-1.0,0.0829812687421364,1.0,0.0
49.79449462890625,25.260469436645508,-2.608959674835205,-0.0,-0.0,-1.0,0.0775184336822312,1.0,0.0
50.15999603271485,25.02522850036621,-2.6590394973754883,-0.0,-0.0,-1.0,0.0876833498984616,1.0,0.0
50.191349029541016,24.830341339111328,-2.6425983905792236,-0.0,-0.0,-1.0,0.0481903356665655,1.0,0.0
49.41936874389648,24.26612091064453,-2.551947116851806,-0.0,-0.0,-1.0,0.0429741460564298,1.0,0.0
49.09613800048828,24.200990676879883,-2.5300188064575195,-0.0,-0.0,-1.0,0.0862627193554716,1.0,0.0
49.11042404174805,23.981239318847656,-2.5102744102478027,-0.0,-0.0,-1.0,0.0491800156787764,1.0,0.0
49.942626953125,25.550811767578125,-2.4642062187194824,-0.0,-0.0,-1.0,0.0640671548053997,1.0,0.0
49.828086853027344,25.10190200805664,-2.4156765937805176,-0.0,-0.0,-1.0,0.1408535740518049,1.0,0.0
49.013816833496094,24.44536399841309,-2.3304262161254883,-0.0,-0.0,-1.0,0.209188904561885,1.0,0.0
48.48492431640625,25.283048629760746,-2.4060721397399902,-0.0,-0.0,-1.0,0.0975940266679666,1.0,0.0
48.65179443359375,24.543684005737305,-2.3328847885131836,-0.0,-0.0,-1.0,0.135711825955504,1.0,0.0
48.59647750854492,23.97269058227539,-2.2728424072265625,-0.0,-0.0,-1.0,0.0800863150131197,1.0,0.0
48.804176330566406,25.337982177734375,-2.6186375617980957,-0.0,-0.0,-1.0,0.1417913100327326,1.0,0.0
48.73442077636719,25.459089279174805,-2.6302685737609863,-0.0,-0.0,-1.0,0.0958008916254575,1.0,0.0
48.76195526123047,25.04254150390625,-2.5843706130981445,-0.0,-0.0,-1.0,0.0827402293577294,1.0,0.0
50.1656379699707,24.51611328125,-2.683928966522217,-0.0,-0.0,-1.0,0.0114953949478353,1.0,0.0
49.785789489746094,24.28431510925293,-2.639314651489258,-0.0,-0.0,-1.0,0.0171151098705912,2.0,0.0
48.24046325683594,24.761268615722656,-2.6335554122924805,-0.0,-0.0,-1.0,0.0220854851640804,1.0,0.0
49.17605209350586,25.209360122680664,-2.3140225410461426,0.8209339617391729,-0.5669991606021565,-0.0676711337253609,0.1243961329105108,5.0,0.0
48.943382263183594,25.209331512451172,-2.3042798042297363,-0.0,-0.0,-1.0,0.137183172606458,2.0,0.0
48.83241271972656,25.414613723754883,-2.3223094940185547,-0.584195091314104,-0.3687493517126963,-0.7230076146874059,0.1540105605793203,4.0,0.0
49.11163330078125,25.211320877075195,-2.24210262298584,-0.0,-0.0,-1.0,0.1307540406337592,2.0,0.0
48.92310333251953,25.25838279724121,-2.236151933670044,-0.2465075670765714,-0.8063057958729356,-0.5376848360477556,0.1032787753211684,3.0,0.0
48.86418151855469,25.498367309570312,-2.2572038173675537,0.1276626357717767,-0.9731826302128852,-0.1913578315087569,0.0793212012935014,3.0,0.0
49.16162109375,25.066850662231445,-2.4048428535461426,-0.0,-0.0,-1.0,0.1028143520225063,2.0,0.0
48.958030700683594,25.173494338989254,-2.3899805545806885,-0.3211546939108897,0.5449008273115696,-0.774559714272676,0.1722438222300549,4.0,0.0
48.80189514160156,25.386701583862305,-2.3869125843048096,-0.0173103555559797,-0.9786991223611606,-0.2045687646734453,0.1570147117271677,4.0,0.0
50.05216217041016,23.27138900756836,-2.5962510108947754,-0.0,-0.0,-1.0,0.0080584649778887,1.0,0.0
49.00122833251953,25.228036880493164,-2.367992877960205,0.8989775769460078,0.0220898523439547,-0.4374372578687223,0.1248746398777338,3.0,0.0
48.83051300048828,25.27643585205078,-2.361342430114746,-0.0,-0.0,-1.0,0.1202774598575113,2.0,0.0
48.79902267456055,25.5867862701416,-2.393040180206299,-0.2514261288449219,-0.7989527892867955,-0.5463143254802189,0.2137945100710673,4.0,0.0
49.152549743652344,25.18663024902344,-2.3102550506591797,0.5760224705137118,-0.6769085567958905,-0.4582498436440374,0.1594592637369806,4.0,0.0
48.90252685546875,25.260112762451172,-2.304539680480957,-0.0,-0.0,-1.0,0.1114122115116865,2.0,0.0
48.84722137451172,25.543136596679688,-2.3360323905944824,-0.0,-0.0,-1.0,0.1638854050330396,2.0,0.0
48.94465255737305,24.876218795776367,-2.5705833435058594,-0.0,-0.0,-1.0,0.1027668934064575,1.0,0.0
48.92488861083984,24.980621337890625,-2.5805554389953613,-0.0,-0.0,-1.0,0.089162547076762,2.0,0.0
48.489723205566406,24.999582290649418,-2.5437817573547363,-0.0,-0.0,-1.0,0.0674976913677288,2.0,0.0
48.51259231567383,25.25444793701172,-2.574868679046631,-0.0,-0.0,-1.0,0.0711688925202909,1.0,0.0
48.917991638183594,24.48383140563965,-2.5871570110321045,-0.0,-0.0,-1.0,0.2289903292671166,1.0,0.0
48.33065032958984,24.85319709777832,-2.58074688911438,-0.0,-0.0,-1.0,0.0481283963856764,1.0,0.0
49.73321533203125,23.51987075805664,-2.64133620262146,-0.0,-0.0,-1.0,0.0082642959968858,1.0,0.0
48.749507904052734,24.473146438598633,-2.649749994277954,-0.0,-0.0,-1.0,0.1605426270721914,1.0,0.0
48.18707656860352,24.69219207763672,-2.6196043491363525,-0.0,-0.0,-1.0,0.0211542145504858,2.0,0.0
49.20711517333984,25.19297790527344,-2.1863956451416016,-0.0,-0.0,-1.0,0.1359086800053825,1.0,0.0
48.92561721801758,25.632648468017575,-2.2017288208007812,-0.0,-0.0,-1.0,0.2160192434779976,2.0,0.0
49.06373596191406,25.22589111328125,-2.175859212875366,-0.0,-0.0,-1.0,0.1209383531345672,2.0,0.0
49.00363540649414,25.30004119873047,-2.177172899246216,-0.032158936156476,0.8232906895428284,-0.56670825239922,0.1152109638287521,3.0,0.0
48.9488410949707,25.434326171875,-2.1848034858703613,0.7776979041708576,-0.3539931813219941,-0.5194947520676115,0.0646785421597905,3.0,0.0
49.161766052246094,25.37408447265625,-2.171958923339844,-0.0,-0.0,-1.0,0.064814976252369,1.0,0.0
48.942352294921875,25.268604278564453,-2.1738600730895996,-0.0,-0.0,-1.0,0.0927589403117119,2.0,0.0
48.902244567871094,25.577070236206055,-2.191690444946289,-0.0,-0.0,-1.0,0.1024280129644862,2.0,0.0
50.20537567138672,23.20842933654785,-2.5952062606811523,-0.0,-0.0,-1.0,0.0076573739733768,1.0,0.0
49.09635925292969,25.088459014892575,-2.5248236656188965,-0.1017519306330762,-0.9551401447902886,0.2781255982868681,0.1087745022281887,8.0,0.0
48.989898681640625,25.25133895874023,-2.5188961029052734,-0.0,-0.0,-1.0,0.1216705666959668,1.0,0.0
48.625640869140625,25.61391830444336,-2.4903059005737305,-0.0024907685816489,0.3202592692088734,-0.9473266577889966,0.1170865677745774,3.0,0.0
48.61870574951172,24.745100021362305,-2.655980348587036,-0.0,-0.0,-1.0,0.0222194892373699,2.0,0.0
48.52454376220703,24.56773376464844,-2.635759115219116,-0.0,-0.0,-1.0,0.0841678186394219,1.0,0.0
48.065406799316406,24.24052619934082,-2.5594582557678223,-0.0,-0.0,-1.0,0.0148033327392618,1.0,0.0
48.538448333740234,24.748252868652344,-2.581984043121338,-0.0,-0.0,-1.0,0.0705382406006463,1.0,0.0
48.01411819458008,24.406435012817383,-2.5008435249328613,-0.0,-0.0,-1.0,0.0212472473666043,1.0,0.0
49.08567810058594,25.278799057006836,-2.5256259441375732,-0.0,-0.0,-1.0,0.1073378499826981,1.0,0.0
48.69669342041016,25.547101974487305,-2.482558250427246,-0.0,-0.0,-1.0,0.0677364117534919,1.0,0.0
48.58385467529297,24.765480041503903,-2.7066211700439453,-0.0,-0.0,-1.0,0.0324231905842062,1.0,0.0
49.9080810546875,25.20114517211914,-2.626512289047241,-0.0,-0.0,-1.0,0.0873930312016108,2.0,0.0
49.30553436279297,24.915447235107425,-2.5689399242401123,-0.0,-0.0,-1.0,0.0782501611758356,1.0,0.0
49.0815544128418,24.81386947631836,-2.548076868057251,-0.0,-0.0,-1.0,0.1002242744685689,2.0,0.0
49.85502624511719,25.08596992492676,-2.7012619972229004,-0.0,-0.0,-1.0,0.0792700608161268,1.0,0.0
49.33095932006836,24.7797794342041,-2.6411666870117188,-0.0,-0.0,-1.0,0.08143835960779,1.0,0.0
49.13022994995117,24.77458381652832,-2.6285414695739746,-0.0,-0.0,-1.0,0.1292066935582271,1.0,0.0
49.35049057006836,23.707700729370117,-2.7265167236328125,-0.0,-0.0,-1.0,0.0110395473084242,1.0,0.0
49.74452209472656,24.97060775756836,-2.342256784439087,-0.0,-0.0,-1.0,0.1248458972367807,1.0,0.0
49.45473861694336,25.053058624267575,-2.3508894443511963,-0.0,-0.0,-1.0,0.1641234764449557,1.0,0.0
49.29920959472656,25.38719940185547,-2.3875515460968018,-0.0,-0.0,-1.0,0.1633273686825814,1.0,0.0
49.26277542114258,25.128816604614254,-2.264826774597168,-0.0,-0.0,-1.0,0.1055305483165167,1.0,0.0
49.05889129638672,25.14708137512207,-2.2613940238952637,-0.0,-0.0,-1.0,0.1073036909670315,1.0,0.0
48.93592834472656,25.27837562561035,-2.272012710571289,-0.2465075670765714,-0.8063057958729356,-0.5376848360477556,0.1049658213594571,3.0,0.0
49.278907775878906,25.122961044311523,-2.469014883041382,-0.0,-0.0,-1.0,0.0813898781330029,2.0,0.0
48.815155029296875,25.267446517944336,-2.4718124866485596,-0.0,-0.0,-1.0,0.1919502032522281,2.0,0.0
49.82794952392578,23.575891494750977,-2.6889729499816895,-0.0,-0.0,-1.0,0.0090469255657571,2.0,0.0
49.764373779296875,23.521005630493164,-2.692302703857422,-0.0,-0.0,-1.0,0.0082392298321048,1.0,0.0
49.07355499267578,25.136768341064453,-2.6465816497802734,-0.0,-0.0,-1.0,0.1049636811687073,1.0,0.0
49.241119384765625,25.094406127929688,-2.4491653442382812,0.6440255591224762,-0.6957951136484136,0.317962637773643,0.1016611170635303,3.0,0.0
48.89128112792969,25.452590942382812,-2.4601693153381348,-0.0,-0.0,-1.0,0.1692005407249763,1.0,0.0
49.1555061340332,24.96063232421875,-2.5192415714263916,0.6864866421297675,-0.6323435659405787,-0.3589954105430168,0.122702111401143,4.0,0.0
49.05767059326172,25.088001251220703,-2.524441957473755,0.0384602360333065,0.5647494212614067,-0.8243657570697418,0.1652786146462985,7.0,0.0
49.25758361816406,25.04654884338379,-2.4710917472839355,-0.0,-0.0,-1.0,0.1188869214633368,2.0,0.0
48.87443161010742,25.466365814208984,-2.336251974105835,-0.0,-0.0,-1.0,0.1451453531038352,2.0,0.0
49.05076599121094,25.21649169921875,-2.2476091384887695,0.9924573927103378,-0.1021118377906809,0.0678343293444246,0.1216740239789764,3.0,0.0
48.88787460327149,25.388851165771484,-2.2449984550476074,0.3478442788681994,-0.039633070452213,-0.93671424531988,0.0793984764649721,3.0,0.0
48.873992919921875,25.413400650024418,-2.420917510986328,0.8451337716091303,0.3469109872404989,-0.4066960474574953,0.1562857340292469,3.0,0.0
49.039459228515625,25.125442504882812,-2.4185824394226074,0.4722304291173687,-0.5835120188113391,-0.660690658113418,0.0725125079846105,3.0,0.0
48.892818450927734,25.310340881347656,-2.419994354248047,-0.0,-0.0,-1.0,0.2004580067459739,2.0,0.0
49.04361343383789,25.0511417388916,-2.544581174850464,-0.0,-0.0,-1.0,0.1399052602765709,2.0,0.0
48.996463775634766,25.46035385131836,-2.139362335205078,-0.0,-0.0,-1.0,0.0506498924941954,1.0,0.0
49.079532623291016,25.080909729003903,-2.5092833042144775,0.0536040694614537,-0.9711980528981417,0.2321657722060471,0.1087745022281886,7.0,0.0
48.68192672729492,25.388769149780273,-2.4839890003204346,-0.0,-0.0,-1.0,0.1573504923771145,1.0,0.0
48.68025588989258,25.616533279418945,-2.4995625019073486,0.0317566332794745,-0.2796378103998434,-0.959580226576983,0.093660147576746,4.0,0.0
49.077003479003906,24.815608978271484,-2.5380659103393555,-0.0,-0.0,-1.0,0.1002242744685689,2.0,0.0
48.95662307739258,24.966297149658203,-2.5328145027160645,-0.0,-0.0,-1.0,0.0718020772333212,1.0,0.0
48.71673583984375,25.336450576782227,-2.52730941772461,-0.0,-0.0,-1.0,0.1245167661935513,1.0,0.0
47.74153900146485,23.14547348022461,-2.333569049835205,-0.0,-0.0,-1.0,0.1030514367958051,1.0,0.0
47.76811981201172,23.677974700927734,-2.37161636352539,-0.0,-0.0,-1.0,0.0638520238676147,2.0,0.0
