x,y,z,nx,ny,nz,curvature,density,label
27.10803604125977,-16.0784854888916,0.3626086711883545,-0.0,-0.0,-1.0,0.2264365981006957,2.0,1.0
27.212644577026367,-15.680915832519531,0.3178119659423828,-0.4329928761131803,0.6940306391333595,0.5751857449375605,0.2742434129539909,3.0,1.0
26.407773971557617,-15.103439331054688,0.433988094329834,-0.0,-0.0,-1.0,0.0899074866917578,1.0,1.0
25.43671989440918,-14.581743240356444,0.4901180267333984,-0.0,-0.0,-1.0,0.0529099988580169,1.0,1.0
26.13496208190918,-15.948354721069336,0.4002439975738525,-0.0,-0.0,-1.0,0.0459689893731655,1.0,1.0
27.03822326660156,-14.64263153076172,0.3506662845611572,-0.0,-0.0,-1.0,0.1663105581110876,1.0,1.0
26.99831199645996,-15.597009658813477,0.4976527690887451,0.0284794379312292,-0.2811091044540013,-0.9592531433402712,0.1971692104356612,4.0,1.0
27.432369232177734,-16.583229064941406,0.40557861328125,0.8177157417133103,0.2924473535808807,-0.4957978530992145,0.2010087555812088,4.0,1.0
27.661540985107425,-14.982620239257812,0.1564576625823974,-0.1330852477708511,-0.4124756228415178,-0.9011948609414464,0.0764337655961927,3.0,1.0
26.68437767028809,-14.670799255371094,0.3260698318481445,-0.0,-0.0,-1.0,0.037315332307158,1.0,1.0
26.992692947387695,-14.52190399169922,0.3400571346282959,-0.0,-0.0,-1.0,0.1983022016072347,2.0,1.0
26.825483322143555,-16.45843505859375,0.3131444454193115,-0.0,-0.0,-1.0,0.061325764493075,1.0,1.0
27.245943069458008,-16.105512619018555,0.3196589946746826,-0.0,-0.0,-1.0,0.1130411536036257,2.0,1.0
26.092138290405273,-15.697400093078612,0.4173200130462646,-0.0,-0.0,-1.0,0.035852392132442,1.0,1.0
26.61028480529785,-15.308923721313477,0.4277873039245605,0.9187608886415672,-0.0973877108719198,0.3826147713741397,0.1771156121580219,3.0,1.0
27.6973819732666,-15.621038436889648,0.1784851551055908,-0.0,-0.0,-1.0,0.0142267257750126,2.0,1.0
27.53005027770996,-15.858428955078123,0.2042155265808105,-0.0,-0.0,-1.0,0.0574177293812324,2.0,1.0
26.82622718811035,-14.74747085571289,0.2284719944000244,-0.0,-0.0,-1.0,0.0400847603374104,1.0,1.0
27.124588012695312,-14.657904624938965,0.2507667541503906,-0.0,-0.0,-1.0,0.0947937100449438,1.0,1.0
26.136531829833984,-15.990152359008787,0.356065034866333,0.1338853798036178,-0.1917266084659918,-0.9722734248558732,0.0416801314697565,3.0,1.0
27.63011932373047,-16.237621307373047,0.3034603595733642,-0.0,-0.0,-1.0,0.0776240766832674,2.0,1.0
27.445579528808594,-16.64575958251953,0.3576612472534179,0.141733395987929,0.8034419456881423,-0.5782669663490909,0.2320300123088686,3.0,1.0
25.67186737060547,-14.63946533203125,0.4533553123474121,-0.0,-0.0,-1.0,0.0258661065049594,2.0,1.0
27.14490127563477,-15.708316802978516,0.4575135707855224,-0.241317803226607,0.5884559346274347,-0.7716769601637963,0.1715577261864019,3.0,1.0
27.004240036010746,-14.43838882446289,0.3335962295532226,-0.0,-0.0,-1.0,0.2552173463863815,2.0,1.0
26.693449020385746,-14.56937313079834,0.3224461078643799,0.7039294172653343,0.498343207886181,-0.506100210098946,0.0951003804214299,3.0,1.0
27.256019592285156,-16.042837142944336,0.3304972648620605,-0.0,-0.0,-1.0,0.0770802181313239,1.0,1.0
26.86968040466309,-16.319242477416992,0.326610803604126,-0.0,-0.0,-1.0,0.0794204240404925,1.0,1.0
25.78630828857422,-15.623916625976562,0.392449140548706,-0.7384580332117215,-0.6645592426126995,0.1141960868117274,0.1660335753263514,3.0,1.0
26.628734588623047,-15.175429344177246,0.426985502243042,-0.0,-0.0,-1.0,0.1514022386822611,2.0,1.0
27.29949378967285,-14.964051246643066,0.2288873195648193,-0.0,-0.0,-1.0,0.1217635840251389,1.0,1.0
25.952302932739254,-14.789389610290527,0.4119536876678467,-0.0,-0.0,-1.0,0.0445343403498468,2.0,1.0
27.217342376708984,-15.619478225708008,0.357921838760376,-0.0,-0.0,-1.0,0.2227365248382506,2.0,1.0
27.193559646606445,-16.073640823364258,0.4489355087280273,-0.9498786579915944,0.2251371021221987,-0.2168958744192852,0.1005344232788817,6.0,1.0
26.83936309814453,-16.75296401977539,0.5343148708343506,-0.3499276723504943,0.2551817230729629,-0.9013506045556742,0.0830373197584279,4.0,1.0
26.84857177734375,-14.42440700531006,0.2287085056304931,-0.0,-0.0,-1.0,0.1099219737651058,2.0,1.0
25.44117546081543,-14.426112174987791,0.4468457698822021,-0.0,-0.0,-1.0,0.0898081768845301,1.0,1.0
25.211505889892575,-15.126049041748049,0.5252389907836914,-0.0,-0.0,-1.0,0.0676605439183722,1.0,1.0
26.588594436645508,-16.842287063598633,0.6607317924499512,-0.0,-0.0,-1.0,0.0687964277501774,2.0,1.0
27.032787322998047,-14.494603157043455,0.3283643722534179,-0.0,-0.0,-1.0,0.22173188832534,2.0,1.0
26.68429183959961,-14.565348625183104,0.3136723041534424,-0.8250838653195569,-0.0150449383302276,-0.564809937076163,0.0907000529933417,4.0,1.0
25.753881454467773,-15.55708122253418,0.4257521629333496,0.3551736598792931,-0.9344805493967268,0.024449419771028,0.1188417825026842,4.0,1.0
25.36643409729004,-14.428627967834473,0.4603049755096435,0.6936392579958679,-0.5759785248806121,-0.4325659702788653,0.0962210655556809,5.0,1.0
25.386960983276367,-14.41063117980957,0.4495382308959961,-0.931349355188316,-0.0126774062325101,-0.3639061169608502,0.0962210655556809,7.0,1.0
26.14831161499023,-14.436814308166504,0.3231537342071533,-0.0,-0.0,-1.0,0.0265947739753528,1.0,1.0
26.633787155151367,-15.20888328552246,0.4429578781127929,-0.0,-0.0,-1.0,0.1676552191438052,2.0,1.0
27.213481903076172,-15.647643089294434,0.4658122062683105,-0.3406892947804599,0.1509873278627577,-0.9279728612663504,0.2035477664991851,3.0,1.0
27.044248580932617,-14.592095375061035,0.318631649017334,-0.1665797135904202,-0.9856830000147312,0.0260810755547479,0.1807578258762028,5.0,1.0
26.406774520874023,-14.749499320983888,0.296487808227539,-0.0,-0.0,-1.0,0.0526333754857707,1.0,1.0
26.54652976989746,-15.196779251098633,0.3995981216430664,0.0502313320500455,-0.2059675046969091,-0.9772687451716682,0.22546853369364,9.0,1.0
25.80352020263672,-15.062006950378418,0.3976020812988281,-0.0,-0.0,-1.0,0.0247814143624326,1.0,1.0
25.439987182617188,-14.909870147705078,0.3699932098388672,-0.0,-0.0,-1.0,0.0458220938311021,2.0,1.0
25.729000091552734,-15.58166217803955,0.4139192104339599,-0.8816272770937743,0.3515742436253372,-0.3148474162248904,0.1520430461219745,4.0,1.0
27.107837677001953,-14.711807250976562,0.2857730388641357,-0.0,-0.0,-1.0,0.0378443835450398,1.0,1.0
26.399396896362305,-14.67579460144043,0.3185029029846191,0.1737427370253413,0.850693051283314,-0.4961197373913156,0.0421468925731991,3.0,1.0
25.236452102661133,-15.130242347717283,0.4791760444641113,-0.0,-0.0,-1.0,0.0529006512189242,1.0,1.0
26.75275230407715,-15.38999366760254,0.3462023735046386,-0.0,-0.0,-1.0,0.1711354873215262,2.0,1.0
25.856584548950195,-15.48108196258545,0.419288158416748,0.1816032910410394,-0.055643892717452,-0.9817963138484034,0.0682362402758907,3.0,1.0
26.72115707397461,-16.687650680541992,0.7103047370910645,-0.0,-0.0,-1.0,0.1057657160649059,1.0,1.0
26.92542266845703,-15.5483980178833,0.4656124114990234,-0.0,-0.0,-1.0,0.0928526454698153,2.0,1.0
26.636478424072266,-16.598541259765625,0.3825712203979492,-0.0,-0.0,-1.0,0.0801004552044134,1.0,1.0
26.59171485900879,-16.6405086517334,0.3877873420715332,-0.0,-0.0,-1.0,0.1088661548860846,1.0,1.0
25.245885848999023,-14.855060577392578,0.4911036491394043,-0.0,-0.0,-1.0,0.0610810738929406,1.0,1.0
25.83499526977539,-15.431807518005373,0.4310173988342285,-0.0,-0.0,-1.0,0.0616515945607869,2.0,1.0
26.726490020751953,-15.11329746246338,0.4181160926818847,0.9523380018818408,-0.0257757127098489,0.3039538497963177,0.1260638452975141,3.0,1.0
25.21827507019043,-14.961480140686035,0.4772911071777344,-0.0,-0.0,-1.0,0.0492420561457861,1.0,1.0
26.356332778930664,-14.91690158843994,0.4156136512756347,-0.0,-0.0,-1.0,0.1110566901340938,1.0,1.0
25.30752944946289,-14.44839096069336,0.4556727409362793,0.930805907153174,-0.191986983228826,-0.3110327337748417,0.1194985918620788,3.0,1.0
27.016862869262695,-16.25389289855957,0.4820404052734375,-0.0,-0.0,-1.0,0.1583233192058,1.0,1.0
26.743446350097656,-14.40546703338623,0.3946423530578613,-0.0,-0.0,-1.0,0.1169274456348582,1.0,1.0
27.249866485595703,-15.653629302978516,0.3129076957702636,-0.0,-0.0,-1.0,0.1807713029548525,2.0,1.0
26.26557159423828,-16.556493759155273,0.3447065353393554,-0.0,-0.0,-1.0,0.1483077088929952,1.0,1.0
25.35749626159668,-15.02433967590332,0.5115103721618652,-0.0,-0.0,-1.0,0.0543938589937822,1.0,1.0
25.715391159057617,-15.994956970214844,0.3525910377502441,-0.0,-0.0,-1.0,0.0495305239430976,2.0,1.0
26.267486572265625,-14.990401268005373,0.4066576957702636,-0.0,-0.0,-1.0,0.0746059063349766,2.0,1.0
25.86716079711914,-16.102663040161133,0.1847825050354004,-0.0,-0.0,-1.0,0.094531457367949,1.0,1.0
27.065324783325195,-15.472503662109377,0.5123190879821777,-0.0,-0.0,-1.0,0.1822526384016145,1.0,1.0
25.81003189086914,-16.592979431152344,0.2365422248840332,-0.0,-0.0,-1.0,0.0319840297862925,2.0,1.0
25.92606544494629,-16.721385955810547,0.224456787109375,-0.0,-0.0,-1.0,0.0639471606037178,2.0,1.0
25.805025100708008,-16.78917694091797,0.2776632308959961,-0.0,-0.0,-1.0,0.081748740706691,1.0,1.0
25.62548828125,-16.352266311645508,0.3040909767150879,-0.0,-0.0,-1.0,0.0321603069309757,2.0,1.0
25.463455200195312,-16.057958602905273,0.3276405334472656,0.775805461072464,-0.0519193537889263,-0.6288324635960532,0.0281747146562735,3.0,1.0
25.48711585998535,-15.88807773590088,0.3246092796325683,0.8644771273385503,0.3195092209165006,-0.3880633376883445,0.0578336223252725,3.0,1.0
25.39548683166504,-15.155649185180664,0.3386070728302002,-0.0,-0.0,-1.0,0.0584776272658963,2.0,1.0
25.26786231994629,-14.78619384765625,0.3570289611816406,-0.0,-0.0,-1.0,0.0621164778760957,2.0,1.0
25.27583885192871,-14.438861846923828,0.3560009002685547,-0.0,-0.0,-1.0,0.0954566231517091,2.0,1.0
25.27001190185547,-16.479753494262695,0.2627153396606445,-0.0,-0.0,-1.0,0.0130172734420694,1.0,1.0
25.25112533569336,-16.096424102783203,0.2988843917846679,-0.0,-0.0,-1.0,0.0118115193284798,1.0,1.0
25.312744140625,-15.7941312789917,0.3183932304382324,-0.0,-0.0,-1.0,0.0256492559526085,1.0,1.0
25.41175842285156,-14.942588806152344,0.3788619041442871,-0.0,-0.0,-1.0,0.0556142712056605,2.0,1.0
25.81488609313965,-14.758803367614746,0.347031831741333,-0.0,-0.0,-1.0,0.0324162779808708,2.0,1.0
26.247343063354492,-14.635913848876951,0.3059263229370117,-0.0,-0.0,-1.0,0.0239956986365694,1.0,1.0
25.306304931640625,-14.707159996032717,0.4092292785644531,-0.0,-0.0,-1.0,0.0591039443947392,1.0,1.0
25.643089294433594,-14.456939697265623,0.3800239562988281,-0.0,-0.0,-1.0,0.0157559204026448,1.0,1.0
26.64234733581543,-16.855974197387695,0.5703699588775635,-0.0,-0.0,-1.0,0.0614774454297596,2.0,1.0
27.33959197998047,-16.622304916381836,0.4972915649414062,-0.0,-0.0,-1.0,0.0795618038183827,1.0,1.0
25.804950714111328,-16.62317657470703,0.3795452117919922,-0.0,-0.0,-1.0,0.0575293570778259,1.0,1.0
25.68400001525879,-16.196636199951172,0.4157018661499023,-0.0,-0.0,-1.0,0.0375429220694795,1.0,1.0
25.61537742614746,-15.918230056762695,0.43695068359375,-0.0,-0.0,-1.0,0.0644936405483537,1.0,1.0
25.656005859375,-15.144949913024902,0.4477081298828125,-0.0,-0.0,-1.0,0.031268691927853,1.0,1.0
25.357328414916992,-14.597211837768556,0.5207037925720215,-0.0,-0.0,-1.0,0.0646009072540945,1.0,1.0
25.782726287841797,-14.62350368499756,0.4327540397644043,-0.0,-0.0,-1.0,0.0214188535883651,1.0,1.0
25.953548431396484,-14.367254257202148,0.4020910263061523,-0.0,-0.0,-1.0,0.0195089285696416,1.0,1.0
27.548633575439453,-16.647254943847656,0.4204850196838379,-0.0,-0.0,-1.0,0.1404734760360842,1.0,1.0
27.36128616333008,-16.708271026611328,0.4451651573181152,-0.0,-0.0,-1.0,0.1291740930100141,2.0,1.0
26.728111267089844,-16.72465705871582,0.5389256477355957,0.300153624651815,0.8280678226347494,0.473509749345589,0.1144572977312769,3.0,1.0
26.85609436035156,-16.1392822265625,0.5570056438446045,-0.0,-0.0,-1.0,0.1245101887584469,1.0,1.0
25.936267852783203,-14.48123550415039,0.3811230659484863,-0.0,-0.0,-1.0,0.0217057445419061,2.0,1.0
25.236339569091797,-14.72791862487793,0.4352030754089355,-0.0,-0.0,-1.0,0.0586829463010872,1.0,1.0
25.495155334472656,-14.490970611572266,0.4327888488769531,-0.3403378073608564,0.1203212409733249,-0.9325733085669156,0.036496341031989,5.0,1.0
26.639507293701172,-16.824798583984375,0.6820306777954102,-0.7846507265883929,0.5503801658112565,0.2853154576006731,0.1345062136457196,5.0,1.0
27.55921745300293,-15.834196090698242,0.2284214496612548,-0.0,-0.0,-1.0,0.0546130806801346,2.0,1.0
26.94410514831543,-15.365345001220703,0.3186707496643066,-0.0,-0.0,-1.0,0.0866459052013281,1.0,1.0
26.38640785217285,-15.692831039428713,0.3267834186553955,-0.0,-0.0,-1.0,0.0362631197664249,1.0,1.0
26.379281997680664,-15.313926696777344,0.364492654800415,-0.0,-0.0,-1.0,0.1358414219528702,1.0,1.0
26.351112365722656,-14.97830581665039,0.3992421627044678,-0.0,-0.0,-1.0,0.1156548330270101,1.0,1.0
25.52708625793457,-16.792469024658203,0.2729780673980713,-0.0,-0.0,-1.0,0.0201003077459504,1.0,1.0
25.76404190063477,-16.21809959411621,0.3166851997375488,-0.0,-0.0,-1.0,0.0591299788055554,1.0,1.0
25.63807487487793,-15.915653228759766,0.3559010028839111,-0.0,-0.0,-1.0,0.073781913614291,1.0,1.0
25.750349044799805,-15.430713653564451,0.3971641063690185,0.5523575914010492,-0.6572672693166289,-0.5127385570704563,0.0404775004197644,6.0,1.0
25.86595916748047,-15.360687255859377,0.3961489200592041,-0.0,-0.0,-1.0,0.0325112415862064,2.0,1.0
25.28240966796875,-16.840993881225586,0.2834730148315429,-0.0,-0.0,-1.0,0.0154646615148865,1.0,1.0
25.394744873046875,-16.17979621887207,0.3449928760528564,-0.2035168692073226,0.1942990872985949,-0.9595982224988658,0.0214735041139647,3.0,1.0
25.479711532592773,-16.08077049255371,0.3495798110961914,-0.0,-0.0,-1.0,0.0333637830066325,2.0,1.0
26.945653915405273,-16.658037185668945,0.3987271785736084,0.7460117163373924,0.3533081848515914,-0.5644819267294672,0.0843320609428179,3.0,1.0
27.02169418334961,-15.51799201965332,0.4265499114990234,-0.5166471499651912,0.4538312963790763,-0.7260253968421021,0.2350673746589686,4.0,1.0
27.636547088623047,-16.611783981323242,0.3522933721542358,-0.0,-0.0,-1.0,0.1947356514334762,2.0,1.0
27.37912368774414,-16.79767417907715,0.3329648971557617,-0.0,-0.0,-1.0,0.0903861758586362,2.0,1.0
26.419906616210938,-16.619958877563477,0.4250227212905884,-0.0,-0.0,-1.0,0.1609536666173671,1.0,1.0
26.538368225097656,-15.549497604370115,0.4492732286453247,-0.0,-0.0,-1.0,0.0703085981966351,1.0,1.0
27.03876495361328,-16.5003719329834,0.3734135627746582,-0.0,-0.0,-1.0,0.1036064870655786,1.0,1.0
27.20327377319336,-16.630090713500977,0.3543319702148437,-0.0,-0.0,-1.0,0.0862735690231092,2.0,1.0
25.743730545043945,-15.581014633178713,0.4594247341156006,0.7311087489941305,-0.65195450348708,-0.2010853612950294,0.1520430461219744,4.0,1.0
26.93805694580078,-15.540338516235352,0.3699609041213989,0.1432513890643866,-0.5611908191048232,-0.8151956231994752,0.127343971546427,3.0,1.0
27.515003204345703,-16.371435165405273,0.2906439304351806,-0.0,-0.0,-1.0,0.0494550403637493,1.0,1.0
27.05212783813477,-15.482053756713867,0.3634681701660156,0.5731429032069114,-0.6361029445085737,-0.5166045455578913,0.2131870472760468,3.0,1.0
27.208581924438477,-15.62465476989746,0.3453609943389892,-0.0,-0.0,-1.0,0.2227365248382506,2.0,1.0
27.62730407714844,-14.847997665405272,0.1650307178497314,-0.0,-0.0,-1.0,0.042410278642678,2.0,1.0
26.644428253173828,-16.744596481323242,0.5434529781341553,-0.0,-0.0,-1.0,0.1005797489062245,1.0,1.0
26.5667667388916,-16.742359161376953,0.4831466674804687,-0.0,-0.0,-1.0,0.1082593223457985,1.0,1.0
26.670700073242188,-16.682880401611328,0.4814381599426269,-0.0,-0.0,-1.0,0.1153191737985335,1.0,1.0
27.7005558013916,-14.748126983642578,0.0934755802154541,-0.0,-0.0,-1.0,0.0126311007311046,1.0,1.0
27.490907669067383,-14.524114608764648,0.1187288761138916,-0.0,-0.0,-1.0,0.0198961831104819,1.0,1.0
27.46449279785156,-15.580699920654297,0.1816720962524414,0.6141527076263088,-0.0196198224156246,-0.7889432896499297,0.0406707499745453,3.0,1.0
27.63524055480957,-15.607986450195312,0.1709132194519043,-0.0,-0.0,-1.0,0.0166877699447888,2.0,1.0
27.296520233154297,-15.522224426269531,0.1941099166870117,0.1917279444952622,0.1384339443545953,-0.971635959786406,0.0470029624119271,4.0,1.0
27.57343864440918,-16.435462951660156,0.2854576110839844,-0.0,-0.0,-1.0,0.1251764707877128,2.0,1.0
27.280933380126953,-16.38405990600586,0.3016126155853271,-0.0,-0.0,-1.0,0.1080896385955123,1.0,1.0
27.566696166992188,-16.348297119140625,0.2910001277923584,-0.0,-0.0,-1.0,0.0799986145980774,1.0,1.0
27.112621307373047,-15.57540512084961,0.3572099208831787,-0.7664292205942921,0.6272373473498987,-0.1384180620753231,0.1930357920623635,3.0,1.0
26.89194107055664,-15.549667358398438,0.368279218673706,-0.0,-0.0,-1.0,0.1537202684035252,2.0,1.0
27.432941436767575,-16.211841583251953,0.3231008052825928,-0.0,-0.0,-1.0,0.1136249946900092,1.0,1.0
26.68705368041992,-15.444252014160156,0.4022412300109863,-0.0,-0.0,-1.0,0.1257693200604882,2.0,1.0
27.07803726196289,-15.47488021850586,0.3833802938461303,-0.0,-0.0,-1.0,0.2461558630834658,2.0,1.0
27.517763137817383,-15.979238510131836,0.2650035619735718,-0.0,-0.0,-1.0,0.0482426473230003,1.0,1.0
27.2579402923584,-15.701444625854492,0.2831569910049438,0.1851446294903137,0.6606432126865683,-0.7275108327042724,0.1541537274302372,3.0,1.0
27.34971809387207,-15.951879501342772,0.271452784538269,-0.0,-0.0,-1.0,0.0601465693476691,1.0,1.0
27.1682071685791,-15.508995056152344,0.2927396297454834,-0.0,-0.0,-1.0,0.1234792041076879,1.0,1.0
27.062435150146484,-14.401113510131836,0.3346763849258423,-0.4695186448061006,-0.8828622177993051,0.0103221394068995,0.2246437948922289,3.0,1.0
26.612396240234375,-16.839824676513672,0.7286689281463623,0.1190892552112584,0.7926390752459276,0.5979473602972997,0.1394368810079211,5.0,1.0
27.57079315185547,-16.198291778564453,0.200326919555664,-0.0,-0.0,-1.0,0.0694233630667131,1.0,1.0
27.518230438232425,-15.770086288452148,0.2142113447189331,-0.0,-0.0,-1.0,0.0518989111821617,1.0,1.0
27.627716064453125,-15.84316635131836,0.2120424509048462,0.5273666229737051,-0.4209468786808635,-0.7380299250722485,0.0518701200511576,3.0,1.0
26.799009323120117,-15.21196174621582,0.2303483486175537,-0.0,-0.0,-1.0,0.0633616652482857,1.0,1.0
26.99641990661621,-15.504581451416016,0.2215445041656494,-0.0,-0.0,-1.0,0.1104807841562762,1.0,1.0
27.510704040527344,-15.548051834106444,0.2214134931564331,-0.0,-0.0,-1.0,0.1895427533952461,2.0,1.0
26.65384864807129,-14.957382202148438,0.2379579544067382,-0.0,-0.0,-1.0,0.0577722803166943,1.0,1.0
26.485897064208984,-14.727346420288086,0.2446304559707641,-0.0,-0.0,-1.0,0.0442395383758549,1.0,1.0
26.230953216552734,-16.404006958007812,0.5989047288894653,-0.0,-0.0,-1.0,0.0639901826817478,1.0,1.0
25.39196014404297,-15.077306747436523,0.4214646816253662,-0.0,-0.0,-1.0,0.0631889920048562,2.0,1.0
25.920320510864254,-15.488460540771484,0.4168320894241333,-0.0,-0.0,-1.0,0.0503911858934535,2.0,1.0
27.03791618347168,-16.640180587768555,0.397945761680603,-0.0,-0.0,-1.0,0.0543637636527347,1.0,1.0
26.72100257873535,-15.152267456054688,0.432004451751709,0.9523380018818408,-0.0257757127098489,0.3039538497963177,0.1201254527599413,3.0,1.0
27.239500045776367,-15.551910400390623,0.4265984296798706,-0.9075795282147464,0.3060618439913818,-0.2874465995938954,0.184229459402743,3.0,1.0
26.48204803466797,-16.82368278503418,0.5874493718147278,-0.0,-0.0,-1.0,0.0196383549923573,1.0,1.0
26.84855842590332,-16.667821884155273,0.4873471260070801,-0.1022403828892267,0.3793576173164017,-0.9195839832721572,0.0944794592697188,5.0,1.0
26.538253784179688,-16.786808013916016,0.5003629922866821,-0.0,-0.0,-1.0,0.0627062215014585,1.0,1.0
26.953163146972656,-16.63597869873047,0.4828359484672546,-0.0,-0.0,-1.0,0.0920208641693676,1.0,1.0
25.2620906829834,-15.021444320678713,0.4856982231140136,-0.0,-0.0,-1.0,0.0676424713872188,1.0,1.0
27.315696716308594,-15.53018569946289,0.3591196537017822,-0.0,-0.0,-1.0,0.212644156331546,1.0,1.0
26.681493759155273,-16.795442581176758,0.3716180324554443,-0.0,-0.0,-1.0,0.1126005937416324,1.0,1.0
25.268789291381836,-14.967656135559082,0.4576687812805176,-0.0,-0.0,-1.0,0.0522298270526495,1.0,1.0
26.198286056518555,-14.772177696228027,0.3781142234802246,-0.0,-0.0,-1.0,0.0318466164397472,2.0,1.0
26.422216415405273,-14.886006355285645,0.3571547269821167,-0.0,-0.0,-1.0,0.119084487202966,1.0,1.0
26.787906646728516,-16.693538665771484,0.4936511516571045,-0.0471052134823913,-0.2439251309808982,-0.9686493841110572,0.1162629884868507,5.0,1.0
26.944847106933594,-15.965256690979004,0.5022997856140137,-0.0,-0.0,-1.0,0.2035687056995984,2.0,1.0
27.417814254760746,-16.056381225585938,0.2436879873275756,-0.0,-0.0,-1.0,0.0676778921072427,1.0,1.0
27.660917282104492,-15.97004222869873,0.2379150390625,-0.0,-0.0,-1.0,0.0362387849669384,2.0,1.0
26.995681762695312,-15.384894371032717,0.2799834012985229,-0.0,-0.0,-1.0,0.1095110494078312,2.0,1.0
27.690874099731445,-15.792580604553224,0.2426000833511352,-0.0,-0.0,-1.0,0.0343136663863842,2.0,1.0
27.394676208496097,-15.941596031188965,0.1214038133621215,-0.0,-0.0,-1.0,0.0489942551565259,1.0,1.0
27.575523376464844,-15.927359580993652,0.1468045711517334,-0.0,-0.0,-1.0,0.0439060414255262,1.0,1.0
27.329336166381836,-16.435291290283203,0.3153018951416015,-0.0,-0.0,-1.0,0.1269221648137547,1.0,1.0
27.537818908691406,-16.51325225830078,0.3077608346939087,0.3212042316694548,-0.8896532215425256,0.3245689248166574,0.1637126506054101,3.0,1.0
27.246992111206055,-16.148941040039062,0.3275073766708374,-0.0,-0.0,-1.0,0.1115565231181846,2.0,1.0
27.601789474487305,-16.281444549560547,0.3147343397140503,-0.0,-0.0,-1.0,0.0867516300293446,1.0,1.0
26.96028709411621,-15.515259742736816,0.3566027879714966,-0.0,-0.0,-1.0,0.1696853669202431,2.0,1.0
27.133487701416016,-15.551135063171388,0.3516504764556885,-0.7664292205942921,0.6272373473498987,-0.1384180620753231,0.2257229246576191,3.0,1.0
25.72679901123047,-14.66733455657959,0.4100956916809082,-0.0,-0.0,-1.0,0.023795776460967,1.0,1.0
26.01492500305176,-14.778508186340332,0.4012609720230102,-0.0,-0.0,-1.0,0.0403036112149915,2.0,1.0
25.377735137939453,-14.36943531036377,0.4262353181838989,0.8290872268050207,-0.0359142167269049,-0.5579646399061983,0.0962210655556809,4.0,1.0
25.535573959350582,-14.488314628601074,0.4195798635482788,-0.4333792127702532,0.1881429891966449,-0.8813538866736714,0.0328360380540291,4.0,1.0
27.6749210357666,-16.318828582763672,0.2800912857055664,-0.0,-0.0,-1.0,0.0940001179314539,1.0,1.0
27.293258666992188,-16.086780548095703,0.2929683923721313,-0.0,-0.0,-1.0,0.0924622689809002,1.0,1.0
27.512950897216797,-16.13681411743164,0.2888692617416382,-0.0,-0.0,-1.0,0.0600754792855575,1.0,1.0
26.922901153564453,-15.431023597717283,0.3215504884719848,-0.0,-0.0,-1.0,0.1359812505813449,2.0,1.0
27.129194259643555,-15.564539909362791,0.3146798610687256,-0.7664292205942921,0.6272373473498987,-0.1384180620753231,0.1706948977120879,3.0,1.0
26.764862060546875,-15.283570289611816,0.3284511566162109,-0.0,-0.0,-1.0,0.1343484866378309,1.0,1.0
25.849164962768555,-14.468422889709473,0.3647146224975586,-0.0,-0.0,-1.0,0.0143450800482276,1.0,1.0
26.70869255065918,-14.476353645324709,0.3598777055740356,-0.0,-0.0,-1.0,0.1316268934831271,2.0,1.0
27.36585998535156,-15.893860816955566,0.2736177444458008,-0.0,-0.0,-1.0,0.0408791115781424,2.0,1.0
27.688451766967773,-15.8556489944458,0.2712258100509643,-0.8349518173741393,-0.3922600047076908,-0.3859890560240593,0.0301125493780918,3.0,1.0
27.124717712402344,-15.449969291687012,0.2941272258758545,-0.0,-0.0,-1.0,0.1765365862035525,1.0,1.0
27.094776153564453,-14.6030912399292,0.3283058404922485,-0.7745628532130536,-0.4680363132127416,0.4254343614903225,0.1170334827225297,3.0,1.0
27.244293212890625,-14.76245403289795,0.1779960393905639,-0.0,-0.0,-1.0,0.0522576135421739,2.0,1.0
27.401752471923828,-15.056941032409668,0.1654461622238159,-0.0,-0.0,-1.0,0.0795240773131502,1.0,1.0
27.114192962646484,-14.567811012268066,0.1860953569412231,-0.0,-0.0,-1.0,0.1047157028153794,1.0,1.0
27.691631317138672,-14.723370552062988,0.1807773113250732,-0.0,-0.0,-1.0,0.0429699059728058,1.0,1.0
27.683717727661133,-15.557186126708984,0.1954720020294189,-0.0,-0.0,-1.0,0.094666982515576,1.0,1.0
26.627033233642575,-16.847009658813477,0.7031862735748291,0.3210418578545196,0.7390393940848048,0.5922439526884871,0.1337279207369773,7.0,1.0
26.7500057220459,-16.80170249938965,0.7052397727966309,-0.0,-0.0,-1.0,0.1065075753656501,2.0,1.0
26.708702087402344,-16.826984405517578,0.705196738243103,-0.0,-0.0,-1.0,0.1111204330996097,2.0,1.0
26.626453399658203,-16.83611297607422,0.6539209485054016,-0.3224657061307219,0.7973101247507645,0.5102082254722433,0.1016582917418267,4.0,1.0
25.28009796142578,-15.082738876342772,0.5174577236175537,-0.0,-0.0,-1.0,0.0556190642289118,1.0,1.0
26.901283264160156,-16.508466720581055,0.4045940637588501,-0.0,-0.0,-1.0,0.1543411395114863,2.0,1.0
27.152549743652344,-15.526969909667969,0.4480418562889099,-0.0,-0.0,-1.0,0.185031393607998,1.0,1.0
27.070425033569336,-16.579570770263672,0.3963050842285156,-0.0,-0.0,-1.0,0.0478379386210684,1.0,1.0
27.22353744506836,-15.583625793457031,0.4432291984558105,-0.9075795282147464,0.3060618439913818,-0.2874465995938954,0.2090224359395961,3.0,1.0
27.58824920654297,-16.519302368164062,0.3849289417266845,-0.0,-0.0,-1.0,0.1173036326991522,1.0,1.0
26.26569175720215,-16.807069778442383,0.5215859413146973,-0.0,-0.0,-1.0,0.1682839535270904,1.0,1.0
26.353666305541992,-16.832799911499023,0.5173869729042053,-0.2486888056846516,-0.3603804518792263,-0.8990438297605216,0.0520125047290563,4.0,1.0
26.874996185302734,-15.975214004516602,0.541926383972168,-0.0,-0.0,-1.0,0.1617711443792162,2.0,1.0
26.80944442749023,-16.71587371826172,0.5077122449874878,-0.1104752711966223,-0.2816786920558725,-0.9531276561383192,0.1360796845706772,5.0,1.0
26.761802673339844,-16.6666316986084,0.5006639361381531,0.7236491070142377,0.6267103764319145,0.2890779721633327,0.097598275516934,3.0,1.0
26.878246307373047,-15.982351303100586,0.530846118927002,-0.0,-0.0,-1.0,0.2030903896840298,2.0,1.0
25.258142471313477,-15.06256103515625,0.4413096904754638,-0.0,-0.0,-1.0,0.0700258539832976,2.0,1.0
25.64141273498535,-15.526651382446287,0.4125193357467651,-0.0,-0.0,-1.0,0.0860279736014229,2.0,1.0
25.382652282714844,-15.762365341186523,0.4039986133575439,-0.0,-0.0,-1.0,0.0386703323521814,1.0,1.0
25.721431732177734,-16.01712417602539,0.3860993385314941,-0.0,-0.0,-1.0,0.051707683754944,2.0,1.0
25.839094161987305,-15.444448471069336,0.4139767289161682,0.3074920688727929,0.33199804031215,-0.8917544105914036,0.0636016094693327,4.0,1.0
25.808029174804688,-16.027957916259766,0.3842762112617492,-0.0,-0.0,-1.0,0.1036773896081171,2.0,1.0
26.105953216552734,-16.68105697631836,0.3456791043281555,-0.0,-0.0,-1.0,0.1125872210149198,1.0,1.0
26.617002487182617,-15.3192138671875,0.409037172794342,-0.0,-0.0,-1.0,0.1630092684487511,2.0,1.0
26.73847198486328,-15.42836570739746,0.401458203792572,-0.0,-0.0,-1.0,0.1587726302599652,1.0,1.0
26.884361267089844,-16.493017196655273,0.3429095149040222,-0.0,-0.0,-1.0,0.0942426711932432,1.0,1.0
27.042701721191406,-15.537361145019531,0.390859305858612,-0.3511059249458692,-0.7915665007087136,-0.5001470827903202,0.2722682035095711,6.0,1.0
27.0306396484375,-16.402996063232422,0.3452162742614746,-0.3750774304519529,-0.6355060531779038,-0.6748696003968494,0.1313764702452797,3.0,1.0
27.259010314941406,-16.59072494506836,0.3312441110610962,-0.4164601671594766,0.496454955297147,-0.7616386325091503,0.1279868399170035,3.0,1.0
27.53459930419922,-16.5059757232666,0.330892264842987,0.3212042316694548,-0.8896532215425256,0.3245689248166574,0.1523117824941754,3.0,1.0
26.532665252685547,-15.14890480041504,0.4191930890083313,-0.1478450152104168,0.9083668997760038,-0.3911667507198983,0.1418630596226497,5.0,1.0
27.09221649169922,-15.526798248291016,0.3906382918357849,-0.4122895051127223,-0.8671027599146219,-0.2795535149525966,0.2317075154435992,3.0,1.0
27.231653213500977,-14.928485870361328,0.1776714324951172,-0.0,-0.0,-1.0,0.0564743878601043,1.0,1.0
27.37782287597656,-15.121793746948242,0.1657412052154541,-0.0,-0.0,-1.0,0.123247951706022,2.0,1.0
27.661285400390625,-15.016103744506836,0.1718207597732544,-0.1330852477708511,-0.4124756228415178,-0.9011948609414464,0.0749348522005072,3.0,1.0
27.09619140625,-14.811477661132812,0.1984539031982422,-0.0,-0.0,-1.0,0.0650635367137657,1.0,1.0
27.240489959716797,-15.110563278198242,0.1840302944183349,-0.0,-0.0,-1.0,0.0161414315361166,1.0,1.0
27.40428352355957,-15.251260757446287,0.1783961057662964,-0.0,-0.0,-1.0,0.0088765730558921,1.0,1.0
27.609031677246097,-15.135652542114258,0.1874455213546753,-0.0,-0.0,-1.0,0.0776668838962907,1.0,1.0
27.480907440185547,-14.581875801086426,0.1286910772323608,-0.0,-0.0,-1.0,0.0188382905448052,1.0,1.0
26.35778045654297,-16.819210052490234,0.5213965177536011,-0.2486888056846516,-0.3603804518792263,-0.8990438297605216,0.0520125047290564,4.0,1.0
26.73018455505371,-16.820152282714844,0.527417778968811,0.2010805185878024,0.9779921631922468,-0.0556592649880595,0.1050116378665128,5.0,1.0
26.833003997802734,-16.763463973999023,0.5296798944473267,0.4203197530828371,-0.5549318199863107,-0.717901093699587,0.0822936971378537,4.0,1.0
26.377750396728516,-16.804336547851562,0.5031396150588989,-0.2486888056846516,-0.3603804518792263,-0.8990438297605216,0.0545889801694521,4.0,1.0
26.844959259033203,-16.653608322143555,0.512484610080719,-0.0346692350549951,0.8261746362081214,-0.5623464364847348,0.07281770867424,4.0,1.0
26.945640563964844,-16.745351791381836,0.5086259841918945,0.3837993391631763,0.681225056797968,-0.6234023494088826,0.1712614966516955,3.0,1.0
27.29064178466797,-14.428617477416992,0.1192034482955932,-0.0,-0.0,-1.0,0.0543564148937561,2.0,1.0
27.585243225097656,-14.61025047302246,0.1132750511169433,-0.0,-0.0,-1.0,0.0136358319809179,1.0,1.0
26.374408721923828,-16.851991653442383,0.5800271034240723,-0.0,-0.0,-1.0,0.0451499879244398,2.0,1.0
27.3695125579834,-14.449193954467772,0.134459376335144,-0.0,-0.0,-1.0,0.0328431966174815,1.0,1.0
27.670738220214844,-14.698591232299805,0.1301051378250122,-0.0,-0.0,-1.0,0.0130936003765906,1.0,1.0
25.51608657836914,-14.446355819702148,0.4265242218971252,-0.6633226695585437,0.0557172377440458,-0.7462564073211704,0.0305165369353351,4.0,1.0
25.58924865722656,-14.69530963897705,0.4193751215934753,0.1374712266360973,-0.7758782557558666,-0.6157228224553652,0.02050244550787,3.0,1.0
25.30137634277344,-14.99264907836914,0.3979087471961975,-0.0,-0.0,-1.0,0.0720646235756856,1.0,1.0
26.582279205322266,-15.099899291992188,0.4358635544776916,-0.1392866564239777,0.2126364600024614,-0.9671530195475015,0.1304177256170574,3.0,1.0
26.092708587646484,-15.422110557556152,0.4069530963897705,-0.0,-0.0,-1.0,0.033419349121415,2.0,1.0
25.814598083496097,-15.568962097167969,0.391961395740509,-0.0489242213535172,-0.9256481838750394,-0.3752090887142701,0.1473357744994507,3.0,1.0
27.094432830810547,-15.541565895080566,0.4331750273704529,-0.4122895051127223,-0.8671027599146219,-0.2795535149525966,0.2263561181045776,3.0,1.0
27.162626266479492,-15.741562843322754,0.4266182780265808,-0.0,-0.0,-1.0,0.1840211980988722,2.0,1.0
26.833118438720703,-16.175067901611328,0.3981585502624511,-0.0,-0.0,-1.0,0.1247860996032625,1.0,1.0
27.2155704498291,-16.069589614868164,0.4139684438705444,-0.9013928356547805,-0.001160893079184,-0.433000702259815,0.0967172600018569,4.0,1.0
26.817285537719727,-16.573139190673828,0.3804227709770202,-0.2757533380895677,0.8646804424197247,0.4198664418946681,0.1227558021107779,4.0,1.0
27.681617736816406,-16.503948211669922,0.4079487919807434,-0.0,-0.0,-1.0,0.1180452662412914,1.0,1.0
27.079498291015625,-16.68962860107422,0.3828496932983398,-0.0,-0.0,-1.0,0.0353775864022873,1.0,1.0
27.034015655517575,-16.71484375,0.3804301023483276,-0.0,-0.0,-1.0,0.0719840075319885,2.0,1.0
25.216808319091797,-15.076784133911133,0.4860932826995849,-0.0,-0.0,-1.0,0.0702525546934183,1.0,1.0
25.739303588867188,-15.590354919433594,0.4824321269989013,-0.982847018302966,0.0126208259570493,-0.1839903621528345,0.1457507984750652,3.0,1.0
26.988521575927734,-15.979413986206056,0.5003713965415955,-0.3646888593994906,-0.7642780188780927,-0.5318657214839817,0.1396550648081229,5.0,1.0
26.878429412841797,-16.716922760009766,0.4683205485343933,-0.2386607390864305,0.7371183251218665,-0.6322164395112275,0.1075775282466469,5.0,1.0
26.22491455078125,-16.83452033996582,0.4477223753929138,-0.0,-0.0,-1.0,0.1048839059786098,1.0,1.0
26.984107971191406,-14.505218505859377,0.3904928565025329,-0.0,-0.0,-1.0,0.1780289170545529,1.0,1.0
25.97168731689453,-14.610255241394045,0.3710125088691711,-0.0,-0.0,-1.0,0.0308873386290736,1.0,1.0
25.795467376708984,-14.57611083984375,0.3720125555992126,-0.0,-0.0,-1.0,0.0198758499546191,1.0,1.0
26.06972885131836,-14.859848976135254,0.3555023670196533,-0.0,-0.0,-1.0,0.0358913157809852,1.0,1.0
25.622562408447266,-15.000226020812988,0.3448601961135864,-0.0,-0.0,-1.0,0.0362045606983889,1.0,1.0
26.7916316986084,-15.34524154663086,0.3233823776245117,-0.0,-0.0,-1.0,0.127030469552096,2.0,1.0
26.64729118347168,-15.211830139160156,0.333533763885498,-0.0,-0.0,-1.0,0.1506912032448798,2.0,1.0
26.20941162109375,-15.142136573791504,0.3373568654060364,0.7314514360013195,0.5558171214102237,-0.3950267387391141,0.0550188503397664,3.0,1.0
25.7862548828125,-15.219314575195312,0.3291568756103515,-0.0,-0.0,-1.0,0.0351629963814978,1.0,1.0
27.306529998779297,-15.702099800109863,0.2949276566505432,-0.0,-0.0,-1.0,0.128203762528307,2.0,1.0
26.942890167236328,-15.62292194366455,0.3012434244155884,-0.0,-0.0,-1.0,0.2425372153111155,1.0,1.0
26.228046417236328,-15.576289176940918,0.3034263849258423,-0.0,-0.0,-1.0,0.0285812951860722,1.0,1.0
25.861984252929688,-15.549054145812988,0.304058313369751,-0.0,-0.0,-1.0,0.0717473614291044,1.0,1.0
25.484455108642575,-15.560136795043944,0.3012121915817261,-0.0,-0.0,-1.0,0.0634808199001795,1.0,1.0
27.370256423950195,-16.02437400817871,0.2683061361312866,-0.0,-0.0,-1.0,0.0555285750298901,1.0,1.0
26.067201614379883,-15.898345947265623,0.2774549722671509,-0.0,-0.0,-1.0,0.0731954428424543,1.0,1.0
27.479999542236328,-16.377429962158203,0.2386059761047363,-0.0,-0.0,-1.0,0.0841639208671883,1.0,1.0
27.533626556396484,-16.589773178100586,0.2206594944000244,-0.0,-0.0,-1.0,0.133446687988727,1.0,1.0
27.028518676757812,-14.522494316101074,0.4894804954528808,-0.0,-0.0,-1.0,0.1129335652183032,1.0,1.0
26.945507049560547,-14.466768264770508,0.4887115955352783,-0.0,-0.0,-1.0,0.1409780079127639,1.0,1.0
25.72115707397461,-14.738007545471191,0.4320703148841858,-0.0,-0.0,-1.0,0.0282825065506279,1.0,1.0
26.77899169921875,-15.326273918151855,0.4471813440322876,-0.0,-0.0,-1.0,0.1426692612503801,1.0,1.0
26.18856430053711,-15.025437355041504,0.4378200769424438,-0.0,-0.0,-1.0,0.0452482211941025,1.0,1.0
25.899620056152344,-14.87884521484375,0.4330358505249023,-0.0,-0.0,-1.0,0.0323613690374988,1.0,1.0
27.29050064086914,-15.755815505981444,0.4478278160095215,-0.0,-0.0,-1.0,0.1171960638624453,1.0,1.0
26.08387756347656,-15.58644199371338,0.4109588861465454,-0.0,-0.0,-1.0,0.0338306301428802,1.0,1.0
25.782506942749023,-15.394638061523438,0.4076558351516723,-0.0,-0.0,-1.0,0.0378206812582647,2.0,1.0
27.3481388092041,-16.25079917907715,0.4291332960128784,-0.0,-0.0,-1.0,0.0630560640685174,2.0,1.0
26.51338577270508,-16.014907836914062,0.408976137638092,-0.0,-0.0,-1.0,0.0406075015493132,1.0,1.0
26.081607818603516,-15.850316047668455,0.4000164270401001,-0.0,-0.0,-1.0,0.0393278867472483,1.0,1.0
26.01823616027832,-16.156705856323242,0.3850549459457397,-0.0,-0.0,-1.0,0.0614050595812562,1.0,1.0
27.199756622314453,-16.844301223754883,0.3988697528839111,-0.0,-0.0,-1.0,0.0346671200209891,2.0,1.0
25.65627670288086,-14.64003849029541,0.4328030347824096,-0.2974093604105047,-0.5432244883420556,-0.7851463733634172,0.0258661065049594,4.0,1.0
26.460527420043945,-14.915770530700684,0.4289070963859558,-0.0,-0.0,-1.0,0.0970855685285937,1.0,1.0
26.016944885253903,-14.916175842285156,0.4218172430992126,-0.0,-0.0,-1.0,0.036616583206405,1.0,1.0
25.83621597290039,-14.75576877593994,0.4287004470825195,0.8111568021499084,0.4150702150179995,-0.4119967948065202,0.0328678494745152,3.0,1.0
26.569900512695312,-15.164212226867676,0.4153305888175964,0.1412951336801031,0.2907589427223277,-0.94630593489913,0.1802731036819478,7.0,1.0
26.098098754882812,-15.34013557434082,0.3971098661422729,-0.0,-0.0,-1.0,0.0287496383705142,1.0,1.0
26.978487014770508,-15.597887992858888,0.39473956823349,-0.0,-0.0,-1.0,0.2188472501197536,2.0,1.0
26.663665771484375,-15.483817100524902,0.3970447778701782,-0.0,-0.0,-1.0,0.1063051748274067,2.0,1.0
27.2031192779541,-16.098087310791016,0.3669428825378418,-0.0,-0.0,-1.0,0.0967172600018568,2.0,1.0
26.983455657958984,-16.207761764526367,0.3568892478942871,-0.0,-0.0,-1.0,0.0802230477057517,1.0,1.0
26.109111785888672,-16.00923728942871,0.3560526371002197,-0.0,-0.0,-1.0,0.0622542844999731,2.0,1.0
25.91722869873047,-16.070310592651367,0.3493170142173767,-0.0,-0.0,-1.0,0.0970061507108421,1.0,1.0
27.68966293334961,-16.51279640197754,0.3479224443435669,-0.0,-0.0,-1.0,0.1049726183373694,1.0,1.0
27.36478614807129,-16.53278160095215,0.3420863747596741,-0.0,-0.0,-1.0,0.1576125164243311,2.0,1.0
27.070173263549805,-16.425628662109375,0.3445568680763244,-0.0,-0.0,-1.0,0.0611929164504216,2.0,1.0
26.651752471923828,-14.46230697631836,0.2957931756973266,-0.0,-0.0,-1.0,0.0792672634112509,2.0,1.0
26.832353591918945,-15.03493881225586,0.2703462839126587,-0.0,-0.0,-1.0,0.0771135196645488,2.0,1.0
26.930021286010746,-15.268341064453123,0.2607206106185913,-0.0,-0.0,-1.0,0.0325885191792068,1.0,1.0
27.207740783691406,-15.591819763183594,0.253047227859497,-0.0,-0.0,-1.0,0.1197254742640292,1.0,1.0
27.064556121826172,-15.45535659790039,0.2552822828292846,-0.0,-0.0,-1.0,0.1117199712973921,1.0,1.0
27.39358139038086,-15.976312637329102,0.2372833490371704,-0.0,-0.0,-1.0,0.0496982142596588,1.0,1.0
27.682661056518555,-16.256763458251953,0.2315527200698852,-0.0,-0.0,-1.0,0.0770043718597372,1.0,1.0
26.286413192749023,-14.600324630737305,0.3581037521362304,-0.0,-0.0,-1.0,0.0614741130262532,1.0,1.0
25.979738235473633,-14.736620903015137,0.3413161039352417,-0.0,-0.0,-1.0,0.0372444606324035,2.0,1.0
26.32157325744629,-15.000173568725586,0.3310926556587219,-0.0,-0.0,-1.0,0.0899513172314895,1.0,1.0
26.595396041870117,-15.315522193908691,0.3149987459182739,-0.0,-0.0,-1.0,0.2299186994937279,2.0,1.0
27.027931213378903,-15.552567481994627,0.3070876002311706,-0.0,-0.0,-1.0,0.2061659820270005,1.0,1.0
26.80920028686523,-15.466963768005373,0.3087779879570007,-0.0,-0.0,-1.0,0.0821093397587529,2.0,1.0
27.181236267089844,-15.959566116333008,0.2806297540664673,-0.7885630715314025,0.3567711719403603,0.5008818354554919,0.0627271168776696,3.0,1.0
27.409759521484375,-16.195667266845703,0.2675608396530151,-0.0,-0.0,-1.0,0.1034903140094512,1.0,1.0
27.691307067871097,-16.475488662719727,0.2517848610877991,-0.0,-0.0,-1.0,0.1200629425194333,1.0,1.0
26.589927673339844,-16.834354400634766,0.7156565189361572,0.4082142578730198,0.784813968168272,0.4662919204073238,0.1255151946376446,4.0,1.0
27.410419464111328,-14.607772827148438,0.1319739818572998,-0.0,-0.0,-1.0,0.0198961831104819,1.0,1.0
27.614700317382812,-14.76474380493164,0.1152417659759521,-0.0,-0.0,-1.0,0.0135168807077743,1.0,1.0
26.409809112548828,-15.178878784179688,0.4932225942611694,-0.0,-0.0,-1.0,0.104797794179794,1.0,1.0
25.768047332763672,-15.782968521118164,0.4495662450790405,-0.0,-0.0,-1.0,0.0913441184262659,1.0,1.0
26.956321716308594,-15.560016632080078,0.4552650451660156,-0.2480828851835743,-0.4600954959215639,-0.8525063147635233,0.1570389441396509,4.0,1.0
26.650367736816406,-15.59861660003662,0.4556794166564941,-0.0,-0.0,-1.0,0.1123349593374703,1.0,1.0
26.241939544677734,-15.81784725189209,0.4419225454330444,0.808584718596046,0.5827225610827684,0.0813951451752026,0.0441732500113659,3.0,1.0
27.09566879272461,-15.74034595489502,0.4382222890853882,-0.0,-0.0,-1.0,0.146248586882996,2.0,1.0
25.97576904296875,-16.81747055053711,0.3613303899765014,-0.0,-0.0,-1.0,0.1134982234958782,1.0,1.0
27.132991790771484,-16.16498565673828,0.4016181230545044,-0.0,-0.0,-1.0,0.1639015791169739,1.0,1.0
26.78917694091797,-16.602596282958984,0.369088351726532,0.7380617078725276,-0.2446512511452774,-0.6288168896311056,0.1345451643135652,4.0,1.0
26.134868621826172,-16.753250122070312,0.3648234605789184,0.8072597347618008,0.0652664826129553,-0.5865765140880086,0.1269793275409755,3.0,1.0
27.23267364501953,-16.690771102905273,0.3550882339477539,-0.0,-0.0,-1.0,0.0891185787369186,2.0,1.0
26.974214553833008,-16.62965965270996,0.3641930818557739,-0.0,-0.0,-1.0,0.1114043983017528,2.0,1.0
27.505924224853516,-16.854421615600586,0.3366860151290893,-0.0,-0.0,-1.0,0.1010952702001604,1.0,1.0
26.70166015625,-14.604011535644531,0.2997593879699707,0.7039294172653343,0.498343207886181,-0.506100210098946,0.061252653230502,3.0,1.0
26.975257873535156,-14.907386779785156,0.268404483795166,-0.0,-0.0,-1.0,0.0355793135077807,1.0,1.0
26.97946548461914,-15.139522552490234,0.2416857481002807,-0.0,-0.0,-1.0,0.0293646836890387,2.0,1.0
27.159469604492188,-15.31044578552246,0.2217973470687866,-0.0,-0.0,-1.0,0.0301204093380135,2.0,1.0
27.48016357421875,-15.539993286132812,0.1928586959838867,0.6613516835218796,-0.0360792919482025,-0.7492077384779817,0.0922701104357735,4.0,1.0
27.340999603271484,-15.44716453552246,0.2050998210906982,-0.0,-0.0,-1.0,0.0469718469676044,2.0,1.0
26.925445556640625,-14.464298248291016,0.3177851438522339,-0.0,-0.0,-1.0,0.2085526278554088,2.0,1.0
27.083206176757812,-14.60651969909668,0.3034693002700805,-0.2404632455573671,-0.9615618188842022,0.1325756237025551,0.1413034148817532,4.0,1.0
26.92991828918457,-16.01822853088379,0.5505099296569824,-0.8953287114101974,0.3136523875289162,-0.3162414873509899,0.1851810635382835,4.0,1.0
26.898456573486328,-16.700498580932617,0.4893838167190552,-0.1475507795984115,0.3398245773508379,-0.9288423031215932,0.0936462979730606,6.0,1.0
26.81919860839844,-16.669116973876953,0.4941744804382324,0.4927779697669652,-0.467000284511865,-0.7342210884864208,0.1180811582349016,6.0,1.0
27.5042781829834,-14.501731872558594,0.0243549346923828,-0.0,-0.0,-1.0,0.0164498985126387,1.0,1.0
26.306716918945312,-14.597747802734377,0.2950600981712341,-0.0,-0.0,-1.0,0.0372596651329129,1.0,1.0
26.084638595581055,-14.646002769470217,0.2786829471588135,-0.0,-0.0,-1.0,0.0273915080023562,1.0,1.0
26.435941696166992,-14.92062282562256,0.2796276211738586,-0.0,-0.0,-1.0,0.1168523376439387,2.0,1.0
26.361053466796875,-14.973033905029297,0.2715606689453125,-0.0,-0.0,-1.0,0.1212317523327733,1.0,1.0
26.69998550415039,-15.311418533325195,0.266933262348175,-0.0,-0.0,-1.0,0.0632852098606888,1.0,1.0
26.45419692993164,-15.26462745666504,0.2561595439910888,-0.0,-0.0,-1.0,0.1240226382569652,2.0,1.0
27.177228927612305,-15.410633087158203,0.2818329334259033,-0.0,-0.0,-1.0,0.0520442803895955,2.0,1.0
26.814453125,-15.486641883850098,0.2609206438064575,-0.0,-0.0,-1.0,0.0874692976824429,1.0,1.0
27.43495750427246,-15.749519348144531,0.2723332643508911,-0.0,-0.0,-1.0,0.0558495442490192,1.0,1.0
27.59709358215332,-15.907872200012209,0.270203948020935,-0.0,-0.0,-1.0,0.0334104211511687,1.0,1.0
26.37707138061523,-16.832847595214844,0.5684040784835815,-0.9812404690700602,0.1793737006737984,0.0706556251529493,0.0507468970273614,3.0,1.0
25.4129695892334,-15.21677017211914,0.3448147773742676,-0.0,-0.0,-1.0,0.0749585139833339,2.0,1.0
25.867834091186523,-15.242291450500488,0.3212758302688598,-0.0,-0.0,-1.0,0.0267418707906619,1.0,1.0
25.524744033813477,-15.333664894104004,0.3231985569000244,-0.0,-0.0,-1.0,0.0493999723052598,1.0,1.0
26.90678024291992,-14.628307342529297,0.3604602813720703,-0.0,-0.0,-1.0,0.1489403127488297,1.0,1.0
26.18794822692871,-15.04592990875244,0.3351044654846191,-0.0,-0.0,-1.0,0.055042711727273,1.0,1.0
25.961910247802734,-14.981026649475098,0.355426549911499,-0.0,-0.0,-1.0,0.0280341505341426,1.0,1.0
27.004541397094727,-15.23666286468506,0.2600404024124145,-0.0,-0.0,-1.0,0.0410463603961561,1.0,1.0
26.688955307006836,-15.161731719970703,0.2906678915023803,-0.0,-0.0,-1.0,0.1132760587216247,1.0,1.0
26.31783676147461,-15.108047485351562,0.3191343545913696,-0.0,-0.0,-1.0,0.1050737451221139,1.0,1.0
27.462556838989254,-15.547322273254396,0.1793349981307983,0.6141527076263088,-0.0196198224156246,-0.7889432896499297,0.0938241130612809,3.0,1.0
27.203248977661133,-15.403083801269531,0.220625638961792,-0.0,-0.0,-1.0,0.0636020250001112,2.0,1.0
27.66892433166504,-15.587058067321776,0.1574366092681884,-0.0084818589405815,-0.5316961934639068,-0.8468926826492854,0.0166306410238336,3.0,1.0
27.326663970947266,-16.241546630859375,0.4579789638519287,-0.0,-0.0,-1.0,0.0830566944421204,2.0,1.0
27.33850860595703,-16.82219696044922,0.3811267018318176,-0.0,-0.0,-1.0,0.0880470497000201,2.0,1.0
27.168315887451172,-16.854907989501953,0.3922741413116455,0.0546195454493905,0.4054941765990575,-0.9124643434124722,0.0534410196151964,3.0,1.0
27.020517349243164,-14.586259841918944,0.0957705974578857,-0.0,-0.0,-1.0,0.167087354439547,1.0,1.0
25.819232940673828,-14.76692008972168,0.3840290307998657,0.8539025094673385,-0.4782506136159818,-0.205248276244453,0.0308458670740676,3.0,1.0
26.524457931518555,-15.174348831176758,0.3780347108840942,-0.5723512498899329,0.3648893557321057,-0.7343499198766482,0.2073779638787176,5.0,1.0
25.953346252441406,-15.069551467895508,0.36911141872406,-0.0,-0.0,-1.0,0.0278288662745911,1.0,1.0
25.755847930908203,-14.93447494506836,0.3713703751564026,-0.0,-0.0,-1.0,0.0250180621635774,1.0,1.0
25.83568000793457,-15.842615127563477,0.3150618076324463,-0.0,-0.0,-1.0,0.0757965797091964,1.0,1.0
26.002382278442383,-14.692432403564451,0.3948459029197693,-0.0,-0.0,-1.0,0.0379812865402751,2.0,1.0
25.66735076904297,-14.52834129333496,0.3930081725120544,-0.0,-0.0,-1.0,0.0185410797428983,2.0,1.0
26.49005699157715,-15.016254425048828,0.3879607915878296,0.477173835764963,-0.0352914384232653,-0.8781000198356499,0.0709450293450621,4.0,1.0
27.706636428833008,-15.746231079101562,0.1784719228744506,-0.0,-0.0,-1.0,0.0303567019981359,1.0,1.0
25.74723243713379,-15.526065826416016,0.3739821910858154,-0.0,-0.0,-1.0,0.1112199510698642,1.0,1.0
25.48433303833008,-15.791645050048828,0.3380259275436401,-0.0,-0.0,-1.0,0.0668867197917671,1.0,1.0
26.46051597595215,-14.877214431762695,0.2829365730285644,-0.0,-0.0,-1.0,0.099069164515016,2.0,1.0
26.397947311401367,-14.541389465332031,0.3039838671684265,-0.0,-0.0,-1.0,0.0588301165416334,1.0,1.0
25.831859588623047,-16.675580978393555,0.3412519693374634,-0.0,-0.0,-1.0,0.0814351449834193,1.0,1.0
25.758398056030273,-15.973766326904297,0.3917794227600097,-0.0,-0.0,-1.0,0.0810880204444717,2.0,1.0
25.644439697265625,-15.53133773803711,0.4251960515975952,-0.4887841988630391,-0.8497707826270838,-0.1974325807337052,0.0958307051425937,3.0,1.0
27.55974769592285,-16.50571060180664,0.3067312836647033,-0.7252815205008272,-0.0743598825502618,-0.684424812442623,0.1409011877485136,4.0,1.0
27.64760971069336,-16.463199615478516,0.3005781769752502,0.426069327473093,-0.8924938041517192,-0.1480531584851154,0.1021323233700093,3.0,1.0
25.906179428100582,-14.752671241760254,0.4001189470291137,-0.0,-0.0,-1.0,0.0364188285002715,2.0,1.0
26.199934005737305,-14.884886741638184,0.3773470520973205,-0.0,-0.0,-1.0,0.0549959276702538,1.0,1.0
27.678150177001953,-16.051616668701172,0.2503581047058105,-0.0,-0.0,-1.0,0.055338336860846,1.0,1.0
26.29422950744629,-14.908635139465332,0.370400071144104,-0.0,-0.0,-1.0,0.0910826377040462,2.0,1.0
26.827144622802734,-16.610675811767578,0.4116846323013305,0.608080248295146,-0.2524400114473923,-0.752670214804435,0.1381714206114545,4.0,1.0
27.028717041015625,-16.697669982910156,0.3959407210350036,-0.0,-0.0,-1.0,0.0776767764012775,2.0,1.0
27.466083526611328,-16.585474014282227,0.3674003481864929,-0.0,-0.0,-1.0,0.2422145471212782,1.0,1.0
27.00996208190918,-15.545948028564451,0.4197651147842407,-0.6026270634116038,-0.5244200801476425,-0.6015182474221767,0.1924041301841739,5.0,1.0
26.60237693786621,-16.276779174804688,0.428935706615448,-0.0,-0.0,-1.0,0.0695138823356066,1.0,1.0
27.44818115234375,-15.529593467712402,0.4469277858734131,-0.0,-0.0,-1.0,0.1441501567326112,1.0,1.0
