x,y,z,nx,ny,nz,curvature,density,label
35.35174560546875,-27.340576171875,0.6192675232887268,-0.0,-0.0,-1.0,0.0258310839864514,1.0,1.0
35.563453674316406,-27.19103622436523,0.6203943490982056,-0.0,-0.0,-1.0,0.0257775115788714,1.0,1.0
35.786705017089844,-27.028255462646484,0.6216837763786316,-0.0,-0.0,-1.0,0.0519537859396003,1.0,1.0
36.24991226196289,-27.069904327392575,0.616077721118927,-0.0,-0.0,-1.0,0.046731041445206,1.0,1.0
36.275177001953125,-28.326107025146484,0.5884420871734619,-0.0,-0.0,-1.0,0.0313105540486728,1.0,1.0
36.723087310791016,-27.724353790283203,0.5969018340110779,-0.0,-0.0,-1.0,0.0146321864665153,1.0,1.0
36.855587005615234,-28.05559539794922,0.5882635116577148,-0.0,-0.0,-1.0,0.024233597401257,1.0,1.0
36.91865539550781,-28.33955764770508,0.5813775062561035,-0.0,-0.0,-1.0,0.0259869578656008,1.0,1.0
37.65222930908203,-27.110050201416016,0.6004869937896729,0.2390591590483074,-0.7045656945412615,-0.6681600860203383,0.029109385230545,3.0,1.0
37.400596618652344,-27.392498016357425,0.5969904661178589,-0.0,-0.0,-1.0,0.024428338564336,1.0,1.0
37.68559646606445,-26.925071716308594,0.7107362151145935,-0.0,-0.0,-1.0,0.0270535376168255,1.0,1.0
35.387611389160156,-28.334503173828125,0.936267614364624,-0.0,-0.0,-1.0,0.1362778155974777,1.0,1.0
36.26802062988281,-29.024303436279297,0.6984388828277588,-0.2929997556979397,0.1380464719271109,-0.9460942420020456,0.0104426961450574,3.0,1.0
37.4769172668457,-29.14611434936523,0.6779123544692993,0.0094006963517553,-0.3618903886066428,-0.9321732529644025,0.1421356777707648,3.0,1.0
37.132225036621094,-28.95767593383789,0.6862963438034058,-0.0,-0.0,-1.0,0.0413916340052752,1.0,1.0
37.33106231689453,-28.89651107788086,0.6840568780899048,-0.0,-0.0,-1.0,0.08846913121932,1.0,1.0
36.00254821777344,-28.62765884399414,0.7083094120025635,-0.0,-0.0,-1.0,0.1336350326028407,1.0,1.0
37.704071044921875,-28.473831176757812,0.6843602657318115,-0.9132221963253482,-0.384763208374541,-0.1340988203528911,0.0556834356569438,3.0,1.0
37.02896881103515,-27.066211700439453,0.5591628551483154,-0.0,-0.0,-1.0,0.0225916100719538,1.0,1.0
37.15394592285156,-26.940486907958984,0.5608702898025513,-0.0,-0.0,-1.0,0.019627426229945,1.0,1.0
37.4069938659668,-26.937515258789062,0.5593131184577942,-0.0,-0.0,-1.0,0.0256874980538953,1.0,1.0
37.07958984375,-27.722665786743164,0.5618886947631836,-0.0,-0.0,-1.0,0.0166425942841613,1.0,1.0
37.26835632324219,-27.052289962768555,0.5756422281265259,-0.0,-0.0,-1.0,0.0224982413276834,1.0,1.0
37.4567756652832,-27.018911361694336,0.5769180059432983,-0.0,-0.0,-1.0,0.0260213235640041,1.0,1.0
37.57633972167969,-27.02948570251465,0.5770969390869141,-0.0,-0.0,-1.0,0.0270535376168255,1.0,1.0
37.557823181152344,-26.863502502441406,0.5143370628356934,-0.0,-0.0,-1.0,0.0260213235640041,1.0,1.0
35.99348068237305,-27.296152114868164,0.6940732002258301,-0.4032596213781781,0.1196482615274462,-0.9072298337683724,0.0951178754437504,4.0,1.0
36.1750373840332,-28.412561416625977,0.6619921922683716,-0.0,-0.0,-1.0,0.1154005813426992,1.0,1.0
36.33749771118164,-28.82245445251465,0.6456001996994019,-0.0,-0.0,-1.0,0.0366713015851014,1.0,1.0
36.672340393066406,-28.215452194213867,0.6421735286712646,-0.0,-0.0,-1.0,0.0269056837010264,1.0,1.0
36.46506118774414,-28.795072555541992,0.6400313377380371,-0.0,-0.0,-1.0,0.0345308466563175,2.0,1.0
36.986061096191406,-28.085317611694336,0.6297327280044556,-0.0,-0.0,-1.0,0.0259058532078967,2.0,1.0
36.84865188598633,-28.62428092956543,0.6250919699668884,-0.0,-0.0,-1.0,0.0250292264793076,2.0,1.0
37.36708450317383,-27.23923683166504,0.6289732456207275,-0.0,-0.0,-1.0,0.0268512066229812,2.0,1.0
37.176307678222656,-27.794687271118164,0.626599133014679,-0.0,-0.0,-1.0,0.0201865991736257,1.0,1.0
37.54902267456055,-27.135568618774418,0.6222926378250122,-0.0,-0.0,-1.0,0.0282332129075501,1.0,1.0
35.85956954956055,-29.108293533325195,0.6914379596710205,-0.0,-0.0,-1.0,0.0118423940753352,2.0,1.0
35.830650329589844,-27.408140182495117,0.7260431051254272,-0.0,-0.0,-1.0,0.068146203824629,2.0,1.0
36.07882308959961,-28.512964248657227,0.6907636523246765,-0.8817368364417811,-0.224350802584448,-0.4149781544146074,0.1292149862599885,4.0,1.0
36.624942779541016,-28.31376838684082,0.6640728712081909,-0.0,-0.0,-1.0,0.0239291201472617,2.0,1.0
36.36470031738281,-28.8883113861084,0.6674961447715759,-0.0,-0.0,-1.0,0.0366737061166359,1.0,1.0
36.93621444702149,-28.20793342590332,0.6486433148384094,-0.0,-0.0,-1.0,0.0325804801120711,1.0,1.0
37.25009536743164,-27.509519577026367,0.644536018371582,-0.0,-0.0,-1.0,0.0842894008002051,2.0,1.0
37.12079620361328,-28.039152145385746,0.6415326595306396,-0.0,-0.0,-1.0,0.0204271101174821,2.0,1.0
37.548553466796875,-27.368383407592773,0.6304174661636353,-0.0,-0.0,-1.0,0.0159718498949772,1.0,1.0
36.021400451660156,-28.572010040283203,0.7107139825820923,-0.0,-0.0,-1.0,0.1329374967309341,1.0,1.0
35.85348892211914,-29.349185943603516,0.7039101719856262,-0.0,-0.0,-1.0,0.0072977695207915,2.0,1.0
36.140625,-28.564788818359375,0.704920768737793,-0.0,-0.0,-1.0,0.160364272268273,2.0,1.0
36.364959716796875,-29.076953887939453,0.6837441921234131,-0.0,-0.0,-1.0,0.0151926728573839,1.0,1.0
36.226837158203125,-29.29833221435547,0.6863183975219727,-0.0,-0.0,-1.0,0.0095112004249953,2.0,1.0
36.63776016235352,-28.312419891357425,0.685022234916687,-0.0,-0.0,-1.0,0.0247574300238544,2.0,1.0
36.85224914550781,-28.912757873535156,0.6625572443008423,0.9207210898750312,-0.3892273687136507,0.0278339739092782,0.0428601321488959,3.0,1.0
36.985836029052734,-28.28284072875977,0.6681455373764038,-0.0163854176320958,0.9011088007662164,0.433283333709817,0.0301100841198651,3.0,1.0
37.20521926879883,-28.920101165771484,0.6446690559387207,-0.0,-0.0,-1.0,0.0654100572810313,2.0,1.0
37.695167541503906,-28.415023803710938,0.6298008561134338,-0.0,-0.0,-1.0,0.050931396461134,1.0,1.0
37.50452423095703,-28.919597625732425,0.6295855045318604,-0.0,-0.0,-1.0,0.061490842501273,1.0,1.0
36.96971130371094,-26.969974517822266,0.5465380549430847,-0.0,-0.0,-1.0,0.0316552905659755,2.0,1.0
37.24818801879883,-26.88319969177246,0.5371662378311157,-0.0,-0.0,-1.0,0.0095926796834878,1.0,1.0
37.674049377441406,-26.926137924194336,0.518446683883667,-0.0,-0.0,-1.0,0.0257651149490502,1.0,1.0
36.23248672485352,-27.685239791870117,1.0552024841308594,-0.0,-0.0,-1.0,0.242795414585959,1.0,2.0
35.631690979003906,-28.37820625305176,0.7496969699859619,-0.0,-0.0,-1.0,0.2175647360930493,1.0,1.0
36.18277359008789,-27.584165573120117,0.7537581920623779,-0.0,-0.0,-1.0,0.1782172834116733,1.0,1.0
37.126853942871094,-27.258440017700195,0.7366471290588379,-0.0,-0.0,-1.0,0.1307317929691746,1.0,1.0
36.115760803222656,-29.27311134338379,0.7168378829956055,-0.0,-0.0,-1.0,0.0091900275566655,2.0,1.0
36.74232864379883,-28.775606155395508,0.7119611501693726,-0.0,-0.0,-1.0,0.0352111577039223,1.0,1.0
36.26185989379883,-29.291431427001953,0.7126439809799194,-0.0,-0.0,-1.0,0.0106721262083937,2.0,1.0
36.95588684082031,-28.925661087036133,0.7029176354408264,-0.0,-0.0,-1.0,0.0613090395371573,1.0,1.0
37.3552360534668,-29.00937271118164,0.6904484629631042,-0.0,-0.0,-1.0,0.1095320785281094,2.0,1.0
35.957210540771484,-27.44456672668457,0.7429115772247314,-0.0,-0.0,-1.0,0.0600556104195792,1.0,1.0
36.13174057006836,-28.562429428100582,0.7110123634338379,-0.0,-0.0,-1.0,0.160364272268273,2.0,1.0
35.650390625,-29.299043655395508,0.7087153196334839,-0.0,-0.0,-1.0,0.0070702172965035,1.0,1.0
36.77822494506836,-28.568368911743164,0.6903578639030457,-0.0,-0.0,-1.0,0.0276734529746996,2.0,1.0
36.28523254394531,-29.006820678710938,0.6956593990325928,-0.2929997556979397,0.1380464719271109,-0.9460942420020456,0.0138263553000502,3.0,1.0
35.899322509765625,-29.17357635498047,0.7038818597793579,-0.0,-0.0,-1.0,0.0083386951711868,1.0,1.0
36.97547912597656,-28.293798446655273,0.6905428767204285,-0.0163854176320958,0.9011088007662164,0.433283333709817,0.0265735697620292,3.0,1.0
36.85350036621094,-28.908557891845703,0.6799001693725586,-0.0,-0.0,-1.0,0.0414964100514409,2.0,1.0
36.47136306762695,-29.03527069091797,0.6890859603881836,-0.0,-0.0,-1.0,0.0188145714283239,2.0,1.0
37.70172119140625,-28.460851669311523,0.6631214618682861,-0.9132221963253482,-0.384763208374541,-0.1340988203528911,0.0509313964611341,3.0,1.0
37.26844024658203,-28.92203712463379,0.6662406921386719,-0.131506517037179,0.1721179060110642,-0.9762589115634832,0.0937901148373985,3.0,1.0
37.03773498535156,-28.969018936157227,0.6725611686706543,0.7125087087058861,0.6964772725194888,-0.0851513293030964,0.0518994388551285,3.0,1.0
37.50539779663086,-28.96866226196289,0.6574733257293701,-0.0,-0.0,-1.0,0.1060348831437079,2.0,1.0
36.02081298828125,-28.46704864501953,0.7739500999450684,-0.0,-0.0,-1.0,0.1510111605780764,1.0,1.0
36.71172332763672,-28.932292938232425,0.7628267407417297,-0.0,-0.0,-1.0,0.0333964786401138,1.0,1.0
35.380393981933594,-27.57182502746582,0.6871891021728516,-0.0,-0.0,-1.0,0.0292239860770211,1.0,1.0
36.58992004394531,-27.12421607971191,0.6512286067008972,-0.0,-0.0,-1.0,0.0348027719897535,1.0,1.0
37.68667984008789,-27.10828971862793,0.6109565496444702,-0.0,-0.0,-1.0,0.0303459067012024,2.0,1.0
37.48701477050781,-27.30297088623047,0.6139259338378906,-0.0,-0.0,-1.0,0.0145664813569287,1.0,1.0
37.00054931640625,-27.256244659423828,0.6329623460769653,-0.0,-0.0,-1.0,0.0635957715979199,2.0,1.0
37.35976028442383,-27.492122650146484,0.6143860816955566,-0.0,-0.0,-1.0,0.024615061742936,1.0,1.0
37.07452392578125,-28.242416381835938,0.608206033706665,-0.0,-0.0,-1.0,0.031347876342246,1.0,1.0
35.528289794921875,-29.26095962524414,0.7815173864364624,-0.0,-0.0,-1.0,0.0075068891314731,1.0,1.0
35.44541931152344,-27.90534782409668,0.8040937185287476,-0.0,-0.0,-1.0,0.047265880991952,1.0,1.0
37.134307861328125,-26.98204040527344,0.5916835069656372,-0.0,-0.0,-1.0,0.0195206708498802,1.0,1.0
36.87173843383789,-27.192739486694336,0.6250698566436768,-0.0,-0.0,-1.0,0.0282721990391008,1.0,1.0
35.564640045166016,-28.24094009399414,0.7859904766082764,-0.0,-0.0,-1.0,0.1648937157780799,1.0,1.0
36.2713737487793,-28.536880493164062,0.7367426156997681,-0.0,-0.0,-1.0,0.1087714923062748,2.0,1.0
37.49506378173828,-27.247486114501953,0.5717785358428955,-0.0,-0.0,-1.0,0.0180268648559475,1.0,1.0
36.254154205322266,-28.600900650024418,0.7778234481811523,-0.0,-0.0,-1.0,0.1650627793640775,2.0,1.0
36.77070617675781,-28.99392318725586,0.7449357509613037,0.0458852911973783,0.9364622050273184,0.347754336575554,0.0391773660595723,3.0,1.0
35.225189208984375,-27.2874755859375,0.7221168279647827,-0.0,-0.0,-1.0,0.0854687451924771,1.0,1.0
35.48249053955078,-27.302997589111328,0.7073116302490234,-0.0,-0.0,-1.0,0.0294143755530659,2.0,1.0
36.270606994628906,-26.960227966308594,0.6739709377288818,-0.0,-0.0,-1.0,0.0443719740618714,1.0,1.0
35.96990203857422,-27.26590347290039,0.6812503337860107,-0.0,-0.0,-1.0,0.0951178754437504,2.0,1.0
35.8568115234375,-27.373889923095703,0.6841750144958496,-0.0,-0.0,-1.0,0.0594770296639718,2.0,1.0
35.45002746582031,-27.440628051757812,0.7007900476455688,-0.0,-0.0,-1.0,0.0317220153667151,2.0,1.0
35.962581634521484,-27.317710876464844,0.68144690990448,-0.8159288115218005,0.4898502677585044,-0.307094268434863,0.063667290223145,4.0,1.0
36.927581787109375,-28.12352752685547,0.6044043302536011,-0.0,-0.0,-1.0,0.0276784876601119,2.0,1.0
37.2120475769043,-28.07306671142578,0.5928092002868652,-0.0,-0.0,-1.0,0.0216520686008251,2.0,1.0
37.49493789672851,-28.76153564453125,0.6756136417388916,-0.0,-0.0,-1.0,0.0607373492960988,1.0,1.0
37.582275390625,-29.027061462402344,0.6634088754653931,-0.0,-0.0,-1.0,0.1804065206883252,2.0,1.0
36.334434509277344,-27.56290626525879,0.9877872467041016,-0.0,-0.0,-1.0,0.2209517453464285,1.0,1.0
35.97083282470703,-29.028772354125977,0.6516861915588379,-0.0,-0.0,-1.0,0.010203214230905,1.0,1.0
35.7464485168457,-27.552539825439453,0.7134013175964355,-0.0,-0.0,-1.0,0.0242151753867222,1.0,1.0
35.747657775878906,-27.83148956298828,0.7074589729309082,-0.0,-0.0,-1.0,0.0236706304255755,1.0,1.0
35.953243255615234,-27.365734100341797,0.6898989677429199,-0.0,-0.0,-1.0,0.0553289664088679,2.0,1.0
35.860328674316406,-27.72482681274414,0.6949899196624756,-0.0,-0.0,-1.0,0.0439229636731803,1.0,1.0
36.36715316772461,-27.02872085571289,0.6411736011505127,-0.0622090499577459,-0.6602520923274202,-0.7484632313484869,0.0280793615257659,3.0,1.0
36.358402252197266,-27.29351806640625,0.6376757621765137,-0.0,-0.0,-1.0,0.04984324461339,1.0,1.0
36.82752227783203,-27.251575469970703,0.5759372711181641,-0.0,-0.0,-1.0,0.0274080395056686,1.0,1.0
37.002288818359375,-26.870773315429688,0.5585575103759766,-0.0,-0.0,-1.0,0.0292437823274238,1.0,1.0
36.807708740234375,-28.93071746826172,0.7074326276779175,0.1619854217396137,0.8030705903581308,-0.5734442867844113,0.0402421393642898,3.0,1.0
36.89519882202149,-28.373695373535156,0.6918251514434814,-0.0,-0.0,-1.0,0.0289076677979971,2.0,1.0
37.14463806152344,-28.912464141845703,0.660800576210022,-0.0,-0.0,-1.0,0.0444957410802681,1.0,1.0
37.215301513671875,-28.054363250732425,0.644545316696167,-0.0,-0.0,-1.0,0.0216520686008251,1.0,1.0
37.406097412109375,-28.32101058959961,0.6200553178787231,-0.0,-0.0,-1.0,0.0153826454028427,1.0,1.0
37.34552001953125,-28.651649475097656,0.6311336755752563,-0.0,-0.0,-1.0,0.0313886857973401,1.0,1.0
37.576416015625,-27.755924224853516,0.5906412601470947,-0.0,-0.0,-1.0,0.0329152130475226,2.0,1.0
37.602638244628906,-28.14022445678711,0.5907847881317139,-0.0,-0.0,-1.0,0.0149224434568928,1.0,1.0
36.12386703491211,-28.55807304382324,0.7996162176132202,-0.6822670849841164,0.2088505365108202,-0.7006376225599216,0.1877010239927814,3.0,1.0
37.43605041503906,-27.11695671081543,0.6033444404602051,-0.0,-0.0,-1.0,0.0117302401334017,1.0,1.0
36.20608901977539,-28.545032501220703,0.8098382949829102,-0.0,-0.0,-1.0,0.1689738500493349,1.0,1.0
37.01517105102539,-28.942270278930664,0.7025411128997803,-0.0,-0.0,-1.0,0.0545730398649887,2.0,1.0
36.89981842041016,-28.35894012451172,0.7204470634460449,-0.0,-0.0,-1.0,0.027565792327084,2.0,1.0
37.26945495605469,-28.901899337768555,0.669654369354248,-0.131506517037179,0.1721179060110642,-0.9762589115634832,0.0903540470082502,3.0,1.0
37.51838684082031,-28.81021499633789,0.6373913288116455,-0.0,-0.0,-1.0,0.0679611539681797,1.0,1.0
37.59699249267578,-28.342113494873047,0.6282093524932861,-0.0,-0.0,-1.0,0.0445287196122786,2.0,1.0
37.65616989135742,-27.78696060180664,0.6204040050506592,-0.0,-0.0,-1.0,0.026760478809492,1.0,1.0
35.2318115234375,-28.26875686645508,1.1478776931762695,0.0254196785899111,0.7622514755440284,-0.6467816694769086,0.2533611470667882,3.0,2.0
35.44053649902344,-27.460712432861328,0.6787228584289551,-0.0,-0.0,-1.0,0.0311215173194981,2.0,1.0
35.705780029296875,-27.238140106201172,0.6502456665039062,-0.0,-0.0,-1.0,0.0404303239818807,2.0,1.0
35.92146301269531,-27.152297973632812,0.6232140064239502,-0.0,-0.0,-1.0,0.0872848266363897,2.0,1.0
36.17145538330078,-27.011653900146484,0.5926988124847412,-0.0,-0.0,-1.0,0.0488309851424604,1.0,1.0
37.4013671875,-29.013093948364254,0.7703628540039062,-0.0,-0.0,-1.0,0.2017144004034948,1.0,1.0
37.677001953125,-27.75830841064453,0.7654985189437866,-0.0,-0.0,-1.0,0.0292914213991784,1.0,1.0
35.31494903564453,-27.531295776367188,0.6777273416519165,-0.0,-0.0,-1.0,0.0340014425988468,1.0,1.0
35.489864349365234,-27.285741806030273,0.6709107160568237,-0.0,-0.0,-1.0,0.0289940469217544,2.0,1.0
35.694610595703125,-27.217525482177734,0.6479834318161011,-0.0,-0.0,-1.0,0.0394549477771909,2.0,1.0
36.18954849243164,-26.934391021728516,0.5978660583496094,-0.0,-0.0,-1.0,0.0464465062716393,2.0,1.0
36.80419158935547,-29.000022888183594,0.7569432258605957,-0.0,-0.0,-1.0,0.0405436731146844,2.0,1.0
37.12164306640625,-29.039121627807617,0.7160964012145996,-0.0,-0.0,-1.0,0.0540634386358865,1.0,1.0
37.37070846557617,-28.98937225341797,0.6880955696105957,-0.0,-0.0,-1.0,0.123722232211636,2.0,1.0
37.529197692871094,-28.93804168701172,0.6710076332092285,-0.0,-0.0,-1.0,0.1025996564523461,2.0,1.0
37.69741439819336,-28.454509735107425,0.6742544174194336,-0.9132221963253482,-0.384763208374541,-0.1340988203528911,0.050931396461134,3.0,1.0
36.12339401245117,-27.695999145507812,0.91206955909729,-0.0,-0.0,-1.0,0.1937927473490931,1.0,1.0
35.54875946044922,-27.939613342285156,0.6679532527923584,-0.0,-0.0,-1.0,0.0322105799582924,1.0,1.0
35.78901290893555,-27.958280563354492,0.6339430809020996,-0.0,-0.0,-1.0,0.0386615722430022,1.0,1.0
35.235557556152344,-27.73595809936523,0.7277971506118774,-0.0,-0.0,-1.0,0.0296793868972232,2.0,1.0
35.549739837646484,-27.791114807128903,0.6808032989501953,-0.0,-0.0,-1.0,0.0236140188025122,1.0,1.0
35.674827575683594,-27.42373275756836,0.6956970691680908,-0.0,-0.0,-1.0,0.0428667868994291,2.0,1.0
35.99755096435547,-27.303524017333984,0.6603424549102783,-0.4866703904736414,0.8393490948901751,-0.2421673552386389,0.0632012249990781,3.0,1.0
36.37173080444336,-27.24566078186035,0.6110503673553467,-0.0,-0.0,-1.0,0.053875973724735,1.0,1.0
36.50828170776367,-27.011051177978516,0.6090397834777832,-0.0,-0.0,-1.0,0.0217120733103514,1.0,1.0
37.15557098388672,-29.127330780029297,0.8772945404052734,-0.0,-0.0,-1.0,0.1219142888042124,1.0,1.0
35.63758087158203,-28.334476470947266,1.097219705581665,-0.0,-0.0,-1.0,0.1688342496914534,1.0,2.0
37.70880889892578,-28.50710678100586,0.8442200422286987,-0.0,-0.0,-1.0,0.0607046471038542,1.0,1.0
35.22235107421875,-29.1407413482666,0.725857138633728,-0.0,-0.0,-1.0,0.0565824936371098,1.0,1.0
36.1072998046875,-28.89011001586914,0.6448638439178467,-0.0,-0.0,-1.0,0.0155281960389925,1.0,1.0
35.56210708618164,-28.3786678314209,0.7623677253723145,-0.0,-0.0,-1.0,0.1907843501639463,1.0,1.0
36.23447036743164,-28.507648468017575,0.665107011795044,-0.0,-0.0,-1.0,0.1163214972717249,1.0,1.0
36.57781600952149,-28.51671981811523,0.6193268299102783,-0.0,-0.0,-1.0,0.0246882887856614,1.0,1.0
36.7846565246582,-28.222421646118164,0.6180329322814941,-0.0,-0.0,-1.0,0.0360084798771943,2.0,1.0
37.03325271606445,-28.09336853027344,0.5949492454528809,-0.0,-0.0,-1.0,0.0250030524758518,2.0,1.0
37.29376220703125,-27.868053436279297,0.5770933628082275,-0.5546782033674666,-0.0457267201608562,-0.8308075335313051,0.0185963298397408,3.0,1.0
37.374488830566406,-27.43746566772461,0.6005513668060303,-0.0,-0.0,-1.0,0.024438189316905,1.0,1.0
37.465110778808594,-27.39426040649414,0.5904374122619629,-0.0,-0.0,-1.0,0.0227530400850489,1.0,1.0
37.60956573486328,-27.114933013916016,0.5903713703155518,-0.0,-0.0,-1.0,0.0281640938070654,2.0,1.0
35.95924377441406,-27.32891845703125,0.8102672100067139,-0.0,-0.0,-1.0,0.0722594963161367,1.0,1.0
36.78528594970703,-28.97819709777832,0.7006634473800659,-0.0,-0.0,-1.0,0.0391773660595723,2.0,1.0
37.2191047668457,-28.927749633789062,0.648503303527832,-0.0,-0.0,-1.0,0.0654100572810312,2.0,1.0
36.11011505126953,-28.517099380493164,0.8298740386962891,-0.0,-0.0,-1.0,0.1436959995972728,1.0,1.0
36.272701263427734,-28.62909698486328,0.7988512516021729,-0.0,-0.0,-1.0,0.1885978081117838,2.0,1.0
37.40192413330078,-28.849609375,0.6310684680938721,-0.0,-0.0,-1.0,0.0822109969690696,1.0,1.0
37.62863540649414,-28.784198760986328,0.6057136058807373,-0.0,-0.0,-1.0,0.0675313915225616,2.0,1.0
35.271095275878906,-27.41054344177246,0.6429703235626221,-0.0,-0.0,-1.0,0.0242266536587573,1.0,1.0
35.4574089050293,-27.256996154785156,0.6364462375640869,-0.0,-0.0,-1.0,0.0289940469217544,1.0,1.0
35.77729797363281,-27.137256622314453,0.6049094200134277,-0.0,-0.0,-1.0,0.0512780100403473,1.0,1.0
36.10270690917969,-27.124555587768555,0.5572497844696045,-0.0,-0.0,-1.0,0.0509135345063771,2.0,1.0
35.90052795410156,-27.020946502685547,0.6007242202758789,-0.0,-0.0,-1.0,0.0379373952042126,1.0,1.0
36.20517349243164,-26.892169952392575,0.5689759254455566,-0.0,-0.0,-1.0,0.0464465062716393,1.0,1.0
35.287960052490234,-28.211227416992188,0.958526849746704,-0.0,-0.0,-1.0,0.216063657879502,2.0,1.0
35.496559143066406,-28.35558700561523,0.9197170734405518,-0.0,-0.0,-1.0,0.1901446074598748,1.0,1.0
36.19881439208984,-27.630250930786133,0.902661681175232,-0.0,-0.0,-1.0,0.2072253347062989,1.0,1.0
35.58783721923828,-28.32436752319336,0.6636803150177002,-0.0,-0.0,-1.0,0.1611755729245622,1.0,1.0
35.85385513305664,-28.338329315185547,0.6286125183105469,-0.0,-0.0,-1.0,0.054050064917694,1.0,1.0
37.684906005859375,-28.540233612060547,0.7990994453430176,-0.0,-0.0,-1.0,0.062539722049537,1.0,1.0
35.553001403808594,-28.04611587524414,0.7056612968444824,-0.0,-0.0,-1.0,0.0469927505083736,1.0,1.0
36.02676010131836,-28.0556697845459,0.643755316734314,-0.0,-0.0,-1.0,0.0533365521089949,1.0,1.0
36.24544525146485,-28.173133850097656,0.5992257595062256,-0.0,-0.0,-1.0,0.0261060910229995,1.0,1.0
35.28976058959961,-27.716861724853516,0.7826555967330933,-0.0,-0.0,-1.0,0.0276775657221637,1.0,1.0
35.694725036621094,-27.44421768188477,0.7679998874664307,-0.0,-0.0,-1.0,0.0436491271400342,2.0,1.0
36.01254653930664,-27.672061920166016,0.6958703994750977,-0.0,-0.0,-1.0,0.0994559166154214,1.0,1.0
36.4395751953125,-27.857213973999023,0.6132340431213379,-0.0,-0.0,-1.0,0.0242183496487144,1.0,1.0
36.77766418457031,-27.758121490478516,0.5771970748901367,-0.0,-0.0,-1.0,0.0148359028819188,2.0,1.0
37.02870559692383,-27.706825256347656,0.5463519096374512,-0.0,-0.0,-1.0,0.0197082781904134,1.0,1.0
36.07380676269531,-27.25722885131836,0.7408589124679565,-0.0,-0.0,-1.0,0.0869287182694403,1.0,1.0
36.95640563964844,-27.27915954589844,0.6089539527893066,-0.0,-0.0,-1.0,0.0570360181080184,1.0,1.0
37.16535568237305,-27.357587814331055,0.5672469139099121,-0.0,-0.0,-1.0,0.0327998421745138,1.0,1.0
37.34192657470703,-27.143951416015625,0.5643153190612793,-0.0,-0.0,-1.0,0.0093841241006672,1.0,1.0
35.3167724609375,-28.654115676879883,1.0678365230560305,-0.0,-0.0,-1.0,0.1755108515333816,2.0,2.0
35.2201042175293,-28.29586410522461,1.1154708862304688,-0.0,-0.0,-1.0,0.2518604856997362,2.0,2.0
35.677181243896484,-28.376998901367188,1.058758020401001,-0.0,-0.0,-1.0,0.1445111379171622,1.0,2.0
36.37945556640625,-28.64341735839844,0.9527018070220948,-0.0,-0.0,-1.0,0.1476667037122725,1.0,1.0
37.17381286621094,-27.32467269897461,0.976288080215454,-0.0,-0.0,-1.0,0.1414302960664406,1.0,1.0
35.46890640258789,-29.079730987548828,0.6827378273010254,-0.0,-0.0,-1.0,0.0279992808908803,2.0,1.0
35.579925537109375,-28.90699577331543,0.7015297412872314,-0.0,-0.0,-1.0,0.0115428612144975,1.0,1.0
35.897274017333984,-28.936603546142575,0.6691205501556396,-0.0,-0.0,-1.0,0.012017310452232,1.0,1.0
36.07501983642578,-28.81598663330078,0.6724154949188232,-0.0,-0.0,-1.0,0.0262829707559983,1.0,1.0
35.519615173339844,-28.52242660522461,0.7666385173797607,-0.0,-0.0,-1.0,0.1088970152074076,1.0,1.0
35.907894134521484,-28.62535095214844,0.7169530391693115,-0.0,-0.0,-1.0,0.070768401272147,1.0,1.0
36.271629333496094,-28.556655883789062,0.6950135231018066,-0.0,-0.0,-1.0,0.1087714923062748,2.0,1.0
36.5858039855957,-28.547542572021484,0.6665170192718506,-0.0,-0.0,-1.0,0.0232377490293822,1.0,1.0
36.82168197631836,-28.42460250854492,0.6616463661193848,-0.0,-0.0,-1.0,0.025974876202931,1.0,1.0
37.141014099121094,-28.21453857421875,0.659717321395874,-0.0,-0.0,-1.0,0.0242333244007755,1.0,1.0
37.469520568847656,-28.28061294555664,0.6139438152313232,-0.0,-0.0,-1.0,0.0250227355604266,1.0,1.0
36.117706298828125,-27.664016723632812,0.847853422164917,-0.0,-0.0,-1.0,0.1483783034551183,1.0,1.0
37.26090240478515,-28.180187225341797,0.651864767074585,-0.0,-0.0,-1.0,0.0224823033990961,1.0,1.0
37.66405487060547,-28.032150268554688,0.627802848815918,-0.0,-0.0,-1.0,0.0239442607986372,1.0,1.0
35.63462448120117,-27.03831672668457,0.6424658298492432,-0.0,-0.0,-1.0,0.0416470306765995,1.0,1.0
35.84587097167969,-26.96081924438477,0.6339805126190186,-0.0,-0.0,-1.0,0.0318573993565483,1.0,1.0
36.170677185058594,-26.862640380859375,0.615217924118042,-0.0,-0.0,-1.0,0.0434376502068954,2.0,1.0
37.20814514160156,-29.189220428466797,0.943028688430786,-0.0,-0.0,-1.0,0.18533656838399,1.0,1.0
37.45623779296875,-29.021812438964844,0.9406650066375732,-0.0,-0.0,-1.0,0.1712687758105504,2.0,1.0
36.442596435546875,-27.34014129638672,0.8648092746734619,-0.0,-0.0,-1.0,0.0575873676615863,1.0,1.0
35.270355224609375,-28.540069580078125,0.7183339595794678,-0.0,-0.0,-1.0,0.1653026522047337,1.0,1.0
35.724609375,-28.990825653076172,0.6219832897186279,-0.0,-0.0,-1.0,0.010880007838694,1.0,1.0
36.0218505859375,-28.986526489257812,0.6121780872344971,-0.0,-0.0,-1.0,0.0126450250671894,1.0,1.0
35.58434295654297,-28.43690299987793,0.7270956039428711,-0.0,-0.0,-1.0,0.2330889320288666,1.0,1.0
36.0950927734375,-28.587940216064453,0.6808459758758545,-0.0,-0.0,-1.0,0.1379731679702053,1.0,1.0
36.246612548828125,-28.63768768310547,0.665621280670166,-0.0,-0.0,-1.0,0.1171233460302018,1.0,1.0
36.68052291870117,-28.80048561096191,0.6173617839813232,-0.0,-0.0,-1.0,0.0354613304050914,1.0,1.0
36.79117202758789,-28.56716537475586,0.6531572341918945,-0.0,-0.0,-1.0,0.0253738617611763,2.0,1.0
37.153438568115234,-28.700382232666016,0.6111299991607666,-0.0,-0.0,-1.0,0.0295835436701086,1.0,1.0
37.431453704833984,-28.721220016479492,0.5923569202423096,-0.0,-0.0,-1.0,0.0307181632817289,1.0,1.0
35.49030303955078,-27.34369659423828,0.5857841968536377,-0.0,-0.0,-1.0,0.0294143755530659,1.0,1.0
37.02449798583984,-28.367544174194336,0.6760778427124023,-0.0,-0.0,-1.0,0.025402293904411,1.0,1.0
37.659122467041016,-28.588428497314453,0.6018621921539307,-0.0,-0.0,-1.0,0.0533226482186179,1.0,1.0
35.71824264526367,-27.197437286376953,0.6054344177246094,-0.0,-0.0,-1.0,0.0379104909973529,1.0,1.0
36.04330825805664,-27.136783599853516,0.6001605987548828,-0.0,-0.0,-1.0,0.0471292328688442,1.0,1.0
36.244590759277344,-27.014705657958984,0.6132287979125977,-0.0,-0.0,-1.0,0.0465785958706431,1.0,1.0
36.627464294433594,-27.16136360168457,0.5572149753570557,-0.0,-0.0,-1.0,0.0324624287619416,2.0,1.0
37.00553894042969,-27.18082046508789,0.5259020328521729,-0.0,-0.0,-1.0,0.0200070388882573,1.0,1.0
37.18695068359375,-27.071073532104492,0.5341269969940186,-0.0,-0.0,-1.0,0.0212548238667049,1.0,1.0
37.533294677734375,-27.016965866088867,0.5164718627929688,-0.0,-0.0,-1.0,0.0260946408986812,1.0,1.0
35.24701690673828,-28.63910675048828,1.081188678741455,-0.0,-0.0,-1.0,0.2324144935656874,2.0,2.0
35.243446350097656,-28.191761016845703,0.9672305583953856,-0.0,-0.0,-1.0,0.1601370628609015,2.0,1.0
36.22236633300781,-27.64012908935547,0.843966007232666,-0.0,-0.0,-1.0,0.1985264561757796,1.0,1.0
35.223262786865234,-29.19173812866211,0.7678866386413574,-0.0,-0.0,-1.0,0.0484207012277326,1.0,1.0
35.50129318237305,-29.287281036376953,0.7400213479995728,-0.0,-0.0,-1.0,0.0075068891314731,1.0,1.0
35.84043502807617,-29.35818099975586,0.7121878862380981,-0.0,-0.0,-1.0,0.0072977695207915,2.0,1.0
36.11074447631836,-29.285133361816406,0.7106077671051025,-0.0,-0.0,-1.0,0.0091900275566655,2.0,1.0
36.42640686035156,-29.290178298950195,0.6918822526931763,-0.0,-0.0,-1.0,0.0137123762619353,1.0,1.0
36.06439971923828,-28.46831321716309,0.849233865737915,-0.0,-0.0,-1.0,0.15275713899722,1.0,1.0
36.71817398071289,-29.133567810058594,0.6997644901275635,-0.0,-0.0,-1.0,0.0260935700514198,1.0,1.0
36.98076248168945,-29.13291358947754,0.6824954748153687,-0.0,-0.0,-1.0,0.048237611371702,1.0,1.0
35.393531799316406,-27.681737899780273,0.676323652267456,-0.0,-0.0,-1.0,0.0305241880144114,2.0,1.0
35.656124114990234,-27.680252075195312,0.6604266166687012,-0.0,-0.0,-1.0,0.0184980845458354,1.0,1.0
36.840911865234375,-28.924240112304688,0.725882887840271,0.1619854217396137,0.8030705903581308,-0.5734442867844113,0.0428137620105493,3.0,1.0
37.215545654296875,-28.98855972290039,0.6891134977340698,-0.0,-0.0,-1.0,0.0519483750194374,1.0,1.0
37.56837463378906,-29.07075881958008,0.6496479511260986,-0.0,-0.0,-1.0,0.1211497157232388,2.0,1.0
35.95532989501953,-27.491432189941406,0.6780821084976196,-0.0,-0.0,-1.0,0.0639605893012737,1.0,1.0
36.1950569152832,-27.675506591796875,0.6238274574279785,-0.0,-0.0,-1.0,0.1929241336389464,1.0,1.0
36.46830749511719,-27.80524444580078,0.5768616199493408,-0.0,-0.0,-1.0,0.021914188179015,1.0,1.0
36.01732635498047,-27.031166076660156,0.764948844909668,-0.0,-0.0,-1.0,0.0670683995729065,1.0,1.0
36.78717803955078,-27.713523864746097,0.5677344799041748,-0.0,-0.0,-1.0,0.0141706024171939,2.0,1.0
37.110137939453125,-27.65352249145508,0.5499598979949951,-0.0,-0.0,-1.0,0.0112610246211935,2.0,1.0
36.679744720458984,-26.921955108642575,0.7300480604171753,-0.0,-0.0,-1.0,0.0309301925971735,1.0,1.0
37.319305419921875,-27.306867599487305,0.5948963165283203,-0.0,-0.0,-1.0,0.0369864792963625,2.0,1.0
37.190330505371094,-27.54116439819336,0.5635690689086914,-0.0,-0.0,-1.0,0.0179119595843435,2.0,1.0
37.355224609375,-27.25965118408203,0.600039005279541,-0.0,-0.0,-1.0,0.0319872894317658,2.0,1.0
37.62615966796875,-27.25847625732422,0.5715618133544922,-0.0,-0.0,-1.0,0.0188751956347223,2.0,1.0
35.38617706298828,-28.562580108642575,0.8676785230636597,-0.0,-0.0,-1.0,0.1372365528431034,1.0,1.0
35.29137420654297,-27.94869613647461,0.7186237573623657,-0.0,-0.0,-1.0,0.0447776410303904,1.0,1.0
35.56289291381836,-28.20852851867676,0.6487064361572266,-0.0,-0.0,-1.0,0.0858273906078045,1.0,1.0
35.78203582763672,-28.298442840576172,0.6161210536956787,-0.0,-0.0,-1.0,0.0553299579808886,1.0,1.0
36.18619155883789,-29.358295440673828,0.7551798820495605,-0.0,-0.0,-1.0,0.0091217118869541,2.0,1.0
35.28173828125,-26.99353408813477,0.6199474334716797,-0.0,-0.0,-1.0,0.0934119905455451,1.0,1.0
35.4382209777832,-27.128347396850582,0.5761651992797852,-0.0,-0.0,-1.0,0.0237384996143216,1.0,1.0
35.91714859008789,-27.996137619018555,0.6688402891159058,-0.0,-0.0,-1.0,0.0369843199101952,1.0,1.0
36.05278015136719,-28.27861785888672,0.6012182235717773,-0.0,-0.0,-1.0,0.0723485953804117,1.0,1.0
35.73249053955078,-27.072364807128903,0.5660881996154785,-0.0,-0.0,-1.0,0.0322645814347389,1.0,1.0
36.01552963256836,-27.502107620239254,0.7620950937271118,-0.0,-0.0,-1.0,0.1035701027620053,1.0,1.0
36.165096282958984,-27.52618408203125,0.7454357147216797,-0.0,-0.0,-1.0,0.1462195875617505,1.0,1.0
36.463626861572266,-28.19573211669922,0.5861754417419434,-0.0,-0.0,-1.0,0.0194111968667149,2.0,1.0
36.62770080566406,-28.234169006347656,0.5648291110992432,-0.0,-0.0,-1.0,0.0217808244371154,1.0,1.0
37.130245208740234,-29.163461685180664,0.7236419916152954,-0.0,-0.0,-1.0,0.0808001971170885,2.0,1.0
36.143306732177734,-26.90547561645508,0.5685570240020752,-0.0,-0.0,-1.0,0.0434376502068954,1.0,1.0
36.71068572998047,-28.03211975097656,0.5978665351867676,-0.6341800893960265,0.2560955232345335,-0.7295414293875836,0.0174121352754628,3.0,1.0
36.99991226196289,-28.05126953125,0.5674128532409668,-0.0,-0.0,-1.0,0.0194989264915877,2.0,1.0
37.633209228515625,-29.360546112060547,0.6513886451721191,-0.0,-0.0,-1.0,0.1580401032191525,1.0,1.0
37.244606018066406,-27.61528778076172,0.6280701160430908,-0.0,-0.0,-1.0,0.0187450849571926,1.0,1.0
37.316673278808594,-27.90806770324707,0.5639994144439697,-0.0,-0.0,-1.0,0.0210554368241437,2.0,1.0
37.41188430786133,-27.440101623535156,0.643836259841919,-0.0,-0.0,-1.0,0.0245898101657816,1.0,1.0
37.59636306762695,-27.72303771972656,0.5698089599609375,-0.0,-0.0,-1.0,0.0354576580526112,2.0,1.0
35.5812873840332,-28.36404609680176,0.9591338634490968,-0.0,-0.0,-1.0,0.1717921620847897,2.0,1.0
35.53598403930664,-28.463382720947266,0.9444435834884644,-0.0,-0.0,-1.0,0.1533443483598845,1.0,1.0
36.24398040771485,-27.60869789123535,1.0463342666625977,-0.0,-0.0,-1.0,0.2281785822980749,2.0,2.0
35.240821838378906,-29.258617401123047,0.7109177112579346,-0.0,-0.0,-1.0,0.0503157353954367,1.0,1.0
35.47724533081055,-29.21667861938477,0.7055368423461914,-0.0,-0.0,-1.0,0.0074432412133372,2.0,1.0
35.711246490478516,-29.270530700683594,0.678936243057251,-0.0,-0.0,-1.0,0.0086321322376616,1.0,1.0
35.38655090332031,-27.899913787841797,0.6934235095977783,-0.0,-0.0,-1.0,0.0454369247925527,1.0,1.0
35.65268325805664,-28.16476821899414,0.6090507507324219,-0.0,-0.0,-1.0,0.0689197553858595,1.0,1.0
35.696739196777344,-28.273637771606445,0.5796942710876465,-0.0,-0.0,-1.0,0.0802766584249625,1.0,1.0
36.10481643676758,-29.1927547454834,0.6658872365951538,-0.0,-0.0,-1.0,0.0102728382465722,1.0,1.0
35.94886016845703,-28.031097412109375,0.6155354976654053,-0.0,-0.0,-1.0,0.0261867321612736,1.0,1.0
36.08384323120117,-28.136276245117188,0.5780487060546875,-0.0,-0.0,-1.0,0.0437883084161247,1.0,1.0
36.46807861328125,-29.043380737304688,0.6657639741897583,-0.0,-0.0,-1.0,0.0175684379721261,2.0,1.0
36.20628356933594,-27.71834373474121,0.6645021438598633,-0.0,-0.0,-1.0,0.2297660119018903,1.0,1.0
36.44306945800781,-28.0347900390625,0.5658519268035889,-0.0,-0.0,-1.0,0.0103453128461651,1.0,1.0
36.83639907836914,-28.95114517211914,0.6500582695007324,0.7890935608571683,-0.1303632804424888,-0.6002805738369579,0.0426476421536583,3.0,1.0
37.03336715698242,-28.97012710571289,0.6269490718841553,-0.0,-0.0,-1.0,0.0499585176612106,2.0,1.0
36.614402770996094,-27.817821502685547,0.5974643230438232,-0.0,-0.0,-1.0,0.017290615700366,1.0,1.0
36.88869857788086,-27.91356086730957,0.5432884693145752,-0.0,-0.0,-1.0,0.0134158593390072,1.0,1.0
37.10282897949219,-28.91522216796875,0.6305830478668213,-0.0,-0.0,-1.0,0.040646369520216,1.0,1.0
37.3189697265625,-28.89263916015625,0.6119868755340576,-0.0,-0.0,-1.0,0.0431315436891041,2.0,1.0
37.248538970947266,-27.77405166625977,0.5293169021606445,-0.0,-0.0,-1.0,0.0268443422987338,1.0,1.0
37.63776779174805,-28.807815551757812,0.5926525592803955,-0.0,-0.0,-1.0,0.0700038422638975,2.0,1.0
37.51730728149414,-27.343093872070312,0.5870358943939209,-0.0,-0.0,-1.0,0.0174879757557584,1.0,1.0
37.46768569946289,-27.462308883666992,0.5681545734405518,-0.0,-0.0,-1.0,0.0237133680015628,1.0,1.0
37.62020111083984,-27.221752166748047,0.598229169845581,-0.0,-0.0,-1.0,0.0319141741490323,2.0,1.0
35.230281829833984,-28.64081573486328,0.8389627933502197,-0.0,-0.0,-1.0,0.1633254954961787,1.0,1.0
35.555931091308594,-28.46786880493164,0.8536760807037354,-0.0,-0.0,-1.0,0.10170757961446,2.0,1.0
36.1281852722168,-28.592174530029297,0.7852460145950317,-0.6822670849841164,0.2088505365108202,-0.7006376225599216,0.1720920887654499,3.0,1.0
36.193111419677734,-27.656909942626953,0.966610074043274,-0.0,-0.0,-1.0,0.2072253347062989,1.0,1.0
37.22501373291016,-29.228679656982425,0.9052447080612184,-0.0,-0.0,-1.0,0.1972120077628049,1.0,1.0
37.403018951416016,-28.9517822265625,0.9328936338424684,-0.0,-0.0,-1.0,0.1594535240209432,1.0,1.0
37.1546516418457,-27.43907928466797,0.9082046747207642,-0.0,-0.0,-1.0,0.1454731700250192,1.0,1.0
35.20973205566406,-28.540294647216797,0.8101392984390259,-0.0,-0.0,-1.0,0.1728921593008269,1.0,1.0
35.47018051147461,-29.105897903442383,0.6666989326477051,-0.0,-0.0,-1.0,0.0163860320415393,2.0,1.0
35.76960754394531,-29.09271240234375,0.662611722946167,-0.0,-0.0,-1.0,0.0087266529436784,2.0,1.0
36.16594314575195,-28.633846282958984,0.7595863342285156,-0.0,-0.0,-1.0,0.1405196270571128,1.0,1.0
36.12578201293945,-29.048025131225582,0.6612718105316162,-0.0,-0.0,-1.0,0.010941449230768,1.0,1.0
36.477596282958984,-28.963890075683594,0.6654818058013916,-0.0,-0.0,-1.0,0.0173670600750874,1.0,1.0
36.94741439819336,-28.90407943725586,0.6519491672515869,-0.0,-0.0,-1.0,0.0373210531245423,1.0,1.0
37.33841323852539,-28.874584197998047,0.630805492401123,-0.0,-0.0,-1.0,0.0733051829527724,2.0,1.0
37.69109725952149,-28.80866241455078,0.6167821884155273,-0.0,-0.0,-1.0,0.0530996525666223,1.0,1.0
35.24500274658203,-28.372722625732425,0.9871200323104858,-0.0,-0.0,-1.0,0.2038610095606048,1.0,1.0
35.56704330444336,-28.370925903320312,0.8447552919387817,-0.0,-0.0,-1.0,0.2102748174141799,1.0,1.0
36.20219421386719,-27.615257263183594,1.0014636516571045,-0.0,-0.0,-1.0,0.1531808838973532,1.0,2.0
36.278717041015625,-27.64690399169922,0.9896634817123412,-0.0,-0.0,-1.0,0.2048273007972557,2.0,1.0
37.44595718383789,-29.00324821472168,0.9077082872390748,-0.0,-0.0,-1.0,0.1712687758105503,2.0,1.0
35.406856536865234,-28.59785842895508,1.3503016233444214,-0.0,-0.0,-1.0,0.2462335987713337,1.0,2.0
35.30524444580078,-29.301780700683594,0.7572249174118042,-0.0,-0.0,-1.0,0.0392698336805041,1.0,1.0
36.09347915649414,-29.343088150024418,0.7238098382949829,-0.0,-0.0,-1.0,0.00848127279721,1.0,1.0
37.364688873291016,-29.196334838867188,0.6788220405578613,-0.0,-0.0,-1.0,0.091309723639191,1.0,1.0
35.281394958496094,-28.55189323425293,1.0721826553344729,-0.0,-0.0,-1.0,0.2324144935656874,1.0,2.0
35.62255096435547,-28.344722747802734,0.9808984994888306,-0.0,-0.0,-1.0,0.2051598288952846,1.0,1.0
37.42264175415039,-28.95388412475586,0.8513278961181641,-0.0,-0.0,-1.0,0.2212354892984347,1.0,1.0
35.267303466796875,-28.282787322998047,1.1327372789382937,-0.0,-0.0,-1.0,0.2533611470667882,2.0,2.0
35.21831512451172,-28.494892120361328,1.0836100578308103,-0.0,-0.0,-1.0,0.2324144935656873,1.0,2.0
35.29853820800781,-28.579730987548828,1.1707627773284912,-0.0,-0.0,-1.0,0.2600542886174274,1.0,2.0
37.172698974609375,-29.16730499267578,0.7496094703674316,-0.0,-0.0,-1.0,0.0855122672576178,2.0,1.0
35.23680877685547,-28.60967063903809,1.100077509880066,-0.0,-0.0,-1.0,0.2324144935656874,2.0,2.0
36.36704635620117,-28.59294891357422,0.98390531539917,-0.0,-0.0,-1.0,0.1706428400425859,1.0,1.0
37.51560592651367,-27.491321563720703,0.5610301494598389,-0.0,-0.0,-1.0,0.0216371171719017,1.0,1.0
37.56874465942383,-27.688732147216797,0.512319803237915,-0.0,-0.0,-1.0,0.0374153271072317,1.0,1.0
36.74454498291016,-28.117515563964844,0.5703113079071045,-0.0,-0.0,-1.0,0.0233271725481929,1.0,1.0
36.76038360595703,-27.953447341918945,0.5951731204986572,-0.0,-0.0,-1.0,0.0217853066330098,1.0,1.0
36.71889877319336,-28.028907775878903,0.5918545722961426,-0.0,-0.0,-1.0,0.0160731806726251,2.0,1.0
36.56789779663086,-28.165054321289062,0.6028015613555908,-0.0,-0.0,-1.0,0.0182398480751301,1.0,1.0
36.426979064941406,-28.977005004882812,0.6670842170715332,-0.0,-0.0,-1.0,0.0167684518428466,1.0,1.0
36.30128860473633,-29.04814910888672,0.6846566200256348,-0.2929997556979397,0.1380464719271109,-0.9460942420020456,0.0140635127055425,3.0,1.0
37.15460586547851,-29.00678443908691,0.816685676574707,-0.0,-0.0,-1.0,0.0688763781600773,1.0,1.0
36.374813079833984,-29.13054084777832,0.652759313583374,-0.0,-0.0,-1.0,0.0142962049927935,1.0,1.0
37.429988861083984,-29.355459213256836,0.7077362537384033,-0.0,-0.0,-1.0,0.1514145384656807,1.0,1.0
36.8109016418457,-27.129350662231445,0.5286831855773926,-0.0,-0.0,-1.0,0.0270306617862887,1.0,1.0
36.63417434692383,-27.19380760192871,0.5607056617736816,-0.0,-0.0,-1.0,0.0324624287619416,2.0,1.0
36.36865234375,-26.995567321777344,0.6118028163909912,-0.0,-0.0,-1.0,0.0276141990122119,2.0,1.0
36.184226989746094,-27.196605682373047,0.6438186168670654,-0.0,-0.0,-1.0,0.0473020635620102,2.0,1.0
36.18852233886719,-26.900371551513672,0.624610424041748,0.8712808770002901,0.319294757273871,-0.3727203929905435,0.0464465062716393,3.0,1.0
37.33338165283203,-27.560894012451172,0.552696704864502,-0.0,-0.0,-1.0,0.0221258319608126,2.0,1.0
37.19963455200195,-27.227266311645508,0.587890625,-0.0,-0.0,-1.0,0.0233390019965377,1.0,1.0
37.31438446044922,-26.975038528442383,0.5804405212402344,-0.0,-0.0,-1.0,0.0082452938969951,2.0,1.0
37.012245178222656,-27.97505760192871,0.5815153121948242,-0.0,-0.0,-1.0,0.0133359024250195,1.0,1.0
37.10460662841797,-27.681785583496097,0.5818493366241455,-0.0,-0.0,-1.0,0.0133591214837832,2.0,1.0
36.80108642578125,-28.164716720581055,0.603191614151001,-0.0,-0.0,-1.0,0.0291790919787469,1.0,1.0
36.68700408935547,-28.001850128173828,0.6290783882141113,-0.0,-0.0,-1.0,0.0129281313827555,2.0,1.0
36.48511505126953,-28.528907775878903,0.629619836807251,-0.0,-0.0,-1.0,0.0371685362953272,1.0,1.0
36.56560134887695,-28.38654327392578,0.6259684562683105,-0.0,-0.0,-1.0,0.0262044128684006,1.0,1.0
36.06874465942383,-28.46857452392578,0.6946117877960205,-0.0,-0.0,-1.0,0.1154738807143139,2.0,1.0
35.69248580932617,-29.187549591064453,0.7022979259490967,-0.0,-0.0,-1.0,0.0082852236574615,1.0,1.0
35.77264404296875,-29.1119384765625,0.6960632801055908,-0.0,-0.0,-1.0,0.0084934594044715,2.0,1.0
37.313697814941406,-27.845312118530273,0.5625319480895996,-0.0,-0.0,-1.0,0.0241037309127272,2.0,1.0
37.34717559814453,-27.539302825927734,0.5720765590667725,-0.0,-0.0,-1.0,0.0204169153998124,2.0,1.0
37.45834732055664,-27.16892433166504,0.5718674659729004,-0.0,-0.0,-1.0,0.011818126203467,1.0,1.0
37.202877044677734,-28.037504196166992,0.5690531730651855,-0.0,-0.0,-1.0,0.0197801378107191,2.0,1.0
37.25033950805664,-27.38768768310547,0.5934200286865234,-0.0,-0.0,-1.0,0.0302765884447509,1.0,1.0
37.27576446533203,-27.305416107177734,0.5932941436767578,-0.0,-0.0,-1.0,0.030850715692553,2.0,1.0
36.97069549560547,-28.105913162231445,0.599261999130249,-0.3886750060632538,0.8423423847837856,-0.3733511034649482,0.0259058532078967,3.0,1.0
36.7076301574707,-28.360219955444336,0.6231350898742676,-0.0,-0.0,-1.0,0.0312781990666623,1.0,1.0
36.87458801269531,-28.156126022338867,0.6104843616485596,-0.0,-0.0,-1.0,0.0296126395145709,1.0,1.0
36.56650161743164,-28.66499900817871,0.6254513263702393,-0.0,-0.0,-1.0,0.024432610357534,1.0,1.0
36.07905578613281,-28.52194595336914,0.7031471729278564,-0.5418418492862437,-0.6851727644704222,-0.4867706782356792,0.1483929831822572,3.0,1.0
35.75691604614258,-29.31042861938477,0.6958701610565186,-0.0,-0.0,-1.0,0.0077454243032368,1.0,1.0
35.5316276550293,-29.247716903686523,0.7310326099395752,-0.0,-0.0,-1.0,0.0074432412133372,1.0,1.0
36.876670837402344,-27.066133499145508,0.5931186676025391,-0.0,-0.0,-1.0,0.0290275806245717,1.0,1.0
36.82905578613281,-27.13809585571289,0.5935852527618408,-0.0,-0.0,-1.0,0.0274142244835009,1.0,1.0
36.522369384765625,-27.189777374267575,0.6296179294586182,-0.0,-0.0,-1.0,0.042386737790451,1.0,1.0
36.195457458496094,-27.164636611938477,0.674429178237915,-0.0,-0.0,-1.0,0.0465552615484653,2.0,1.0
36.44031524658203,-27.02977752685547,0.6535990238189697,-0.0,-0.0,-1.0,0.0579278853956567,2.0,1.0
35.7514533996582,-27.61588478088379,0.6920504570007324,-0.0,-0.0,-1.0,0.0148938577951085,1.0,1.0
35.79975891113281,-27.286087036132812,0.7152268886566162,-0.0,-0.0,-1.0,0.0574021716197883,1.0,1.0
35.570526123046875,-27.705467224121097,0.7067537307739258,-0.0,-0.0,-1.0,0.0311137432921731,1.0,1.0
35.24723434448242,-28.54357147216797,1.2287395000457764,-0.0,-0.0,-1.0,0.2600542886174273,1.0,2.0
36.18534851074219,-27.757352828979492,1.0376121997833252,-0.0,-0.0,-1.0,0.2146317373488251,1.0,2.0
36.24982070922851,-27.64063835144043,1.0259802341461182,-0.7313271011365285,0.2663779810643192,-0.6278562274496755,0.2148005259395265,3.0,2.0
35.30205535888672,-28.669876098632812,1.033535718917847,-0.0,-0.0,-1.0,0.2121698265789909,2.0,2.0
36.98236846923828,-28.990110397338867,0.70384681224823,-0.0,-0.0,-1.0,0.0509973103683563,1.0,1.0
36.00651931762695,-27.349334716796875,0.6307072639465332,-0.0,-0.0,-1.0,0.063245510585472,1.0,1.0
36.14439392089844,-27.27593231201172,0.6244399547576904,-0.0,-0.0,-1.0,0.0585683164196996,1.0,1.0
37.6221809387207,-28.348962783813477,0.5651898384094238,-0.0,-0.0,-1.0,0.0473189530838831,1.0,1.0
36.82555389404297,-28.948488235473633,0.6352248191833496,-0.0,-0.0,-1.0,0.0419808908292004,2.0,1.0
36.87232208251953,-28.57207298278809,0.6455402374267578,-0.0,-0.0,-1.0,0.0263215368856545,1.0,1.0
37.14546203613281,-28.29182243347168,0.6246919631958008,-0.0,-0.0,-1.0,0.0250064535558392,1.0,1.0
37.317378997802734,-28.749107360839844,0.6709394454956055,-0.0,-0.0,-1.0,0.0409979652839022,1.0,1.0
36.37387466430664,-28.76285171508789,0.6957530975341797,-0.0,-0.0,-1.0,0.0757365034181309,1.0,1.0
36.78744125366211,-28.682064056396484,0.6948480606079102,-0.0,-0.0,-1.0,0.0274557156186067,1.0,1.0
37.0914192199707,-28.755882263183594,0.6764349937438965,-0.0,-0.0,-1.0,0.0354380253925245,1.0,1.0
37.47364044189453,-28.644535064697266,0.680415153503418,-0.0,-0.0,-1.0,0.0570376337102502,1.0,1.0
36.35531997680664,-28.45057678222656,0.7378525733947754,-0.0,-0.0,-1.0,0.0772713787266806,1.0,1.0
35.23106002807617,-28.501022338867188,0.7626953125,-0.0,-0.0,-1.0,0.1611552963917717,1.0,1.0
35.64532470703125,-28.16168975830078,0.7963047027587891,-0.0,-0.0,-1.0,0.1407189396879671,1.0,1.0
36.527347564697266,-29.316253662109375,0.6889820098876953,-0.0,-0.0,-1.0,0.0131071683282484,1.0,1.0
37.572364807128906,-29.164794921875,0.6944422721862793,-0.0,-0.0,-1.0,0.1586203120965556,1.0,1.0
36.1692008972168,-29.157432556152344,0.7178215980529785,-0.0,-0.0,-1.0,0.0105714172644322,1.0,1.0
36.8416862487793,-28.850582122802734,0.7521486282348633,-0.0,-0.0,-1.0,0.0401355678862461,1.0,1.0
37.26793670654297,-29.083927154541016,0.7111940383911133,-0.0,-0.0,-1.0,0.1013316442820801,1.0,1.0
36.57110595703125,-28.225086212158203,0.6220507621765137,-0.0,-0.0,-1.0,0.0178302166901849,1.0,1.0
37.40178680419922,-28.142276763916016,0.6188220977783203,-0.0,-0.0,-1.0,0.0187561903100987,1.0,1.0
37.68634796142578,-28.206684112548828,0.6036591529846191,-0.0,-0.0,-1.0,0.0403171133052453,1.0,1.0
36.86796188354492,-28.048858642578125,0.643007755279541,-0.0,-0.0,-1.0,0.024233597401257,1.0,1.0
37.095306396484375,-28.048866271972656,0.6386957168579102,-0.0,-0.0,-1.0,0.0226980119965574,2.0,1.0
35.900665283203125,-28.196674346923828,0.6384177207946777,-0.0,-0.0,-1.0,0.0518399194713086,1.0,1.0
36.697994232177734,-28.103775024414062,0.6379437446594238,-0.0,-0.0,-1.0,0.0218494933223579,1.0,1.0
35.58135986328125,-27.007137298583984,0.6257743835449219,-0.0,-0.0,-1.0,0.0299594320801937,1.0,1.0
35.90855407714844,-27.155628204345703,0.5868287086486816,-0.0,-0.0,-1.0,0.0872848266363897,2.0,1.0
36.033241271972656,-26.957176208496097,0.6101088523864746,-0.0,-0.0,-1.0,0.0432883658409246,1.0,1.0
36.28923034667969,-26.8975830078125,0.6055808067321777,-0.0,-0.0,-1.0,0.0367379293505611,1.0,1.0
36.97700881958008,-26.97977066040039,0.556450366973877,-0.0,-0.0,-1.0,0.0316552905659755,2.0,1.0
36.486515045166016,-28.79415512084961,0.6460433006286621,-0.0,-0.0,-1.0,0.0331722579614559,2.0,1.0
36.80462646484375,-28.357986450195312,0.6639604568481445,-0.0,-0.0,-1.0,0.0332076195143446,1.0,1.0
36.84482192993164,-28.62335968017578,0.630824089050293,-0.0,-0.0,-1.0,0.0221133292656496,2.0,1.0
37.318458557128906,-28.456684112548828,0.6029000282287598,-0.0,-0.0,-1.0,0.0188533243561411,1.0,1.0
37.44181060791016,-27.92980194091797,0.6474308967590332,-0.0,-0.0,-1.0,0.0342390594262147,2.0,1.0
35.47304153442383,-29.239017486572266,0.6888566017150879,-0.0,-0.0,-1.0,0.0074432412133372,2.0,1.0
35.289249420166016,-28.470218658447266,0.7944149971008301,-0.0,-0.0,-1.0,0.1634832001274747,1.0,1.0
35.857139587402344,-29.111461639404297,0.6686577796936035,-0.0,-0.0,-1.0,0.0118423940753352,2.0,1.0
36.006500244140625,-28.713550567626953,0.7002739906311035,-0.0,-0.0,-1.0,0.060769229427849,1.0,1.0
36.49309539794922,-28.46612548828125,0.6820435523986816,-0.0,-0.0,-1.0,0.0360408200070614,1.0,1.0
36.56795120239258,-28.907777786254883,0.7575416564941406,-0.0,-0.0,-1.0,0.0276473919959228,1.0,1.0
37.25794219970703,-28.28734588623047,0.6776523590087891,-0.0,-0.0,-1.0,0.0172536183350827,1.0,1.0
37.083438873291016,-28.551910400390625,0.6936178207397461,-0.0,-0.0,-1.0,0.0218566606607579,1.0,1.0
36.91588592529297,-28.8138484954834,0.7081966400146484,-0.0,-0.0,-1.0,0.0392970942770429,1.0,1.0
37.4361686706543,-27.950096130371097,0.6634626388549805,-0.0,-0.0,-1.0,0.0331088591071096,2.0,1.0
37.22589111328125,-27.54198455810547,0.6310324668884277,-0.0,-0.0,-1.0,0.0804545964239305,2.0,1.0
35.92481994628906,-28.19740867614746,0.8369712829589844,-0.0,-0.0,-1.0,0.0962332440239036,1.0,1.0
36.706241607666016,-27.69574928283691,0.7169771194458008,-0.0,-0.0,-1.0,0.0240675976185496,1.0,1.0
35.34864807128906,-27.714946746826172,0.7286581993103027,-0.0,-0.0,-1.0,0.0291771205465667,1.0,1.0
35.35174560546875,-27.815963745117188,0.7835564613342285,-0.0,-0.0,-1.0,0.0400780981293265,1.0,1.0
35.614830017089844,-27.803627014160156,0.7251920700073242,-0.0,-0.0,-1.0,0.027911406955367,1.0,1.0
35.61830139160156,-27.456825256347656,0.6975035667419434,-0.0,-0.0,-1.0,0.02661016841938,1.0,1.0
36.58317565917969,-29.16721534729004,0.7223396301269531,-0.0,-0.0,-1.0,0.0168595704023262,1.0,1.0
36.73772430419922,-28.99710464477539,0.6835546493530273,-0.0,-0.0,-1.0,0.0383426531918471,1.0,1.0
36.7564697265625,-28.636898040771484,0.6628637313842773,-0.0,-0.0,-1.0,0.0193517290702209,1.0,1.0
