x,y,z,nx,ny,nz,curvature,density,label
31.96561050415039,14.536388397216797,-1.6793413162231443,-0.0,-0.0,-1.0,0.0372201681859919,2.0,0.0
32.20627212524414,14.68658447265625,-1.6981258392333984,-0.0,-0.0,-1.0,0.0225368216249746,1.0,0.0
31.999412536621097,15.312007904052734,-1.618181228637695,-0.8890745215120286,-0.3648837776926265,-0.2764169386541192,0.0804817240712538,3.0,0.0
32.22718811035156,13.305068969726562,-1.473853588104248,-0.0,-0.0,-1.0,0.0925348181059281,2.0,0.0
31.04172706604004,13.905447006225586,-1.4589238166809082,0.2779866833353591,-0.3074329061269758,-0.9100595651486384,0.1269361662584932,3.0,0.0
31.27802276611328,13.196044921875,-1.542937994003296,-0.0,-0.0,-1.0,0.0315883449130631,1.0,0.0
31.666080474853516,13.605815887451172,-1.5756683349609375,-0.0,-0.0,-1.0,0.0281112688959906,2.0,0.0
31.45313835144043,13.323760986328123,-1.5613131523132324,-0.0,-0.0,-1.0,0.0139046236555574,1.0,0.0
31.77756690979004,14.904236793518066,-1.5104765892028809,0.7867511945786381,-0.5182811928006088,-0.3352717748607304,0.2161025431183939,3.0,0.0
31.74380874633789,13.776437759399414,-1.5766396522521973,-0.0,-0.0,-1.0,0.0380360125274393,2.0,0.0
32.25897216796875,15.44153881072998,-1.5552563667297363,0.4846769802746064,0.540383971479206,-0.6878033063022087,0.1878730021670986,4.0,0.0
31.887287139892575,13.376937866210938,-1.556168794631958,-0.0,-0.0,-1.0,0.086738884421344,2.0,0.0
31.74356460571289,13.222990036010742,-1.5470292568206787,-0.0,-0.0,-1.0,0.1334062446579402,1.0,0.0
32.146636962890625,13.536256790161133,-1.582431077957153,-0.0,-0.0,-1.0,0.0680464870918672,1.0,0.0
32.54150390625,13.756288528442385,-1.6249029636383057,-0.0,-0.0,-1.0,0.0319122387930301,1.0,0.0
32.22802734375,13.486517906188965,-1.5399799346923828,-0.1324005583948382,0.5425951141625893,-0.8294942038517338,0.1838248762053051,3.0,0.0
32.092933654785156,13.183626174926758,-1.5386948585510254,-0.0,-0.0,-1.0,0.0509612341180429,1.0,0.0
32.576515197753906,13.645515441894531,-1.5859932899475098,-0.0,-0.0,-1.0,0.1085099850210089,1.0,0.0
32.28833770751953,13.184935569763184,-1.3362970352172852,0.4865501955580567,0.6352572027087285,-0.5997642817049864,0.1775433084934249,3.0,0.0
32.474945068359375,13.397431373596191,-1.3534600734710691,-0.0,-0.0,-1.0,0.1878519919300882,2.0,0.0
31.83849716186523,13.365716934204102,-1.2519686222076416,-0.0,-0.0,-1.0,0.099629186676996,1.0,0.0
32.34648132324219,13.1724271774292,-1.3893892765045166,-0.6265482704818194,0.6501314459787435,0.4298445855257792,0.1992961274282351,3.0,0.0
32.56051254272461,13.295626640319824,-1.4132254123687744,-0.0,-0.0,-1.0,0.1968515537824961,1.0,0.0
30.273502349853516,13.67353057861328,-1.523334503173828,-0.6712829212750945,-0.4609726449398916,-0.5804166264171764,0.0314148369241167,3.0,0.0
30.65243148803711,14.508946418762209,-1.5182960033416748,-0.0,-0.0,-1.0,0.1478095378466681,2.0,0.0
30.662221908569336,13.89557933807373,-1.5759084224700928,-0.0,-0.0,-1.0,0.0213859216977875,1.0,0.0
30.605236053466797,13.786227226257324,-1.575197696685791,-0.0,-0.0,-1.0,0.0330865207560712,2.0,0.0
30.84238052368164,14.470433235168455,-1.558321237564087,-0.0,-0.0,-1.0,0.1044847603072224,1.0,0.0
30.85196304321289,14.106731414794922,-1.5927178859710691,-0.2506260557616961,0.5024327827562667,-0.8274949419695139,0.1228891463326287,4.0,0.0
31.09646224975586,14.508213996887209,-1.604034185409546,-0.0,-0.0,-1.0,0.0643086713521768,1.0,0.0
31.80672836303711,15.601542472839355,-1.653103590011597,0.395721697422943,-0.8024979742841121,-0.4465437710444532,0.104072393359782,3.0,0.0
31.805580139160156,15.185624122619627,-1.686006784439087,-0.4947309104787979,0.256704925825404,-0.8302673709557622,0.0390007159440915,3.0,0.0
32.41810607910156,13.200523376464844,-1.2187397480010986,-0.0,-0.0,-1.0,0.223368202287307,1.0,0.0
32.39350509643555,13.418376922607422,-1.474980115890503,-0.0762546346977569,0.994131941314174,-0.0767262272369983,0.1671663035391029,3.0,0.0
32.344825744628906,13.192587852478027,-1.481396198272705,-0.0,-0.0,-1.0,0.1868478461964805,2.0,0.0
32.634769439697266,13.33697509765625,-1.5257325172424316,-0.0,-0.0,-1.0,0.1824956604088603,1.0,0.0
30.352277755737305,14.35557746887207,-1.5840356349945068,0.6525597972639511,0.1297297508080304,-0.7465493304197097,0.0425794502220002,6.0,0.0
30.44074249267578,14.855525016784668,-1.5646941661834717,-0.0800431693421621,0.0997200701113198,-0.99179080387885,0.0602964921560145,3.0,0.0
30.394397735595703,14.57387351989746,-1.5761268138885498,-0.0,-0.0,-1.0,0.0323659513582923,2.0,0.0
32.467464447021484,13.296049118041992,-1.4520020484924316,-0.0,-0.0,-1.0,0.1448148046937925,2.0,0.0
30.973194122314453,13.904532432556152,-1.4738755226135254,0.4616102035525563,0.2383161872046166,-0.854471424269075,0.1918536193146172,6.0,0.0
30.960285186767575,13.194684982299805,-1.5223064422607422,-0.0,-0.0,-1.0,0.0224737379248375,2.0,0.0
31.342735290527344,13.64370059967041,-1.5761394500732422,-0.0,-0.0,-1.0,0.0116074860676818,1.0,0.0
31.23295783996582,13.416000366210938,-1.5673458576202393,-0.0,-0.0,-1.0,0.0504767988887054,1.0,0.0
31.68105125427246,14.109763145446776,-1.6225206851959229,-0.0,-0.0,-1.0,0.0407442045023568,2.0,0.0
31.535791397094727,13.857617378234863,-1.60564923286438,-0.0,-0.0,-1.0,0.0188792530712259,1.0,0.0
31.87592315673828,14.313199043273926,-1.654951810836792,0.3860057353550332,0.5598909458041667,-0.7331587147947816,0.0209492735367365,4.0,0.0
31.942598342895508,15.489009857177734,-1.6048729419708252,-0.0341273124722277,-0.9378219183479196,-0.3454350532439503,0.0617659633534518,3.0,0.0
32.01158142089844,15.25993537902832,-1.6329715251922607,-0.0,-0.0,-1.0,0.0914562569664571,2.0,0.0
30.31548309326172,15.625001907348633,-1.2130858898162842,-0.0,-0.0,-1.0,0.1031783914954309,1.0,0.0
30.702388763427734,14.467779159545898,-1.373891830444336,-0.1233230597194867,-0.9850008399571092,-0.1206845815554476,0.1697669090694498,4.0,0.0
31.809232711791992,13.28396987915039,-1.0556998252868652,-0.0,-0.0,-1.0,0.1636235520534983,1.0,0.0
32.67327880859375,13.50763988494873,-1.214975118637085,-0.0,-0.0,-1.0,0.2089518620839844,2.0,0.0
32.677940368652344,13.355297088623049,-1.223114252090454,-0.0,-0.0,-1.0,0.132627629476443,1.0,0.0
30.386024475097656,14.129701614379885,-1.5647478103637695,-0.0,-0.0,-1.0,0.0276332389966654,1.0,0.0
30.234317779541016,13.936100006103516,-1.5442941188812256,-0.0,-0.0,-1.0,0.0321895677077609,1.0,0.0
30.58310890197754,14.681568145751951,-1.5686447620391846,0.033227548476446,-0.962808319923606,-0.26813442357916,0.0554221977843188,3.0,0.0
30.467708587646484,14.360097885131836,-1.565786361694336,-0.0,-0.0,-1.0,0.0725600416735476,1.0,0.0
30.759632110595703,14.819210052490234,-1.6021559238433838,-0.0,-0.0,-1.0,0.0425073527834934,1.0,0.0
32.55937957763672,13.443690299987791,-1.509500503540039,-0.0,-0.0,-1.0,0.2082332339535062,1.0,0.0
32.34736633300781,13.415555000305176,-1.4656882286071775,-0.3197423390910333,0.6431749335366821,-0.6957663698848051,0.1824569839185308,4.0,0.0
32.318416595458984,13.328335762023926,-1.465165138244629,0.5754293232613164,0.3690437132419329,-0.7298546647433508,0.1345119526676065,7.0,0.0
30.626644134521484,14.510746002197266,-1.340550661087036,-0.0,-0.0,-1.0,0.1066377246295565,1.0,0.0
30.966646194458008,13.150299072265623,-1.5290534496307373,-0.0,-0.0,-1.0,0.0205371407481705,2.0,0.0
31.10394287109375,13.940053939819336,-1.4983835220336914,-0.0,-0.0,-1.0,0.1170327181919225,1.0,0.0
31.343788146972656,13.549333572387695,-1.586360216140747,-0.0,-0.0,-1.0,0.0116446191306997,1.0,0.0
31.177391052246097,13.354240417480469,-1.5621445178985596,-0.0,-0.0,-1.0,0.0839650314680228,1.0,0.0
31.673120498657227,14.88461971282959,-1.571659803390503,-0.0,-0.0,-1.0,0.1903494538495431,1.0,0.0
31.682083129882812,14.075183868408203,-1.6285498142242432,0.9964560242752508,0.0424015048371985,-0.0726464319364835,0.0410116960499735,3.0,0.0
31.570703506469727,13.813117980957031,-1.6206657886505127,-0.0,-0.0,-1.0,0.0254807319046437,1.0,0.0
32.042198181152344,15.398126602172852,-1.6326215267181396,-0.0,-0.0,-1.0,0.0791969585434125,1.0,0.0
32.010292053222656,14.512432098388672,-1.6787278652191162,-0.0,-0.0,-1.0,0.0368042259982039,2.0,0.0
31.89546585083008,14.285699844360352,-1.6657192707061768,0.3860057353550332,0.5598909458041667,-0.7331587147947816,0.0301129146787032,4.0,0.0
32.06888198852539,15.56528377532959,-1.6300835609436035,0.3797547212832625,-0.6533160597922274,0.6549537981267308,0.0710705422596553,3.0,0.0
32.10239028930664,15.417562484741213,-1.6465785503387451,-0.0,-0.0,-1.0,0.0944208444814698,2.0,0.0
32.271366119384766,14.959270477294922,-1.7151262760162354,-0.2618891369683448,-0.4353287565871384,-0.8613378858649324,0.072409170762831,3.0,0.0
31.87982177734375,13.140158653259276,-1.1408040523529053,-0.0,-0.0,-1.0,0.0864351040081736,1.0,0.0
32.311038970947266,13.28817367553711,-1.2206809520721436,-0.0,-0.0,-1.0,0.1845487416784145,1.0,0.0
32.52153015136719,13.485071182250977,-1.2526564598083496,-0.5876615648209441,0.6105634734857889,-0.5309106611070904,0.1345839877480567,4.0,0.0
30.58517074584961,14.423797607421877,-1.3946683406829834,-0.0,-0.0,-1.0,0.1373770006052883,1.0,0.0
30.885215759277344,13.845867156982422,-1.4960050582885742,-0.0,-0.0,-1.0,0.1393678532827121,2.0,0.0
30.99628448486328,13.300050735473633,-1.5473966598510742,0.6132078326513705,-0.0179344551944901,-0.7897179935216657,0.057973310372691,4.0,0.0
31.277664184570312,13.959060668945312,-1.598921298980713,-0.0,-0.0,-1.0,0.0321253692585724,2.0,0.0
31.077449798583984,13.498248100280762,-1.5612661838531494,-0.0,-0.0,-1.0,0.1029000984990628,1.0,0.0
31.50598526000977,14.693399429321287,-1.640594720840454,0.2194597842178824,0.7982446680378802,-0.5609303459968401,0.1154562001163718,3.0,0.0
31.400177001953125,14.365283012390137,-1.6200358867645264,-0.0,-0.0,-1.0,0.0798432940543527,1.0,0.0
32.20808410644531,13.195674896240234,-1.279473066329956,-0.0,-0.0,-1.0,0.173035366839573,1.0,0.0
30.37661361694336,13.989860534667969,-1.6338422298431396,-0.0,-0.0,-1.0,0.0266542238663962,1.0,0.0
30.224624633789062,13.790101051330566,-1.598625659942627,-0.0,-0.0,-1.0,0.0326212542791623,1.0,0.0
30.519859313964844,14.867416381835938,-1.6436526775360107,-0.0,-0.0,-1.0,0.0455854630901564,2.0,0.0
30.40937232971191,14.548897743225098,-1.6213257312774658,-0.0,-0.0,-1.0,0.0328133378289127,2.0,0.0
30.402427673339844,14.217031478881836,-1.631835699081421,-0.0,-0.0,-1.0,0.0185975570002952,1.0,0.0
30.54293441772461,14.915847778320312,-1.649092197418213,-0.0,-0.0,-1.0,0.0340450287949953,1.0,0.0
30.449623107910156,14.817110061645508,-1.6243042945861816,-0.0,-0.0,-1.0,0.0442703468316255,1.0,0.0
30.380794525146484,14.558853149414062,-1.6127281188964844,0.1790255033453158,0.885030493359083,-0.4297335162359745,0.0262186202618158,3.0,0.0
31.996143341064453,13.283668518066406,-1.552753448486328,0.9914040883204656,-0.0766778862520541,-0.1060114872142804,0.0762329111200253,4.0,0.0
32.18166732788086,13.44803237915039,-1.595649003982544,-0.0,-0.0,-1.0,0.1143495347903932,2.0,0.0
32.49291229248047,13.7167387008667,-1.6690735816955566,-0.0,-0.0,-1.0,0.0330667548175037,2.0,0.0
32.150856018066406,15.366923332214355,-1.5528287887573242,-0.0,-0.0,-1.0,0.2075549514983985,1.0,0.0
32.65013122558594,13.89760971069336,-1.7056756019592283,-0.0,-0.0,-1.0,0.0631391176525622,1.0,0.0
30.714080810546875,13.141998291015623,-1.5245752334594729,-0.0,-0.0,-1.0,0.0161210359667163,2.0,0.0
30.860916137695312,13.8522367477417,-1.544295310974121,0.6310827516811399,-0.3386421383732823,-0.6978940196394658,0.1298823143276063,4.0,0.0
30.95622444152832,13.478957176208496,-1.5823936462402344,-0.0,-0.0,-1.0,0.0752580725718208,1.0,0.0
30.847570419311523,14.039436340332031,-1.5358192920684814,-0.0451807828635282,-0.584379173544106,-0.8102219932757606,0.1120255836052212,4.0,0.0
31.17133903503418,14.080601692199709,-1.629011154174805,0.4832884984656465,0.5366858865034658,-0.6916650103039832,0.0448075838495501,3.0,0.0
31.300779342651367,14.48329734802246,-1.6598193645477295,-0.0,-0.0,-1.0,0.0636698198827581,1.0,0.0
31.223175048828125,14.220483779907228,-1.641319751739502,-0.0,-0.0,-1.0,0.0465943523909187,1.0,0.0
31.43683624267578,14.935585021972656,-1.6950185298919678,-0.0,-0.0,-1.0,0.0469388004574886,1.0,0.0
31.43902587890625,14.75328254699707,-1.697160005569458,0.7704069036265532,0.633021997776598,-0.0758706344738969,0.0325380230395296,3.0,0.0
30.754562377929688,14.430108070373535,-1.5007576942443848,-0.0,-0.0,-1.0,0.2126453705677477,2.0,0.0
31.784210205078125,13.291406631469728,-1.2669289112091064,-0.0,-0.0,-1.0,0.0771474772546628,1.0,0.0
32.23605728149414,13.23057460784912,-1.3822026252746582,0.5999947028134128,0.7135454311018737,-0.3617447640940858,0.2125726878097716,3.0,0.0
32.40373229980469,13.370678901672363,-1.4227936267852783,-0.6825580262454894,0.6061472288130502,-0.4082892085398793,0.2074310378036265,3.0,0.0
32.457489013671875,13.145356178283691,-1.4395320415496826,-0.0,-0.0,-1.0,0.1279023637647907,1.0,0.0
32.63288879394531,15.27505874633789,-1.4792757034301758,-0.0,-0.0,-1.0,0.1968902676815395,2.0,0.0
31.54911422729492,13.507341384887695,-1.6100895404815674,-0.0,-0.0,-1.0,0.0138684662315086,2.0,0.0
31.69886016845703,14.01633071899414,-1.6464011669158936,-0.0,-0.0,-1.0,0.0337503004900764,2.0,0.0
31.668487548828125,13.806361198425291,-1.6400084495544434,-0.0,-0.0,-1.0,0.0345884410739918,2.0,0.0
31.84991455078125,14.397258758544922,-1.6883466243743896,-0.0,-0.0,-1.0,0.0244544011840107,1.0,0.0
31.83979034423828,14.904256820678713,-1.685304880142212,-0.0,-0.0,-1.0,0.1804442260276188,1.0,0.0
31.851791381835938,15.158985137939451,-1.6902296543121338,-0.0,-0.0,-1.0,0.0436280325198988,1.0,0.0
30.74507522583008,14.429214477539062,-1.3614284992218018,0.352352284923078,0.9317975309367388,-0.0871850253752549,0.1710213349457919,4.0,0.0
32.704132080078125,13.3017578125,-1.381817102432251,-0.0,-0.0,-1.0,0.1851767569395992,1.0,0.0
32.529563903808594,13.58502960205078,-1.335911750793457,-0.0,-0.0,-1.0,0.1841013882672251,1.0,0.0
30.73398208618164,13.168718338012695,-1.5018980503082275,0.1442236907841672,0.57566647224833,-0.8048649823080612,0.0251399972785848,3.0,0.0
31.000797271728516,13.419979095458984,-1.574130296707153,-0.0,-0.0,-1.0,0.0637925073313624,1.0,0.0
31.00176239013672,13.878011703491213,-1.5568134784698486,-0.0,-0.0,-1.0,0.211508957800618,2.0,0.0
31.117053985595703,13.59149169921875,-1.603717803955078,-0.0,-0.0,-1.0,0.0272494507614887,2.0,0.0
30.983814239501953,14.374004364013672,-1.5364909172058103,-0.0,-0.0,-1.0,0.071514927949121,1.0,0.0
31.281444549560547,14.183566093444824,-1.6368961334228516,-0.0,-0.0,-1.0,0.0478284511803126,1.0,0.0
32.329811096191406,13.351244926452637,-1.4697284698486328,0.4782244534095164,-0.2200953071830594,-0.8502114018978835,0.178407247849983,8.0,0.0
32.46403121948242,13.248824119567873,-1.5101943016052246,-0.0,-0.0,-1.0,0.202746219152859,1.0,0.0
31.45362091064453,14.568825721740724,-1.6837406158447266,-0.0,-0.0,-1.0,0.0472918919427357,2.0,0.0
31.53301239013672,14.942502975463867,-1.7041654586791992,-0.0,-0.0,-1.0,0.0766206914870204,2.0,0.0
31.515241622924805,14.782751083374023,-1.7001938819885254,-0.0,-0.0,-1.0,0.0529602916207816,2.0,0.0
32.00737762451172,13.385862350463867,-1.586759090423584,-0.0,-0.0,-1.0,0.0359875231456052,2.0,0.0
32.0235710144043,13.338411331176758,-1.5922489166259766,-0.0,-0.0,-1.0,0.0357556061320024,2.0,0.0
32.17612838745117,13.684870719909668,-1.6435151100158691,-0.0,-0.0,-1.0,0.06144018330272,1.0,0.0
32.264156341552734,13.765096664428713,-1.6734371185302734,-0.0,-0.0,-1.0,0.0206778374993225,1.0,0.0
32.35485076904297,14.121768951416016,-1.7082037925720217,-0.0,-0.0,-1.0,0.0172501571730926,1.0,0.0
32.34241485595703,13.915496826171877,-1.7008328437805176,-0.0,-0.0,-1.0,0.0195824675648914,1.0,0.0
31.761619567871097,14.89167022705078,-1.528472661972046,-0.0,-0.0,-1.0,0.2284547598977135,2.0,0.0
32.37946319580078,14.519624710083008,-1.7249841690063477,-0.0,-0.0,-1.0,0.0215765802061116,1.0,0.0
32.1474609375,15.348527908325195,-1.674856185913086,-0.0,-0.0,-1.0,0.0451215739605213,2.0,0.0
32.37841033935547,15.091529846191406,-1.7424864768981934,-0.0,-0.0,-1.0,0.0421493244871626,2.0,0.0
32.41917037963867,14.860034942626951,-1.748002052307129,-0.0,-0.0,-1.0,0.0569394338119744,1.0,0.0
32.05412292480469,15.535070419311523,-1.6516637802124023,0.3797547212832625,-0.6533160597922274,0.6549537981267308,0.080769248015511,3.0,0.0
32.6088752746582,13.14482593536377,-1.2798645496368408,-0.0,-0.0,-1.0,0.1514313341036183,1.0,0.0
32.527957916259766,13.483299255371094,-1.2602458000183103,-0.5459113704983604,0.5857069869553864,-0.5991060849234007,0.1345839877480567,3.0,0.0
32.628753662109375,13.404025077819824,-1.288578748703003,-0.0,-0.0,-1.0,0.1945383472847455,1.0,0.0
30.328765869140625,15.351167678833008,-1.32774555683136,0.9481127201196848,0.2707530937198704,0.1666584296949048,0.2469293536578267,4.0,0.0
30.28293228149414,15.250884056091309,-1.3296762704849243,-0.0,-0.0,-1.0,0.1405717601016081,2.0,0.0
32.48304748535156,13.923298835754396,-1.6547945737838743,-0.0,-0.0,-1.0,0.0713903638703892,2.0,0.0
32.407684326171875,14.898133277893066,-1.6999589204788208,-0.0,-0.0,-1.0,0.0538424346955828,1.0,0.0
32.43162536621094,14.56047821044922,-1.6835848093032837,-0.9684472600269608,0.0953327539817751,-0.2302641321711281,0.0205535761983439,3.0,0.0
32.57552719116211,15.45498752593994,-1.695902943611145,-0.0,-0.0,-1.0,0.118275397038924,1.0,0.0
30.52912139892578,15.5827054977417,-1.3115779161453247,-0.0,-0.0,-1.0,0.1309741189828785,1.0,0.0
31.754796981811523,13.194348335266112,-1.0789200067520142,-0.0,-0.0,-1.0,0.1290317415884609,1.0,0.0
30.30496406555176,15.052422523498535,-1.4445172548294067,-0.0,-0.0,-1.0,0.0928890540642531,1.0,0.0
30.390621185302734,15.295931816101074,-1.4403184652328491,-0.0,-0.0,-1.0,0.1811808349188265,1.0,0.0
30.617902755737305,15.52462100982666,-1.4173213243484497,-0.0,-0.0,-1.0,0.1324806049634656,1.0,0.0
30.68680191040039,15.490693092346191,-1.565383791923523,-0.0,-0.0,-1.0,0.105942850817262,2.0,0.0
30.55316925048828,15.218152046203612,-1.580842137336731,-0.0,-0.0,-1.0,0.0286741646785595,1.0,0.0
30.53553771972656,14.825030326843262,-1.5794283151626587,-0.0,-0.0,-1.0,0.0453315014244445,2.0,0.0
30.635469436645508,14.421940803527832,-1.5625749826431274,-0.0,-0.0,-1.0,0.0938073831420501,1.0,0.0
30.524669647216797,14.079699516296388,-1.5768357515335083,-0.0,-0.0,-1.0,0.0561917998420566,1.0,0.0
30.651329040527344,13.543257713317873,-1.558555006980896,-0.0,-0.0,-1.0,0.0363929398033753,1.0,0.0
31.003402709960938,13.742904663085938,-1.5085591077804563,-0.0,-0.0,-1.0,0.1433605109294535,2.0,0.0
32.343505859375,15.084236145019531,-1.6922426223754885,-0.0,-0.0,-1.0,0.0865539177752263,2.0,0.0
32.2786750793457,14.728906631469728,-1.6901569366455078,-0.0,-0.0,-1.0,0.0295386225066516,1.0,0.0
32.54889678955078,15.31926727294922,-1.6688518524169922,-0.0,-0.0,-1.0,0.2111983007874911,1.0,0.0
32.4268684387207,14.250551223754885,-1.651961326599121,-0.0,-0.0,-1.0,0.0263273357506994,2.0,0.0
30.381933212280273,15.331090927124023,-1.2632932662963867,-0.0,-0.0,-1.0,0.1575607948522221,1.0,0.0
30.526113510131836,15.4960355758667,-1.2510006427764893,-0.0,-0.0,-1.0,0.1541214743593547,1.0,0.0
32.475921630859375,15.35848617553711,-1.6881952285766602,-0.0,-0.0,-1.0,0.1468122857649455,2.0,0.0
32.28057098388672,14.926626205444336,-1.7014262676239014,-0.0,-0.0,-1.0,0.0589798269677523,2.0,0.0
32.27796173095703,14.638147354125977,-1.6910593509674072,-0.0,-0.0,-1.0,0.0280272940318372,1.0,0.0
32.4342041015625,14.37869644165039,-1.657304048538208,-0.0,-0.0,-1.0,0.0275086943234233,1.0,0.0
32.28295135498047,14.265558242797852,-1.6773836612701416,-0.0,-0.0,-1.0,0.0284908992009785,1.0,0.0
30.415254592895508,15.3905611038208,-1.2714171409606934,-0.0,-0.0,-1.0,0.1782660116046867,1.0,0.0
31.09284782409668,15.633707046508787,-1.667879343032837,-0.0,-0.0,-1.0,0.0461046489907748,1.0,0.0
31.002939224243164,15.404488563537598,-1.6741106510162354,-0.0,-0.0,-1.0,0.0289311903638461,2.0,0.0
31.090150833129883,15.144658088684082,-1.6537466049194336,-0.6124689836266238,0.3914860438978736,-0.6867462570182399,0.037534889911348,3.0,0.0
31.076234817504883,14.8617582321167,-1.64821195602417,-0.0,-0.0,-1.0,0.0233514704976881,1.0,0.0
31.195398330688477,14.602010726928713,-1.62412428855896,-0.0,-0.0,-1.0,0.0590582824116419,1.0,0.0
31.85110092163086,14.81464672088623,-1.531827449798584,-0.0,-0.0,-1.0,0.1788140733455147,2.0,0.0
31.288768768310547,14.275611877441406,-1.6028060913085938,-0.0,-0.0,-1.0,0.0764027081603873,1.0,0.0
31.23819923400879,14.041529655456545,-1.6056625843048096,-0.0,-0.0,-1.0,0.0293849009926368,1.0,0.0
31.033788681030273,15.625417709350586,-1.6529594659805298,-0.0,-0.0,-1.0,0.0511527139948863,2.0,0.0
30.957448959350582,15.394428253173828,-1.6589435338974,-0.0,-0.0,-1.0,0.0309001946116516,2.0,0.0
30.97986221313477,15.181143760681152,-1.6509569883346558,-0.0,-0.0,-1.0,0.0330836297216268,2.0,0.0
31.015005111694336,14.792770385742188,-1.6381241083145142,-0.0,-0.0,-1.0,0.034421433223789,1.0,0.0
31.83062744140625,14.854886054992676,-1.516255259513855,-0.0,-0.0,-1.0,0.1982234156882616,2.0,0.0
31.203142166137695,14.442826271057127,-1.6038347482681274,-0.0,-0.0,-1.0,0.0998943167196648,2.0,0.0
31.16741180419922,14.221023559570312,-1.605998158454895,-0.0,-0.0,-1.0,0.0636198444386016,1.0,0.0
31.12909889221191,14.024601936340332,-1.6092952489852903,-0.0,-0.0,-1.0,0.0558349136998397,2.0,0.0
32.445899963378906,15.50917625427246,-1.639180064201355,-0.0,-0.0,-1.0,0.0895515545353706,2.0,0.0
32.20301055908203,15.242254257202148,-1.6654449701309204,-0.0,-0.0,-1.0,0.0591894053407823,2.0,0.0
32.1004753112793,15.069509506225586,-1.6742445230484009,-0.0,-0.0,-1.0,0.0397314000526874,2.0,0.0
31.993497848510746,14.817371368408203,-1.6808911561965942,-0.0,-0.0,-1.0,0.0613891770836852,1.0,0.0
31.947612762451172,14.414658546447754,-1.672601342201233,-0.0,-0.0,-1.0,0.0325374803521466,1.0,0.0
32.01019287109375,14.14941120147705,-1.6529563665390017,-0.0,-0.0,-1.0,0.0247997441606252,1.0,0.0
32.04050064086914,13.950615882873535,-1.6413143873214722,-0.0,-0.0,-1.0,0.0328114359264455,1.0,0.0
30.40847396850586,15.477712631225586,-1.249524712562561,-0.0,-0.0,-1.0,0.1569164590263244,1.0,0.0
32.45625305175781,15.526123046875,-1.6582930088043213,-0.0,-0.0,-1.0,0.0857519408279129,2.0,0.0
32.24384307861328,15.24087142944336,-1.6797282695770264,-0.1012453241956947,-0.9755661663732365,-0.1949872799859919,0.0678293389099513,3.0,0.0
32.18857192993164,15.033327102661133,-1.6795713901519775,-0.0,-0.0,-1.0,0.0418079717272844,1.0,0.0
32.14409637451172,14.67023754119873,-1.6715686321258545,-0.0,-0.0,-1.0,0.0370777764846849,2.0,0.0
32.353912353515625,14.44275951385498,-1.627502202987671,-0.0,-0.0,-1.0,0.0321568193954356,2.0,0.0
32.13323974609375,14.236801147460938,-1.6564948558807373,-0.0,-0.0,-1.0,0.0225835790997189,1.0,0.0
32.14448547363281,13.98782444000244,-1.6456692218780518,-0.0,-0.0,-1.0,0.0114400125326955,2.0,0.0
30.402793884277344,15.512948989868164,-1.303863286972046,-0.0,-0.0,-1.0,0.1205541729628533,1.0,0.0
30.762264251708984,15.541605949401855,-1.635365605354309,-0.0,-0.0,-1.0,0.0700550051398348,1.0,0.0
30.68054580688477,15.187931060791016,-1.63044536113739,-0.0,-0.0,-1.0,0.0241203859928414,1.0,0.0
30.77068519592285,14.72120189666748,-1.5953885316848757,-0.0,-0.0,-1.0,0.0719203581555654,2.0,0.0
30.690223693847656,14.346054077148438,-1.5919617414474487,-0.0,-0.0,-1.0,0.0854397106528543,1.0,0.0
30.96487617492676,14.045106887817385,-1.5377088785171509,-0.0,-0.0,-1.0,0.0941135538773275,2.0,0.0
31.57740020751953,14.845312118530272,-1.477340817451477,-0.0,-0.0,-1.0,0.2319045675460156,1.0,0.0
30.350996017456055,15.545635223388672,-1.5402135848999023,-0.0,-0.0,-1.0,0.1194410173002184,1.0,0.0
30.216075897216797,15.261934280395508,-1.572537183761597,-0.0,-0.0,-1.0,0.0857837413191229,1.0,0.0
31.5294246673584,15.49288272857666,-1.418389081954956,-0.0,-0.0,-1.0,0.1246309489950375,1.0,0.0
30.703943252563477,15.535693168640137,-1.5555922985076904,-0.0,-0.0,-1.0,0.1060796458137725,2.0,0.0
30.605688095092773,15.306968688964844,-1.570417881011963,-0.0,-0.0,-1.0,0.0659532165771949,1.0,0.0
30.463647842407227,14.901494979858398,-1.5926203727722168,-0.0,-0.0,-1.0,0.0396170183276993,1.0,0.0
30.730247497558594,14.030987739562988,-1.549350023269653,-0.0,-0.0,-1.0,0.0555339737019996,1.0,0.0
30.604516983032227,14.32305908203125,-1.569338321685791,-0.0,-0.0,-1.0,0.0891213170936386,2.0,0.0
30.884136199951172,13.533523559570312,-1.5272226333618164,-0.0,-0.0,-1.0,0.0819980255450097,1.0,0.0
30.61345863342285,13.87858772277832,-1.570021390914917,-0.0,-0.0,-1.0,0.0405230632206793,2.0,0.0
32.63639831542969,15.282949447631836,-1.596635103225708,-0.0,-0.0,-1.0,0.185701993386831,1.0,0.0
32.3336067199707,15.513520240783691,-1.661597728729248,-0.3388131210866978,0.1584084724176544,-0.927422462983184,0.0970718563759079,3.0,0.0
32.12729263305664,15.085798263549805,-1.6851840019226074,-0.0,-0.0,-1.0,0.0326585371597971,2.0,0.0
32.115394592285156,14.681053161621094,-1.6749227046966553,-0.0,-0.0,-1.0,0.0392018113196456,2.0,0.0
32.188777923583984,14.142046928405762,-1.646974802017212,-0.0,-0.0,-1.0,0.0157669235923918,1.0,0.0
32.64603805541992,13.81623077392578,-1.553164005279541,-0.0,-0.0,-1.0,0.0603714232342639,1.0,0.0
30.23042106628418,15.266724586486816,-1.4113309383392334,-0.2096736806516724,0.450025976944616,-0.8680515927737386,0.1098401269325227,3.0,0.0
30.265113830566406,15.417709350585938,-1.4097497463226318,-0.4200683974035585,0.8616088888881989,-0.2849081678219319,0.1826524693031632,3.0,0.0
31.00088119506836,15.623239517211914,-1.6457653045654297,-0.0,-0.0,-1.0,0.0472305529367409,2.0,0.0
31.64744758605957,14.801626205444336,-1.5139896869659424,-0.0,-0.0,-1.0,0.1899941376975934,1.0,0.0
30.966129302978516,15.227357864379885,-1.6462984085083008,-0.0,-0.0,-1.0,0.0355017698922269,2.0,0.0
30.877779006958008,15.50253963470459,-1.6666560173034668,-0.0,-0.0,-1.0,0.036956319424737,1.0,0.0
31.14154052734375,14.43612289428711,-1.6058390140533447,-0.0,-0.0,-1.0,0.0947991708426957,1.0,0.0
31.035625457763672,14.706771850585938,-1.627652883529663,-0.0,-0.0,-1.0,0.0485096265922982,1.0,0.0
31.314428329467773,13.869584083557127,-1.5715928077697754,-0.0,-0.0,-1.0,0.0393085118694289,1.0,0.0
31.199480056762695,14.100875854492188,-1.5936167240142822,-0.0,-0.0,-1.0,0.0441181568666919,2.0,0.0
31.276159286499023,13.790602684020996,-1.5788142681121826,-0.0,-0.0,-1.0,0.0445309224038431,1.0,0.0
30.209867477416992,15.421249389648438,-1.189443826675415,-0.0,-0.0,-1.0,0.1195901011739791,2.0,0.0
32.31214141845703,15.553616523742676,-1.6469072103500366,-0.3388131210866978,0.1584084724176544,-0.927422462983184,0.1006050865448131,3.0,0.0
32.16368865966797,15.203155517578123,-1.6782647371292114,0.3223048238452127,0.4089229632878751,-0.853757348795294,0.049028697566387,3.0,0.0
32.07655334472656,14.86061954498291,-1.6987773180007937,-0.0,-0.0,-1.0,0.027611101252575,1.0,0.0
32.19841384887695,14.294005393981934,-1.6786500215530396,-0.0,-0.0,-1.0,0.0255931982814067,1.0,0.0
30.390167236328125,15.517919540405272,-1.500430941581726,-0.0,-0.0,-1.0,0.1332917579840481,1.0,0.0
32.302127838134766,14.093072891235352,-1.6592575311660769,-0.0,-0.0,-1.0,0.0180666186612972,1.0,0.0
32.326255798339844,14.419702529907228,-1.648018479347229,-0.0,-0.0,-1.0,0.0357165934972493,2.0,0.0
30.291027069091797,15.154027938842772,-1.5221458673477173,-0.0,-0.0,-1.0,0.1317521314787996,2.0,0.0
32.700923919677734,13.65529441833496,-1.5811618566513062,-0.0,-0.0,-1.0,0.1078172218267404,1.0,0.0
32.38603591918945,13.916739463806152,-1.6446212530136108,-0.0,-0.0,-1.0,0.0499256052662491,1.0,0.0
30.28381729125977,13.810592651367188,-1.5528744459152222,-0.0,-0.0,-1.0,0.0351233366908187,2.0,0.0
30.439332962036133,13.345067977905272,-1.5399845838546753,-0.0,-0.0,-1.0,0.0214996122160945,1.0,0.0
32.22026443481445,15.458233833312988,-1.566709280014038,0.4568450948589495,0.8155835636567085,-0.3551281599596703,0.1485548038473837,3.0,0.0
31.92648696899414,15.331178665161133,-1.6320278644561768,-0.0,-0.0,-1.0,0.0683738957097117,2.0,0.0
31.70836067199707,14.97250747680664,-1.6796669960021973,-0.0,-0.0,-1.0,0.1588995726224372,1.0,0.0
31.672115325927734,15.188858032226562,-1.6887733936309814,-0.0,-0.0,-1.0,0.0680161019994925,1.0,0.0
31.732158660888672,14.642338752746582,-1.674260139465332,-0.0,-0.0,-1.0,0.1055870544637714,2.0,0.0
32.5202751159668,14.015423774719238,-1.4976534843444824,-0.0,-0.0,-1.0,0.1208213228639106,1.0,0.0
31.837345123291016,14.045783996582031,-1.653975486755371,-0.0,-0.0,-1.0,0.0448310588571486,2.0,0.0
31.773908615112305,14.291500091552734,-1.6663110256195068,-0.0,-0.0,-1.0,0.0231791712826112,1.0,0.0
32.2473258972168,13.563506126403809,-1.5667393207550049,-0.0,-0.0,-1.0,0.1264884230824774,1.0,0.0
31.94656753540039,13.841140747070312,-1.6314289569854736,-0.0,-0.0,-1.0,0.0579800237735149,1.0,0.0
32.39476013183594,13.243383407592772,-1.5392208099365234,-0.0,-0.0,-1.0,0.219338941955784,2.0,0.0
30.31405258178711,15.466594696044922,-1.4653301239013672,-0.0,-0.0,-1.0,0.2589930420913928,1.0,0.0
30.500024795532227,14.393041610717772,-1.4354469776153564,-0.0,-0.0,-1.0,0.1110859790172297,1.0,0.0
32.38474655151367,15.574652671813965,-1.6919633150100708,-0.0,-0.0,-1.0,0.1003350326776541,1.0,0.0
32.31465148925781,15.177525520324709,-1.7070592641830444,-0.0,-0.0,-1.0,0.0567855866310778,2.0,0.0
30.758541107177734,15.60051727294922,-1.6370114088058472,-0.0,-0.0,-1.0,0.0690924882747659,1.0,0.0
32.29914855957031,14.77256202697754,-1.710922360420227,-0.0,-0.0,-1.0,0.0603250422048943,1.0,0.0
30.75341033935547,15.183256149291992,-1.639018177986145,-0.0,-0.0,-1.0,0.0118664362907816,1.0,0.0
32.38410949707031,14.20535373687744,-1.6932717561721802,-0.0,-0.0,-1.0,0.0263301003598725,1.0,0.0
32.347015380859375,14.414728164672852,-1.700487494468689,-0.0,-0.0,-1.0,0.0335126950082438,1.0,0.0
31.46481704711914,14.767374038696287,-1.4787384271621704,-0.0,-0.0,-1.0,0.1520324926549033,1.0,0.0
30.889339447021484,14.641865730285645,-1.6125565767288208,-0.0,-0.0,-1.0,0.0880379515942718,1.0,0.0
30.773277282714844,14.890547752380373,-1.6364816427230835,-0.0,-0.0,-1.0,0.0243993966758501,1.0,0.0
32.46635437011719,14.021048545837402,-1.6741615533828735,-0.0,-0.0,-1.0,0.1068963211081154,1.0,0.0
30.973997116088867,14.297530174255373,-1.598377346992493,-0.0,-0.0,-1.0,0.0789493191038789,1.0,0.0
31.062084197998047,13.782577514648438,-1.5891724824905396,-0.0,-0.0,-1.0,0.1000283464952624,2.0,0.0
30.99278259277344,14.005934715270996,-1.5998109579086304,-0.0,-0.0,-1.0,0.1050520970255539,1.0,0.0
31.094982147216797,13.553400039672852,-1.5878483057022097,0.1200973440948217,-0.571859473330151,-0.8115130132683839,0.0271062561504606,4.0,0.0
30.22775650024414,15.46514129638672,-1.2628873586654663,0.8803311914281762,0.2307080759021536,0.414476509723017,0.2105460031632103,3.0,0.0
31.42953109741211,13.144975662231444,-1.5235933065414429,-0.0,-0.0,-1.0,0.0583042080231155,1.0,0.0
32.60084533691406,15.587315559387209,-1.7487698793411257,-0.0,-0.0,-1.0,0.1001187197202817,1.0,0.0
32.53276062011719,15.075262069702148,-1.7514358758926392,-0.0,-0.0,-1.0,0.0419490520761563,1.0,0.0
31.28437042236328,15.473773956298828,-1.7098861932754517,0.1615543920380525,0.4523880963412101,-0.8770662396318715,0.0281818922041623,3.0,0.0
32.573368072509766,14.600589752197266,-1.728584885597229,-0.0,-0.0,-1.0,0.0097850707880811,1.0,0.0
32.511077880859375,14.804460525512695,-1.751196026802063,-0.0,-0.0,-1.0,0.0409041356215725,1.0,0.0
31.596921920776367,14.807458877563477,-1.6133795976638794,-0.1093745774394105,0.2956994045122444,-0.9489989799683952,0.1500709000454899,4.0,0.0
31.256744384765625,15.092608451843262,-1.708551287651062,0.6506331235102228,-0.0306307999753265,-0.7587742040186939,0.0489338952041646,3.0,0.0
30.269792556762695,15.319694519042969,-1.5160421133041382,-0.0,-0.0,-1.0,0.1339497659395598,1.0,0.0
30.23682403564453,15.502311706542969,-1.5265003442764282,-0.0,-0.0,-1.0,0.1788904929319432,2.0,0.0
32.60261154174805,14.201456069946287,-1.7154163122177124,-0.0,-0.0,-1.0,0.0388813498606554,2.0,0.0
31.32239151000977,14.5626220703125,-1.6838873624801636,-0.0,-0.0,-1.0,0.0266800319995857,1.0,0.0
31.278289794921875,14.78708839416504,-1.6978975534439087,-0.0,-0.0,-1.0,0.0247530821029235,1.0,0.0
31.464065551757812,13.96011734008789,-1.6445778608322144,-0.0,-0.0,-1.0,0.007749283062079,1.0,0.0
31.427310943603516,14.17845630645752,-1.654180645942688,-0.0,-0.0,-1.0,0.0087784772788932,2.0,0.0
31.592018127441406,13.712254524230955,-1.6121262311935425,0.5960890398875103,-0.7740542032556325,-0.2133493542251157,0.0295203283934087,3.0,0.0
31.94091796875,13.157987594604492,-1.5269957780838013,-0.0,-0.0,-1.0,0.0554094912706263,1.0,0.0
32.53083801269531,13.349483489990234,-1.3651736974716189,-0.0,-0.0,-1.0,0.198584031364555,1.0,0.0
32.283294677734375,13.543770790100098,-1.4287184476852417,-0.0,-0.0,-1.0,0.1149382450370294,2.0,0.0
31.77122688293457,13.211265563964844,-1.17292582988739,-0.0,-0.0,-1.0,0.143091462249525,2.0,0.0
30.262298583984375,13.40827178955078,-1.5175431966781616,-0.0,-0.0,-1.0,0.0218018397663431,2.0,0.0
31.79787826538086,15.584086418151855,-1.6295756101608276,0.395721697422943,-0.8024979742841121,-0.4465437710444532,0.1153263348099012,3.0,0.0
31.568382263183594,15.215624809265137,-1.687970519065857,-0.0,-0.0,-1.0,0.074527953880722,2.0,0.0
31.521739959716797,15.248605728149414,-1.7025302648544312,-0.0,-0.0,-1.0,0.071669524929898,1.0,0.0
30.530248641967773,15.52485466003418,-1.5904678106307983,-0.0,-0.0,-1.0,0.0906477407412111,1.0,0.0
31.58380126953125,14.821455955505373,-1.6762346029281616,0.1945275382108028,0.015833288876328,-0.9807692612643424,0.0867677883344656,4.0,0.0
30.43912124633789,15.127347946166992,-1.6079789400100708,-0.0,-0.0,-1.0,0.035485427888577,1.0,0.0
32.39703369140625,14.039813041687012,-1.4277137517929075,-0.0,-0.0,-1.0,0.0893630361049177,1.0,0.0
31.73880386352539,14.169167518615724,-1.6265562772750854,0.4995046181817907,0.416168343136538,-0.7598019785352312,0.0382283674994306,3.0,0.0
31.588001251220703,14.419299125671388,-1.6720415353775024,-0.0,-0.0,-1.0,0.0975066259224691,2.0,0.0
30.586957931518555,14.58765697479248,-1.5651222467422483,0.8360701059317308,-0.1595529650232538,-0.524909162922112,0.0820550066842502,5.0,0.0
30.51815414428711,14.804764747619627,-1.584084391593933,-0.0,-0.0,-1.0,0.0466204469569798,2.0,0.0
31.72957420349121,13.90883445739746,-1.6317065954208374,-0.0,-0.0,-1.0,0.0287415263715064,2.0,0.0
30.497697830200195,14.262944221496582,-1.5896388292312622,-0.0,-0.0,-1.0,0.0311061070491612,2.0,0.0
32.297576904296875,13.32148265838623,-1.4706135988235474,0.9343073577853388,0.2045555524651347,-0.2919362724018073,0.104120714144818,6.0,0.0
32.17485046386719,13.450450897216797,-1.5048383474349976,0.7199421396712511,-0.5516815811121575,-0.4211065762810773,0.0807220489621242,3.0,0.0
31.776092529296875,13.639531135559082,-1.6216479539871216,-0.0,-0.0,-1.0,0.0656008628842848,1.0,0.0
30.81019592285156,13.891254425048828,-1.5100425481796265,0.2059253581700171,-0.8396314372228563,-0.5026070000404199,0.0941002335007175,3.0,0.0
30.58985137939453,13.779678344726562,-1.5704323053359983,-0.0,-0.0,-1.0,0.0319491900248536,2.0,0.0
30.7004451751709,13.361392974853516,-1.549481749534607,-0.0,-0.0,-1.0,0.0346796526064506,1.0,0.0
30.61454963684082,13.594661712646484,-1.5669294595718384,-0.0,-0.0,-1.0,0.0409408242242004,1.0,0.0
30.255428314208984,15.605361938476562,-1.2448192834854126,-0.0,-0.0,-1.0,0.1489482591669498,2.0,0.0
31.664043426513672,13.310035705566406,-1.2946029901504517,-0.0,-0.0,-1.0,0.0842629253995915,2.0,0.0
30.358997344970703,15.485238075256348,-1.42683207988739,-0.0,-0.0,-1.0,0.1532958279750109,1.0,0.0
30.278900146484375,15.300935745239258,-1.4476865530014038,-0.0,-0.0,-1.0,0.1303265326734464,1.0,0.0
30.66377830505371,14.467347145080566,-1.3481029272079468,-0.4557520191975496,-0.5601857167362959,-0.6917239765701338,0.1314921561564829,3.0,0.0
30.217449188232425,15.419591903686523,-1.3105825185775757,-0.0,-0.0,-1.0,0.132052149063054,1.0,0.0
30.663501739501953,14.430533409118652,-1.204842209815979,-0.0,-0.0,-1.0,0.1977492458460547,1.0,0.0
30.909420013427734,13.78144359588623,-1.5869462490081787,-0.382055546506312,-0.7394715550381692,-0.5542701315001516,0.1082005866733934,3.0,0.0
30.766159057617188,13.52525520324707,-1.56577467918396,-0.0,-0.0,-1.0,0.0541243187558084,2.0,0.0
32.507118225097656,13.95537567138672,-1.6549723148345947,-0.0,-0.0,-1.0,0.0674573166897882,2.0,0.0
32.32416534423828,13.714229583740234,-1.6236746311187744,-0.0,-0.0,-1.0,0.0581338125939931,1.0,0.0
32.501708984375,13.792646408081056,-1.665231227874756,-0.0,-0.0,-1.0,0.0367798707053759,2.0,0.0
31.7426700592041,15.161096572875977,-1.7224023342132568,-0.0,-0.0,-1.0,0.061441815762806,1.0,0.0
31.61536979675293,14.943693161010742,-1.6888933181762695,-0.1283816354340663,0.0525807716085279,-0.9903299541770544,0.0800270121888266,4.0,0.0
31.618335723876953,14.758941650390623,-1.692800760269165,0.8517740208198162,0.5235360636363215,-0.0197739103019168,0.0971104096897563,3.0,0.0
31.625648498535156,14.536938667297363,-1.699615240097046,-0.0,-0.0,-1.0,0.0460357602658644,2.0,0.0
30.819374084472656,14.614294052124023,-1.4677574634552002,-0.0,-0.0,-1.0,0.2094166743321061,1.0,0.0
30.41758155822754,14.885695457458496,-1.5597914457321167,0.5189117830520789,0.5098505598461692,-0.686136260544697,0.0619725356278234,3.0,0.0
30.46253204345703,14.733567237854004,-1.566742777824402,-0.4993613308067107,0.4044990229011728,-0.7661715224197173,0.041766909723661,3.0,0.0
31.907546997070312,15.585609436035156,-1.5828801393508911,-0.0,-0.0,-1.0,0.0829901118201043,1.0,0.0
31.664268493652344,14.928791046142578,-1.4994617700576782,-0.0,-0.0,-1.0,0.1869643522055744,1.0,0.0
32.26652145385742,15.234251976013184,-1.658385157585144,-0.0,-0.0,-1.0,0.0685840079215303,2.0,0.0
32.35641860961914,15.06573486328125,-1.67520272731781,-0.0,-0.0,-1.0,0.0865539177752263,2.0,0.0
32.36079788208008,14.918338775634766,-1.6719359159469604,-0.0,-0.0,-1.0,0.0580255701262625,2.0,0.0
31.75543212890625,15.577959060668944,-1.713334560394287,-0.0,-0.0,-1.0,0.1230948939963704,1.0,0.0
31.819664001464844,15.41723918914795,-1.7269434928894043,-0.0,-0.0,-1.0,0.0736928051689606,1.0,0.0
31.89936065673828,15.158512115478516,-1.7438859939575195,-0.0,-0.0,-1.0,0.0478959519722138,1.0,0.0
31.88531494140625,14.88442325592041,-1.7381134033203125,-0.0,-0.0,-1.0,0.0997836701713404,1.0,0.0
31.95325469970703,14.718120574951172,-1.7542028427124023,-0.0,-0.0,-1.0,0.0469171873019982,1.0,0.0
30.768604278564453,14.175037384033203,-1.573009371757507,-0.0,-0.0,-1.0,0.1272928160396,1.0,0.0
31.07426071166992,13.157221794128418,-1.5625954866409302,-0.0,-0.0,-1.0,0.0158959466192636,1.0,0.0
31.201210021972656,13.519132614135742,-1.6207870244979858,-0.0,-0.0,-1.0,0.0519698903126526,1.0,0.0
32.25225830078125,13.143329620361328,-1.3857258558273315,-0.0,-0.0,-1.0,0.1906450677523914,1.0,0.0
32.34990692138672,13.387218475341797,-1.4219321012496948,-0.1893547279567999,-0.4140250559433838,-0.8903527615790743,0.2079020146716887,6.0,0.0
32.45802688598633,13.271283149719238,-1.4362703561782837,-0.0,-0.0,-1.0,0.1944046841554726,2.0,0.0
30.242612838745117,13.712114334106444,-1.518252730369568,-0.0,-0.0,-1.0,0.032550484214929,2.0,0.0
30.28940773010254,14.290836334228516,-1.5892797708511353,-0.0,-0.0,-1.0,0.0349367355407327,1.0,0.0
30.335853576660156,13.993799209594728,-1.5699602365493774,-0.0,-0.0,-1.0,0.0323649766065549,1.0,0.0
32.4863395690918,14.330116271972656,-1.6823755502700806,-0.0,-0.0,-1.0,0.0277553411041555,2.0,0.0
32.57018280029297,13.940546035766602,-1.6685229539871216,-0.0,-0.0,-1.0,0.0713903638703892,1.0,0.0
32.14772033691406,15.149904251098633,-1.6829317808151243,-0.0,-0.0,-1.0,0.0840422083933534,1.0,0.0
32.377410888671875,14.807024955749512,-1.7006150484085083,-0.0,-0.0,-1.0,0.0557528218086265,1.0,0.0
32.437435150146484,14.593276977539062,-1.694440484046936,-0.0,-0.0,-1.0,0.0194857490135996,2.0,0.0
30.723796844482425,14.475190162658691,-1.3124078512191772,-0.0,-0.0,-1.0,0.1382130260441352,1.0,0.0
31.33595848083496,14.46608829498291,-1.4438549280166626,-0.0,-0.0,-1.0,0.1377396891039901,1.0,0.0
32.14592742919922,13.34063720703125,-1.528567910194397,-0.3941430669401964,-0.6172568217205653,-0.6809150158591024,0.0778235659561252,3.0,0.0
32.4005012512207,14.053010940551758,-1.6403487920761108,0.2025389194078401,-0.1159183438300308,-0.9723892860828982,0.1013276698119029,3.0,0.0
32.412147521972656,13.753461837768556,-1.618939995765686,-0.0,-0.0,-1.0,0.0616683910462521,1.0,0.0
31.72229385375977,14.782054901123049,-1.5565372705459597,-0.9378254936012042,-0.3430204567699194,0.0531065889416149,0.1306149140509854,3.0,0.0
32.414363861083984,14.102642059326172,-1.647478461265564,-0.0,-0.0,-1.0,0.0986312831840984,1.0,0.0
31.82605361938477,15.46912670135498,-1.645527482032776,-0.0,-0.0,-1.0,0.1408663503744353,2.0,0.0
32.04779815673828,15.18120574951172,-1.664512276649475,-0.0,-0.0,-1.0,0.1216642534041289,2.0,0.0
30.833545684814453,13.200749397277832,-1.557207107543945,-0.0,-0.0,-1.0,0.0269502287118082,1.0,0.0
30.68528175354004,13.75226879119873,-1.596750020980835,-0.0,-0.0,-1.0,0.0303932982186614,1.0,0.0
30.79137420654297,13.533093452453612,-1.5923550128936768,-0.0,-0.0,-1.0,0.0554405366490024,2.0,0.0
30.21216583251953,14.538528442382812,-1.6015212535858154,-0.0,-0.0,-1.0,0.0145958064112054,1.0,0.0
30.343292236328125,14.330765724182127,-1.6000535488128662,0.3317450088364413,0.4024770597462,-0.8532042343367519,0.0400937186514241,4.0,0.0
30.587387084960938,13.997279167175291,-1.6088132858276367,-0.0,-0.0,-1.0,0.0153029704427405,2.0,0.0
32.21824645996094,13.236907958984377,-1.5067954063415527,0.2203492526528644,-0.6861095199614919,-0.6933252724901461,0.0900094116980274,3.0,0.0
31.29425811767578,14.305652618408203,-1.4368741512298584,-0.0,-0.0,-1.0,0.0717647269926293,1.0,0.0
31.939788818359375,13.801446914672852,-1.512582302093506,-0.0,-0.0,-1.0,0.1005260188861723,1.0,0.0
32.34935760498047,13.461660385131836,-1.5626356601715088,-0.0,-0.0,-1.0,0.1646684915399933,2.0,0.0
32.5263557434082,13.549819946289062,-1.6128454208374023,-0.0,-0.0,-1.0,0.0677896838445346,1.0,0.0
32.67500686645508,13.948232650756836,-1.6945505142211914,-0.0,-0.0,-1.0,0.0512656520962515,1.0,0.0
32.653011322021484,13.789325714111328,-1.670095682144165,-0.0,-0.0,-1.0,0.0606374285637132,2.0,0.0
31.692073822021484,14.705378532409668,-1.578852891921997,-0.0,-0.0,-1.0,0.1426519158181429,1.0,0.0
31.907222747802734,14.845144271850586,-1.6450920104980469,-0.0,-0.0,-1.0,0.1107145295892594,1.0,0.0
32.438350677490234,14.543006896972656,-1.7191035747528076,-0.0,-0.0,-1.0,0.0210592022930791,2.0,0.0
32.62628936767578,14.25588607788086,-1.722843885421753,-0.0,-0.0,-1.0,0.0179347418234743,2.0,0.0
31.646116256713867,15.478163719177246,-1.68222975730896,-0.0,-0.0,-1.0,0.0768921218746755,1.0,0.0
31.81734848022461,15.22517204284668,-1.6807916164398191,-0.0,-0.0,-1.0,0.0599354694655069,2.0,0.0
32.12643051147461,14.927000045776367,-1.7041778564453125,-0.0,-0.0,-1.0,0.02680652958509,1.0,0.0
32.3559684753418,14.7174711227417,-1.7247514724731443,-0.0,-0.0,-1.0,0.0295572281871304,1.0,0.0
30.750694274902344,14.404582023620604,-1.3329687118530271,-0.0,-0.0,-1.0,0.1536944457458031,2.0,0.0
31.605499267578125,13.26875114440918,-1.5814201831817627,-0.0,-0.0,-1.0,0.0822773306038189,2.0,0.0
31.012340545654297,13.70181655883789,-1.5195634365081787,-0.0,-0.0,-1.0,0.0980994460777954,2.0,0.0
31.547771453857425,13.541333198547363,-1.618382692337036,-0.0,-0.0,-1.0,0.014994017648103,2.0,0.0
32.3114128112793,13.160381317138672,-1.3435850143432615,0.4865501955580567,0.6352572027087285,-0.5997642817049864,0.2131584770812192,3.0,0.0
32.614871978759766,13.216028213500977,-1.417407512664795,-0.0,-0.0,-1.0,0.189518700193698,2.0,0.0
30.60955047607422,14.320671081542969,-1.5505855083465576,-0.0,-0.0,-1.0,0.1147900309883162,2.0,0.0
30.86054229736328,14.186744689941406,-1.5815978050231934,-0.0,-0.0,-1.0,0.1233260816530334,1.0,0.0
31.15733337402344,14.027673721313477,-1.619581937789917,-0.0,-0.0,-1.0,0.0430349734133464,2.0,0.0
30.54449462890625,14.567670822143556,-1.5887417793273926,-0.0,-0.0,-1.0,0.0556081304339544,1.0,0.0
31.61260414123535,14.525339126586914,-1.4396817684173584,-0.0,-0.0,-1.0,0.1498288463180838,2.0,0.0
31.768386840820312,14.659793853759766,-1.4967834949493408,-0.0,-0.0,-1.0,0.1674193910819339,1.0,0.0
31.991344451904297,15.168134689331056,-1.6397528648376465,-0.0,-0.0,-1.0,0.0519742323638867,1.0,0.0
32.28667449951172,15.047567367553713,-1.6756675243377686,-0.0,-0.0,-1.0,0.0893380386315654,1.0,0.0
31.73620986938477,15.558338165283203,-1.6670582294464111,-0.0,-0.0,-1.0,0.1055403774053401,1.0,0.0
31.84317970275879,15.340618133544922,-1.644221305847168,-0.0,-0.0,-1.0,0.0697972916336428,2.0,0.0
31.908506393432617,13.235597610473633,-1.5772188901901243,-0.0,-0.0,-1.0,0.0530649032688966,1.0,0.0
31.760608673095703,13.716440200805664,-1.6140531301498413,-0.9963586081787044,-0.0832514251021411,0.0184044594231246,0.0709939056109216,3.0,0.0
31.931577682495117,13.564323425292969,-1.6352101564407349,-0.0,-0.0,-1.0,0.0551124920302901,2.0,0.0
31.75617027282715,14.058721542358398,-1.67166268825531,-0.0,-0.0,-1.0,0.0528146557974313,1.0,0.0
31.89815139770508,13.929154396057127,-1.6868242025375366,-0.0,-0.0,-1.0,0.0348264063624367,1.0,0.0
31.474740982055664,14.607950210571287,-1.6990677118301392,-0.0,-0.0,-1.0,0.0512082917045575,2.0,0.0
31.635967254638672,14.386198043823242,-1.6991101503372192,-0.0,-0.0,-1.0,0.031674970747935,1.0,0.0
31.204757690429688,15.08022689819336,-1.7245763540267944,-0.0,-0.0,-1.0,0.0404060174727708,1.0,0.0
31.360151290893555,14.908544540405272,-1.7289167642593384,-0.0,-0.0,-1.0,0.0219586729541304,1.0,0.0
30.738346099853516,15.407634735107422,-1.6802178621292114,-0.0,-0.0,-1.0,0.057974335988328,1.0,0.0
31.00094413757324,15.219491958618164,-1.7035523653030396,-0.0,-0.0,-1.0,0.0355017698922269,1.0,0.0
32.31517028808594,15.339550018310549,-1.6626056432724,-0.0,-0.0,-1.0,0.1107041392515286,1.0,0.0
31.78339576721191,13.321170806884766,-1.2170721292495728,-0.0,-0.0,-1.0,0.0817517547931138,1.0,0.0
32.308860778808594,13.272257804870604,-1.3358200788497925,-0.0,-0.0,-1.0,0.1597930235653071,2.0,0.0
32.385231018066406,13.425485610961914,-1.375249266624451,-0.0,-0.0,-1.0,0.1809046990287921,1.0,0.0
30.771957397460938,14.161123275756836,-1.4333823919296265,-0.0,-0.0,-1.0,0.1717949726179204,2.0,0.0
30.48269271850586,15.354276657104492,-1.6076105833053589,-0.0,-0.0,-1.0,0.049613401206767,1.0,0.0
32.1871337890625,15.36893081665039,-1.639567732810974,0.5009317591985603,-0.4234884689243332,-0.7548012250350155,0.0999656786903176,3.0,0.0
32.11543273925781,15.472906112670898,-1.6424978971481323,-0.0,-0.0,-1.0,0.1053361502496522,1.0,0.0
32.55373764038086,13.518181800842283,-1.2496341466903689,-0.5722697962136732,0.6145205626799177,-0.5430209557513577,0.1627085669270086,5.0,0.0
30.273611068725582,15.49750518798828,-1.3587499856948853,-0.0,-0.0,-1.0,0.2099404329803901,1.0,0.0
30.528221130371097,15.472312927246094,-1.344523787498474,-0.0,-0.0,-1.0,0.1956520943119845,1.0,0.0
31.022552490234375,14.546412467956545,-1.1973460912704468,-0.0,-0.0,-1.0,0.1404858736494584,1.0,0.0
30.29397964477539,15.43062973022461,-1.413236141204834,-0.4200683974035585,0.8616088888881989,-0.2849081678219319,0.1935668274865605,3.0,0.0
30.94953155517578,15.56300926208496,-1.7072588205337524,-0.0,-0.0,-1.0,0.0350565051276051,1.0,0.0
30.83498764038086,15.106700897216797,-1.643436074256897,-0.0,-0.0,-1.0,0.0077398972315558,1.0,0.0
30.627460479736328,14.715612411499023,-1.59363853931427,-0.0,-0.0,-1.0,0.0546333345339082,1.0,0.0
32.31521224975586,15.506879806518556,-1.656011939048767,-0.3388131210866978,0.1584084724176544,-0.927422462983184,0.11721466309356,3.0,0.0
32.49409866333008,15.567404747009276,-1.7257720232009888,-0.0,-0.0,-1.0,0.0938410563906028,1.0,0.0
30.941020965576172,13.827462196350098,-1.5377029180526731,-0.279240361861491,-0.9553087567561996,0.0970051522981512,0.1460664908888594,5.0,0.0
31.800012588500977,14.01799201965332,-1.6091101169586182,-0.0,-0.0,-1.0,0.0528146557974313,2.0,0.0
31.09566879272461,13.759817123413086,-1.5987744331359863,-0.0,-0.0,-1.0,0.0775085620399021,2.0,0.0
