x,y,z,nx,ny,nz,curvature,density,label
34.1292839050293,29.74139404296875,-2.404381036758423,-0.0,-0.0,-1.0,0.1280229079621589,1.0,0.0
34.68501663208008,28.822933197021484,-2.261242151260376,-0.0,-0.0,-1.0,0.1469122641782902,2.0,0.0
33.650970458984375,29.89816665649414,-2.3688361644744873,-0.0,-0.0,-1.0,0.0850795898492157,1.0,0.0
33.2557487487793,29.9620304107666,-2.3245227336883545,-0.0438248328365751,0.045291861300948,-0.9980120396702344,0.1164985067212313,3.0,0.0
34.90333557128906,28.91320419311523,-2.223924398422241,-0.0,-0.0,-1.0,0.1697884015210618,2.0,0.0
33.38006591796875,30.209171295166016,-2.345825433731079,-0.0,-0.0,-1.0,0.0754472030311305,1.0,0.0
34.4896354675293,28.933563232421875,-2.160926580429077,-0.0,-0.0,-1.0,0.1707745766549798,2.0,0.0
33.91567611694336,28.60902404785156,-2.3291444778442383,-0.0,-0.0,-1.0,0.132803375708232,1.0,0.0
34.40052795410156,29.660362243652344,-2.175513744354248,-0.5582318901494328,0.8291570259022534,0.0295936347399517,0.2113807595299192,6.0,0.0
34.778934478759766,28.47091293334961,-2.2839503288269043,-0.7099778300422033,0.2845410981143914,-0.6441799782144901,0.1441237362783904,3.0,0.0
34.90928649902344,29.561267852783203,-2.057713031768799,0.0620263332412553,-0.6046716839848834,-0.7940559731980676,0.0835238803173765,4.0,0.0
32.95001983642578,29.781299591064453,-2.3333683013916016,-0.0,-0.0,-1.0,0.2134988833012435,2.0,0.0
32.79431915283203,29.223613739013672,-2.3064212799072266,-0.4305572658003306,0.8969887443233512,-0.1001580422320702,0.2108311931616672,3.0,0.0
34.30474853515625,28.798797607421875,-2.261115074157715,-0.0,-0.0,-1.0,0.100165320355889,1.0,0.0
34.718170166015625,28.72522735595703,-2.2339320182800293,-0.8731288236281712,-0.0770219632357018,-0.4813664659373396,0.1270800106568129,3.0,0.0
34.651763916015625,28.95182228088379,-2.1453027725219727,-0.0,-0.0,-1.0,0.2295805278279969,2.0,0.0
34.1031608581543,30.23779296875,-2.010502815246582,-0.0,-0.0,-1.0,0.1806873563471973,1.0,0.0
35.19857406616211,29.79370880126953,-1.2971060276031494,-0.0,-0.0,-1.0,0.1417538585026214,1.0,0.0
34.665950775146484,29.75206756591797,-1.3173606395721436,-0.0,-0.0,-1.0,0.1580366699817898,1.0,0.0
32.75419235229492,29.262996673583984,-2.316045045852661,-0.0,-0.0,-1.0,0.1766964073475895,1.0,0.0
35.17158126831055,29.475990295410156,-2.037670850753784,0.9236556177204228,0.3829085901498905,-0.0155342023589042,0.1017949602484941,3.0,0.0
35.164939880371094,29.493335723876953,-2.00501012802124,0.9873060586408215,0.1584758544999653,-0.0105900949774805,0.1033131525847993,4.0,0.0
35.127479553222656,29.840038299560547,-2.072324275970459,-0.0,-0.0,-1.0,0.0759425454586294,1.0,0.0
35.205665588378906,29.375099182128903,-2.1352720260620117,-0.0,-0.0,-1.0,0.0722463213131131,2.0,0.0
34.79193878173828,29.387554168701172,-2.1865243911743164,-0.2131495070913253,-0.9768819459851306,-0.0163997327731259,0.0760313237217721,5.0,0.0
33.91432189941406,28.580347061157227,-2.170151710510254,-0.0,-0.0,-1.0,0.0856080121447973,1.0,0.0
33.061378479003906,29.837112426757812,-2.2927284240722656,-0.0,-0.0,-1.0,0.2064150685061943,1.0,0.0
35.15653991699219,29.512187957763672,-2.039771556854248,0.7694496060348469,-0.4977816934058411,-0.400200811446994,0.1033131525847993,7.0,0.0
34.41390609741211,29.02861785888672,-2.34608793258667,-0.0,-0.0,-1.0,0.0381720998384843,2.0,0.0
34.82172393798828,28.920522689819336,-2.2392542362213135,-0.0,-0.0,-1.0,0.1468770293639366,1.0,0.0
34.192291259765625,28.98592758178711,-2.3033061027526855,-0.0,-0.0,-1.0,0.0453260164866037,2.0,0.0
33.329769134521484,29.872089385986328,-2.3090579509735107,-0.0,-0.0,-1.0,0.0687870733200023,2.0,0.0
35.119720458984375,29.466472625732425,-2.1347599029541016,-0.0,-0.0,-1.0,0.1164858700538136,2.0,0.0
34.37354278564453,28.897083282470703,-2.007986545562744,-0.418679808374201,-0.8970481824471407,0.1414629860706443,0.1749723223711919,3.0,0.0
34.30781936645508,29.861541748046875,-2.0968446731567383,-0.0,-0.0,-1.0,0.1984482509075296,2.0,0.0
34.79034423828125,29.635875701904297,-2.0401225090026855,-0.0629506220584269,0.0041137612700284,-0.998008164370748,0.0699403332000504,4.0,0.0
33.815574645996094,30.429685592651367,-2.4359562397003174,-0.0,-0.0,-1.0,0.0576116940046845,1.0,0.0
34.139400482177734,30.054065704345703,-2.348268747329712,-0.0,-0.0,-1.0,0.1423696413214412,1.0,0.0
34.78098678588867,29.123083114624023,-2.1365132331848145,-0.0,-0.0,-1.0,0.1268558197020565,1.0,0.0
34.47932434082031,29.09014129638672,-2.114499807357788,-0.0,-0.0,-1.0,0.2048018130807954,1.0,0.0
34.82587814331055,29.065231323242188,-2.1179046630859375,-0.0,-0.0,-1.0,0.1577425459385595,2.0,0.0
34.433082580566406,28.96377944946289,-2.0486209392547607,-0.0,-0.0,-1.0,0.2448354855966654,2.0,0.0
33.96963882446289,30.432958602905273,-2.194268703460694,0.1378499780680143,0.2799991981417849,-0.9500514894397069,0.2691963457262134,7.0,0.0
34.71305465698242,29.722423553466797,-2.171882152557373,-0.0,-0.0,-1.0,0.113782152281492,2.0,0.0
35.02571487426758,29.43225479125977,-2.169227600097656,-0.0,-0.0,-1.0,0.1050265203967218,1.0,0.0
34.648677825927734,29.165603637695312,-2.1631619930267334,-0.1366484216227096,-0.2953665762341064,-0.9455611003588104,0.1844939482900421,3.0,0.0
34.13832092285156,29.535266876220703,-2.108180046081543,-0.0,-0.0,-1.0,0.2208316882218739,1.0,0.0
34.5672607421875,28.995895385742188,-1.9723647832870483,-0.0,-0.0,-1.0,0.139405464819492,1.0,0.0
34.10087966918945,30.429466247558594,-2.0064430236816406,0.2880496839509927,-0.6880766442212986,-0.6660164496864094,0.1650855213551971,3.0,0.0
34.77315139770508,29.120227813720703,-2.2110402584075928,-0.0,-0.0,-1.0,0.1413839495484738,1.0,0.0
34.81858444213867,29.030670166015625,-2.1403589248657227,-0.0,-0.0,-1.0,0.1680413324542147,2.0,0.0
34.43804168701172,29.46961212158203,-2.1939501762390137,-0.0835196477611656,0.1181405329396092,-0.9894782882482044,0.1668847295692669,4.0,0.0
34.74149703979492,28.510896682739254,-2.2758846282958984,0.3123124235996952,-0.3499369505322484,-0.8831789630179577,0.1750016236906765,3.0,0.0
33.36865997314453,28.59557723999023,-2.3892016410827637,-0.0,-0.0,-1.0,0.0187875050274537,1.0,0.0
35.12688446044922,29.49312973022461,-2.060366153717041,0.2058866137669321,0.5524579717285012,-0.8077133722708917,0.1017949602484942,3.0,0.0
34.741519927978516,29.620330810546875,-2.0521979331970215,-0.0,-0.0,-1.0,0.0807704985030735,1.0,0.0
33.78428268432617,28.98580551147461,-2.435025691986084,-0.0,-0.0,-1.0,0.0695046232463429,2.0,0.0
35.01992416381836,29.700834274291992,-2.0913774967193604,-0.0,-0.0,-1.0,0.1572476261558918,2.0,0.0
34.642723083496094,29.83951187133789,-2.0717341899871826,-0.0,-0.0,-1.0,0.1294951716591248,1.0,0.0
33.869625091552734,30.45692443847656,-2.090901136398315,-0.0,-0.0,-1.0,0.1323351900769145,1.0,0.0
33.57606887817383,29.616931915283203,-2.3936350345611572,-0.0775856483136488,-0.981237099902643,0.1765055833405888,0.1354259330172937,5.0,0.0
34.157108306884766,28.80535125732422,-2.338486433029175,-0.0,-0.0,-1.0,0.0395769657424017,1.0,0.0
33.1352424621582,29.818876266479492,-2.372119426727295,0.7353872370820571,-0.1678907070741576,-0.6565198565275521,0.1639116773537521,3.0,0.0
32.726253509521484,30.135541915893555,-2.378687858581543,-0.0745840073163224,-0.2098767517680172,-0.9748789539834904,0.1467675564164939,3.0,0.0
34.3283805847168,30.204200744628903,-2.3827338218688965,-0.0,-0.0,-1.0,0.0802297667736973,1.0,0.0
33.96942901611328,30.376998901367188,-2.356161594390869,-0.0,-0.0,-1.0,0.2555527970777664,2.0,0.0
34.28409194946289,29.33877182006836,-2.256312847137451,-0.0,-0.0,-1.0,0.1312507299012536,2.0,0.0
34.722408294677734,28.75688934326172,-2.24668550491333,-0.0,-0.0,-1.0,0.1609085365809006,2.0,0.0
34.67413330078125,29.71538543701172,-2.190073728561402,0.4378720248605114,-0.5128163049374797,-0.7384358653497438,0.1517392515192659,3.0,0.0
34.15375518798828,29.77543830871582,-2.1073946952819824,-0.8980246137955606,0.3721271836620161,-0.2346766971753056,0.1867347303439022,3.0,0.0
33.967857360839844,30.44731330871582,-2.3449864387512207,-0.0,-0.0,-1.0,0.2458421241917388,2.0,0.0
34.063819885253906,29.725387573242188,-2.3082468509674072,-0.0,-0.0,-1.0,0.211824399334014,1.0,0.0
34.48332214355469,28.733200073242188,-2.3245251178741455,-0.1466286643306958,0.3227339165402402,-0.9350630213580226,0.0767708126445449,3.0,0.0
34.82410430908203,29.543703079223633,-2.094241142272949,0.0874598440127255,-0.9961670486328558,0.0014095756011929,0.0730429716083229,4.0,0.0
34.65836715698242,28.98001480102539,-2.127007246017456,-0.0,-0.0,-1.0,0.2332390545171983,2.0,0.0
34.36127471923828,29.827865600585938,-2.126570224761963,-0.0,-0.0,-1.0,0.1983597908857333,1.0,0.0
34.60044860839844,28.945411682128903,-2.0961525440216064,-0.0,-0.0,-1.0,0.1611739264497335,2.0,0.0
34.59026336669922,28.880680084228516,-2.0873727798461914,-0.0,-0.0,-1.0,0.1120243764693034,1.0,0.0
34.593360900878906,28.87388610839844,-2.200084686279297,-0.0,-0.0,-1.0,0.2511969753876601,2.0,0.0
32.7542724609375,30.127885818481445,-2.5252327919006348,-0.0,-0.0,-1.0,0.1153016077726727,2.0,0.0
34.01340866088867,29.76493263244629,-2.3526999950408936,-0.8938550241857777,-0.3317220735465228,-0.3016349808292107,0.1299517148832518,3.0,0.0
34.05918884277344,29.03868103027344,-2.2895333766937256,-0.0,-0.0,-1.0,0.0304753226069603,1.0,0.0
34.71989059448242,28.70536231994629,-2.2338740825653076,-0.0,-0.0,-1.0,0.1239499588145688,2.0,0.0
33.929927825927734,30.41098976135254,-2.302304983139038,0.2989207550546973,-0.9362527507916644,0.1846000239235398,0.2288250057559467,3.0,0.0
33.997901916503906,28.730052947998047,-2.3059258460998535,-0.0,-0.0,-1.0,0.0581873766101756,1.0,0.0
34.14668273925781,28.99058532714844,-2.277700185775757,-0.0,-0.0,-1.0,0.0391540920955433,1.0,0.0
34.08867645263672,29.959604263305664,-2.351203680038452,-0.0,-0.0,-1.0,0.0502094904712709,1.0,0.0
33.81689453125,30.56279182434082,-2.3661906719207764,-0.0,-0.0,-1.0,0.186814806689551,1.0,0.0
34.51959991455078,28.869529724121097,-2.1557695865631104,-0.4887335910669256,-0.8478812020238248,0.2055162869883086,0.1538020960400128,3.0,0.0
34.319664001464844,29.5616512298584,-2.1877119541168213,-0.0,-0.0,-1.0,0.1619760654491099,1.0,0.0
33.923858642578125,30.434349060058594,-2.21034836769104,0.1012540891453476,-0.9242170591270612,-0.3681989096261313,0.2764468322851318,3.0,0.0
33.849388122558594,28.76119804382324,-2.3060688972473145,-0.0,-0.0,-1.0,0.0767251723374164,1.0,0.0
34.56360626220703,28.815744400024418,-2.1861813068389893,-0.0,-0.0,-1.0,0.1808065746906823,1.0,0.0
34.27898406982422,29.657121658325195,-2.216473340988159,-0.0,-0.0,-1.0,0.2145645288111817,2.0,0.0
33.96651840209961,30.487695693969727,-2.2454679012298584,-0.0,-0.0,-1.0,0.2326724676878604,2.0,0.0
34.72964096069336,29.796083450317383,-2.052821159362793,-0.4210766382303212,-0.8773774851456225,-0.2300069853204333,0.1220664548427087,3.0,0.0
34.38759231567383,29.38131523132324,-2.0889618396759033,-0.0,-0.0,-1.0,0.2613526943279186,1.0,0.0
34.720848083496094,29.788715362548828,-2.10982084274292,0.0934667398885492,-0.9955093276275456,0.0150049039036757,0.1454124884811946,3.0,0.0
34.798126220703125,29.537654876708984,-2.042388677597046,0.867411160665974,-0.039415655823295,-0.496028511708881,0.0728801626896744,3.0,0.0
34.753578186035156,30.033571243286133,-2.063615560531616,-0.0,-0.0,-1.0,0.1403770977470008,1.0,0.0
33.01163101196289,29.71249771118164,-2.489011526107788,-0.0,-0.0,-1.0,0.1259358773497404,2.0,0.0
34.458919525146484,29.980363845825195,-1.9989097118377688,-0.295885748877809,0.483901131316635,-0.8235844332680767,0.2078680779426324,3.0,0.0
32.77836608886719,30.02503967285156,-2.2486605644226074,-0.0,-0.0,-1.0,0.1214168877326582,1.0,0.0
34.9250373840332,29.24814224243164,-2.216963291168213,-0.0,-0.0,-1.0,0.0826785830922051,1.0,0.0
33.461280822753906,28.314128875732425,-2.354033946990967,-0.0,-0.0,-1.0,0.0265028341476954,1.0,0.0
35.04377365112305,28.905736923217773,-2.2475900650024414,-0.0,-0.0,-1.0,0.0881765622400627,1.0,0.0
34.57568359375,29.66434669494629,-2.1287412643432617,-0.0642919775395834,0.6243824414166105,-0.7784684376868999,0.1310252084533945,4.0,0.0
33.4128532409668,29.875165939331055,-2.3434948921203613,-0.0,-0.0,-1.0,0.063652411785196,1.0,0.0
34.13245391845703,28.78759765625,-2.2944278717041016,-0.0,-0.0,-1.0,0.0269239916569498,1.0,0.0
33.91990280151367,30.371347427368164,-2.3435115814208984,-0.7751627265571552,-0.6252053298796357,-0.0907801897253604,0.1788978138079398,3.0,0.0
34.1914176940918,29.049211502075195,-2.303755283355713,-0.0,-0.0,-1.0,0.049519092130109,2.0,0.0
32.77449417114258,29.106531143188477,-2.558025360107422,-0.0,-0.0,-1.0,0.2036354983247766,1.0,0.0
34.952171325683594,29.826528549194336,-2.0945403575897217,-0.0,-0.0,-1.0,0.1102542676692019,1.0,0.0
34.97587203979492,29.420141220092773,-2.073011636734009,-0.0,-0.0,-1.0,0.0612038006132251,1.0,0.0
33.750308990478516,28.27883529663086,-2.393756866455078,-0.0,-0.0,-1.0,0.0328934670465719,2.0,0.0
33.72279357910156,28.55696678161621,-2.4069113731384277,-0.0,-0.0,-1.0,0.0246666013257587,2.0,0.0
33.85295486450195,28.862079620361328,-2.443436622619629,0.9065449890891738,-0.1593674448776,-0.390868520439412,0.1166478561888751,3.0,0.0
33.73500442504883,29.16905975341797,-2.4460654258728027,-0.0,-0.0,-1.0,0.034965551661818,1.0,0.0
33.824161529541016,29.041603088378903,-2.450474739074707,-0.0,-0.0,-1.0,0.0627236813492741,1.0,0.0
33.63142776489258,29.387277603149418,-2.4453048706054688,-0.0,-0.0,-1.0,0.0353403829662765,1.0,0.0
32.77293395996094,30.184967041015625,-2.3777284622192383,0.2864075528604652,-0.0623113778156106,-0.9560794976670086,0.2132233530456163,3.0,0.0
34.42811584472656,29.63776397705078,-1.956308364868164,-0.0,-0.0,-1.0,0.1765445017806594,1.0,0.0
34.188236236572266,30.0311279296875,-1.9918975830078125,-0.0,-0.0,-1.0,0.1109292321845663,1.0,0.0
34.452491760253906,29.970792770385746,-2.0022239685058594,-0.295885748877809,0.483901131316635,-0.8235844332680767,0.2147195138884877,3.0,0.0
34.12043380737305,30.17469024658203,-2.0067625045776367,-0.0,-0.0,-1.0,0.1794005503317839,1.0,0.0
34.810428619384766,28.771787643432617,-1.870788097381592,-0.0,-0.0,-1.0,0.1386497301911947,1.0,0.0
34.49538040161133,29.190288543701172,-1.9022226333618164,-0.0,-0.0,-1.0,0.1173942991700797,1.0,0.0
34.59184646606445,28.97561836242676,-1.8811612129211424,-0.0,-0.0,-1.0,0.1879711897239824,1.0,0.0
34.40638732910156,29.412843704223633,-1.925034523010254,-0.0,-0.0,-1.0,0.2196204727790522,1.0,0.0
33.51785659790039,28.28431701660156,-2.3826398849487305,-0.0,-0.0,-1.0,0.030613090264392,1.0,0.0
33.47670364379883,28.539287567138672,-2.402538299560547,0.4407654051923663,0.6814919904845286,-0.58420418048063,0.0297839354655591,4.0,0.0
33.442073822021484,28.90376853942871,-2.4343485832214355,-0.0,-0.0,-1.0,0.0522914870846172,1.0,0.0
32.7562141418457,29.241931915283203,-2.3778772354125977,0.0788975871160475,-0.4838646028563784,-0.8715791512248928,0.1312125521034139,3.0,0.0
33.2414436340332,29.22598648071289,-2.4401588439941406,0.484573983689895,-0.5863324784405057,-0.6491550500895135,0.0298290678626059,3.0,0.0
33.40049362182617,29.16841697692871,-2.4553756713867188,-0.0,-0.0,-1.0,0.0785160130104298,1.0,0.0
32.793888092041016,30.62533950805664,-2.5237512588500977,-0.0,-0.0,-1.0,0.1018011468329427,2.0,0.0
32.92682647705078,30.347482681274418,-2.5126209259033203,-0.0,-0.0,-1.0,0.106221385851959,2.0,0.0
32.726314544677734,28.91596221923828,-2.341001510620117,-0.0,-0.0,-1.0,0.0543217912675827,2.0,0.0
33.423973083496094,28.189760208129883,-2.3490490913391113,-0.0,-0.0,-1.0,0.0272754675203389,1.0,0.0
33.33852005004883,28.493568420410156,-2.393454074859619,-0.0,-0.0,-1.0,0.024603759832413,2.0,0.0
33.056766510009766,28.79381942749023,-2.422199249267578,-0.0,-0.0,-1.0,0.0458058051800247,2.0,0.0
33.7626953125,28.26909065246582,-2.360060691833496,-0.0,-0.0,-1.0,0.0328934670465719,2.0,0.0
33.74021530151367,28.445390701293945,-2.3856849670410156,-0.0,-0.0,-1.0,0.0301388254832859,2.0,0.0
33.50038146972656,28.589975357055664,-2.386765480041504,-0.0,-0.0,-1.0,0.0252602583102138,2.0,0.0
33.610923767089844,28.715404510498047,-2.4165611267089844,0.6171926902728027,0.7433075660644339,-0.2580059016867399,0.0216040320654871,3.0,0.0
33.30498504638672,29.193124771118164,-2.465020179748535,-0.0228541899601709,0.6115664106247475,-0.7908629536125887,0.0311916645660715,3.0,0.0
33.453269958496094,29.048267364501953,-2.455136299133301,-0.0,-0.0,-1.0,0.0669928315075028,2.0,0.0
33.08535385131836,29.25751686096191,-2.455962657928467,-0.0,-0.0,-1.0,0.034232551432864,2.0,0.0
34.98121643066406,28.950761795043945,-2.268491268157959,-0.0,-0.0,-1.0,0.1197235608677041,2.0,0.0
34.56702423095703,29.010557174682617,-2.2650718688964844,0.1885278789360866,0.5696391759364544,-0.7999802798208826,0.1057459467953524,4.0,0.0
34.156978607177734,29.347721099853516,-2.3190550804138184,-0.0,-0.0,-1.0,0.0920792545791638,1.0,0.0
33.976558685302734,29.563133239746097,-2.3568968772888184,0.6759026473043757,-0.3296919657222232,-0.6591349020535575,0.1073005799814382,3.0,0.0
32.94999313354492,30.35024070739746,-2.485301971435547,0.2510805731362941,0.9184454761260644,-0.3056410528334127,0.1045843783589474,3.0,0.0
32.72775650024414,30.507835388183594,-2.511129856109619,-0.0,-0.0,-1.0,0.103827500903192,1.0,0.0
34.337894439697266,29.06427001953125,-2.2675514221191406,-0.0,-0.0,-1.0,0.0442954231380577,1.0,0.0
34.242191314697266,29.15036964416504,-2.281668186187744,-0.0,-0.0,-1.0,0.0695102355142755,2.0,0.0
33.75089645385742,29.617298126220703,-2.360124111175537,0.3824552247321768,-0.3026823295202752,-0.8729899246103812,0.0804638080906052,4.0,0.0
33.53385543823242,29.679367065429688,-2.3654303550720215,-0.0,-0.0,-1.0,0.122460596864371,2.0,0.0
33.41059875488281,29.836179733276367,-2.393667697906494,-0.0,-0.0,-1.0,0.0670963435615831,2.0,0.0
33.1357536315918,30.046384811401367,-2.428093433380127,-0.0,-0.0,-1.0,0.0804451983584078,2.0,0.0
32.885562896728516,30.269174575805664,-2.4663376808166504,-0.0,-0.0,-1.0,0.1641464969947988,2.0,0.0
35.08938980102539,28.558124542236328,-2.3403968811035156,-0.0,-0.0,-1.0,0.0239824839312831,1.0,0.0
34.85468292236328,28.791824340820312,-2.347052574157715,-0.0,-0.0,-1.0,0.1220882716585415,1.0,0.0
34.20086669921875,29.514781951904297,-2.378622531890869,-0.0,-0.0,-1.0,0.0844676936157707,1.0,0.0
33.951866149902344,29.766216278076172,-2.3880839347839355,-0.0,-0.0,-1.0,0.0806353374301694,1.0,0.0
33.849754333496094,29.939640045166016,-2.4025416374206543,-0.0,-0.0,-1.0,0.045916308210188,2.0,0.0
33.679107666015625,30.24643898010254,-2.429574489593506,-0.9233604347894578,0.2329179005296036,-0.3052126456723333,0.0893313139287883,3.0,0.0
34.644203186035156,28.865955352783203,-2.333897590637207,-0.0,-0.0,-1.0,0.1050190067165964,1.0,0.0
34.34857940673828,29.036951065063477,-2.3254003524780273,-0.0,-0.0,-1.0,0.0474451210086149,1.0,0.0
32.740966796875,30.18441390991211,-2.3200206756591797,0.4074604407816129,0.8576371343814462,-0.313742784662907,0.2329084329208978,3.0,0.0
32.96049118041992,28.278345108032227,-2.505683422088623,-0.0,-0.0,-1.0,0.0333585762937323,1.0,0.0
35.022098541259766,29.599489212036133,-1.9850759506225584,-0.0,-0.0,-1.0,0.0854712222772891,1.0,0.0
34.75197219848633,29.955018997192383,-2.004560947418213,-0.0,-0.0,-1.0,0.1660093871283285,1.0,0.0
33.852684020996094,30.46784019470215,-1.9791259765625,-0.0,-0.0,-1.0,0.1953455192061797,1.0,0.0
34.12440872192383,30.4762020111084,-1.9688999652862549,-0.0,-0.0,-1.0,0.1696695228908558,1.0,0.0
34.01656723022461,28.47231101989746,-2.31508207321167,-0.0,-0.0,-1.0,0.1231167819411693,1.0,0.0
33.96345520019531,28.88702392578125,-2.3496313095092773,-0.0,-0.0,-1.0,0.0392884271754713,2.0,0.0
33.81442642211914,29.299339294433594,-2.373414993286133,0.865725572462896,-0.3852927203175977,-0.3194820070896899,0.0256174394142979,3.0,0.0
33.5339241027832,29.610483169555664,-2.3725357055664062,-0.357753832218523,-0.4120630480716182,-0.8379834365587951,0.1291418559719621,4.0,0.0
33.48849868774414,30.465261459350582,-2.456378936767578,-0.0,-0.0,-1.0,0.1263501068776757,1.0,0.0
33.152557373046875,29.803071975708008,-2.3486828804016113,0.7353872370820571,-0.1678907070741576,-0.6565198565275521,0.1597131503612231,3.0,0.0
32.86405944824219,29.36823844909668,-2.270364761352539,-0.0,-0.0,-1.0,0.1966580073486728,2.0,0.0
34.30226135253906,29.48634910583496,-2.1393346786499023,-0.0,-0.0,-1.0,0.1458616810965937,1.0,0.0
34.29112243652344,30.168302536010746,-2.199040412902832,-0.0,-0.0,-1.0,0.2131248217137649,1.0,0.0
34.29618835449219,29.241525650024418,-2.1170129776000977,-0.0,-0.0,-1.0,0.1879589797018176,1.0,0.0
34.2032356262207,29.781171798706055,-2.153568744659424,-0.3435778679464852,-0.9352869046494988,-0.0848095197988255,0.1750709335478653,4.0,0.0
34.013832092285156,30.147451400756836,-2.1639480590820312,-0.0,-0.0,-1.0,0.1169563799016612,1.0,0.0
34.965824127197266,28.92803001403809,-2.2709689140319824,-0.0,-0.0,-1.0,0.1360337526748647,2.0,0.0
34.71953582763672,30.457857131958008,-2.3613433837890625,-0.0,-0.0,-1.0,0.0776271797037908,1.0,0.0
34.40839385986328,29.954917907714844,-2.2790374755859375,-0.0,-0.0,-1.0,0.1937924138984892,1.0,0.0
33.93529510498047,30.30921745300293,-2.2473998069763184,-0.8730609263644993,-0.2300914277198817,0.4299099367837278,0.2206754930427322,3.0,0.0
34.594181060791016,29.06939697265625,-2.2321109771728516,-0.0,-0.0,-1.0,0.1615248563173326,1.0,0.0
34.38678741455078,29.46106719970703,-2.235867500305176,-0.0,-0.0,-1.0,0.0986621962873689,2.0,0.0
33.75291442871094,28.245147705078125,-2.3143246173858643,-0.0,-0.0,-1.0,0.0328934670465719,1.0,0.0
33.744178771972656,28.57794189453125,-2.346357583999634,0.5370311866121256,-0.8434640483648493,-0.0128803618719277,0.0745439045473728,3.0,0.0
33.67322540283203,29.00320816040039,-2.3801090717315674,-0.0,-0.0,-1.0,0.076913491070415,1.0,0.0
33.3863525390625,29.259700775146484,-2.369178533554077,-0.0,-0.0,-1.0,0.0328430975774232,1.0,0.0
33.18030548095703,29.87652587890625,-2.4077680110931396,-0.0,-0.0,-1.0,0.1641091015446714,1.0,0.0
33.13433074951172,30.20029067993164,-2.436781644821167,-0.0,-0.0,-1.0,0.049642409132623,1.0,0.0
33.00884246826172,29.30115509033203,-2.3247973918914795,-0.0,-0.0,-1.0,0.0423691451595385,1.0,0.0
32.717681884765625,30.12950134277344,-2.376731634140014,-0.0745840073163224,-0.2098767517680172,-0.9748789539834904,0.1467675564164939,3.0,0.0
32.772979736328125,29.319076538085938,-2.2964632511138916,-0.4402655681438821,-0.0262446056914124,-0.8974839553880878,0.1317039675413505,4.0,0.0
35.00585174560547,29.251300811767575,-2.172647476196289,-0.0,-0.0,-1.0,0.0630170789522277,2.0,0.0
34.726009368896484,29.392070770263672,-2.148800849914551,0.5275643247233138,-0.765341882281625,0.3686837215078171,0.0736709737208723,3.0,0.0
34.67094421386719,29.681808471679688,-2.168646812438965,-0.9437372079914356,-0.1094938462582691,-0.3120435544665206,0.1329251826546476,3.0,0.0
34.064945220947266,30.315975189208984,-2.151771545410156,-0.0,-0.0,-1.0,0.1141020161852499,2.0,0.0
34.02165985107422,30.426006317138672,-2.1571531295776367,-0.0299100683888088,-0.6984090834450846,-0.7150735206748845,0.131195492026783,5.0,0.0
34.25737380981445,29.653141021728516,-2.112218856811523,-0.0,-0.0,-1.0,0.0885056007337186,1.0,0.0
34.752498626708984,28.45330238342285,-2.2625930309295654,0.3855710282790243,-0.8869912704373768,-0.2541288419675033,0.1432648162360035,3.0,0.0
34.51545715332031,28.55298614501953,-2.244077444076538,-0.0,-0.0,-1.0,0.0611201129387723,1.0,0.0
34.47871780395508,28.831653594970703,-2.272691011428833,-0.0,-0.0,-1.0,0.1240331345062339,1.0,0.0
34.18818664550781,29.2691707611084,-2.2893450260162354,0.1719491161276272,-0.9836214515177034,0.0540586864170214,0.1274143484244411,3.0,0.0
34.1125602722168,29.657127380371097,-2.327980279922486,-0.0,-0.0,-1.0,0.1624738632076406,1.0,0.0
33.9124641418457,29.896984100341797,-2.333512544631958,-0.0,-0.0,-1.0,0.1067865244346699,1.0,0.0
33.880897521972656,29.75996780395508,-2.312371015548706,-0.0,-0.0,-1.0,0.179336483025594,1.0,0.0
33.79471969604492,30.07217788696289,-2.3414418697357178,-0.0,-0.0,-1.0,0.0830476360653144,2.0,0.0
33.79750061035156,30.398456573486328,-2.3835866451263428,-0.5197114887595798,-0.0143683613294991,-0.8542210010553506,0.0933440046563803,3.0,0.0
33.47771453857422,30.499717712402344,-2.358370065689087,-0.0,-0.0,-1.0,0.1981445599860081,1.0,0.0
33.198204040527344,28.18014335632324,-2.42935562133789,-0.0,-0.0,-1.0,0.0325930450842154,1.0,0.0
33.11681365966797,28.46869659423828,-2.453403949737549,-0.0,-0.0,-1.0,0.0358222509121657,2.0,0.0
32.87732696533203,28.605304718017575,-2.4360885620117188,-0.0,-0.0,-1.0,0.0543614338089495,1.0,0.0
32.80570602416992,29.58778381347656,-2.4866950511932373,-0.4032474533088614,0.1547794851157706,-0.9019062048723328,0.1044047329749339,3.0,0.0
32.82240295410156,29.884632110595703,-2.507587194442749,-0.0653916256080305,-0.224588050037774,-0.9722572412075774,0.100693912215352,4.0,0.0
32.80881881713867,30.267139434814453,-2.528818845748902,-0.1977550490946466,-0.5931542476602987,-0.7804235894949092,0.1613540716753829,3.0,0.0
33.09027862548828,28.24621200561523,-2.467015504837036,-0.0,-0.0,-1.0,0.0347980258189151,1.0,0.0
33.02598571777344,28.59479522705078,-2.4725863933563232,-0.0,-0.0,-1.0,0.0593141168114389,1.0,0.0
32.72120666503906,29.132823944091797,-2.4446752071380615,-0.0,-0.0,-1.0,0.1717024359291722,1.0,0.0
32.720733642578125,29.358463287353516,-2.457504987716675,-0.0,-0.0,-1.0,0.1668560982508655,1.0,0.0
34.957618713378906,28.94517517089844,-2.113900661468506,-0.0,-0.0,-1.0,0.1016258888561009,1.0,0.0
34.590492248535156,29.269569396972656,-2.092792510986328,-0.0,-0.0,-1.0,0.1445236608564755,1.0,0.0
34.45116424560547,29.600887298583984,-2.102260112762451,-0.0,-0.0,-1.0,0.1132962144215567,1.0,0.0
34.49372863769531,30.02984619140625,-2.1437487602233887,-0.0,-0.0,-1.0,0.1747102884241337,1.0,0.0
34.720516204833984,30.509315490722656,-2.213365077972412,-0.0,-0.0,-1.0,0.1485091487238643,1.0,0.0
34.058780670166016,30.420787811279297,-2.1228528022766113,-0.5622201925754992,0.6722795933080984,-0.4816104270900566,0.1846134584694892,3.0,0.0
33.16001892089844,28.313751220703125,-2.3629043102264404,-0.0,-0.0,-1.0,0.0322220421405454,1.0,0.0
33.1185302734375,28.553123474121097,-2.3734495639801025,-0.0,-0.0,-1.0,0.0300548339896777,1.0,0.0
32.7676887512207,29.53354835510254,-2.392052412033081,-0.0,-0.0,-1.0,0.0828054638399546,1.0,0.0
32.7555046081543,29.90302848815918,-2.419872999191284,-0.0,-0.0,-1.0,0.1848613913041427,1.0,0.0
32.723472595214844,29.086820602416992,-2.3501107692718506,-0.4634461030758607,0.1498735969315077,-0.8733588119934504,0.129720254995809,5.0,0.0
35.16852569580078,28.93705368041992,-2.3064136505126953,-0.0,-0.0,-1.0,0.0835349968064704,2.0,0.0
34.73379135131836,29.124576568603516,-2.252190589904785,-0.0,-0.0,-1.0,0.1085392902039142,1.0,0.0
34.777950286865234,30.164472579956055,-2.329540729522705,-0.0,-0.0,-1.0,0.068523776921537,1.0,0.0
34.633846282958984,30.536903381347656,-2.334970474243164,-0.0,-0.0,-1.0,0.1110118943370978,2.0,0.0
34.52150344848633,29.18524932861328,-2.2239694595336914,-0.0,-0.0,-1.0,0.0953280340571619,2.0,0.0
34.403045654296875,29.40220642089844,-2.2205982208251953,-0.3317651381249888,0.7112374475008159,-0.6197363846002838,0.1417621421048318,4.0,0.0
34.44038391113281,29.84264755249023,-2.2564568519592285,0.360312226147897,-0.3223525992706116,-0.8753650103995632,0.1503078495890156,3.0,0.0
33.93892288208008,30.349517822265625,-2.21846342086792,-0.0,-0.0,-1.0,0.240170334249189,2.0,0.0
35.12276840209961,29.24660873413086,-2.252553939819336,-0.0,-0.0,-1.0,0.0633782214073287,1.0,0.0
34.81321716308594,28.815093994140625,-2.173370361328125,-0.0,-0.0,-1.0,0.1057680662519403,1.0,0.0
34.85199737548828,29.24328994750977,-2.212494373321533,-0.0,-0.0,-1.0,0.0832743076988561,1.0,0.0
34.766292572021484,30.14787483215332,-2.2742581367492676,-0.0,-0.0,-1.0,0.0453842252329418,1.0,0.0
34.68980407714844,30.535675048828125,-2.2966270446777344,-0.0,-0.0,-1.0,0.0943278443901219,1.0,0.0
34.48805236816406,28.89360809326172,-2.1314539909362793,-0.7297671090599744,-0.386891982903889,-0.5636972237814765,0.1153344042329108,3.0,0.0
34.529048919677734,29.41802978515625,-2.1792678833007812,-0.0,-0.0,-1.0,0.1370811991626679,1.0,0.0
34.62898254394531,29.929798126220703,-2.235989570617676,-0.0,-0.0,-1.0,0.0972789999970085,1.0,0.0
34.02097702026367,30.337743759155273,-2.183444023132324,-0.131550961633386,-0.196575591110305,-0.9716235801342852,0.2251333686400288,3.0,0.0
33.984012603759766,30.478296279907227,-2.19058895111084,0.4708796947784275,-0.3916944988392756,-0.7904731068318667,0.1621059745232072,4.0,0.0
34.096229553222656,29.690643310546875,-2.365629196166992,-0.0,-0.0,-1.0,0.1389238427949425,1.0,0.0
33.94599914550781,30.13404083251953,-2.3722991943359375,-0.0,-0.0,-1.0,0.0805431208002383,1.0,0.0
33.93925476074219,30.588363647460938,-2.404212474822998,0.7726122987649588,-0.4983057418509334,0.3933975386749608,0.2010323526926261,3.0,0.0
34.494911193847656,28.162988662719727,-2.335205078125,-0.0,-0.0,-1.0,0.0835476781431289,1.0,0.0
34.35346603393555,28.42578125,-2.327152729034424,-0.0,-0.0,-1.0,0.0585611591244664,2.0,0.0
34.247642517089844,28.808258056640625,-2.332850456237793,-0.9266018620708982,-0.3402516058193752,-0.1601181874244171,0.0452396598261359,3.0,0.0
34.2202033996582,28.505027770996097,-2.3097376823425293,-0.0,-0.0,-1.0,0.0273632768231401,1.0,0.0
34.09872055053711,28.952625274658203,-2.31740665435791,-0.0,-0.0,-1.0,0.0348027445360951,1.0,0.0
34.104583740234375,29.24945831298828,-2.3375802040100098,-0.0,-0.0,-1.0,0.0933087512183233,1.0,0.0
34.0726432800293,29.531818389892575,-2.3510184288024902,-0.0,-0.0,-1.0,0.0954342078488498,2.0,0.0
33.90217971801758,30.03424072265625,-2.358098030090332,-0.0,-0.0,-1.0,0.0202164557094957,1.0,0.0
33.18440246582031,28.273975372314453,-2.433648586273194,-0.0,-0.0,-1.0,0.0358797384424761,1.0,0.0
33.1624755859375,28.5389404296875,-2.4397926330566406,-0.0,-0.0,-1.0,0.0338625554560978,1.0,0.0
33.07585525512695,28.607982635498047,-2.4262399673461914,-0.0,-0.0,-1.0,0.0592677797354934,2.0,0.0
32.75737762451172,29.181798934936523,-2.391605854034424,0.4024774543359958,-0.698734001643774,-0.5914242924484032,0.0978263170347513,3.0,0.0
32.862979888916016,29.53455352783203,-2.4282522201538086,-0.0,-0.0,-1.0,0.0699003580720323,1.0,0.0
32.97247314453125,29.946109771728516,-2.469484806060791,-0.0,-0.0,-1.0,0.0962503643160808,2.0,0.0
32.91960144042969,30.206729888916016,-2.4736547470092773,-0.0,-0.0,-1.0,0.1883042861994035,1.0,0.0
35.1484375,29.43603515625,-2.096348524093628,-0.0,-0.0,-1.0,0.0840425983463776,2.0,0.0
35.01691436767578,29.49660873413086,-2.077542543411255,0.7368999115197759,0.1098423853439479,-0.6670181187824648,0.0971604778939426,4.0,0.0
34.786354064941406,29.66815185546875,-2.0474231243133545,0.2257524755152246,-0.1882891286390313,-0.9558153712067524,0.0782700897224824,3.0,0.0
34.73603820800781,29.944114685058594,-2.0508687496185303,-0.0,-0.0,-1.0,0.1591410632845931,2.0,0.0
34.411766052246094,28.85469627380371,-1.9558207988739016,0.6558214992004832,-0.6683933687105339,-0.3509251570494981,0.169865672706056,3.0,0.0
32.72378158569336,29.557430267333984,-2.5073435306549072,-0.0,-0.0,-1.0,0.0479283362359063,2.0,0.0
32.741546630859375,29.959484100341797,-2.531258344650269,-0.5832357247226352,-0.7185497561231227,-0.3788434206669863,0.1281928496093016,3.0,0.0
33.315704345703125,28.159761428833008,-2.434840679168701,-0.0,-0.0,-1.0,0.0261192374955928,2.0,0.0
33.33388900756836,28.42107391357422,-2.4473977088928223,-0.0,-0.0,-1.0,0.0214717113601002,2.0,0.0
33.33287048339844,28.93409538269043,-2.4667954444885254,-0.0,-0.0,-1.0,0.045022746891438,2.0,0.0
33.303627014160156,28.32976722717285,-2.43832015991211,-0.0,-0.0,-1.0,0.0287670276655206,1.0,0.0
33.251197814941406,28.52951431274414,-2.435386657714844,-0.0,-0.0,-1.0,0.0216232194179932,1.0,0.0
33.26297378540039,29.09193420410156,-2.4598388671875,-0.0,-0.0,-1.0,0.0566341009364356,1.0,0.0
33.046268463134766,29.820287704467773,-2.4515514373779297,-0.0,-0.0,-1.0,0.139387306629233,1.0,0.0
33.09325408935547,30.097097396850582,-2.474365711212158,-0.0,-0.0,-1.0,0.0632041033626612,1.0,0.0
32.88323974609375,30.38838577270508,-2.449936866760254,-0.0,-0.0,-1.0,0.1428797047075846,2.0,0.0
33.18276596069336,28.64427947998047,-2.426487445831299,-0.0,-0.0,-1.0,0.0216768761724235,1.0,0.0
32.97395324707031,29.629676818847656,-2.428558349609375,0.924272772348041,0.351463695967693,-0.1489735302421052,0.1101524582961359,3.0,0.0
32.74961471557617,29.11503219604492,-2.3623485565185547,-0.4416242319674731,0.1126321381763314,-0.8901022633321222,0.1218345896427344,5.0,0.0
32.776756286621094,29.359619140625,-2.378413200378418,-0.2867728779778605,0.6900140776037856,-0.6645614261788688,0.1820039886515781,4.0,0.0
34.06098937988281,28.52412223815918,-2.364393949508667,-0.0,-0.0,-1.0,0.0820627086146429,1.0,0.0
34.021183013916016,29.09674072265625,-2.388427495956421,-0.0,-0.0,-1.0,0.0300187770969316,2.0,0.0
33.911415100097656,28.43409538269043,-2.3317272663116455,0.3169579179572909,-0.9460229939652162,-0.0676621987025805,0.1429515582698357,3.0,0.0
33.89887619018555,28.84242820739746,-2.3513171672821045,-0.0,-0.0,-1.0,0.0755511461664774,1.0,0.0
33.91938781738281,29.297401428222656,-2.3811142444610596,-0.0,-0.0,-1.0,0.0197817612805882,1.0,0.0
33.763885498046875,29.66664123535156,-2.374469041824341,-0.0,-0.0,-1.0,0.0760495277781348,2.0,0.0
33.666961669921875,30.060413360595703,-2.381422758102417,-0.0,-0.0,-1.0,0.0871371136537305,1.0,0.0
33.757450103759766,30.402910232543945,-2.420825242996216,-0.0,-0.0,-1.0,0.0747411620285211,1.0,0.0
33.43386459350586,30.571041107177734,-2.372507333755493,-0.0,-0.0,-1.0,0.1966873584694678,1.0,0.0
33.453800201416016,29.958969116210938,-2.3353021144866943,-0.0,-0.0,-1.0,0.0562359408971928,1.0,0.0
33.542030334472656,28.858734130859375,-2.4195313453674316,-0.3261881537634107,0.0696209021523516,-0.9427376190265828,0.0234063115459889,3.0,0.0
33.38833236694336,30.59255599975586,-2.49425745010376,-0.0,-0.0,-1.0,0.1589225623704334,2.0,0.0
33.317962646484375,30.451316833496097,-2.4712820053100586,-0.0,-0.0,-1.0,0.1219810607205942,2.0,0.0
33.48064422607422,28.43469619750977,-2.38645601272583,-0.0,-0.0,-1.0,0.0272431197814454,2.0,0.0
33.51729202270508,28.827905654907227,-2.4132485389709473,0.7385545421195117,-0.6374146018874658,-0.2196356383087261,0.0151801099623572,3.0,0.0
33.455665588378906,29.14707374572754,-2.4183101654052734,-0.0,-0.0,-1.0,0.0785026833695001,2.0,0.0
33.208946228027344,29.287084579467773,-2.378570556640625,-0.0,-0.0,-1.0,0.0483884117529717,2.0,0.0
33.049278259277344,29.686717987060547,-2.3712568283081055,-0.0,-0.0,-1.0,0.1718162964856061,2.0,0.0
33.16508483886719,30.042800903320312,-2.4154772758483887,0.3830425249905057,-0.0983728235373739,-0.9184776598470874,0.0688487900223119,3.0,0.0
32.89556884765625,29.457473754882812,-2.328041076660156,-0.0,-0.0,-1.0,0.1312393666564682,1.0,0.0
32.91259002685547,30.298364639282227,-2.3836259841918945,-0.0,-0.0,-1.0,0.1687952550391465,1.0,0.0
35.074493408203125,28.171781539916992,-2.309575080871582,-0.0,-0.0,-1.0,0.0632153170661778,2.0,0.0
34.82633972167969,28.452133178710938,-2.2765345573425293,-0.0,-0.0,-1.0,0.1326273370423176,2.0,0.0
34.74583435058594,28.671966552734375,-2.2717795372009277,-0.0,-0.0,-1.0,0.0738599126767075,2.0,0.0
34.53687286376953,29.01612663269043,-2.250062942504883,-0.1684963419089468,0.7645208214975685,-0.6221871874765553,0.1206099468644337,3.0,0.0
34.424842834472656,29.27453231811523,-2.2424631118774414,-0.7021288164945204,0.6138329407716003,-0.3608659666298455,0.1092237807021065,3.0,0.0
34.410491943359375,29.84506607055664,-2.269651412963867,0.360312226147897,-0.3223525992706116,-0.8753650103995632,0.139591200182344,3.0,0.0
34.5450439453125,30.172121047973633,-2.3120455741882324,-0.0,-0.0,-1.0,0.0706055684966909,1.0,0.0
34.691688537597656,30.412139892578125,-2.3521804809570312,-0.0,-0.0,-1.0,0.0603925326646776,1.0,0.0
34.345458984375,29.48727226257324,-2.2389769554138184,-0.5362042536275566,-0.8238616932120948,0.1836760976540354,0.0822509703223882,3.0,0.0
34.355018615722656,29.662588119506836,-2.249845027923584,-0.0,-0.0,-1.0,0.1556333798247086,2.0,0.0
33.97377395629883,30.415233612060547,-2.2234206199645996,0.2788076225157974,-0.5069634810013772,0.8156312515825119,0.1993697569136709,7.0,0.0
33.8618049621582,28.47043800354004,-2.352330446243286,0.8300871260985487,0.2751891334668787,0.4850013442323648,0.1141316780480175,3.0,0.0
33.83791732788086,28.875112533569336,-2.362708806991577,-0.0,-0.0,-1.0,0.0896129615222895,2.0,0.0
33.81840515136719,29.15909194946289,-2.3701717853546143,-0.0,-0.0,-1.0,0.0274444557900122,1.0,0.0
33.77401351928711,28.470844268798828,-2.3354198932647705,-0.0,-0.0,-1.0,0.0748456104336073,2.0,0.0
33.72511672973633,29.329328536987305,-2.359407663345337,-0.0,-0.0,-1.0,0.0698854868296154,2.0,0.0
33.695343017578125,30.19445037841797,-2.393179178237915,-0.0,-0.0,-1.0,0.1325473080214292,1.0,0.0
33.643402099609375,30.37021827697754,-2.3919661045074463,-0.0,-0.0,-1.0,0.0866708616556628,1.0,0.0
33.58119201660156,29.612194061279297,-2.344160318374634,-0.473503764677403,-0.880086216954356,-0.0352481994334067,0.062268917121601,3.0,0.0
33.59010696411133,29.969858169555664,-2.3622348308563232,-0.0,-0.0,-1.0,0.0884944525232641,1.0,0.0
33.45225524902344,30.441749572753903,-2.35910964012146,-0.0,-0.0,-1.0,0.2147015016557525,1.0,0.0
32.754634857177734,30.021799087524418,-2.53171968460083,-0.0,-0.0,-1.0,0.1373635786420314,2.0,0.0
32.74748992919922,30.43558692932129,-2.544407844543457,-0.0,-0.0,-1.0,0.1040069615882394,2.0,0.0
35.165889739990234,29.532337188720703,-2.0554423332214355,0.8752824183734558,-0.4733350449587232,0.099169669255465,0.112912293854504,4.0,0.0
33.3746452331543,28.290863037109375,-2.4251506328582764,-0.0,-0.0,-1.0,0.0278006443456957,1.0,0.0
33.4272346496582,28.731719970703125,-2.4395053386688232,-0.0,-0.0,-1.0,0.0156642882378129,2.0,0.0
33.452938079833984,29.056873321533203,-2.4483211040496826,-0.0,-0.0,-1.0,0.0683368568480509,2.0,0.0
33.08036804199219,29.46780014038086,-2.380864381790161,-0.0,-0.0,-1.0,0.0675569035381969,1.0,0.0
33.17430877685547,30.01435089111328,-2.408583402633667,-0.0,-0.0,-1.0,0.0943357056009802,2.0,0.0
33.3376579284668,30.33070182800293,-2.446983575820923,-0.0,-0.0,-1.0,0.080249056559532,2.0,0.0
33.483768463134766,30.57181167602539,-2.480853796005249,-0.0,-0.0,-1.0,0.1342420990944046,1.0,0.0
32.76655197143555,29.399105072021484,-2.3182175159454346,-0.0,-0.0,-1.0,0.1346856483738037,2.0,0.0
34.42953872680664,28.591394424438477,-2.315906524658203,-0.0,-0.0,-1.0,0.0587113603026509,2.0,0.0
34.43574523925781,28.881412506103516,-2.3201942443847656,-0.810458891362912,-0.0016146906350216,-0.5857932896380369,0.1566720155497577,3.0,0.0
34.25695037841797,29.12902450561523,-2.290297508239746,-0.0,-0.0,-1.0,0.0379448692807648,2.0,0.0
34.26365280151367,29.442874908447266,-2.2960281372070312,-0.0,-0.0,-1.0,0.0966551619688062,1.0,0.0
34.399139404296875,29.927505493164062,-2.329191207885742,-0.0,-0.0,-1.0,0.1388263301064171,1.0,0.0
34.21392822265625,29.670677185058594,-2.290426731109619,-0.0,-0.0,-1.0,0.2076298041450809,2.0,0.0
34.26508331298828,29.87312126159668,-2.3034281730651855,-0.0,-0.0,-1.0,0.1838606597811409,1.0,0.0
34.40555191040039,30.147531509399418,-2.3345556259155273,-0.0,-0.0,-1.0,0.083039070756503,1.0,0.0
33.99937057495117,30.436357498168945,-2.2652177810668945,-0.0,-0.0,-1.0,0.2502361160716615,2.0,0.0
33.923423767089844,30.574052810668945,-2.254131317138672,-0.0,-0.0,-1.0,0.1569905367688687,1.0,0.0
33.059024810791016,28.192901611328125,-2.4062139987945557,-0.0,-0.0,-1.0,0.0347980258189151,1.0,0.0
33.01085662841797,28.523353576660156,-2.4013912677764893,-0.0,-0.0,-1.0,0.0634921673492319,1.0,0.0
32.749732971191406,29.15049743652344,-2.3598272800445557,0.6208165602468915,-0.4811208645291739,-0.6189584091341824,0.1039037948516189,5.0,0.0
32.765357971191406,29.35687828063965,-2.3676021099090576,-0.2018112431556962,0.660903449672551,-0.7228269864544864,0.1579129340606883,4.0,0.0
32.96025848388672,29.67133522033691,-2.4152424335479736,-0.0,-0.0,-1.0,0.1536575064885663,2.0,0.0
33.01028823852539,29.999034881591797,-2.434324026107788,-0.0,-0.0,-1.0,0.1076754610783699,1.0,0.0
33.14495849609375,30.5233211517334,-2.478043794631958,-0.0,-0.0,-1.0,0.025583934286079,1.0,0.0
32.82670974731445,30.26263427734375,-2.404292345046997,-0.0,-0.0,-1.0,0.1866024499222854,1.0,0.0
32.846214294433594,28.692174911499023,-2.3763012886047363,-0.0,-0.0,-1.0,0.056043985675311,2.0,0.0
32.83184051513672,28.98508644104004,-2.3694534301757812,-0.0,-0.0,-1.0,0.0751167918979772,1.0,0.0
32.959678649902344,29.298433303833008,-2.3921070098876953,-0.0,-0.0,-1.0,0.1494205768507829,1.0,0.0
33.10783004760742,29.56027603149414,-2.4200658798217773,-0.0,-0.0,-1.0,0.0450999402262838,1.0,0.0
33.075706481933594,29.773344039916992,-2.41184663772583,-0.0,-0.0,-1.0,0.2064386593922733,1.0,0.0
33.27766036987305,30.206579208374023,-2.4510488510131836,-0.0,-0.0,-1.0,0.0405685539833801,1.0,0.0
33.3826789855957,30.40155982971191,-2.4720544815063477,-0.0,-0.0,-1.0,0.1297875690963182,1.0,0.0
32.90556335449219,30.08652687072754,-2.3748984336853027,-0.0,-0.0,-1.0,0.1615255857399735,1.0,0.0
33.401859283447266,30.567123413085938,-2.4756765365600586,-0.0,-0.0,-1.0,0.1589225623704334,2.0,0.0
34.78117752075195,28.15611457824707,-2.1429831981658936,-0.0,-0.0,-1.0,0.1036377750496307,1.0,0.0
34.76576232910156,28.36568832397461,-2.133671998977661,-0.0,-0.0,-1.0,0.138890497412218,1.0,0.0
34.81414794921875,28.503725051879883,-2.1381537914276123,-0.0,-0.0,-1.0,0.1661420739717311,1.0,0.0
34.598106384277344,28.80454444885254,-2.090575933456421,-0.0,-0.0,-1.0,0.1277555990478656,1.0,0.0
34.35570526123047,29.02560806274414,-2.0408098697662354,-0.0,-0.0,-1.0,0.1722752065365108,1.0,0.0
34.341426849365234,29.158071517944336,-2.0347001552581787,-0.0,-0.0,-1.0,0.1523990953791838,1.0,0.0
34.89106750488281,29.31595993041992,-2.1298062801361084,0.0237219929807129,-0.940124426423623,0.3400048968627903,0.0956824750122893,5.0,0.0
33.90239715576172,29.529346466064453,-1.9460880756378176,-0.0,-0.0,-1.0,0.1627306867711931,1.0,0.0
34.13972473144531,29.66298484802246,-1.9857556819915771,-0.0,-0.0,-1.0,0.1055047764304728,1.0,0.0
34.145057678222656,29.788013458251953,-1.983858346939087,-0.0,-0.0,-1.0,0.1590304683764897,1.0,0.0
34.54624938964844,28.489835739135746,-2.1639928817749023,-0.0,-0.0,-1.0,0.0721438496560633,1.0,0.0
34.6655387878418,28.29158592224121,-2.194732666015625,-0.0,-0.0,-1.0,0.1266466080407018,1.0,0.0
34.69104766845703,28.684467315673828,-2.1829276084899902,-0.0,-0.0,-1.0,0.107284288297545,1.0,0.0
34.56486892700195,29.183420181274418,-2.1397933959960938,-0.0,-0.0,-1.0,0.1974572869368609,2.0,0.0
34.51865768432617,29.537513732910156,-2.1181678771972656,-0.0681013393029197,0.963583008754565,-0.2585923294002525,0.1390529010822883,3.0,0.0
34.58262634277344,29.78360939025879,-2.121652603149414,-0.0,-0.0,-1.0,0.1678116784194,1.0,0.0
34.73261642456055,29.97807884216309,-2.143425941467285,-0.0,-0.0,-1.0,0.1363303184278139,1.0,0.0
34.97663879394531,30.25281524658203,-2.1807355880737305,-0.0,-0.0,-1.0,0.0867871566503012,1.0,0.0
34.16233825683594,30.519100189208984,-2.0193605422973633,-0.0,-0.0,-1.0,0.1950845018758519,1.0,0.0
33.32611846923828,28.16497802734375,-2.403691291809082,-0.0,-0.0,-1.0,0.0252744870711167,2.0,0.0
33.3812370300293,28.35577964782715,-2.418015480041504,-0.0,-0.0,-1.0,0.0232031525959206,1.0,0.0
33.40888595581055,28.78820419311523,-2.4300336837768555,-0.0589031163649259,0.6324727573101697,-0.7723397142080493,0.0246851922904571,4.0,0.0
33.3046875,29.00910758972168,-2.4103217124938965,-0.0,-0.0,-1.0,0.0267138119115474,1.0,0.0
32.85246276855469,29.418188095092773,-2.3167338371276855,-0.8820775698761726,0.461548756828221,0.0944028908014428,0.2113820193345353,3.0,0.0
32.89536666870117,29.21269989013672,-2.322451591491699,-0.0,-0.0,-1.0,0.1271455558816056,2.0,0.0
33.08079528808594,29.649534225463867,-2.372805118560791,-0.0,-0.0,-1.0,0.1338949531232708,2.0,0.0
33.10666275024414,30.026721954345703,-2.387528419494629,-0.0,-0.0,-1.0,0.0980689871287661,1.0,0.0
33.309783935546875,30.04930305480957,-2.433724880218506,-0.0,-0.0,-1.0,0.0686659625726015,1.0,0.0
32.74790573120117,30.286109924316406,-2.3136239051818848,-0.0,-0.0,-1.0,0.1740565329820867,1.0,0.0
33.430782318115234,30.503143310546875,-2.4736580848693848,-0.0,-0.0,-1.0,0.1379755314764736,1.0,0.0
33.46439743041992,28.43349266052246,-2.390934944152832,-0.0,-0.0,-1.0,0.0305838248934378,2.0,0.0
32.90056610107422,29.03693389892578,-2.246187210083008,-0.0,-0.0,-1.0,0.1036606283141047,1.0,0.0
33.58359146118164,28.74302673339844,-2.4023656845092773,-0.0,-0.0,-1.0,0.0193826627663534,2.0,0.0
33.695396423339844,28.953536987304688,-2.4171838760375977,-0.0,-0.0,-1.0,0.0708661192175322,2.0,0.0
33.624053955078125,29.208431243896484,-2.3921170234680176,-0.0,-0.0,-1.0,0.0280962131207369,1.0,0.0
33.469261169433594,29.788450241088867,-2.338348388671875,-0.0,-0.0,-1.0,0.0424369957064114,2.0,0.0
33.53449249267578,29.58148765563965,-2.359365940093994,-0.7689060517499665,-0.2768371919713256,-0.576319922199215,0.0560879590117377,3.0,0.0
33.50674057006836,29.9388484954834,-2.3413310050964355,-0.0,-0.0,-1.0,0.0983044047505967,1.0,0.0
33.67274856567383,29.99254608154297,-2.3749380111694336,-0.0,-0.0,-1.0,0.1211292951082604,1.0,0.0
33.81581497192383,30.364917755126953,-2.3941650390625,-0.0,-0.0,-1.0,0.0872422071737781,2.0,0.0
33.6588134765625,28.14714813232422,-2.36665940284729,-0.0,-0.0,-1.0,0.026166971480357,1.0,0.0
33.71177673339844,28.44904327392578,-2.374600648880005,-0.0,-0.0,-1.0,0.0314473493206962,2.0,0.0
33.8548583984375,29.048311233520508,-2.401113748550415,-0.0,-0.0,-1.0,0.0309028991982876,1.0,0.0
33.80601501464844,28.81757164001465,-2.391923666000366,-0.0,-0.0,-1.0,0.0783146226781749,1.0,0.0
33.71001052856445,29.61023712158203,-2.3669850826263428,0.1665946023057035,-0.9857854502295218,0.021755105110839,0.063774688318216,3.0,0.0
33.819427490234375,29.326019287109375,-2.3920390605926514,-0.0,-0.0,-1.0,0.0234620294650232,2.0,0.0
33.74595642089844,29.840173721313477,-2.375012159347534,-0.0,-0.0,-1.0,0.0840017543952205,1.0,0.0
33.79376220703125,30.2532901763916,-2.386833906173706,-0.0,-0.0,-1.0,0.0978391030784253,1.0,0.0
34.053627014160156,30.569623947143555,-2.446800470352173,-0.0,-0.0,-1.0,0.1612150274193078,1.0,0.0
32.718910217285156,30.105262756347656,-2.5229954719543457,-0.0,-0.0,-1.0,0.1163517942653876,2.0,0.0
32.7681999206543,30.42003631591797,-2.5337162017822266,0.5702555169921018,0.2142037135181033,-0.7930481791512577,0.1028287527079421,3.0,0.0
35.18508529663086,28.162059783935547,-2.3090291023254395,-0.0,-0.0,-1.0,0.0621914792578128,2.0,0.0
35.028446197509766,28.993091583251953,-2.2667126655578613,-0.0,-0.0,-1.0,0.1121308122981098,1.0,0.0
35.11731719970703,28.57939910888672,-2.2893285751342773,-0.0,-0.0,-1.0,0.0238172694660252,2.0,0.0
34.586639404296875,28.87631607055664,-2.176358699798584,-0.0,-0.0,-1.0,0.1598700528018893,2.0,0.0
33.68400573730469,30.183961868286133,-1.982313632965088,-0.0,-0.0,-1.0,0.1076101390111276,1.0,0.0
34.15084457397461,29.78567123413086,-2.0800304412841797,-0.8980246137955606,0.3721271836620161,-0.2346766971753056,0.2148336707351997,3.0,0.0
34.430580139160156,29.55664825439453,-2.139026165008545,-0.0,-0.0,-1.0,0.1157067496780591,1.0,0.0
34.6141471862793,29.257436752319336,-2.178844928741455,-0.0,-0.0,-1.0,0.1554014185110795,2.0,0.0
34.871612548828125,28.942968368530273,-2.2346811294555664,-0.0,-0.0,-1.0,0.1724763905356042,2.0,0.0
33.95465087890625,30.414152145385746,-2.039060115814209,-0.7879574147649797,0.3027628880815278,-0.536150861341677,0.1395169036001044,4.0,0.0
34.56675720214844,29.925151824951172,-2.1663036346435547,-0.0,-0.0,-1.0,0.1574353299797125,1.0,0.0
34.8830451965332,30.12187957763672,-2.232145309448242,-0.0,-0.0,-1.0,0.1100213411452724,1.0,0.0
33.66420364379883,28.507108688354492,-2.357339859008789,-0.0,-0.0,-1.0,0.0323588737953159,2.0,0.0
33.61699295043945,28.180774688720703,-2.357581615447998,-0.0,-0.0,-1.0,0.0256578337362547,1.0,0.0
33.76633071899414,29.0904483795166,-2.3635644912719727,-0.0,-0.0,-1.0,0.0332463449358197,1.0,0.0
