x,y,z,nx,ny,nz,curvature,density,label
10.73992919921875,27.43754196166992,-0.9671511650085448,0.6051058661803815,-0.7861442962607504,-0.1257936253185332,0.1984312782809603,3.0,0.0
10.603667259216309,27.379199981689453,-0.9885091781616212,-0.0,-0.0,-1.0,0.1588367335725395,2.0,0.0
12.544719696044922,25.723833084106445,-0.9152419567108154,-0.0,-0.0,-1.0,0.1149693837251732,1.0,0.0
12.1072998046875,25.773441314697266,-1.0117874145507812,-0.0,-0.0,-1.0,0.1056490024776661,2.0,0.0
11.96507453918457,26.083553314208984,-1.0675427913665771,-0.0,-0.0,-1.0,0.0347959977753722,1.0,0.0
10.619833946228027,27.38275909423828,-0.5173085927963257,-0.0,-0.0,-1.0,0.0625073569103224,1.0,0.0
11.098526000976562,27.90099716186523,-1.42842698097229,-0.0,-0.0,-1.0,0.1031175359408218,1.0,0.0
12.499549865722656,28.011722564697266,-1.163254737854004,-0.0,-0.0,-1.0,0.1489740741450735,2.0,0.0
12.655339241027832,27.539653778076172,-1.073179006576538,-0.0,-0.0,-1.0,0.1216457021544669,1.0,0.0
11.119654655456545,27.69478225708008,-1.4010207653045654,-0.0,-0.0,-1.0,0.0599787941688091,1.0,0.0
11.06413459777832,25.916088104248047,-1.236067295074463,-0.0,-0.0,-1.0,0.0983453428453385,2.0,0.0
10.938920021057127,25.666215896606445,-1.2444689273834229,-0.0,-0.0,-1.0,0.0731209086081774,1.0,0.0
10.874290466308594,25.832218170166016,-1.2733185291290283,-0.0,-0.0,-1.0,0.0711871683008755,1.0,0.0
10.84915542602539,27.758132934570312,-1.021294355392456,-0.0,-0.0,-1.0,0.1593216778185648,1.0,0.0
10.610833168029783,27.437040328979492,-1.0409119129180908,-0.0,-0.0,-1.0,0.1912497954290619,2.0,0.0
12.109495162963867,26.320560455322266,-1.041231632232666,0.9021616430595928,0.2051782250285011,-0.3794815750022253,0.0552647798422964,3.0,0.0
11.913946151733398,26.11968231201172,-1.062873601913452,-0.0,-0.0,-1.0,0.061398711704053,1.0,0.0
11.830989837646484,26.24034309387207,-1.0933902263641355,-0.0,-0.0,-1.0,0.0901440329621948,2.0,0.0
11.9188232421875,25.704029083251953,-1.0209729671478271,0.109888041341725,-0.4424297156326707,-0.8900452601386482,0.1363035462316734,3.0,0.0
11.58395290374756,25.87493133544922,-1.112905502319336,-0.0,-0.0,-1.0,0.092316315358633,2.0,0.0
11.174756050109863,27.572847366333008,-1.0344607830047607,-0.0,-0.0,-1.0,0.0744985259172131,2.0,0.0
10.674644470214844,27.517120361328125,-1.115854024887085,-0.0,-0.0,-1.0,0.2422147391615094,1.0,0.0
10.59669303894043,27.383827209472656,-1.1136267185211182,-0.0,-0.0,-1.0,0.1788253800719474,2.0,0.0
10.406041145324709,27.252124786376953,-1.1333212852478027,-0.0,-0.0,-1.0,0.1530339644055128,1.0,0.0
12.18234634399414,27.352279663085938,-0.836611270904541,-0.0,-0.0,-1.0,0.149671970187031,1.0,0.0
10.90163516998291,27.76457977294922,-0.9786936044692992,-0.0,-0.0,-1.0,0.1611065619494947,1.0,0.0
10.53481674194336,27.3875732421875,-0.981178879737854,-0.0,-0.0,-1.0,0.1193232097850462,1.0,0.0
10.685585021972656,27.418012619018555,-0.5750093460083008,-0.0,-0.0,-1.0,0.0554686645583351,1.0,0.0
11.31513786315918,27.536449432373047,-1.1931408643722534,-0.0,-0.0,-1.0,0.1688924863720432,1.0,0.0
10.833160400390623,27.468799591064453,-1.2380794286727903,-0.0,-0.0,-1.0,0.1367553365753056,1.0,0.0
10.59490966796875,27.311817169189453,-1.2374852895736694,-0.0,-0.0,-1.0,0.1286477657075783,1.0,0.0
11.201566696166992,27.161277770996097,-1.1281017065048218,-0.0,-0.0,-1.0,0.1183587903773644,1.0,0.0
10.536857604980469,27.037181854248047,-1.1903642416000366,-0.0,-0.0,-1.0,0.16244495012226,1.0,0.0
10.400896072387695,26.974193572998047,-1.1970280408859253,-0.6854702300848933,0.2243628501159612,-0.6926701055735018,0.1839169930888586,6.0,0.0
12.212889671325684,26.882408142089844,-0.9523452520370485,-0.0,-0.0,-1.0,0.209825443498095,1.0,0.0
10.590494155883787,27.34518051147461,-0.8649255037307739,-0.1622727237553075,-0.9209359641374232,-0.3543226115890839,0.2263096101820705,4.0,0.0
10.838390350341797,28.0955810546875,-1.0697565078735352,-0.0,-0.0,-1.0,0.1639986060821097,1.0,0.0
12.26162052154541,27.124326705932617,-0.8885278701782227,-0.0,-0.0,-1.0,0.1254011188901842,1.0,0.0
10.574193000793455,27.31340980529785,-0.9956111907958984,-0.0,-0.0,-1.0,0.2059221555379815,2.0,0.0
12.378850936889648,26.922719955444336,-0.8929996490478516,-0.0,-0.0,-1.0,0.1538811586195,1.0,0.0
12.24121379852295,26.95329475402832,-0.9061222076416016,-0.0,-0.0,-1.0,0.1653028955911272,1.0,0.0
10.679835319519045,27.440526962280273,-1.0714855194091797,-0.0,-0.0,-1.0,0.17933605046562,2.0,0.0
12.5892915725708,27.94372177124023,-1.0970957279205322,-0.0,-0.0,-1.0,0.1597206975294778,1.0,0.0
10.745521545410156,27.31832504272461,-1.120639085769653,-0.0,-0.0,-1.0,0.1698393511154049,1.0,0.0
12.351571083068848,27.0360107421875,-1.0072853565216064,-0.0,-0.0,-1.0,0.2260280950032168,1.0,0.0
12.336960792541504,26.933895111083984,-0.840090274810791,-0.1246271713408292,-0.1889441923848603,-0.9740473090808354,0.2093683544451826,4.0,0.0
10.657543182373049,27.260852813720703,-0.971768856048584,-0.0,-0.0,-1.0,0.1972155601378986,1.0,0.0
12.509963035583496,26.54747200012207,-1.0315072536468506,-0.0,-0.0,-1.0,0.050900361340328,1.0,0.0
12.245410919189451,26.979753494262695,-1.098049879074097,-0.0,-0.0,-1.0,0.1586135480852502,1.0,0.0
12.539628982543944,26.098142623901367,-0.9753425121307372,-0.0,-0.0,-1.0,0.0601176614465267,2.0,0.0
11.933513641357422,26.454015731811523,-1.0511791706085205,-0.0,-0.0,-1.0,0.0521993707525201,1.0,0.0
11.32497787475586,27.320322036743164,-1.1902034282684326,-0.0,-0.0,-1.0,0.1839089172654194,2.0,0.0
11.1231689453125,27.498369216918945,-1.2232911586761477,-0.0,-0.0,-1.0,0.1901675586842924,1.0,0.0
10.674741744995115,27.19437599182129,-1.212679147720337,-0.0,-0.0,-1.0,0.1797215083313921,1.0,0.0
12.333948135375977,26.89075088500977,-0.9011514186859132,-0.0483371347461831,-0.8741370809966632,0.4832679226176327,0.1621402537033965,4.0,0.0
12.1514892578125,27.065879821777344,-0.930988073348999,-0.0,-0.0,-1.0,0.1740292725907079,1.0,0.0
10.78377628326416,27.469242095947266,-1.0486838817596436,-0.0,-0.0,-1.0,0.1975160948263528,1.0,0.0
10.612041473388672,27.37633895874023,-1.0466601848602295,0.0785970863400965,-0.5582456913824155,-0.8259444570137976,0.2064729092293555,4.0,0.0
10.614110946655272,27.349872589111328,-0.8926165103912354,0.7575141203112168,-0.6363601872256877,0.145664235978538,0.2134619140636744,6.0,0.0
10.73409652709961,27.34046173095703,-1.176377773284912,-0.0,-0.0,-1.0,0.1892698386946364,2.0,0.0
12.48062229156494,26.988630294799805,-1.045783519744873,-0.0,-0.0,-1.0,0.1773984088491157,1.0,0.0
12.336088180541992,26.963624954223633,-1.0487420558929443,-0.0,-0.0,-1.0,0.1771995112168048,1.0,0.0
12.573356628417969,26.81190299987793,-1.0275757312774658,-0.0,-0.0,-1.0,0.1266940616268874,1.0,0.0
12.408555030822754,27.073795318603516,-1.0708420276641846,-0.0,-0.0,-1.0,0.1478609638432096,1.0,0.0
12.227980613708496,27.049312591552734,-1.0744237899780271,-0.0,-0.0,-1.0,0.2008682947502227,1.0,0.0
11.339676856994627,27.342845916748047,-1.153749704360962,-0.0,-0.0,-1.0,0.1878721367367408,2.0,0.0
10.981213569641112,27.518918991088867,-1.1953082084655762,-0.0,-0.0,-1.0,0.1639385389835931,2.0,0.0
10.890141487121582,27.51758575439453,-1.1994614601135254,-0.0,-0.0,-1.0,0.1250450311659532,1.0,0.0
10.535338401794434,27.113210678100582,-1.1595537662506104,-0.0,-0.0,-1.0,0.1254956585083877,1.0,0.0
10.45241641998291,27.02735710144043,-1.1515710353851318,-0.2371398347712735,0.8242139719919985,0.5142334364253518,0.2026732353959296,5.0,0.0
12.646387100219728,26.54694175720215,-0.9872698783874512,-0.0,-0.0,-1.0,0.0545236369669526,1.0,0.0
10.801504135131836,27.42807960510254,-0.7214508056640625,-0.0,-0.0,-1.0,0.0513529976123995,1.0,0.0
12.636425018310549,27.979473114013672,-1.0776209831237793,-0.0,-0.0,-1.0,0.1597206975294778,1.0,0.0
12.351325988769531,26.871824264526367,-0.9169743061065674,-0.3635458080439065,-0.7709654653773444,0.5229213101884427,0.1621402537033965,3.0,0.0
12.20702838897705,27.094318389892575,-0.9556913375854492,-0.0,-0.0,-1.0,0.1422169904836106,2.0,0.0
10.928988456726074,27.661922454833984,-1.0889053344726562,-0.0,-0.0,-1.0,0.2128466292431718,1.0,0.0
10.712514877319336,27.392799377441406,-1.056218147277832,0.6372677501459894,-0.7572858533759617,-0.1428563995784231,0.1450590081144425,5.0,0.0
11.80570125579834,28.073970794677734,-1.367152452468872,-0.0,-0.0,-1.0,0.0567669962169552,1.0,0.0
11.272191047668455,27.50038146972656,-1.2826082706451416,-0.0,-0.0,-1.0,0.2181719058792426,2.0,0.0
11.169872283935549,27.789709091186523,-1.334422588348389,-0.0,-0.0,-1.0,0.0870733213094111,1.0,0.0
12.646418571472168,26.103498458862305,-1.0163347721099854,-0.0,-0.0,-1.0,0.0578991030276827,1.0,0.0
12.5845947265625,26.357074737548828,-1.060340404510498,-0.0,-0.0,-1.0,0.0315518520397407,2.0,0.0
12.088322639465332,25.810543060302734,-0.9771115779876708,-0.0,-0.0,-1.0,0.0989494449795336,2.0,0.0
12.273616790771484,26.143178939819336,-1.029839277267456,0.7559950034624405,0.5578633068856343,-0.34243260004043,0.0381069190572277,4.0,0.0
12.09123706817627,26.5756778717041,-1.1067516803741455,0.6748265230596276,-0.0835213049075946,-0.7332348569195181,0.0296564924298655,3.0,0.0
11.864702224731444,26.30571746826172,-1.065772294998169,-0.0,-0.0,-1.0,0.0945180051093257,2.0,0.0
11.064346313476562,27.352848052978516,-1.262930154800415,-0.0,-0.0,-1.0,0.0681419190174923,1.0,0.0
10.827229499816896,27.29268264770508,-1.2591793537139893,-0.0,-0.0,-1.0,0.138852550602214,2.0,0.0
10.420555114746094,26.9798583984375,-1.2176783084869385,-0.6854702300848933,0.2243628501159612,-0.6926701055735018,0.1165678359221186,6.0,0.0
10.462690353393556,27.085073471069336,-1.2343604564666748,-0.0961701697679767,0.9787698239633656,-0.1809998070317223,0.1497012741466267,3.0,0.0
12.610411643981934,25.841529846191406,-1.104365348815918,-0.0,-0.0,-1.0,0.0985632485151714,2.0,0.0
11.302812576293944,26.170591354370117,-1.2188208103179932,-0.0,-0.0,-1.0,0.0568253331564144,2.0,0.0
11.225647926330566,26.98467445373535,-1.3758385181427002,-0.0,-0.0,-1.0,0.1406404023727468,2.0,0.0
11.14519500732422,25.986879348754883,-1.1914515495300293,-0.0,-0.0,-1.0,0.0688866923912922,1.0,0.0
10.854385375976562,26.916797637939453,-1.380828857421875,-0.0,-0.0,-1.0,0.0918447083162031,1.0,0.0
10.555648803710938,26.875652313232425,-1.388219118118286,-0.0,-0.0,-1.0,0.1089477004332747,1.0,0.0
10.565401077270508,27.06230735778809,-1.4228971004486084,-0.0,-0.0,-1.0,0.1248278326380179,1.0,0.0
10.281785011291504,27.40496826171875,-1.5025556087493896,-0.0,-0.0,-1.0,0.106572419225145,1.0,0.0
12.583845138549805,25.709449768066406,-1.0805222988128662,0.2986493433110189,0.875929743110103,0.3788873907574204,0.1226451661820499,3.0,0.0
11.921184539794922,25.69346618652344,-1.102527379989624,-0.0,-0.0,-1.0,0.1372366271743882,1.0,0.0
11.879222869873049,28.072641372680664,-1.3813011646270752,-0.8712091903409045,-0.0484871674544918,-0.4885115569336982,0.0794599334442216,3.0,0.0
11.33876609802246,27.466228485107425,-1.2784011363983154,-0.0,-0.0,-1.0,0.1775490670918833,1.0,0.0
11.12545680999756,27.520523071289062,-1.2936513423919678,-0.0,-0.0,-1.0,0.1649732639275349,1.0,0.0
11.159294128417969,27.89611434936523,-1.3635685443878174,-0.0,-0.0,-1.0,0.1175898595033998,1.0,0.0
10.596256256103516,27.09358787536621,-1.2268741130828855,-0.0,-0.0,-1.0,0.1349813657556927,2.0,0.0
10.7940092086792,27.37567710876465,-1.274742603302002,-0.0,-0.0,-1.0,0.173219534516028,2.0,0.0
12.505184173583984,26.204999923706055,-1.0215811729431152,-0.0,-0.0,-1.0,0.05262879974113,1.0,0.0
12.496028900146484,26.538164138793945,-1.0838980674743652,-0.0,-0.0,-1.0,0.050900361340328,1.0,0.0
12.24036693572998,26.2569637298584,-1.034701585769653,-0.0,-0.0,-1.0,0.0320828662637597,2.0,0.0
12.10260009765625,26.572507858276367,-1.0959327220916748,0.6748265230596276,-0.0835213049075946,-0.7332348569195181,0.0296564924298654,3.0,0.0
12.07453727722168,26.796199798583984,-1.1382670402526855,-0.0,-0.0,-1.0,0.0852871868749602,1.0,0.0
11.3629150390625,26.995861053466797,-1.1893274784088137,-0.0,-0.0,-1.0,0.2162987626962902,1.0,0.0
10.78771686553955,26.813796997070312,-1.168891191482544,-0.0,-0.0,-1.0,0.1175248566751544,1.0,0.0
10.732996940612791,27.026247024536133,-1.2104179859161377,-0.0,-0.0,-1.0,0.1067821482185209,1.0,0.0
10.417789459228516,26.999576568603516,-1.2142503261566162,-0.7800940494585604,0.2233063091348951,-0.5844549309398422,0.170033395935868,4.0,0.0
11.035083770751951,27.061479568481445,-1.3775112628936768,-0.0,-0.0,-1.0,0.0663925632401226,2.0,0.0
10.271100997924805,27.66990089416504,-1.5114524364471436,-0.0,-0.0,-1.0,0.0637335019785913,1.0,0.0
12.31335735321045,25.64873504638672,-1.0925655364990234,-0.0,-0.0,-1.0,0.0460803286805134,1.0,0.0
11.874993324279783,25.72699928283691,-1.1052517890930176,-0.0,-0.0,-1.0,0.111428382885088,1.0,0.0
11.92197322845459,25.870365142822266,-1.1343059539794922,-0.0,-0.0,-1.0,0.0526692614555021,1.0,0.0
11.64240837097168,25.688756942749023,-1.0967204570770264,-0.0,-0.0,-1.0,0.1034859639651314,2.0,0.0
11.340250968933104,25.747251510620117,-1.1087212562561035,-0.0,-0.0,-1.0,0.0572368751013815,1.0,0.0
11.264159202575684,26.190290451049805,-1.1989343166351318,-0.0,-0.0,-1.0,0.0418956192607417,2.0,0.0
11.227436065673828,27.000770568847656,-1.3638713359832764,-0.0,-0.0,-1.0,0.1406404023727468,2.0,0.0
11.20009422302246,25.90620231628418,-1.1415398120880127,-0.0,-0.0,-1.0,0.0966866348294627,1.0,0.0
10.910093307495115,27.00288772583008,-1.366748571395874,-0.0,-0.0,-1.0,0.0593857206634379,1.0,0.0
10.52271842956543,26.98318099975586,-1.3672962188720703,-0.0,-0.0,-1.0,0.1024038518559453,2.0,0.0
11.53032398223877,27.58504295349121,-1.4597983360290527,-0.0,-0.0,-1.0,0.106043010086456,1.0,0.0
10.221277236938477,27.63941764831543,-1.4965238571166992,-0.0,-0.0,-1.0,0.0655139985451102,1.0,0.0
12.52232551574707,25.80499267578125,-1.0681724548339844,-0.0,-0.0,-1.0,0.1031728769794751,2.0,0.0
12.460026741027832,25.944271087646484,-1.0980894565582275,-0.0,-0.0,-1.0,0.0329612402880373,1.0,0.0
11.887784004211426,25.659170150756836,-1.0377235412597656,-0.0,-0.0,-1.0,0.1109210647008209,1.0,0.0
11.727426528930664,25.951000213623047,-1.102137327194214,-0.0,-0.0,-1.0,0.1141752665935529,1.0,0.0
11.43425464630127,26.439714431762695,-1.211256742477417,-0.0,-0.0,-1.0,0.0692275018574021,1.0,0.0
11.191822052001951,25.803926467895508,-1.075611591339111,-0.0,-0.0,-1.0,0.1184984217706322,1.0,0.0
11.155739784240724,27.03759765625,-1.3455069065093994,-0.0,-0.0,-1.0,0.1260188240539833,2.0,0.0
11.070426940917969,26.028650283813477,-1.126370906829834,-0.0,-0.0,-1.0,0.0774577429416078,1.0,0.0
10.78160572052002,27.02126121520996,-1.3484416007995603,-0.0,-0.0,-1.0,0.0937122197635949,2.0,0.0
10.22503662109375,26.80294609069824,-1.3128600120544434,-0.0,-0.0,-1.0,0.1576811245076369,1.0,0.0
10.39598274230957,26.96473503112793,-1.3442416191101074,0.7740950222991507,0.1417302673545232,-0.6170003466508691,0.2435428798354462,4.0,0.0
10.803290367126465,27.766054153442383,-0.8249533176422119,-0.0,-0.0,-1.0,0.1036193638566699,1.0,0.0
12.532989501953123,26.105419158935547,-1.0889954566955566,-0.0,-0.0,-1.0,0.0601176614465267,2.0,0.0
11.858440399169922,26.22205352783203,-1.1135456562042236,-0.0,-0.0,-1.0,0.1047330847073643,2.0,0.0
11.677387237548828,26.345415115356445,-1.1419081687927246,-0.0,-0.0,-1.0,0.0968999712714887,1.0,0.0
11.523688316345217,26.861230850219727,-1.2595274448394775,-0.0,-0.0,-1.0,0.1689157576311117,1.0,0.0
11.448311805725098,27.397798538208008,-1.3819563388824463,-0.0,-0.0,-1.0,0.1094356431948446,1.0,0.0
11.56645679473877,27.674293518066406,-1.4436233043670654,-0.0,-0.0,-1.0,0.0634688533187301,1.0,0.0
11.079291343688965,27.131553649902344,-1.3250398635864258,-0.0,-0.0,-1.0,0.1241011276669171,2.0,0.0
11.198685646057127,27.322559356689453,-1.3671255111694336,-0.0,-0.0,-1.0,0.1287277855965833,1.0,0.0
10.735739707946776,27.00687026977539,-1.3014514446258545,-0.0,-0.0,-1.0,0.1275105487282886,2.0,0.0
10.651291847229004,27.13010597229004,-1.330834150314331,-0.0,-0.0,-1.0,0.226227717604559,1.0,0.0
10.424461364746094,26.96204376220703,-1.296529769897461,-0.6664895733367514,0.6693476114909435,-0.3282764439078204,0.1326642186283478,4.0,0.0
10.296424865722656,27.239521026611328,-1.3624639511108398,-0.0,-0.0,-1.0,0.1892403249449767,1.0,0.0
10.279077529907228,28.100984573364254,-1.5597500801086426,-0.0,-0.0,-1.0,0.1480345074865335,2.0,0.0
12.706604957580566,25.805213928222656,-1.0231072902679443,-0.0,-0.0,-1.0,0.1151902679357261,1.0,0.0
12.433598518371582,25.899803161621097,-1.0422463417053225,-0.0,-0.0,-1.0,0.0348961371558923,2.0,0.0
12.063840866088867,25.85533905029297,-1.030977725982666,-0.9149777503464812,0.217071258459492,-0.3401408313062475,0.0975375467947332,3.0,0.0
11.65516757965088,25.90343475341797,-1.0420231819152832,-0.0,-0.0,-1.0,0.114555835179038,2.0,0.0
11.55939769744873,26.78063583374023,-1.2762739658355713,-0.0,-0.0,-1.0,0.093991821593393,1.0,0.0
11.49483585357666,27.18876266479492,-1.3761086463928225,-0.0,-0.0,-1.0,0.0997622305037378,1.0,0.0
11.557154655456545,27.520557403564453,-1.4567675590515137,-0.0,-0.0,-1.0,0.1212170948161629,1.0,0.0
11.566449165344238,26.393226623535156,-1.1818723678588867,-0.0,-0.0,-1.0,0.1174441775740655,2.0,0.0
11.176480293273926,27.03438186645508,-1.3406732082366943,-0.0,-0.0,-1.0,0.1462506267083901,2.0,0.0
10.773721694946287,27.019302368164062,-1.3417346477508545,-0.0,-0.0,-1.0,0.0916607122109952,2.0,0.0
10.412030220031738,26.93590927124023,-1.3273553848266602,0.8213474160691536,0.2403549462410033,-0.5173180085150808,0.1738905608990656,5.0,0.0
10.267289161682127,27.557147979736328,-1.483564853668213,-0.0,-0.0,-1.0,0.0812370216506178,1.0,0.0
12.690706253051758,25.871458053588867,-1.0636630058288574,-0.0,-0.0,-1.0,0.1008293719755883,2.0,0.0
12.425411224365234,25.867290496826172,-1.0590217113494873,-0.0,-0.0,-1.0,0.0379944748228352,2.0,0.0
12.035934448242188,25.80010414123535,-1.0392045974731443,-0.0,-0.0,-1.0,0.1034190942601126,2.0,0.0
11.808147430419922,26.12049865722656,-1.1156730651855469,-0.0,-0.0,-1.0,0.0589414087228262,2.0,0.0
10.91209888458252,27.74459457397461,-0.8980257511138916,-0.0,-0.0,-1.0,0.0914605994030564,1.0,0.0
10.75733470916748,28.117839813232425,-0.9792964458465576,-0.0,-0.0,-1.0,0.2215307012387662,2.0,0.0
10.842592239379885,26.70310401916504,-1.4298620223999023,-0.0,-0.0,-1.0,0.0530522802050843,2.0,0.0
10.583045959472656,26.724681854248047,-1.4336044788360596,-0.0,-0.0,-1.0,0.062281675044057,1.0,0.0
10.253562927246094,26.97831344604492,-1.5002822875976562,-0.0,-0.0,-1.0,0.1516748558680427,2.0,0.0
12.424729347229004,26.968292236328125,-0.9591028690338136,-0.0,-0.0,-1.0,0.1386896436342999,1.0,0.0
12.221193313598633,27.09937286376953,-0.98376202583313,-0.0,-0.0,-1.0,0.1697283669395587,2.0,0.0
11.175555229187012,27.479698181152344,-1.0548672676086426,-0.0,-0.0,-1.0,0.1112175042593435,1.0,0.0
10.87582015991211,27.651771545410156,-1.093120813369751,-0.0,-0.0,-1.0,0.1944023362198801,1.0,0.0
11.338912963867188,25.794979095458984,-1.1971945762634275,-0.0,-0.0,-1.0,0.0594153440734958,2.0,0.0
11.0791015625,26.09977912902832,-1.2726588249206543,-0.0,-0.0,-1.0,0.0636823265650432,1.0,0.0
10.952078819274902,26.4658203125,-1.3679518699645996,-0.0,-0.0,-1.0,0.0461855487472987,1.0,0.0
10.713756561279297,27.393484115600582,-1.033172845840454,0.6372677501459894,-0.7572858533759617,-0.1428563995784231,0.1317173897069535,5.0,0.0
10.918160438537598,26.316898345947266,-1.3277804851531982,-0.0,-0.0,-1.0,0.0320688514245081,1.0,0.0
10.469682693481444,26.576168060302734,-1.392910718917847,-0.0,-0.0,-1.0,0.1078719131281794,1.0,0.0
12.291259765625,26.89113426208496,-0.9383544921875,-0.174762704457564,-0.3068507961338129,-0.9355750028953976,0.1403545954411218,3.0,0.0
10.565284729003906,27.336734771728516,-1.0200676918029783,-0.0,-0.0,-1.0,0.2016814982189932,2.0,0.0
11.642824172973633,27.187026977539062,-1.3283088207244873,-0.0,-0.0,-1.0,0.0749863207142293,1.0,0.0
11.478805541992188,27.581302642822266,-1.4191946983337402,-0.0,-0.0,-1.0,0.1186773828101708,2.0,0.0
11.357398986816406,27.75277328491211,-1.456782579421997,-0.0,-0.0,-1.0,0.1049258265270895,1.0,0.0
11.083301544189451,27.272235870361328,-1.3233153820037842,-0.0,-0.0,-1.0,0.0889537826979918,2.0,0.0
10.931903839111328,27.170808792114254,-1.2912976741790771,-0.0,-0.0,-1.0,0.0381802556311442,1.0,0.0
10.555334091186523,27.31718063354492,-1.3149056434631348,-0.0,-0.0,-1.0,0.2170648121075659,1.0,0.0
12.65628433227539,25.90321922302246,-1.0762150287628174,0.6958120440270581,0.7091660406867829,-0.1137063152314734,0.0415761972391676,3.0,0.0
12.389476776123049,26.035112380981445,-1.0886993408203125,0.2376110229088486,0.9681163155683212,-0.0793208757051318,0.0330094840312862,4.0,0.0
11.71514129638672,26.890716552734375,-1.2579915523529053,-0.0,-0.0,-1.0,0.03617685104835,1.0,0.0
12.337919235229492,25.805858612060547,-1.029097080230713,-0.0,-0.0,-1.0,0.0429709217638904,2.0,0.0
12.076179504394531,25.90165901184082,-1.0346081256866455,-0.0,-0.0,-1.0,0.0621123957338032,2.0,0.0
11.860847473144531,26.29626846313477,-1.118572473526001,-0.0,-0.0,-1.0,0.1104555015356454,1.0,0.0
11.624286651611328,26.426055908203125,-1.1369900703430176,-0.0,-0.0,-1.0,0.0972177825635548,1.0,0.0
10.78791046142578,27.084232330322266,-1.263683557510376,-0.0,-0.0,-1.0,0.1135436298858072,2.0,0.0
10.552217483520508,27.133079528808594,-1.2675659656524658,-0.0,-0.0,-1.0,0.1751422491061256,2.0,0.0
10.40538215637207,26.942543029785156,-1.2140512466430664,-0.5037249152265607,0.1067763461041282,-0.8572397690801832,0.1836402855018215,6.0,0.0
10.212817192077637,27.186492919921875,-1.2708535194396973,-0.0,-0.0,-1.0,0.1428106989686575,1.0,0.0
12.224034309387209,27.275129318237305,-0.8137493133544922,-0.2256086626867319,-0.2744195484710823,-0.9347698340969458,0.1122384193500643,4.0,0.0
11.999595642089844,27.88933753967285,-1.4454407691955566,-0.0,-0.0,-1.0,0.0535928650412507,1.0,0.0
11.862781524658203,27.98627471923828,-1.4595959186553955,-0.0,-0.0,-1.0,0.057388566535989,2.0,0.0
12.050895690917969,27.501808166503903,-1.3536736965179443,-0.0,-0.0,-1.0,0.0238276124847393,1.0,0.0
12.06218719482422,27.255592346191406,-1.293997287750244,-0.0,-0.0,-1.0,0.0436390831938823,1.0,0.0
12.670408248901367,26.144784927368164,-1.0780224800109863,-0.0,-0.0,-1.0,0.0523942101722274,1.0,0.0
12.456745147705078,26.29138565063477,-1.0931799411773682,-0.0,-0.0,-1.0,0.0418984853664198,1.0,0.0
12.147454261779783,26.636852264404297,-1.1497180461883545,-0.0,-0.0,-1.0,0.0988978090112965,1.0,0.0
12.011740684509276,26.924421310424805,-1.208791971206665,-0.0,-0.0,-1.0,0.0602764073348428,1.0,0.0
11.252326011657717,27.422096252441406,-1.277458667755127,-0.0,-0.0,-1.0,0.1960959463949655,1.0,0.0
11.058595657348633,27.60315322875977,-1.3108458518981934,-0.0,-0.0,-1.0,0.1529653291695119,1.0,0.0
12.233585357666016,26.24435043334961,-1.0618598461151123,-0.0,-0.0,-1.0,0.0329271660498723,2.0,0.0
11.881508827209473,26.407817840576172,-1.0718927383422852,0.5674626361836438,0.7088851659411544,0.4188889805713344,0.0974645544067002,4.0,0.0
11.311273574829102,26.973344802856445,-1.1691367626190186,-0.0,-0.0,-1.0,0.1709556006557301,2.0,0.0
10.786949157714844,27.38785171508789,-1.240522384643555,-0.0,-0.0,-1.0,0.1937447955048001,2.0,0.0
10.502296447753906,27.15964126586914,-1.1669538021087646,-0.0,-0.0,-1.0,0.1129399029737761,1.0,0.0
11.620777130126951,26.95522689819336,-1.3276746273040771,-0.0,-0.0,-1.0,0.074300678063085,1.0,0.0
11.552699089050291,27.166244506835938,-1.37786865234375,-0.0,-0.0,-1.0,0.1006245824541201,1.0,0.0
11.444206237792969,27.504730224609375,-1.459195852279663,-0.0,-0.0,-1.0,0.1287827918643365,1.0,0.0
11.634575843811035,26.743431091308594,-1.272740364074707,-0.0,-0.0,-1.0,0.0471371521247993,1.0,0.0
11.118684768676758,27.20001220703125,-1.3505024909973145,-0.0,-0.0,-1.0,0.103155776523046,1.0,0.0
10.743512153625488,27.064123153686523,-1.284752368927002,-0.0,-0.0,-1.0,0.1178322669772154,1.0,0.0
10.435382843017578,27.39146423339844,-1.3521807193756104,-0.0,-0.0,-1.0,0.2007312557586255,1.0,0.0
10.42801284790039,26.92142105102539,-1.2228407859802246,-0.464240972826265,-0.1330085125120519,-0.8756649215017438,0.1560450769458702,3.0,0.0
12.691083908081056,27.958282470703125,-1.1253643035888672,-0.0,-0.0,-1.0,0.1552833220416786,1.0,0.0
12.409215927124023,28.050586700439453,-1.1234920024871826,-0.0,-0.0,-1.0,0.1277104699745084,1.0,0.0
12.326032638549805,26.806655883789062,-0.8328285217285156,-0.0,-0.0,-1.0,0.2505160413547348,1.0,0.0
12.200726509094238,27.231868743896484,-0.9190807342529296,-0.0,-0.0,-1.0,0.1475716735467477,2.0,0.0
12.4661283493042,25.736961364746097,-1.0963973999023438,-0.0,-0.0,-1.0,0.0985656025290765,1.0,0.0
12.153271675109863,25.733673095703125,-1.0609402656555176,-0.0,-0.0,-1.0,0.1346838537774659,2.0,0.0
11.877886772155762,25.944440841674805,-1.0865581035614014,0.4186041535403043,0.1811837350043637,-0.8899118028258046,0.0453694092523421,3.0,0.0
11.67986297607422,26.29534912109375,-1.1587648391723633,-0.0,-0.0,-1.0,0.0734148478544933,1.0,0.0
10.371057510375977,26.899913787841797,-1.2129909992218018,-0.0,-0.0,-1.0,0.176960124059913,2.0,0.0
12.512880325317385,28.022729873657227,-1.0428767204284668,-0.0,-0.0,-1.0,0.1494515324886407,1.0,0.0
12.336627960205078,27.237529754638672,-0.8367798328399658,-0.0,-0.0,-1.0,0.1259003223628313,1.0,0.0
12.275733947753906,27.369243621826172,-0.864668607711792,-0.0,-0.0,-1.0,0.1996427296440956,1.0,0.0
10.56130599975586,27.348134994506836,-0.7585604190826416,-0.0,-0.0,-1.0,0.1037981123771869,1.0,0.0
10.725177764892578,26.987316131591797,-1.3399970531463623,0.9713849291104042,-0.1145942733204058,-0.2080371890296131,0.1198746332708132,3.0,0.0
10.415555953979492,26.93634033203125,-1.329491376876831,0.8213474160691536,0.2403549462410033,-0.5173180085150808,0.1633979682302585,5.0,0.0
10.968156814575195,26.96976089477539,-1.3342711925506592,-0.0,-0.0,-1.0,0.0460128549240325,1.0,0.0
11.420833587646484,26.025135040283203,-1.092559576034546,-0.0,-0.0,-1.0,0.0238065425218335,1.0,0.0
11.009636878967283,25.74468994140625,-1.0226199626922607,-0.0,-0.0,-1.0,0.0986515440973017,1.0,0.0
11.603067398071287,25.873733520507812,-1.053924322128296,-0.0,-0.0,-1.0,0.1014748598114952,2.0,0.0
11.335329055786133,25.65394592285156,-0.9982354640960692,-0.0,-0.0,-1.0,0.0673586404734945,1.0,0.0
12.315459251403809,25.945568084716797,-1.074394464492798,-0.0,-0.0,-1.0,0.0355728994296112,1.0,0.0
12.064828872680664,25.836822509765625,-1.045452356338501,-0.6765588724949476,0.4307745158296096,-0.5972448480816978,0.1114469291725649,3.0,0.0
12.632965087890623,25.975906372070312,-1.084567308425903,-0.0,-0.0,-1.0,0.0545245898124363,1.0,0.0
12.461297988891602,25.64206314086914,-0.9978411197662354,-0.0,-0.0,-1.0,0.1152387220067366,1.0,0.0
10.698808670043944,27.37500762939453,-1.0659635066986084,0.7985519718003036,-0.6013999336108121,-0.0251568715614195,0.1991751785251827,3.0,0.0
12.53057861328125,27.93045425415039,-1.1888620853424072,-0.0,-0.0,-1.0,0.1494515324886407,1.0,0.0
12.2650146484375,26.848140716552734,-0.9332926273345948,-0.0,-0.0,-1.0,0.1445069713899093,1.0,0.0
12.164006233215332,26.841384887695312,-0.9313294887542723,-0.0,-0.0,-1.0,0.1653857334889227,1.0,0.0
12.332197189331056,26.86661148071289,-0.9379584789276124,-0.4285114681334451,-0.748565665963801,0.5059914677326987,0.1403545954411218,4.0,0.0
10.561532020568848,27.204288482666016,-1.4090964794158936,-0.7457127730545654,0.6418759137303646,0.1786274656263118,0.1793093406523198,3.0,0.0
10.991209030151367,26.996845245361328,-1.3713362216949463,-0.0,-0.0,-1.0,0.0512377726288125,1.0,0.0
10.718379974365234,26.952316284179688,-1.3524587154388428,-0.0,-0.0,-1.0,0.0814201200376908,2.0,0.0
10.364737510681152,26.8778076171875,-1.3251135349273682,-0.0,-0.0,-1.0,0.2146849470014531,1.0,0.0
10.286332130432127,26.459707260131836,-1.2221100330352783,-0.0,-0.0,-1.0,0.140374306977815,1.0,0.0
11.169321060180664,26.937562942504883,-1.362839937210083,-0.0,-0.0,-1.0,0.1157207092833185,1.0,0.0
11.1204252243042,26.050373077392575,-1.146029710769653,-0.0,-0.0,-1.0,0.085918466442157,1.0,0.0
11.982090950012209,25.698970794677734,-1.094634771347046,-0.0,-0.0,-1.0,0.1180512453349153,2.0,0.0
10.23998737335205,27.031219482421875,-1.4337518215179443,-0.0,-0.0,-1.0,0.1851436351983207,1.0,0.0
10.84628963470459,26.78292465209961,-1.3937547206878662,-0.0,-0.0,-1.0,0.0704761555823888,1.0,0.0
10.59158706665039,26.578693389892575,-1.338111162185669,-0.0,-0.0,-1.0,0.1060676356866637,1.0,0.0
11.177160263061523,25.87484359741211,-1.1935842037200928,-0.0,-0.0,-1.0,0.1092580635326907,1.0,0.0
11.316987037658691,25.84419631958008,-1.1916897296905518,-0.0,-0.0,-1.0,0.0700416824148318,1.0,0.0
11.733129501342772,28.097110748291016,-1.332672357559204,-0.0,-0.0,-1.0,0.0721193935198607,1.0,0.0
11.011338233947754,27.567787170410156,-1.167473554611206,-0.0,-0.0,-1.0,0.1598250070752866,1.0,0.0
10.76447582244873,27.37880516052246,-1.110187292098999,0.6938402458048024,-0.5894962512052008,0.4136180401246377,0.2156896039256257,4.0,0.0
11.8548002243042,28.081384658813477,-1.338613748550415,-0.0460699942816857,-0.9975129115883064,0.0533436673046113,0.0794599334442217,4.0,0.0
11.299373626708984,27.232418060302734,-1.1167352199554443,-0.0,-0.0,-1.0,0.1352737023615045,1.0,0.0
10.298401832580566,27.985258102416992,-1.562648057937622,-0.0,-0.0,-1.0,0.1459773437603432,1.0,0.0
10.92963695526123,26.90155792236328,-1.3744041919708252,-0.0,-0.0,-1.0,0.0509252643914378,1.0,0.0
10.607898712158203,26.904083251953125,-1.3471381664276123,-0.0,-0.0,-1.0,0.1092085359067381,1.0,0.0
11.265581130981444,27.177494049072266,-1.0102107524871826,-0.0,-0.0,-1.0,0.1069600333954672,1.0,0.0
11.12773323059082,27.095672607421875,-0.986992597579956,-0.0,-0.0,-1.0,0.1518755261483164,1.0,0.0
10.402873992919922,27.164560317993164,-1.1534292697906494,-0.0,-0.0,-1.0,0.1621139915844649,1.0,0.0
10.618712425231934,26.847309112548828,-1.1267402172088623,-0.0,-0.0,-1.0,0.1240879707345223,1.0,0.0
10.53432559967041,26.913284301757812,-1.1282689571380615,-0.0,-0.0,-1.0,0.177904572565332,1.0,0.0
10.88178539276123,26.376220703125,-1.0819289684295654,-0.0,-0.0,-1.0,0.0390656980276885,1.0,0.0
10.217402458190918,27.07021713256836,-0.0906331539154052,-0.0,-0.0,-1.0,0.0512321306459111,1.0,0.0
11.881235122680664,28.101329803466797,-1.387737274169922,-0.0,-0.0,-1.0,0.0794599334442217,2.0,0.0
11.955848693847656,27.855148315429688,-1.3641633987426758,-0.0,-0.0,-1.0,0.0652411140015429,1.0,0.0
11.857759475708008,27.177154541015625,-1.2557053565979004,-0.0,-0.0,-1.0,0.0517000828223155,2.0,0.0
11.401987075805664,27.472423553466797,-1.231400966644287,-0.0,-0.0,-1.0,0.1300339451038401,1.0,0.0
11.73366928100586,26.33578109741211,-1.120982646942139,-0.0,-0.0,-1.0,0.0572914777034523,1.0,0.0
11.795087814331056,25.97410011291504,-1.0799789428710938,-0.0,-0.0,-1.0,0.0492413258780933,1.0,0.0
11.96685791015625,25.749675750732425,-1.074451923370361,-0.0,-0.0,-1.0,0.1141685046264537,2.0,0.0
12.317665100097656,27.829132080078125,-1.2630548477172852,-0.0,-0.0,-1.0,0.0642086883410237,2.0,0.0
10.803380012512209,27.4514217376709,-0.9927158355712892,0.5264257431937903,-0.2651353800672392,0.807823722813007,0.1766065481256468,3.0,0.0
12.420780181884766,27.254398345947266,-1.1754841804504397,-0.0,-0.0,-1.0,0.1952076115243026,1.0,0.0
12.31996250152588,27.422937393188477,-1.1913113594055176,-0.0,-0.0,-1.0,0.1131070038605327,2.0,0.0
10.557558059692385,27.23330307006836,-0.921452522277832,-0.0,-0.0,-1.0,0.1761308275167791,1.0,0.0
12.472804069519045,26.860294342041016,-1.1131935119628906,-0.0,-0.0,-1.0,0.1449777337612738,1.0,0.0
12.598398208618164,26.376585006713867,-1.045912742614746,-0.0,-0.0,-1.0,0.0285630097946038,2.0,0.0
12.33004379272461,26.53650283813477,-1.0360589027404783,0.9918558221843492,0.0901814237339516,0.0899407516775709,0.0263995646354906,4.0,0.0
12.666589736938477,26.15344619750977,-1.0165748596191406,-0.0,-0.0,-1.0,0.0497129384862186,1.0,0.0
12.46164321899414,26.323793411254883,-1.0171847343444824,-0.0,-0.0,-1.0,0.0352757885255094,1.0,0.0
11.918211936950684,27.68381690979004,-1.3595352172851562,-0.0,-0.0,-1.0,0.0236120399268072,2.0,0.0
11.146942138671877,27.452268600463867,-1.184610366821289,-0.0,-0.0,-1.0,0.1621976078196295,1.0,0.0
11.36452865600586,27.43231773376465,-1.2153549194335938,-0.0,-0.0,-1.0,0.2324936527319558,1.0,0.0
10.791507720947266,27.400611877441406,-1.1168584823608398,0.6938402458048024,-0.5894962512052008,0.4136180401246377,0.1597392113850147,4.0,0.0
11.925320625305176,26.87750816345215,-1.1894879341125488,-0.743465150450304,-0.4300899283336444,-0.5121349662070223,0.0558029971494213,3.0,0.0
11.948473930358888,26.40802764892578,-1.0940189361572266,-0.0,-0.0,-1.0,0.0882066654037192,1.0,0.0
12.014238357543944,26.301734924316406,-1.0826973915100098,-0.0,-0.0,-1.0,0.0578827222092524,1.0,0.0
12.095317840576172,26.10486221313477,-1.055009841918945,-0.0,-0.0,-1.0,0.0193874497592034,1.0,0.0
12.62020206451416,25.68747901916504,-1.0583868026733398,-0.0,-0.0,-1.0,0.1191868785708054,2.0,0.0
12.285893440246582,25.682788848876953,-0.9991817474365234,-0.0,-0.0,-1.0,0.0555607767956282,1.0,0.0
12.255818367004396,27.241641998291016,-0.9205174446105956,-0.2559479822224345,-0.7391768875980413,-0.6229832736415455,0.1811106705032564,4.0,0.0
10.547609329223633,27.35489845275879,-0.8751416206359863,-0.1186977750281972,-0.9190129714385572,-0.3759335001446784,0.1668761996929997,3.0,0.0
12.323823928833008,26.89263916015625,-0.832313060760498,0.4661928627978368,-0.3228340225172432,-0.8236761551615377,0.2093683544451827,6.0,0.0
10.687789916992188,27.999603271484375,-1.5293660163879397,-0.0,-0.0,-1.0,0.1562592851832909,1.0,0.0
11.580144882202148,27.00261878967285,-1.3474879264831543,-0.0,-0.0,-1.0,0.0956312925325037,2.0,0.0
11.24255084991455,27.039793014526367,-1.3257126808166504,-0.0,-0.0,-1.0,0.124415566547929,1.0,0.0
10.93303394317627,27.002851486206055,-1.2877659797668457,-0.0,-0.0,-1.0,0.0632385392528443,2.0,0.0
10.539628982543944,27.02445602416992,-1.2584309577941897,-0.0,-0.0,-1.0,0.1188234507973667,1.0,0.0
11.557111740112305,26.61241912841797,-1.2435040473937988,-0.0,-0.0,-1.0,0.0640301872303662,1.0,0.0
11.634851455688477,26.313127517700195,-1.1730952262878418,-0.0,-0.0,-1.0,0.1164546827472667,1.0,0.0
11.550844192504885,26.378828048706055,-1.1820721626281738,-0.0,-0.0,-1.0,0.1130780845773685,2.0,0.0
11.88755702972412,25.900304794311523,-1.0909953117370603,0.4186041535403043,0.1811837350043637,-0.8899118028258046,0.0448789669747401,3.0,0.0
11.607007026672363,26.031335830688477,-1.0972094535827637,-0.0,-0.0,-1.0,0.1245971138650582,1.0,0.0
12.631077766418455,25.641754150390625,-1.100721836090088,-0.0,-0.0,-1.0,0.1108247556105198,1.0,0.0
11.980649948120115,25.642669677734375,-1.0338530540466309,-0.0,-0.0,-1.0,0.1426165297522149,1.0,0.0
10.324991226196287,27.32506942749023,-1.248751163482666,-0.0,-0.0,-1.0,0.1820937297613989,1.0,0.0
10.951263427734377,26.984149932861328,-1.2621054649353027,-0.0,-0.0,-1.0,0.0608845739374964,2.0,0.0
10.58328628540039,27.115066528320312,-1.2377257347106934,0.7142141224963531,0.0799739872760105,-0.695343331445654,0.1925716908578091,3.0,0.0
10.306024551391602,27.047367095947266,-1.1812100410461426,-0.0,-0.0,-1.0,0.2016393181733623,1.0,0.0
11.20840072631836,26.610132217407227,-1.2145867347717283,-0.0,-0.0,-1.0,0.0681444460511224,1.0,0.0
11.25956916809082,26.25797462463379,-1.1414923667907717,-0.0,-0.0,-1.0,0.0449226910136023,1.0,0.0
11.37851905822754,25.73328971862793,-1.039803981781006,-0.0,-0.0,-1.0,0.065717276929303,1.0,0.0
10.271977424621582,27.990812301635746,-1.502110481262207,-0.0,-0.0,-1.0,0.1461793971330909,1.0,0.0
10.43476390838623,27.7236385345459,-1.4661369323730469,-0.0,-0.0,-1.0,0.0659897764128756,1.0,0.0
10.512226104736328,27.64089012145996,-1.459360122680664,-0.0,-0.0,-1.0,0.0591143284301933,1.0,0.0
10.468340873718262,27.23554229736328,-1.359598159790039,-0.0,-0.0,-1.0,0.2482641257797036,1.0,0.0
11.116990089416504,26.63387107849121,-1.3274297714233398,-0.0,-0.0,-1.0,0.063001189954403,2.0,0.0
10.755905151367188,26.87411117553711,-1.323211669921875,-0.0,-0.0,-1.0,0.1090549913823473,1.0,0.0
10.434109687805176,26.843826293945312,-1.264632225036621,-0.0,-0.0,-1.0,0.2059367908580128,1.0,0.0
11.175458908081056,26.153560638427734,-1.228715896606445,-0.0,-0.0,-1.0,0.0517578450870607,1.0,0.0
11.325241088867188,25.770238876342773,-1.1676654815673828,-0.0,-0.0,-1.0,0.0594153440734958,2.0,0.0
12.119994163513184,28.021617889404297,-1.4002809524536133,-0.0,-0.0,-1.0,0.0476460956609206,1.0,0.0
12.22452449798584,27.785015106201172,-1.3602046966552734,-0.0,-0.0,-1.0,0.0418040879381122,1.0,0.0
12.262215614318848,27.362529754638672,-1.267986297607422,-0.0,-0.0,-1.0,0.1251057448353704,1.0,0.0
12.155579566955566,27.48776626586914,-1.2815179824829102,-0.0,-0.0,-1.0,0.0516744518553041,1.0,0.0
12.15834903717041,26.93146324157715,-1.1536531448364258,-0.0,-0.0,-1.0,0.1355482581084742,1.0,0.0
12.318829536437988,26.42218017578125,-1.0606689453125,-0.0,-0.0,-1.0,0.025889599903578,1.0,0.0
12.167244911193848,26.573833465576172,-1.0729045867919922,-0.0,-0.0,-1.0,0.0826008630416721,1.0,0.0
12.40513515472412,26.096506118774418,-0.9994564056396484,-0.0,-0.0,-1.0,0.0445375614558929,1.0,0.0
11.851078033447266,27.915239334106445,-1.3973193168640137,-0.0,-0.0,-1.0,0.057388566535989,1.0,0.0
11.948938369750977,27.50731658935547,-1.3191742897033691,-0.0,-0.0,-1.0,0.0231158263264902,1.0,0.0
11.90911102294922,27.718250274658203,-1.3612093925476074,-0.9402537408433256,-0.2592451559504216,-0.2207144126385347,0.0291052353433969,3.0,0.0
10.829689025878906,28.119291305541992,-1.2869086265563965,-0.0,-0.0,-1.0,0.1500304249346261,1.0,0.0
11.901567459106444,27.175270080566406,-1.2357707023620603,-0.0,-0.0,-1.0,0.0608888377604214,2.0,0.0
11.25141143798828,27.52736473083496,-1.2143101692199707,-0.0,-0.0,-1.0,0.1608836672501706,1.0,0.0
11.921838760375977,26.855844497680664,-1.1662402153015137,-0.0,-0.0,-1.0,0.0574413753851251,2.0,0.0
10.77524757385254,27.37958335876465,-1.1063685417175293,0.6938402458048024,-0.5894962512052008,0.4136180401246377,0.1560115621035445,4.0,0.0
12.067049026489258,26.336915969848633,-1.0721755027770996,0.4793691120109597,0.7420022464195263,-0.4686554392709005,0.0600089866402145,4.0,0.0
11.837692260742188,26.485258102416992,-1.0685229301452637,-0.0,-0.0,-1.0,0.1004150719629883,1.0,0.0
12.634088516235352,25.65712547302246,-1.0135045051574707,-0.0,-0.0,-1.0,0.1133960470850875,2.0,0.0
12.227901458740234,25.799406051635746,-0.9777112007141112,-0.0,-0.0,-1.0,0.0765789376871466,1.0,0.0
12.092107772827148,25.967737197875977,-0.9930739402770996,-0.0,-0.0,-1.0,0.0376543060421984,1.0,0.0
12.306171417236328,28.050342559814453,-1.3336596488952637,-0.0,-0.0,-1.0,0.0870764916576934,1.0,0.0
12.51899528503418,27.46535873413086,-1.234264850616455,-0.0,-0.0,-1.0,0.1323653160403655,1.0,0.0
12.610769271850586,27.06900405883789,-1.159129619598389,-0.0,-0.0,-1.0,0.1495010091795993,1.0,0.0
12.60316276550293,26.815998077392575,-1.1004700660705566,-0.0,-0.0,-1.0,0.1304146891783998,1.0,0.0
11.007402420043944,27.47174072265625,-0.9918313026428224,-0.0,-0.0,-1.0,0.1324059155770517,1.0,0.0
10.75266456604004,27.30056381225586,-0.9116806983947754,-0.0,-0.0,-1.0,0.1744191479490246,1.0,0.0
10.246133804321287,26.34471893310547,-1.5245394706726074,-0.0,-0.0,-1.0,0.096389106913342,1.0,0.0
12.671869277954102,28.081241607666016,-1.3581061363220217,-0.0,-0.0,-1.0,0.1494515324886408,1.0,0.0
12.6822509765625,27.938905715942383,-1.33427095413208,-0.0,-0.0,-1.0,0.1416161548126888,1.0,0.0
12.70635223388672,27.62926483154297,-1.282942295074463,-0.0,-0.0,-1.0,0.100579259693141,1.0,0.0
10.927271842956545,28.01333236694336,-1.6292376518249512,-0.0,-0.0,-1.0,0.1568247914143782,1.0,0.0
11.660319328308104,25.796295166015625,-1.312629222869873,-0.0,-0.0,-1.0,0.1018295788116802,1.0,0.0
11.640259742736816,26.055862426757812,-1.3636488914489746,-0.0,-0.0,-1.0,0.1314670117824412,1.0,0.0
11.472857475280762,26.424415588378903,-1.4040513038635254,-0.0,-0.0,-1.0,0.061769161200621,1.0,0.0
11.301722526550291,26.591876983642575,-1.4006381034851074,-0.0,-0.0,-1.0,0.0482088217569526,1.0,0.0
11.114054679870604,27.029220581054688,-1.45320463180542,-0.0,-0.0,-1.0,0.0743372531643575,1.0,0.0
11.034209251403809,26.582111358642575,-1.3365302085876465,-0.0,-0.0,-1.0,0.0657005387725138,1.0,0.0
10.33629322052002,27.974773406982425,-1.4879727363586426,-0.0,-0.0,-1.0,0.1475243137193725,1.0,0.0
10.462746620178224,26.777862548828125,-1.2485404014587402,-0.0,-0.0,-1.0,0.2377935534153198,1.0,0.0
10.230254173278809,26.015567779541016,-1.0267291069030762,-0.0,-0.0,-1.0,0.0689771994766632,1.0,0.0
10.903158187866213,26.07762908935547,-1.249433994293213,-0.0,-0.0,-1.0,0.0551438951264986,1.0,0.0
10.696269989013672,26.445049285888672,-1.2908778190612793,-0.0,-0.0,-1.0,0.0946273446669834,1.0,0.0
10.366910934448242,26.820655822753903,-1.3077874183654783,-0.0,-0.0,-1.0,0.1488723751934016,1.0,0.0
10.307086944580078,27.095943450927734,-1.3628382682800293,-0.0,-0.0,-1.0,0.1568991700567202,1.0,0.0
10.40445327758789,26.5916748046875,-1.259512424468994,-0.0,-0.0,-1.0,0.1215018475143973,1.0,0.0
12.453815460205078,27.997203826904297,-1.03358793258667,-0.0,-0.0,-1.0,0.1489740741450734,1.0,0.0
12.436660766601562,28.12292098999023,-1.057243824005127,-0.0,-0.0,-1.0,0.1489740741450735,1.0,0.0
12.258634567260742,26.89185333251953,-0.7554197311401367,-0.0,-0.0,-1.0,0.1612102441582137,1.0,0.0
12.17027473449707,27.272205352783203,-0.818204402923584,-0.0,-0.0,-1.0,0.0799465051193951,1.0,0.0
12.182445526123049,25.929244995117188,-0.9948749542236328,-0.0,-0.0,-1.0,0.043741704563447,1.0,0.0
11.980607986450195,26.26152801513672,-0.9987955093383788,-0.0,-0.0,-1.0,0.069420484330152,1.0,0.0
11.934017181396484,26.766937255859375,-1.080608367919922,-0.0,-0.0,-1.0,0.146299663594754,1.0,0.0
11.999042510986328,27.089611053466797,-1.1602745056152344,-0.0,-0.0,-1.0,0.1164549073324789,1.0,0.0
12.006561279296877,27.416820526123047,-1.2248897552490234,0.4149029156281332,-0.2642352558028902,-0.8706522268931812,0.1587162415432916,3.0,0.0
12.001171112060549,27.86698532104492,-1.3100090026855469,-0.0,-0.0,-1.0,0.0564907787895945,1.0,0.0
11.88503074645996,28.072036743164062,-1.3173189163208008,0.0685033120537154,-0.874070793243631,-0.4809444298836621,0.0794599334442216,3.0,0.0
11.623538970947266,28.06531143188477,-1.2433691024780271,-0.0,-0.0,-1.0,0.0757303919377602,1.0,0.0
11.208267211914062,27.47227478027344,-1.01239013671875,-0.0,-0.0,-1.0,0.1309735821909411,1.0,0.0
10.53087043762207,25.664100646972656,-1.3038063049316406,-0.0,-0.0,-1.0,0.073362810757849,1.0,0.0
10.51864242553711,25.99271583557129,-1.3606033325195312,-0.0,-0.0,-1.0,0.0634254448439831,1.0,0.0
10.43710994720459,26.368181228637695,-1.4022350311279297,-0.0,-0.0,-1.0,0.0747084689839161,1.0,0.0
10.344209671020508,26.560834884643555,-1.405925750732422,-0.0,-0.0,-1.0,0.1174014481872727,1.0,0.0
10.303888320922852,26.75403594970703,-1.4288311004638672,-0.0,-0.0,-1.0,0.2051590474878241,1.0,0.0
12.10025405883789,26.553295135498047,-1.095903396606445,0.6748265230596276,-0.0835213049075946,-0.7332348569195181,0.0298916629436597,3.0,0.0
12.15687370300293,27.325658798217773,-1.236067771911621,-0.0,-0.0,-1.0,0.1070780368926305,1.0,0.0
12.022167205810549,26.89095687866211,-1.122636795043945,-0.0,-0.0,-1.0,0.1505804521178483,1.0,0.0
12.133550643920898,27.550268173217773,-1.2641544342041016,-0.0,-0.0,-1.0,0.0396248586407182,1.0,0.0
12.163921356201172,27.894794464111328,-1.3295488357543943,-0.0,-0.0,-1.0,0.0490669700918187,1.0,0.0
12.287296295166016,25.816059112548828,-1.046184539794922,-0.0,-0.0,-1.0,0.0444827956219344,1.0,0.0
12.201770782470703,26.187171936035156,-1.0736169815063477,-0.0,-0.0,-1.0,0.0241644810532075,1.0,0.0
12.321401596069336,27.469478607177734,-1.2059893608093262,-0.0,-0.0,-1.0,0.1055085486930848,2.0,0.0
12.41404914855957,27.737483978271484,-1.2814078330993652,-0.0,-0.0,-1.0,0.0973399305100479,1.0,0.0
12.430038452148438,28.057430267333984,-1.339118480682373,-0.0,-0.0,-1.0,0.1277104699745084,1.0,0.0
12.33596420288086,27.837364196777344,-1.2707514762878418,-0.0,-0.0,-1.0,0.0929912210981495,2.0,0.0
12.501581192016602,26.11615753173828,-1.0570988655090332,0.4266801160599435,0.8678908677171001,-0.2543806602167944,0.057801006169545,4.0,0.0
12.348522186279297,26.346412658691406,-1.0381016731262207,-0.0,-0.0,-1.0,0.0264555385118445,1.0,0.0
12.329355239868164,26.497812271118164,-1.0548110008239746,0.9935516146079358,-0.0632790178157414,0.0940795143176181,0.0249436703520558,3.0,0.0
12.37859344482422,26.941463470458984,-1.1416687965393066,-0.0,-0.0,-1.0,0.1159470690725137,1.0,0.0
12.333162307739258,27.35761260986328,-1.192054271697998,-0.0,-0.0,-1.0,0.1805481609459783,1.0,0.0
10.719545364379885,28.123573303222656,-0.772489070892334,-0.0,-0.0,-1.0,0.1422004622842874,1.0,0.0
11.292787551879885,25.734647750854492,-1.0882158279418943,-0.0,-0.0,-1.0,0.0796268765889596,1.0,0.0
11.62983512878418,25.65313720703125,-1.0801448822021484,-0.0,-0.0,-1.0,0.0880629581672206,2.0,0.0
10.947772979736328,25.976537704467773,-1.1368780136108398,-0.0,-0.0,-1.0,0.079638997027413,1.0,0.0
11.069536209106444,25.80008316040039,-1.0966081619262695,-0.0,-0.0,-1.0,0.1139747279379682,1.0,0.0
10.77838897705078,26.197790145874023,-1.186894416809082,-0.0,-0.0,-1.0,0.0335059012660053,1.0,0.0
10.683361053466797,26.65128517150879,-1.298492431640625,-0.0,-0.0,-1.0,0.1006776668974982,1.0,0.0
10.486356735229492,26.97554397583008,-1.374013900756836,-0.2392349270050825,0.9457712033973596,0.2197350234377371,0.1305322132528588,3.0,0.0
12.445877075195312,27.36736297607422,-0.99908447265625,-0.0,-0.0,-1.0,0.1493026280408935,1.0,0.0
12.31427001953125,27.516815185546875,-1.040867805480957,-0.0,-0.0,-1.0,0.1168999677229633,1.0,0.0
10.728708267211914,27.21647834777832,-0.9933571815490724,-0.0,-0.0,-1.0,0.1767073515363497,1.0,0.0
12.170306205749512,27.97743034362793,-1.165360450744629,-0.0,-0.0,-1.0,0.0429964653215815,1.0,0.0
10.738967895507812,27.618932723999023,-1.100245475769043,-0.0,-0.0,-1.0,0.1194647582774943,1.0,0.0
11.39697551727295,27.92431640625,-1.1668052673339844,-0.0,-0.0,-1.0,0.1457655056589801,1.0,0.0
10.209818840026855,27.857166290283203,-1.1765966415405271,-0.0,-0.0,-1.0,0.0835280854463411,1.0,0.0
10.58828353881836,27.892744064331055,-1.1767616271972656,-0.0,-0.0,-1.0,0.1532761679135125,1.0,0.0
11.971433639526367,27.42211151123047,-0.8654413223266602,-0.0,-0.0,-1.0,0.1010463321405879,1.0,0.0
11.465986251831056,27.51192855834961,-0.9125165939331056,-0.0,-0.0,-1.0,0.2085722767935424,1.0,0.0
11.627246856689451,27.64297103881836,-0.940683364868164,-0.0,-0.0,-1.0,0.1217634071408407,1.0,0.0
11.334465026855469,27.489112854003903,-0.9124312400817872,-0.0,-0.0,-1.0,0.2057356067758427,1.0,0.0
12.498948097229004,26.655384063720703,-1.2957119941711426,-0.0,-0.0,-1.0,0.0685704941252768,1.0,0.0
11.769484519958496,26.314393997192383,-1.227841854095459,-0.0,-0.0,-1.0,0.1252367909977922,1.0,0.0
12.273919105529783,26.662094116210938,-1.308460712432861,-0.0,-0.0,-1.0,0.0819308483364763,1.0,0.0
10.838735580444336,25.76087951660156,-1.1088643074035645,-0.0,-0.0,-1.0,0.0645183119030058,1.0,0.0
11.190048217773438,26.0295352935791,-1.17155122756958,-0.0,-0.0,-1.0,0.065822743075895,2.0,0.0
11.447919845581056,26.18416976928711,-1.2048592567443848,-0.0,-0.0,-1.0,0.0748341493377661,1.0,0.0
10.43129062652588,25.78624153137207,-1.140439510345459,-0.0,-0.0,-1.0,0.0658854061029713,1.0,0.0
10.592192649841309,25.792409896850582,-1.1327757835388184,-0.0,-0.0,-1.0,0.0798592545509917,1.0,0.0
10.299221992492676,25.88325309753418,-1.178269863128662,-0.0,-0.0,-1.0,0.065511232844113,1.0,0.0
10.648751258850098,25.639368057250977,-1.0824856758117676,-0.0,-0.0,-1.0,0.0798747933047159,1.0,0.0
12.052753448486328,27.316274642944336,-1.2084603309631348,-0.0,-0.0,-1.0,0.1180304604731999,1.0,0.0
10.971181869506836,27.52876853942871,-1.1923470497131348,-0.0,-0.0,-1.0,0.1729691025367896,2.0,0.0
11.900039672851562,27.517616271972656,-1.2519965171813965,-0.0,-0.0,-1.0,0.110572613592177,1.0,0.0
11.995223999023438,27.451993942260746,-1.2409672737121582,0.4149029156281332,-0.2642352558028902,-0.8706522268931812,0.1334269221305308,3.0,0.0
10.607677459716797,28.110715866088867,-1.328244686126709,-0.0,-0.0,-1.0,0.1665126868269973,1.0,0.0
