x,y,z,nx,ny,nz,curvature,density,label
12.242209434509276,-15.3590726852417,1.327966809272766,0.5922192282872757,0.6288826526643579,-0.5037687910387699,0.1528841317034183,3.0,2.0
12.532779693603516,-16.122241973876953,1.2883905172348022,-0.9217881547499858,-0.3357403622667391,0.1938685299568111,0.2399228173529552,5.0,2.0
12.63115119934082,-14.661538124084473,1.3095396757125854,0.6811710177660653,0.6577237717475384,-0.3215672319029635,0.2281567116609089,4.0,2.0
10.42470932006836,-14.696123123168944,0.951725959777832,-0.0,-0.0,-1.0,0.1226406986131668,1.0,1.0
10.506630897521973,-15.041114807128906,0.9375475645065308,-0.0,-0.0,-1.0,0.0884029534715138,2.0,1.0
10.58937931060791,-15.24648094177246,0.9274659156799316,-0.0,-0.0,-1.0,0.1390125116937788,2.0,1.0
11.972980499267578,-14.51203155517578,0.8830232620239258,-0.0,-0.0,-1.0,0.2242018886853631,1.0,1.0
10.987401008605955,-16.41122055053711,1.7458956241607666,-0.0,-0.0,-1.0,0.1689260936769126,2.0,2.0
11.086837768554688,-15.297334671020508,1.7419742345809937,-0.0,-0.0,-1.0,0.1432745421803925,2.0,2.0
11.106346130371094,-16.36898422241211,1.739443302154541,-0.2574295724219906,0.9337387094154423,-0.2487208028730511,0.1602412881592693,3.0,2.0
10.625097274780272,-15.787349700927734,1.2883563041687012,-0.0,-0.0,-1.0,0.1286621865791869,1.0,2.0
10.855278968811035,-16.696975708007812,1.274889349937439,-0.0,-0.0,-1.0,0.1640693711785194,1.0,2.0
10.908092498779297,-15.408742904663086,1.2846684455871582,-0.0,-0.0,-1.0,0.2140178785955114,1.0,2.0
11.815637588500977,-14.764650344848633,1.2675161361694336,-0.4288230200856385,-0.8834201210884061,0.1888907279375518,0.2626123561747858,4.0,2.0
12.15790843963623,-15.47812271118164,1.252107858657837,-0.0,-0.0,-1.0,0.2079195845779065,2.0,2.0
12.381574630737305,-16.131057739257812,1.2399990558624268,-0.0,-0.0,-1.0,0.237099766828972,1.0,2.0
12.50903034210205,-14.58815574645996,1.2509105205535889,-0.0,-0.0,-1.0,0.1457272017479633,2.0,2.0
10.91090202331543,-16.396631240844727,1.6939492225646973,-0.0,-0.0,-1.0,0.141223630839481,2.0,2.0
10.981831550598145,-16.504043579101562,1.6886862516403198,0.3867375458563736,0.0661410197327863,-0.9198148923200234,0.2415856945571563,5.0,2.0
11.007213592529297,-15.325986862182615,1.694008708000183,-0.0,-0.0,-1.0,0.2560055281369558,2.0,2.0
12.365827560424805,-16.417165756225586,1.5974087715148926,-0.0,-0.0,-1.0,0.1903160813895746,1.0,2.0
10.98322582244873,-16.539474487304688,1.36251962184906,-0.0,-0.0,-1.0,0.1308932883049236,2.0,2.0
10.664594650268556,-15.813992500305176,1.3864408731460571,-0.0,-0.0,-1.0,0.1667234497486771,1.0,2.0
11.601239204406738,-15.637738227844238,1.344359040260315,-0.0,-0.0,-1.0,0.2113429656301189,2.0,2.0
11.837183952331545,-15.387965202331545,1.3361809253692627,-0.0,-0.0,-1.0,0.2039818163320194,2.0,2.0
11.955121040344238,-15.658442497253418,1.3270034790039062,-0.0,-0.0,-1.0,0.24793104699193,1.0,2.0
12.31118392944336,-16.123291015625,1.303492784500122,-0.0,-0.0,-1.0,0.1832698101985216,1.0,2.0
12.43801975250244,-16.057373046875,1.2980738878250122,-0.0,-0.0,-1.0,0.1716648384230674,2.0,2.0
11.74886989593506,-14.779376029968262,1.348129391670227,-0.8619246814794063,0.4992780784636383,-0.0883586092142743,0.1650926661831729,4.0,2.0
12.193196296691896,-15.380059242248535,1.318992257118225,-0.0,-0.0,-1.0,0.248056913668094,2.0,2.0
12.651752471923828,-14.696290016174316,1.3053901195526123,0.6627538524792675,0.7486490742722404,0.0167897175439735,0.1845203925796548,4.0,2.0
10.953845024108888,-16.356523513793945,1.6952608823776243,-0.7729749281515481,-0.5593076845619991,-0.2994739962651255,0.1587773141218875,3.0,2.0
10.969976425170898,-15.292009353637695,1.6843599081039429,-0.4005109879359685,-0.3070657164431666,-0.8633085163067715,0.1917632146511105,3.0,2.0
10.890305519104004,-16.39938735961914,1.6818969249725342,-0.0,-0.0,-1.0,0.1050730006525689,2.0,2.0
11.028047561645508,-16.332469940185547,1.6818056106567385,-0.9064284107998962,-0.3909365791236104,-0.1598628387021325,0.165363848634701,3.0,2.0
11.00638484954834,-15.276997566223145,1.6621296405792236,-0.4255589740071321,-0.2540571810045148,-0.8685358417601637,0.1881653122266962,3.0,2.0
12.342741012573242,-16.176509857177734,1.3331341743469238,-0.0,-0.0,-1.0,0.2187103139190212,1.0,2.0
10.729036331176758,-15.579696655273438,1.279862403869629,-0.0,-0.0,-1.0,0.195509417191878,2.0,2.0
11.91150951385498,-15.46360206604004,1.3110493421554563,-0.0,-0.0,-1.0,0.1934293283587306,1.0,2.0
12.276636123657228,-15.394655227661133,1.3198137283325195,0.0761741764983837,0.9495924543273956,0.304091541347776,0.2491835508802529,5.0,2.0
11.766091346740724,-14.682867050170898,1.2949997186660769,-0.6313111753524735,-0.7753804476479875,0.01521056475891,0.1785495284667376,3.0,2.0
11.055513381958008,-16.541128158569336,1.5765646696090698,-0.0,-0.0,-1.0,0.2770893726481878,1.0,2.0
10.971084594726562,-16.26325225830078,1.5685662031173706,-0.0,-0.0,-1.0,0.1577717020567369,1.0,2.0
10.956306457519531,-16.64519500732422,1.6114003658294678,-0.5916039545861197,-0.127851485181842,-0.7960268579984361,0.1673267425834068,3.0,2.0
11.623239517211914,-16.571178436279297,1.6915355920791626,-0.0,-0.0,-1.0,0.2362618326798808,1.0,2.0
11.011783599853516,-16.360637664794922,1.592238426208496,-0.0,-0.0,-1.0,0.1795161827142695,1.0,2.0
11.050161361694336,-15.421664237976074,1.510233759880066,-0.0,-0.0,-1.0,0.2208274968913266,2.0,2.0
11.977468490600586,-15.552355766296388,1.643144130706787,-0.0,-0.0,-1.0,0.1405174679547154,1.0,2.0
11.62452793121338,-14.795292854309082,1.5269392728805542,-0.0,-0.0,-1.0,0.0984124004407466,1.0,2.0
11.81875228881836,-16.527240753173828,1.372594118118286,-0.0,-0.0,-1.0,0.1803283896290288,2.0,2.0
11.019763946533203,-15.397017478942873,1.3615957498550415,-0.0,-0.0,-1.0,0.209873296197858,2.0,2.0
12.313966751098633,-15.525982856750488,1.3676543235778809,-0.0,-0.0,-1.0,0.1822398753759668,1.0,2.0
11.952154159545898,-15.42566967010498,1.365755319595337,-0.0,-0.0,-1.0,0.2061654286451431,2.0,2.0
12.266018867492676,-15.406489372253418,1.3667192459106443,-0.7450610960745462,0.6669961236972123,-0.0003661817700607,0.184298689433476,3.0,2.0
10.341270446777344,-15.942948341369627,1.11831533908844,-0.6271573903795239,-0.6379982778559843,-0.4468017515018758,0.2181317597121368,3.0,2.0
11.61507797241211,-14.72120189666748,1.1243408918380735,-0.9585635492188838,-0.0229855629393487,-0.2839499709548457,0.1692610004261078,3.0,2.0
11.60765266418457,-14.796187400817873,1.189577579498291,-0.0,-0.0,-1.0,0.2513695848877921,1.0,2.0
11.636219024658203,-15.569497108459473,1.2373565435409546,-0.0,-0.0,-1.0,0.1892348128849641,1.0,2.0
11.940237045288086,-14.652209281921388,1.2350000143051147,-0.0,-0.0,-1.0,0.2597293734579481,1.0,2.0
10.994033813476562,-15.222177505493164,1.772565841674805,-0.0,-0.0,-1.0,0.1897243371959615,2.0,2.0
11.212574005126951,-16.404449462890625,1.7067852020263672,-0.0,-0.0,-1.0,0.1769379484195229,1.0,2.0
10.95258903503418,-15.259368896484377,1.680816650390625,-0.0,-0.0,-1.0,0.2227032925232109,2.0,2.0
10.94887924194336,-16.51350212097168,1.6589925289154053,0.413096118381325,-0.902035472175104,-0.1252341962728999,0.1831025144235633,4.0,2.0
11.538393020629885,-16.58579444885254,1.6411256790161133,0.1144145969013496,0.0851932959723361,-0.9897734095929588,0.2196516211976991,3.0,2.0
12.188505172729492,-15.304651260375977,1.0652467012405396,-0.0,-0.0,-1.0,0.2568359726493774,1.0,2.0
11.19344711303711,-15.694365501403809,1.2915362119674685,-0.0,-0.0,-1.0,0.191879927826135,1.0,2.0
11.146509170532228,-16.76349639892578,1.29140043258667,-0.0,-0.0,-1.0,0.1983201808000133,2.0,2.0
11.858993530273438,-14.884492874145508,1.291184425354004,0.3458811275870255,-0.6643606005679579,-0.6625641387760962,0.1320285567072918,5.0,2.0
11.927938461303713,-15.59536838531494,1.291248798370361,-0.0,-0.0,-1.0,0.1885781647530741,2.0,2.0
11.979341506958008,-16.13711166381836,1.2911269664764404,-0.0,-0.0,-1.0,0.1545127479809298,1.0,2.0
12.343467712402344,-15.605509757995604,1.2910486459732056,-0.5546233797756243,0.6251890399426344,0.5491189041927721,0.1926399660710024,4.0,2.0
12.591354370117188,-14.911519050598145,1.2910051345825195,-0.0,-0.0,-1.0,0.2059831274773459,1.0,2.0
11.901958465576172,-14.778632164001465,1.2576828002929688,0.1936982305397204,-0.4448763314013724,-0.8743946736140596,0.2632148721179027,3.0,2.0
11.711925506591797,-15.487835884094238,1.2570247650146484,-0.0,-0.0,-1.0,0.2174373437552929,2.0,2.0
11.961875915527344,-14.867663383483888,1.2576712369918823,-0.0,-0.0,-1.0,0.17387253482522,2.0,2.0
12.619953155517578,-14.640975952148438,1.2583025693893433,0.4645333106054177,0.6472647619937972,0.6043650645256418,0.2225134087422794,3.0,2.0
12.666831970214844,-14.79311752319336,1.2582191228866575,0.1468618952333714,0.8375454426564184,0.5262596461956085,0.1338962322775768,4.0,2.0
12.12038230895996,-15.879769325256348,1.2568535804748535,-0.0,-0.0,-1.0,0.214422724625456,1.0,2.0
11.108678817749023,-15.38169288635254,1.427873134613037,-0.0,-0.0,-1.0,0.2572499248205029,1.0,2.0
10.992589950561523,-15.563138961791992,1.4268109798431396,-0.0,-0.0,-1.0,0.1912579255684788,1.0,2.0
11.663135528564451,-14.855816841125488,1.42834210395813,-0.0,-0.0,-1.0,0.1116383190928511,1.0,2.0
11.962953567504885,-15.528692245483398,1.4156882762908936,-0.0,-0.0,-1.0,0.2012482269667256,1.0,2.0
12.048892974853516,-15.722982406616213,1.4119843244552612,-0.0,-0.0,-1.0,0.201000767628411,2.0,2.0
12.330108642578123,-15.452093124389648,1.4123276472091677,-0.0,-0.0,-1.0,0.2065665171030456,1.0,2.0
12.008089065551758,-15.865867614746094,1.4105015993118286,-0.0,-0.0,-1.0,0.2485502891648366,1.0,2.0
12.008987426757812,-16.108436584472656,1.4071180820465088,-0.971255674199806,0.005053246767026,-0.2379850416135276,0.2064158890340308,3.0,2.0
12.579509735107422,-16.15268898010254,1.3995420932769775,-0.7697668568589912,0.5598437960511404,-0.3066494906313692,0.2156757234176005,4.0,2.0
10.979888916015623,-15.302652359008787,1.554659366607666,-0.0,-0.0,-1.0,0.1818957134673489,1.0,2.0
10.952545166015623,-15.438997268676758,1.5532429218292236,0.4586549243140482,-0.2703914942267261,-0.8464774658857215,0.2693162795738665,3.0,2.0
10.820684432983398,-15.841306686401367,1.5499045848846436,0.5663273977308348,-0.3250031140424858,-0.7573943850083044,0.2277431501913651,4.0,2.0
10.707658767700195,-16.017616271972656,1.5493788719177246,-0.0,-0.0,-1.0,0.1514805577408153,2.0,2.0
12.177913665771484,-15.512018203735352,1.531097650527954,-0.6334135129118819,-0.1967771722418468,-0.748375618352931,0.2565237884767104,4.0,2.0
11.90467643737793,-15.767889022827148,1.5321989059448242,-0.0,-0.0,-1.0,0.1949972442367006,1.0,2.0
11.932634353637695,-16.097646713256836,1.5269933938980105,-0.0,-0.0,-1.0,0.1922785743470345,2.0,2.0
11.936132431030272,-14.80059051513672,1.2764251232147217,-0.0,-0.0,-1.0,0.1702923612279659,2.0,2.0
12.648923873901367,-14.473730087280272,1.2769240140914917,-0.0,-0.0,-1.0,0.1811851941285328,1.0,2.0
12.654966354370115,-14.788393020629885,1.2748699188232422,0.1468618952333714,0.8375454426564184,0.5262596461956085,0.1386883981641481,4.0,2.0
11.833694458007812,-15.457164764404297,1.2723523378372192,-0.0,-0.0,-1.0,0.2233794811548475,2.0,2.0
12.363025665283203,-15.585205078125,1.2701973915100098,-0.4899535715285794,0.807993425724238,0.3272493265582071,0.1577784953477145,3.0,2.0
12.692764282226562,-16.630056381225586,1.2618110179901123,0.951920090235125,-0.2455241696541217,-0.1832103270080755,0.1616615999395908,3.0,2.0
12.60638427734375,-14.574590682983398,0.9891397356987,-0.0,-0.0,-1.0,0.1664412778885567,2.0,1.0
11.305694580078123,-15.84666347503662,1.742542743682861,-0.0,-0.0,-1.0,0.1655154955989105,1.0,2.0
11.207159042358398,-16.11402702331543,1.743658423423767,-0.0,-0.0,-1.0,0.0757883223940778,1.0,2.0
12.650157928466797,-14.367132186889648,1.1001176834106443,-0.0,-0.0,-1.0,0.1902246819951979,1.0,2.0
12.68783187866211,-14.592061042785645,1.0905377864837646,-0.0,-0.0,-1.0,0.1264088557675638,1.0,2.0
12.59421730041504,-14.63575553894043,1.0898152589797974,-0.0,-0.0,-1.0,0.1684508434894192,2.0,2.0
12.62673568725586,-14.78658676147461,1.266038179397583,-0.510159329639711,0.8079932437284452,-0.294761558671998,0.1386883981641482,5.0,2.0
11.87330436706543,-14.84756088256836,1.2685455083847046,-0.2462193536549262,-0.4353897820327882,-0.8659167209305936,0.2579203372436105,3.0,2.0
11.96540069580078,-15.395219802856444,1.2628910541534424,0.4385704183621347,0.8916661637813823,0.1121937632181715,0.2586646620333409,4.0,2.0
10.950408935546877,-15.480417251586914,1.2661850452423096,-0.0,-0.0,-1.0,0.2013623836300205,1.0,2.0
12.248998641967772,-15.555356979370115,1.2602674961090088,-0.0,-0.0,-1.0,0.268665813812438,1.0,2.0
12.675674438476562,-16.750972747802734,1.2479970455169678,-0.0,-0.0,-1.0,0.1872023407366036,1.0,2.0
12.316913604736328,-16.8432674407959,1.2484712600708008,-0.0,-0.0,-1.0,0.0707684814168498,1.0,2.0
10.923446655273438,-15.304866790771484,1.5981512069702148,-0.5035594136010887,-0.7673426929060503,-0.397005174547408,0.2253897344874595,3.0,2.0
12.16242218017578,-15.54203987121582,1.5630722045898438,-0.0,-0.0,-1.0,0.2505633856528586,2.0,2.0
10.960912704467772,-16.547653198242188,1.571891188621521,-0.0,-0.0,-1.0,0.1843339937766392,2.0,2.0
11.569181442260742,-14.810660362243652,1.3291313648223877,-0.7730845756216802,0.4928293286319853,0.3993237931503623,0.1433428596518527,4.0,2.0
11.883649826049805,-14.847042083740234,1.3198893070220947,-0.0,-0.0,-1.0,0.1109168290579373,2.0,2.0
10.92815399169922,-15.46520709991455,1.313888669013977,-0.0,-0.0,-1.0,0.2648875107515782,2.0,2.0
12.038528442382812,-15.36336898803711,1.291902780532837,-0.0,-0.0,-1.0,0.2713851611014933,1.0,2.0
12.515783309936523,-15.541977882385254,1.2718939781188965,-0.0,-0.0,-1.0,0.2214472599844216,2.0,2.0
12.310440063476562,-15.46091079711914,1.2807152271270752,-0.4033569080629708,0.9131839991835894,-0.0582939821331997,0.215583200896931,5.0,2.0
11.939899444580078,-15.923836708068848,1.2677814960479736,-0.0,-0.0,-1.0,0.2419701651448566,2.0,2.0
12.437173843383787,-16.80087661743164,1.2136971950531006,-0.0,-0.0,-1.0,0.1197604861744697,1.0,2.0
11.089040756225586,-15.228010177612305,1.678866982460022,0.0357016111016086,0.9515663291811356,-0.3053635802342648,0.1952393712468815,3.0,2.0
11.022693634033203,-15.391077041625977,1.6838396787643433,0.8343760002690584,-0.1693278621699387,-0.5245424341919025,0.2829768421919866,5.0,2.0
10.951271057128906,-16.29560089111328,1.7086845636367798,-0.0,-0.0,-1.0,0.1078350316034584,1.0,2.0
11.030797958374023,-16.35024070739746,1.7096682786941528,-0.1016047964243647,0.9781748352247778,0.1812469505303255,0.1599043699279098,5.0,2.0
10.964412689208984,-14.799541473388672,0.9569997787475586,-0.0,-0.0,-1.0,0.1134264852969904,1.0,1.0
11.406892776489258,-16.524011611938477,1.0033515691757202,-0.0,-0.0,-1.0,0.15546464165244,1.0,2.0
12.472589492797852,-16.41051483154297,0.9965838193893432,-0.0,-0.0,-1.0,0.1612120167232351,1.0,1.0
11.839651107788086,-15.028423309326172,1.580826997756958,-0.0,-0.0,-1.0,0.1291813934872494,1.0,2.0
12.021783828735352,-15.437419891357422,1.6002334356307983,-0.0,-0.0,-1.0,0.1963488105121547,1.0,2.0
12.176122665405272,-15.73265266418457,1.6138778924942017,-0.0,-0.0,-1.0,0.169649395105686,1.0,2.0
11.98029899597168,-16.003416061401367,1.6270686388015747,-0.0,-0.0,-1.0,0.1466598292136148,1.0,2.0
12.65036392211914,-16.70745086669922,1.6571252346038818,-0.0,-0.0,-1.0,0.1559292742635314,1.0,2.0
11.057584762573242,-15.125438690185549,1.808337926864624,-0.0,-0.0,-1.0,0.1467948093688619,1.0,2.0
10.95132064819336,-15.42451286315918,1.8178198337554932,-0.246766334581357,-0.8195318483795029,-0.5171788139598886,0.1861919389366614,4.0,2.0
11.116958618164062,-16.302764892578125,1.835989236831665,-0.0,-0.0,-1.0,0.1127627625113332,1.0,2.0
12.068641662597656,-15.152734756469728,1.3898117542266846,-0.9302194636252984,0.3616174053295072,-0.0626466412141705,0.2253262141593451,3.0,2.0
11.767377853393556,-14.751440048217772,1.3745243549346924,-0.0,-0.0,-1.0,0.1352258680936737,2.0,2.0
12.21174430847168,-15.52349090576172,1.4033011198043823,-0.0,-0.0,-1.0,0.2573077735601697,1.0,2.0
11.96869659423828,-15.36415672302246,1.396411418914795,0.419633460363747,0.7237221991208402,-0.5478448114592694,0.1683509466772086,3.0,2.0
12.442777633666992,-16.3735294342041,1.3818881511688232,-0.0,-0.0,-1.0,0.2705168984904774,1.0,2.0
12.372618675231934,-15.598966598510742,1.354126214981079,-0.0,-0.0,-1.0,0.1989095697912192,2.0,2.0
11.896601676940918,-14.86845588684082,1.2724272012710571,0.0645782278339556,-0.7353083333993453,-0.67464902528893,0.1939926685617236,4.0,2.0
12.4434232711792,-15.57765769958496,1.3177841901779177,-0.0,-0.0,-1.0,0.2028198967325895,2.0,2.0
11.958904266357422,-16.73158836364746,1.3385721445083618,-0.0,-0.0,-1.0,0.1903645295774315,1.0,2.0
11.089613914489746,-15.573701858520508,1.2653429508209229,-0.0,-0.0,-1.0,0.2178924944767265,2.0,2.0
11.12125301361084,-15.445344924926758,1.4827663898468018,-0.0,-0.0,-1.0,0.207819419912983,1.0,2.0
11.153210639953612,-16.817506790161133,1.524256467819214,-0.0,-0.0,-1.0,0.1643920530049582,1.0,2.0
10.923378944396973,-16.040498733520508,1.4962506294250488,-0.0,-0.0,-1.0,0.1013613467307932,1.0,2.0
11.28974151611328,-15.304052352905272,1.4889525175094604,-0.0,-0.0,-1.0,0.1902537289429341,1.0,2.0
11.113692283630373,-16.584247589111328,1.4952402114868164,-0.0,-0.0,-1.0,0.1657701371510519,1.0,2.0
11.137712478637695,-16.402692794799805,1.494282603263855,-0.0,-0.0,-1.0,0.169439183276834,1.0,2.0
12.330686569213867,-15.420696258544922,1.3431295156478882,0.8182964626420406,0.3266095332935336,-0.4729874332255602,0.231505001314125,4.0,2.0
12.40258502960205,-16.42110252380371,1.3582770824432373,-0.0,-0.0,-1.0,0.2142879632727386,2.0,2.0
12.010066032409668,-15.611848831176758,1.337185263633728,-0.0,-0.0,-1.0,0.1890372193251561,1.0,2.0
12.170014381408691,-15.51850128173828,1.3401737213134766,-0.0,-0.0,-1.0,0.2399148633503511,2.0,2.0
11.907340049743652,-15.568288803100586,1.3339111804962158,-0.0,-0.0,-1.0,0.152760608696096,2.0,2.0
11.039351463317873,-15.31961441040039,1.308061122894287,-0.0,-0.0,-1.0,0.2374137473652698,1.0,2.0
10.985394477844238,-15.708398818969728,1.311693549156189,-0.0,-0.0,-1.0,0.2406494098919526,1.0,2.0
10.915682792663574,-16.08214569091797,1.5863773822784424,-0.0,-0.0,-1.0,0.0804973998730594,1.0,2.0
11.829989433288574,-14.776861190795898,1.1719822883605957,-0.2362624351709162,-0.829385274286097,0.506260929288923,0.1725814986825473,3.0,2.0
11.20647144317627,-14.794862747192385,1.1604249477386477,-0.0,-0.0,-1.0,0.1018560237720267,1.0,2.0
11.498790740966797,-15.503995895385742,1.1671555042266846,-0.0,-0.0,-1.0,0.1684800494951619,2.0,2.0
11.362899780273438,-15.537694931030272,1.1646842956542969,-0.0,-0.0,-1.0,0.1907282650156039,1.0,2.0
11.249604225158691,-15.471277236938477,1.1624557971954346,-0.0,-0.0,-1.0,0.220827588106364,2.0,2.0
11.043907165527344,-15.758729934692385,1.159170627593994,-0.0,-0.0,-1.0,0.2086545082256222,1.0,2.0
11.851237297058104,-14.541629791259766,0.8260242938995361,-0.0,-0.0,-1.0,0.1720818801872052,1.0,1.0
12.07556438446045,-14.483837127685549,0.8050432205200195,-0.0,-0.0,-1.0,0.1987037341222003,1.0,1.0
11.435725212097168,-15.404533386230469,0.8490496873855591,-0.0,-0.0,-1.0,0.2612478687543269,1.0,1.0
10.233654022216797,-15.686351776123049,2.1496126651763916,-0.0,-0.0,-1.0,0.0954064294578919,1.0,3.0
11.544325828552246,-15.330713272094728,1.4513410329818726,-0.0,-0.0,-1.0,0.1491923266206984,1.0,2.0
11.269332885742188,-15.87803840637207,1.4812880754470823,-0.0,-0.0,-1.0,0.1583903398269916,1.0,2.0
12.616137504577637,-15.43907356262207,1.3263598680496216,-0.0,-0.0,-1.0,0.205446952257112,1.0,2.0
12.208274841308594,-15.650354385375977,1.3726657629013062,-0.0,-0.0,-1.0,0.1664540046070989,2.0,2.0
12.423008918762209,-15.874383926391602,1.3468798398971558,-0.0,-0.0,-1.0,0.115978962252311,1.0,2.0
11.95748519897461,-14.653905868530272,0.8515757918357849,-0.0,-0.0,-1.0,0.1782816819806786,1.0,1.0
11.564733505249023,-15.563621520996094,0.8737443685531616,-0.0,-0.0,-1.0,0.1722474283001187,1.0,1.0
11.74948787689209,-14.529232025146484,0.9498797655105592,-0.0,-0.0,-1.0,0.1169271782990561,1.0,1.0
11.547749519348145,-15.798015594482422,0.942832052707672,-0.0,-0.0,-1.0,0.1101224111730526,1.0,1.0
12.17618179321289,-14.632104873657228,0.9274568557739258,-0.0,-0.0,-1.0,0.2517364793516331,1.0,1.0
10.77168083190918,-15.922245979309082,1.4224915504455566,-0.8410443130922641,-0.2195613056462203,-0.494406003683297,0.1433523975748217,3.0,2.0
11.148831367492676,-15.27085781097412,1.4049925804138184,-0.0,-0.0,-1.0,0.1659208675482749,1.0,2.0
12.035269737243652,-14.712512016296388,1.3664259910583496,-0.0,-0.0,-1.0,0.240776769484986,1.0,2.0
11.768651008605955,-15.63453197479248,1.3797767162322998,-0.0,-0.0,-1.0,0.1854846749913594,1.0,2.0
12.176576614379885,-15.037272453308104,1.3613073825836182,-0.0,-0.0,-1.0,0.1543604844892864,1.0,2.0
11.867231369018556,-15.798739433288574,1.3760414123535156,-0.0,-0.0,-1.0,0.2171041460683981,1.0,2.0
11.596429824829102,-16.617565155029297,1.3893344402313232,-0.3059598884671273,0.0350019378954417,-0.9514007625563196,0.1459245549271827,3.0,2.0
12.500274658203123,-16.29352569580078,1.3508622646331787,-0.0,-0.0,-1.0,0.237378999023703,2.0,2.0
10.720802307128906,-15.3937406539917,1.5616843700408936,-0.0,-0.0,-1.0,0.1918346711677211,1.0,2.0
10.838332176208496,-16.38674545288086,1.5400547981262207,-0.0,-0.0,-1.0,0.1641617159005821,1.0,2.0
11.363346099853516,-16.57467269897461,1.462998867034912,0.1571212325049144,0.6262060088881368,-0.763661543308636,0.1483083362905126,3.0,2.0
11.713485717773438,-14.550293922424316,1.4215723276138306,-0.0,-0.0,-1.0,0.1818728277883365,1.0,2.0
11.872896194458008,-15.21222972869873,1.3952877521514893,-0.0,-0.0,-1.0,0.1652831207941687,1.0,2.0
12.243695259094238,-16.222564697265625,1.3365521430969238,-0.0,-0.0,-1.0,0.246446317960723,1.0,2.0
12.617819786071776,-14.668379783630373,1.2892913818359375,0.8236261807826029,0.5638813802929546,0.0606440705129172,0.196252135695081,5.0,2.0
12.461543083190918,-16.103607177734375,1.305345058441162,0.3356566755698866,-0.2730876054834716,-0.9015307847637126,0.1829626978707769,4.0,2.0
10.788795471191406,-15.33488655090332,1.6724543571472168,-0.0,-0.0,-1.0,0.1437455298442085,1.0,2.0
12.131410598754885,-16.159982681274414,1.515167236328125,-0.0,-0.0,-1.0,0.1480028916136464,1.0,2.0
11.184359550476074,-15.81703758239746,1.0838360786437988,-0.0,-0.0,-1.0,0.1854648279483459,1.0,2.0
11.01152515411377,-15.549766540527344,1.093392252922058,-0.0,-0.0,-1.0,0.2228762454934005,2.0,2.0
10.902183532714844,-14.758943557739258,1.106353759765625,-0.0,-0.0,-1.0,0.0858551461144704,1.0,2.0
11.440028190612791,-14.4547119140625,1.0893104076385498,-0.0,-0.0,-1.0,0.1187474882763168,1.0,2.0
11.936864852905272,-14.46501922607422,1.0701613426208496,-0.0,-0.0,-1.0,0.2473170633995785,1.0,2.0
10.900474548339844,-16.501728057861328,1.6257505416870115,-0.0,-0.0,-1.0,0.1651157714816057,1.0,2.0
10.705507278442385,-15.774847030639648,1.6282328367233276,-0.0,-0.0,-1.0,0.1485173044009649,1.0,2.0
12.232025146484377,-16.282819747924805,1.5648727416992188,-0.0,-0.0,-1.0,0.181275698704026,1.0,2.0
11.10848617553711,-16.44778060913086,1.2093561887741089,0.5603911532552803,-0.660569337888039,-0.4996097529025778,0.2220238198471696,3.0,2.0
11.044124603271484,-15.607028007507324,1.220958232879639,-0.0,-0.0,-1.0,0.2356494499924795,2.0,2.0
10.902803421020508,-15.336358070373535,1.230910301208496,-0.0,-0.0,-1.0,0.2068089676439032,1.0,2.0
10.996339797973633,-15.37440013885498,1.2257064580917358,-0.3941967948897165,-0.8577867017507739,0.3298649135603902,0.2577960361625139,3.0,2.0
11.946073532104492,-15.713648796081545,1.1723215579986572,-0.0,-0.0,-1.0,0.2478671017747073,1.0,2.0
11.74781608581543,-14.823613166809082,1.1917657852172852,-0.2547800869900853,-0.5330859306723145,-0.8067877650240837,0.1952860844723824,3.0,2.0
12.01475429534912,-14.651820182800291,1.179306149482727,-0.7827133629646051,0.4898758561935751,-0.3839029004256805,0.214159695580603,3.0,2.0
12.50307273864746,-14.58564281463623,1.1536773443222046,-0.0,-0.0,-1.0,0.2544770362250722,2.0,2.0
12.63983917236328,-14.6443510055542,1.1456329822540283,-0.2823141511464965,0.2316288167871309,-0.9309386721456075,0.1944144728143274,3.0,2.0
10.299474716186523,-15.948148727416992,1.086228609085083,-0.0,-0.0,-1.0,0.2378478819925113,1.0,2.0
10.508362770080566,-15.91278076171875,1.07502281665802,-0.0,-0.0,-1.0,0.1503217472582466,2.0,2.0
11.058176040649414,-15.52118682861328,1.0512267351150513,-0.0,-0.0,-1.0,0.2167365193381484,1.0,2.0
11.2085542678833,-15.53203010559082,1.042265772819519,0.1263376854982675,0.4337566215452705,-0.8921289046368658,0.2025774845920943,4.0,2.0
11.884479522705078,-14.625560760498049,1.0210343599319458,-0.0,-0.0,-1.0,0.1626818262527604,1.0,2.0
12.15931797027588,-14.4420166015625,1.0084712505340576,-0.0,-0.0,-1.0,0.2034986192460702,1.0,2.0
10.935874938964844,-16.40911102294922,1.649061679840088,-0.0,-0.0,-1.0,0.1874016233307793,1.0,2.0
10.94356918334961,-15.425021171569824,1.6503077745437622,-0.0,-0.0,-1.0,0.2559768732879426,2.0,2.0
12.322921752929688,-16.358638763427734,1.5635461807250977,-0.0,-0.0,-1.0,0.2384001315402439,1.0,2.0
12.430702209472656,-16.324077606201172,1.5569148063659668,-0.0,-0.0,-1.0,0.1918734843388786,1.0,2.0
10.71939754486084,-15.833704948425291,1.146935224533081,-0.0,-0.0,-1.0,0.1928631505749586,1.0,2.0
10.84705924987793,-15.422919273376465,1.1484863758087158,-0.0,-0.0,-1.0,0.168794364533047,2.0,2.0
11.067333221435549,-15.517687797546388,1.1345828771591189,-0.0,-0.0,-1.0,0.2460193328430346,2.0,2.0
11.419004440307615,-14.8170747756958,1.1299289464950562,-0.7817825423603711,0.0862380689387229,-0.6175589461146803,0.190520184336654,3.0,2.0
11.064193725585938,-16.667949676513672,1.3129109144210815,0.503531018629961,-0.634862018029851,0.5860091563623716,0.2007056260224544,4.0,2.0
10.86116886138916,-15.47473430633545,1.3382725715637207,-0.0,-0.0,-1.0,0.2288526812859449,1.0,2.0
11.022268295288086,-15.442023277282717,1.3314919471740725,-0.0,-0.0,-1.0,0.2548071137279371,2.0,2.0
12.217924118041992,-16.159046173095703,1.266316533088684,-0.0,-0.0,-1.0,0.2270290442645741,1.0,2.0
11.789579391479492,-15.485520362854004,1.2958928346633911,-0.0,-0.0,-1.0,0.191671670635828,2.0,2.0
12.339154243469238,-16.081710815429688,1.2616606950759888,-0.0,-0.0,-1.0,0.1572664161667706,1.0,2.0
12.5814208984375,-16.059280395507812,1.2503842115402222,-0.3393087187453078,-0.6170480991962747,-0.7100149552380443,0.2268654835831274,3.0,2.0
11.803129196166992,-14.712807655334473,1.3059821128845217,-0.6313111753524735,-0.7753804476479875,0.01521056475891,0.2070296852674038,3.0,2.0
12.33279800415039,-15.434067726135254,1.2712055444717407,0.9129315986915132,-0.2085903066256434,-0.3507791044124181,0.1850878703243267,4.0,2.0
12.393872261047363,-14.60899829864502,1.2800205945968628,-0.0,-0.0,-1.0,0.1506937391872591,2.0,2.0
10.647024154663086,-15.926012992858888,1.1663943529129028,0.2538362472213496,-0.962286634046631,-0.0978345211660355,0.1458035890108281,3.0,2.0
10.999151229858398,-15.5620756149292,1.1600055694580078,-0.0,-0.0,-1.0,0.2411118479563934,1.0,2.0
10.937374114990234,-14.723233222961426,1.1779426336288452,-0.0,-0.0,-1.0,0.0840918259477467,1.0,2.0
12.38987636566162,-16.075641632080078,1.0958598852157593,-0.0,-0.0,-1.0,0.2524765221155937,1.0,2.0
11.668951988220217,-14.701895713806152,1.150818943977356,-0.0,-0.0,-1.0,0.1526499082031882,1.0,2.0
11.615800857543944,-14.971846580505373,1.1477395296096802,-0.0,-0.0,-1.0,0.1575840771517691,1.0,2.0
11.929798126220703,-14.644789695739746,1.1418975591659546,-0.0,-0.0,-1.0,0.1666773114821664,1.0,2.0
11.920377731323242,-16.79511260986328,1.218849778175354,-0.0,-0.0,-1.0,0.224680399546175,1.0,2.0
12.30881404876709,-16.044443130493164,1.2161400318145752,-0.0,-0.0,-1.0,0.1990871778141725,1.0,2.0
11.967144012451172,-15.41474151611328,1.240470290184021,0.7151133420203042,0.5537676400295426,-0.4265610260216727,0.2824974423356384,3.0,2.0
11.80406093597412,-14.766490936279297,1.2576388120651243,-0.0,-0.0,-1.0,0.2355324133544074,2.0,2.0
12.707301139831545,-15.377294540405272,1.2115558385849,-0.0,-0.0,-1.0,0.1906676385062429,1.0,2.0
12.504772186279297,-14.55390167236328,1.2338125705718994,-0.0,-0.0,-1.0,0.2235678392297764,2.0,2.0
12.646124839782717,-14.55160140991211,1.2282284498214722,-0.0,-0.0,-1.0,0.1932835790881205,2.0,2.0
10.344558715820312,-15.591387748718262,0.9758883118629456,-0.0,-0.0,-1.0,0.1369150421301332,1.0,1.0
10.853365898132324,-14.81956958770752,0.9839571118354796,-0.0,-0.0,-1.0,0.1482914269924141,1.0,1.0
11.79532241821289,-14.39048671722412,0.9818748235702516,-0.0,-0.0,-1.0,0.1507135746123233,1.0,1.0
12.357938766479492,-14.421351432800291,0.9755440950393676,-0.0,-0.0,-1.0,0.1348490525631244,1.0,1.0
11.324579238891602,-15.576354026794434,1.2809176445007324,-0.0,-0.0,-1.0,0.1665283864361562,1.0,2.0
11.27874755859375,-14.75601291656494,1.2833518981933594,-0.0,-0.0,-1.0,0.0448398851047452,1.0,2.0
11.611143112182615,-15.602442741394045,1.2786718606948853,-0.0,-0.0,-1.0,0.2133943757682653,1.0,2.0
12.08455753326416,-16.11590576171875,1.2740380764007568,-0.0,-0.0,-1.0,0.2180736493757928,1.0,2.0
11.59710693359375,-14.70438289642334,1.2809735536575315,-0.0,-0.0,-1.0,0.0822289456520643,1.0,2.0
11.99547004699707,-15.423781394958496,1.2762221097946167,0.4385704183621347,0.8916661637813823,0.1121937632181715,0.1870734546055146,4.0,2.0
12.628829956054688,-15.904459953308104,1.270663499832153,-0.0,-0.0,-1.0,0.1495850979359534,2.0,2.0
12.22797679901123,-14.695067405700684,1.276180863380432,-0.0,-0.0,-1.0,0.1894372817977377,1.0,2.0
12.424489974975586,-14.773900032043455,1.2745469808578491,-0.0,-0.0,-1.0,0.1447251399660318,1.0,2.0
10.427289009094238,-16.18819808959961,1.746586799621582,-0.0,-0.0,-1.0,0.1334619976466898,1.0,2.0
10.52291774749756,-15.118541717529297,1.725578784942627,-0.0,-0.0,-1.0,0.211483270734639,1.0,2.0
11.041020393371582,-15.395869255065918,1.2232722043991089,-0.0,-0.0,-1.0,0.1965553549294446,2.0,2.0
11.654914855957031,-14.795536994934082,1.2150230407714844,-0.0,-0.0,-1.0,0.2306398412717135,2.0,2.0
11.755819320678713,-15.574917793273926,1.193324327468872,-0.0,-0.0,-1.0,0.1846049452989257,1.0,2.0
11.861198425292969,-15.557761192321776,1.1898986101150513,-0.0,-0.0,-1.0,0.1953448671918037,1.0,2.0
11.86765956878662,-16.737991333007812,1.1625277996063232,-0.0,-0.0,-1.0,0.2074305364294968,2.0,2.0
12.394219398498535,-15.61226749420166,1.1695047616958618,-0.0,-0.0,-1.0,0.2191185773149598,1.0,2.0
12.42720890045166,-16.063594818115234,1.1579941511154177,-0.0,-0.0,-1.0,0.2326974918026461,1.0,2.0
11.82256317138672,-14.751543998718262,1.2099926471710205,-0.0,-0.0,-1.0,0.2997244832668759,2.0,2.0
12.694665908813477,-14.512272834777832,1.1839449405670166,-0.0,-0.0,-1.0,0.1148654001215301,1.0,2.0
11.815631866455078,-16.51544761657715,1.207377314567566,-0.0,-0.0,-1.0,0.2411816780893285,1.0,2.0
10.849745750427246,-15.325881958007812,1.2853162288665771,-0.0,-0.0,-1.0,0.1383259099706665,1.0,2.0
10.951661109924316,-15.318071365356444,1.281166434288025,-0.2295601264057025,-0.1427210263035773,-0.9627735232210386,0.2136695713541263,3.0,2.0
11.537144660949709,-14.73863410949707,1.27264404296875,-0.0,-0.0,-1.0,0.1306103458008777,1.0,2.0
11.589872360229492,-14.797956466674805,1.2686330080032349,-0.6993778353868301,0.6305538907436261,-0.3365597038234184,0.1865006915692908,3.0,2.0
11.658716201782228,-15.394943237304688,1.2480918169021606,-0.0,-0.0,-1.0,0.2307072097562969,1.0,2.0
11.706551551818848,-15.465869903564451,1.2438700199127195,-0.0,-0.0,-1.0,0.2040674777100851,2.0,2.0
12.26508331298828,-15.469341278076172,1.2187182903289795,-0.0,-0.0,-1.0,0.2963802629127381,2.0,2.0
12.1271333694458,-16.14229393005371,1.204527497291565,-0.0,-0.0,-1.0,0.1868225175186926,1.0,2.0
12.587987899780272,-14.572868347167969,1.231188178062439,-0.0,-0.0,-1.0,0.2500690479685611,1.0,2.0
10.362043380737305,-15.865854263305664,1.0862703323364258,-0.0,-0.0,-1.0,0.110692857756949,1.0,2.0
10.97636604309082,-14.72892951965332,1.1054730415344238,-0.0,-0.0,-1.0,0.0950011024557516,1.0,2.0
11.575900077819824,-14.668363571166992,1.087122917175293,-0.0,-0.0,-1.0,0.145482507570713,2.0,2.0
11.627245903015137,-14.72279167175293,1.083392858505249,-0.812231415471396,0.5213873972590621,-0.261601432910359,0.1465248126745039,3.0,2.0
12.428540229797363,-14.590370178222656,1.059852957725525,-0.0,-0.0,-1.0,0.1346720589765476,2.0,2.0
12.698531150817873,-14.508054733276367,1.053117036819458,-0.0,-0.0,-1.0,0.1424549483954412,1.0,2.0
10.863722801208496,-15.360832214355469,1.4624383449554443,-0.0,-0.0,-1.0,0.2086654353466407,2.0,2.0
11.02992343902588,-15.327032089233398,1.4550228118896484,-0.0,-0.0,-1.0,0.236405517705842,2.0,2.0
11.561820030212402,-14.82452392578125,1.442613124847412,-0.0,-0.0,-1.0,0.1609768123343995,1.0,2.0
10.857346534729004,-15.36451530456543,1.446560978889465,-0.0,-0.0,-1.0,0.1573309621921199,2.0,2.0
12.176456451416016,-15.459403038024902,1.3894776105880735,0.4046692498880995,0.5757023538082113,-0.7104995411783795,0.2104546621519752,5.0,2.0
10.966679573059082,-15.310138702392578,1.3860026597976685,-0.0,-0.0,-1.0,0.1544041699098741,2.0,2.0
11.780049324035645,-16.604204177856445,1.3270509243011477,-0.0,-0.0,-1.0,0.1569680347774763,2.0,2.0
11.78817367553711,-15.527701377868652,1.3700392246246338,-0.0,-0.0,-1.0,0.1175011051708188,1.0,2.0
12.30018711090088,-16.084197998046875,1.3422701358795166,-0.0,-0.0,-1.0,0.2203656456126294,1.0,2.0
12.682133674621582,-16.417572021484375,1.3239774703979492,-0.0,-0.0,-1.0,0.1477155975614279,2.0,2.0
12.564858436584473,-15.242664337158203,0.9144667983055116,-0.0,-0.0,-1.0,0.18299887435667,1.0,1.0
10.901272773742676,-15.286460876464844,1.5907009840011597,-0.0,-0.0,-1.0,0.2150815222423822,2.0,2.0
10.858250617980955,-15.51634407043457,1.5816786289215088,-0.0,-0.0,-1.0,0.2162359069033444,1.0,2.0
11.545394897460938,-16.581384658813477,1.5171006917953491,-0.0,-0.0,-1.0,0.1124206910338679,2.0,2.0
11.903716087341309,-16.090557098388672,1.5305182933807373,-0.0,-0.0,-1.0,0.1927009973015243,2.0,2.0
12.157328605651855,-15.479479789733888,1.5520384311676023,-0.5059231120321401,0.2171802028638977,-0.8347901318269826,0.2055858751772095,3.0,2.0
12.32338809967041,-16.119712829589844,1.518352508544922,-0.0,-0.0,-1.0,0.1535183686448408,1.0,2.0
12.326760292053224,-16.423635482788086,1.5040724277496338,-0.0,-0.0,-1.0,0.1803506297853449,2.0,2.0
11.674612998962402,-16.63984489440918,1.231175184249878,-0.0,-0.0,-1.0,0.1540370734311876,1.0,2.0
11.887731552124023,-14.740445137023926,1.3185194730758667,0.2550093243193417,-0.7695798766146006,-0.5854204113455979,0.2246233500093162,3.0,2.0
11.804506301879885,-15.521245002746582,1.283841252326965,-0.0,-0.0,-1.0,0.2333157576292424,2.0,2.0
12.049481391906738,-15.990674018859863,1.2605427503585815,-0.0,-0.0,-1.0,0.1932456690360632,1.0,2.0
12.275590896606444,-15.466358184814451,1.2844089269638062,-0.17233940493685,0.963446116228244,-0.2051114590429442,0.2355533041173243,3.0,2.0
12.501021385192873,-15.989339828491213,1.2576349973678589,-0.0,-0.0,-1.0,0.1752177925128128,2.0,2.0
12.647077560424805,-16.38178062438965,1.2364907264709473,-0.0,-0.0,-1.0,0.2090785260977361,1.0,2.0
12.633728981018066,-16.029273986816406,1.2546155452728271,-0.0,-0.0,-1.0,0.285714346013777,2.0,2.0
12.703964233398438,-16.22930908203125,1.2438347339630127,-0.0,-0.0,-1.0,0.1284370801960589,2.0,2.0
11.87771987915039,-14.69693660736084,1.21477472782135,-0.2461789726655867,-0.1781416958957512,-0.9527126794583464,0.1805490730412226,4.0,2.0
11.926007270812988,-14.813580513000488,1.2112549543380735,-0.0,-0.0,-1.0,0.2436292379955563,2.0,2.0
12.131773948669434,-15.714200019836426,1.179304122924805,-0.0,-0.0,-1.0,0.2394954476040022,1.0,2.0
12.262259483337402,-15.399724960327148,1.1937658786773682,-0.0,-0.0,-1.0,0.2399062810812557,1.0,2.0
12.618497848510742,-14.461295127868652,1.2356672286987305,-0.0,-0.0,-1.0,0.2344336250839586,1.0,2.0
12.536745071411133,-15.062786102294922,0.8713813424110413,-0.0,-0.0,-1.0,0.1033518084242129,1.0,1.0
10.766037940979004,-15.894216537475586,1.4196431636810305,-0.8410443130922641,-0.2195613056462203,-0.494406003683297,0.1433523975748216,3.0,2.0
10.96204662322998,-16.39935874938965,1.4072288274765017,-0.0,-0.0,-1.0,0.1529923268692718,1.0,2.0
11.022741317749023,-16.60124397277832,1.4019159078598022,-0.3017255802079899,-0.7899955958913467,0.5337308616900737,0.1510599956349787,3.0,2.0
11.027045249938965,-15.32097625732422,1.4375275373458862,-0.9365495454513152,0.1684611211206316,-0.3074016909285214,0.221669977501694,5.0,2.0
11.124855041503906,-16.768388748168945,1.3978283405303955,-0.0,-0.0,-1.0,0.2537414176459086,1.0,2.0
11.649930000305176,-16.560041427612305,1.407867431640625,-0.0,-0.0,-1.0,0.1127413453463244,1.0,2.0
11.860797882080078,-14.503183364868164,1.4671947956085205,-0.0,-0.0,-1.0,0.2492295616163863,1.0,2.0
11.981246948242188,-15.404586791992188,1.4438989162445068,-0.0,-0.0,-1.0,0.1927630872968664,1.0,2.0
11.81187915802002,-15.799076080322266,1.4312982559204102,-0.0,-0.0,-1.0,0.2163535182728257,2.0,2.0
11.982160568237305,-15.977210998535156,1.427515983581543,-0.0,-0.0,-1.0,0.2265345406355391,2.0,2.0
12.018338203430176,-14.859752655029297,1.4592434167861938,-0.0,-0.0,-1.0,0.2613891613424184,1.0,2.0
12.113801956176758,-15.231334686279297,1.449864625930786,-0.0,-0.0,-1.0,0.1957567336282334,2.0,2.0
12.44620418548584,-16.432674407958984,1.4171931743621826,0.5264055783491721,-0.7947667105107877,0.3020646337238695,0.2334559622872584,4.0,2.0
12.007035255432127,-14.445182800292969,0.9788267016410828,-0.583890026589206,0.729521679155286,-0.3561889337024776,0.215419357396166,3.0,1.0
12.61523151397705,-16.364683151245117,0.9090598225593568,-0.0,-0.0,-1.0,0.1880110132674584,1.0,1.0
10.658743858337402,-15.89576530456543,1.505300998687744,-0.0,-0.0,-1.0,0.1672092379369797,2.0,2.0
10.908231735229492,-16.303936004638672,1.495595097541809,-0.0,-0.0,-1.0,0.1952210447869425,2.0,2.0
11.016190528869627,-15.347026824951172,1.5219130516052246,-0.0,-0.0,-1.0,0.2352081114056175,1.0,2.0
11.608027458190918,-16.584171295166016,1.490877389907837,-0.0,-0.0,-1.0,0.1554191823207472,1.0,2.0
11.931626319885254,-15.87464714050293,1.5127437114715576,-0.0,-0.0,-1.0,0.1935701168459438,1.0,2.0
12.204604148864746,-15.516164779663086,1.5241854190826416,-0.0,-0.0,-1.0,0.2711179533132489,2.0,2.0
12.369813919067385,-16.404617309570312,1.4991629123687744,0.4147336443572387,-0.8901358954038928,0.1888229116174012,0.1967788548694486,3.0,2.0
12.505860328674316,-14.569912910461426,0.899162769317627,-0.0,-0.0,-1.0,0.2371426688290574,1.0,1.0
10.959592819213867,-15.268874168395996,1.3926111459732056,-0.3818379183921993,-0.1888631935688272,-0.904726753331024,0.1888103241880239,4.0,2.0
10.84122085571289,-15.46751594543457,1.3854701519012451,-0.0,-0.0,-1.0,0.2384369485450637,1.0,2.0
11.058762550354004,-15.58602523803711,1.3859204053878784,-0.0,-0.0,-1.0,0.190305267315861,1.0,2.0
11.000773429870604,-16.70816421508789,1.3536880016326904,-0.0,-0.0,-1.0,0.1968419661952316,1.0,2.0
11.508878707885742,-14.815740585327148,1.413517951965332,-0.4253715617914381,0.7427691608536127,-0.517061899683135,0.1625096541853792,4.0,2.0
11.713231086730955,-15.522005081176758,1.3982412815093994,-0.0,-0.0,-1.0,0.1799401640919738,1.0,2.0
12.128037452697754,-15.446111679077148,1.4069057703018188,-0.0,-0.0,-1.0,0.1988836949973189,1.0,2.0
11.96814250946045,-15.63779640197754,1.399033784866333,-0.0,-0.0,-1.0,0.1923348507087666,1.0,2.0
11.903753280639648,-16.010034561157227,1.3874818086624146,-0.4213409921668236,0.9014436578936744,-0.0993534094188448,0.20921580557722,4.0,2.0
12.430757522583008,-14.674688339233398,1.4326694011688232,-0.0,-0.0,-1.0,0.1384398260081479,1.0,2.0
12.363003730773926,-15.661441802978516,1.404463529586792,-0.0,-0.0,-1.0,0.181029004295913,2.0,2.0
12.539887428283691,-16.235319137573242,1.390153169631958,-0.0,-0.0,-1.0,0.1610586001159927,1.0,2.0
12.666707038879396,-16.531208038330078,1.382850170135498,-0.5330189576393418,-0.8440140177240869,-0.0594233008365778,0.1551832207939723,3.0,2.0
10.914106369018556,-14.822887420654297,1.0340888500213623,-0.0,-0.0,-1.0,0.1117475929608091,1.0,2.0
12.090786933898926,-14.3916015625,1.0941227674484253,-0.0,-0.0,-1.0,0.2220371223566017,1.0,2.0
12.358328819274902,-14.484733581542969,1.0977389812469482,-0.9875504967553996,0.0471807064115455,-0.1500599790106304,0.1625156729044409,3.0,2.0
10.963211059570312,-15.382977485656738,1.5813590288162231,-0.0,-0.0,-1.0,0.2095349448678093,1.0,2.0
10.698441505432127,-15.83215045928955,1.5639469623565674,-0.0,-0.0,-1.0,0.1935534006432649,1.0,2.0
10.717086791992188,-16.01768684387207,1.5565381050109863,-0.0,-0.0,-1.0,0.1748798229907211,2.0,2.0
10.867646217346191,-16.271921157836914,1.5460561513900757,-0.0,-0.0,-1.0,0.1685424213247544,2.0,2.0
10.949769020080566,-16.542613983154297,1.5347334146499634,-0.0,-0.0,-1.0,0.1660489304524751,2.0,2.0
12.220932960510254,-15.609197616577148,1.5710499286651611,-0.0,-0.0,-1.0,0.1933265260152532,1.0,2.0
11.571868896484377,-16.60833740234375,1.5305955410003662,-0.0,-0.0,-1.0,0.170520625166356,2.0,2.0
12.310489654541016,-16.22045135498047,1.5452542304992676,-0.0,-0.0,-1.0,0.177433386167071,2.0,2.0
12.291160583496094,-16.51001739501953,1.532845973968506,-0.0,-0.0,-1.0,0.130760733946904,1.0,2.0
12.385448455810549,-14.61260223388672,0.844494104385376,-0.0,-0.0,-1.0,0.1554100743414665,1.0,1.0
12.652305603027344,-14.60806655883789,0.8611605167388916,-0.0,-0.0,-1.0,0.1578750592717218,1.0,1.0
10.974184036254885,-15.335636138916016,1.27839994430542,-0.5278446390683554,-0.7419525713465935,0.4133841057406237,0.2151228104408685,3.0,2.0
10.91626262664795,-15.569564819335938,1.2710118293762207,-0.0,-0.0,-1.0,0.192772665901919,1.0,2.0
11.702181816101074,-14.836342811584473,1.3117258548736572,-0.0,-0.0,-1.0,0.1308250825523822,2.0,2.0
11.92124080657959,-15.290283203125,1.3070847988128662,-0.0,-0.0,-1.0,0.1983299994233232,1.0,2.0
12.244691848754885,-15.508893966674805,1.310798168182373,-0.0,-0.0,-1.0,0.2333043150358678,1.0,2.0
11.95798397064209,-15.572263717651367,1.3009910583496094,-0.0,-0.0,-1.0,0.1839154703743122,2.0,2.0
11.895410537719728,-16.00922203063965,1.2876317501068115,-0.0,-0.0,-1.0,0.2085192775832078,1.0,2.0
12.463460922241213,-16.12789535522461,1.300076246261597,-0.0,-0.0,-1.0,0.1476620699708981,2.0,2.0
12.695358276367188,-16.522432327270508,1.2948439121246338,-0.0,-0.0,-1.0,0.1621855485035502,2.0,2.0
10.936897277832031,-15.441353797912598,1.824050545692444,0.7230352223623853,0.3321846345793465,-0.6057007807265584,0.1861919389366615,4.0,2.0
11.847660064697266,-15.175115585327148,1.0241607427597046,-0.0,-0.0,-1.0,0.2276329870870997,1.0,2.0
12.3076810836792,-14.468738555908203,1.0822443962097168,-0.0,-0.0,-1.0,0.1398235556882628,1.0,2.0
10.884015083312988,-15.322687149047852,1.4933269023895264,-0.0,-0.0,-1.0,0.219327194633555,1.0,2.0
10.738521575927734,-15.856340408325195,1.4689884185791016,0.4311124999728191,0.695486024531016,-0.5748401534767984,0.1457812621912283,3.0,2.0
11.05329132080078,-15.374488830566406,1.4931272268295288,-0.8120472960585112,0.5348929237379146,0.2333854089251646,0.2387056700328648,3.0,2.0
10.936850547790527,-16.312238693237305,1.4510738849639893,-0.0,-0.0,-1.0,0.1840524324832556,1.0,2.0
11.738232612609863,-15.756587028503418,1.484330654144287,-0.0,-0.0,-1.0,0.1937311981703851,1.0,2.0
10.974947929382324,-16.547855377197266,1.4408098459243774,-0.0,-0.0,-1.0,0.1288306924682753,1.0,2.0
12.131625175476074,-15.563209533691406,1.4971059560775757,-0.0,-0.0,-1.0,0.2823698865197921,1.0,2.0
11.975573539733888,-15.924281120300291,1.479380488395691,-0.0,-0.0,-1.0,0.2348341161360571,2.0,2.0
11.580000877380373,-16.595354080200195,1.4446836709976196,-0.0,-0.0,-1.0,0.1385602058227377,1.0,2.0
12.396317481994627,-16.13654327392578,1.473978877067566,-0.0,-0.0,-1.0,0.157944116838519,2.0,2.0
11.837532997131348,-16.5836238861084,1.4477285146713257,-0.0,-0.0,-1.0,0.2405127842053132,2.0,2.0
12.553330421447754,-16.404693603515625,1.462912678718567,-0.0,-0.0,-1.0,0.2197425696657944,2.0,2.0
12.366151809692385,-16.414478302001953,1.460720419883728,-0.0,-0.0,-1.0,0.1822549263678756,2.0,2.0
12.542579650878906,-14.389492988586426,1.0613538026809692,-0.0,-0.0,-1.0,0.1263900032624798,2.0,2.0
12.19709587097168,-15.050870895385742,1.0098328590393066,-0.0,-0.0,-1.0,0.1993107666171482,1.0,2.0
11.042716979980469,-15.27664566040039,1.4271819591522217,-0.8278149034613391,0.2233929798900375,-0.5146047630396975,0.2494165922000867,4.0,2.0
10.996167182922363,-15.46814250946045,1.4184311628341677,-0.0,-0.0,-1.0,0.2358216738144618,1.0,2.0
12.031179428100586,-14.926626205444336,1.461452603340149,-0.0,-0.0,-1.0,0.13791347788818,1.0,2.0
12.099262237548828,-15.557694435119627,1.436724066734314,-0.0,-0.0,-1.0,0.2355506977289189,2.0,2.0
12.000595092773438,-15.80276107788086,1.4243061542510986,-0.0,-0.0,-1.0,0.1720442105865734,2.0,2.0
11.077788352966309,-16.461620330810547,1.377737283706665,-0.0,-0.0,-1.0,0.1993671782296852,1.0,2.0
11.988572120666504,-15.979707717895508,1.4163599014282229,-0.0,-0.0,-1.0,0.2672781307426264,2.0,2.0
11.85139274597168,-16.464414596557617,1.392176389694214,-0.0,-0.0,-1.0,0.2853869762862751,1.0,2.0
12.54919719696045,-16.045177459716797,1.424107789993286,-0.0,-0.0,-1.0,0.2574066926059831,2.0,2.0
12.48985481262207,-16.37145233154297,1.4082095623016355,-0.1946972584006908,-0.962566143303811,-0.1885719951012932,0.2596126709446734,3.0,2.0
12.66730499267578,-16.533071517944336,1.4039543867111206,-0.5330189576393418,-0.8440140177240869,-0.0594233008365778,0.1495597576641422,3.0,2.0
12.34035587310791,-15.452486038208008,0.9559482336044312,-0.0,-0.0,-1.0,0.2078906906545459,1.0,1.0
11.062012672424316,-15.53487777709961,1.335988998413086,-0.0,-0.0,-1.0,0.1876494468574462,1.0,2.0
10.940438270568848,-15.469572067260742,1.3347948789596558,-0.0,-0.0,-1.0,0.2418805706372543,2.0,2.0
12.127692222595217,-15.401116371154783,1.3720455169677734,-0.0,-0.0,-1.0,0.2443321705752216,2.0,2.0
11.75718879699707,-15.480669021606444,1.3583178520202637,-0.0,-0.0,-1.0,0.1273801446191715,1.0,2.0
11.917696952819824,-16.002038955688477,1.3430290222167969,-0.4710688721432601,0.882029254259483,0.0108863367639109,0.1843135889167772,3.0,2.0
12.346060752868652,-16.104764938354492,1.3510806560516355,-0.0,-0.0,-1.0,0.1761403820778787,1.0,2.0
12.70169448852539,-16.434825897216797,1.347395658493042,-0.0,-0.0,-1.0,0.1370361751970372,2.0,2.0
12.32827091217041,-16.84368324279785,1.3198485374450684,-0.0,-0.0,-1.0,0.0774668377041113,1.0,2.0
10.931702613830566,-15.36457347869873,1.8040987253189087,0.7784984371667966,-0.4491344931774599,-0.4384271779521448,0.1611754581316238,5.0,2.0
10.953283309936523,-15.476844787597656,1.8009752035140991,-0.0,-0.0,-1.0,0.1417129988778879,2.0,2.0
10.988077163696287,-16.365943908691406,1.776267647743225,-0.8925648535539971,-0.3387667379523515,-0.2975988566128141,0.1223821288406071,4.0,2.0
12.04290771484375,-14.991130828857422,1.0237774848937988,-0.0,-0.0,-1.0,0.2133773983564904,1.0,2.0
11.471857070922852,-14.820751190185549,1.4077441692352295,-0.0777860712465468,0.9440496185755408,-0.3204990558291912,0.1557917510498431,3.0,2.0
10.95798683166504,-15.254890441894531,1.3722026348114014,-0.0313876567254007,-0.8256736897006094,-0.563274154512233,0.1840090726643072,3.0,2.0
10.89364242553711,-15.419734954833984,1.3624930381774902,-0.0,-0.0,-1.0,0.2294259916668277,2.0,2.0
10.565204620361328,-15.922601699829102,1.327993869781494,-0.733892715063267,-0.5310159636016544,0.4235841465131489,0.0650097073052412,3.0,2.0
11.91813850402832,-15.416585922241213,1.393718957901001,-0.0,-0.0,-1.0,0.2414195643644368,2.0,2.0
11.646964073181152,-15.702214241027832,1.371389389038086,-0.0,-0.0,-1.0,0.1598147464231549,2.0,2.0
12.289664268493652,-15.266754150390623,1.4122819900512695,-0.0,-0.0,-1.0,0.1360089022220306,1.0,2.0
12.169281005859377,-15.413020133972168,1.4014885425567627,0.8714492282895691,0.3789493397186375,-0.3114059094499062,0.1712487725195776,4.0,2.0
11.884482383728027,-15.918319702148438,1.3672525882720947,-0.0,-0.0,-1.0,0.2995443806354612,1.0,2.0
12.645000457763672,-15.842010498046877,1.3934762477874756,-0.0,-0.0,-1.0,0.1744246208394126,2.0,2.0
