x,y,z,nx,ny,nz,curvature,density,label
44.74501037597656,-16.649879455566406,-0.2377722263336181,-0.0,-0.0,-1.0,0.0385156193503985,1.0,0.0
44.50218963623047,-15.535945892333984,-0.2065348625183105,-0.0,-0.0,-1.0,0.0433308542906863,2.0,0.0
45.182708740234375,-16.205623626708984,-0.2564384937286377,-0.0,-0.0,-1.0,0.096213557799892,1.0,0.0
44.90728759765625,-15.427459716796877,-0.2285585403442382,-0.0,-0.0,-1.0,0.1524568202731797,1.0,0.0
44.528831481933594,-15.672525405883787,-0.0874066352844238,-0.0,-0.0,-1.0,0.1873828362969181,2.0,0.0
44.83136749267578,-15.454191207885742,-0.1057868003845214,0.4824847533828867,0.4367960743978237,-0.7592217410899833,0.211173459866881,4.0,0.0
44.538597106933594,-15.71710968017578,-0.0163013935089111,-0.3142209803087693,-0.7924346678328967,-0.5227929539983897,0.2591683899547491,3.0,0.0
44.792964935302734,-15.424114227294922,-0.0359396934509277,-0.0,-0.0,-1.0,0.2287559036135353,1.0,0.0
42.92090606689453,-16.296104431152344,-0.2839159965515136,-0.0,-0.0,-1.0,0.0328130601511833,2.0,0.0
43.1155891418457,-16.285160064697266,-0.2972743511199951,-0.0,-0.0,-1.0,0.0274719441067285,1.0,0.0
43.782127380371094,-14.716529846191406,-0.3175673484802246,-0.0,-0.0,-1.0,0.155554889352156,1.0,0.0
43.92746353149414,-15.549610137939451,-0.3415758609771728,-0.0,-0.0,-1.0,0.0167959229454635,1.0,0.0
44.46201705932617,-15.741094589233398,-0.0984117984771728,-0.7392146128068415,0.4918442278054811,-0.4600554442534739,0.2330834111143803,6.0,0.0
44.79000473022461,-16.849496841430664,-0.1314480304718017,-0.0,-0.0,-1.0,0.0285387252291283,1.0,0.0
44.8294563293457,-15.498022079467772,-0.1236674785614013,-0.1797038538591463,0.3782839415532693,-0.9080791730191224,0.223938474438601,3.0,0.0
44.57892608642578,-15.696443557739258,-0.1052052974700927,-0.0,-0.0,-1.0,0.150192605357921,2.0,0.0
44.84395980834961,-15.497102737426758,-0.1261546611785888,-0.1797038538591463,0.3782839415532693,-0.9080791730191224,0.2239384744386009,3.0,0.0
44.52922058105469,-15.746723175048828,0.1081106662750244,-0.0,-0.0,-1.0,0.1832681369387507,1.0,1.0
44.88405990600586,-15.557823181152344,0.0835614204406738,-0.0,-0.0,-1.0,0.2114059994172767,1.0,1.0
44.514495849609375,-15.582181930541992,0.041323184967041,-0.0,-0.0,-1.0,0.111521813650384,1.0,1.0
45.19430160522461,-16.20616340637207,-0.0201249122619628,-0.0,-0.0,-1.0,0.095252821082038,2.0,0.0
42.763633728027344,-16.516685485839844,-0.2311036586761474,-0.0,-0.0,-1.0,0.0260690879951913,1.0,0.0
43.0794792175293,-16.354442596435547,-0.2676155567169189,-0.0,-0.0,-1.0,0.0320674547645631,1.0,0.0
43.03238296508789,-14.741365432739258,-0.2650454044342041,-0.0,-0.0,-1.0,0.0193532312840485,1.0,0.0
43.55422592163086,-14.758796691894531,-0.3262479305267334,-0.0,-0.0,-1.0,0.1544080399246959,1.0,0.0
43.619083404541016,-14.627437591552734,-0.3342878818511963,-0.0,-0.0,-1.0,0.1047469901956435,1.0,0.0
44.436073303222656,-15.758663177490234,0.088275671005249,-0.0,-0.0,-1.0,0.1738749933017392,2.0,1.0
44.46646881103515,-15.77914810180664,0.1443150043487548,-0.983360336847521,-0.0473429997207389,-0.1753883926962436,0.1904202523615437,5.0,1.0
44.775367736816406,-15.529773712158203,0.1209161281585693,0.6576028958161428,0.6134891808814932,-0.4372521656385223,0.2064364661576044,3.0,1.0
44.14540481567383,-16.794055938720703,-0.1012659072875976,-0.0,-0.0,-1.0,0.0500433982837475,1.0,0.0
44.52030944824219,-16.542884826660156,-0.1217036247253418,-0.0,-0.0,-1.0,0.0482618795840961,1.0,0.0
45.0731086730957,-15.931251525878906,-0.1445536613464355,-0.0,-0.0,-1.0,0.1088730387948589,1.0,0.0
44.32178497314453,-15.852821350097656,-0.0807759761810302,-0.0,-0.0,-1.0,0.1825982196271934,1.0,0.0
44.63875579833984,-15.648014068603516,-0.0990195274353027,0.6304436223288795,0.6830800837820847,-0.3687037268663033,0.1970132383049656,3.0,0.0
44.397178649902344,-15.72357940673828,-0.0821695327758789,-0.0,-0.0,-1.0,0.2085322857652434,2.0,0.0
44.7208366394043,-15.534038543701172,-0.1016621589660644,-0.0,-0.0,-1.0,0.1728515883703526,1.0,0.0
43.61594009399414,-16.81743812561035,-0.1131829023361206,-0.0,-0.0,-1.0,0.1301871125412277,1.0,0.0
43.9904899597168,-16.76240348815918,-0.1403939723968505,-0.0,-0.0,-1.0,0.0246748457385913,2.0,0.0
44.38707733154297,-16.773771286010742,-0.1705701351165771,-0.0,-0.0,-1.0,0.0456283467965844,1.0,0.0
44.865203857421875,-16.618444442749023,-0.2049969434738159,-0.0,-0.0,-1.0,0.0328877088968476,1.0,0.0
44.51758575439453,-16.437700271606445,-0.175705075263977,-0.0,-0.0,-1.0,0.046323393028336,2.0,0.0
44.92564392089844,-16.44145393371582,-0.2072100639343261,-0.0,-0.0,-1.0,0.0278068155202757,1.0,0.0
44.36702728271485,-15.74562644958496,-0.1543495655059814,-0.0,-0.0,-1.0,0.1371487782505366,1.0,0.0
43.257606506347656,-16.79876708984375,-0.134886622428894,-0.0,-0.0,-1.0,0.0664503981403013,2.0,0.0
43.50248336791992,-16.76337432861328,-0.1520558595657348,-0.6223099910209181,0.4677533363777276,-0.6276440801784471,0.0974908955532787,3.0,0.0
43.88629531860352,-16.57381820678711,-0.1762920618057251,-0.0,-0.0,-1.0,0.0396495245945418,1.0,0.0
44.35356140136719,-16.645767211914062,-0.212963581085205,-0.0,-0.0,-1.0,0.0513249009348054,1.0,0.0
43.6807746887207,-16.521198272705078,-0.1598362922668457,0.1057448098875648,-0.0441196384509282,-0.993414059033192,0.0527246555128296,4.0,0.0
44.053565979003906,-16.505615234375,-0.1873111724853515,-0.0,-0.0,-1.0,0.0253433179572996,1.0,0.0
44.79335021972656,-16.475189208984375,-0.2428152561187744,-0.0,-0.0,-1.0,0.0519740057060033,1.0,0.0
44.23163604736328,-15.577037811279297,-0.1806638240814209,-0.0,-0.0,-1.0,0.0674412989373774,1.0,0.0
43.654205322265625,-14.911972045898438,-0.1225397586822509,-0.8437008719184862,0.2345734899079576,-0.4828499938452807,0.1902876881873272,3.0,0.0
44.4393196105957,-15.798133850097656,0.0546001195907592,-0.0,-0.0,-1.0,0.1380370216922535,2.0,1.0
44.83150100708008,-15.52924919128418,0.0353306531906127,-0.0266668709198009,0.6629592793284624,-0.7481803739390873,0.1947745302727598,6.0,1.0
44.724327087402344,-15.49506950378418,0.0515762567520141,-0.0,-0.0,-1.0,0.2106621547517513,1.0,1.0
44.93953704833984,-16.162071228027344,0.0451754331588745,-0.0,-0.0,-1.0,0.101438894426037,1.0,1.0
43.41524124145508,-16.862091064453125,-0.0831274986267089,-0.0,-0.0,-1.0,0.0789857626714537,2.0,0.0
43.609527587890625,-16.755462646484375,-0.0795503854751586,-0.0,-0.0,-1.0,0.1639196248757211,1.0,0.0
43.417442321777344,-15.101256370544434,-0.0024061203002929,-0.0,-0.0,-1.0,0.1723303967940734,2.0,0.0
44.53895568847656,-15.702717781066896,-0.0383317470550537,-0.3142209803087693,-0.7924346678328967,-0.5227929539983897,0.2117332343977473,3.0,0.0
44.79576110839844,-15.487812995910645,-0.0307296514511108,-0.0,-0.0,-1.0,0.1862307969411294,1.0,0.0
43.38319778442383,-15.801618576049805,-0.3006126880645752,-0.0,-0.0,-1.0,0.0720647307340367,1.0,0.0
43.05794906616211,-15.088316917419434,-0.2162593603134155,-0.0,-0.0,-1.0,0.2370169454585707,2.0,0.0
43.178218841552734,-16.20557403564453,-0.2789885997772217,-0.0,-0.0,-1.0,0.0290405211155932,1.0,0.0
44.42462921142578,-15.093382835388184,-0.2207545042037964,-0.0,-0.0,-1.0,0.0182927534901239,1.0,0.0
44.84529876708984,-15.44475555419922,0.0054423809051513,0.7285362062364769,0.681904857779757,0.0651211266712331,0.1881178244516797,3.0,1.0
43.36170959472656,-15.46672821044922,-0.302498459815979,-0.0,-0.0,-1.0,0.145067723013728,1.0,0.0
44.65576934814453,-15.54155158996582,0.1324490308761596,-0.0,-0.0,-1.0,0.1414349259485155,1.0,1.0
44.985618591308594,-15.512734413146973,-0.1132909059524536,-0.0,-0.0,-1.0,0.1424387942403106,1.0,0.0
44.888572692871094,-15.588950157165527,-0.1205147504806518,-0.0,-0.0,-1.0,0.2219598870058488,1.0,0.0
44.821502685546875,-16.423297882080078,-0.1653259992599487,-0.0,-0.0,-1.0,0.0521322295918767,1.0,0.0
43.755104064941406,-16.535181045532227,-0.0929182767868042,-0.0,-0.0,-1.0,0.0518178159674741,2.0,0.0
43.43289566040039,-16.56638526916504,-0.0959302186965942,-0.0,-0.0,-1.0,0.1443598295149465,2.0,0.0
43.44808578491211,-16.69356918334961,-0.1017719507217407,-0.0,-0.0,-1.0,0.115621215258927,2.0,0.0
42.96086883544922,-16.695629119873047,-0.1043392419815063,-0.0,-0.0,-1.0,0.0301579646619953,1.0,0.0
43.777313232421875,-16.751062393188477,-0.0521516799926757,-0.0,-0.0,-1.0,0.0805284282880592,1.0,0.0
43.47474670410156,-16.7294864654541,-0.0516287088394165,-0.0,-0.0,-1.0,0.1686822001006547,2.0,0.0
43.49824523925781,-16.776153564453125,0.0285596847534179,-0.0,-0.0,-1.0,0.162550348980843,1.0,1.0
43.256866455078125,-14.869559288024902,-0.196637749671936,-0.0,-0.0,-1.0,0.1305200016328885,1.0,0.0
43.974830627441406,-14.573586463928224,-0.29705810546875,-0.0,-0.0,-1.0,0.0647592828987972,2.0,0.0
43.71343994140625,-16.623538970947266,-0.160154104232788,-0.1792871383281443,-0.0054787035082094,-0.983781533592684,0.0643860893088039,5.0,0.0
43.4316291809082,-16.77682113647461,-0.1190173625946044,-0.0120415080879352,0.9727762801875088,-0.2314331669997229,0.0977176512851214,3.0,0.0
44.11267852783203,-16.29914093017578,-0.2240403890609741,-0.0,-0.0,-1.0,0.0349151375466659,1.0,0.0
44.64015197753906,-15.7484712600708,-0.3149672746658325,-0.0,-0.0,-1.0,0.1345575011706249,1.0,0.0
43.00183868408203,-16.237985610961914,-0.3026790618896484,-0.0,-0.0,-1.0,0.0297047285313095,2.0,0.0
43.57952117919922,-15.94460678100586,-0.3483343124389648,-0.0,-0.0,-1.0,0.0435668482569728,1.0,0.0
43.461273193359375,-16.09660530090332,-0.3383922576904297,-0.0,-0.0,-1.0,0.0293656582802577,1.0,0.0
43.94017028808594,-14.49995231628418,-0.385322093963623,-0.0,-0.0,-1.0,0.0823106492461974,1.0,0.0
43.996337890625,-15.105085372924805,-0.3855373859405517,-0.0,-0.0,-1.0,0.0501403538172461,1.0,0.0
43.66446685791016,-15.850406646728516,-0.3553916215896606,-0.0,-0.0,-1.0,0.0461625731457055,1.0,0.0
43.26663589477539,-16.181888580322266,-0.3198554515838623,-0.0,-0.0,-1.0,0.0245286658076452,1.0,0.0
43.3885498046875,-16.03885269165039,-0.3288666009902954,-0.0,-0.0,-1.0,0.0317352977793781,1.0,0.0
43.83049774169922,-15.127513885498049,-0.3626002073287964,-0.0,-0.0,-1.0,0.0687458086600096,1.0,0.0
43.66517639160156,-16.754486083984375,-0.0807685852050781,-0.0,-0.0,-1.0,0.1508361851143624,1.0,0.0
43.583641052246094,-16.84524917602539,-0.0704140663146972,-0.0,-0.0,-1.0,0.1792380289657424,1.0,0.0
43.761573791503906,-16.671466827392578,-0.0922745466232299,-0.0,-0.0,-1.0,0.0945373041598596,1.0,0.0
44.23998260498047,-16.84330940246582,-0.1314905881881714,-0.0,-0.0,-1.0,0.049663579689548,1.0,0.0
44.27597427368164,-16.591812133789062,-0.1425884962081909,-0.0,-0.0,-1.0,0.0544963463276837,1.0,0.0
44.73187255859375,-16.331436157226562,-0.193135380744934,-0.0,-0.0,-1.0,0.0477806406765701,1.0,0.0
43.92860412597656,-14.802471160888672,-0.1656197309494018,-0.0,-0.0,-1.0,0.160354810814348,1.0,0.0
44.65446472167969,-15.960721969604492,-0.1974109411239624,-0.0,-0.0,-1.0,0.2112022766678705,1.0,0.0
44.464698791503906,-14.738361358642578,-0.2177718877792358,-0.0,-0.0,-1.0,0.0199512618105734,1.0,0.0
44.85465240478515,-15.541962623596191,0.0144693851470947,-0.7142530545520273,0.5292015003713418,-0.4580265779054959,0.1492427094595861,4.0,1.0
44.48025894165039,-15.76691436767578,0.1117688417434692,-0.9071330212568856,-0.2121127295164448,-0.3634802219137079,0.1904202523615437,4.0,1.0
44.78421401977539,-15.564138412475586,0.0860048532485961,0.5254132767768656,0.6207109239384826,-0.5819440157695862,0.2444091797976345,6.0,1.0
44.46356964111328,-15.828683853149414,0.1020731925964355,-0.4215944636485857,0.8511158067073661,-0.3128258170192007,0.2231219109427025,3.0,1.0
43.428836822509766,-15.016695022583008,0.2261527776718139,-0.0,-0.0,-1.0,0.1527674918906054,1.0,1.0
43.32643508911133,-14.695389747619627,-0.2631534337997436,-0.0,-0.0,-1.0,0.0768804902065368,1.0,0.0
43.71761322021485,-14.381402015686035,-0.2248553037643432,-0.0,-0.0,-1.0,0.0586055632712606,1.0,0.0
43.03864669799805,-14.623883247375488,-0.2667220830917358,-0.0,-0.0,-1.0,0.0120530905719226,1.0,0.0
43.53605270385742,-15.869698524475098,-0.2830284833908081,-0.8315631667868857,0.1883368028315843,-0.5225245911366688,0.057627306681136,3.0,0.0
43.76298522949219,-15.65473461151123,-0.2903968095779419,-0.0,-0.0,-1.0,0.0654171275618188,1.0,0.0
42.96398162841797,-15.180916786193848,-0.2286406755447387,0.0646203194600591,-0.9750666073961584,-0.2122953731333447,0.2057400304169134,4.0,0.0
43.28169250488281,-14.958571434020996,-0.2410796880722046,-0.0,-0.0,-1.0,0.169914586017142,1.0,0.0
43.73245620727539,-15.282034873962402,-0.2777770757675171,-0.0,-0.0,-1.0,0.0571274945362986,1.0,0.0
43.06871795654297,-14.761717796325684,-0.222519040107727,-0.0,-0.0,-1.0,0.0633238884225456,1.0,0.0
43.792442321777344,-14.870617866516112,-0.2696925401687622,-0.8934812722789964,0.4118843030838675,-0.1790042931323791,0.1555445091031394,3.0,0.0
43.37557220458984,-15.088173866271973,-0.3110532760620117,-0.0,-0.0,-1.0,0.2239135751918215,1.0,0.0
42.72491836547851,-14.697989463806152,-0.2573425769805908,-0.0,-0.0,-1.0,0.0395782831465424,1.0,0.0
43.264366149902344,-15.077628135681152,-0.3036668300628662,-0.0,-0.0,-1.0,0.1717518220754405,1.0,0.0
43.42841339111328,-14.977967262268066,-0.3108327388763428,-0.0,-0.0,-1.0,0.1713178642620151,2.0,0.0
42.91045379638672,-14.65808391571045,-0.2676219940185547,-0.0,-0.0,-1.0,0.0151022381381937,2.0,0.0
43.49967575073242,-14.580487251281738,-0.3025814294815063,-0.0,-0.0,-1.0,0.0687951424712181,1.0,0.0
43.12644958496094,-16.24508285522461,-0.2676695585250854,-0.0,-0.0,-1.0,0.0311715932911516,1.0,0.0
43.3547248840332,-16.080364227294922,-0.2723860740661621,-0.0,-0.0,-1.0,0.0246191151046554,1.0,0.0
43.53400802612305,-15.848807334899902,-0.2722445726394653,-0.6318201324197775,-0.4204088328086279,-0.6511986897756649,0.1226974397921584,5.0,0.0
43.81387710571289,-15.645428657531738,-0.2785470485687256,-0.0,-0.0,-1.0,0.0560977449853145,1.0,0.0
43.39527130126953,-15.04895305633545,-0.2342641353607177,-0.0,-0.0,-1.0,0.1967763845305634,2.0,0.0
43.778804779052734,-15.21471881866455,-0.2602285146713257,-0.0,-0.0,-1.0,0.0591799476645429,1.0,0.0
43.14570999145508,-14.709105491638184,-0.208508014678955,-0.0,-0.0,-1.0,0.1160807885433251,2.0,0.0
43.71424865722656,-14.842707633972168,-0.2426878213882446,-0.5491665923190446,0.8347116722041721,0.0408959431582509,0.1685162275454767,3.0,0.0
44.07853698730469,-14.966752052307127,-0.2664158344268799,-0.0,-0.0,-1.0,0.0478718284162038,1.0,0.0
43.02831268310547,-16.360206604003906,-0.2377389669418335,-0.0,-0.0,-1.0,0.0345501954445539,1.0,0.0
43.20439529418945,-16.281370162963867,-0.2435436248779297,-0.0,-0.0,-1.0,0.0333416417049895,1.0,0.0
43.47785949707031,-16.067474365234375,-0.2492508888244629,-0.0,-0.0,-1.0,0.0340870352301785,1.0,0.0
43.50209045410156,-15.865201950073242,-0.242699384689331,-0.7094088834227097,0.1342051937134245,-0.6919017286445281,0.1366379030409188,3.0,0.0
43.76470947265625,-15.75235366821289,-0.2521480321884155,-0.0,-0.0,-1.0,0.1234724692193236,2.0,0.0
42.98332977294922,-15.298826217651367,-0.1939884424209594,-0.0,-0.0,-1.0,0.1839056469574054,1.0,0.0
43.76649856567383,-15.587646484375,-0.2459766864776611,-0.0,-0.0,-1.0,0.0618939476021722,1.0,0.0
43.01742935180664,-15.12769889831543,-0.1890945434570312,-0.4362737814499899,-0.8907484170950352,-0.1274066131015798,0.2245396826769736,4.0,0.0
43.32938003540039,-15.164932250976562,-0.2067247629165649,-0.0,-0.0,-1.0,0.2325226418450127,2.0,0.0
44.02833557128906,-15.163795471191406,-0.2439501285552978,-0.0,-0.0,-1.0,0.0517400881740837,1.0,0.0
44.132415771484375,-15.04991340637207,-0.2453495264053344,-0.0,-0.0,-1.0,0.0503429688422447,2.0,0.0
43.741172790527344,-14.826316833496094,-0.215686559677124,-0.8916009465957562,0.4488837469607727,0.0595913898479365,0.1410015044968736,5.0,0.0
44.01286697387695,-14.4097900390625,-0.2148548364639282,-0.0,-0.0,-1.0,0.0500098468997341,1.0,0.0
43.215126037597656,-16.587316513061523,-0.2136647701263427,-0.0,-0.0,-1.0,0.0548847757249083,1.0,0.0
42.784427642822266,-16.446748733520508,-0.1908049583435058,-0.0,-0.0,-1.0,0.0236353581924596,1.0,0.0
43.09708786010742,-16.409212112426758,-0.2008470296859741,0.604840321948297,0.2218734439278613,-0.7648139380431495,0.0539144874868779,5.0,0.0
43.45939636230469,-16.26799201965332,-0.2083303928375244,0.8033895861913571,-0.4462729319016376,-0.3942152242762777,0.0419436632682439,4.0,0.0
43.91608428955078,-16.311851501464844,-0.2286484241485595,-0.0,-0.0,-1.0,0.0315865851932629,1.0,0.0
43.87526321411133,-16.184616088867188,-0.2211232185363769,-0.0,-0.0,-1.0,0.0210287214131145,1.0,0.0
44.25283432006836,-16.129653930664062,-0.234199047088623,-0.1864897068742113,-0.7676905285657393,-0.6130846936438934,0.033329162981798,3.0,0.0
44.156497955322266,-15.552980422973633,-0.2038908004760742,-0.0,-0.0,-1.0,0.0722081097982293,2.0,0.0
44.21831512451172,-15.449453353881836,-0.2018017768859863,-0.0,-0.0,-1.0,0.0631888049435504,2.0,0.0
43.343257904052734,-15.111186981201172,-0.1501762866973877,-0.0,-0.0,-1.0,0.1394026947636682,2.0,0.0
44.40257263183594,-15.433847427368164,-0.2089676856994629,-0.0,-0.0,-1.0,0.0375078112051203,1.0,0.0
43.6994743347168,-14.901840209960938,-0.1550910472869873,-0.3393518774363374,0.4200444805832095,-0.8416667616176933,0.2203264316043697,4.0,0.0
42.72196960449219,-16.564437866210938,-0.2083861827850341,-0.0,-0.0,-1.0,0.0247291950269731,1.0,0.0
43.065956115722656,-16.475156784057617,-0.209991455078125,-0.2634313843373599,0.2732725765287508,-0.9251626909162732,0.0555381699482415,3.0,0.0
43.40581130981445,-16.60333824157715,-0.2232881784439087,-0.6315265157299893,0.77179222744756,-0.0742362282276883,0.0669695867849913,3.0,0.0
43.5860595703125,-16.39681625366211,-0.2158794403076172,-0.0,-0.0,-1.0,0.0316249893826728,1.0,0.0
44.02188873291016,-16.399202346801758,-0.2248256206512451,-0.322929863975965,-0.9460317747871708,-0.0272063236307365,0.028144201172278,3.0,0.0
44.24345779418945,-16.346206665039062,-0.2266408205032348,-0.0,-0.0,-1.0,0.0234214034365958,1.0,0.0
44.40483474731445,-16.411170959472656,-0.2334750890731811,-0.0,-0.0,-1.0,0.0296861678470339,1.0,0.0
44.95787811279297,-16.41390037536621,-0.245668888092041,-0.0,-0.0,-1.0,0.025509019335774,1.0,0.0
44.302860260009766,-15.591304779052734,-0.1882565021514892,-0.0,-0.0,-1.0,0.0704202898389814,1.0,0.0
44.64337539672851,-16.0473575592041,-0.2195551395416259,-0.0,-0.0,-1.0,0.0949142180087621,1.0,0.0
43.40178680419922,-15.037031173706056,-0.1402524709701538,-0.0,-0.0,-1.0,0.1916051393300618,1.0,0.0
43.22998809814453,-16.708152770996094,-0.1376675367355346,-0.0,-0.0,-1.0,0.0561283339389218,2.0,0.0
43.51958465576172,-16.726106643676758,-0.1412379741668701,0.7976211450752573,-0.2009283793574788,-0.568707565711599,0.144384895699773,3.0,0.0
44.14311599731445,-16.738122940063477,-0.1480106115341186,-0.0,-0.0,-1.0,0.0500433982837475,1.0,0.0
43.33403015136719,-15.090364456176758,-0.0529381036758422,-0.0,-0.0,-1.0,0.2352296974997907,2.0,0.0
44.46052169799805,-15.675779342651367,-0.0957310199737548,-0.0,-0.0,-1.0,0.2303430012863572,2.0,0.0
44.856842041015625,-15.461675643920898,-0.0893136262893676,-0.0,-0.0,-1.0,0.1905389000855339,2.0,0.0
42.99677658081055,-16.300800323486328,-0.2474050521850586,-0.0,-0.0,-1.0,0.0368408013803743,2.0,0.0
43.42106246948242,-16.181621551513672,-0.2483093738555908,-0.0,-0.0,-1.0,0.0365002869897781,2.0,0.0
43.75887298583984,-16.246936798095703,-0.2583862543106079,-0.0,-0.0,-1.0,0.0280331286045615,1.0,0.0
43.89908981323242,-16.24472427368164,-0.2609750032424927,-0.0,-0.0,-1.0,0.0256405120275205,1.0,0.0
44.13743591308594,-16.260814666748047,-0.2665854692459106,-0.0,-0.0,-1.0,0.0216095123030686,2.0,0.0
43.37937927246094,-15.103251457214355,-0.1863347291946411,-0.9541239828343312,0.1673036908251058,-0.2483080756170657,0.1878263552728079,4.0,0.0
44.21906661987305,-15.557063102722168,-0.2285521030426025,-0.0,-0.0,-1.0,0.0766039362206455,2.0,0.0
44.283321380615234,-16.11540985107422,-0.2613087892532348,-0.1864897068742113,-0.7676905285657393,-0.6130846936438934,0.0559180984534762,3.0,0.0
43.73819351196289,-14.782666206359863,-0.1751887798309326,-0.0,-0.0,-1.0,0.1720582943404699,2.0,0.0
44.347137451171875,-15.38645839691162,-0.2216042280197143,-0.0,-0.0,-1.0,0.0303332156312624,2.0,0.0
44.84296417236328,-16.1302490234375,-0.2737834453582763,-0.0,-0.0,-1.0,0.0603543690959624,1.0,0.0
44.8506965637207,-14.9727144241333,-0.2091952562332153,-0.0,-0.0,-1.0,0.0257128570059382,1.0,0.0
44.9619026184082,-15.037955284118652,-0.2152937650680542,-0.0,-0.0,-1.0,0.0233444470928748,1.0,0.0
43.13414764404297,-16.648151397705078,-0.1388113498687744,0.8084462943999867,0.4227864946901727,-0.4094705959877052,0.0492427657630153,4.0,0.0
43.457496643066406,-16.673500061035156,-0.1428734064102172,-0.0,-0.0,-1.0,0.1104781550286125,2.0,0.0
43.346675872802734,-15.10416316986084,-0.0551420450210571,-0.0,-0.0,-1.0,0.2037658790149762,2.0,0.0
43.990291595458984,-16.791053771972656,-0.1541420221328735,-0.0,-0.0,-1.0,0.0239311674831473,2.0,0.0
44.233375549316406,-16.660537719726562,-0.1493170261383056,-0.0,-0.0,-1.0,0.058275014844953,2.0,0.0
44.45545196533203,-15.652844429016112,-0.0963894128799438,-0.0,-0.0,-1.0,0.1648760525099579,2.0,0.0
44.67988204956055,-15.503592491149902,-0.0907891988754272,-0.0,-0.0,-1.0,0.1415875243269373,1.0,0.0
42.92319107055664,-15.185197830200195,-0.2127106189727783,-0.3219388843024476,-0.288235044403129,-0.9018181157816813,0.1960385559565066,3.0,0.0
42.884803771972656,-16.15277671813965,-0.2633306980133056,-0.0,-0.0,-1.0,0.0324874577865512,1.0,0.0
42.99422836303711,-15.115299224853516,-0.2132086753845214,-0.3735152680143693,-0.879370805035351,-0.2952851703212213,0.2105535995110879,5.0,0.0
43.309043884277344,-15.896650314331056,-0.2750355005264282,-0.0,-0.0,-1.0,0.0624401759087615,1.0,0.0
43.6605339050293,-14.807226181030272,-0.2375166416168213,-0.0,-0.0,-1.0,0.175010304280382,2.0,0.0
43.388877868652344,-15.34787368774414,-0.2500373125076294,-0.0,-0.0,-1.0,0.1884182771163092,1.0,0.0
43.62004852294922,-15.619781494140623,-0.279097318649292,-0.0,-0.0,-1.0,0.0762231906829607,1.0,0.0
43.797401428222656,-14.85062026977539,-0.2484314441680908,-0.903128457281212,0.3794391572901346,-0.2009599849816143,0.2182864641838799,4.0,0.0
43.1572265625,-14.743396759033203,-0.202890396118164,-0.0,-0.0,-1.0,0.1169931355500093,2.0,0.0
43.8421745300293,-14.388683319091797,-0.2262688875198364,-0.0,-0.0,-1.0,0.061147726246739,1.0,0.0
42.733882904052734,-16.39450454711914,-0.2757573127746582,-0.0,-0.0,-1.0,0.0233182562689775,2.0,0.0
42.94303894042969,-16.216081619262695,-0.2805358171463012,-0.0,-0.0,-1.0,0.0356081660308355,1.0,0.0
43.44026947021485,-15.839519500732422,-0.2949053049087524,-0.0,-0.0,-1.0,0.0624872896310354,1.0,0.0
43.26948165893555,-16.00886344909668,-0.2920012474060058,-0.0,-0.0,-1.0,0.0291591351881252,1.0,0.0
42.94525909423828,-15.170852661132812,-0.2251735925674438,-0.3921807865560155,0.4116760740859245,-0.8226281302517593,0.2078961903177557,4.0,0.0
43.114383697509766,-14.857934951782228,-0.2203119993209839,-0.0,-0.0,-1.0,0.1120079521195649,1.0,0.0
43.3596076965332,-15.200944900512695,-0.2555370330810547,-0.0,-0.0,-1.0,0.2014329309014074,2.0,0.0
43.73914337158203,-14.825359344482422,-0.2624813318252563,-0.5491665923190446,0.8347116722041721,0.0408959431582509,0.1882797019709997,3.0,0.0
43.72296142578125,-15.353815078735352,-0.2891201972961426,-0.0,-0.0,-1.0,0.0787144865993336,1.0,0.0
43.65330505371094,-15.696428298950195,-0.3022648096084595,-0.0,-0.0,-1.0,0.055735034452229,1.0,0.0
43.885765075683594,-14.780206680297852,-0.2705482244491577,-0.0,-0.0,-1.0,0.1863901691721526,1.0,0.0
43.969520568847656,-15.072845458984377,-0.2918556928634643,-0.5799661481094721,-0.2045847696798703,-0.788533029785117,0.0573289565327696,3.0,0.0
42.8036003112793,-16.75184440612793,-0.2043211460113525,-0.0,-0.0,-1.0,0.0277839789225424,1.0,0.0
42.986854553222656,-15.16313934326172,-0.1312178373336792,-0.5739122342854676,-0.7911249691752911,0.2115325754697302,0.1898478604829973,3.0,0.0
43.09307861328125,-16.433467864990234,-0.2054003477096557,-0.422353662956682,0.2859168054443257,-0.860156360059951,0.0562436291805755,5.0,0.0
43.13935089111328,-16.640653610229492,-0.2193360328674316,-0.0,-0.0,-1.0,0.042028479086668,2.0,0.0
43.37660217285156,-15.181821823120115,-0.1570169925689697,-0.0,-0.0,-1.0,0.1475463283225182,1.0,0.0
43.54014587402344,-16.279428482055664,-0.2255281209945678,-0.0,-0.0,-1.0,0.0407417321741139,2.0,0.0
43.44514083862305,-16.555641174316406,-0.2341097593307495,-0.0,-0.0,-1.0,0.0545885354609429,1.0,0.0
43.68630599975586,-14.938468933105469,-0.1641712188720703,-0.1855874835388569,0.2987779537405913,-0.936103103462594,0.2070876126964766,3.0,0.0
43.85464096069336,-16.39942741394043,-0.2520464658737182,0.3730825009852944,-0.6872419671538946,-0.623304039808024,0.0372423730904419,4.0,0.0
44.01252746582031,-16.39493751525879,-0.2620093822479248,-0.322929863975965,-0.9460317747871708,-0.0272063236307365,0.028144201172278,3.0,0.0
44.209999084472656,-15.543994903564451,-0.2302017211914062,-0.7656189591732736,-0.6010693690961674,-0.2292230854184815,0.0722081097982293,5.0,0.0
44.21337890625,-16.251625061035156,-0.2675454616546631,-0.0,-0.0,-1.0,0.0138897813246665,2.0,0.0
44.44544219970703,-15.402442932128906,-0.2383534908294677,-0.0,-0.0,-1.0,0.0340481376733517,1.0,0.0
44.92182540893555,-15.153959274291992,-0.2573481798171997,-0.0,-0.0,-1.0,0.0278634012432299,1.0,0.0
42.93265914916992,-15.756902694702148,-0.1621557474136352,-0.0,-0.0,-1.0,0.0382043455162784,1.0,0.0
42.89193344116211,-16.588109970092773,-0.208448052406311,-0.0,-0.0,-1.0,0.0299079282729951,1.0,0.0
43.134010314941406,-15.2093505859375,-0.1412667036056518,-0.0,-0.0,-1.0,0.1672842623097056,1.0,0.0
43.4375114440918,-16.29422950744629,-0.2207653522491455,-0.0,-0.0,-1.0,0.0406208573315496,2.0,0.0
43.326377868652344,-16.577396392822266,-0.2311694622039795,-0.0,-0.0,-1.0,0.0609480165240667,2.0,0.0
43.671085357666016,-14.915943145751951,-0.1539640426635742,-0.5862260726732245,0.320203949442468,-0.7441830571032727,0.2158519189770991,5.0,0.0
43.36369323730469,-15.127050399780272,-0.1490606069564819,-0.4663345786884672,-0.6434297100110716,-0.6070669394675665,0.1509785518029917,3.0,0.0
43.5112419128418,-16.281856536865234,-0.224084734916687,-0.0,-0.0,-1.0,0.043454188752704,2.0,0.0
43.813011169433594,-16.417800903320312,-0.2486002445220947,-0.0,-0.0,-1.0,0.0386314675153128,2.0,0.0
44.07008361816406,-16.35977554321289,-0.2596009969711303,-0.0,-0.0,-1.0,0.0373454891792093,1.0,0.0
44.33900451660156,-15.56035041809082,-0.2288671731948852,-0.0,-0.0,-1.0,0.0683164709949495,2.0,0.0
44.26052474975586,-16.070117950439453,-0.2536472082138061,-0.0,-0.0,-1.0,0.0602047660257102,1.0,0.0
44.85976028442383,-15.169841766357422,-0.236735463142395,-0.0,-0.0,-1.0,0.0291445801656889,1.0,0.0
44.957420349121094,-15.23365592956543,-0.2461026906967163,-0.0,-0.0,-1.0,0.0496090984889981,2.0,0.0
42.931148529052734,-14.627290725708008,-0.2955681085586548,0.7774991170999748,-0.6197009597109399,-0.10707867874652,0.0318783376661884,3.0,0.0
43.27996826171875,-14.500022888183594,-0.3103280067443847,-0.0,-0.0,-1.0,0.041484939349185,1.0,0.0
43.02131652832031,-16.48756980895996,-0.2009472846984863,-0.0,-0.0,-1.0,0.0488555588593073,2.0,0.0
43.4744873046875,-16.237258911132812,-0.2092748880386352,0.8341047192525695,-0.4205420468626615,-0.3569505626009785,0.0453975568615533,3.0,0.0
43.35844039916992,-16.563007354736328,-0.2247629165649414,-0.0,-0.0,-1.0,0.0802998099391015,2.0,0.0
43.882320404052734,-16.384084701538086,-0.2427483797073364,0.5281751486692632,-0.5732174298191646,-0.6264605258751045,0.041607237814947,3.0,0.0
44.18104934692383,-15.533485412597656,-0.2037376165390014,-0.6773320746513826,0.7068589352438983,-0.2038914081424636,0.0722081097982293,5.0,0.0
44.25382995605469,-16.119552612304688,-0.2471505403518676,-0.1864897068742113,-0.7676905285657393,-0.6130846936438934,0.033329162981798,3.0,0.0
44.16177749633789,-16.26734733581543,-0.2514669895172119,-0.0,-0.0,-1.0,0.028588452162493,2.0,0.0
44.535133361816406,-15.798666000366213,-0.2430847883224487,-0.0,-0.0,-1.0,0.2101932739941534,1.0,0.0
44.95244216918945,-15.215913772583008,-0.2312362194061279,-0.0,-0.0,-1.0,0.0538880473410212,2.0,0.0
45.13572311401367,-15.53986930847168,-0.2642297744750976,-0.0,-0.0,-1.0,0.1244105396960257,1.0,0.0
42.97514343261719,-15.14826774597168,-0.1073721647262573,-0.0,-0.0,-1.0,0.1622976422428639,2.0,0.0
43.32970428466797,-15.177127838134766,-0.129447340965271,-0.0,-0.0,-1.0,0.1975670379711218,1.0,0.0
43.66607666015625,-14.88338851928711,-0.1293967962265014,-0.5834575623460393,0.3810898945155759,-0.7171804272561579,0.1745290170128144,4.0,0.0
44.44554138183594,-15.85197925567627,0.0629892349243164,-0.1455303125079317,0.8779250943135437,-0.4561452147243237,0.1611759650999112,3.0,1.0
44.751346588134766,-15.58158016204834,0.0571042299270629,-0.4451628239242113,0.8742841879644826,-0.1935386753884272,0.2027045149536658,4.0,1.0
43.380367279052734,-15.070045471191406,-0.0136511325836181,-0.0,-0.0,-1.0,0.1900072446664692,2.0,0.0
43.33975601196289,-15.240767478942873,-0.0249197483062744,-0.0,-0.0,-1.0,0.1904905649497187,1.0,0.0
43.32917022705078,-15.735332489013672,-0.0617957115173339,-0.0,-0.0,-1.0,0.1961138363339999,1.0,0.0
43.52628326416016,-16.69765281677246,-0.1418960094451904,-0.5235889668916625,0.1037069450804673,-0.8456355380962882,0.1254861353200489,3.0,0.0
43.48460006713867,-16.77981948852539,-0.1465803384780883,-0.6952483519330199,0.6662408950955103,-0.2697272675069267,0.0958069354720264,3.0,0.0
44.02218246459961,-16.634838104248047,-0.1564055681228637,-0.0,-0.0,-1.0,0.021645460639551,1.0,0.0
43.962425231933594,-16.70292091369629,-0.159111738204956,-0.0,-0.0,-1.0,0.0278759823543715,1.0,0.0
44.40399932861328,-15.744097709655762,-0.1059463024139404,-0.0,-0.0,-1.0,0.1699236238906648,2.0,0.0
44.32135009765625,-16.64463233947754,-0.1692761182785034,-0.0,-0.0,-1.0,0.0526090048495062,1.0,0.0
44.3363037109375,-16.82073402404785,-0.1830260753631591,-0.0,-0.0,-1.0,0.0491791964123315,1.0,0.0
44.7125358581543,-15.622455596923828,-0.1105810403823852,0.928089668429849,0.3511635636906972,0.123829394288363,0.1417374425019264,3.0,0.0
44.542930603027344,-16.43514633178711,-0.1630246639251709,0.3373527835623258,0.5265646135769576,-0.780335060824067,0.0519465063653122,3.0,0.0
44.68240737915039,-16.84140968322754,-0.1991413831710815,-0.0,-0.0,-1.0,0.0370328736794411,1.0,0.0
43.36050796508789,-15.20215129852295,0.0073703527450561,-0.0,-0.0,-1.0,0.2038674277183793,1.0,1.0
43.31275177001953,-16.81053352355957,-0.1142406463623046,-0.0,-0.0,-1.0,0.0712272697765063,1.0,0.0
43.64490509033203,-16.773517608642578,-0.1240512132644653,-0.0,-0.0,-1.0,0.1142267867954014,1.0,0.0
44.43942642211914,-15.779573440551758,-0.081809401512146,0.3867264481383446,-0.5472944512812877,-0.7422340856542592,0.1871550341821989,3.0,0.0
44.23490905761719,-16.694740295410156,-0.1419043540954589,0.957343866138994,0.1015524056674887,0.2705177089751979,0.0513377470190369,3.0,0.0
44.06083297729492,-16.826900482177734,-0.1447504758834839,-0.0,-0.0,-1.0,0.0350969299792971,1.0,0.0
44.81891250610352,-15.547381401062012,-0.0818023681640625,-0.0,-0.0,-1.0,0.2054579804985302,2.0,0.0
44.70069885253906,-15.60183048248291,-0.0803538560867309,0.928089668429849,0.3511635636906972,0.123829394288363,0.2037662172133344,3.0,0.0
44.5703239440918,-16.4945011138916,-0.1411851644515991,-0.0,-0.0,-1.0,0.0621934094532689,1.0,0.0
44.97381210327149,-16.82468032836914,-0.183841586112976,-0.0,-0.0,-1.0,0.0232964800189417,1.0,0.0
43.01315689086914,-15.131543159484863,-0.1726372241973877,-0.4362737814499899,-0.8907484170950352,-0.1274066131015798,0.2245396826769737,4.0,0.0
43.572845458984375,-14.960344314575195,-0.1883208751678466,-0.0,-0.0,-1.0,0.1290874581596509,1.0,0.0
43.38691711425781,-15.148754119873049,-0.1944891214370727,0.3918824605953073,0.2247939946637765,-0.8921299216150467,0.2269915092548712,3.0,0.0
42.84716796875,-16.346670150756836,-0.2729430198669433,-0.0,-0.0,-1.0,0.0291324937698746,1.0,0.0
44.217803955078125,-14.500988006591797,-0.1861575841903686,-0.0,-0.0,-1.0,0.027708081721256,1.0,0.0
43.78045272827149,-14.895464897155762,-0.1944702863693237,-0.0,-0.0,-1.0,0.1854945293509469,1.0,0.0
43.5216178894043,-15.89094352722168,-0.2677139043807983,-0.7376528622990545,0.1433137645275563,-0.6597949830356035,0.0574613917104389,4.0,0.0
43.260536193847656,-16.148517608642578,-0.2766361236572265,-0.0,-0.0,-1.0,0.0236409951852164,1.0,0.0
43.01408767700195,-16.24431037902832,-0.2722487449645996,-0.0,-0.0,-1.0,0.0297047285313095,2.0,0.0
44.25937271118164,-14.932129859924316,-0.2260260581970214,-0.0,-0.0,-1.0,0.0178508471807576,1.0,0.0
44.09383010864258,-15.217947959899902,-0.2410198450088501,-0.0,-0.0,-1.0,0.0242631107256909,2.0,0.0
43.83592224121094,-15.733570098876951,-0.2713104486465454,-0.0,-0.0,-1.0,0.0620800321667799,1.0,0.0
43.74488830566406,-15.78970432281494,-0.2711284160614013,-0.0,-0.0,-1.0,0.0967534216859058,2.0,0.0
44.90634536743164,-14.94143772125244,-0.2669218778610229,-0.0,-0.0,-1.0,0.0201119475302121,2.0,0.0
45.131893157958984,-15.118134498596191,-0.296398401260376,-0.0,-0.0,-1.0,0.0297208096921961,1.0,0.0
43.362091064453125,-15.143030166625977,-0.2039520740509033,0.1533342498247829,0.2086851289722936,-0.9658877392204996,0.1900899084201336,4.0,0.0
42.96731185913086,-15.184967041015623,-0.1821694374084472,-0.995238610568488,0.0603004359984346,0.0765765332990739,0.1914401390643808,3.0,0.0
43.68228530883789,-14.90736198425293,-0.2048114538192749,-0.0,-0.0,-1.0,0.1945830977311632,1.0,0.0
43.472557067871094,-15.561595916748049,-0.2478588819503784,-0.0,-0.0,-1.0,0.0634590356168458,1.0,0.0
43.16059494018555,-16.083200454711914,-0.2739021778106689,-0.0,-0.0,-1.0,0.0274063552681706,1.0,0.0
42.909515380859375,-16.273134231567383,-0.2753162384033203,-0.0,-0.0,-1.0,0.0328130601511834,2.0,0.0
42.74433898925781,-16.38897132873535,-0.2756416797637939,-0.0,-0.0,-1.0,0.0264244385726596,2.0,0.0
44.28835678100586,-14.77863311767578,-0.2359627485275268,-0.0,-0.0,-1.0,0.0164106843065226,2.0,0.0
44.08273696899414,-15.148576736450195,-0.2531554698944092,-0.0,-0.0,-1.0,0.0517770555015905,1.0,0.0
43.74982833862305,-15.44333267211914,-0.2558865547180176,-0.0,-0.0,-1.0,0.0696311847046717,1.0,0.0
43.63519287109375,-15.811189651489258,-0.2804446220397949,-0.0,-0.0,-1.0,0.1289285746349938,2.0,0.0
43.37126159667969,-15.992176055908203,-0.2791837453842163,-0.0,-0.0,-1.0,0.036383623806407,1.0,0.0
44.6873779296875,-15.63839340209961,0.1881804466247558,-0.0,-0.0,-1.0,0.1284694507423877,1.0,1.0
45.10359191894531,-15.34642505645752,-0.0594031810760498,-0.0,-0.0,-1.0,0.1497375074718824,1.0,0.0
45.021968841552734,-16.47768783569336,-0.1280132532119751,-0.0,-0.0,-1.0,0.0362892629210783,1.0,0.0
44.81707382202149,-16.377277374267578,-0.1061285734176635,-0.0,-0.0,-1.0,0.0497898776177875,1.0,0.0
45.107364654541016,-16.701461791992188,-0.1469305753707885,-0.0,-0.0,-1.0,0.0252963039648055,1.0,0.0
44.95701599121094,-15.487300872802734,-0.0701485872268676,-0.0,-0.0,-1.0,0.1357167487744228,2.0,0.0
44.65462112426758,-15.638053894042969,-0.0534387826919555,-0.0,-0.0,-1.0,0.1574273731681829,2.0,0.0
44.57459259033203,-15.560404777526855,-0.1309640407562255,-0.0,-0.0,-1.0,0.1838459224067438,1.0,0.0
44.982421875,-16.277359008789062,-0.212237000465393,-0.0,-0.0,-1.0,0.0888102065108517,1.0,0.0
44.77748107910156,-16.214092254638672,-0.2010159492492675,-0.0,-0.0,-1.0,0.0797499329780928,1.0,0.0
44.63238525390625,-16.393512725830078,-0.2156587839126587,-0.0,-0.0,-1.0,0.0561783134194377,1.0,0.0
44.273338317871094,-16.315217971801758,-0.1998422145843505,-0.0,-0.0,-1.0,0.0205651949674675,1.0,0.0
43.85699844360352,-16.368186950683594,-0.1967396736145019,-0.0,-0.0,-1.0,0.0424770406613064,2.0,0.0
44.73820495605469,-16.436460494995117,-0.1189005374908447,-0.0,-0.0,-1.0,0.0529188456616916,1.0,0.0
45.1381721496582,-16.77320098876953,-0.1598048210144043,-0.0,-0.0,-1.0,0.0205083448373496,2.0,0.0
44.93660736083984,-15.491485595703123,-0.0381978750228881,-0.0,-0.0,-1.0,0.1758520638485937,2.0,0.0
44.54796600341797,-15.700663566589355,-0.0468610525131225,-0.3142209803087693,-0.7924346678328967,-0.5227929539983897,0.1975470953535518,3.0,0.0
44.77925109863281,-16.307235717773438,-0.1826033592224121,-0.0,-0.0,-1.0,0.046748641324692,1.0,0.0
44.672706604003906,-16.347293853759766,-0.181571364402771,-0.0,-0.0,-1.0,0.0486784082597016,1.0,0.0
43.99161529541016,-16.5169620513916,-0.1689028739929199,-0.0,-0.0,-1.0,0.0385870509561677,1.0,0.0
43.82936477661133,-16.51390838623047,-0.162378191947937,-0.0,-0.0,-1.0,0.0454090228022665,1.0,0.0
44.611785888671875,-16.44572639465332,-0.1876312494277954,-0.0,-0.0,-1.0,0.0622275942466805,2.0,0.0
44.24090194702149,-16.5850887298584,-0.1847306489944458,-0.0,-0.0,-1.0,0.0520345688727538,2.0,0.0
43.75914001464844,-16.639774322509766,-0.1709350347518921,-0.21157514040694,0.0525178995599935,-0.975949706792102,0.0605128353102677,3.0,0.0
44.74821472167969,-16.807859420776367,-0.2246710062026977,-0.0,-0.0,-1.0,0.0334827830475817,1.0,0.0
43.18098831176758,-14.523130416870115,0.0031896829605102,-0.0,-0.0,-1.0,0.0965128090746541,1.0,1.0
43.630001068115234,-14.88920783996582,-0.0479671955108642,-0.0,-0.0,-1.0,0.1364011442092099,1.0,0.0
43.06565856933594,-14.89210033416748,0.0286465883255004,-0.0,-0.0,-1.0,0.1157885941594175,1.0,1.0
43.788665771484375,-15.234573364257812,-0.0603119134902954,-0.0,-0.0,-1.0,0.1746169337906765,1.0,0.0
43.70883560180664,-15.55615234375,-0.0408529043197631,-0.0,-0.0,-1.0,0.1050251793963969,1.0,0.0
43.61609649658203,-15.829145431518556,-0.0208656787872314,-0.0,-0.0,-1.0,0.2297352881582912,1.0,0.0
43.53823471069336,-16.004478454589844,-0.0054762363433837,-0.0,-0.0,-1.0,0.2058772109506522,1.0,0.0
43.56012725830078,-14.764456748962402,0.4735491275787353,-0.0,-0.0,-1.0,0.2354381230001221,1.0,1.0
44.93702697753906,-15.250587463378906,0.349838376045227,-0.0,-0.0,-1.0,0.1292284525874399,2.0,1.0
44.67775344848633,-15.409652709960938,0.384640634059906,-0.0,-0.0,-1.0,0.0801170478297684,1.0,1.0
42.72679901123047,-15.051098823547363,-0.4028284549713135,-0.0,-0.0,-1.0,0.08032495817968,1.0,0.0
44.6483268737793,-15.67585563659668,-0.1342347860336303,0.1234129518358686,0.5796860328491883,-0.8054398466916864,0.1893004530457898,4.0,0.0
45.03120422363281,-15.433008193969728,-0.1926270723342895,-0.0,-0.0,-1.0,0.213076012134279,1.0,0.0
43.00788879394531,-16.112878799438477,-0.3895661830902099,-0.0,-0.0,-1.0,0.023495244854303,1.0,0.0
44.82436752319336,-15.527894020080566,-0.0553315877914428,-0.0,-0.0,-1.0,0.2052698668667016,2.0,0.0
43.09034729003906,-16.17776870727539,-0.270427942276001,-0.0,-0.0,-1.0,0.0308848848922945,1.0,0.0
43.12202453613281,-16.02509307861328,-0.2755311727523803,-0.0,-0.0,-1.0,0.0185399459717107,2.0,0.0
43.23744201660156,-14.6921968460083,-0.307241678237915,-0.0,-0.0,-1.0,0.0383938900284535,1.0,0.0
44.83171463012695,-15.56806468963623,0.0261080265045166,-0.0451211780452514,0.6033610398774994,-0.7961906397652208,0.1688857891055975,6.0,1.0
44.81047821044922,-15.525547981262209,0.0414848327636718,0.3554177479538244,0.464619297585423,-0.8110531010671617,0.1774044697949427,5.0,1.0
44.486328125,-15.813207626342772,0.1135083436965942,0.4361107583986398,0.0233727035204048,-0.8995894192013996,0.2542831394944068,3.0,1.0
44.835262298583984,-15.588441848754885,0.0844439268112182,0.6416226443845455,0.6753154602827734,-0.3636886186231965,0.2017440280733606,3.0,1.0
42.948123931884766,-16.43392562866211,-0.2113528251647949,-0.0,-0.0,-1.0,0.0289153283840485,1.0,0.0
43.35317611694336,-16.358606338500977,-0.2222200632095337,-0.0,-0.0,-1.0,0.0437541728536592,1.0,0.0
43.59370803833008,-16.152931213378906,-0.2231582403182983,-0.0,-0.0,-1.0,0.0333965676286868,2.0,0.0
43.673194885253906,-16.243741989135742,-0.229034423828125,-0.0,-0.0,-1.0,0.0256562912554515,1.0,0.0
44.025489807128906,-16.315994262695312,-0.243571400642395,-0.0,-0.0,-1.0,0.0298851464118037,1.0,0.0
44.28569412231445,-15.524856567382812,-0.2256327867507934,-0.0,-0.0,-1.0,0.0736210075053715,1.0,0.0
44.42092514038086,-15.816083908081056,-0.2402153015136718,-0.7798844710267886,-0.4066416640930027,0.4758390157132346,0.2180663097395274,3.0,0.0
44.4979133605957,-16.049179077148438,-0.2508069276809692,-0.0,-0.0,-1.0,0.0673964181833409,1.0,0.0
44.62272644042969,-14.828994750976562,-0.2145496606826782,-0.0,-0.0,-1.0,0.0287519826860623,1.0,0.0
44.453155517578125,-15.25831413269043,-0.2226430177688598,-0.0,-0.0,-1.0,0.0150148115965144,1.0,0.0
43.0256462097168,-15.86809253692627,-0.2701390981674194,-0.0,-0.0,-1.0,0.0193833576917308,1.0,0.0
43.584510803222656,-14.611519813537598,-0.2764354944229126,-0.0,-0.0,-1.0,0.085746566881187,1.0,0.0
42.99044418334961,-15.783533096313477,-0.3144041299819946,-0.0,-0.0,-1.0,0.0429675345200342,1.0,0.0
42.9520149230957,-15.655414581298828,-0.3116921186447143,-0.0,-0.0,-1.0,0.0178817172219495,1.0,0.0
42.78428649902344,-15.028133392333984,-0.2829416990280151,-0.0,-0.0,-1.0,0.1050050886816464,1.0,0.0
43.125614166259766,-15.751080513000488,-0.3123276233673095,-0.0,-0.0,-1.0,0.0458775758387069,1.0,0.0
42.983158111572266,-16.40052604675293,-0.2571468353271484,-0.0,-0.0,-1.0,0.0321614143277934,1.0,0.0
43.03038024902344,-15.132563591003418,-0.2191343307495117,-0.3735152680143693,-0.879370805035351,-0.2952851703212213,0.1914401390643808,5.0,0.0
43.39457702636719,-15.155277252197266,-0.2512822151184082,-0.0,-0.0,-1.0,0.2555872301491034,2.0,0.0
43.665802001953125,-15.78716278076172,-0.2949979305267334,-0.0,-0.0,-1.0,0.1133307039171297,2.0,0.0
43.55648040771485,-15.964670181274414,-0.2914166450500488,-0.0,-0.0,-1.0,0.0655917065255617,2.0,0.0
43.94359588623047,-14.758318901062012,-0.2865333557128906,-0.0,-0.0,-1.0,0.1663532837777908,1.0,0.0
43.86456680297851,-15.303104400634766,-0.2966387271881103,-0.0,-0.0,-1.0,0.0663343893868721,1.0,0.0
44.07013702392578,-14.529290199279783,-0.2905983924865722,-0.0,-0.0,-1.0,0.0473438637102396,1.0,0.0
44.78069305419922,-15.587072372436523,0.1205488443374633,-0.3385350298330094,0.7994526468169924,0.4962554776254554,0.1998110460222208,3.0,1.0
44.94835662841797,-15.600116729736328,0.1076787710189819,-0.0,-0.0,-1.0,0.1552559008834785,1.0,1.0
43.232078552246094,-15.182607650756836,0.2441831827163696,-0.0,-0.0,-1.0,0.1734059706328169,1.0,1.0
44.919921875,-15.480085372924805,0.042936086654663,-0.0,-0.0,-1.0,0.2177718560076421,1.0,1.0
44.851463317871094,-15.532682418823242,0.0518144369125366,-0.0266668709198009,0.6629592793284624,-0.7481803739390873,0.1635322552217344,6.0,1.0
44.9130859375,-16.82217788696289,-0.1653704643249511,-0.0,-0.0,-1.0,0.0281420130716818,1.0,0.0
45.18242645263672,-15.941542625427246,-0.1813938617706298,-0.0,-0.0,-1.0,0.0920952448570228,1.0,0.0
43.790809631347656,-14.95859146118164,-0.0359811782836914,-0.0,-0.0,-1.0,0.169231042901937,1.0,0.0
44.24407196044922,-16.758193969726562,-0.1004680395126342,-0.6162339100257911,-0.2431911957218943,-0.7490753035961609,0.049663579689548,3.0,0.0
44.47698211669922,-15.736926078796388,-0.1107945442199707,-0.966129555628207,-0.2569601019058657,0.0237736780951176,0.255899137380053,5.0,0.0
44.628273010253906,-14.97251796722412,-0.1177780628204345,-0.0,-0.0,-1.0,0.0291552828409164,1.0,0.0
44.72524642944336,-16.50338363647461,-0.1434774398803711,0.3506930345892374,-0.5136526090634373,-0.7830551658043742,0.0497511321428305,4.0,0.0
45.02857208251953,-15.295181274414062,-0.1599435806274414,-0.0,-0.0,-1.0,0.1639925176801394,1.0,0.0
45.10951232910156,-15.617942810058594,-0.1709897518157959,-0.0,-0.0,-1.0,0.1177374539078243,1.0,0.0
43.55801010131836,-15.144105911254885,0.2311035394668579,-0.0,-0.0,-1.0,0.1311813553263454,1.0,1.0
44.59958267211914,-15.737262725830078,0.1348375082015991,-0.0,-0.0,-1.0,0.1163666950349301,2.0,1.0
44.84424591064453,-15.57833480834961,0.1190601587295532,0.6416226443845455,0.6753154602827734,-0.3636886186231965,0.2537536264356015,3.0,1.0
43.237510681152344,-15.040966033935549,0.1982111930847168,-0.0,-0.0,-1.0,0.2424321476503481,1.0,1.0
44.84654998779297,-15.388851165771484,0.0528819561004638,-0.0,-0.0,-1.0,0.1790459057353707,1.0,1.0
44.55720138549805,-15.64219856262207,0.0719968080520629,-0.0,-0.0,-1.0,0.1145058666168093,1.0,1.0
44.95374298095703,-15.359918594360352,0.0443165302276611,-0.0,-0.0,-1.0,0.1632791627575628,2.0,1.0
44.37910461425781,-15.875082969665527,0.0803700685501098,-0.0,-0.0,-1.0,0.1720213045305585,2.0,1.0
44.82367706298828,-15.646089553833008,0.0527751445770263,-0.0,-0.0,-1.0,0.1564079080120839,2.0,1.0
43.695831298828125,-16.377643585205078,-0.1558859348297119,-0.0,-0.0,-1.0,0.041542968565542,1.0,0.0
44.15848159790039,-16.358617782592773,-0.203934907913208,-0.0,-0.0,-1.0,0.0246811529955705,1.0,0.0
43.725486755371094,-16.531360626220703,-0.1610994338989257,-0.0,-0.0,-1.0,0.0493993951364312,2.0,0.0
43.728057861328125,-16.606929779052734,-0.1624293327331543,-0.3465763206933822,-0.2476056914485056,-0.904752051944037,0.0665412848839174,4.0,0.0
44.38871383666992,-16.266504287719727,-0.2267584800720214,-0.0,-0.0,-1.0,0.0140352680555568,2.0,0.0
43.37027740478515,-16.83173179626465,0.046854019165039,-0.0,-0.0,-1.0,0.0944741283688059,1.0,1.0
44.25306701660156,-16.674129486083984,-0.0712437629699707,-0.0,-0.0,-1.0,0.0504706541915936,2.0,0.0
44.441925048828125,-16.59476089477539,-0.0993618965148925,-0.0,-0.0,-1.0,0.0419390017151698,1.0,0.0
44.7467155456543,-16.745943069458008,-0.127357006072998,-0.0,-0.0,-1.0,0.0363389317215354,1.0,0.0
44.697776794433594,-16.317867279052734,-0.1481189727783203,-0.0,-0.0,-1.0,0.0480842544317852,2.0,0.0
45.086910247802734,-16.50507926940918,-0.1841053962707519,-0.0,-0.0,-1.0,0.038000637463421,2.0,0.0
43.542327880859375,-16.671266555786133,0.0362224578857421,-0.0,-0.0,-1.0,0.1843791437791226,1.0,1.0
43.66148376464844,-16.74156379699707,0.0268192291259765,-0.0,-0.0,-1.0,0.142449010726846,1.0,1.0
43.256500244140625,-14.99441146850586,-0.0599775314331054,-0.0,-0.0,-1.0,0.2445950222016936,1.0,0.0
44.36521911621094,-16.574430465698242,-0.0721457004547119,-0.0,-0.0,-1.0,0.0487331011771604,1.0,0.0
44.81636047363281,-16.797626495361328,-0.1109504699707031,-0.0,-0.0,-1.0,0.0324020599020802,1.0,0.0
44.740333557128906,-16.334949493408203,-0.1363170146942138,-0.0,-0.0,-1.0,0.0480842544317852,2.0,0.0
43.82124328613281,-14.712421417236328,-0.1523189544677734,-0.0,-0.0,-1.0,0.1664495252058167,1.0,0.0
44.41090393066406,-15.254984855651855,-0.1802926063537597,-0.0,-0.0,-1.0,0.0214128748906386,1.0,0.0
44.54634094238281,-15.453460693359377,-0.1810328960418701,-0.0,-0.0,-1.0,0.0333314752983676,1.0,0.0
45.058197021484375,-15.707752227783203,-0.223733901977539,-0.0,-0.0,-1.0,0.0763999469552664,1.0,0.0
44.35489654541016,-14.387357711791992,-0.2446691989898681,0.4771266082740167,0.8702966988815838,-0.1222041553825016,0.0207786184471734,3.0,0.0
44.594764709472656,-15.009031295776367,-0.2226793766021728,-0.0,-0.0,-1.0,0.0364467565181236,1.0,0.0
44.717811584472656,-15.190150260925291,-0.2231011390686035,-0.0,-0.0,-1.0,0.0271719514574585,1.0,0.0
44.489013671875,-15.666236877441406,0.169546365737915,-0.0,-0.0,-1.0,0.1075828580715225,1.0,1.0
44.78631210327149,-15.412653923034668,0.1167778968811035,-0.0,-0.0,-1.0,0.2294248426809742,1.0,1.0
43.327884674072266,-16.720291137695312,-0.1059095859527587,-0.0,-0.0,-1.0,0.0542633946943348,1.0,0.0
43.5230712890625,-16.668441772460938,-0.1363248825073242,0.8227060537943153,0.1924769179875684,-0.5348900682310265,0.1204302072149192,3.0,0.0
43.680931091308594,-16.487247467041016,-0.1709311008453369,-0.0,-0.0,-1.0,0.0532457914759582,2.0,0.0
43.986629486083984,-15.903084754943848,-0.2559318542480469,-0.0,-0.0,-1.0,0.0205735913246971,1.0,0.0
44.104766845703125,-16.070472717285156,-0.2595424652099609,-0.0,-0.0,-1.0,0.027836036698367,1.0,0.0
44.006221771240234,-15.592777252197266,-0.2823390960693359,-0.0,-0.0,-1.0,0.0311617468854611,1.0,0.0
43.050323486328125,-15.027484893798828,-0.1965572834014892,-0.0,-0.0,-1.0,0.1255412310227751,1.0,0.0
43.236083984375,-15.079914093017578,-0.217646837234497,-0.0,-0.0,-1.0,0.2271169504857285,1.0,0.0
43.82195663452149,-15.195523262023926,-0.2883508205413818,-0.0,-0.0,-1.0,0.0618859931684593,1.0,0.0
43.97198486328125,-15.361281394958496,-0.2956881523132324,-0.0,-0.0,-1.0,0.029739702182545,1.0,0.0
43.668731689453125,-14.549015045166016,-0.320340633392334,-0.0,-0.0,-1.0,0.0868850006249981,1.0,0.0
