x,y,z,nx,ny,nz,curvature,density,label
4.352178573608398,10.176435470581056,0.4221960306167602,-0.0,-0.0,-1.0,0.1648695644789313,1.0,1.0
4.366693496704102,10.358612060546877,0.262744665145874,-0.2420611379730345,-0.832389326585692,0.4985322602093247,0.1448772104843368,5.0,1.0
4.448549270629883,9.833267211914062,0.249433159828186,-0.0,-0.0,-1.0,0.1646077724958684,1.0,1.0
4.348447799682617,10.167341232299805,0.5399317145347595,-0.0,-0.0,-1.0,0.2588100697720117,2.0,1.0
4.636178970336914,8.737668991088867,0.0908108949661254,-0.0,-0.0,-1.0,0.161666324735408,2.0,1.0
4.635599136352539,8.634258270263672,0.0874199867248535,-0.0,-0.0,-1.0,0.1277611887114413,1.0,1.0
4.593385696411133,8.687076568603516,0.0650832653045654,-0.0,-0.0,-1.0,0.1468997023564902,2.0,1.0
4.42424201965332,10.233057975769045,0.122241735458374,-0.721197097919269,0.5945988397202904,0.355425049421265,0.2497379506842065,3.0,1.0
4.18256950378418,10.078325271606444,0.1085277795791626,-0.0,-0.0,-1.0,0.2282581132760176,2.0,1.0
4.734066009521484,9.269426345825195,0.1055346727371215,-0.2136777659834936,-0.5730286173460724,-0.7911889888179384,0.2132209934777104,3.0,1.0
4.6909332275390625,8.781286239624023,0.089255690574646,-0.0,-0.0,-1.0,0.1804735829628654,2.0,1.0
4.376708984375,10.25711727142334,0.3904191851615906,0.1131466091464082,0.1012149446396383,-0.988409520300298,0.2399726220326856,6.0,1.0
4.242816925048828,10.467466354370115,0.3924333453178406,-0.8032432848939237,0.571479997715277,0.1679608212773612,0.2389469059307115,4.0,1.0
4.286291122436523,10.151494979858398,0.4939582347869873,-0.0,-0.0,-1.0,0.1912625445603181,2.0,1.0
4.261463165283203,10.364784240722656,0.5006618499755859,-0.0,-0.0,-1.0,0.2057222090234366,2.0,1.0
4.187768936157227,10.545228004455566,0.6711223125457764,-0.0,-0.0,-1.0,0.1777109452466852,2.0,1.0
4.275600433349609,10.231929779052734,0.6546961665153503,-0.0,-0.0,-1.0,0.2305959290761227,1.0,1.0
4.345790863037109,9.998184204101562,0.6424399614334106,-0.0,-0.0,-1.0,0.18032571830923,1.0,1.0
4.116611480712891,10.50188446044922,0.6071487069129944,-0.0,-0.0,-1.0,0.2319190880679004,1.0,1.0
4.261814117431641,10.160266876220703,0.5885371565818787,-0.0,-0.0,-1.0,0.1942217852070221,2.0,1.0
4.399082183837891,10.521514892578123,0.2258014678955078,-0.0,-0.0,-1.0,0.2361590184010929,2.0,1.0
4.390192031860352,10.32851791381836,0.2149680852890014,0.7459282940465244,0.2539277927910697,-0.6157204367154767,0.1731351787616592,3.0,1.0
4.543895721435547,9.879257202148438,0.1956406831741333,-0.0,-0.0,-1.0,0.2134113675947459,2.0,1.0
4.33051872253418,10.634925842285156,0.3181490898132324,-0.0,-0.0,-1.0,0.0978395217896393,1.0,1.0
4.335638046264648,10.347034454345703,0.306551456451416,-0.6526911470634046,-0.4098556631403715,-0.6371911816219868,0.2107979306967258,3.0,1.0
4.335239410400391,10.19405746459961,0.3001836538314819,-0.0,-0.0,-1.0,0.264550267775468,2.0,1.0
4.236183166503906,10.584772109985352,0.4628899693489074,-0.8843782452323372,-0.0193174775721467,0.4663710480079365,0.1039814736977768,4.0,1.0
4.384637832641602,10.25219440460205,0.4491196274757385,-0.0,-0.0,-1.0,0.1520556182784596,2.0,1.0
4.416341781616211,10.0560302734375,0.4391005039215088,-0.0,-0.0,-1.0,0.1974990167110099,1.0,1.0
5.170156478881836,8.368785858154297,-0.0368400812149047,-0.0,-0.0,-1.0,0.091440668394272,1.0,0.0
4.201395034790039,10.449939727783203,0.7113479971885681,-0.0,-0.0,-1.0,0.2631103869008092,2.0,1.0
4.444419860839844,10.156364440917969,0.6967620849609375,-0.0,-0.0,-1.0,0.2029593575534978,2.0,1.0
4.2840118408203125,10.176856994628906,0.4932917356491089,-0.4841289820247331,-0.0664366510636432,-0.8724708018949076,0.173945071958972,3.0,1.0
4.375593185424805,10.012725830078123,0.4875880479812622,-0.0,-0.0,-1.0,0.2282259319401055,1.0,1.0
4.396537780761719,10.395929336547852,0.1214549541473388,-0.2945084407113822,0.8748495911424269,0.3845815534157596,0.1548127288765628,3.0,1.0
4.542079925537109,10.076899528503418,0.1241728067398071,-0.0,-0.0,-1.0,0.1839435220239309,1.0,1.0
4.470605850219727,9.717479705810549,0.1105602979660034,-0.0,-0.0,-1.0,0.1373928685663411,1.0,1.0
4.742884635925293,9.426875114440918,0.1207102537155151,-0.0,-0.0,-1.0,0.2128467303571379,1.0,1.0
4.655832290649414,8.796485900878906,0.0957192182540893,-0.0,-0.0,-1.0,0.1732923074279538,2.0,1.0
5.036801338195801,9.945501327514648,0.1541343927383422,-0.0,-0.0,-1.0,0.1241018287684658,1.0,1.0
4.896036148071289,9.917373657226562,0.1440185308456421,-0.2256191040363616,0.4775385934999233,-0.8491483448797066,0.2309235232796927,3.0,1.0
4.465143203735352,10.405233383178713,0.7018653154373169,-0.0,-0.0,-1.0,0.2556852142376243,2.0,1.0
4.354597091674805,10.15342903137207,0.694251298904419,-0.0,-0.0,-1.0,0.2333053890497733,1.0,1.0
4.299527168273926,10.300643920898438,0.121913194656372,-0.5179187587302414,0.828418310972686,0.2132680505853792,0.216400714234391,3.0,1.0
4.285962104797363,10.054595947265623,0.1091700792312622,-0.0,-0.0,-1.0,0.2221529660052867,2.0,1.0
4.647178649902344,9.93355941772461,0.1263245344161987,-0.0,-0.0,-1.0,0.1659152827599631,2.0,1.0
4.901752471923828,9.916083335876465,0.1417740583419799,-0.2256191040363616,0.4775385934999233,-0.8491483448797066,0.2309235232796927,3.0,1.0
4.710977554321289,9.291980743408203,0.0954349040985107,0.0806935521041721,-0.2982516765727582,-0.9510701804127548,0.1741505066208718,4.0,1.0
4.982599258422852,9.874576568603516,0.144798994064331,-0.0,-0.0,-1.0,0.180744837109618,1.0,1.0
4.424043655395508,10.379963874816896,0.6851447820663452,-0.3862263388731583,0.2875798253330269,-0.8764285819289908,0.2448374437030115,3.0,1.0
4.4447174072265625,9.981313705444336,-0.00657320022583,-0.0,-0.0,-1.0,0.2464842714430986,1.0,0.0
4.294495582580566,9.545589447021484,0.0008429288864135,-0.0,-0.0,-1.0,0.0726248254964799,2.0,1.0
4.853498458862305,9.923852920532228,0.0312097072601318,-0.0,-0.0,-1.0,0.146595787624475,1.0,1.0
4.663956642150879,9.381211280822754,0.0393005609512329,-0.0,-0.0,-1.0,0.1979958359818721,2.0,1.0
4.549319267272949,8.886232376098633,0.048557162284851,-0.0,-0.0,-1.0,0.2002334470678536,1.0,1.0
4.2488203048706055,10.612231254577637,0.4864182472229004,-0.8793665567196058,-0.0032754036030137,0.4761341519512558,0.0923139693500349,3.0,1.0
4.363870620727539,10.326227188110352,0.5085991621017456,0.7400528657037941,-0.5231529744128615,-0.4226496437080932,0.2492122448305696,4.0,1.0
4.30206298828125,10.24240493774414,0.5100463628768921,0.0323645396462791,0.8567686337466017,-0.5146844128215516,0.1920159043947546,4.0,1.0
4.44655704498291,10.384170532226562,0.509597897529602,-0.0,-0.0,-1.0,0.1615307486075927,1.0,1.0
4.4477081298828125,10.175647735595703,0.521081805229187,-0.0,-0.0,-1.0,0.2154696194858139,1.0,1.0
4.885838508605957,9.414012908935549,-0.0675764083862304,-0.1822055116577161,0.0987471793116061,-0.978289397928625,0.081068981903751,3.0,0.0
4.8507232666015625,8.56961441040039,-0.0736308097839355,-0.0,-0.0,-1.0,0.1277942860329902,1.0,0.0
4.790325164794922,8.244178771972656,-0.0821707248687744,-0.0,-0.0,-1.0,0.0581893247018468,2.0,0.0
5.064565658569336,9.306838989257812,-0.0511183738708496,0.3737987300635668,-0.1506695763357883,-0.9151902469812814,0.1574376698202032,3.0,0.0
5.122774124145508,9.23732852935791,-0.0458265542984008,-0.0,-0.0,-1.0,0.124095420031804,1.0,0.0
5.008648872375488,8.649791717529297,-0.058701753616333,-0.0,-0.0,-1.0,0.1514371322701206,1.0,0.0
4.276730537414551,10.237703323364258,0.4137269258499145,-0.0,-0.0,-1.0,0.2051951463857755,1.0,1.0
5.186854362487793,8.241881370544434,-0.1103961467742919,-0.0,-0.0,-1.0,0.0717829896266764,1.0,0.0
4.3227643966674805,10.413896560668944,0.3572613000869751,-0.4916341085430937,-0.8689829217925606,0.0562546438074413,0.1370660222488211,3.0,1.0
4.315927505493164,10.189123153686523,0.3587276339530945,-0.2936711964122648,-0.8569471555834138,-0.4235549562161743,0.2872355102347794,3.0,1.0
4.449060440063477,8.91554069519043,0.1203645467758178,-0.0,-0.0,-1.0,0.1458378505840326,1.0,1.0
4.41940975189209,10.594517707824709,0.0672534704208374,-0.0,-0.0,-1.0,0.2423699339493403,2.0,1.0
4.37493896484375,10.316182136535645,0.0735552310943603,-0.0,-0.0,-1.0,0.1817819807616931,2.0,1.0
4.89859676361084,9.89356803894043,0.1299505233764648,-0.3533258928258753,0.4662881213621895,-0.8110093719158353,0.2214130781376869,4.0,1.0
4.271991729736328,10.168354034423828,0.1153837442398071,0.7716435223258166,0.3483896106149285,-0.5321568882089057,0.1871798402560079,3.0,1.0
4.360926628112793,9.960083961486816,0.1292318105697631,-0.0,-0.0,-1.0,0.2477911528657376,2.0,1.0
4.345024108886719,10.449453353881836,0.1105846166610717,0.8206443972820989,-0.0390663457734613,-0.5701022661219732,0.2590162999712228,4.0,1.0
4.613378524780273,9.925058364868164,0.1494734287261963,-0.2593615966989136,-0.4283385886242088,-0.8655966818635632,0.2142636296403678,6.0,1.0
4.788337707519531,9.885631561279297,0.163969874382019,-0.0,-0.0,-1.0,0.169993297261824,2.0,1.0
4.204946517944336,10.13696575164795,0.6638205051422119,-0.0,-0.0,-1.0,0.182854115843293,1.0,1.0
4.459195137023926,10.367383003234863,0.6655260324478149,-0.53714106555676,-0.2396483677030254,-0.8087324251876045,0.2556852142376243,3.0,1.0
5.208036422729492,8.401086807250977,-0.1104825735092163,-0.0,-0.0,-1.0,0.0825574118546458,1.0,0.0
4.176990509033203,9.796128273010254,0.0438241958618164,-0.0,-0.0,-1.0,0.0917132677126148,1.0,1.0
4.434543609619141,10.12782859802246,0.0526572465896606,-0.0,-0.0,-1.0,0.2046362179875208,1.0,1.0
4.3695831298828125,10.01618766784668,0.0505517721176147,-0.0,-0.0,-1.0,0.2565715842711076,2.0,1.0
4.710605621337891,9.631539344787598,0.0646893978118896,-0.0,-0.0,-1.0,0.1296979981379701,1.0,1.0
4.336753845214844,10.54168701171875,0.2282687425613403,-0.0,-0.0,-1.0,0.2057557252419142,2.0,1.0
4.328559875488281,10.306100845336914,0.2300196886062622,-0.1403557323705554,0.0255019583986647,-0.9897726600126706,0.2283023369447324,3.0,1.0
4.783653259277344,9.850107192993164,0.0394693613052368,0.5308093119514719,0.0795374208629837,-0.8437507173496621,0.1319779004614227,3.0,1.0
4.6940765380859375,9.259994506835938,0.0379329919815063,-0.1818063544281411,-0.854293124583867,-0.486959656212178,0.1682876238740464,3.0,1.0
4.971199035644531,9.896995544433594,0.0342470407485961,-0.0,-0.0,-1.0,0.1330605746028253,1.0,1.0
4.401302337646484,10.557328224182127,0.2440170049667358,0.5777930093412337,0.341278858141476,-0.741406757011326,0.27045018861916,3.0,1.0
4.691066741943359,10.058209419250488,-0.0014452934265136,-0.0,-0.0,-1.0,0.1254001596772418,1.0,0.0
5.081207275390625,10.022337913513184,0.0180773735046386,-0.9713540448667524,0.1754354148854078,-0.1602926533718376,0.1311494595665067,3.0,1.0
4.387639999389648,10.439465522766112,0.1557719707489013,0.4623421011786306,-0.2252036191060251,-0.8576264404851784,0.2306634329702925,5.0,1.0
4.483097076416016,10.609840393066406,0.2948409914970398,-0.0,-0.0,-1.0,0.1067080306661879,2.0,1.0
4.343446731567383,10.503074645996094,0.3694599866867065,-0.0,-0.0,-1.0,0.2062051809571352,2.0,1.0
4.617733001708984,8.743193626403809,-0.0131623744964599,-0.0,-0.0,-1.0,0.1316815861445937,2.0,0.0
5.202239990234375,10.207462310791016,-0.0597209930419921,-0.0,-0.0,-1.0,0.1436630507365191,1.0,0.0
5.201452255249023,9.944622039794922,-0.0299608707427978,-0.0,-0.0,-1.0,0.1560028511976697,1.0,0.0
4.425048828125,10.467409133911133,0.0329146385192871,-0.0,-0.0,-1.0,0.2412017418109799,2.0,1.0
4.35481071472168,10.363353729248049,0.0317161083221435,-0.0,-0.0,-1.0,0.1950481242485955,1.0,1.0
5.003055572509766,9.716290473937988,0.0766777992248535,-0.0,-0.0,-1.0,0.2066481871225443,2.0,1.0
5.065832138061523,10.629949569702148,0.0604177713394165,-0.0,-0.0,-1.0,0.1518804451089476,1.0,1.0
4.79328727722168,9.654851913452148,0.0677745342254638,-0.0,-0.0,-1.0,0.2241112874395424,1.0,1.0
4.605890274047852,9.102399826049805,0.0699737071990966,-0.0,-0.0,-1.0,0.159521298789175,1.0,1.0
4.41313362121582,10.04887580871582,0.0411449670791626,-0.0,-0.0,-1.0,0.2741095456130981,2.0,1.0
4.365966796875,10.229860305786133,0.0350687503814697,0.345850054650382,0.9381787660928196,0.0144340760314596,0.2542304327204011,3.0,1.0
4.392784118652344,10.234895706176758,0.3804279565811157,-0.2947067120384882,0.1611752432308571,-0.941897284659499,0.2343007268170242,6.0,1.0
4.184877395629883,10.529726028442385,0.3872995972633362,-0.838406135656387,-0.5306131712276735,-0.1245986124057387,0.2072447738515,3.0,1.0
4.306816101074219,10.20914077758789,0.3245448470115661,-0.6201265245446216,-0.7377611632138563,-0.2667424968195839,0.2726034321528916,3.0,1.0
4.387474060058594,10.181739807128906,0.5533139705657959,0.6330958819646771,0.5306324119385204,-0.5635768338387198,0.2473348659829783,5.0,1.0
4.179040908813477,10.489578247070312,0.550999104976654,-0.0,-0.0,-1.0,0.2254871496423665,1.0,1.0
4.366203308105469,10.550199508666992,0.4638094305992126,-0.0,-0.0,-1.0,0.148733489652244,2.0,1.0
4.324087142944336,10.21946620941162,0.4548510313034057,-0.5701156735192979,-0.518140377163557,-0.6375724808682102,0.1573362355323439,3.0,1.0
4.335048675537109,10.246270179748535,0.4232662916183471,0.988212797130824,0.1191590390037125,0.0961071850101991,0.2088809861930203,4.0,1.0
4.310486793518066,10.208137512207031,0.4762189984321594,0.809526827130427,-0.3398676749567206,0.4787027048969503,0.1699943746373648,4.0,1.0
4.336845397949219,10.252317428588867,0.3526363968849182,-0.73425251207144,-0.5688359789035786,-0.3705386317532723,0.2192877369450628,4.0,1.0
4.169130325317383,10.557589530944824,0.3746004104614258,-0.8646485397704249,-0.4972183550722008,0.0718109326785748,0.2218625852446606,4.0,1.0
4.943476676940918,9.4010648727417,-0.089619755744934,-0.0,-0.0,-1.0,0.0864127878051497,1.0,0.0
4.958522796630859,9.207036972045898,-0.1082669496536254,-0.0,-0.0,-1.0,0.1195564138927169,2.0,0.0
4.279345512390137,10.234774589538574,0.5204699635505676,-0.0,-0.0,-1.0,0.1886981777483463,2.0,1.0
4.246417045593262,10.344398498535156,0.5285859107971191,0.9270376960476618,-0.1552756200786402,0.3413071811665216,0.2248057862430552,4.0,1.0
5.181711196899414,9.57634162902832,-0.08310067653656,-0.0,-0.0,-1.0,0.0967266795179689,1.0,0.0
5.037957191467285,9.566329956054688,-0.0922489166259765,-0.0,-0.0,-1.0,0.1579714563598946,1.0,0.0
4.22469425201416,10.554930686950684,0.4383359551429748,-0.0,-0.0,-1.0,0.1415381138464374,2.0,1.0
4.29062557220459,10.295210838317873,0.4269165992736816,-0.0,-0.0,-1.0,0.234999425851804,2.0,1.0
4.394304275512695,10.218944549560549,0.0655807256698608,0.0011688019121376,0.874092072447797,-0.4857588730903478,0.2226830753407809,7.0,1.0
5.163239479064941,9.872787475585938,0.0317627191543579,-0.0,-0.0,-1.0,0.1676023376682849,2.0,1.0
5.172905921936035,9.642430305480955,0.0011472702026367,-0.0,-0.0,-1.0,0.1402501418772107,1.0,1.0
4.99683952331543,9.180185317993164,-0.063098669052124,0.8130717999015492,-0.1785303767450417,-0.5541129422636943,0.1757383370218198,4.0,0.0
4.244226455688477,10.372326850891112,0.5514702796936035,0.9589416181864404,0.2209263965015788,-0.1778271639508389,0.2016976853456375,3.0,1.0
4.405368804931641,10.149022102355955,0.52571702003479,-0.0,-0.0,-1.0,0.1957274348116371,2.0,1.0
4.628718376159668,8.914959907531738,-0.0996347665786743,-0.0,-0.0,-1.0,0.2107768253901995,2.0,0.0
4.325538635253906,10.602859497070312,0.1582579612731933,-0.0,-0.0,-1.0,0.1991624490648696,2.0,1.0
4.16896915435791,10.543519973754885,0.1488924026489257,-0.0,-0.0,-1.0,0.1522690354808338,1.0,1.0
4.437207221984863,10.257627487182615,0.1074466705322265,-0.8698577249839833,0.3361357776130871,0.3610543965860743,0.1853127933572395,5.0,1.0
4.255117416381836,10.173884391784668,0.0945360660552978,0.7716435223258166,0.3483896106149285,-0.5321568882089057,0.2317234367164992,3.0,1.0
4.891504287719727,9.796575546264648,0.0373470783233642,-0.0,-0.0,-1.0,0.2012560078224623,2.0,1.0
4.555346488952637,9.3378324508667,-0.0329936742782592,-0.0,-0.0,-1.0,0.1865641229536939,1.0,0.0
4.4727783203125,9.323081970214844,-0.0350639820098876,-0.0,-0.0,-1.0,0.1630346683849577,2.0,0.0
5.100454330444336,9.318099975585938,-0.0383139848709106,-0.0,-0.0,-1.0,0.1467584043307082,2.0,0.0
4.778998374938965,9.249604225158691,-0.0476431846618652,-0.0,-0.0,-1.0,0.2284941800660856,1.0,0.0
5.151557922363281,9.156157493591309,-0.0643237829208374,-0.0,-0.0,-1.0,0.1304513464663995,2.0,0.0
5.072663307189941,9.08192253112793,-0.0756717920303344,-0.0,-0.0,-1.0,0.1502973635976048,1.0,0.0
4.405587196350098,10.460220336914062,0.0936288833618164,-0.0,-0.0,-1.0,0.236643472384405,2.0,1.0
4.431145668029785,10.223615646362305,0.0579152107238769,-0.3976335986734534,0.0728417126557571,-0.9146483510636068,0.2272591140276573,5.0,1.0
4.971831321716309,10.022229194641112,0.0325660705566406,-0.0,-0.0,-1.0,0.0940309832424825,1.0,1.0
5.094806671142578,9.83169937133789,0.0031307935714721,0.7215035660494185,0.0412729746032282,-0.6911795322095218,0.1256268907047631,4.0,1.0
4.886421203613281,9.381802558898926,-0.0709362030029296,-0.0,-0.0,-1.0,0.0690227816088859,2.0,0.0
4.976579666137695,9.20473289489746,-0.0995277166366577,0.5521572933104356,-0.4748762047350964,-0.6852845493811198,0.122420898824029,4.0,0.0
4.3433732986450195,10.431745529174805,0.1407244205474853,0.5779350165099217,-0.5235797073215348,-0.6259835515193454,0.1874867595862911,4.0,1.0
4.289801597595215,10.247004508972168,0.1156744956970214,-0.0,-0.0,-1.0,0.1960170705872866,2.0,1.0
4.509491920471191,9.803220748901367,0.06312096118927,-0.0,-0.0,-1.0,0.2300781502024485,2.0,1.0
4.99644660949707,9.827718734741213,0.077845811843872,-0.0,-0.0,-1.0,0.1658979023505246,2.0,1.0
4.842648506164551,9.731632232666016,0.0612344741821289,0.2333794282969549,-0.8124124817375852,-0.534340717112934,0.1995263184653433,3.0,1.0
4.684619903564453,9.285758018493652,-0.0037343502044677,-0.0,-0.0,-1.0,0.1701373582064931,2.0,0.0
4.555937767028809,8.932902336120605,-0.0557814836502075,-0.0,-0.0,-1.0,0.2207508050877954,1.0,0.0
5.131158828735352,9.580705642700195,0.0464195013046264,-0.0,-0.0,-1.0,0.1213374405362249,1.0,1.0
4.856600761413574,9.188310623168944,-0.0141022205352783,-0.0,-0.0,-1.0,0.1677295363755825,1.0,0.0
4.635128021240234,8.825784683227539,-0.0695583820343017,-0.0,-0.0,-1.0,0.2448252507565715,1.0,0.0
4.527010917663574,10.18276023864746,-0.0172494649887084,-0.0,-0.0,-1.0,0.2070431349165244,1.0,0.0
4.3441667556762695,9.609224319458008,-0.0805748701095581,-0.0,-0.0,-1.0,0.1525816051719714,1.0,0.0
5.0587263107299805,9.916269302368164,0.0018223524093627,-0.896247132030323,-0.3746593086398471,-0.2374267903521682,0.1731226041976554,3.0,1.0
4.845104217529297,9.429525375366213,-0.0584238767623901,-0.0,-0.0,-1.0,0.1229381630269598,2.0,0.0
4.481032371520996,8.835041999816895,-0.1407216787338256,-0.0,-0.0,-1.0,0.1834556705490546,1.0,0.0
5.180370330810547,9.80508518218994,0.0010746717453002,-0.0,-0.0,-1.0,0.1325009343853677,1.0,1.0
4.996711730957031,9.195659637451172,-0.0691907405853271,0.8130717999015492,-0.1785303767450417,-0.5541129422636943,0.1858297480949838,4.0,0.0
4.268973350524902,10.507368087768556,0.3852799534797668,-0.0,-0.0,-1.0,0.2325483532005643,2.0,1.0
4.342033386230469,10.27521800994873,0.3750707507133484,-0.5897359348111831,0.3871385031762233,-0.7087561686157332,0.2904846130458752,7.0,1.0
4.08769416809082,10.15250301361084,0.7615690231323242,-0.0,-0.0,-1.0,0.1785085242512201,1.0,1.0
5.103411674499512,9.788415908813477,-0.1124786138534545,-0.0,-0.0,-1.0,0.1524354180663672,1.0,0.0
5.061740875244141,9.612801551818848,-0.1341432332992553,-0.0,-0.0,-1.0,0.1616309591440815,1.0,0.0
4.261416435241699,10.445085525512695,0.2425167560577392,-0.0,-0.0,-1.0,0.1759338683705754,2.0,1.0
4.388338088989258,10.245248794555664,0.2365545034408569,-0.0,-0.0,-1.0,0.1640120818781219,2.0,1.0
4.404208183288574,9.840578079223633,0.2070947885513305,-0.0,-0.0,-1.0,0.1416585627984015,1.0,1.0
4.222592353820801,10.592596054077148,0.6205636262893677,-0.0165834548206008,-0.0231725189777679,-0.9995939292484916,0.1641223392530112,3.0,1.0
4.3871049880981445,10.24566650390625,0.6074051260948181,0.6099750441075896,-0.5060900999194603,-0.6097567189703241,0.2458139011744299,3.0,1.0
4.994385719299316,10.51227855682373,0.0763361454010009,-0.0,-0.0,-1.0,0.1992661635272913,1.0,1.0
5.110125541687012,9.868112564086914,0.0159021615982055,0.1723084382580081,0.2606817074024641,-0.9499236019442944,0.1890815916292443,3.0,1.0
5.003925323486328,9.025155067443848,-0.0974386930465698,-0.0,-0.0,-1.0,0.1000553613528793,1.0,0.0
4.151898384094238,10.215032577514648,0.3389538526535034,-0.0,-0.0,-1.0,0.1969905682118243,1.0,1.0
4.415406227111816,10.22193717956543,0.3552695512771606,-0.4970099970692763,0.5038947390533346,-0.7064496831109559,0.2264855320422704,3.0,1.0
4.436013221740723,10.077975273132324,0.3438787460327148,-0.0,-0.0,-1.0,0.1570728364480859,1.0,1.0
4.142492294311523,9.420440673828123,0.6467882394790649,-0.0,-0.0,-1.0,0.1119731806844789,1.0,1.0
4.716239929199219,10.400834083557127,0.3884478807449341,-0.0,-0.0,-1.0,0.1671830306796331,1.0,1.0
4.68051815032959,9.913389205932615,0.3425565958023071,-0.0,-0.0,-1.0,0.2671559529531463,1.0,1.0
4.780121803283691,9.620989799499512,0.3194385766983032,-0.0,-0.0,-1.0,0.1969610427368225,1.0,1.0
4.727045059204102,9.869308471679688,0.6958481073379517,-0.0,-0.0,-1.0,0.1368753000859355,1.0,1.0
4.634838104248047,8.330859184265137,-0.1693545579910278,-0.0,-0.0,-1.0,0.0637068012550427,1.0,0.0
4.63577938079834,8.718962669372559,-0.135966420173645,0.8291402712530649,0.1520283771122123,-0.5379719166824798,0.1528077364524077,3.0,0.0
4.641227722167969,8.679729461669922,-0.1386563777923584,-0.0,-0.0,-1.0,0.1488939157759618,2.0,0.0
4.761773109436035,9.969762802124023,-0.0337332487106323,-0.0,-0.0,-1.0,0.1858270295152103,2.0,0.0
4.7835540771484375,9.782459259033203,-0.0426470041275024,-0.0,-0.0,-1.0,0.2184334198120723,1.0,0.0
4.993685722351074,9.3892822265625,-0.0464650392532348,-0.0,-0.0,-1.0,0.1516578615004148,1.0,0.0
4.99165153503418,8.867681503295898,-0.0875262022018432,-0.0,-0.0,-1.0,0.0775815564100592,1.0,0.0
5.133570671081543,8.174388885498047,-0.1368106603622436,-0.0,-0.0,-1.0,0.0765154413365761,1.0,0.0
4.502589225769043,10.14265251159668,0.3036880493164062,-0.0,-0.0,-1.0,0.1199011490838644,1.0,1.0
4.633803367614746,9.797744750976562,0.300498366355896,-0.0,-0.0,-1.0,0.1872932177290827,1.0,1.0
4.596840858459473,10.41811180114746,0.3217689990997314,-0.0,-0.0,-1.0,0.231782757578298,1.0,1.0
4.722092628479004,10.17935562133789,0.323839783668518,-0.0,-0.0,-1.0,0.1052784304176049,1.0,1.0
4.705839157104492,9.82318878173828,0.3075110912322998,-0.0,-0.0,-1.0,0.2047576824673739,1.0,1.0
4.294441223144531,10.179204940795898,0.6492658853530884,-0.0,-0.0,-1.0,0.1809793597401669,1.0,1.0
4.658144950866699,10.151355743408203,0.6681650876998901,-0.0,-0.0,-1.0,0.1716465232890568,1.0,1.0
4.749370574951172,9.545411109924316,0.6548612117767334,-0.0,-0.0,-1.0,0.1492508101306334,1.0,1.0
5.0798540115356445,9.392784118652344,-0.138460636138916,-0.0,-0.0,-1.0,0.113285596063516,2.0,0.0
5.197757720947266,9.304828643798828,-0.1282539367675781,-0.0,-0.0,-1.0,0.1757803154757997,1.0,0.0
4.443704605102539,10.185891151428224,0.1743756532669067,-0.0,-0.0,-1.0,0.1552563910732741,1.0,1.0
4.597772598266602,9.736860275268556,0.1799633502960205,-0.0,-0.0,-1.0,0.2560867387340196,1.0,1.0
4.81413459777832,9.440662384033203,0.1925158500671386,-0.0,-0.0,-1.0,0.1707798048089039,1.0,1.0
4.602560997009277,10.613702774047852,0.1982033252716064,-0.0,-0.0,-1.0,0.1742214871199378,1.0,1.0
4.572415351867676,10.14582061767578,0.1873089075088501,-0.0,-0.0,-1.0,0.1706330102025698,1.0,1.0
4.669379234313965,9.95210075378418,0.1932377815246582,-0.0,-0.0,-1.0,0.1314812662427318,1.0,1.0
4.974179267883301,10.513507843017578,0.2374016046524047,-0.0,-0.0,-1.0,0.1259176293952207,1.0,1.0
5.128337860107422,10.287464141845703,0.2497283220291137,-0.0,-0.0,-1.0,0.0922714652413728,1.0,1.0
4.360974311828613,10.35384750366211,0.5306414365768433,0.6772826049494681,0.5962787896429808,-0.4309754958866738,0.2160708233341422,4.0,1.0
4.328874588012695,10.303608894348145,0.5280511379241943,0.6442614998533446,-0.6494114693765031,0.4039701266789043,0.2396205195465229,3.0,1.0
4.670029640197754,9.705368041992188,0.5476387739181519,-0.0,-0.0,-1.0,0.1135918148016133,1.0,1.0
4.472314834594727,10.431735038757324,0.5393246412277222,-0.0,-0.0,-1.0,0.1612243776613659,1.0,1.0
4.750613212585449,9.835954666137695,0.5552892684936523,-0.0,-0.0,-1.0,0.2152040087601366,1.0,1.0
4.666524887084961,8.5489501953125,-0.0409237146377563,-0.0,-0.0,-1.0,0.1379070684274543,2.0,0.0
4.780472755432129,8.211549758911133,-0.0538825988769531,-0.3615795516198634,-0.5460117099038737,-0.755732386826333,0.0581893247018468,3.0,0.0
4.561893463134766,8.712442398071289,-0.0402551889419555,0.8286014945824683,0.5252511362644273,0.1937286943863184,0.2511729608619595,5.0,0.0
4.74754524230957,9.139524459838867,0.0060352087020874,-0.0,-0.0,-1.0,0.1762112808549084,1.0,1.0
4.423099517822266,10.407225608825684,0.0399723052978515,-0.8745418333133951,0.4085890993123363,-0.2612116569144263,0.1782573958826999,4.0,1.0
4.484881401062012,10.238752365112305,0.0388573408126831,-0.0,-0.0,-1.0,0.1858706896812443,2.0,1.0
4.779955863952637,9.781925201416016,0.0471031665802001,-0.0,-0.0,-1.0,0.2105945493401071,1.0,1.0
5.076202392578125,9.730745315551758,0.0753352642059326,-0.0,-0.0,-1.0,0.0971231698477096,1.0,1.0
4.777498245239258,10.621694564819336,0.0881872177124023,-0.0,-0.0,-1.0,0.0762075703548674,1.0,1.0
4.491654396057129,10.2372407913208,0.4134772419929504,-0.0,-0.0,-1.0,0.2788753426306012,1.0,1.0
4.184443473815918,9.980913162231444,0.110485553741455,-0.0,-0.0,-1.0,0.2876937548917516,2.0,1.0
4.304025650024414,10.305011749267578,0.1158713102340698,-0.5179187587302414,0.828418310972686,0.2132680505853792,0.2139140871382726,3.0,1.0
4.445228576660156,10.030828475952148,0.1359777450561523,-0.0,-0.0,-1.0,0.2278960107343685,1.0,1.0
4.561298370361328,9.876460075378418,0.1507560014724731,-0.7761555337886299,-0.3018770203133571,-0.5535818385532675,0.2628952746243709,4.0,1.0
4.448197364807129,10.608718872070312,0.1234524250030517,-0.0,-0.0,-1.0,0.2033976517120588,2.0,1.0
4.238265037536621,10.416423797607422,0.5098367929458618,-0.0,-0.0,-1.0,0.2519610561384808,1.0,1.0
4.379887580871582,10.21165657043457,0.5260325074195862,-0.0,-0.0,-1.0,0.2293947871125898,2.0,1.0
4.25954532623291,10.580591201782228,0.506008505821228,-0.7233748668056122,-0.2089717285400892,0.6580726546096032,0.1518456013272628,4.0,1.0
4.190423965454102,9.994392395019531,0.1353965997695922,-0.0,-0.0,-1.0,0.225476735686384,2.0,1.0
4.577906608581543,9.84385585784912,0.1723242998123169,-0.0,-0.0,-1.0,0.2286905639933888,2.0,1.0
4.2918596267700195,10.482009887695312,0.1389347314834594,-0.0,-0.0,-1.0,0.2419132433140913,2.0,1.0
4.399796485900879,10.326799392700195,0.1511904001235962,-0.0,-0.0,-1.0,0.2185191795907839,2.0,1.0
5.100827217102051,8.525506973266602,-0.2298818826675415,-0.0,-0.0,-1.0,0.123350532509219,1.0,0.0
4.545534133911133,8.701150894165039,0.0060144662857055,0.7724449599451377,0.6345714139375639,0.0254539676403375,0.1338808970656726,5.0,1.0
4.4832048416137695,8.399680137634277,-0.0042887926101684,-0.0,-0.0,-1.0,0.0866024686603809,1.0,0.0
4.598084449768066,8.783333778381348,0.0118181705474853,0.4620893234740296,0.5489741516820228,-0.6964918075012205,0.2024674435218013,3.0,1.0
4.367408752441406,10.436675071716309,0.2812895774841308,0.8516587035018003,-0.1601819335524149,-0.4990182370545611,0.2089149551867602,6.0,1.0
4.450023651123047,10.180910110473633,0.2835018634796142,-0.0,-0.0,-1.0,0.1729925233418844,1.0,1.0
4.493003845214844,10.511626243591309,0.2884061932563782,-0.0,-0.0,-1.0,0.2009930227273608,1.0,1.0
4.309892654418945,10.301034927368164,0.1455668210983276,0.2236252499734795,0.9746750525115128,-0.0005381319342145,0.2935948393844938,4.0,1.0
4.506322860717773,10.43218994140625,0.1537410020828247,-0.0,-0.0,-1.0,0.1764210201289524,2.0,1.0
4.996389389038086,9.441637992858888,0.1942986249923706,-0.0,-0.0,-1.0,0.1720040170209905,1.0,1.0
4.904573440551758,9.997138023376465,0.1813836097717285,-0.0,-0.0,-1.0,0.1471570363357728,1.0,1.0
4.2596435546875,10.56439971923828,0.3620877265930176,-0.0,-0.0,-1.0,0.2824640288389396,2.0,1.0
4.285762786865234,10.19423484802246,0.3693001866340637,-0.0,-0.0,-1.0,0.2463809737185416,2.0,1.0
4.368585586547852,10.312780380249023,0.3706766366958618,-0.0931321936983559,-0.5625190696176448,-0.8215221791366507,0.1885687018735395,5.0,1.0
4.443817138671875,10.458780288696287,0.0591710805892944,0.738696175417936,-0.2710962288702643,-0.6171181370817385,0.2511370025770771,3.0,1.0
4.400300979614258,10.251426696777344,0.0687228441238403,-0.3976335986734534,0.0728417126557571,-0.9146483510636068,0.1882298659524376,5.0,1.0
4.331764221191406,9.973714828491213,0.0807243585586547,-0.0,-0.0,-1.0,0.2146111637513407,2.0,1.0
4.649454116821289,10.560790061950684,0.0621533393859863,-0.0,-0.0,-1.0,0.1373933700268169,1.0,1.0
4.652597427368164,9.721351623535156,0.1080483198165893,-0.0,-0.0,-1.0,0.1981722094876935,1.0,1.0
4.959053039550781,9.69533634185791,0.122852087020874,-0.0,-0.0,-1.0,0.1282104485261306,1.0,1.0
4.813901901245117,10.280719757080078,-0.0670156478881836,-0.0,-0.0,-1.0,0.074962703022271,2.0,0.0
4.479244232177734,10.467571258544922,-0.0411224365234375,-0.0,-0.0,-1.0,0.2461871006311923,1.0,0.0
4.601604461669922,9.284223556518556,0.0052483081817626,-0.0,-0.0,-1.0,0.1119823892340706,2.0,1.0
4.800081253051758,10.477739334106444,-0.0257248878479003,-0.0,-0.0,-1.0,0.1542008552139719,1.0,0.0
4.975774765014648,10.15790557861328,-0.0052584409713745,-0.0,-0.0,-1.0,0.1088001558993281,2.0,0.0
5.093528747558594,10.180021286010742,-0.0002979040145874,-0.0,-0.0,-1.0,0.2372059366871283,1.0,0.0
5.135631561279297,9.843988418579102,0.0139085054397583,0.2230711188019653,0.2817215034243492,-0.9332053742155392,0.1858061594545608,4.0,1.0
4.89805793762207,10.447081565856934,-0.043686032295227,-0.0,-0.0,-1.0,0.1168504411523722,2.0,0.0
5.077373504638672,9.979722023010254,-0.0053322315216064,-0.9713540448667524,0.1754354148854078,-0.1602926533718376,0.1404314622648557,3.0,0.0
4.833709716796875,9.8296480178833,-0.0035508871078491,-0.0,-0.0,-1.0,0.1434963835357664,1.0,0.0
5.1611328125,9.99293041229248,-0.0033581256866455,-0.0,-0.0,-1.0,0.13890079550515,1.0,0.0
4.524473190307617,8.575629234313965,-0.0084651708602905,-0.0,-0.0,-1.0,0.1432616371432318,1.0,0.0
4.7817535400390625,10.094879150390623,-0.0764181613922119,-0.0,-0.0,-1.0,0.087973004684426,1.0,0.0
4.71973991394043,8.568986892700195,0.0047951936721801,-0.0,-0.0,-1.0,0.162697863602367,1.0,1.0
5.045326232910156,10.217327117919922,-0.0673288106918335,-0.0,-0.0,-1.0,0.0667888507546776,2.0,0.0
4.348625183105469,10.394657135009766,0.2804226875305176,-0.3391541010065962,0.0187928087590461,-0.9405431016754912,0.1959193373838802,5.0,1.0
4.600254058837891,9.136064529418944,0.1452584266662597,-0.0,-0.0,-1.0,0.2063954973300731,2.0,1.0
5.069648742675781,9.360023498535156,-0.1025557518005371,0.0843649651817917,-0.747901359057542,-0.6584269965377764,0.1251968745191383,3.0,0.0
4.321741104125977,10.28095531463623,0.4300743341445923,0.4593858766065413,0.5228776508220261,-0.718027561201713,0.2398387376369417,5.0,1.0
4.282718658447266,10.172965049743652,0.4330672025680542,-0.0,-0.0,-1.0,0.1921638175930514,1.0,1.0
4.396291732788086,10.375946998596191,0.1667225360870361,-0.8963333226679563,0.4220289039155513,-0.1359344655886053,0.1557979719966457,4.0,1.0
4.693193435668945,9.904597282409668,-0.0438498258590698,-0.0,-0.0,-1.0,0.1794041350130928,1.0,0.0
4.31852912902832,10.3140287399292,0.5613009929656982,-0.0,-0.0,-1.0,0.2308676107943355,2.0,1.0
4.432075500488281,10.637115478515623,0.0884923934936523,0.3597067580386068,0.838071561469838,-0.4101793584236818,0.221530084957304,4.0,1.0
4.595928192138672,9.949474334716797,0.1212453842163086,-0.0,-0.0,-1.0,0.2181028054859977,2.0,1.0
4.443500518798828,10.31717300415039,0.1170318126678466,-0.6592739711825828,0.6028403372425212,-0.44937885877561,0.137075509555246,4.0,1.0
4.523216247558594,9.966079711914062,0.1357059478759765,-0.0,-0.0,-1.0,0.1923486596420378,1.0,1.0
4.329689025878906,10.313928604125977,0.4574723243713379,-0.2413898142336149,0.6920184002713344,-0.6803245484841512,0.2481076047045885,4.0,1.0
4.369930267333984,10.248861312866213,0.3534243106842041,0.1950307613173033,-0.8626905228682485,-0.4666133987502945,0.268842139031164,8.0,1.0
4.291006088256836,10.284271240234377,0.3120746612548828,-0.0,-0.0,-1.0,0.2319855689569588,2.0,1.0
5.055255889892578,9.913169860839844,0.0198135375976562,-0.0,-0.0,-1.0,0.1455895574704165,2.0,1.0
4.523937225341797,8.297801971435547,0.678102970123291,-0.0,-0.0,-1.0,0.1216727214482214,1.0,1.0
4.9167022705078125,10.553722381591797,-0.0477602481842041,-0.0,-0.0,-1.0,0.1658472631562723,2.0,0.0
4.380229949951172,10.254684448242188,0.5930428504943848,0.6703053235362267,-0.5194438280019645,-0.5299706433281564,0.2267271032587193,4.0,1.0
4.365177154541016,10.460765838623049,0.2871053218841553,0.764066455303883,-0.3573928507278564,-0.5370966413300085,0.2145353694751355,5.0,1.0
4.244333267211914,10.344894409179688,0.2831878662109375,-0.0,-0.0,-1.0,0.2446537347011359,2.0,1.0
4.342742919921875,10.442115783691406,0.2749624252319336,0.6675545144583218,-0.1494758381016415,-0.729402456844043,0.2250407436051503,5.0,1.0
4.921693801879883,9.821470260620115,0.0993812084197998,-0.8883561471692287,-0.1435475200696793,-0.436139272788508,0.1892857035735487,6.0,1.0
4.373876571655273,10.352039337158203,0.0819873809814453,-0.6148384344739173,0.1632266589422136,-0.7715767993558547,0.167242402394468,3.0,1.0
4.04671573638916,10.229536056518556,0.0621981620788574,-0.0,-0.0,-1.0,0.2001724945564848,1.0,1.0
4.814811706542969,9.88218116760254,0.1569030284881591,-0.0,-0.0,-1.0,0.1939328725424188,2.0,1.0
5.141389846801758,9.402360916137695,-0.2071340084075927,-0.0,-0.0,-1.0,0.1549252022928713,1.0,0.0
4.09334659576416,10.403945922851562,0.5514755249023438,-0.0,-0.0,-1.0,0.1738330540808173,1.0,1.0
5.146125793457031,9.981428146362305,-0.0847454071044921,-0.0,-0.0,-1.0,0.138695819052356,1.0,0.0
4.896866798400879,9.542970657348633,-0.0650250911712646,-0.0,-0.0,-1.0,0.1229747947852654,1.0,0.0
4.827852249145508,9.660964965820312,-0.0828139781951904,-0.0,-0.0,-1.0,0.1920708760039267,2.0,0.0
4.4956560134887695,9.369884490966797,-0.0856492519378662,-0.0,-0.0,-1.0,0.2297317673202013,2.0,0.0
4.22096061706543,10.380670547485352,0.6919488906860352,-0.0,-0.0,-1.0,0.2046568913792591,1.0,1.0
5.153927803039551,9.92860221862793,0.0837109088897705,-0.0,-0.0,-1.0,0.145218533027695,1.0,1.0
4.957680702209473,9.766857147216797,0.0767388343811035,-0.0,-0.0,-1.0,0.1507427742966158,1.0,1.0
4.794920921325684,9.880533218383787,0.0494260787963867,0.5308093119514719,0.0795374208629837,-0.8437507173496621,0.1121413338630006,3.0,1.0
4.608715057373047,10.543914794921877,-0.0279068946838378,-0.0,-0.0,-1.0,0.1671704592689444,1.0,0.0
4.67568302154541,10.601018905639648,-0.0256931781768798,-0.0,-0.0,-1.0,0.1093315475076125,2.0,0.0
4.597834587097168,9.478500366210938,0.0626435279846191,-0.0,-0.0,-1.0,0.1865056407963863,1.0,1.0
4.601914405822754,9.876432418823242,0.0289556980133056,-0.0,-0.0,-1.0,0.1772818329741029,1.0,1.0
4.3982038497924805,10.220132827758787,-0.0226387977600097,-0.0,-0.0,-1.0,0.1601062892120783,2.0,0.0
4.47083854675293,10.374760627746582,0.4426798820495605,-0.0,-0.0,-1.0,0.2217607727062764,1.0,1.0
4.3691558837890625,10.30721378326416,0.4389007091522217,-0.0118387715129194,-0.5903736457635971,-0.8070432465964037,0.1878780182157045,4.0,1.0
4.42788028717041,10.551589965820312,0.1894750595092773,-0.0,-0.0,-1.0,0.2559524576320558,1.0,1.0
4.348714828491211,10.231151580810549,0.2120020389556884,-0.0,-0.0,-1.0,0.1827827224134418,2.0,1.0
4.124490737915039,10.454530715942385,0.1683886051177978,-0.0,-0.0,-1.0,0.2369145049067372,1.0,1.0
4.967528343200684,8.586052894592285,-0.1613342761993408,0.1407822461430024,-0.6306653893981204,-0.7631785674311409,0.1473105152981369,3.0,0.0
4.406280517578125,10.40613079071045,0.2952585220336914,-0.0,-0.0,-1.0,0.1168277873674727,2.0,1.0
4.25423526763916,10.325953483581545,0.2863986492156982,-0.0,-0.0,-1.0,0.2683555462884118,2.0,1.0
4.978431701660156,8.603776931762695,-0.1739695072174072,0.1407822461430024,-0.6306653893981204,-0.7631785674311409,0.1387224148844046,3.0,0.0
4.546217918395996,10.568525314331056,0.2276797294616699,-0.0,-0.0,-1.0,0.1980410205351404,2.0,1.0
4.344587326049805,10.349353790283203,0.2288613319396972,-0.8073964449040144,0.5884207946799817,-0.0432660276029336,0.2474125826499408,4.0,1.0
4.382059097290039,10.631986618041992,0.2034375667572021,0.436833972391592,-0.7277725048163133,-0.5286995950423751,0.1754333439356146,3.0,1.0
4.070838928222656,10.395021438598633,0.1943171024322509,-0.0,-0.0,-1.0,0.2024431767303705,1.0,1.0
5.190251350402832,9.912816047668455,-0.074589729309082,-0.0,-0.0,-1.0,0.1590802129815399,1.0,0.0
4.841843605041504,9.691648483276367,-0.0872156620025634,-0.0,-0.0,-1.0,0.1880380230301192,2.0,0.0
4.637373924255371,9.370668411254885,-0.0701138973236084,-0.0,-0.0,-1.0,0.1532301386827247,1.0,0.0
4.580807685852051,8.782662391662598,-0.0001733303070068,-0.0,-0.0,-1.0,0.2024674435218014,2.0,0.0
4.265702247619629,10.376105308532717,0.4296863079071045,-0.0,-0.0,-1.0,0.1341498800501789,1.0,1.0
4.890528678894043,10.515365600585938,-0.0401036739349365,-0.0,-0.0,-1.0,0.1767017352393524,2.0,0.0
4.273058891296387,10.164196014404297,-0.0725519657135009,-0.0,-0.0,-1.0,0.2571377300762572,2.0,0.0
4.979632377624512,10.121493339538574,0.0237650871276855,-0.0,-0.0,-1.0,0.1403343853232077,2.0,1.0
4.655820846557617,9.959117889404297,0.0040173530578613,-0.466757228979556,0.8427782958609722,0.2680716941808695,0.2330236994522791,3.0,1.0
4.659320831298828,10.125040054321287,-0.0174324512481689,-0.0,-0.0,-1.0,0.1142855134919606,1.0,0.0
4.530628204345703,9.317268371582031,0.0715100765228271,-0.0,-0.0,-1.0,0.1729544239160854,1.0,1.0
4.459231376647949,9.871816635131836,-0.0100648403167724,-0.0,-0.0,-1.0,0.2356487415178262,1.0,0.0
4.479260444641113,10.126923561096191,-0.0408651828765869,-0.0,-0.0,-1.0,0.1700694392928147,1.0,0.0
4.103792190551758,9.560026168823242,-0.0167591571807861,-0.0,-0.0,-1.0,0.1039263649378516,1.0,0.0
4.461492538452148,10.355329513549805,0.5646688938140869,-0.0,-0.0,-1.0,0.2241224821911488,1.0,1.0
4.352319717407227,10.413037300109863,0.5468473434448242,-0.0,-0.0,-1.0,0.1838276143069008,2.0,1.0
4.300179481506348,10.145142555236816,0.5681803226470947,-0.0,-0.0,-1.0,0.2250517140766124,2.0,1.0
4.288881301879883,10.39635944366455,0.5415642261505127,-0.0,-0.0,-1.0,0.2229807357860576,1.0,1.0
4.869332313537598,8.58944320678711,-0.1403489112854004,-0.0,-0.0,-1.0,0.1017357253558913,1.0,0.0
4.281451225280762,10.153109550476074,0.1191201210021972,0.7716435223258166,0.3483896106149285,-0.5321568882089057,0.1834394516230379,3.0,1.0
4.237077713012695,10.377538681030272,0.0837824344635009,-0.0,-0.0,-1.0,0.1882785748992686,1.0,1.0
4.41872501373291,10.4202880859375,0.7007200717926025,0.1435895500679121,0.3729980578570027,-0.9166539641250664,0.1987165073373538,3.0,1.0
5.198627471923828,9.350193977355955,-0.1778624057769775,-0.0,-0.0,-1.0,0.1636551723705477,1.0,0.0
5.190443992614746,8.697945594787598,-0.0744965076446533,-0.0,-0.0,-1.0,0.1266158884750177,2.0,0.0
5.169528961181641,8.885111808776855,-0.1076512336730957,-0.0,-0.0,-1.0,0.0789240923886031,2.0,0.0
4.485762596130371,10.481757164001465,0.0965654850006103,-0.0,-0.0,-1.0,0.2362308958847646,2.0,1.0
4.893111228942871,8.64990234375,-0.1151270866394043,-0.0,-0.0,-1.0,0.1160723994160869,1.0,0.0
4.792477607727051,8.623063087463379,-0.1274943351745605,-0.0,-0.0,-1.0,0.1233922604870006,1.0,0.0
4.2581987380981445,10.086426734924316,0.1167769432067871,-0.0,-0.0,-1.0,0.1232806301856875,2.0,1.0
4.190413475036621,10.242639541625977,0.08699631690979,-0.0,-0.0,-1.0,0.2407169020433633,2.0,1.0
4.800414085388184,9.843673706054688,0.2237026691436767,-0.0,-0.0,-1.0,0.1386153254650854,1.0,1.0
4.468536376953125,10.319592475891112,0.6734833717346191,-0.6377820437118837,-0.2461797251139359,-0.7298147762696503,0.1969569300195759,3.0,1.0
5.0930986404418945,8.889918327331543,-0.059338092803955,-0.0,-0.0,-1.0,0.0808879006515355,1.0,0.0
5.147705078125,9.266024589538574,-0.1096258163452148,-0.0,-0.0,-1.0,0.1759548006331507,1.0,0.0
4.803986549377441,8.761640548706055,-0.0865204334259033,-0.0,-0.0,-1.0,0.1212678668205372,1.0,0.0
4.674413204193115,8.46523666381836,-0.0629806518554687,-0.0,-0.0,-1.0,0.1430424392814936,1.0,0.0
4.679193496704102,8.533266067504883,-0.0724318027496337,-0.0,-0.0,-1.0,0.1092794063920624,2.0,0.0
4.430619239807129,10.338363647460938,0.1352593898773193,-0.5298189495047084,0.3445441320134951,-0.7749717555116411,0.1466439160413388,3.0,1.0
4.487906455993652,9.988762855529783,0.1877169609069824,-0.0,-0.0,-1.0,0.149517368527369,1.0,1.0
4.204376220703125,10.270047187805176,0.1126928329467773,-0.0,-0.0,-1.0,0.2523782671260781,2.0,1.0
4.364068031311035,10.403732299804688,0.6414403915405273,-0.0,-0.0,-1.0,0.1977048914781116,1.0,1.0
4.248892784118652,10.310250282287598,0.6370959281921387,-0.0,-0.0,-1.0,0.1949688525496424,1.0,1.0
4.151390075683594,10.632384300231934,0.5941548347473145,-0.0,-0.0,-1.0,0.1209168044602221,1.0,1.0
4.8547821044921875,10.555536270141602,-0.0222516059875488,-0.0,-0.0,-1.0,0.1137616777907525,1.0,0.0
5.123738765716553,8.601364135742188,-0.1441478729248047,-0.0,-0.0,-1.0,0.1253154103793119,2.0,0.0
5.046666622161865,9.617432594299316,0.1347870826721191,-0.0,-0.0,-1.0,0.1392364248511249,1.0,1.0
4.652275085449219,9.949234008789062,0.0289170742034912,-0.466757228979556,0.8427782958609722,0.2680716941808695,0.1944084171141919,3.0,1.0
4.608953952789307,10.421439170837402,-0.0412278175354003,-0.0,-0.0,-1.0,0.1455141912883739,1.0,0.0
4.931426525115967,8.291385650634766,-0.1316597461700439,-0.0,-0.0,-1.0,0.0630029764849161,1.0,0.0
4.948821544647217,8.60012149810791,-0.1764109134674072,0.1407822461430024,-0.6306653893981204,-0.7631785674311409,0.1486120416400939,3.0,0.0
4.4818549156188965,9.49986171722412,0.0609664916992187,-0.0,-0.0,-1.0,0.1032882676266459,1.0,1.0
4.272768974304199,9.747007369995115,-0.0049121379852294,-0.0,-0.0,-1.0,0.0969440735182229,1.0,0.0
4.36070442199707,10.127851486206056,-0.0406296253204345,-0.0,-0.0,-1.0,0.1310546324256257,1.0,0.0
4.840012073516846,10.205845832824709,0.4956936836242676,-0.0,-0.0,-1.0,0.1532479432402303,1.0,1.0
4.988605499267578,9.32308578491211,0.1649932861328125,-0.0,-0.0,-1.0,0.2046427494912221,1.0,1.0
4.419902801513672,10.28892707824707,0.4307355880737304,-0.0,-0.0,-1.0,0.1952811795376113,2.0,1.0
4.336273670196533,10.450067520141602,0.4026622772216797,-0.0,-0.0,-1.0,0.2684832768775945,1.0,1.0
4.554684162139893,8.76784896850586,0.1666433811187744,-0.0,-0.0,-1.0,0.1911579554213837,1.0,1.0
4.201213836669922,10.240730285644531,0.4059641361236572,-0.0,-0.0,-1.0,0.2069102392379263,1.0,1.0
4.183004379272461,10.420425415039062,0.3849472999572754,-0.0,-0.0,-1.0,0.2001546296198537,2.0,1.0
5.158422946929932,9.413444519042969,-0.2538444995880127,-0.0,-0.0,-1.0,0.156747335071699,1.0,0.0
4.779122352600098,10.58479118347168,-0.0816614627838134,-0.0,-0.0,-1.0,0.1282408429277972,1.0,0.0
5.107846736907959,8.830015182495117,-0.1587965488433838,-0.0,-0.0,-1.0,0.0980592203479197,1.0,0.0
5.184249401092529,9.098984718322754,-0.1925783157348632,-0.0,-0.0,-1.0,0.1283077329614545,1.0,0.0
4.605157852172852,10.533231735229492,-0.100154161453247,-0.0,-0.0,-1.0,0.1877279299006682,1.0,0.0
4.808187007904053,8.325005531311035,-0.1283838748931884,-0.0,-0.0,-1.0,0.079420280990301,1.0,0.0
4.848095893859863,8.624320030212402,-0.1718051433563232,-0.0,-0.0,-1.0,0.0993983358637819,1.0,0.0
4.950148105621338,9.821314811706545,0.0619797706604003,0.111932409178817,-0.9936785563502922,-0.0086059528830169,0.1963121322598358,4.0,1.0
4.924801826477051,10.444181442260742,-0.0377306938171386,-0.0,-0.0,-1.0,0.1617230479711943,2.0,0.0
4.952980041503906,9.148744583129885,0.1634783744812011,-0.0,-0.0,-1.0,0.1627394240547024,1.0,1.0
4.6598286628723145,9.465773582458496,0.0692846775054931,-0.0,-0.0,-1.0,0.1763962729329024,1.0,1.0
4.631319046020508,9.949183464050291,-0.0074119567871093,-0.8160215468663243,0.5020696003144124,0.2864174427125864,0.2003159981530102,4.0,0.0
4.402541160583496,10.266764640808104,-0.0912737846374511,-0.0,-0.0,-1.0,0.1740674979085864,1.0,0.0
4.244675636291504,10.570844650268556,0.2956576347351074,-0.0,-0.0,-1.0,0.2008357357032427,2.0,1.0
4.502573013305664,8.782613754272461,0.1422533988952636,-0.0,-0.0,-1.0,0.1715734400339327,2.0,1.0
4.582485198974609,9.271535873413086,0.0852108001708984,-0.0,-0.0,-1.0,0.1526200035942811,2.0,1.0
4.278439044952393,9.675559043884276,-0.0236673355102539,-0.0,-0.0,-1.0,0.0950629730913103,2.0,0.0
4.331294536590576,10.075101852416992,-0.0739297866821289,-0.0,-0.0,-1.0,0.2280074883396256,1.0,0.0
3.961456298828125,10.359917640686035,0.2821247577667236,-0.0,-0.0,-1.0,0.2070805518507495,1.0,1.0
4.325408935546875,10.314830780029297,0.3377435207366943,-0.4714579511856198,0.3152079689129861,-0.8236330108717157,0.2225130446652687,5.0,1.0
4.398041725158691,10.507034301757812,0.3240880966186523,-0.0217289710115483,-0.9992939677774768,0.0306499230394915,0.2191804889489183,3.0,1.0
4.210463523864746,10.248247146606444,0.329998254776001,-0.0,-0.0,-1.0,0.2471303591729599,1.0,1.0
4.172707557678223,10.4490385055542,0.3006181716918945,-0.0,-0.0,-1.0,0.2516046847496065,1.0,1.0
4.062537670135498,10.207816123962402,0.7598880529403687,-0.0,-0.0,-1.0,0.1910310428731713,1.0,1.0
4.202570915222168,10.38406753540039,0.7600666284561157,-0.0,-0.0,-1.0,0.1635464238514163,1.0,1.0
5.065467834472656,10.603568077087402,-0.1689505577087402,-0.0,-0.0,-1.0,0.1391429369047699,1.0,0.0
5.0816521644592285,9.851927757263184,-0.035754919052124,-0.0,-0.0,-1.0,0.1201665470322718,2.0,0.0
4.871820449829102,10.234704971313477,-0.1393835544586181,-0.0,-0.0,-1.0,0.0672608933640104,1.0,0.0
5.146500587463379,8.620124816894531,-0.172264814376831,-0.0,-0.0,-1.0,0.1275053099724789,2.0,0.0
4.613341331481934,9.443281173706056,-0.0553803443908691,-0.0,-0.0,-1.0,0.1461354539345464,1.0,0.0
4.657541751861572,9.804437637329102,-0.1063969135284423,-0.0,-0.0,-1.0,0.1810193964423419,1.0,0.0
4.6588873863220215,10.178437232971191,-0.1687052249908447,-0.0,-0.0,-1.0,0.0592455067983764,2.0,0.0
4.949673175811768,8.144136428833008,-0.1282765865325927,-0.0,-0.0,-1.0,0.0655267675875468,2.0,0.0
4.895255088806152,8.521785736083984,-0.2096607685089111,-0.0,-0.0,-1.0,0.0907258849795707,1.0,0.0
4.497164726257324,9.338911056518556,-0.0612392425537109,-0.3889730177120803,-0.58184532664672,-0.7142520614960304,0.1874917456243434,3.0,0.0
4.294222831726074,9.559249877929688,-0.1364154815673828,-0.0,-0.0,-1.0,0.1736370288798338,1.0,0.0
4.520166397094727,10.019867897033691,0.2336618900299072,-0.0,-0.0,-1.0,0.1424684689308078,1.0,1.0
4.366380214691162,10.46050262451172,0.1473886966705322,0.6148127963893738,-0.4677276374862544,-0.6350087263395718,0.2628930686477752,5.0,1.0
4.600691318511963,8.81906509399414,0.0417110919952392,0.9926535953168288,-0.1115737211196613,0.0467989792632907,0.1744386377916728,3.0,1.0
4.163031101226807,10.358261108398438,0.1280152797698974,-0.0,-0.0,-1.0,0.218155714517275,1.0,1.0
4.31871223449707,10.485554695129396,0.5497477054595947,-0.0,-0.0,-1.0,0.1509412423226906,1.0,1.0
4.161251544952393,10.337200164794922,0.5434563159942627,-0.0,-0.0,-1.0,0.1508445370371951,2.0,1.0
5.080761432647705,9.305585861206056,-0.1262197494506836,-0.0,-0.0,-1.0,0.1740704489093771,1.0,0.0
5.051924705505371,9.645358085632324,-0.2060339450836181,-0.0,-0.0,-1.0,0.1439753143165213,1.0,0.0
4.467942714691162,10.57735824584961,-0.1389460563659668,-0.0,-0.0,-1.0,0.1294851955200905,1.0,0.0
4.695276260375977,9.167095184326172,-0.1768112182617187,-0.0,-0.0,-1.0,0.19768202567738,1.0,0.0
4.545841217041016,8.795501708984375,-0.1328063011169433,-0.0,-0.0,-1.0,0.2000959473871083,2.0,0.0
4.569411277770996,9.045940399169922,-0.1785955429077148,-0.0,-0.0,-1.0,0.1386778820298258,1.0,0.0
5.06040096282959,10.124801635742188,0.0510039329528808,-0.0,-0.0,-1.0,0.1514747599113708,2.0,1.0
5.196260452270508,8.771556854248047,0.0125694274902343,-0.0,-0.0,-1.0,0.1319897729752254,1.0,1.0
4.715568542480469,9.909561157226562,0.0321037769317626,-0.0,-0.0,-1.0,0.2107828176451904,1.0,1.0
