x,y,z,nx,ny,nz,curvature,density,label
16.519853591918945,-9.40652084350586,0.5110574960708618,-0.0,-0.0,-1.0,0.1758222262926601,2.0,1.0
15.598968505859377,-10.086969375610352,1.3550142049789429,-0.0,-0.0,-1.0,0.1464672874701328,1.0,2.0
15.751838684082031,-9.781024932861328,1.3447984457015991,-0.0,-0.0,-1.0,0.2405725948617155,2.0,2.0
17.022232055664062,-9.80413055419922,1.2770696878433228,-0.5204453280430271,-0.2407604917137641,-0.8192502951772018,0.2073664170113005,3.0,2.0
17.259679794311523,-9.757261276245115,1.2636162042617798,-0.5535612102187835,0.6738640456420254,-0.489364112427626,0.2103285503625301,4.0,2.0
16.117033004760742,-9.59263038635254,1.324229121208191,-0.0,-0.0,-1.0,0.2301439665693291,2.0,2.0
16.383647918701172,-9.647926330566406,1.3104785680770874,-0.0,-0.0,-1.0,0.1665911503895487,1.0,2.0
16.554384231567383,-9.50997543334961,1.3002668619155884,0.7825618163287694,0.028884156652242,-0.6219024916485751,0.2297173686140074,4.0,2.0
16.77320098876953,-9.605594635009766,1.2891666889190674,-0.0,-0.0,-1.0,0.1905678987103447,1.0,2.0
17.149463653564453,-9.376859664916992,1.266800880432129,-0.0,-0.0,-1.0,0.1262736640997482,2.0,2.0
15.255407333374023,-10.511094093322754,1.0402135848999023,-0.041306791186492,0.1166861890123312,-0.9923094690144064,0.2505089913794618,3.0,2.0
15.406465530395508,-10.670863151550291,1.029536485671997,-0.0,-0.0,-1.0,0.2264359560943834,2.0,2.0
15.645044326782228,-10.692131996154783,1.0150357484817505,-0.0,-0.0,-1.0,0.1664218330013153,2.0,2.0
16.54043960571289,-10.722933769226074,0.9599559903144836,-0.7198706658757474,-0.6934651616542178,-0.0298712902884638,0.1616183622300847,3.0,1.0
15.436540603637695,-9.829571723937988,1.0366790294647217,-0.0,-0.0,-1.0,0.2387455041042721,1.0,2.0
16.094982147216797,-9.961861610412598,0.9955207109451294,0.5949917553169286,0.3551413508981831,-0.7210127821246263,0.2370367755533293,4.0,1.0
16.60980224609375,-10.257830619812012,0.960586428642273,-0.0,-0.0,-1.0,0.1959394267943347,2.0,1.0
16.29240608215332,-9.810973167419434,0.9850044846534728,-0.0,-0.0,-1.0,0.2309694873120756,2.0,1.0
16.29503631591797,-9.959097862243652,0.983273148536682,-0.0,-0.0,-1.0,0.1615535341939438,2.0,1.0
16.75405502319336,-9.516631126403809,0.9594449996948242,0.27353180272644,0.2252503482260021,-0.9351163743199498,0.2921775318902798,3.0,1.0
16.424182891845703,-10.707106590270996,1.7819539308547974,-0.2071165251055492,-0.973337844775546,-0.0985707104362019,0.2060655605962273,7.0,2.0
15.263525009155272,-10.409818649291992,0.9000650644302368,-0.0,-0.0,-1.0,0.1676738570441812,2.0,1.0
15.255906105041504,-10.49962043762207,0.8986550569534302,-0.0,-0.0,-1.0,0.1120330694091678,2.0,1.0
15.51046085357666,-9.713972091674805,0.8988037109375,-0.0,-0.0,-1.0,0.2176244576211463,2.0,1.0
16.47510528564453,-10.189886093139648,0.8243649005889893,-0.0,-0.0,-1.0,0.1960199839192976,1.0,1.0
16.586776733398438,-10.191282272338867,0.8167515397071838,-0.963905233129747,0.2609829570274991,-0.0526744500329228,0.2855450475483842,3.0,1.0
16.790315628051758,-9.451303482055664,0.8187391757965088,-0.3253866417499096,-0.8432002814247674,-0.4279448781980092,0.2107390104650883,3.0,1.0
17.010061264038086,-9.749914169311523,0.7972145676612854,-0.0,-0.0,-1.0,0.2222075972886629,2.0,1.0
17.24880599975586,-9.552824020385742,0.7848855257034302,-0.6954886734500179,-0.5438066901773468,-0.4696485801331602,0.1178599240777157,4.0,1.0
16.159502029418945,-10.484115600585938,1.6236422061920166,-0.9752396264808454,0.168479262805991,0.1432564446922062,0.1392016042856418,3.0,2.0
16.4713134765625,-10.501222610473633,1.602431058883667,-0.0,-0.0,-1.0,0.229549029318765,1.0,2.0
16.364212036132812,-10.239042282104492,1.6062617301940918,-0.7897693671140824,-0.6109393796065938,0.0549310587384941,0.1281063947027609,3.0,2.0
16.723960876464844,-9.556283950805664,1.5722362995147705,0.5877899131339889,0.2116878026455364,-0.7808273126812628,0.1922765544244761,3.0,2.0
17.11173439025879,-9.716339111328123,1.54754376411438,0.9886718406158984,0.0499005825005344,-0.1415553723434023,0.2137894992750451,3.0,2.0
17.094526290893555,-9.434232711791992,1.5449376106262207,-0.5797854415502858,0.6338085566630124,-0.5119917531240997,0.2038954558760354,4.0,2.0
15.702168464660645,-9.725905418395996,0.6242672801017761,-0.0,-0.0,-1.0,0.2417717888075443,1.0,1.0
16.026214599609375,-9.45740032196045,0.6147308349609375,-0.0,-0.0,-1.0,0.1953008311478617,1.0,1.0
15.638757705688477,-9.96921443939209,1.3685109615325928,-0.0,-0.0,-1.0,0.1400451097748572,1.0,2.0
16.22024917602539,-10.165104866027832,1.3309006690979004,0.8730057087494557,0.2801733524212879,-0.3992041145628107,0.2044309678672006,3.0,2.0
16.180110931396484,-9.40501880645752,1.3351892232894895,0.4754218475647557,-0.5658992854144358,-0.6735963669925371,0.1904568007402734,3.0,2.0
16.757051467895508,-9.413399696350098,1.298061728477478,0.1259478267673493,-0.0011432902779136,-0.9920362079177968,0.1850557026724929,3.0,2.0
17.029680252075195,-9.725668907165527,1.279708743095398,0.0103542522933299,0.9820963219263796,-0.1880946674366999,0.2325094583456123,3.0,2.0
17.286151885986328,-9.735054969787598,1.2630391120910645,-0.5535612102187835,0.6738640456420254,-0.489364112427626,0.2737502000301526,4.0,2.0
15.541696548461914,-10.628628730773926,0.9820554852485656,-0.0,-0.0,-1.0,0.2209584711600597,2.0,1.0
15.426145553588867,-10.409066200256348,0.994010090827942,-0.5703163575369974,0.2997635857815722,-0.764775159746383,0.2030927271906862,3.0,1.0
15.882986068725586,-9.87608242034912,0.9778507947921752,-0.0,-0.0,-1.0,0.1362146344107102,1.0,1.0
16.09961700439453,-9.88635540008545,0.9641553163528442,-0.0,-0.0,-1.0,0.1592391298603563,1.0,1.0
16.45014190673828,-9.546284675598145,0.949775457382202,-0.0,-0.0,-1.0,0.1708596422095107,2.0,1.0
17.054546356201172,-9.748208045959473,0.906569480895996,-0.0942673107373317,0.4692414528284908,-0.8780239934499279,0.2374536488724675,4.0,1.0
16.732688903808594,-9.410807609558104,0.934920072555542,-0.4721873819250571,0.1222071024104724,-0.8729859680837926,0.2197492015801007,4.0,1.0
16.86195182800293,-9.528347969055176,0.9239845275878906,0.3519986595161754,-0.2806552539697319,-0.8929331285813069,0.266248779217372,3.0,1.0
17.2423095703125,-9.646113395690918,0.8966751098632812,-0.0,-0.0,-1.0,0.1701549943509309,2.0,1.0
16.260589599609375,-10.668641090393066,1.690359592437744,-0.0,-0.0,-1.0,0.2122371881290994,2.0,2.0
16.340456008911133,-10.63442325592041,1.684558391571045,-0.1584275337775484,0.6577434507821127,-0.7363927413373941,0.192895050405573,5.0,2.0
16.631698608398438,-10.69294261932373,1.665588140487671,-0.0,-0.0,-1.0,0.2291658448108507,2.0,2.0
16.690792083740234,-9.504305839538574,1.647169589996338,-0.0,-0.0,-1.0,0.1868090217520431,1.0,2.0
16.956153869628906,-9.69961643218994,1.6315548419952393,-0.758521168213241,0.0951124239563781,-0.6446698877577285,0.20273056935145,3.0,2.0
17.231382369995117,-9.835885047912598,1.614490032196045,-0.0,-0.0,-1.0,0.1444538450688734,1.0,2.0
17.04212188720703,-9.550362586975098,1.6239099502563477,-0.4058226604658519,0.652984734735965,-0.639467672720224,0.2077298675704372,4.0,2.0
17.167612075805664,-9.741942405700684,1.6176964044570925,-0.0,-0.0,-1.0,0.1583185679800917,1.0,2.0
15.572406768798828,-10.699767112731934,1.1815478801727295,0.5802436643367921,0.3176263622972345,-0.749953854560958,0.152313079481354,5.0,2.0
15.662029266357422,-10.815951347351074,1.1751381158828735,-0.7562887288817286,-0.0709563571102429,-0.6503787772922043,0.1780171967285683,4.0,2.0
16.73124122619629,-10.88319492340088,1.117340087890625,-0.997667681831268,0.0260977189170679,-0.0630722260329339,0.169524473892553,3.0,2.0
16.069231033325195,-9.697495460510254,1.171169400215149,-0.0,-0.0,-1.0,0.1326171457887942,2.0,2.0
16.322078704833984,-9.469828605651855,1.161410927772522,0.3176830342071361,-0.8309372068134945,-0.456750312654447,0.2033898819974899,4.0,2.0
16.6250057220459,-9.534464836120604,1.144297480583191,-0.714300302174884,0.6076092070689301,0.3472551364601184,0.1665953311839647,3.0,2.0
17.331912994384766,-9.435256004333496,1.1073508262634275,-0.0,-0.0,-1.0,0.1939162221825552,1.0,2.0
17.556957244873047,-9.868021965026855,1.0878499746322632,-0.0,-0.0,-1.0,0.1509867332651223,1.0,2.0
16.39895248413086,-10.65861988067627,1.8737260103225708,-0.680729958494136,-0.5383125169716053,-0.49681622123303,0.1471695269826311,3.0,2.0
15.408334732055664,-10.58653736114502,1.0807267427444458,0.4798075320505064,-0.8283948340835984,0.2890445139614477,0.2444434998643398,3.0,2.0
15.68989372253418,-10.645447731018066,1.067268133163452,-0.5475097082662304,0.1810291288945316,-0.816983215155559,0.2572881715917334,5.0,2.0
16.012866973876953,-9.943451881408691,1.0676506757736206,-0.0,-0.0,-1.0,0.2111003936959611,2.0,2.0
16.12653350830078,-10.04658031463623,1.060451626777649,-0.0,-0.0,-1.0,0.2191843454420345,2.0,2.0
15.893726348876951,-9.56635570526123,1.0807340145111084,-0.0,-0.0,-1.0,0.157663654427387,1.0,2.0
16.849626541137695,-9.991202354431152,1.0287480354309082,-0.0,-0.0,-1.0,0.2569223092886432,1.0,2.0
17.526193618774414,-10.492999076843262,0.9859135150909424,-0.1619363790494892,0.1996344936127352,-0.966396749839488,0.1407494681393945,3.0,1.0
16.357479095458984,-9.371705055236816,1.0642869472503662,-0.8033906836966009,0.2703525225768792,0.5305402179720464,0.1217415080270767,3.0,2.0
16.652198791503906,-9.433518409729004,1.049675464630127,-0.0,-0.0,-1.0,0.1951346992660833,2.0,2.0
17.28521728515625,-9.518292427062988,1.0184881687164309,0.6003425532772978,0.5273933838418848,-0.6012029918457663,0.1831657684295794,3.0,2.0
16.507495880126953,-10.554688453674316,1.747330665588379,-0.0,-0.0,-1.0,0.1136812877539901,1.0,2.0
15.58878231048584,-10.712224960327148,1.174084186553955,0.5802436643367921,0.3176263622972345,-0.749953854560958,0.1729297231717083,5.0,2.0
15.67169952392578,-10.80333137512207,1.1688315868377686,-0.5588030589661586,0.0138264522394472,-0.8291851243893212,0.1862217279817888,3.0,2.0
16.05592155456543,-9.775001525878906,1.170979380607605,-0.0107704709616919,-0.7204698378351372,-0.6934026317552267,0.2085939110665281,3.0,2.0
16.552520751953125,-10.279775619506836,1.1395511627197266,-0.0,-0.0,-1.0,0.1047989154570119,2.0,2.0
16.813997268676758,-9.818000793457031,1.136411428451538,-0.0,-0.0,-1.0,0.2268872766833839,1.0,2.0
16.842041015625,-9.471439361572266,1.1416876316070557,-0.0,-0.0,-1.0,0.2280724009137904,2.0,2.0
17.187509536743164,-9.792499542236328,1.119709014892578,-0.4180532714967518,0.4870494220599199,-0.7668209195515996,0.1818415762546371,5.0,2.0
16.409006118774414,-10.640670776367188,1.840502381324768,-0.680729958494136,-0.5383125169716053,-0.49681622123303,0.192842493087626,3.0,2.0
15.390000343322754,-10.431832313537598,1.0120412111282349,-0.5664132646065212,0.2241894755227799,-0.79304167150447,0.1417681264344983,4.0,2.0
15.458724975585938,-9.554553031921388,1.0266809463500977,-0.0,-0.0,-1.0,0.1466351935079692,1.0,2.0
15.88364028930664,-9.813864707946776,1.0173008441925049,-0.0,-0.0,-1.0,0.1424437569420245,1.0,2.0
15.969029426574709,-9.86814022064209,1.0153512954711914,0.2723622454060835,0.0840493725392566,-0.9585168283619818,0.1699907169105495,4.0,2.0
16.524700164794922,-10.708048820495604,0.9937064051628112,-0.8967351139340376,-0.4402086096670715,-0.0456345857074711,0.1985035681317696,5.0,1.0
15.874863624572754,-9.5657377243042,1.0217875242233276,-0.0,-0.0,-1.0,0.2133135311085564,1.0,2.0
16.247051239013672,-9.878016471862791,1.0119121074676514,-0.0,-0.0,-1.0,0.129693440348915,1.0,2.0
16.686080932617188,-9.517428398132324,1.013087272644043,-0.0,-0.0,-1.0,0.1706822994113464,1.0,2.0
16.895170211791992,-9.79808521270752,1.005486249923706,-0.0,-0.0,-1.0,0.2631182643170691,2.0,2.0
17.08647918701172,-9.417241096496582,1.009976148605347,-0.0915024741786796,0.9837290383544643,-0.1546107251046356,0.1602764980622532,4.0,2.0
16.302248001098633,-10.667078971862791,1.6810004711151123,0.1144530291300455,-0.9280058770573156,0.3545498501904058,0.2378919451367701,3.0,2.0
16.6423282623291,-9.491768836975098,1.6552608013153076,-0.0,-0.0,-1.0,0.1854785956655843,1.0,2.0
17.003734588623047,-9.71237850189209,1.6501233577728271,-0.0,-0.0,-1.0,0.1904034245384168,1.0,2.0
17.01921272277832,-9.37332248687744,1.644618034362793,-0.0,-0.0,-1.0,0.174465696979965,2.0,2.0
15.637134552001951,-9.372820854187012,0.6388006210327148,-0.0,-0.0,-1.0,0.1585322114487781,1.0,1.0
15.74515151977539,-9.700520515441896,0.6286728382110596,-0.0,-0.0,-1.0,0.2477577999893052,1.0,1.0
16.1307430267334,-9.44923496246338,0.640164852142334,-0.8508105842393918,0.4884000576496071,0.1938729827337614,0.1718998884966217,3.0,1.0
16.332347869873047,-9.76433277130127,0.6310518980026245,-0.0,-0.0,-1.0,0.1798044024062979,1.0,1.0
16.676088333129883,-9.503493309020996,0.6424344182014465,0.538232905241292,-0.7586808286780569,-0.3670268926276324,0.1980421964371844,7.0,1.0
17.054609298706055,-9.454352378845217,0.6468033790588379,-0.2231511705701045,-0.8786199848256143,-0.422173515675995,0.2240256743943581,3.0,1.0
15.834600448608398,-9.601222038269045,1.261500358581543,-0.0,-0.0,-1.0,0.218491298319436,1.0,2.0
16.123830795288086,-9.479100227355955,1.25981867313385,-0.0,-0.0,-1.0,0.2099109085483961,2.0,2.0
16.37881088256836,-10.2411470413208,1.2568564414978027,-0.0,-0.0,-1.0,0.2331446452371681,1.0,2.0
16.89223861694336,-10.689995765686035,1.2531882524490356,-0.0,-0.0,-1.0,0.1902389588460804,1.0,2.0
16.42346954345703,-9.487359046936035,1.257880926132202,-0.0,-0.0,-1.0,0.1973430614755785,2.0,2.0
16.61886215209961,-9.603127479553224,1.2564845085144043,0.6409974889405385,0.5208675389897742,-0.5637545795810979,0.1841076869255488,3.0,2.0
16.979694366455078,-9.414286613464355,1.2546324729919434,-0.508031156230346,0.5553507543022763,0.6583994866303818,0.1204959081697148,3.0,2.0
15.21448802947998,-9.674488067626951,0.9681130051612854,-0.0,-0.0,-1.0,0.0738597589965791,1.0,1.0
15.501779556274414,-9.739797592163086,0.9700417518615724,-0.0,-0.0,-1.0,0.1912184499208943,2.0,1.0
15.813871383666992,-9.650815963745115,0.9739019870758056,-0.0,-0.0,-1.0,0.1925266156513619,1.0,1.0
15.993408203125,-9.759927749633787,0.9742321968078612,-0.0,-0.0,-1.0,0.2103220200592513,1.0,1.0
16.331260681152344,-9.466005325317385,0.980609655380249,-0.0,-0.0,-1.0,0.1691975610163117,1.0,1.0
16.372005462646484,-9.802446365356444,0.9769994020462036,0.927042015964975,-0.0094932286997038,-0.3748372703513487,0.2662456148661933,3.0,1.0
16.289958953857422,-10.077459335327148,0.9829395413398744,-0.0,-0.0,-1.0,0.2142587766257006,2.0,1.0
16.885927200317383,-9.485679626464844,0.9938206672668456,-0.0,-0.0,-1.0,0.2267403263145439,1.0,1.0
17.431922912597656,-9.85976219177246,0.9922666549682616,-0.0,-0.0,-1.0,0.1807044759848955,1.0,1.0
15.885976791381836,-9.644689559936523,1.580401062965393,-0.0,-0.0,-1.0,0.1546489843211374,1.0,2.0
16.343360900878906,-9.513263702392578,1.574843168258667,-0.0,-0.0,-1.0,0.1409574365247642,2.0,2.0
16.419078826904297,-9.632623672485352,1.5767368078231812,-0.0,-0.0,-1.0,0.1462727183669305,1.0,2.0
16.670366287231445,-9.369516372680664,1.56995952129364,-0.0,-0.0,-1.0,0.2062481090399553,2.0,2.0
16.780181884765625,-9.736448287963867,1.579652190208435,-0.0,-0.0,-1.0,0.1465547629410886,1.0,2.0
17.112258911132812,-9.469793319702148,1.5776504278182983,-0.0,-0.0,-1.0,0.2326683624373048,1.0,2.0
17.036848068237305,-9.885995864868164,1.5864591598510742,-0.8910175406094838,0.3033611266337098,0.3377273592319007,0.2119851180628991,4.0,2.0
15.48126983642578,-9.446311950683594,0.6266078948974609,-0.0,-0.0,-1.0,0.1222738239449764,1.0,1.0
15.30832576751709,-9.60222053527832,0.6215255260467529,0.3527101454867821,-0.1867010560966597,-0.9169178092517806,0.1996240268288487,3.0,1.0
15.951684951782228,-9.393488883972168,0.6206587553024292,-0.0,-0.0,-1.0,0.163018204691304,1.0,1.0
15.747965812683104,-9.58717441558838,0.6141318082809448,-0.0,-0.0,-1.0,0.1882147598787028,1.0,1.0
15.773761749267578,-9.949341773986816,0.5942212343215942,-0.0,-0.0,-1.0,0.2980269740400804,1.0,1.0
16.238622665405273,-9.384793281555176,0.6155679225921631,-0.9710801881103108,0.0276202861898359,0.23715055987797,0.1144521935572381,5.0,1.0
16.413488388061523,-9.727240562438965,0.5934791564941406,-0.0,-0.0,-1.0,0.1644625473318637,1.0,1.0
16.30071449279785,-9.951151847839355,0.5836049914360046,-0.0,-0.0,-1.0,0.2586665205524686,1.0,1.0
16.6392822265625,-9.396711349487305,0.6067749857902527,-0.0,-0.0,-1.0,0.1839971454197787,1.0,1.0
16.648900985717773,-9.568367004394531,0.5972451567649841,-0.5810687863780323,0.2330840004482245,-0.7797633706658789,0.1170350975002636,3.0,1.0
16.062042236328125,-9.699705123901367,1.1739487648010254,-0.0,-0.0,-1.0,0.1316533586299308,2.0,2.0
16.12880516052246,-10.336715698242188,1.1568177938461304,-0.0,-0.0,-1.0,0.1722047013641662,1.0,2.0
16.383760452270508,-9.45461654663086,1.1680173873901367,-0.0,-0.0,-1.0,0.2179760033339094,2.0,2.0
16.336946487426758,-9.54512882232666,1.167613506317139,-0.0,-0.0,-1.0,0.1902401158190961,1.0,2.0
16.683141708374023,-9.415166854858398,1.1580891609191897,0.0737382627897853,0.8703410675765461,0.4868974170094382,0.1482625128168177,3.0,2.0
16.751220703125,-9.587531089782717,1.1515991687774658,-0.0,-0.0,-1.0,0.2254401707802333,1.0,2.0
17.173717498779297,-10.004401206970217,1.1263071298599243,-0.0,-0.0,-1.0,0.0989630380380596,2.0,2.0
17.395492553710938,-9.908984184265137,1.120328664779663,-0.630041099960648,0.1977067850575913,-0.7509728620280284,0.2354144223250512,4.0,2.0
16.468631744384766,-10.713207244873049,1.7327873706817627,-0.0,-0.0,-1.0,0.1585742571056903,2.0,2.0
15.42269802093506,-9.419153213500977,0.7173615097999573,-0.0,-0.0,-1.0,0.1478934465902279,1.0,1.0
16.0126953125,-9.55068588256836,0.693831205368042,-0.248722426673066,0.9419403752780372,0.2255781103984409,0.2103757344548391,4.0,1.0
15.75531768798828,-9.774909973144531,0.6873996257781982,-0.0,-0.0,-1.0,0.1599065994829883,1.0,1.0
16.296199798583984,-9.43018913269043,0.693120002746582,-0.383752112521208,-0.9043843425590236,0.1866099597277513,0.1717251166681639,3.0,1.0
16.24631118774414,-9.891485214233398,0.6662319898605347,-0.0,-0.0,-1.0,0.2229359226379894,1.0,1.0
16.668621063232422,-9.510494232177734,0.6770559549331665,0.3912500949616,-0.8550633031842448,0.3402794597682724,0.2819331079071873,5.0,1.0
16.933021545410156,-9.454944610595703,0.6722685098648071,-0.0,-0.0,-1.0,0.2377994779585589,1.0,1.0
16.01679801940918,-9.69439697265625,1.2235074043273926,-0.0,-0.0,-1.0,0.1451526397803729,1.0,2.0
16.061660766601562,-10.271444320678713,1.2035759687423706,-0.388021497197448,0.2664664078727679,-0.8822896186559345,0.1443563096428846,3.0,2.0
17.12586212158203,-10.351825714111328,1.149571418762207,-0.0,-0.0,-1.0,0.2150118350268042,1.0,2.0
17.470382690429688,-10.496925354003906,1.1274226903915403,-0.3579979328166424,0.2758536990204185,-0.892043842440361,0.1354272919454016,3.0,2.0
15.952432632446287,-9.500114440917969,1.2323787212371826,-0.0,-0.0,-1.0,0.2501180665716769,2.0,2.0
16.336700439453125,-9.459632873535156,1.2159559726715088,-0.0,-0.0,-1.0,0.2048137376094708,2.0,2.0
16.691486358642578,-9.439298629760742,1.199961543083191,0.4707436624594957,0.8093525646699039,0.3512105213635672,0.2060624401003087,4.0,2.0
17.10112762451172,-9.838111877441406,1.167495846748352,0.1460736609161279,0.8775469985215233,-0.4566987529788376,0.2357665296824047,6.0,2.0
16.926408767700195,-9.797863006591797,1.7035534381866455,-0.6139264232592134,0.7051026033605323,-0.3548586557466914,0.222191814577539,3.0,2.0
17.09838104248047,-9.690696716308594,1.6925586462020874,0.5012938145793197,0.8408502955371103,-0.2041452717053934,0.1684008462158718,3.0,2.0
15.88167953491211,-9.505702018737791,0.6182569265365601,-0.0,-0.0,-1.0,0.2067586871154483,1.0,1.0
16.430070877075195,-9.39458179473877,0.6160459518432617,0.2704633162803093,-0.5008945537759678,-0.8221643634603922,0.1116120757317967,3.0,1.0
16.255474090576172,-9.829232215881348,0.5901382565498352,-0.0,-0.0,-1.0,0.1713295428118114,1.0,1.0
15.238404273986816,-10.602603912353516,1.105015754699707,-0.0,-0.0,-1.0,0.2377297970273949,2.0,2.0
15.732638359069824,-10.69919776916504,1.0832293033599854,-0.0586609967745489,-0.6349480122467497,-0.77032454796749,0.1950644403893714,4.0,2.0
15.287473678588867,-9.392245292663574,1.147136688232422,-0.0,-0.0,-1.0,0.1892370755237318,2.0,2.0
16.03238868713379,-9.874951362609863,1.102982521057129,-0.0,-0.0,-1.0,0.1390030821158578,1.0,2.0
16.08132553100586,-10.039523124694824,1.0950084924697876,-0.0,-0.0,-1.0,0.1553602447018985,2.0,2.0
16.33085060119629,-9.413229942321776,1.1092007160186768,-0.0,-0.0,-1.0,0.1409974233599506,2.0,2.0
16.724872589111328,-9.415780067443848,1.094304084777832,-0.0,-0.0,-1.0,0.1510095204744942,2.0,2.0
16.832853317260742,-10.799949645996094,1.0364434719085691,-0.0,-0.0,-1.0,0.1772540603563403,1.0,2.0
17.266639709472656,-9.820452690124512,1.05747652053833,-0.252055702694643,0.5541872867914438,-0.7933122801884817,0.1992518840736065,3.0,2.0
17.664669036865234,-10.45900535583496,1.015592336654663,-0.0,-0.0,-1.0,0.0703984292002194,1.0,2.0
16.607101440429688,-9.706501960754396,1.5834895372390747,-0.0,-0.0,-1.0,0.2529101576778914,1.0,2.0
16.664520263671875,-10.719643592834473,1.5717262029647827,-0.9219220484043604,0.3479007058610464,-0.170366767672848,0.2326247480291757,3.0,2.0
16.7679386138916,-9.50620174407959,1.5760746002197266,0.3031466382392891,0.8939716053847074,-0.3300255815692273,0.2766344294590735,3.0,2.0
17.026294708251953,-10.598623275756836,1.5521347522735596,-0.0,-0.0,-1.0,0.1357419116745633,2.0,2.0
17.069255828857422,-9.374975204467772,1.560149908065796,-0.1915990340070241,-0.5860585767843415,-0.7872897527245527,0.1853032010904228,3.0,2.0
17.15973663330078,-9.749191284179688,1.5518450736999512,0.0009594056838952,0.7919273502226453,-0.6106145687011354,0.2189347192722987,3.0,2.0
15.647269248962402,-9.691387176513672,0.8992778062820435,-0.9893973894101056,0.0320348511371144,0.1416565358220026,0.2080617258651837,3.0,1.0
15.57648754119873,-9.90192985534668,0.8894383907318115,-0.0,-0.0,-1.0,0.2111718728195354,2.0,1.0
15.809463500976562,-9.875116348266602,0.8840163946151733,-0.0,-0.0,-1.0,0.1483647325920375,2.0,1.0
16.288345336914062,-9.469783782958984,0.8928031921386719,-0.0,-0.0,-1.0,0.2450203030184471,2.0,1.0
16.289945602416992,-9.74216079711914,0.8770671486854553,-0.0,-0.0,-1.0,0.251650000453509,1.0,1.0
16.711267471313477,-9.46129035949707,0.8802067637443542,-0.4109261140752808,-0.8541016791934686,0.318826050331348,0.2694646780193022,4.0,1.0
17.26741600036621,-10.031448364257812,0.8283109664916992,-0.0,-0.0,-1.0,0.2327737985000142,1.0,1.0
17.203664779663086,-10.542827606201172,0.7997716665267944,-0.0,-0.0,-1.0,0.2557648491089751,1.0,1.0
17.14031219482422,-11.08769989013672,0.769025444984436,-0.0,-0.0,-1.0,0.2238359018761296,1.0,1.0
17.1852970123291,-11.312067031860352,0.7537626624107361,-0.0,-0.0,-1.0,0.1732455182432869,1.0,1.0
17.256427764892578,-9.454181671142578,0.8630574941635132,-0.1045326488719662,0.2512088890026438,-0.9622718012110032,0.256753636107753,3.0,1.0
17.289852142333984,-9.650598526000977,0.8502882122993469,-0.0,-0.0,-1.0,0.2187678623799261,1.0,1.0
17.362834930419922,-10.60032844543457,0.790712833404541,-0.0,-0.0,-1.0,0.2436043358740529,1.0,1.0
16.330745697021484,-9.370540618896484,1.3585304021835327,-0.0,-0.0,-1.0,0.157035309541157,1.0,2.0
16.507347106933594,-10.139514923095703,1.3269013166427612,-0.0,-0.0,-1.0,0.2333910402845945,1.0,2.0
16.67340850830078,-9.379005432128906,1.340761661529541,-0.0,-0.0,-1.0,0.1257502470089261,1.0,2.0
17.118587493896484,-9.504316329956056,1.3141218423843384,-0.0,-0.0,-1.0,0.236000188011806,2.0,2.0
17.216957092285156,-9.723670959472656,1.302492618560791,-0.0,-0.0,-1.0,0.1541078548728199,2.0,2.0
17.065675735473633,-10.781932830810549,1.2786695957183838,-0.7696169248476952,0.4954699490879318,-0.4027397652812292,0.1669428022345787,6.0,2.0
17.416038513183594,-9.788070678710938,1.2901822328567505,-0.0,-0.0,-1.0,0.1734373258398895,1.0,2.0
17.654499053955078,-11.010589599609377,1.2406368255615234,0.9279703355369432,0.2284531745693717,0.2944150189657943,0.1198863752216866,10.0,2.0
16.43305206298828,-10.69865608215332,1.8118789196014404,0.481719577730844,0.7276622877632462,-0.4883173593043526,0.2023318237989633,8.0,2.0
15.82367992401123,-9.410283088684082,0.514814555644989,-0.0,-0.0,-1.0,0.1763099206031682,1.0,1.0
15.531566619873049,-9.80015468597412,0.9468727111816406,-0.0,-0.0,-1.0,0.2127550857244784,2.0,1.0
15.796377182006836,-9.505489349365234,0.9581111669540404,-0.0,-0.0,-1.0,0.2578410835665667,2.0,1.0
15.704791069030762,-9.885497093200684,0.9393415451049804,-0.0,-0.0,-1.0,0.1515944304044115,1.0,1.0
16.173992156982422,-9.731352806091309,0.9391900897026062,-0.0,-0.0,-1.0,0.2129021397924695,2.0,1.0
16.56321144104004,-9.614898681640623,0.938078761100769,0.9047187787161556,-0.3508157475976564,-0.2416862484210581,0.1575732611377778,3.0,1.0
16.645824432373047,-10.77116584777832,0.8695162534713745,-0.3339823852561353,0.0709513588054929,-0.939905139374329,0.2383863952016086,3.0,1.0
17.11634063720703,-10.416698455810549,0.8789926767349243,-0.0,-0.0,-1.0,0.2028571851605619,2.0,1.0
17.279239654541016,-9.639363288879396,0.9210983514785768,0.0054075770635667,0.9617208732367664,-0.2739775904905605,0.2323068442840114,3.0,1.0
17.532588958740234,-9.8103609085083,0.9048373699188232,-0.0,-0.0,-1.0,0.1868790544384482,1.0,1.0
15.955323219299316,-9.4263916015625,1.4040967226028442,-0.0,-0.0,-1.0,0.2083360196044289,2.0,2.0
15.702900886535645,-9.914902687072754,1.4008798599243164,-0.0,-0.0,-1.0,0.1705259243167994,1.0,2.0
16.286394119262695,-9.370205879211426,1.392289638519287,-0.0,-0.0,-1.0,0.1807811842439963,1.0,2.0
16.66570281982422,-9.608742713928224,1.369762897491455,-0.0,-0.0,-1.0,0.2294710487444365,2.0,2.0
16.600391387939453,-10.024368286132812,1.360461711883545,-0.0,-0.0,-1.0,0.0956900898959479,1.0,2.0
17.112808227539062,-9.779814720153809,1.3456003665924072,0.916848991525708,-0.1764906440212171,-0.3581047043970079,0.1813801386056474,3.0,2.0
17.052026748657227,-9.863059043884276,1.3457496166229248,-0.0,-0.0,-1.0,0.185184173480117,1.0,2.0
16.993040084838867,-10.39291763305664,1.3322067260742188,-0.2610463385029523,0.5886357217460996,-0.7650900576001826,0.1437270240881472,3.0,2.0
17.058107376098633,-10.78086757659912,1.3172192573547363,-0.0,-0.0,-1.0,0.1374969413425227,2.0,2.0
17.407230377197266,-9.875978469848633,1.3296573162078855,-0.0,-0.0,-1.0,0.1415892535407998,2.0,2.0
17.611236572265625,-10.921648979187012,1.2870585918426514,0.431658005235356,0.6466234904117002,-0.6289272041850497,0.0952604546221765,4.0,2.0
16.405513763427734,-10.699716567993164,1.818190574645996,0.1654582332625318,0.7393993316895929,-0.6526194920032844,0.2239420331348862,6.0,2.0
15.41513442993164,-9.55176830291748,0.6756631135940552,-0.0,-0.0,-1.0,0.1551165458106619,1.0,1.0
15.785749435424805,-9.470176696777344,0.6989309787750244,-0.0,-0.0,-1.0,0.2334625625154993,1.0,1.0
16.132526397705078,-9.789499282836914,0.6856588125228882,-0.0,-0.0,-1.0,0.2523422249319928,1.0,1.0
16.61684226989746,-9.39199161529541,0.740198016166687,-0.0,-0.0,-1.0,0.1055914646578739,1.0,1.0
16.915315628051758,-9.40959644317627,0.7502436637878418,-0.0,-0.0,-1.0,0.2363148858503694,1.0,1.0
17.17386245727539,-9.811807632446287,0.7223527431488037,-0.0,-0.0,-1.0,0.1300390042925027,1.0,1.0
17.150522232055664,-10.29904842376709,0.67529296875,-0.0,-0.0,-1.0,0.1668057805150765,1.0,1.0
17.30307388305664,-11.00495147705078,0.610867977142334,-0.0,-0.0,-1.0,0.1322715445364406,1.0,1.0
17.414518356323242,-11.376213073730469,0.5765998363494873,-0.0,-0.0,-1.0,0.0873122987646854,1.0,1.0
17.526107788085938,-11.528892517089844,0.5638114213943481,-0.0,-0.0,-1.0,0.084680337578196,1.0,1.0
17.33489990234375,-9.939031600952148,0.7156591415405273,-0.0,-0.0,-1.0,0.244800864233275,1.0,1.0
15.424484252929688,-10.542435646057127,1.061102032661438,0.0123903174146703,-0.303396088755672,-0.9527839699334388,0.1320329727183027,3.0,2.0
16.096878051757812,-10.622743606567385,1.0656965970993042,-0.0,-0.0,-1.0,0.2214129134006059,2.0,2.0
16.23342514038086,-9.519153594970703,1.1385616064071655,-0.0,-0.0,-1.0,0.1569177389565127,1.0,2.0
16.09408187866211,-9.662291526794434,1.1273090839385986,0.5458069736996382,-0.017800886427049,-0.8377218368308504,0.1342033948005285,3.0,2.0
16.495681762695312,-10.776323318481444,1.0603116750717163,-0.0,-0.0,-1.0,0.2661550350268793,2.0,2.0
16.51032257080078,-10.864521026611328,1.0545058250427246,-0.394535351785941,0.5381822057817685,-0.7447830352330898,0.219554817225648,3.0,2.0
16.61532974243164,-9.40395450592041,1.1519205570220947,-0.1153827864313875,0.989749891869635,0.0841544065356934,0.1401636061333827,4.0,2.0
17.138607025146484,-9.793708801269531,1.1336462497711182,0.0224482111511898,0.5785923030123414,-0.8153079324469904,0.2623339342630577,5.0,2.0
17.032817840576172,-10.330832481384276,1.096268653869629,-0.0,-0.0,-1.0,0.208018925516996,1.0,2.0
16.253582000732422,-10.942461967468262,1.5062451362609863,-0.0,-0.0,-1.0,0.1148973680700996,2.0,2.0
16.189590454101562,-9.639022827148438,1.557700514793396,-0.0,-0.0,-1.0,0.1503261082224569,1.0,2.0
16.268661499023438,-9.645835876464844,1.556797742843628,-0.0,-0.0,-1.0,0.227883964634129,2.0,2.0
16.373096466064453,-10.595260620117188,1.5188639163970947,0.0266415013220924,0.1610615030904335,-0.9865847265336896,0.1385163489993439,3.0,2.0
16.694063186645508,-9.46829605102539,1.5599365234375,0.5414063886792826,0.2776403444719359,-0.7935962206429427,0.1955901486852893,4.0,2.0
16.73961639404297,-9.846417427062988,1.5448182821273804,-0.0,-0.0,-1.0,0.2372351066680909,1.0,2.0
17.158977508544922,-9.755149841308594,1.5441160202026367,-0.0,-0.0,-1.0,0.2330137542431164,2.0,2.0
17.045215606689453,-10.53596019744873,1.513729691505432,-0.0429625108119587,0.6476419178326194,-0.7607326527307862,0.160152625995365,7.0,2.0
16.55365753173828,-9.421960830688477,0.5241459608078003,0.4819550810224882,0.8378474573839827,-0.256380455635374,0.1790184723535397,3.0,1.0
15.64442539215088,-9.664158821105955,0.8732573986053467,-0.9893973894101056,0.0320348511371144,0.1416565358220026,0.2069274065586502,3.0,1.0
15.817519187927246,-9.39052391052246,0.9023544788360596,-0.0,-0.0,-1.0,0.1711347437246052,1.0,1.0
16.08136558532715,-9.85049819946289,0.8707131743431091,-0.0,-0.0,-1.0,0.184216701027149,1.0,1.0
16.32341766357422,-9.383906364440918,0.9194439649581908,-0.0,-0.0,-1.0,0.1686455589381654,2.0,1.0
16.664173126220703,-10.21388339996338,0.8535847663879395,-0.0,-0.0,-1.0,0.240513877047093,1.0,1.0
16.539867401123047,-10.698856353759766,0.8043786287307739,-0.8608799415888881,0.5088080637914758,-0.0002835325057978,0.2303287711473879,3.0,1.0
16.68846893310547,-10.786574363708496,0.7993167638778687,-0.0,-0.0,-1.0,0.213389927736077,2.0,1.0
17.108774185180664,-10.633000373840332,0.823412299156189,-0.0,-0.0,-1.0,0.2380121556277266,1.0,1.0
17.15350341796875,-10.990930557250977,0.7886399030685425,-0.0,-0.0,-1.0,0.1670331163309077,1.0,1.0
17.07099723815918,-11.1809720993042,0.7679812908172607,-0.0,-0.0,-1.0,0.2095383852037818,1.0,1.0
17.236610412597656,-9.382744789123535,0.9462571740150452,-0.0,-0.0,-1.0,0.1351749855404601,1.0,1.0
17.17205238342285,-9.690838813781738,0.9157041311264038,-0.0,-0.0,-1.0,0.2145409310491705,2.0,1.0
17.303627014160156,-10.014291763305664,0.8880994915962219,-0.0,-0.0,-1.0,0.2067601971738703,1.0,1.0
17.286422729492188,-10.45311450958252,0.8447893857955933,-0.0,-0.0,-1.0,0.2193560805237858,1.0,1.0
17.188432693481445,-10.66645050048828,0.8217297792434692,-0.0,-0.0,-1.0,0.1686641273350419,1.0,1.0
17.57773208618164,-9.77957820892334,0.917061984539032,-0.0,-0.0,-1.0,0.1530243318683511,1.0,1.0
15.73801040649414,-10.549681663513184,1.2422573566436768,-0.0,-0.0,-1.0,0.1162364116344589,1.0,2.0
16.129077911376953,-10.297420501708984,1.2602545022964478,-0.0303562124895003,-0.4244929593655432,-0.9049222219684824,0.183016230148924,3.0,2.0
16.320871353149414,-9.406216621398926,1.3199105262756348,0.2590413188379763,-0.8822685690867528,-0.3930645839252064,0.1695589392937248,5.0,2.0
16.461509704589844,-10.68333625793457,1.234019756317139,-0.0,-0.0,-1.0,0.131337333658162,2.0,2.0
16.54009246826172,-10.78610610961914,1.226730465888977,-0.9547241980487844,-0.1073456655317967,0.2774502004894595,0.2339690018078739,5.0,2.0
16.875377655029297,-9.564019203186035,1.3115476369857788,-0.0,-0.0,-1.0,0.2232644018529747,1.0,2.0
17.14346694946289,-10.444388389587402,1.2502524852752686,-0.0,-0.0,-1.0,0.204173559696465,2.0,2.0
17.19894790649414,-9.757554054260254,1.2987873554229736,-0.0,-0.0,-1.0,0.1486928190654495,2.0,2.0
17.10704231262207,-9.8507719039917,1.2922694683074951,-0.0,-0.0,-1.0,0.2172919620580317,2.0,2.0
17.44915008544922,-10.460617065429688,1.248262882232666,-0.0,-0.0,-1.0,0.208927793042072,1.0,2.0
17.66214942932129,-11.018957138061523,1.2056937217712402,0.6714062478744087,0.6998685390456959,-0.2437163892093662,0.1198863752216866,5.0,2.0
17.532455444335938,-9.79734230041504,1.2958898544311523,-0.0,-0.0,-1.0,0.1586015111071075,2.0,2.0
16.359947204589844,-10.658203125,1.6661148071289062,0.0305648498714467,-0.1990992342773982,-0.9795025701153058,0.1873889701985026,5.0,2.0
16.568988800048828,-10.65914535522461,1.6609666347503662,-0.0,-0.0,-1.0,0.1981337235976525,2.0,2.0
16.953338623046875,-9.780787467956545,1.690892219543457,-0.6786508695429674,0.6951069306030794,-0.2371905400646074,0.1759343029392006,6.0,2.0
15.31606101989746,-9.51622200012207,0.6921118497848511,-0.2166509940992213,0.5647075993822734,-0.7963464534709306,0.220661514264629,3.0,1.0
15.930670738220217,-9.483981132507324,0.7349152565002441,-0.0,-0.0,-1.0,0.2298772401443235,1.0,1.0
16.29822540283203,-9.367916107177734,0.7672773599624634,-0.377828567431147,0.6412625324394003,-0.6678532309739421,0.1036653084108461,4.0,1.0
16.795663833618164,-9.440053939819336,0.7925071716308594,-0.0,-0.0,-1.0,0.1806737760136089,2.0,1.0
17.105735778808594,-10.06058120727539,0.7576117515563965,-0.0,-0.0,-1.0,0.162559791728681,2.0,1.0
17.080764770507812,-10.332476615905762,0.7318023443222046,-0.0,-0.0,-1.0,0.248335472003182,1.0,1.0
17.1368408203125,-10.903417587280272,0.6805359125137329,-0.0,-0.0,-1.0,0.1956493528189421,1.0,1.0
17.206958770751953,-9.831894874572754,0.7831213474273682,-0.0,-0.0,-1.0,0.2508928570111625,1.0,1.0
17.335647583007812,-9.934854507446287,0.7807592153549194,0.9083981171938944,0.2512572471335711,0.3341895516640922,0.1960337240826389,4.0,1.0
17.310657501220703,-10.497695922851562,0.7273962497711182,-0.0,-0.0,-1.0,0.2493038129771785,2.0,1.0
17.330673217773438,-10.793911933898926,0.6997907161712646,-0.0,-0.0,-1.0,0.2108599361023006,1.0,1.0
17.655521392822266,-11.087151527404783,0.6836270093917847,-0.0,-0.0,-1.0,0.1413829017042678,2.0,1.0
17.39365005493164,-11.48465347290039,0.6324399709701538,-0.0,-0.0,-1.0,0.0676395553170868,1.0,1.0
15.31450653076172,-9.378095626831056,1.116848707199097,-0.0,-0.0,-1.0,0.1592090045898359,2.0,2.0
15.575054168701172,-10.615644454956056,1.059227705001831,-0.3593708149716271,-0.8767259592423866,-0.3196939313423791,0.2074552869950809,4.0,2.0
15.540474891662598,-9.37405014038086,1.1258386373519895,-0.0,-0.0,-1.0,0.1493824873479406,2.0,2.0
15.62114715576172,-9.95492458343506,1.0986510515213013,-0.0,-0.0,-1.0,0.1900403621345221,1.0,2.0
15.82823085784912,-10.735793113708496,1.059346079826355,-0.0,-0.0,-1.0,0.1677902418383857,2.0,2.0
16.465778350830078,-11.004913330078123,1.0581958293914795,0.8380696912437687,0.5343823944667514,-0.1098847082289226,0.2098079155404256,3.0,2.0
16.194786071777344,-11.308903694152832,1.0310267210006714,0.5107501882454802,0.0049149176398652,-0.8597151207183694,0.1228903400655044,3.0,2.0
16.350109100341797,-9.407435417175291,1.1537292003631592,0.2083889661880331,-0.9780275469437356,0.0060130017713406,0.1941633594012566,4.0,2.0
16.561946868896484,-10.731451988220217,1.0790534019470217,-0.3209255793218953,0.2582238212560325,-0.911222931380043,0.1852499127434498,4.0,2.0
16.86634063720703,-9.386137008666992,1.1721429824829102,-0.0,-0.0,-1.0,0.129812956820559,1.0,2.0
16.96091651916504,-9.758708953857422,1.1526541709899902,-0.0,-0.0,-1.0,0.1920806500622904,2.0,2.0
16.992759704589844,-9.999401092529297,1.138296127319336,-0.0,-0.0,-1.0,0.1308216605726272,1.0,2.0
17.227333068847656,-9.366791725158691,0.8237670660018921,0.3835292758736391,-0.6874851244101603,-0.6166599535097023,0.1260453716835076,3.0,1.0
17.25313949584961,-9.704310417175291,0.98185396194458,-0.0,-0.0,-1.0,0.1873936362379332,2.0,1.0
17.376371383666992,-9.885443687438965,1.1558303833007812,-0.4745819237255973,0.5673427075329206,-0.6729741821809555,0.2168886493201019,4.0,2.0
17.472536087036133,-10.54253101348877,1.1124554872512815,-0.9970449040543312,-0.0230256911803053,-0.0732889953878394,0.1333397901253118,3.0,2.0
16.40957260131836,-10.637825965881348,1.4911346435546875,-0.4837112300995441,0.7712323892449162,-0.4137922759733002,0.1515850735635246,3.0,2.0
16.37689971923828,-10.93795680999756,1.4782171249389648,-0.0,-0.0,-1.0,0.1571924228755076,1.0,2.0
16.34662628173828,-9.628527641296388,1.5305436849594116,-0.0,-0.0,-1.0,0.1970893918328222,2.0,2.0
16.74789047241211,-10.659889221191406,1.4898031949996948,-0.0,-0.0,-1.0,0.1452826766590362,1.0,2.0
16.832035064697266,-9.3890380859375,1.5414974689483645,-0.0,-0.0,-1.0,0.2153270459788845,1.0,2.0
17.015583038330078,-9.758129119873049,1.5278645753860474,-0.0,-0.0,-1.0,0.195330263443228,2.0,2.0
17.0583553314209,-10.530145645141602,1.494840145111084,-0.6219765930143794,0.1714701061899752,-0.7640308373524092,0.1780877716868886,9.0,2.0
17.119915008544922,-9.366426467895508,1.543478012084961,-0.600115038326409,-0.6513431496391401,-0.4643425914049425,0.1651100265269858,5.0,2.0
17.244966506958008,-9.65629768371582,1.5321931838989258,-0.0,-0.0,-1.0,0.1399384451629892,1.0,2.0
15.28241729736328,-9.625880241394045,0.6163768768310547,0.3527101454867821,-0.1867010560966597,-0.9169178092517806,0.1512453399288751,3.0,1.0
15.672521591186523,-9.501090049743652,0.6572288274765015,-0.0,-0.0,-1.0,0.2652370210231107,1.0,1.0
16.045475006103516,-9.425867080688477,0.693543553352356,-0.0,-0.0,-1.0,0.2151414948359593,1.0,1.0
16.3121395111084,-9.43231964111328,0.715573787689209,-0.4337203268707361,0.8946083679767399,-0.1075292797573524,0.2582642086907565,5.0,1.0
16.748023986816406,-10.235511779785156,0.6956236362457275,-0.0,-0.0,-1.0,0.2357764925279475,2.0,1.0
17.08669662475586,-10.654653549194336,0.6883182525634766,-0.0,-0.0,-1.0,0.1586609855215655,1.0,1.0
17.21474838256836,-11.415491104125977,0.6332831382751465,-0.0,-0.0,-1.0,0.1117906915974851,2.0,1.0
17.08985137939453,-9.77174186706543,0.7558407783508301,-0.0,-0.0,-1.0,0.2194233072543615,2.0,1.0
17.296436309814453,-10.108177185058594,0.7465611696243286,-0.0,-0.0,-1.0,0.2387439708891316,2.0,1.0
17.39763832092285,-10.558326721191406,0.7183713912963867,-0.0,-0.0,-1.0,0.212237286221803,1.0,1.0
17.441089630126953,-10.837798118591309,0.6981507539749146,-0.0,-0.0,-1.0,0.2344608276526796,1.0,1.0
17.613243103027344,-11.113602638244627,0.6859886646270752,-0.0,-0.0,-1.0,0.1895693284024205,2.0,1.0
15.746061325073242,-10.39469051361084,1.021012783050537,-0.0,-0.0,-1.0,0.1402169107987648,1.0,2.0
15.776532173156738,-10.71377944946289,1.006249189376831,-0.0,-0.0,-1.0,0.1751141987597464,1.0,2.0
16.177757263183594,-10.685314178466797,1.0270800590515137,-0.0,-0.0,-1.0,0.2200299399836532,1.0,2.0
16.157535552978516,-11.30813217163086,0.9912729263305664,0.8544547786553656,0.2748762683190933,-0.4408515264212884,0.1168416515368164,3.0,1.0
16.376188278198242,-9.38902187347412,1.1014423370361328,-0.0,-0.0,-1.0,0.1600841217536815,2.0,2.0
16.2641544342041,-10.01276397705078,1.0661659240722656,-0.4449768337317066,-0.250697713179475,-0.859736165372079,0.2207918160433047,3.0,2.0
16.641647338867188,-10.72110080718994,1.046784281730652,0.0985100899615828,0.9951038993064036,0.007999485042926,0.171032557784287,3.0,2.0
16.515724182128906,-10.95579719543457,1.027686595916748,-0.3021231765320912,-0.0750665940690961,-0.9503086828273348,0.1665949150428328,3.0,2.0
16.781064987182617,-9.453961372375488,1.1197510957717896,-0.0,-0.0,-1.0,0.225311000670025,1.0,2.0
16.912614822387695,-9.807144165039062,1.10900616645813,-0.0,-0.0,-1.0,0.2470420007953952,2.0,2.0
16.968000411987305,-10.139163970947266,1.094170331954956,-0.0,-0.0,-1.0,0.2427133144962063,2.0,2.0
17.125179290771484,-10.60582160949707,1.0752053260803225,-0.0,-0.0,-1.0,0.1305808485818015,1.0,2.0
17.217857360839844,-9.686660766601562,0.9516751766204834,0.5429299525749993,0.8259649258880598,-0.1516872038098156,0.2125229376376453,3.0,1.0
17.42706298828125,-9.882522583007812,0.7736531496047974,-0.0,-0.0,-1.0,0.2200056342454478,1.0,1.0
15.964275360107422,-9.430782318115234,1.4665393829345703,-0.0,-0.0,-1.0,0.2154513405853353,1.0,2.0
16.18254852294922,-9.839131355285645,1.4602940082550049,-0.0,-0.0,-1.0,0.186919044588154,1.0,2.0
16.36634063720703,-10.949687004089355,1.4278764724731443,-0.0,-0.0,-1.0,0.1904353638370993,1.0,2.0
16.690702438354492,-10.609044075012209,1.445725679397583,-0.0,-0.0,-1.0,0.1303666515088114,2.0,2.0
16.729860305786133,-9.414487838745115,1.4847426414489746,-0.0,-0.0,-1.0,0.2251725376395399,1.0,2.0
16.88311004638672,-9.711699485778809,1.4791858196258545,-0.0,-0.0,-1.0,0.1915495422882452,1.0,2.0
16.907306671142578,-10.20266342163086,1.4637207984924316,-0.0,-0.0,-1.0,0.1958498850544155,1.0,2.0
17.028047561645508,-10.452722549438477,1.4572749137878418,-0.7168911014834004,0.6078785635654771,-0.3413953728032785,0.0924449536627726,3.0,2.0
17.124370574951172,-9.364500999450684,1.4948997497558594,-0.7258761350123714,0.6764501521215978,-0.1245753920891618,0.1415215450128153,5.0,2.0
17.17267608642578,-9.744255065917969,1.48410165309906,-0.0,-0.0,-1.0,0.2654922045108763,2.0,2.0
16.42679214477539,-10.659934997558594,1.8370054960250857,-0.0385602908440119,0.6671863558355291,-0.7438921094869416,0.2023318237989633,7.0,2.0
17.36679458618164,-10.57589340209961,0.5431467294692993,-0.0,-0.0,-1.0,0.2272290818733434,1.0,1.0
17.363481521606445,-11.111780166625977,0.4974876642227173,-0.0,-0.0,-1.0,0.1088599713303627,1.0,1.0
17.618877410888672,-10.949508666992188,0.5359920263290405,-0.0,-0.0,-1.0,0.1665309980481667,1.0,1.0
17.62538719177246,-11.224882125854492,0.5118663311004639,-0.0,-0.0,-1.0,0.1948067021236102,1.0,1.0
16.284305572509766,-9.944700241088867,0.8629257678985596,-0.0,-0.0,-1.0,0.2392946000383689,2.0,1.0
16.54485511779785,-10.232708930969238,0.8668491840362549,-0.0,-0.0,-1.0,0.2463233600988688,1.0,1.0
16.442411422729492,-10.652746200561523,0.8353375196456909,-0.0,-0.0,-1.0,0.2037652074671753,1.0,1.0
16.591508865356445,-10.949915885925291,0.8280400037765503,-0.0,-0.0,-1.0,0.1338683786766498,1.0,1.0
16.767478942871094,-9.447734832763672,0.9249898195266724,-0.9136065216461604,0.1385319516777663,0.3822721830972703,0.2000808136715816,4.0,1.0
16.779558181762695,-9.820096969604492,0.906858503818512,-0.0,-0.0,-1.0,0.2276537775229223,2.0,1.0
16.744169235229492,-10.237533569335938,0.881252646446228,-0.0,-0.0,-1.0,0.256932013044463,2.0,1.0
16.784971237182617,-10.686840057373049,0.8578124642372131,-0.0,-0.0,-1.0,0.2375650515794437,1.0,1.0
16.79803466796875,-11.000547409057615,0.8392894268035889,-0.0,-0.0,-1.0,0.2329802109851307,1.0,1.0
17.154102325439453,-9.36735725402832,0.9586262106895448,-0.0,-0.0,-1.0,0.1457865655304573,2.0,1.0
17.249282836914062,-9.796993255615234,0.7677217721939087,-0.0,-0.0,-1.0,0.213424734893935,1.0,1.0
17.24581527709961,-10.149961471557615,0.7448083162307739,-0.0,-0.0,-1.0,0.2712501346783836,2.0,1.0
17.085369110107422,-10.348295211791992,0.8996132016181946,-0.0,-0.0,-1.0,0.2248923759494941,2.0,1.0
17.11861801147461,-10.83613109588623,0.8719086647033691,-0.0,-0.0,-1.0,0.1940866284796759,1.0,1.0
17.41914939880371,-9.37582015991211,0.6388030052185059,-0.0,-0.0,-1.0,0.1694220024100882,1.0,1.0
17.46582794189453,-9.653968811035156,0.6242126226425171,-0.0,-0.0,-1.0,0.1608902850150342,1.0,1.0
17.66080665588379,-10.121925354003906,0.6091135740280151,-0.0,-0.0,-1.0,0.1655087331474244,1.0,1.0
17.693809509277344,-10.418582916259766,0.7623361349105835,0.1706703321861812,-0.1112421070879122,-0.9790285140495651,0.1691414000551312,3.0,1.0
16.31159210205078,-9.401651382446287,1.2648719549179075,-0.0,-0.0,-1.0,0.1417912217162288,2.0,2.0
16.576749801635742,-10.260774612426758,1.2458767890930176,-0.0,-0.0,-1.0,0.1353436673526689,1.0,2.0
16.531436920166016,-10.701879501342772,1.2261356115341189,-0.0,-0.0,-1.0,0.147594734900734,2.0,2.0
16.745458602905273,-10.086407661437988,1.259910225868225,-0.0,-0.0,-1.0,0.1143646148347459,1.0,2.0
17.045372009277344,-10.501137733459473,1.2557694911956787,-0.0,-0.0,-1.0,0.1598822937507777,1.0,2.0
17.111703872680664,-9.728422164916992,1.2894207239151,-0.8216249218396939,-0.0151211195459263,-0.569827903454714,0.1919834821789474,4.0,2.0
17.096118927001953,-9.9370756149292,1.2808027267456057,0.4470347312272186,0.5957019075510745,-0.6673074152267596,0.2469060229228233,5.0,2.0
17.104900360107422,-10.486871719360352,1.2587817907333374,-0.0,-0.0,-1.0,0.2672065237078955,1.0,2.0
17.540807723999023,-9.76770305633545,1.3064942359924316,-0.0,-0.0,-1.0,0.2070289543726009,2.0,2.0
17.64415168762207,-10.967761993408203,1.2584717273712158,0.90667932394673,0.4120545814278299,-0.0902420381631355,0.1198863752216867,8.0,2.0
16.140430450439453,-10.437292098999023,1.6132841110229492,-0.0,-0.0,-1.0,0.2100190165781887,1.0,2.0
16.217798233032227,-10.480735778808594,1.6132720708847046,-0.0,-0.0,-1.0,0.1186883447849913,1.0,2.0
16.443849563598633,-10.633703231811523,1.6124498844146729,-0.6151505862395861,-0.7348089497971169,0.2857368781714249,0.2636301598402146,4.0,2.0
16.64069366455078,-9.689565658569336,1.63549542427063,-0.0,-0.0,-1.0,0.2170824868205261,1.0,2.0
17.092914581298828,-9.761223793029783,1.639904260635376,-0.683198311557223,0.7275800771414265,-0.0621876067415018,0.1731444019530683,5.0,2.0
15.578897476196287,-9.439289093017578,0.5209983587265015,-0.0,-0.0,-1.0,0.0949404226734568,1.0,1.0
16.84375762939453,-11.217700958251951,0.5504581928253174,-0.0,-0.0,-1.0,0.1221433822481484,1.0,1.0
17.02613067626953,-10.977331161499023,0.586368203163147,-0.0,-0.0,-1.0,0.1285194291520535,1.0,1.0
17.23138427734375,-11.221378326416016,0.5887699127197266,-0.0,-0.0,-1.0,0.1149355653698836,1.0,1.0
17.359704971313477,-11.71592140197754,0.5618606805801392,-0.0,-0.0,-1.0,0.1004695656823547,1.0,1.0
15.673257827758787,-9.372766494750977,0.9212011098861694,-0.0,-0.0,-1.0,0.1097532328173947,1.0,1.0
16.247520446777344,-9.936443328857422,0.9441442489624025,-0.0,-0.0,-1.0,0.1533613513027309,1.0,1.0
16.36530113220215,-10.22990608215332,0.940194845199585,-0.0,-0.0,-1.0,0.2396947491566277,2.0,1.0
16.369083404541016,-10.630922317504885,0.921439290046692,-0.0,-0.0,-1.0,0.2096388617444418,2.0,1.0
16.233779907226562,-11.284707069396973,0.8776938915252686,-0.0,-0.0,-1.0,0.2534405804951918,1.0,1.0
16.472736358642578,-11.463937759399414,0.884315013885498,-0.0,-0.0,-1.0,0.1754468016211968,1.0,1.0
16.65276527404785,-9.464115142822266,0.8165837526321411,-0.0,-0.0,-1.0,0.1644408318754135,1.0,1.0
16.545743942260742,-10.196937561035156,0.9551640152931212,-0.0,-0.0,-1.0,0.2200369880051131,1.0,1.0
16.705188751220703,-10.264354705810549,0.9638622999191284,0.9116316179035924,0.3172247411503388,-0.2613355254085818,0.1897629148004126,3.0,1.0
16.606792449951172,-10.793323516845703,0.9304143190383912,-0.0,-0.0,-1.0,0.2575961882324243,2.0,1.0
17.262182235717773,-9.638243675231934,0.6970577239990234,-0.0,-0.0,-1.0,0.1742113077673661,1.0,1.0
17.209461212158203,-9.81137466430664,0.6815972328186035,-0.0,-0.0,-1.0,0.2146685648127593,1.0,1.0
17.147724151611328,-10.411758422851562,0.8154399394989014,-0.0,-0.0,-1.0,0.2166623760332987,2.0,1.0
16.941097259521484,-10.726555824279783,0.9578789472579956,-0.0,-0.0,-1.0,0.2160427879356927,1.0,1.0
17.373762130737305,-10.065818786621094,0.6837871074676514,-0.0,-0.0,-1.0,0.1384402577150186,1.0,1.0
17.522289276123047,-10.365144729614258,0.6799044609069824,-0.8914551477350602,-0.3432928003697974,-0.2957326035304951,0.24998958408917,3.0,1.0
17.541275024414062,-10.651531219482422,0.661971926689148,-0.0,-0.0,-1.0,0.2358773007634503,1.0,1.0
17.486038208007812,-11.106942176818848,0.62267005443573,0.3982889188834723,-0.914261208847022,-0.0741105869104832,0.1649522483635924,3.0,1.0
