x,y,z,nx,ny,nz,curvature,density,label
1.2726097106933594,26.258121490478516,-1.2746272087097168,0.2126107637739059,0.3615682524706926,-0.9077802938667292,0.0969608646469566,4.0,0.0
1.090789794921875,26.031753540039062,-0.9704189300537108,-0.3637463441096215,0.8804427525548578,0.3041531795337834,0.1549683446706245,3.0,0.0
1.2109260559082031,26.502599716186523,-1.1233384609222412,0.2425993379778555,-0.1275182451909634,-0.9617092379488325,0.0744172449540188,3.0,0.0
1.5417842864990234,26.70669937133789,-1.362181305885315,-0.0,-0.0,-1.0,0.0490407400612326,1.0,0.0
1.248281478881836,26.37814712524414,-1.0913589000701904,-0.1773105840242844,-0.8486285751154201,-0.4983878994222663,0.1520679841563581,3.0,0.0
0.8805732727050781,25.879613876342773,-1.1244456768035889,-0.1517031590554535,-0.984248879033315,-0.0907760742390802,0.1995634966930689,3.0,0.0
1.2706146240234375,26.427356719970703,-1.1073708534240725,-0.0,-0.0,-1.0,0.072253741546204,2.0,0.0
0.9726314544677734,25.876853942871097,-1.1328425407409668,-0.0,-0.0,-1.0,0.1613629456504251,1.0,0.0
1.2418594360351562,26.519386291503903,-1.1952619552612305,-0.0,-0.0,-1.0,0.0843162313519279,2.0,0.0
0.9596595764160156,25.900169372558594,-1.2084252834320068,-0.0,-0.0,-1.0,0.179432735988127,2.0,0.0
0.9141807556152344,25.91985321044922,-1.0033782720565796,-0.0,-0.0,-1.0,0.2380033426633444,1.0,0.0
0.9031314849853516,25.748394012451172,-1.1848950386047363,-0.0,-0.0,-1.0,0.1455595736170849,1.0,0.0
1.1252212524414062,26.180912017822266,-0.9870128631591796,-0.0,-0.0,-1.0,0.1394359799075299,1.0,0.0
1.3607730865478516,26.161659240722656,-1.342196345329285,-0.0,-0.0,-1.0,0.0720250132039005,1.0,0.0
1.1610870361328125,26.00793075561523,-1.1031817197799685,-0.0,-0.0,-1.0,0.2061516410041917,2.0,0.0
2.5876331329345703,26.306001663208008,-1.3841290473937988,-0.0,-0.0,-1.0,0.0357136742955995,1.0,0.0
0.8129539489746094,25.924972534179688,-0.9812965393066406,-0.3106346960558028,-0.8586862696978415,-0.4076321575130266,0.1898573369491222,4.0,0.0
1.062211990356445,27.095264434814453,-1.4254918098449707,-0.0,-0.0,-1.0,0.0972417771224873,2.0,0.0
1.693258285522461,26.20058250427246,-1.349111557006836,-0.0,-0.0,-1.0,0.1349881649060434,2.0,0.0
0.7308540344238281,25.889066696166992,-1.079277276992798,-0.0,-0.0,-1.0,0.1401614753700271,1.0,0.0
1.165750503540039,26.232479095458984,-1.0047166347503662,-0.0,-0.0,-1.0,0.1124568750178485,1.0,0.0
1.1684017181396484,26.287879943847656,-1.144711971282959,-0.3064755517936776,-0.9517395455897129,0.0162657158910158,0.1990854962752387,3.0,0.0
0.8049163818359375,25.87798118591309,-1.2040870189666748,-0.0136025270137587,-0.8671880117308772,-0.4977950618166956,0.1447870092079861,3.0,0.0
1.8368711471557615,27.261219024658203,-1.4500614404678345,-0.0,-0.0,-1.0,0.0484318699427171,1.0,0.0
2.4256715774536133,26.041093826293945,-1.3292628526687622,-0.0,-0.0,-1.0,0.0612261190456833,1.0,0.0
0.7540264129638672,26.04356384277344,-0.969741940498352,-0.0,-0.0,-1.0,0.1304814597984189,1.0,0.0
2.423914909362793,27.778583526611328,-1.5969313383102417,-0.0,-0.0,-1.0,0.1094168159150747,1.0,0.0
1.2212448120117188,26.209869384765625,-1.0701617002487185,-0.3138775077186965,0.8247119799370968,-0.4704583512879044,0.1400511837905669,3.0,0.0
0.7451286315917969,25.9256591796875,-1.1199816465377808,-0.0,-0.0,-1.0,0.1581444530367511,2.0,0.0
2.1924095153808594,26.86564826965332,-1.4729702472686768,-0.0,-0.0,-1.0,0.0308391162371858,2.0,0.0
1.2214593887329102,26.513593673706055,-1.0388214588165283,-0.0,-0.0,-1.0,0.0693169254593528,1.0,0.0
0.8960447311401367,26.002944946289062,-1.0667779445648191,-0.6210550683362187,-0.6895358946605955,0.3726001235487002,0.1858676385181026,3.0,0.0
1.0252885818481443,26.31081771850586,-1.0073766708374023,0.0078464772610179,-0.2155059282624374,-0.9764710070853806,0.0867118689597128,3.0,0.0
0.8232660293579102,26.055490493774418,-1.016890287399292,-0.0,-0.0,-1.0,0.1654971261092665,1.0,0.0
1.197596549987793,27.62945556640625,-1.4416422843933103,-0.0,-0.0,-1.0,0.196388811382808,1.0,0.0
0.2868070602416992,25.95337677001953,-1.3404061794281006,-0.0,-0.0,-1.0,0.0691888688769649,1.0,0.0
1.1897563934326172,27.430877685546875,-1.4092532396316528,-0.0,-0.0,-1.0,0.2391971453099748,2.0,0.0
1.4025630950927734,26.43788146972656,-1.2604354619979858,-0.5021299551580715,-0.3029002706500384,0.8100104531258141,0.1575438283317403,4.0,0.0
1.2537050247192385,27.49306869506836,-1.4505020380020142,-0.0,-0.0,-1.0,0.160934536284337,2.0,0.0
1.4930458068847656,26.29839134216309,-1.285738825798035,-0.0,-0.0,-1.0,0.1299262987790518,1.0,0.0
0.5840387344360352,26.94314765930176,-1.088778734207153,-0.0,-0.0,-1.0,0.0938626304485644,1.0,0.0
1.254709243774414,26.175416946411133,-1.1112091541290283,-0.6939186847837796,0.4684583099461012,-0.5468305685954215,0.0965921741078263,3.0,0.0
2.188331127166748,27.48204040527344,-1.579164981842041,-0.4505344492053068,-0.0074888839260924,-0.8927276329860145,0.0640270171082282,3.0,0.0
2.6054883003234863,27.334871292114254,-1.4970250129699707,-0.0,-0.0,-1.0,0.226335564357829,2.0,0.0
2.026679039001465,26.935991287231445,-1.478926181793213,-0.0,-0.0,-1.0,0.0142723538049983,1.0,0.0
2.542715549468994,26.67709732055664,-1.4595229625701904,0.1300728640659075,-0.1185046432474885,-0.9843971249259506,0.0184819464600713,3.0,0.0
1.1240463256835938,26.424938201904297,-1.0099756717681885,-0.0393262823956497,-0.2127867441051525,-0.9763069420249282,0.1059585979122923,5.0,0.0
2.0283732414245605,27.76567840576172,-1.5380887985229492,-0.0,-0.0,-1.0,0.099995459753394,1.0,0.0
2.5815176963806152,27.33730697631836,-1.3756067752838137,0.8742171700809801,0.193918273085816,-0.445129242916052,0.2445090565383535,4.0,0.0
1.3710474967956543,26.438682556152344,-1.280144453048706,-0.5021299551580715,-0.3029002706500384,0.8100104531258141,0.1353556109791568,4.0,0.0
2.076491594314575,27.66999053955078,-1.5415441989898682,-0.0,-0.0,-1.0,0.1089685250453498,2.0,0.0
1.5871014595031738,27.2761173248291,-1.4813892841339111,-0.0,-0.0,-1.0,0.0398252838390366,1.0,0.0
1.366037368774414,26.377056121826172,-1.2609460353851318,-0.0,-0.0,-1.0,0.1587367078135951,1.0,0.0
0.8424925804138184,25.86803436279297,-1.1877858638763428,-0.3206008637851934,-0.5130859131181962,-0.7962147523751709,0.1960841346715982,5.0,0.0
2.595608711242676,27.999675750732425,-1.237943172454834,-0.0,-0.0,-1.0,0.2010991612534773,2.0,0.0
2.0620110034942627,28.022117614746097,-1.3108901977539062,-0.0,-0.0,-1.0,0.1488118174032036,1.0,0.0
1.159928321838379,26.42623519897461,-1.0212576389312744,-0.274731850415748,-0.3116680348214703,-0.909607303421461,0.1451856551195661,3.0,0.0
0.3785877227783203,26.016992568969727,-1.2995989322662354,-0.0,-0.0,-1.0,0.0714003539441803,1.0,0.0
1.4894943237304688,26.391845703125,-1.2115249633789062,-0.0,-0.0,-1.0,0.2358740562770359,2.0,0.0
1.1174030303955078,27.76639938354492,-1.756541728973389,-0.0,-0.0,-1.0,0.1135714080598205,1.0,0.0
1.3316030502319336,26.029279708862305,-1.414295673370361,-0.0,-0.0,-1.0,0.0591112158317695,2.0,0.0
1.2528133392333984,27.203065872192383,-1.551903247833252,-0.0,-0.0,-1.0,0.119167166405449,1.0,0.0
1.458634376525879,26.385522842407227,-1.3764843940734863,-0.803732481558643,-0.1684445873396403,0.5706492084315583,0.152346918465295,3.0,0.0
0.7041463851928711,25.800540924072266,-1.0777411460876465,-0.0,-0.0,-1.0,0.20091140434601,1.0,0.0
1.1478509902954102,26.26918601989746,-1.0679850578308103,-0.0,-0.0,-1.0,0.1788324862495705,1.0,0.0
2.51436996459961,27.224878311157227,-1.4133763313293457,-0.0,-0.0,-1.0,0.2008682843587804,1.0,0.0
1.887434959411621,26.122129440307617,-1.4062492847442627,-0.1397919416715372,-0.241742164876616,-0.960218172481894,0.1032887257600927,4.0,0.0
2.6872429847717285,26.614662170410156,-1.4426977634429932,-0.0,-0.0,-1.0,0.0461025307177967,1.0,0.0
1.930171489715576,26.12110137939453,-1.4092686176300049,-0.0,-0.0,-1.0,0.1213271819954336,2.0,0.0
1.2429838180541992,25.74329376220703,-1.3363916873931885,-0.0,-0.0,-1.0,0.0327997680859277,1.0,0.0
1.516709327697754,26.16125869750977,-1.4153132438659668,-0.0,-0.0,-1.0,0.0849913476820607,1.0,0.0
2.0973050594329834,26.47458267211914,-1.2938354015350342,-0.0,-0.0,-1.0,0.0876768409448497,1.0,0.0
1.2727975845336914,25.93195152282715,-1.149383783340454,-0.0,-0.0,-1.0,0.2049239758356247,1.0,0.0
1.475494146347046,25.94563102722168,-1.3861384391784668,-0.0,-0.0,-1.0,0.0534022309895029,1.0,0.0
2.2149715423583984,25.790876388549805,-1.3278937339782717,-0.0,-0.0,-1.0,0.045610605614641,1.0,0.0
2.080216407775879,27.871747970581055,-1.422123908996582,-0.0,-0.0,-1.0,0.1344967854369736,1.0,0.0
1.0008597373962402,25.762304306030273,-1.2537856101989746,-0.0,-0.0,-1.0,0.1491151509328667,1.0,0.0
1.9984774589538576,26.738330841064453,-1.3884406089782717,-0.0,-0.0,-1.0,0.0327449459657108,1.0,0.0
0.5448746681213379,26.688121795654297,-1.168816089630127,-0.0,-0.0,-1.0,0.1132222082340297,1.0,0.0
1.2066340446472168,26.023578643798828,-1.041318416595459,-0.0,-0.0,-1.0,0.1476004178881204,1.0,0.0
1.2829532623291016,25.97008895874023,-1.1914944648742676,-0.0,-0.0,-1.0,0.2095834118678053,2.0,0.0
2.2351980209350586,27.772018432617188,-1.577258586883545,-0.0,-0.0,-1.0,0.0732989256260479,1.0,0.0
2.564859390258789,27.095382690429688,-1.4283900260925293,-0.0,-0.0,-1.0,0.1281940441639149,1.0,0.0
1.981433391571045,27.694730758666992,-1.4650535583496094,-0.0,-0.0,-1.0,0.077136832943049,2.0,0.0
1.0834447145462036,27.538915634155273,-1.4746332168579102,-0.0,-0.0,-1.0,0.2219660654080612,1.0,0.0
2.201155662536621,27.373775482177734,-1.5123987197875977,-0.0,-0.0,-1.0,0.0574229390260739,1.0,0.0
0.3025668859481811,26.503116607666016,-1.4548797607421875,-0.0,-0.0,-1.0,0.1238573914301788,1.0,0.0
1.183562994003296,26.282283782958984,-1.1864886283874512,-0.0,-0.0,-1.0,0.1903146223400783,2.0,0.0
0.7740097045898438,25.947771072387695,-0.9825563430786132,0.0872614107966279,-0.648058134755983,-0.7565752442172415,0.1994182653731664,5.0,0.0
1.021700382232666,26.135896682739254,-1.0293645858764648,-0.0,-0.0,-1.0,0.1639467589078213,2.0,0.0
2.3226852416992188,27.230052947998047,-1.304595947265625,-0.0,-0.0,-1.0,0.1867395905252187,1.0,0.0
1.7643837928771973,27.856184005737305,-1.426177978515625,-0.0,-0.0,-1.0,0.1718795426287755,1.0,0.0
0.8825101852416992,27.404802322387695,-1.304018497467041,-0.0,-0.0,-1.0,0.1947677893594122,1.0,0.0
1.2654027938842771,28.05079460144043,-1.4553680419921875,-0.0,-0.0,-1.0,0.1379263666017046,1.0,0.0
2.3449649810791016,27.410585403442383,-1.1833558082580566,-0.0,-0.0,-1.0,0.2475624671589017,1.0,0.0
1.826738357543945,27.990943908691406,-1.3333420753479004,-0.0,-0.0,-1.0,0.0971797335228358,1.0,0.0
1.4023971557617188,28.06705093383789,-1.376964092254639,-0.0,-0.0,-1.0,0.1348634790416969,1.0,0.0
1.011601448059082,28.009077072143555,-1.3920559883117676,-0.0,-0.0,-1.0,0.161409785076274,1.0,0.0
0.7229199409484863,25.915206909179688,-0.9962949752807616,-0.0,-0.0,-1.0,0.2077453543597689,1.0,0.0
0.9318337440490724,26.03111267089844,-1.0044713020324707,-0.0,-0.0,-1.0,0.180505711250788,1.0,0.0
1.0686445236206057,26.23961067199707,-1.0362520217895508,-0.0,-0.0,-1.0,0.1309414436270551,1.0,0.0
0.4280853271484375,26.097625732421875,-1.0535950660705566,-0.0,-0.0,-1.0,0.0911256977656788,1.0,0.0
1.3573908805847168,27.88749885559082,-1.4890928268432615,-0.0,-0.0,-1.0,0.157643534516938,1.0,0.0
1.512876033782959,28.04031753540039,-1.5153756141662598,-0.0,-0.0,-1.0,0.2324976346527192,1.0,0.0
1.1212453842163086,28.03881072998047,-1.5337228775024414,-0.0,-0.0,-1.0,0.2512747989588878,2.0,0.0
2.678699016571045,27.36832046508789,-1.3169045448303225,0.2897592499783516,0.8985939950772601,-0.3294972064571599,0.2492901942691775,4.0,0.0
2.529454231262207,27.42966651916504,-1.336439609527588,0.4163398453163022,0.4626832191070935,-0.7826783323682183,0.1334381528065988,3.0,0.0
1.0930733680725098,26.112401962280273,-1.113999843597412,-0.0,-0.0,-1.0,0.2014600650666254,1.0,0.0
1.2606053352355957,26.354520797729492,-1.1580867767333984,-0.0,-0.0,-1.0,0.1515746869715606,2.0,0.0
0.7199773788452148,25.98720359802246,-1.107065200805664,-0.0,-0.0,-1.0,0.1676625427916613,1.0,0.0
0.8985471725463867,25.984569549560547,-1.0966124534606934,-0.6210550683362187,-0.6895358946605955,0.3726001235487002,0.2218929332125321,3.0,0.0
1.405217170715332,27.34511947631836,-1.3677692413330078,-0.0,-0.0,-1.0,0.1040993841341491,1.0,0.0
0.4269375801086426,26.48055076599121,-1.230668067932129,-0.0,-0.0,-1.0,0.19496898287707,1.0,0.0
1.1537890434265137,27.397424697875977,-1.3916220664978027,-0.0,-0.0,-1.0,0.2399696565991386,1.0,0.0
1.1619806289672852,27.054841995239254,-1.0646042823791504,-0.0,-0.0,-1.0,0.1210865225143407,1.0,0.0
0.6390275955200195,26.416221618652344,-0.9720072746276855,-0.0,-0.0,-1.0,0.0734554037514235,2.0,0.0
1.430577278137207,28.017333984375,-1.246477127075195,-0.0,-0.0,-1.0,0.084668209716946,1.0,0.0
0.7042994499206543,27.60977554321289,-1.2143774032592771,-0.0,-0.0,-1.0,0.1250599826973461,1.0,0.0
2.101612091064453,27.893239974975582,-1.4668502807617188,-0.0,-0.0,-1.0,0.1546115734567446,1.0,0.0
1.5917754173278809,27.362812042236328,-1.3958544731140137,-0.0,-0.0,-1.0,0.0388872133607768,1.0,0.0
1.6629772186279297,27.5609130859375,-1.433265209197998,-0.0,-0.0,-1.0,0.0502757283537895,1.0,0.0
1.783144474029541,28.048704147338867,-1.5312676429748535,-0.0,-0.0,-1.0,0.1665038914999579,1.0,0.0
1.378213882446289,27.465791702270508,-1.439697265625,-0.0,-0.0,-1.0,0.1055069420154554,1.0,0.0
2.676732063293457,27.44913673400879,-1.3153142929077148,-0.0,-0.0,-1.0,0.2111957747252045,1.0,0.0
1.2786574363708496,26.2064208984375,-1.170053482055664,-0.9197837335071476,0.0358969162451,0.390780366676404,0.1419305459647737,3.0,0.0
1.4099950790405271,26.452800750732425,-1.2112550735473633,-0.0,-0.0,-1.0,0.1295077603790172,1.0,0.0
1.4285545349121094,26.91327857971191,-1.311685562133789,-0.0,-0.0,-1.0,0.2220526565172257,1.0,0.0
0.9762229919433594,25.952770233154297,-1.1457734107971191,-0.3842697223511767,-0.1469777229348482,-0.9114462844540188,0.2027536142583436,3.0,0.0
0.9148340225219728,26.006040573120117,-1.1641130447387695,-0.1809910880167262,-0.9598901163847496,0.2141335810315449,0.2042420590890858,3.0,0.0
0.5663223266601562,26.2174129486084,-1.2480897903442385,-0.0,-0.0,-1.0,0.076577936572505,1.0,0.0
0.2513713836669922,26.225563049316406,-1.284733772277832,-0.0,-0.0,-1.0,0.1270307425552845,1.0,0.0
0.7874879837036133,27.775129318237305,-1.2723486423492432,-0.0,-0.0,-1.0,0.2066921279685556,2.0,0.0
0.982158660888672,26.29067611694336,-1.0032780170440674,-0.124606028599102,0.0278239483403153,-0.9918160946140746,0.0761289279226069,4.0,0.0
2.64730167388916,26.22197723388672,-1.4866764545440674,-0.0,-0.0,-1.0,0.0439846973287183,1.0,0.0
2.366076946258545,25.925457000732425,-1.456251859664917,0.4521234827005881,-0.2759922971795474,-0.8481819429156976,0.0508334201892174,3.0,0.0
2.529454231262207,26.217628479003903,-1.4955475330352783,-0.0,-0.0,-1.0,0.0444188043063181,1.0,0.0
2.0204925537109375,25.827407836914062,-1.4681799411773682,-0.0,-0.0,-1.0,0.0198458489939095,1.0,0.0
2.16406774520874,25.6390380859375,-1.4217708110809326,-0.0,-0.0,-1.0,0.0252250088647319,1.0,0.0
2.6873183250427246,27.011688232421875,-1.4767510890960691,-0.0,-0.0,-1.0,0.1116121226372075,1.0,0.0
2.4863433837890625,27.27283096313477,-1.5376627445220947,-0.0,-0.0,-1.0,0.2480580199748982,1.0,0.0
2.1526808738708496,26.8367862701416,-1.4879429340362549,-0.0,-0.0,-1.0,0.03097432934542,1.0,0.0
2.2135725021362305,27.461673736572266,-1.5917327404022217,-0.4505344492053068,-0.0074888839260924,-0.8927276329860145,0.039598758643621,3.0,0.0
1.9740066528320312,26.758129119873047,-1.4887993335723877,-0.0,-0.0,-1.0,0.0337939735763978,1.0,0.0
1.8198728561401367,26.242042541503903,-1.412543535232544,-0.0,-0.0,-1.0,0.1302138081240281,1.0,0.0
1.8722195625305176,26.575645446777344,-1.4656493663787842,-0.0,-0.0,-1.0,0.0524828720526161,1.0,0.0
1.4484734535217283,26.12815284729004,-1.4249913692474363,-0.0,-0.0,-1.0,0.0707418936207235,1.0,0.0
1.048807144165039,25.666423797607425,-1.3822805881500244,-0.0,-0.0,-1.0,0.0755063808608748,2.0,0.0
1.2531495094299316,25.984615325927734,-1.417712926864624,-0.0,-0.0,-1.0,0.088112506557948,1.0,0.0
0.8228330612182617,27.721593856811523,-1.1332359313964844,-0.0,-0.0,-1.0,0.1163714533612498,1.0,0.0
1.302955150604248,26.888370513916016,-0.962709903717041,-0.0,-0.0,-1.0,0.1804238788932077,1.0,0.0
0.6558942794799805,26.44623565673828,-0.9587621688842772,-0.0,-0.0,-1.0,0.0615467854771834,2.0,0.0
0.5001201629638672,27.030109405517575,-1.0609395503997805,-0.6064260387809943,0.3455553456405146,-0.7161277557724296,0.1546576087400576,5.0,0.0
0.7904386520385742,27.35152053833008,-1.0807287693023682,-0.1643687084304383,0.357804097220914,-0.919216598904108,0.1582609850862794,3.0,0.0
2.568694591522217,27.27977180480957,-1.333205223083496,0.1846217225050287,0.7669255406799974,0.61460559274381,0.1806116729234964,4.0,0.0
1.9689431190490725,27.8206729888916,-1.4907312393188477,-0.0,-0.0,-1.0,0.1785182781453669,1.0,0.0
1.5462942123413086,28.098459243774418,-1.584240436553955,-0.0,-0.0,-1.0,0.2069342754170821,1.0,0.0
1.311112880706787,27.16642951965332,-1.4437599182128906,-0.0,-0.0,-1.0,0.0933280314665934,1.0,0.0
1.2080731391906738,27.503170013427734,-1.5146126747131348,-0.0,-0.0,-1.0,0.1790971629245221,2.0,0.0
1.2725324630737305,27.975830078125,-1.591543674468994,-0.0,-0.0,-1.0,0.1859900226629644,1.0,0.0
1.1637558937072754,26.043907165527344,-1.2629985809326172,-0.1946929058728085,0.5922021396223925,-0.7819151477171052,0.1919477865153097,4.0,0.0
1.303091049194336,26.21994400024414,-1.2778611183166504,-0.2271250722242415,-0.2024888544364489,-0.9525819993030246,0.1335762317419852,5.0,0.0
0.9709644317626952,25.873762130737305,-1.2560644149780271,0.5606450999422543,-0.7324879931783159,0.3861844271333887,0.1870395438769828,4.0,0.0
0.7007503509521484,25.87891960144043,-1.2892532348632812,-0.0,-0.0,-1.0,0.1209035575436025,1.0,0.0
0.4032497406005859,26.1064453125,-1.364698886871338,-0.0,-0.0,-1.0,0.0859124286164761,1.0,0.0
1.318006992340088,26.942018508911133,-0.6403920650482178,-0.0,-0.0,-1.0,0.0573141960261438,1.0,0.0
0.3899545669555664,27.255950927734375,-0.7782440185546875,-0.5923570348940199,0.5318393929420389,-0.6051941864613444,0.1472041020761492,3.0,0.0
1.5530076026916504,28.04669761657715,-1.291491985321045,-0.0,-0.0,-1.0,0.0695692239571485,1.0,0.0
0.7663631439208984,27.746675491333008,-1.3215007781982422,-0.0,-0.0,-1.0,0.2006517477912055,1.0,0.0
0.9977474212646484,25.98517608642578,-1.0002732276916504,-0.0,-0.0,-1.0,0.182203399353908,2.0,0.0
1.2182555198669434,26.24448013305664,-1.0192043781280518,-0.0,-0.0,-1.0,0.1168597162283569,2.0,0.0
1.0274686813354492,27.49629592895508,-1.2512211799621582,-0.0,-0.0,-1.0,0.1998844055618733,2.0,0.0
0.8385391235351562,25.936349868774418,-1.010207176208496,0.1686774743093,-0.4711389683119883,-0.865780562382034,0.192831131472946,4.0,0.0
2.6407737731933594,27.42819595336914,-1.3560469150543213,-0.0,-0.0,-1.0,0.1783142904277422,2.0,0.0
1.5582833290100098,27.272865295410156,-1.4386274814605713,-0.0,-0.0,-1.0,0.0417718424561078,2.0,0.0
1.5848469734191897,28.021556854248047,-1.5815083980560305,-0.0,-0.0,-1.0,0.208102884573435,1.0,0.0
1.198075771331787,27.094493865966797,-1.4447457790374756,-0.0,-0.0,-1.0,0.1410870868509064,2.0,0.0
1.3197436332702637,27.410614013671875,-1.4918529987335205,-0.0,-0.0,-1.0,0.1949965350553873,1.0,0.0
1.415593147277832,27.83594512939453,-1.563713312149048,-0.0,-0.0,-1.0,0.156840768628598,2.0,0.0
2.5434179306030273,27.305500030517575,-1.341371774673462,0.4935081819230519,0.663383365631533,0.5624697188101632,0.1829119122392811,3.0,0.0
1.7839159965515137,26.08145523071289,-1.1829912662506104,-0.0,-0.0,-1.0,0.1968094061226561,1.0,0.0
1.1978707313537598,26.066425323486328,-1.2483603954315186,-0.1750372565688551,0.7091572661343025,-0.6829772548934346,0.1701141963923218,3.0,0.0
1.3430781364440918,26.286861419677734,-1.2732360363006592,-0.3172833374428144,0.7653071142037458,-0.5600324139996576,0.1481752726788468,4.0,0.0
1.3996963500976562,26.801776885986328,-1.36539626121521,-0.0,-0.0,-1.0,0.1840355240071314,2.0,0.0
1.000666618347168,25.900684356689453,-1.2409231662750244,-0.0,-0.0,-1.0,0.1889029489149845,2.0,0.0
0.5531730651855469,25.899391174316406,-1.2963964939117432,-0.0,-0.0,-1.0,0.0996647222690445,2.0,0.0
2.5770959854125977,27.38330841064453,-1.4075400829315186,-0.0996486224168999,0.5772117006243954,-0.8104917055175256,0.1874170980018999,6.0,0.0
1.8307194709777832,27.15197372436523,-1.4531095027923584,-0.0,-0.0,-1.0,0.050926300391478,1.0,0.0
1.945164680480957,27.692577362060547,-1.5501387119293213,-0.0,-0.0,-1.0,0.110226961968782,1.0,0.0
2.1002631187438965,28.086193084716797,-1.6127097606658936,-0.0,-0.0,-1.0,0.2170395941565493,1.0,0.0
1.611295223236084,26.94967269897461,-1.4407827854156494,-0.0,-0.0,-1.0,0.032373015114056,2.0,0.0
1.6931428909301758,27.074520111083984,-1.4553678035736084,-0.0,-0.0,-1.0,0.0332650275873025,2.0,0.0
2.702216148376465,27.33056640625,-1.381516695022583,-0.0,-0.0,-1.0,0.242172420969465,2.0,0.0
1.477691650390625,26.395488739013672,-1.3467013835906982,-0.803732481558643,-0.1684445873396403,0.5706492084315583,0.1523469184652951,3.0,0.0
1.5683398246765137,26.594974517822266,-1.3744714260101318,-0.0,-0.0,-1.0,0.044175169863707,2.0,0.0
1.0537834167480469,25.77770614624023,-1.2844064235687256,-0.0,-0.0,-1.0,0.158825730814848,2.0,0.0
1.1935057640075684,26.031299591064453,-1.3142435550689695,-0.7610958578879906,0.635716789660437,0.1288303475489029,0.1755245604545093,5.0,0.0
1.3488006591796875,26.258403778076172,-1.3372151851654053,-0.8937564383928261,-0.3745981485143381,0.2467299251428571,0.1464852916877501,3.0,0.0
0.3990898132324219,27.205005645751953,-0.9726283550262452,-0.0,-0.0,-1.0,0.1738963121213373,2.0,0.0
2.1899499893188477,26.747976303100582,-1.5098776817321775,-0.0,-0.0,-1.0,0.03240441141974,1.0,0.0
2.381775379180908,26.9725341796875,-1.5343880653381348,-0.0,-0.0,-1.0,0.0379065529665454,1.0,0.0
2.091477394104004,26.612184524536133,-1.493215560913086,-0.0,-0.0,-1.0,0.0560539321583865,2.0,0.0
2.4698266983032227,25.99512481689453,-1.30088472366333,-0.0,-0.0,-1.0,0.0571514118632372,1.0,0.0
1.925519943237305,26.224225997924805,-1.430586814880371,-0.1000928812568916,-0.5128419291564176,-0.8526280377871805,0.132629251448398,4.0,0.0
2.097421169281006,26.3986873626709,-1.4444708824157717,0.1390391409399894,0.2912014838346491,-0.9465039952895964,0.0767548193794808,3.0,0.0
1.432210922241211,25.942115783691406,-1.4428448677062988,-0.0,-0.0,-1.0,0.035133028725118,1.0,0.0
1.607408046722412,26.06467628479004,-1.442859172821045,-0.0,-0.0,-1.0,0.0463999161868106,2.0,0.0
1.6390061378479004,28.081832885742188,-1.218064308166504,-0.8083357031588726,-0.5713254257874113,-0.1420586106066231,0.0430354944357156,3.0,0.0
1.3130974769592283,25.800724029541016,-1.4307870864868164,-0.0,-0.0,-1.0,0.0357364113580133,1.0,0.0
1.1797666549682615,27.51288604736328,-1.1682085990905762,-0.0,-0.0,-1.0,0.1687306250024862,2.0,0.0
1.2523908615112305,28.08447265625,-1.2671785354614258,-0.0,-0.0,-1.0,0.1470642408555225,1.0,0.0
0.7877988815307617,26.99485969543457,-1.1241588592529297,-0.0,-0.0,-1.0,0.1745582840908005,2.0,0.0
0.7817983627319336,27.394731521606445,-1.199265480041504,-0.2824159650150773,-0.3614026166738322,-0.8886109223759914,0.2191660625045139,3.0,0.0
0.7658405303955078,27.79450225830078,-1.2761483192443848,-0.0,-0.0,-1.0,0.1746125980669675,2.0,0.0
0.5499391555786133,27.034923553466797,-1.164686679840088,-0.0,-0.0,-1.0,0.253937069698323,2.0,0.0
0.472909927368164,27.31115341186523,-1.226358413696289,-0.0,-0.0,-1.0,0.0801519639458659,1.0,0.0
0.672795295715332,26.326589584350582,-1.0174691677093506,-0.0,-0.0,-1.0,0.0667338989204424,1.0,0.0
0.7456150054931641,26.4349365234375,-1.0269203186035156,-0.0,-0.0,-1.0,0.0892320473641878,2.0,0.0
1.4713592529296875,28.077219009399418,-1.6155178546905518,-0.0,-0.0,-1.0,0.1636367442931927,1.0,0.0
1.134532451629639,27.938701629638672,-1.6325557231903076,-0.0,-0.0,-1.0,0.1905089629798173,1.0,0.0
2.600622177124023,25.715839385986328,-1.4798133373260498,-0.0,-0.0,-1.0,0.0515694011585352,1.0,0.0
2.544854640960694,27.435317993164062,-1.324906587600708,0.4163398453163022,0.4626832191070935,-0.7826783323682183,0.1342528373682972,3.0,0.0
1.1123099327087402,25.99913215637207,-1.212402105331421,-0.0,-0.0,-1.0,0.1557067376681533,2.0,0.0
1.2507343292236328,26.19812393188477,-1.2339742183685305,-0.7990821655574222,0.2504294685927891,-0.5465828152699219,0.1151978551336484,3.0,0.0
1.0987677574157717,27.1715145111084,-1.468844652175903,-0.0,-0.0,-1.0,0.0948924274033879,2.0,0.0
1.137019157409668,27.414703369140625,-1.5165650844573977,-0.0,-0.0,-1.0,0.1836872813631806,1.0,0.0
1.2819700241088867,27.881004333496097,-1.598743200302124,-0.0,-0.0,-1.0,0.1961780744800513,1.0,0.0
0.8770895004272461,25.859066009521484,-1.2195518016815186,-0.6245875036404657,-0.5531606604907078,-0.5512746447839364,0.2022189869840807,4.0,0.0
0.9865789413452148,27.13360595703125,-1.4773175716400146,-0.0,-0.0,-1.0,0.1511464761083082,1.0,0.0
0.6347808837890625,25.885284423828125,-1.2638914585113523,-0.0,-0.0,-1.0,0.1221887863397652,2.0,0.0
0.3094320297241211,26.189348220825195,-1.380850076675415,-0.0,-0.0,-1.0,0.1077288446404247,2.0,0.0
0.2454710006713867,26.084632873535156,-1.3693068027496338,-0.0,-0.0,-1.0,0.0804565828687286,1.0,0.0
2.513688564300537,28.00822639465332,-1.2428889274597168,0.1035263910731449,0.0266449319954046,-0.9942697490874044,0.1548509271283394,3.0,0.0
2.336860179901123,26.65674591064453,-1.5001397132873535,-0.0,-0.0,-1.0,0.019751208942171,1.0,0.0
2.391366481781006,26.777027130126953,-1.523897647857666,-0.0,-0.0,-1.0,0.0284417207241544,1.0,0.0
1.849644660949707,26.16863250732422,-1.4466800689697266,-0.0,-0.0,-1.0,0.108647286448792,1.0,0.0
2.0433754920959473,26.50217056274414,-1.5030770301818848,-0.0,-0.0,-1.0,0.0447594540393975,1.0,0.0
1.9618444442749023,28.03993797302246,-1.3169279098510742,-0.8059474566127537,-0.1565344527564077,-0.5709165107786645,0.1490069233285946,3.0,0.0
1.420358657836914,25.839263916015625,-1.43168306350708,-0.0,-0.0,-1.0,0.0327835371295442,2.0,0.0
1.5867629051208496,26.017791748046875,-1.4497599601745603,-0.0,-0.0,-1.0,0.0411827292646093,2.0,0.0
1.5583443641662598,28.128915786743164,-1.3882641792297363,-0.0,-0.0,-1.0,0.0830209984094697,1.0,0.0
1.251636028289795,25.700092315673828,-1.424882411956787,-0.0,-0.0,-1.0,0.0310681370111009,1.0,0.0
1.1208066940307615,27.43858337402344,-1.2897005081176758,0.4257218095600577,0.1771390274384859,-0.8873458772220998,0.1897960336393856,3.0,0.0
1.1804885864257812,27.559492111206055,-1.3087363243103027,-0.0,-0.0,-1.0,0.1943394977984879,2.0,0.0
1.17537260055542,27.997509002685547,-1.4082918167114258,-0.0,-0.0,-1.0,0.2291429439633829,1.0,0.0
0.7537708282470703,27.297523498535156,-1.3094778060913086,-0.0,-0.0,-1.0,0.2303494756294291,1.0,0.0
0.5830469131469727,28.06238174438477,-1.503427028656006,-0.0,-0.0,-1.0,0.1962291164991252,2.0,0.0
1.3348302841186523,26.85599899291992,-1.1298651695251465,-0.0,-0.0,-1.0,0.0865590503479364,1.0,0.0
1.0606722831726074,26.14086151123047,-1.0109810829162598,-0.0,-0.0,-1.0,0.1954269605198814,2.0,0.0
1.228931903839111,26.413619995117188,-1.0464799404144287,-0.0,-0.0,-1.0,0.0948096699672438,2.0,0.0
0.8596391677856445,25.98011016845703,-1.005697250366211,-0.0,-0.0,-1.0,0.198234145001121,2.0,0.0
0.3277397155761719,26.48711204528809,-1.1952133178710938,-0.0,-0.0,-1.0,0.1415753753043897,2.0,0.0
0.3802156448364258,27.264217376708984,-0.7614471912384033,-0.0,-0.0,-1.0,0.1472041020761491,2.0,0.0
1.3316035270690918,27.03277015686035,-0.3644561767578125,0.8578328176595477,0.502500990639165,-0.1077757456617151,0.0969350543306531,4.0,0.0
2.4786300659179688,27.894344329833984,-1.576005458831787,-0.0,-0.0,-1.0,0.2049769201506352,1.0,0.0
2.095129013061523,27.736385345458984,-1.5915031433105469,-0.0,-0.0,-1.0,0.1458439181158335,2.0,0.0
2.151891708374023,27.934642791748047,-1.6312823295593262,-0.0,-0.0,-1.0,0.1062595879284155,1.0,0.0
1.726424217224121,27.04137420654297,-1.481393337249756,-0.0,-0.0,-1.0,0.0333591426020864,2.0,0.0
1.868269443511963,27.265899658203125,-1.512566089630127,-0.0,-0.0,-1.0,0.043117938408762,2.0,0.0
1.950674057006836,27.55131721496582,-1.5681188106536863,-0.0,-0.0,-1.0,0.094951973037742,2.0,0.0
2.599374771118164,27.346656799316406,-1.4256417751312256,-0.453791394266446,0.1079130247090923,-0.8845496874612809,0.2337738221661532,4.0,0.0
1.6859149932861328,28.10692024230957,-1.2016966342926023,-0.0,-0.0,-1.0,0.0437820964603049,1.0,0.0
1.3121352195739746,26.183185577392575,-1.3513472080230713,-0.0,-0.0,-1.0,0.0853136323715744,2.0,0.0
1.513499736785889,26.446365356445312,-1.377641201019287,-0.0,-0.0,-1.0,0.1018235773448091,1.0,0.0
1.6170296669006348,26.775775909423828,-1.4366693496704102,-0.0,-0.0,-1.0,0.0241432893706099,1.0,0.0
1.3209552764892578,27.595870971679688,-1.1451351642608645,-0.0,-0.0,-1.0,0.1265555684982655,1.0,0.0
1.3875226974487305,28.060211181640625,-1.230881929397583,-0.0,-0.0,-1.0,0.0843509785097045,1.0,0.0
0.9367990493774414,25.753231048583984,-1.321298599243164,-0.0,-0.0,-1.0,0.1360513725767698,1.0,0.0
1.1957755088806152,26.05276679992676,-1.3419256210327148,-0.76052588414712,0.5418182789667856,0.3578174564211647,0.0690721475412275,3.0,0.0
1.1171889305114746,27.454248428344727,-1.14467191696167,-0.0,-0.0,-1.0,0.1624332345971016,1.0,0.0
0.8688535690307617,27.830577850341797,-1.2545530796051023,-0.0,-0.0,-1.0,0.1784576378163523,1.0,0.0
0.5293445587158203,27.077531814575195,-1.1550512313842771,-0.8765183983755028,-0.2735124373233888,-0.3961141804311762,0.2342313670435499,4.0,0.0
0.7499446868896484,27.37399673461914,-1.180708885192871,-0.2824159650150773,-0.3614026166738322,-0.8886109223759914,0.1910890776193153,3.0,0.0
0.7707138061523438,27.69932746887207,-1.2421543598175049,-0.0,-0.0,-1.0,0.2047143348787296,2.0,0.0
0.3395729064941406,26.51538848876953,-1.0763261318206787,0.9256122355224692,-0.3783025311355638,-0.0113659310011191,0.1882429807261816,3.0,0.0
0.4208927154541015,27.31116485595703,-1.2164311408996582,-0.0,-0.0,-1.0,0.0625556863137879,1.0,0.0
0.6673688888549805,26.485166549682617,-1.0203158855438232,-0.0,-0.0,-1.0,0.1195785218805424,1.0,0.0
1.6105222702026367,28.119537353515625,-1.207624912261963,-0.0,-0.0,-1.0,0.0582611573428536,2.0,0.0
1.315959930419922,28.055522918701172,-1.2419154644012451,-0.0,-0.0,-1.0,0.1322622575090895,1.0,0.0
0.794403076171875,27.596275329589844,-1.2360854148864746,-0.0,-0.0,-1.0,0.1914928596393649,1.0,0.0
0.7936191558837891,27.844547271728516,-1.2866744995117188,-0.0,-0.0,-1.0,0.141704316490698,1.0,0.0
1.9487295150756836,28.109668731689453,-1.1520638465881348,-0.0,-0.0,-1.0,0.0885107207821638,1.0,0.0
1.650496006011963,28.058120727539062,-1.1880788803100586,-0.0,-0.0,-1.0,0.0535011919697837,2.0,0.0
1.330033779144287,26.962182998657227,-1.0135955810546875,-0.0,-0.0,-1.0,0.1493191107245204,2.0,0.0
1.1393194198608398,27.500938415527344,-1.1566131114959717,-0.0,-0.0,-1.0,0.1508410485037568,2.0,0.0
1.3463892936706543,27.639102935791016,-1.149806261062622,-0.0,-0.0,-1.0,0.188461222904279,1.0,0.0
0.7212085723876953,26.348979949951172,-1.0036866664886477,-0.0,-0.0,-1.0,0.0720455250000205,1.0,0.0
0.7987918853759766,26.49894905090332,-1.017953634262085,-0.0,-0.0,-1.0,0.0669093962488094,1.0,0.0
0.790644645690918,27.00226402282715,-1.1179392337799072,-0.0,-0.0,-1.0,0.1745582840908004,2.0,0.0
0.7811555862426758,27.388751983642575,-1.196629285812378,-0.2824159650150773,-0.3614026166738322,-0.8886109223759914,0.2191660625045138,3.0,0.0
0.3494882583618164,26.540691375732425,-1.1110241413116455,0.9256122355224692,-0.3783025311355638,-0.0113659310011191,0.2016291936684778,3.0,0.0
0.5393514633178711,27.09418678283691,-1.182004451751709,0.702186116320239,-0.6921349310790962,-0.1669847155497615,0.2266559918846958,3.0,0.0
1.3050689697265625,27.067432403564453,-0.564507246017456,-0.0,-0.0,-1.0,0.0518741733867825,2.0,0.0
0.2209920883178711,28.07361221313477,-1.3129947185516355,-0.0,-0.0,-1.0,0.2193948648200343,1.0,0.0
1.1033873558044434,27.43846893310547,-1.0154132843017578,-0.0,-0.0,-1.0,0.1816937390611451,1.0,0.0
0.765324592590332,27.36911392211914,-1.069389820098877,-0.0,-0.0,-1.0,0.1569852143228709,2.0,0.0
0.8723630905151367,27.620018005371097,-1.0961284637451172,-0.0,-0.0,-1.0,0.090827010240907,1.0,0.0
0.2856397628784179,26.47710609436035,-1.0063471794128418,-0.0,-0.0,-1.0,0.1396803959051817,1.0,0.0
0.4103841781616211,27.170909881591797,-1.1049692630767822,-0.0,-0.0,-1.0,0.1180071039867571,2.0,0.0
0.5335855484008789,27.88682556152344,-1.2147436141967771,-0.0,-0.0,-1.0,0.1492727061659677,1.0,0.0
1.2860097885131836,26.88886260986328,-0.8732607364654541,-0.0,-0.0,-1.0,0.0687455489538728,1.0,0.0
1.3008909225463867,26.988304138183594,-0.4444141387939453,-0.0,-0.0,-1.0,0.0969350543306531,1.0,0.0
0.836064338684082,27.74814224243164,-1.190117597579956,-0.0,-0.0,-1.0,0.2065571710464927,1.0,0.0
1.340357780456543,26.951908111572266,-0.9184939861297609,-0.0,-0.0,-1.0,0.0847664255060529,2.0,0.0
1.1202521324157717,27.395763397216797,-1.0565125942230225,-0.0,-0.0,-1.0,0.1996721928881349,1.0,0.0
0.7035093307495117,26.56198501586914,-0.9873332977294922,-0.0,-0.0,-1.0,0.0797440588806675,1.0,0.0
0.7128925323486328,27.046661376953125,-1.077918529510498,-0.0,-0.0,-1.0,0.1411963285821962,1.0,0.0
0.7946233749389648,27.39935302734375,-1.1289715766906738,-0.0,-0.0,-1.0,0.1860407077963516,2.0,0.0
0.3459854125976562,26.5307559967041,-1.065598726272583,0.9463209802346476,-0.3218803676257242,0.029489511777313,0.1738719282639314,4.0,0.0
0.5175714492797852,27.09183120727539,-1.1312203407287598,-0.0,-0.0,-1.0,0.1721615930900729,2.0,0.0
1.3145346641540527,27.0299072265625,-0.5185527801513672,0.8973197112080661,-0.0277511624370209,-0.4405078987496898,0.0518741733867825,4.0,0.0
0.4127016067504883,27.303953170776367,-0.7434549331665039,-0.0,-0.0,-1.0,0.1472041020761491,2.0,0.0
0.4258460998535156,27.280086517333984,-0.7921640872955322,-0.0,-0.0,-1.0,0.1472041020761492,2.0,0.0
1.3117904663085938,27.00963592529297,-0.5486741065979004,0.3314253183212092,0.7684707977145102,-0.5473663228914515,0.0518741733867825,3.0,0.0
1.343721866607666,27.100587844848633,-0.2945199012756347,-0.0,-0.0,-1.0,0.059585765852518,2.0,0.0
1.234574317932129,27.21512794494629,-0.6578445434570312,-0.0,-0.0,-1.0,0.0170171809087154,1.0,0.0
0.3372917175292969,26.49772071838379,-0.9659545421600342,-0.0,-0.0,-1.0,0.1324194494619047,1.0,0.0
0.3384370803833008,26.50645637512207,-0.908815622329712,-0.0,-0.0,-1.0,0.1293571962234841,1.0,0.0
0.4895124435424804,27.18235969543457,-0.8071298599243164,-0.0,-0.0,-1.0,0.1137627277811189,1.0,0.0
1.3337993621826172,27.00913429260254,-0.2696561813354492,-0.0,-0.0,-1.0,0.0969350543306531,2.0,0.0
1.337017059326172,27.026700973510746,-0.3498833179473877,0.8578328176595477,0.502500990639165,-0.1077757456617151,0.0969350543306531,4.0,0.0
1.3757457733154297,27.05382537841797,-0.2673196792602539,0.6594099513547177,0.6989262302010432,-0.2769126952512781,0.0969350543306531,3.0,0.0
1.397809982299805,27.02817726135254,-0.2795140743255615,0.5387322547485838,0.6919515503221254,-0.4805940175452811,0.0969350543306531,3.0,0.0
1.3544464111328125,26.921751022338867,-0.5262746810913086,-0.0,-0.0,-1.0,0.0667448930870211,1.0,0.0
0.3642511367797851,26.540002822875977,-1.0185720920562744,-0.0,-0.0,-1.0,0.1488300469341431,2.0,0.0
0.4953231811523437,27.234519958496097,-1.033088207244873,-0.0,-0.0,-1.0,0.2144814517472819,1.0,0.0
1.3470964431762695,27.065933227539062,-0.3049819469451904,0.7345081259902038,0.3607911304253588,-0.5747413096870198,0.0969350543306531,5.0,0.0
0.3474197387695312,26.542387008666992,-1.03357195854187,0.4121058505360417,0.8503321700451788,-0.327267426641001,0.1674321754188358,3.0,0.0
0.4509048461914062,27.317808151245117,-1.0758121013641355,0.0917450927510572,0.9089778399696437,-0.4066228281838353,0.1379959488595543,3.0,0.0
1.3721399307250977,27.024499893188477,-0.3135840892791748,0.5407348880324995,0.6063695171962902,-0.5830281206593884,0.0969350543306531,6.0,0.0
0.4169769287109375,27.294300079345703,-1.26947021484375,-0.0,-0.0,-1.0,0.0733334190010582,1.0,0.0
0.454833984375,26.929502487182617,-1.224181890487671,-0.0,-0.0,-1.0,0.1850320074596344,1.0,0.0
0.708165168762207,27.90389060974121,-1.280928611755371,-0.0,-0.0,-1.0,0.1691667289383325,1.0,0.0
0.606536865234375,27.00775718688965,-1.2023046016693115,-0.0,-0.0,-1.0,0.1733722410894679,1.0,0.0
0.9540491104125975,25.944074630737305,-1.031857967376709,-0.0,-0.0,-1.0,0.2669365907653219,2.0,0.0
0.859588623046875,27.704879760742188,-1.228733777999878,-0.0,-0.0,-1.0,0.2304762115354777,2.0,0.0
0.9693222045898438,27.354568481445312,-1.1682307720184326,-0.0,-0.0,-1.0,0.0824337212062863,1.0,0.0
1.219803810119629,26.302242279052734,-1.0115716457366943,-0.6907291179129958,0.6280213859942222,0.358444450927938,0.110161061680142,3.0,0.0
1.1374216079711914,26.01712226867676,-1.0016539096832275,0.4912322102098926,0.2899760993365329,-0.8213432762650911,0.206795827822132,4.0,0.0
1.2909221649169922,27.53696060180664,-1.1262547969818115,-0.0,-0.0,-1.0,0.1200444407508946,1.0,0.0
1.3001985549926758,26.90283966064453,-1.055194616317749,-0.0,-0.0,-1.0,0.1649124528593919,2.0,0.0
1.3472719192504885,27.004005432128903,-0.4791100025177002,-0.0,-0.0,-1.0,0.0595857658525179,2.0,0.0
0.4629802703857422,27.300518035888672,-1.1117384433746338,0.0917450927510572,0.9089778399696437,-0.4066228281838353,0.1002423366881822,3.0,0.0
0.4218978881835937,26.44620704650879,-1.0408928394317627,-0.0,-0.0,-1.0,0.1293571962234842,1.0,0.0
0.5392951965332031,27.084856033325195,-1.0774309635162354,-0.3654493636288521,-0.4035809456112501,-0.8387903092923739,0.1672193564953543,4.0,0.0
1.1863088607788086,27.354509353637695,-0.9896066188812256,-0.0,-0.0,-1.0,0.2286795588664781,2.0,0.0
1.3994054794311523,27.001203536987305,-0.321984052658081,-0.0,-0.0,-1.0,0.0969350543306531,2.0,0.0
0.439859390258789,27.98660659790039,-1.4896929264068604,-0.0,-0.0,-1.0,0.2362324318724629,2.0,0.0
0.2715129852294922,25.773069381713867,-1.2953152656555176,-0.0,-0.0,-1.0,0.0816697828636436,1.0,0.0
0.5163860321044922,27.417177200317383,-1.4114656448364258,-0.0,-0.0,-1.0,0.196162317106081,1.0,0.0
0.6325721740722656,27.10633087158203,-1.3567235469818115,-0.0,-0.0,-1.0,0.1569549202494241,1.0,0.0
0.6593780517578125,26.83451271057129,-1.3232917785644531,-0.0,-0.0,-1.0,0.1710227940202973,1.0,0.0
0.7362575531005859,25.825191497802734,-1.2117102146148682,-0.0,-0.0,-1.0,0.1647623662749205,1.0,0.0
0.8592472076416016,27.467090606689453,-1.3548660278320312,-0.0,-0.0,-1.0,0.2108460876275415,1.0,0.0
0.8312911987304688,27.026710510253903,-1.3117892742156982,-0.0,-0.0,-1.0,0.1577903693903959,1.0,0.0
1.128070831298828,26.03546905517578,-1.157311201095581,-0.0,-0.0,-1.0,0.1822818777902436,2.0,0.0
1.270977020263672,27.94231605529785,-1.3365304470062256,-0.0,-0.0,-1.0,0.2258269080348963,1.0,0.0
1.2922000885009766,26.31745147705078,-1.1538593769073486,-0.2762274311275919,-0.2833229968551481,-0.9183825378052816,0.1314354200522236,4.0,0.0
1.6853456497192385,28.00617218017578,-1.2713446617126465,-0.0,-0.0,-1.0,0.0755189321249902,1.0,0.0
2.043370246887207,28.02681350708008,-1.21134352684021,-0.6434077300763769,0.7563852817045089,-0.1179313295895318,0.133918223884051,3.0,0.0
0.4515647888183594,27.346176147460938,-1.3614466190338137,-0.0,-0.0,-1.0,0.1521883959522088,1.0,0.0
0.4677047729492187,27.03838157653809,-1.312755107879639,-0.0,-0.0,-1.0,0.1981246924926254,1.0,0.0
0.4471969604492187,28.108089447021484,-1.4812297821044922,-0.0,-0.0,-1.0,0.1339623823238509,1.0,0.0
0.8211383819580078,27.4260196685791,-1.317896604537964,-0.0,-0.0,-1.0,0.2715572540571988,1.0,0.0
0.9855632781982422,27.763660430908203,-1.3465428352355957,-0.0,-0.0,-1.0,0.199871495326829,1.0,0.0
1.1298141479492188,26.091014862060547,-1.0734894275665283,0.2850704431219851,0.7452617315473185,-0.6027601462848444,0.2523650145650546,3.0,0.0
1.1833858489990234,27.454713821411133,-1.2681787014007568,0.6154994055309833,-0.3867464572694368,-0.6867224035813498,0.1841727288746754,3.0,0.0
1.4005603790283203,26.949542999267575,-1.1572225093841553,-0.0,-0.0,-1.0,0.1247352076795923,1.0,0.0
1.2456912994384766,26.528600692749023,-1.118016242980957,-0.0,-0.0,-1.0,0.0646755363662874,2.0,0.0
1.2854652404785156,26.32796859741211,-1.0827980041503906,-0.7316904501458461,-0.0029031320983276,-0.6816308803079483,0.142448451386592,4.0,0.0
1.3294792175292969,28.07156753540039,-1.3463499546051023,-0.0,-0.0,-1.0,0.1225807304159899,1.0,0.0
1.3290138244628906,27.99777030944824,-1.3342249393463137,-0.0,-0.0,-1.0,0.1517458000922634,1.0,0.0
1.8974742889404297,28.073684692382812,-1.265002727508545,-0.0,-0.0,-1.0,0.0857874982934786,1.0,0.0
2.1371946334838867,28.11219787597656,-1.2374446392059326,-0.0,-0.0,-1.0,0.1242201795665259,1.0,0.0
1.2464599609375,25.663454055786133,-1.37477445602417,-0.0,-0.0,-1.0,0.0310681370111009,1.0,0.0
1.408041000366211,25.950912475585938,-1.3886222839355469,-0.0,-0.0,-1.0,0.0389520893277384,2.0,0.0
1.7848663330078125,26.27399253845215,-1.373239040374756,-0.0,-0.0,-1.0,0.1255761263312444,1.0,0.0
1.644998550415039,26.140350341796875,-1.3765127658843994,-0.9161652301266684,-0.3542278172371098,0.1875204644895619,0.0771130806597175,5.0,0.0
1.5752601623535156,26.95646095275879,-1.412661910057068,-0.0,-0.0,-1.0,0.058220014379359,2.0,0.0
1.1309432983398438,25.97720718383789,-0.993964910507202,0.4749670221274399,-0.2401712602245465,-0.8465955903815853,0.1668598452303525,3.0,0.0
0.9957199096679688,26.285606384277344,-1.0020501613616943,-0.124606028599102,0.0278239483403153,-0.9918160946140746,0.0671728176876386,4.0,0.0
1.0000267028808594,25.750816345214844,-0.999131679534912,-0.0,-0.0,-1.0,0.2103060150511689,1.0,0.0
1.2118186950683594,26.1496524810791,-1.0672105550765991,-0.0,-0.0,-1.0,0.1250576585789546,2.0,0.0
1.1104202270507812,25.95838165283203,-1.0790096521377563,-0.0,-0.0,-1.0,0.1663474499152455,2.0,0.0
0.915386199951172,25.87151527404785,-1.094814419746399,-0.3633966984581969,-0.8417268178584619,0.3992978883584912,0.170238357142302,4.0,0.0
1.4734268188476562,27.912025451660156,-1.55235493183136,-0.0,-0.0,-1.0,0.2176023790033486,1.0,0.0
1.2802505493164062,27.690372467041016,-1.5706230401992798,-0.0,-0.0,-1.0,0.1673800363964302,2.0,0.0
1.9984474182128904,27.00895118713379,-1.5189558267593384,-0.0,-0.0,-1.0,0.0410245283792344,2.0,0.0
1.9852828979492188,27.15534210205078,-1.518391728401184,-0.0,-0.0,-1.0,0.0401049985044646,1.0,0.0
2.6814193725585938,27.33319091796875,-1.4590739011764526,-0.0,-0.0,-1.0,0.2337738221661533,1.0,0.0
2.525707244873047,26.549468994140625,-1.4806922674179075,-0.0,-0.0,-1.0,0.0166909457057085,1.0,0.0
2.6580657958984375,26.29446029663086,-1.4727662801742554,0.5240362268019841,-0.8472892992579077,-0.0865267378454977,0.032841257850885,3.0,0.0
1.154510498046875,27.423580169677734,-1.2765254974365234,0.2529702440819506,0.2061429482615985,-0.9452571821949486,0.1951537967770507,4.0,0.0
0.5224342346191406,27.29286193847656,-1.3239624500274658,-0.0,-0.0,-1.0,0.1988289753090766,2.0,0.0
0.8008346557617188,26.837244033813477,-1.3059923648834229,-0.0,-0.0,-1.0,0.143743517202807,1.0,0.0
1.8013954162597656,28.04431915283203,-1.2259743213653564,-0.0,-0.0,-1.0,0.0526889546467544,2.0,0.0
2.594097137451172,27.329509735107425,-1.170797348022461,0.1890266888214438,-0.4625221541734225,-0.8662229319361024,0.1668167076600925,3.0,0.0
1.383136749267578,26.433744430541992,-1.2652878761291504,-0.5021299551580715,-0.3029002706500384,0.8100104531258141,0.1384772551243726,4.0,0.0
1.1699676513671875,26.009105682373047,-1.283952236175537,-0.7710748452910728,0.3690897757808189,-0.518860598208626,0.1888051168407528,4.0,0.0
0.9951324462890624,25.72185707092285,-1.2990286350250244,-0.0,-0.0,-1.0,0.1658270183103744,1.0,0.0
1.067974090576172,26.173694610595703,-0.9700074195861816,-0.0,-0.0,-1.0,0.1050008497092822,1.0,0.0
0.7109756469726562,26.42256546020508,-0.9913642406463624,-0.0,-0.0,-1.0,0.0684910128920592,2.0,0.0
1.0053977966308594,25.92350196838379,-0.977907419204712,-0.0,-0.0,-1.0,0.1875339282461049,1.0,0.0
1.955976486206055,28.071674346923828,-1.1848537921905518,-0.0,-0.0,-1.0,0.0918049225438842,1.0,0.0
2.526073455810547,27.366703033447266,-1.1474664211273191,-0.0,-0.0,-1.0,0.285157543212349,1.0,0.0
2.513002395629883,27.249835968017575,-1.150660753250122,-0.0,-0.0,-1.0,0.2013609332540376,1.0,0.0
1.1318283081054688,27.511322021484375,-1.266254425048828,-0.0,-0.0,-1.0,0.1826518862116094,1.0,0.0
0.5027122497558594,27.28889274597168,-1.3252198696136477,-0.0,-0.0,-1.0,0.1466400254756818,2.0,0.0
1.3123283386230469,26.694381713867188,-1.2656550407409668,-0.0,-0.0,-1.0,0.0951268703862611,1.0,0.0
0.6913375854492188,26.90043258666992,-1.3160498142242432,-0.0,-0.0,-1.0,0.2202108422108295,1.0,0.0
1.307302474975586,26.260929107666016,-1.2744958400726318,-0.0368188215474397,0.3495606936796994,-0.936189989165674,0.1192691173114417,7.0,0.0
1.1048545837402344,25.90127944946289,-1.299452543258667,-0.0,-0.0,-1.0,0.1138554885685163,1.0,0.0
0.5761547088623047,27.932905197143555,-1.1911883354187012,0.6291732966491222,0.7752579769357433,-0.0558214294081959,0.1375821342913457,3.0,0.0
0.5680160522460938,26.8966064453125,-1.1772451400756836,-0.0,-0.0,-1.0,0.1785650124889782,1.0,0.0
1.2824859619140625,26.243022918701172,-1.114577293395996,-0.9491340141690447,0.3024545601515425,-0.0875549095761782,0.1659602450658064,6.0,0.0
1.0782146453857422,25.961265563964844,-1.1265966892242432,-0.0,-0.0,-1.0,0.1487314314733186,2.0,0.0
0.8641357421875,25.798141479492188,-1.14093017578125,-0.9097157831495364,-0.3385655686895198,0.2403966505310917,0.1856802334789002,3.0,0.0
2.0221099853515625,27.928354263305664,-1.3271394968032837,-0.0,-0.0,-1.0,0.1094596437891078,2.0,0.0
1.4916877746582031,27.98358154296875,-1.3770571947097778,-0.0,-0.0,-1.0,0.119964440181479,2.0,0.0
0.8535480499267578,27.74174118041992,-1.434512495994568,-0.0,-0.0,-1.0,0.2544512517193805,1.0,0.0
0.3600063323974609,28.047866821289062,-1.4833098649978638,-0.0,-0.0,-1.0,0.1801737035732268,1.0,0.0
2.546518325805664,27.27619171142578,-1.2720953226089478,-0.0,-0.0,-1.0,0.1748945116256868,2.0,0.0
1.0537567138671875,27.382957458496097,-1.4128910303115845,0.5373013891581165,0.0408289487541658,-0.8424014566418958,0.2213116393075387,3.0,0.0
1.459430694580078,26.851621627807617,-1.3708940744400024,-0.0,-0.0,-1.0,0.1527003476544723,1.0,0.0
1.0611228942871094,27.111583709716797,-1.4102081060409546,-0.0,-0.0,-1.0,0.0972417771224873,2.0,0.0
1.6051349639892578,26.410812377929688,-1.3544267416000366,-0.0,-0.0,-1.0,0.0929753944565181,1.0,0.0
1.52008056640625,26.600854873657227,-1.363578200340271,-0.0,-0.0,-1.0,0.052204350744247,2.0,0.0
1.7805919647216797,26.142288208007812,-1.336361289024353,-0.0,-0.0,-1.0,0.1474607899832859,1.0,0.0
1.369485855102539,26.071796417236328,-1.3750845193862915,-0.953195786343831,-0.3018283795941987,-0.0178163455261191,0.1009574194453755,4.0,0.0
1.3127708435058594,25.87925720214844,-1.3796769380569458,-0.7934502665260423,-0.6009964165728847,-0.0961248241418614,0.0378879478216201,3.0,0.0
1.1467933654785156,27.476917266845703,-1.1022522449493408,-0.0,-0.0,-1.0,0.165268919657157,1.0,0.0
1.2647418975830078,26.21517562866211,-1.0898799896240234,-0.4855912089853878,0.2971053523967056,-0.8221493704512209,0.0985320125817275,5.0,0.0
1.1409244537353516,26.05048370361328,-1.100989818572998,0.6791589442658548,0.3548959836818213,-0.6424888864332221,0.1687802290445226,3.0,0.0
1.019989013671875,25.9361572265625,-1.1118974685668943,-0.0,-0.0,-1.0,0.188107726925821,2.0,0.0
1.896770477294922,27.96164894104004,-1.3555387258529663,-0.0,-0.0,-1.0,0.1387496006359529,1.0,0.0
1.5075359344482422,27.987398147583008,-1.3968826532363892,-0.7206604380190603,-0.2866272259822118,-0.6312633098794177,0.1762346525544302,3.0,0.0
0.7612743377685547,28.05063247680664,-1.4763554334640503,-0.0,-0.0,-1.0,0.1322273403687439,1.0,0.0
1.0067462921142578,27.732666015625,-1.4509438276290894,-0.0,-0.0,-1.0,0.1873063600991456,1.0,0.0
1.403886795043945,27.254684448242188,-1.410056471824646,-0.0,-0.0,-1.0,0.106434524994756,2.0,0.0
1.60675048828125,26.817197799682617,-1.3903135061264038,-0.0,-0.0,-1.0,0.0242858283058505,1.0,0.0
