x,y,z,nx,ny,nz,curvature,density,label
29.033761978149418,-30.606666564941406,1.3074092864990234,-0.0,-0.0,-1.0,0.1585316121719484,2.0,2.0
30.206260681152344,-29.652328491210938,1.260632872581482,-0.0,-0.0,-1.0,0.1644335902525507,1.0,2.0
29.91276741027832,-29.53095436096191,1.883782148361206,-0.0,-0.0,-1.0,0.2208826013289073,2.0,2.0
27.803062438964844,-30.285398483276367,1.343676209449768,-0.8842524707404051,0.0954156962735268,-0.4571579736744471,0.1273832117474039,5.0,2.0
28.594308853149418,-29.38716697692871,1.3308831453323364,-0.0,-0.0,-1.0,0.1300100924685099,1.0,2.0
29.35280990600586,-29.42302703857422,1.28705894947052,0.7533245466294278,0.6396745305595612,0.1527043627371905,0.1809805041554187,5.0,2.0
29.133623123168945,-29.62348747253418,1.2925186157226562,-0.0,-0.0,-1.0,0.1839211091220842,1.0,2.0
29.059097290039062,-30.00828742980957,1.2834668159484863,-0.0,-0.0,-1.0,0.1730770627196395,1.0,2.0
28.73617172241211,-30.59043884277344,1.281421780586243,-0.6786474452631293,-0.7344627100923301,0.001473947644291,0.1493639714059227,3.0,2.0
28.602046966552734,-30.81519317626953,1.2810825109481812,-0.0,-0.0,-1.0,0.255204308651221,1.0,2.0
28.414165496826172,-30.99053192138672,1.2854053974151611,-0.0147953997441473,-0.8297835537978842,-0.5578891915003952,0.2637956069694235,3.0,2.0
29.719396591186523,-29.447256088256836,1.26550030708313,-0.0,-0.0,-1.0,0.1962583723332126,2.0,2.0
28.87201881408691,-30.5269718170166,1.2760276794433594,-0.0,-0.0,-1.0,0.148834250434703,1.0,2.0
28.685359954833984,-30.784503936767575,1.2775256633758545,-0.7443774327735654,-0.3143014276251263,-0.5891662330533238,0.2082615885423271,3.0,2.0
28.36756706237793,-31.46349716186523,1.271531581878662,-0.0,-0.0,-1.0,0.1515919361252815,1.0,2.0
30.165958404541016,-29.366653442382812,1.2428715229034424,-0.0,-0.0,-1.0,0.1749860808944043,1.0,2.0
29.402210235595703,-29.532760620117188,1.8529205322265625,-0.0,-0.0,-1.0,0.0819872798433206,2.0,2.0
29.77056884765625,-29.493846893310547,1.8380396366119385,-0.0,-0.0,-1.0,0.077108437228967,2.0,2.0
30.18387794494629,-29.410587310791016,1.8216612339019775,-0.0,-0.0,-1.0,0.2009265512280147,2.0,2.0
30.068750381469727,-29.81832504272461,1.8249670267105105,-0.0,-0.0,-1.0,0.116299501593613,1.0,2.0
28.068405151367188,-31.17052459716797,1.412623167037964,-0.0,-0.0,-1.0,0.1931090962900768,1.0,2.0
28.717390060424805,-30.594879150390625,1.3732866048812866,-0.0,-0.0,-1.0,0.1241731635648416,2.0,2.0
28.522212982177734,-30.853046417236328,1.38318133354187,-0.0,-0.0,-1.0,0.1834514186781285,1.0,2.0
28.31157684326172,-31.149559020996097,1.3935370445251465,-0.0,-0.0,-1.0,0.2132711168786245,1.0,2.0
29.320369720458984,-29.538406372070312,1.347805738449097,-0.0,-0.0,-1.0,0.2249844267260042,1.0,2.0
29.290122985839844,-29.95331573486328,1.3412437438964844,-0.0,-0.0,-1.0,0.1532980763368237,1.0,2.0
29.065204620361328,-30.27938461303711,1.352286458015442,-0.0,-0.0,-1.0,0.2066505852935108,2.0,2.0
28.871084213256836,-30.60739517211914,1.3606812953948977,-0.8474462640109545,-0.3019678986926078,0.4366351082689599,0.1897320827330751,5.0,2.0
29.69908332824707,-29.5982723236084,1.3157341480255127,-0.0,-0.0,-1.0,0.1446368763241229,1.0,2.0
29.636375427246097,-29.880332946777344,1.3147542476654053,0.3704212767534141,-0.8739346893275823,0.3146843442535284,0.1015656811633085,4.0,2.0
29.937320709228516,-29.79739761352539,1.2920470237731934,-0.0,-0.0,-1.0,0.1614088652012176,1.0,2.0
28.49688720703125,-31.02753448486328,1.351313829421997,-0.0,-0.0,-1.0,0.282505188908638,2.0,2.0
28.488306045532227,-31.11503219604492,1.3497891426086426,-0.3206232294477228,0.4342407925459437,-0.8418050123559396,0.1973594819901778,5.0,2.0
28.94354248046875,-30.564842224121097,1.3076523542404177,-0.0,-0.0,-1.0,0.2145393160121619,1.0,2.0
28.73269271850586,-30.90498924255371,1.3248422145843506,-0.0,-0.0,-1.0,0.2431204578824888,2.0,2.0
29.379011154174805,-29.7981014251709,1.2727410793304443,-0.0,-0.0,-1.0,0.1339271619062175,1.0,2.0
29.310911178588867,-30.161792755126953,1.2714720964431765,-0.0,-0.0,-1.0,0.2417243685993843,1.0,2.0
29.178184509277344,-30.414548873901367,1.28159761428833,-0.0,-0.0,-1.0,0.202887916509085,1.0,2.0
29.771055221557617,-29.46440696716309,1.2301087379455566,-0.0,-0.0,-1.0,0.2065071113016829,2.0,2.0
29.62944602966309,-29.64700508117676,1.2439026832580566,-0.0,-0.0,-1.0,0.1332178809184377,2.0,2.0
29.98101806640625,-29.663894653320312,1.1968333721160889,-0.0,-0.0,-1.0,0.103667122037809,1.0,2.0
27.81184959411621,-30.24999237060547,1.4614540338516235,-0.0,-0.0,-1.0,0.172488654507244,2.0,2.0
29.349594116210938,-29.41101837158203,1.2873234748840332,-0.9087870919556492,0.3125304652711829,-0.2764610818400531,0.1906175555957088,4.0,2.0
29.264083862304688,-29.584001541137695,1.2937891483306885,-0.0,-0.0,-1.0,0.1606277640645297,1.0,2.0
29.86949157714844,-29.483875274658203,1.7584532499313354,-0.0,-0.0,-1.0,0.1323591049389507,1.0,2.0
29.87277030944824,-29.595657348632812,1.7584552764892578,-0.0,-0.0,-1.0,0.204644311632873,1.0,2.0
29.757898330688477,-30.39391708374023,1.7741966247558594,-0.0,-0.0,-1.0,0.2261423597128166,2.0,2.0
30.209308624267575,-29.42409896850586,1.7191565036773682,-0.0,-0.0,-1.0,0.1216762775393978,1.0,2.0
30.118797302246097,-29.8001766204834,1.7308920621871948,-0.0,-0.0,-1.0,0.1947381506961429,2.0,2.0
27.726028442382812,-30.316959381103516,1.543116807937622,-0.2653748524399152,-0.6469927100212972,-0.7148262871997578,0.2041986878013052,3.0,2.0
27.910110473632812,-30.288143157958984,1.5268059968948364,-0.0,-0.0,-1.0,0.1868499695796688,1.0,2.0
28.42062187194824,-31.156192779541016,1.4375977516174316,-0.0,-0.0,-1.0,0.1791023629233178,1.0,2.0
28.663005828857425,-30.897199630737305,1.4256008863449097,-0.0,-0.0,-1.0,0.1532328848483063,1.0,2.0
28.518922805786133,-31.11394500732422,1.4299498796463013,-0.0,-0.0,-1.0,0.1954188281845896,1.0,2.0
29.0383358001709,-30.50879669189453,1.4053034782409668,-0.0,-0.0,-1.0,0.2082251681882551,2.0,2.0
28.96553421020508,-30.722923278808594,1.403222680091858,-0.0,-0.0,-1.0,0.1694006161797759,2.0,2.0
29.372316360473633,-29.928911209106445,1.3959964513778689,-0.0,-0.0,-1.0,0.220285049921086,1.0,2.0
29.30789566040039,-30.251548767089844,1.3888931274414062,-0.0,-0.0,-1.0,0.2233593264245923,2.0,2.0
29.64214324951172,-29.77604103088379,1.374056696891785,-0.0,-0.0,-1.0,0.1646131448818447,1.0,2.0
29.615135192871097,-30.032787322998047,1.3662174940109253,-0.0,-0.0,-1.0,0.169476716932621,2.0,2.0
29.86992645263672,-29.373119354248047,1.3662374019622805,-0.0,-0.0,-1.0,0.2794711748739357,2.0,2.0
29.93766975402832,-29.688671112060547,1.346150279045105,-0.0,-0.0,-1.0,0.1932957617179931,1.0,2.0
27.882427215576172,-30.323009490966797,1.2854492664337158,-0.9255001465673884,-0.325134710110174,0.1942598748720789,0.176257374371762,3.0,2.0
28.37489128112793,-31.399377822875977,1.1715054512023926,-0.0,-0.0,-1.0,0.1255477796428813,1.0,2.0
28.26594352722168,-31.716842651367188,1.1674270629882812,-0.0,-0.0,-1.0,0.1463451927644552,1.0,2.0
28.49130630493164,-31.12198257446289,1.1721622943878174,-0.0,-0.0,-1.0,0.1264380534227143,1.0,2.0
28.716259002685547,-30.693458557128903,1.1670234203338623,-0.0638031648233105,-0.9308428810401316,0.3598064576622224,0.1747509832958058,3.0,2.0
28.514753341674805,-29.560340881347656,1.248319387435913,-0.0,-0.0,-1.0,0.2195023335161658,2.0,2.0
28.966609954833984,-29.91751480102539,1.1745048761367798,-0.0,-0.0,-1.0,0.1983223174711897,1.0,2.0
29.127952575683594,-29.47500228881836,1.1751158237457275,-0.0,-0.0,-1.0,0.2814071611801041,2.0,2.0
29.129638671875,-29.910497665405273,1.1542344093322754,-0.0,-0.0,-1.0,0.1022094102613141,2.0,2.0
27.77314186096191,-31.06781005859375,1.78957200050354,-0.0,-0.0,-1.0,0.1475372759696935,1.0,2.0
28.081317901611328,-31.734634399414062,1.7445988655090332,0.1100942433700577,0.4204145533530035,-0.9006280369307681,0.1253468944103247,3.0,2.0
28.6917781829834,-31.20647430419922,1.6921322345733645,-0.0,-0.0,-1.0,0.1989984950076069,2.0,2.0
28.749805450439453,-31.34027099609375,1.6834853887557983,-0.0,-0.0,-1.0,0.1633993671843385,1.0,2.0
28.95568466186523,-31.08479118347168,1.66640043258667,-0.0,-0.0,-1.0,0.1921208485378308,1.0,2.0
29.054901123046875,-31.182697296142575,1.6540577411651611,0.7288880953936065,-0.6229559675152277,-0.2839859273461406,0.1984167936298254,4.0,2.0
29.339021682739254,-30.56746482849121,1.6341736316680908,0.4987263393033869,0.7903598816417547,-0.3558135691289389,0.1467534165948942,3.0,2.0
29.457035064697266,-30.37491226196289,1.6243224143981934,-0.0,-0.0,-1.0,0.2418175338406737,2.0,2.0
29.582210540771484,-30.5183048248291,1.6081650257110596,-0.0,-0.0,-1.0,0.1573860547585021,2.0,2.0
29.769752502441406,-30.090303421020508,1.593977689743042,-0.6890925263915907,0.3390944465615914,-0.6404423833432193,0.1821934016200619,4.0,2.0
30.011140823364254,-29.52827835083008,1.57469642162323,-0.0,-0.0,-1.0,0.1343460130108208,1.0,2.0
30.105358123779297,-29.997486114501953,1.557248592376709,-0.0,-0.0,-1.0,0.176937909487296,1.0,2.0
27.713233947753903,-30.878803253173828,1.1327893733978271,-0.0,-0.0,-1.0,0.122840816841766,1.0,2.0
28.054594039916992,-31.080825805664062,1.086802959442139,-0.0,-0.0,-1.0,0.1205947866266338,1.0,2.0
28.567346572875977,-30.846031188964844,1.0561232566833496,-0.0,-0.0,-1.0,0.1132642765883802,1.0,2.0
28.528789520263672,-31.023427963256836,1.046804904937744,-0.0,-0.0,-1.0,0.2001856853497494,1.0,2.0
27.754987716674805,-29.622163772583008,1.2237236499786377,-0.0940218923967373,-0.0074548293492003,-0.9955422187278202,0.1787675695317091,3.0,2.0
28.70260429382324,-30.66889381408691,1.0557329654693604,-0.0,-0.0,-1.0,0.2171475473100134,1.0,2.0
28.78061866760254,-30.758594512939453,1.0416171550750732,-0.0,-0.0,-1.0,0.1433265586958158,1.0,2.0
28.552949905395508,-29.64521217346191,1.1441915035247805,-0.0,-0.0,-1.0,0.1508687296706657,1.0,2.0
29.052030563354492,-29.73928451538086,1.0858819484710691,-0.0,-0.0,-1.0,0.1378045212271233,1.0,2.0
28.161697387695312,-31.748659133911133,1.575151443481445,-0.0,-0.0,-1.0,0.068546691466164,1.0,2.0
28.126569747924805,-31.04956817626953,1.6077007055282593,-0.0,-0.0,-1.0,0.2071868052833638,2.0,2.0
28.44379997253418,-31.295486450195312,1.572063446044922,-0.0,-0.0,-1.0,0.1451189370392425,2.0,2.0
28.65409469604492,-31.052265167236328,1.5649547576904297,0.3626685919873835,0.8570381644268089,0.3660014714476096,0.1990110320445144,4.0,2.0
28.91971015930176,-31.21078109741211,1.5364348888397217,-0.0,-0.0,-1.0,0.1583300445241861,1.0,2.0
29.06473159790039,-30.88442611694336,1.5370635986328125,-0.0,-0.0,-1.0,0.1898447046929244,1.0,2.0
29.07789421081543,-31.04110336303711,1.5297937393188477,-0.0,-0.0,-1.0,0.1325987832504483,2.0,2.0
29.279062271118164,-30.57240104675293,1.530489444732666,-0.0,-0.0,-1.0,0.1938130754735774,1.0,2.0
29.668228149414062,-30.686342239379883,1.4914368391036987,-0.0,-0.0,-1.0,0.1708566596708146,1.0,2.0
29.015417098999023,-29.8111572265625,1.5829365253448486,-0.0,-0.0,-1.0,0.1080447951175245,1.0,2.0
29.58269500732422,-30.247947692871097,1.515375733375549,-0.0,-0.0,-1.0,0.1849929134904573,1.0,2.0
29.884363174438477,-30.00321578979492,1.496123433113098,-0.0,-0.0,-1.0,0.2128008238586145,1.0,2.0
30.042530059814453,-29.754253387451172,1.4897739887237549,-0.0,-0.0,-1.0,0.2623539183875404,1.0,2.0
29.57961654663086,-30.210702896118164,2.034188032150269,-0.0,-0.0,-1.0,0.189952996322378,2.0,3.0
28.249191284179688,-31.621673583984375,1.1469223499298096,-0.1265294915810009,0.9295833649369089,-0.3462153309615675,0.105772484712712,3.0,2.0
28.349342346191406,-31.58728790283203,1.1418747901916504,-0.0,-0.0,-1.0,0.1022946785433873,1.0,2.0
28.360898971557617,-31.240819931030273,1.1675426959991455,-0.0,-0.0,-1.0,0.2429676714476052,2.0,2.0
27.761783599853516,-30.346513748168945,1.2827486991882324,-0.0,-0.0,-1.0,0.1789656232567468,2.0,2.0
28.53721046447754,-30.982200622558594,1.1730793714523315,-0.0,-0.0,-1.0,0.1317328322232813,1.0,2.0
28.721323013305664,-30.6888427734375,1.1798627376556396,-0.0638031648233105,-0.9308428810401316,0.3598064576622224,0.184669190717035,3.0,2.0
29.117427825927734,-30.406557083129883,1.1663230657577517,-0.0,-0.0,-1.0,0.1591878840058518,1.0,2.0
28.519577026367188,-29.46374893188477,1.2874183654785156,-0.0,-0.0,-1.0,0.1724263045521445,1.0,2.0
29.133987426757812,-29.91291046142578,1.2002596855163574,-0.9989272314540972,0.0301282415886911,0.0351663947288537,0.0779175600902987,4.0,2.0
29.334840774536133,-29.50226402282715,1.210501790046692,-0.0,-0.0,-1.0,0.2652839379101325,1.0,2.0
29.53961181640625,-29.38101577758789,1.1991956233978271,-0.0,-0.0,-1.0,0.2182284382383965,1.0,2.0
29.79699325561523,-29.42365264892578,1.1709778308868408,-0.0,-0.0,-1.0,0.2056595185541274,1.0,2.0
28.39646339416504,-31.354270935058594,1.6871373653411863,-0.0,-0.0,-1.0,0.1315645818358461,1.0,2.0
28.539295196533203,-31.001785278320312,1.6928327083587646,-0.0,-0.0,-1.0,0.2197755186665027,1.0,2.0
28.83319091796875,-31.206972122192383,1.6638462543487549,0.603462662555974,-0.7935443090124189,0.0782319917607692,0.1606890550462127,6.0,2.0
29.078039169311523,-31.153104782104492,1.648878812789917,0.7288880953936065,-0.6229559675152277,-0.2839859273461406,0.2079239953480578,4.0,2.0
29.152578353881836,-30.803939819335938,1.657902479171753,-0.0,-0.0,-1.0,0.1556814084118646,2.0,2.0
29.38515853881836,-30.395038604736328,1.657050371170044,-0.7114174518430239,-0.2437082083757584,-0.6591597062802432,0.1767557789846103,3.0,2.0
29.649303436279297,-30.531658172607425,1.6314828395843506,-0.0,-0.0,-1.0,0.235568167764262,2.0,2.0
29.589075088500977,-30.12453842163086,1.6518867015838623,-0.0,-0.0,-1.0,0.1947593758483926,2.0,2.0
29.834793090820312,-30.385717391967773,1.6226234436035156,-0.0,-0.0,-1.0,0.1157089893673053,1.0,2.0
29.857595443725582,-29.98886489868164,1.6357429027557373,-0.0,-0.0,-1.0,0.1797359343498721,2.0,2.0
30.08465576171875,-29.534833908081055,2.129996538162231,-0.0,-0.0,-1.0,0.1925356875746662,1.0,3.0
28.21274757385254,-31.622766494750977,1.1573067903518677,-0.1265294915810009,0.9295833649369089,-0.3462153309615675,0.1473080850869817,3.0,2.0
28.357236862182617,-31.4456787109375,1.1625816822052002,-0.0,-0.0,-1.0,0.1406635567826665,1.0,2.0
28.502883911132812,-31.03595542907715,1.1863558292388916,-0.0,-0.0,-1.0,0.1304984752683468,2.0,2.0
27.73181533813477,-30.35412216186523,1.293410062789917,-0.0,-0.0,-1.0,0.1319797316063982,2.0,2.0
28.62781143188477,-30.728487014770508,1.202623963356018,-0.0,-0.0,-1.0,0.1874886806014173,1.0,2.0
28.744264602661133,-30.68343734741211,1.1979150772094729,-0.0638031648233105,-0.9308428810401316,0.3598064576622224,0.1543708589750029,3.0,2.0
29.036109924316406,-30.47435188293457,1.1929594278335571,-0.0,-0.0,-1.0,0.1379769367503667,1.0,2.0
28.472137451171875,-29.61243057250977,1.3032499551773071,-0.0,-0.0,-1.0,0.1716935983906491,1.0,2.0
29.139251708984375,-29.97372055053711,1.2239943742752075,-0.0,-0.0,-1.0,0.0985528703394952,2.0,2.0
28.52688980102539,-29.42137908935547,1.3142802715301514,-0.3911561800736682,-0.8521690519371466,0.3475697767509719,0.1691791176742665,3.0,2.0
28.804771423339844,-29.37681579589844,1.2964911460876465,-0.0,-0.0,-1.0,0.1445109495517007,1.0,2.0
29.32683563232422,-29.58509826660156,1.2386789321899414,-0.0,-0.0,-1.0,0.1745822275668557,1.0,2.0
29.687633514404297,-29.672901153564453,1.201951026916504,-0.0,-0.0,-1.0,0.1745387303625814,1.0,2.0
29.490636825561523,-29.384626388549805,1.2401341199874878,0.6138292664362518,0.4278206981519119,-0.6634629468923969,0.2289925789867776,4.0,2.0
29.819398880004883,-29.45798683166504,1.206370830535889,-0.0,-0.0,-1.0,0.2355888337458201,1.0,2.0
28.121414184570312,-31.794694900512695,1.6859562397003174,-0.0,-0.0,-1.0,0.0721361100053309,1.0,2.0
28.209735870361328,-31.399755477905273,1.7010482549667358,-0.0,-0.0,-1.0,0.0876868149895353,1.0,2.0
27.75818634033203,-30.97198486328125,1.7458890676498413,-0.9114648970889964,0.022324002045311,-0.4107716887849332,0.1998997456900078,4.0,2.0
28.82726669311523,-31.204980850219727,1.6761784553527832,0.603462662555974,-0.7935443090124189,0.0782319917607692,0.1373870748905052,6.0,2.0
29.068140029907227,-31.182353973388672,1.6630678176879885,0.7288880953936065,-0.6229559675152277,-0.2839859273461406,0.1927601100973369,4.0,2.0
29.10247039794922,-30.724098205566406,1.6824469566345217,-0.0,-0.0,-1.0,0.1892426097545734,1.0,2.0
29.110746383666992,-30.876445770263672,1.6748452186584473,-0.0,-0.0,-1.0,0.1875438648808451,1.0,2.0
29.469703674316406,-30.371685028076172,1.6752324104309082,-0.0,-0.0,-1.0,0.2085301397878315,1.0,2.0
29.619659423828125,-30.513858795166016,1.6591256856918335,-0.0,-0.0,-1.0,0.1628947027168404,2.0,2.0
29.67588996887207,-30.121967315673828,1.6726665496826172,-0.0,-0.0,-1.0,0.21853654500882,1.0,2.0
30.145496368408203,-29.640865325927734,2.1539340019226074,-0.0,-0.0,-1.0,0.1611546074635659,2.0,3.0
30.06091690063477,-29.58655548095703,2.1591944694519043,-0.0,-0.0,-1.0,0.1827827391058711,1.0,3.0
28.394351959228516,-30.95277214050293,1.0292030572891235,-0.0,-0.0,-1.0,0.1677809273332381,1.0,2.0
28.572322845458984,-30.6129150390625,1.048335075378418,-0.0,-0.0,-1.0,0.1468456113383801,1.0,2.0
27.75811767578125,-29.514177322387695,1.2116303443908691,-0.3228891537673193,0.0590661406837511,-0.9445918618134246,0.1612662501463592,3.0,2.0
28.166244506835938,-29.580018997192383,1.1761419773101809,-0.0,-0.0,-1.0,0.1070135441148347,1.0,2.0
28.84742546081543,-29.915294647216797,1.0922789573669434,-0.0,-0.0,-1.0,0.0829947085530911,1.0,2.0
28.346874237060547,-29.40118980407715,1.179410696029663,-0.0,-0.0,-1.0,0.1083581684274138,1.0,2.0
28.585590362548828,-29.42168235778809,1.158934473991394,0.8052845669861115,-0.0604182224545226,-0.5898020045484982,0.1720272967387341,4.0,2.0
29.162498474121097,-29.454734802246097,1.108433723449707,-0.0,-0.0,-1.0,0.203547199060504,2.0,2.0
28.27740478515625,-31.11688804626465,1.5299179553985596,-0.0,-0.0,-1.0,0.231453026612582,1.0,2.0
28.4554443359375,-31.161243438720703,1.5162163972854614,0.9141153267306232,-0.3412133966438183,-0.219012756219711,0.2340461825346028,3.0,2.0
28.2041072845459,-31.045879364013672,1.5387446880340576,-0.0,-0.0,-1.0,0.2565169634840964,2.0,2.0
28.657817840576172,-31.00977325439453,1.5127243995666504,0.3123622576640369,0.7137063248195942,0.6269394722774555,0.2576739592760239,4.0,2.0
28.893062591552734,-30.968280792236328,1.499903917312622,0.3346087639909632,-0.1871074363765907,-0.9235950315549664,0.2261324158272105,4.0,2.0
27.794776916503903,-30.31921005249023,1.608154058456421,-0.0,-0.0,-1.0,0.2105268951723762,1.0,2.0
29.08345413208008,-30.704044342041016,1.502986192703247,-0.0,-0.0,-1.0,0.2027291334863354,2.0,2.0
29.25954818725586,-30.64073944091797,1.4945874214172363,-0.0,-0.0,-1.0,0.2813510023066371,2.0,2.0
29.203651428222656,-30.30031967163086,1.5185561180114746,-0.0,-0.0,-1.0,0.1786207769387216,1.0,2.0
29.50133514404297,-30.294654846191406,1.4975943565368652,0.1394464001009102,0.5554660716571873,-0.8197634687741521,0.2110328696710605,3.0,2.0
29.669418334960938,-30.105979919433594,1.496170997619629,-0.466402388271646,-0.3200196590942284,-0.8246552188689029,0.1386370006950088,4.0,2.0
29.89076232910156,-29.95226287841797,1.4881346225738523,-0.0,-0.0,-1.0,0.2148207912181813,1.0,2.0
29.935483932495117,-29.46115493774414,1.5121848583221436,-0.0,-0.0,-1.0,0.1819928057032338,1.0,2.0
28.188825607299805,-30.643327713012695,1.0569852590560913,-0.8154067654467407,0.4509687743403347,0.3629586359816508,0.2316888103117561,3.0,2.0
28.406436920166016,-30.877065658569336,1.0206642150878906,-0.0,-0.0,-1.0,0.1299735566979775,1.0,2.0
28.129592895507812,-30.583938598632812,1.0663549900054932,-0.0,-0.0,-1.0,0.2537271942059407,1.0,2.0
28.480716705322266,-30.539352416992188,1.0527498722076416,-0.0,-0.0,-1.0,0.1413137432620017,1.0,2.0
29.010589599609375,-29.810245513916016,1.0988909006118774,-0.0,-0.0,-1.0,0.1748864354030883,1.0,2.0
29.124584197998047,-29.4711856842041,1.1270365715026855,0.3549647544481574,-0.9296585475058028,-0.0986661448976327,0.2389890815286477,3.0,2.0
29.38728141784668,-29.43304443359375,1.113528847694397,-0.0,-0.0,-1.0,0.1562306739588749,1.0,2.0
28.2061710357666,-31.06474876403809,1.5058327913284302,-0.0,-0.0,-1.0,0.2825605239038237,2.0,2.0
28.43803977966309,-31.18880271911621,1.4865095615386963,-0.1394773367402028,0.5319088403261371,-0.8352359296143598,0.2238225661640322,4.0,2.0
28.876781463623047,-31.123733520507812,1.470526099205017,-0.0,-0.0,-1.0,0.0918629522868808,2.0,2.0
28.604257583618164,-30.950773239135746,1.496096134185791,-0.879349340635097,0.2877538177850935,-0.3793975190676964,0.203090922815373,3.0,2.0
28.92236328125,-30.888200759887695,1.4850845336914062,-0.1752407913361017,0.9442061635716766,-0.2788644576226118,0.1880013593774693,4.0,2.0
29.152772903442383,-30.7503719329834,1.483295202255249,-0.0,-0.0,-1.0,0.2367244387941276,2.0,2.0
27.803617477416992,-30.274368286132812,1.580548882484436,-0.2651208554280124,0.7941090459231661,-0.5469019612326487,0.1559310503058221,3.0,2.0
29.33859062194824,-30.449459075927734,1.4945930242538452,-0.0,-0.0,-1.0,0.2440724391677452,1.0,2.0
29.49049186706543,-30.148021697998047,1.5073456764221191,-0.0,-0.0,-1.0,0.1829358450541756,2.0,2.0
29.73406219482422,-30.06683349609375,1.499036192893982,-0.0,-0.0,-1.0,0.1781073294716703,1.0,2.0
27.798622131347656,-29.512691497802734,1.1978776454925537,-0.1023268366567325,-0.9108800408787752,-0.3997834033930209,0.1534792107194157,3.0,2.0
28.54356384277344,-29.493656158447266,1.160269856452942,-0.0,-0.0,-1.0,0.2419271340245271,2.0,2.0
29.952884674072266,-29.914875030517575,1.496478796005249,-0.0,-0.0,-1.0,0.2081291994157987,1.0,2.0
30.196487426757812,-29.9559383392334,1.478667140007019,-0.0,-0.0,-1.0,0.1727738977006412,1.0,2.0
28.60527801513672,-29.37896728515625,1.1687949895858765,0.8968462890021917,-0.3513153261045195,-0.2687829524859648,0.1004772081340127,3.0,2.0
29.10671043395996,-29.40792465209961,1.1347404718399048,-0.0,-0.0,-1.0,0.2389890815286477,1.0,2.0
29.0145206451416,-29.86291122436523,1.5533559322357178,-0.0,-0.0,-1.0,0.1317480742781308,2.0,2.0
29.80206298828125,-29.381622314453125,1.5420453548431396,-0.0,-0.0,-1.0,0.10017721063278,1.0,2.0
28.359968185424805,-31.097190856933594,1.2825313806533811,-0.0,-0.0,-1.0,0.21156904436072,1.0,2.0
28.54256820678711,-31.01214599609375,1.2837538719177246,0.0995694620511005,0.7750369820476799,-0.6240221139393052,0.2037712788195162,3.0,2.0
28.10953140258789,-30.553640365600582,1.342361330986023,-0.0,-0.0,-1.0,0.1987007641971643,1.0,2.0
28.343751907348633,-30.690881729125977,1.321171760559082,-0.0,-0.0,-1.0,0.1187299057495243,1.0,2.0
28.67253303527832,-30.79437255859375,1.2989963293075562,-0.8234006966704931,0.504339524359573,-0.2601017817918726,0.2552380455399874,3.0,2.0
27.810436248779297,-30.296730041503903,1.3761894702911377,-0.3592234927368226,-0.9035821104267052,-0.2334477500058195,0.1592386777085844,3.0,2.0
28.858869552612305,-30.586204528808594,1.310753583908081,-0.0,-0.0,-1.0,0.1780369751994567,2.0,2.0
29.086742401123047,-30.490947723388672,1.3095813989639282,-0.573807018230049,-0.815498324490035,0.0755512315179968,0.1611929955740432,3.0,2.0
29.24655532836914,-30.12403106689453,1.3359782695770264,-0.0,-0.0,-1.0,0.1652863801710474,2.0,2.0
29.57344436645508,-30.04254150390625,1.3271310329437256,-0.0,-0.0,-1.0,0.1493535580112306,1.0,2.0
29.316991806030273,-29.84228515625,1.3584494590759275,-0.0,-0.0,-1.0,0.1624167490791872,1.0,2.0
29.701339721679688,-29.78390121459961,1.3438527584075928,-0.4904887220039555,-0.5298902273511903,-0.6918360792446647,0.2287272990993513,3.0,2.0
30.08262062072754,-29.758106231689453,1.324648141860962,0.3100281091790322,0.771621448247086,-0.5554123802400731,0.2045991878305056,3.0,2.0
28.145204544067383,-31.787250518798828,1.7357280254364014,-0.0,-0.0,-1.0,0.1345286470032758,1.0,2.0
28.082489013671875,-31.661048889160156,1.745021939277649,-0.0,-0.0,-1.0,0.1033800044114205,2.0,2.0
28.58211898803711,-31.2513427734375,1.7537453174591064,-0.0,-0.0,-1.0,0.1203418236905836,2.0,2.0
28.63254165649414,-30.927921295166016,1.771037459373474,-0.0,-0.0,-1.0,0.2183572332830239,2.0,2.0
28.973764419555664,-30.94567489624023,1.7578434944152832,-0.0720798596980214,0.6103110622938557,-0.7888757196590976,0.1487887763169381,3.0,2.0
27.715824127197266,-29.68741798400879,1.4365990161895752,-0.0,-0.0,-1.0,0.1908419749361548,1.0,2.0
29.381725311279297,-29.732807159423828,1.3652539253234863,-0.0,-0.0,-1.0,0.1611305344432694,1.0,2.0
29.662647247314453,-29.66924285888672,1.3562321662902832,-0.0,-0.0,-1.0,0.2037025688473329,2.0,2.0
30.16741371154785,-29.45751190185547,1.3464070558547974,-0.0,-0.0,-1.0,0.2509192473508962,1.0,2.0
29.041810989379883,-29.759716033935547,1.8240277767181396,-0.0,-0.0,-1.0,0.166341343356019,1.0,2.0
29.437406539916992,-29.526988983154297,1.820892333984375,-0.0,-0.0,-1.0,0.1322086149361571,2.0,2.0
30.043642044067383,-29.79643821716309,1.7776751518249512,-0.0,-0.0,-1.0,0.1558621317255773,1.0,2.0
30.202171325683594,-29.385162353515625,1.7925410270690918,-0.0,-0.0,-1.0,0.1123106568509307,2.0,2.0
28.271240234375,-31.11328887939453,1.3721060752868652,0.956294563768698,-0.2588756447695103,0.1359562718362269,0.2041155374229404,3.0,2.0
28.47390365600586,-31.08740234375,1.3696335554122925,-0.3878205987994096,0.3957357851233556,-0.8324592311456872,0.216528805743698,3.0,2.0
28.138011932373047,-30.81884002685547,1.4021198749542236,-0.0,-0.0,-1.0,0.1438621569972755,1.0,2.0
28.706499099731445,-30.770498275756836,1.3922700881958008,-0.0,-0.0,-1.0,0.2522835382931514,2.0,2.0
28.97831916809082,-30.6733341217041,1.3930188417434692,0.4020050001122223,-0.6281478368006991,0.6661998761688371,0.1457991021344556,3.0,2.0
27.794677734375,-30.29708480834961,1.456640124320984,-0.0,-0.0,-1.0,0.1495290521647576,2.0,2.0
28.88100814819336,-30.591781616210938,1.4034852981567385,-0.0,-0.0,-1.0,0.1020321754472542,2.0,2.0
29.17275047302246,-30.508371353149418,1.4016056060791016,-0.0,-0.0,-1.0,0.2566901809592546,1.0,2.0
29.507801055908203,-30.458816528320312,1.393974781036377,-0.0,-0.0,-1.0,0.1925098196444775,1.0,2.0
28.9011287689209,-29.86396598815918,1.0287044048309326,-0.0,-0.0,-1.0,0.0887016438868681,1.0,2.0
29.322040557861328,-30.24728012084961,1.4200294017791748,0.9388838772856328,-0.064320638368938,-0.3381714364829012,0.2496015516087646,4.0,2.0
29.523324966430664,-30.164634704589844,1.419865608215332,-0.0,-0.0,-1.0,0.1866351973051321,2.0,2.0
30.10263442993164,-30.075654983520508,1.4032893180847168,-0.0,-0.0,-1.0,0.2636104180339058,1.0,2.0
28.911714553833008,-29.64114570617676,1.056431770324707,-0.0,-0.0,-1.0,0.1734274544357346,1.0,2.0
29.1672306060791,-29.39195442199707,1.078211545944214,-0.0,-0.0,-1.0,0.1259859249205037,1.0,2.0
29.593481063842773,-29.926992416381836,1.438506841659546,-0.0,-0.0,-1.0,0.227962997026814,1.0,2.0
29.824308395385746,-29.99892807006836,1.42253315448761,-0.0,-0.0,-1.0,0.1425722433866816,2.0,2.0
28.990209579467773,-29.8023681640625,1.471879005432129,-0.0,-0.0,-1.0,0.1142635934842316,1.0,2.0
29.740123748779297,-29.798017501831055,1.444090485572815,-0.0,-0.0,-1.0,0.2068121905774137,1.0,2.0
30.057369232177734,-29.762889862060547,1.4331257343292236,-0.0,-0.0,-1.0,0.2178579651568943,2.0,2.0
29.162092208862305,-29.405925750732425,1.502002239227295,-0.0,-0.0,-1.0,0.1173343423765827,1.0,2.0
29.939708709716797,-29.480987548828125,1.8929414749145508,0.5616438334535333,-0.2852487238560731,-0.7766526700411851,0.1207853323907012,3.0,2.0
28.727615356445312,-30.57891845703125,0.990638256072998,-0.0,-0.0,-1.0,0.1658608662491837,1.0,1.0
28.019756317138672,-30.422771453857425,1.0191994905471802,-0.0,-0.0,-1.0,0.1166058868720291,1.0,2.0
28.771757125854492,-30.38121795654297,1.014798283576965,-0.0,-0.0,-1.0,0.133294786377145,1.0,2.0
27.91158866882324,-31.254186630249023,1.401188611984253,-0.0,-0.0,-1.0,0.1865867116372053,1.0,2.0
28.384357452392575,-31.077016830444336,1.4116060733795166,-0.0,-0.0,-1.0,0.2338973229375442,2.0,2.0
28.580671310424805,-31.057926177978516,1.410285472869873,-0.0,-0.0,-1.0,0.1068624060282324,2.0,2.0
28.905065536499023,-31.02688217163086,1.407045602798462,-0.0,-0.0,-1.0,0.1714078590069558,1.0,2.0
28.75202751159668,-30.830392837524418,1.4278831481933594,-0.0,-0.0,-1.0,0.2356499713010336,2.0,2.0
29.0617733001709,-30.70901870727539,1.4325332641601562,-0.0,-0.0,-1.0,0.219333030689981,2.0,2.0
27.878963470458984,-30.27403259277344,1.4900846481323242,-0.0,-0.0,-1.0,0.2097021503380354,2.0,2.0
29.305578231811523,-30.291961669921875,1.4646682739257812,0.5590786892708391,0.8069186776394671,0.1905604021820226,0.2563963524419219,4.0,2.0
29.39448356628418,-30.311294555664062,1.4605915546417236,-0.0,-0.0,-1.0,0.2425700407960478,2.0,2.0
28.44695281982422,-29.815828323364254,1.0913046598434448,-0.0,-0.0,-1.0,0.1123342722330031,1.0,2.0
30.136594772338867,-30.225339889526367,1.4451863765716553,-0.0,-0.0,-1.0,0.0741823202079127,1.0,2.0
28.040067672729492,-29.519371032714844,1.1325628757476809,-0.0,-0.0,-1.0,0.0782752516617645,1.0,2.0
28.58687973022461,-29.404781341552734,1.1411460638046265,0.8052845669861115,-0.0604182224545226,-0.5898020045484982,0.1403843889589223,4.0,2.0
28.70417022705078,-29.625743865966797,1.1113879680633545,-0.0,-0.0,-1.0,0.1484269285098494,1.0,2.0
27.94916343688965,-30.230003356933594,1.493488073348999,-0.0,-0.0,-1.0,0.1869977448209705,1.0,2.0
29.26097297668457,-30.26911735534668,1.4678723812103271,-0.1127198891190874,0.8700622558094772,-0.4798811286273972,0.2796832744097458,3.0,2.0
29.42559814453125,-29.923622131347656,1.494989991188049,-0.0,-0.0,-1.0,0.2154467984385286,1.0,2.0
29.679584503173828,-30.058025360107425,1.475442886352539,-0.0,-0.0,-1.0,0.1350670101852235,2.0,2.0
30.02159118652344,-30.023517608642575,1.4674072265625,-0.3538808703555041,-0.9352543275517424,0.0082263231257106,0.1604222426454883,3.0,2.0
29.49653434753418,-29.609891891479492,1.5215303897857666,-0.0,-0.0,-1.0,0.2032355987833159,1.0,2.0
29.99696350097656,-29.51373291015625,1.9363288879394531,-0.0,-0.0,-1.0,0.1236022232201741,2.0,2.0
27.83722686767578,-30.870622634887695,1.0527117252349854,-0.0,-0.0,-1.0,0.1206015170546356,1.0,2.0
28.227264404296875,-30.884719848632812,1.0512497425079346,-0.0,-0.0,-1.0,0.0885936868939579,1.0,2.0
28.295562744140625,-30.904714584350582,1.0486599206924438,-0.0,-0.0,-1.0,0.1689912477693975,1.0,2.0
28.046363830566406,-30.80248260498047,1.0611696243286133,-0.0,-0.0,-1.0,0.0767850564896748,2.0,2.0
28.759721755981445,-30.62619400024414,1.079254150390625,-0.0,-0.0,-1.0,0.1863561427731764,1.0,2.0
27.85236358642578,-30.11380195617676,1.1427898406982422,-0.0,-0.0,-1.0,0.0739455653264784,1.0,2.0
28.85872459411621,-30.531627655029297,1.089671969413757,-0.0,-0.0,-1.0,0.1832500148778781,1.0,2.0
27.912864685058594,-30.019386291503903,1.154293179512024,-0.0,-0.0,-1.0,0.0988788990582775,1.0,2.0
28.05266571044922,-31.84584617614746,1.4420300722122192,-0.0,-0.0,-1.0,0.0800058572257817,1.0,2.0
28.236892700195312,-31.580795288085938,1.4632362127304075,-0.0,-0.0,-1.0,0.1036707320042373,1.0,2.0
28.17121124267578,-30.984596252441406,1.514319896697998,-0.0,-0.0,-1.0,0.2577843165217454,1.0,2.0
28.456899642944336,-31.145845413208008,1.4983010292053225,0.5087713557738426,0.2167286167012443,-0.83317490015411,0.2356130711519867,4.0,2.0
28.84452438354492,-31.064491271972656,1.5005812644958496,-0.0,-0.0,-1.0,0.1025793012602641,2.0,2.0
28.86549186706543,-30.853679656982425,1.5182743072509766,-0.2514733075931145,0.1153396154432258,-0.960967194381571,0.152296048465308,5.0,2.0
29.208715438842773,-30.71514892578125,1.52470600605011,-0.0,-0.0,-1.0,0.2297898661382532,1.0,2.0
27.827964782714844,-30.26934051513672,1.5760464668273926,-0.0,-0.0,-1.0,0.1533398892961809,2.0,2.0
27.96032333374023,-30.28206443786621,1.5747634172439575,-0.0,-0.0,-1.0,0.175814653551998,1.0,2.0
29.35515022277832,-30.48081398010254,1.5421209335327148,-0.0,-0.0,-1.0,0.2165225430990671,1.0,2.0
29.045127868652344,-29.87588882446289,1.166750192642212,-0.0,-0.0,-1.0,0.1804769487696019,1.0,2.0
27.76127815246582,-29.562164306640625,1.2075493335723877,-0.9438534325016792,-0.0892149504397765,0.3180902239504171,0.1869743570410972,3.0,2.0
29.15696144104004,-29.52556610107422,1.2077183723449707,-0.0,-0.0,-1.0,0.2673778905248973,2.0,2.0
29.460966110229492,-29.52065086364746,1.2030954360961914,-0.1820688610511718,-0.0893151875348187,-0.979220979713542,0.2011046147995246,3.0,2.0
29.4677791595459,-29.373855590820312,1.220889925956726,0.3533304560715529,0.8897476624053066,-0.2889752343308352,0.2258578197275172,5.0,2.0
29.413959503173828,-30.19240951538086,1.5657942295074463,-0.0,-0.0,-1.0,0.2244305791300896,2.0,2.0
29.71292495727539,-30.328969955444336,1.5471796989440918,-0.0,-0.0,-1.0,0.1166141207354553,1.0,2.0
30.061458587646484,-30.36245346069336,1.5351791381835938,-0.0,-0.0,-1.0,0.1264770244375347,1.0,2.0
29.515886306762695,-29.84183692932129,1.5938870906829834,-0.0,-0.0,-1.0,0.208063936072727,1.0,2.0
29.80388069152832,-30.05599594116211,1.5686262845993042,-0.9059834033464116,-0.2475031647012991,0.3434184857046789,0.2424044372605687,3.0,2.0
30.061580657958984,-30.04983901977539,1.5622210502624512,-0.0,-0.0,-1.0,0.2496311270925137,2.0,2.0
29.595678329467773,-30.16558837890625,2.003635883331299,-0.0,-0.0,-1.0,0.1534820943161655,1.0,3.0
27.911474227905273,-30.976726531982425,1.1041816473007202,-0.0,-0.0,-1.0,0.0962341982323275,1.0,2.0
28.283740997314453,-31.192005157470703,1.0840545892715454,-0.0,-0.0,-1.0,0.2131930342723692,1.0,2.0
28.220075607299805,-30.62520217895508,1.1481341123580933,-0.0,-0.0,-1.0,0.1650958388056111,1.0,2.0
28.72933006286621,-30.59314727783203,1.1556923389434814,-0.0,-0.0,-1.0,0.1217216626058714,2.0,2.0
28.75394058227539,-30.46159553527832,1.1708312034606934,-0.0,-0.0,-1.0,0.1977958955368969,1.0,2.0
28.055662155151367,-31.81635284423828,1.5167758464813232,-0.0,-0.0,-1.0,0.0780423776592729,1.0,2.0
28.347585678100582,-31.07678985595703,1.5762934684753418,-0.0,-0.0,-1.0,0.1651842682600192,2.0,2.0
28.683116912841797,-31.065494537353516,1.5769031047821045,0.4090134174479644,0.0759769917552379,-0.9093599513236562,0.2540732352668837,3.0,2.0
28.988845825195312,-31.12504196166992,1.570752739906311,-0.0,-0.0,-1.0,0.139882813377151,1.0,2.0
27.796573638916016,-30.75472640991211,1.599397897720337,-0.0,-0.0,-1.0,0.0649038278365105,1.0,2.0
28.79795837402344,-30.87689971923828,1.5918325185775757,-0.0,-0.0,-1.0,0.1902121720642084,1.0,2.0
29.220125198364254,-30.668140411376953,1.6063286066055298,-0.0,-0.0,-1.0,0.229216496686272,1.0,2.0
27.83704376220703,-30.33381462097168,1.632702112197876,-0.0,-0.0,-1.0,0.2087173356296007,1.0,2.0
29.510385513305664,-30.511978149414062,1.6162400245666504,-0.0,-0.0,-1.0,0.2220277426560999,1.0,2.0
29.928014755249023,-30.528594970703125,1.608978033065796,-0.0,-0.0,-1.0,0.1881317561008026,2.0,2.0
27.82442855834961,-29.60877990722656,1.2565081119537354,-0.0,-0.0,-1.0,0.1947099708639529,1.0,2.0
29.132719039916992,-29.93166160583496,1.2329866886138916,-0.9846458895752624,-0.1310258890267401,-0.1153459515860534,0.1004360614624439,4.0,2.0
28.63895797729492,-29.382150650024418,1.2942020893096924,-0.0,-0.0,-1.0,0.1619499202372477,2.0,2.0
28.93667984008789,-29.572166442871097,1.2740882635116575,-0.0,-0.0,-1.0,0.1730748113754868,1.0,2.0
29.343873977661133,-29.514892578125,1.2810850143432615,-0.0,-0.0,-1.0,0.199032811900765,2.0,2.0
29.656570434570312,-29.630359649658203,1.2660119533538818,0.7121485560552233,-0.3597230874418695,-0.6028629483305051,0.154118692468773,3.0,2.0
30.075550079345703,-29.766101837158203,1.24531090259552,-0.0,-0.0,-1.0,0.1424947070293224,1.0,2.0
29.838558197021484,-29.384273529052734,1.2932307720184326,-0.0,-0.0,-1.0,0.2121405555616016,1.0,2.0
29.39691925048828,-30.356765747070312,1.630206823348999,-0.7114174518430239,-0.2437082083757584,-0.6591597062802432,0.2658952446597492,3.0,2.0
29.614622116088867,-30.37046813964844,1.6265969276428225,-0.0,-0.0,-1.0,0.1771475817475427,1.0,2.0
30.01165008544922,-30.328338623046875,1.6241941452026367,-0.0,-0.0,-1.0,0.1182385198405016,1.0,2.0
29.698802947998047,-30.029390335083008,1.6535892486572266,-0.0,-0.0,-1.0,0.2096761194626116,1.0,2.0
29.91756820678711,-29.97146987915039,1.6552560329437256,-0.0,-0.0,-1.0,0.1820759669035543,1.0,2.0
29.851608276367188,-29.808631896972656,1.6697020530700684,-0.7118293729047331,-0.7020796166566747,0.0195743644921397,0.1559946087895576,3.0,2.0
30.1801815032959,-29.5811767578125,1.6828761100769043,-0.0,-0.0,-1.0,0.1570546500016544,1.0,2.0
29.647319793701172,-30.15450668334961,2.0808420181274414,-0.0,-0.0,-1.0,0.128275246705551,2.0,3.0
28.230648040771484,-31.2464599609375,1.4372529983520508,-0.0,-0.0,-1.0,0.147874130504316,1.0,2.0
28.149972915649418,-31.103126525878903,1.449321746826172,-0.0,-0.0,-1.0,0.2437862558902128,1.0,2.0
28.477474212646484,-30.999956130981445,1.463026523590088,-0.0,-0.0,-1.0,0.1705145557038735,1.0,2.0
28.767642974853516,-30.966495513916016,1.4692353010177612,-0.0,-0.0,-1.0,0.1848697559160452,1.0,2.0
28.00538444519043,-30.71829605102539,1.4823265075683594,-0.0,-0.0,-1.0,0.1341443847012887,1.0,2.0
28.633691787719727,-30.8425235748291,1.4794281721115112,-0.0,-0.0,-1.0,0.2084550098601338,2.0,2.0
28.297544479370117,-29.704105377197266,1.1466530561447144,-0.0,-0.0,-1.0,0.1522841533146345,1.0,2.0
28.655487060546875,-29.752103805541992,1.1497652530670166,-0.0,-0.0,-1.0,0.1332287814453455,1.0,2.0
29.00834274291992,-29.806434631347656,1.1504881381988523,-0.0,-0.0,-1.0,0.181429762661354,1.0,2.0
28.42290687561035,-29.473114013671875,1.1788148880004885,-0.0,-0.0,-1.0,0.1603096981062164,2.0,2.0
28.883413314819336,-29.45828628540039,1.1920580863952637,-0.0,-0.0,-1.0,0.2511272315225024,1.0,2.0
29.21927070617676,-29.51176071166992,1.1917507648468018,-0.0,-0.0,-1.0,0.2550814016323098,1.0,2.0
29.504383087158203,-29.52128219604492,1.1950803995132446,-0.0,-0.0,-1.0,0.1876286303724016,2.0,2.0
30.036590576171875,-29.540252685546875,1.1981656551361084,-0.0,-0.0,-1.0,0.1086635738560715,1.0,2.0
29.991291046142575,-29.39242935180664,1.2169641256332395,-0.0,-0.0,-1.0,0.1537169685388145,1.0,2.0
28.67331886291504,-30.541357040405273,1.5078010559082031,-0.0,-0.0,-1.0,0.2095950303639621,1.0,2.0
28.924476623535156,-30.725440979003903,1.4931271076202393,-0.0,-0.0,-1.0,0.1330653192595713,1.0,2.0
30.069095611572266,-30.81718063354492,1.4881677627563477,-0.0,-0.0,-1.0,0.0983103947870776,2.0,2.0
29.11698532104492,-30.4149169921875,1.523712158203125,-0.0,-0.0,-1.0,0.126124382604204,1.0,2.0
29.281736373901367,-30.295717239379883,1.5360267162322998,0.6138997102275078,-0.4962132481358624,-0.6139214592739363,0.2704498057873503,3.0,2.0
29.874679565429688,-30.407676696777344,1.527379035949707,-0.0,-0.0,-1.0,0.0961212250031059,1.0,2.0
29.56498908996582,-30.106287002563477,1.5553058385849,-0.0,-0.0,-1.0,0.2724528792680646,2.0,2.0
29.81158447265625,-30.15300750732422,1.5515499114990234,-0.0,-0.0,-1.0,0.1856988295955504,1.0,2.0
29.05866241455078,-29.47229385375977,1.6111774444580078,-0.0,-0.0,-1.0,0.1237256796793029,1.0,2.0
30.13194274902344,-29.619789123535156,1.6024850606918335,-0.0,-0.0,-1.0,0.1644678337000615,1.0,2.0
28.650569915771484,-31.33203125,1.915409564971924,-0.0,-0.0,-1.0,0.1928802021749278,1.0,2.0
28.018939971923828,-30.563629150390625,1.1223286390304563,-0.0,-0.0,-1.0,0.2172124502702927,1.0,2.0
27.89324951171875,-29.40748405456543,1.242841720581055,-0.0,-0.0,-1.0,0.1030487623900646,1.0,2.0
28.20457649230957,-29.49966812133789,1.246130108833313,-0.0,-0.0,-1.0,0.1089416776793199,2.0,2.0
28.699121475219727,-29.801597595214844,1.2326276302337646,-0.0,-0.0,-1.0,0.1279874214972793,1.0,2.0
28.64068603515625,-29.432571411132812,1.271043300628662,-0.0,-0.0,-1.0,0.1762220655897562,2.0,2.0
29.055862426757812,-29.49030876159668,1.28025221824646,-0.0,-0.0,-1.0,0.2118290512701058,2.0,2.0
29.485130310058594,-29.821027755737305,1.2725273370742798,-0.0,-0.0,-1.0,0.1632614089438569,2.0,2.0
29.89774513244629,-30.021465301513672,1.2619245052337646,-0.0,-0.0,-1.0,0.1833017055646419,1.0,2.0
29.246904373168945,-29.420387268066406,1.2947754859924316,-0.0,-0.0,-1.0,0.1701063867843081,2.0,2.0
29.671289443969727,-29.652925491333008,1.296864032745361,0.4094932190461688,-0.6321918673417052,-0.657760401987087,0.248295574214574,3.0,2.0
29.889345169067383,-29.741371154785156,1.29317307472229,-0.0,-0.0,-1.0,0.1507663343734877,2.0,2.0
27.97156143188477,-31.136451721191406,1.5390138626098633,-0.0,-0.0,-1.0,0.1517817921597212,1.0,2.0
27.982206344604492,-30.97179412841797,1.5519275665283203,-0.0,-0.0,-1.0,0.1225809595684807,1.0,2.0
28.297016143798828,-31.069896697998047,1.5527372360229492,-0.0,-0.0,-1.0,0.2100329948357525,1.0,2.0
28.938322067260746,-31.24312210083008,1.5715336799621582,-0.0,-0.0,-1.0,0.1228202984231447,1.0,2.0
28.182533264160156,-30.769371032714844,1.5728943347930908,-0.0,-0.0,-1.0,0.090339755050909,1.0,2.0
28.53508949279785,-30.6944637298584,1.5878437757492063,-0.0,-0.0,-1.0,0.1815544438430349,1.0,2.0
29.24798583984375,-31.279834747314453,1.5750900506973269,-0.0,-0.0,-1.0,0.1282694243012934,1.0,2.0
28.893491744995117,-30.294496536254883,1.6278374195098877,-0.0,-0.0,-1.0,0.1527452383112206,1.0,2.0
29.36574935913086,-30.585582733154297,1.6313916444778442,-0.0,-0.0,-1.0,0.175534207538241,2.0,2.0
29.06848526000977,-30.182571411132812,1.6407992839813232,-0.0,-0.0,-1.0,0.1972358518216104,1.0,2.0
29.23351669311523,-30.207962036132812,1.647750973701477,-0.0,-0.0,-1.0,0.2552253677511317,1.0,2.0
30.063201904296875,-30.625316619873047,1.6414756774902344,-0.0,-0.0,-1.0,0.137768064662755,2.0,2.0
29.081710815429688,-29.780054092407227,1.6724028587341309,-0.0,-0.0,-1.0,0.1640502027989135,1.0,2.0
29.798358917236328,-30.111412048339844,1.6767679452896118,-0.0,-0.0,-1.0,0.1259382780909101,1.0,2.0
29.512649536132812,-29.662986755371097,1.705979585647583,-0.0,-0.0,-1.0,0.1733617963788163,1.0,2.0
29.99930000305176,-29.699268341064453,1.7127342224121094,-0.0,-0.0,-1.0,0.1602309054825761,1.0,2.0
27.719547271728516,-30.99510383605957,1.2483419179916382,-0.0,-0.0,-1.0,0.1250283572815837,1.0,2.0
28.514347076416016,-31.009429931640625,1.2826242446899414,-0.0,-0.0,-1.0,0.1769174819525926,2.0,2.0
29.00733757019043,-29.44086647033691,1.0427744388580322,-0.0,-0.0,-1.0,0.1601907087443058,1.0,2.0
27.761362075805664,-30.43648338317871,1.3022358417510986,-0.0,-0.0,-1.0,0.2221130209765578,1.0,2.0
27.922645568847656,-30.408899307250977,1.3127224445343018,-0.0,-0.0,-1.0,0.2114791443957295,1.0,2.0
28.31957244873047,-30.561843872070312,1.3168091773986816,-0.0,-0.0,-1.0,0.1440357172777703,1.0,2.0
28.57579803466797,-30.670541763305664,1.317534327507019,-0.0,-0.0,-1.0,0.1928613093340748,1.0,2.0
28.879310607910156,-30.646270751953125,1.3323653936386108,-0.7019770101123292,0.3338759520984742,-0.6290907135573472,0.156357156438895,4.0,2.0
29.0079288482666,-30.543174743652344,1.3473647832870483,0.0997122776083027,-0.9347733871973434,-0.3409635996433779,0.1162609223500177,4.0,2.0
29.292360305786133,-30.099220275878903,1.4012837409973145,-0.0,-0.0,-1.0,0.1806690989920552,2.0,2.0
29.14512825012207,-30.40255355834961,1.366267204284668,-0.0,-0.0,-1.0,0.1892699035791434,2.0,2.0
29.214872360229492,-29.440074920654297,1.4619935750961304,-0.0,-0.0,-1.0,0.1082463341939904,1.0,2.0
29.400226593017575,-29.97007179260254,1.4178650379180908,-0.0,-0.0,-1.0,0.1832162498570697,1.0,2.0
29.68037223815918,-30.00440216064453,1.4243937730789185,-0.0,-0.0,-1.0,0.142259140531978,2.0,2.0
29.65514373779297,-29.62993812561035,1.46027410030365,-0.0,-0.0,-1.0,0.1464941792113598,1.0,2.0
29.8293514251709,-29.87311553955078,1.4423843622207642,-0.0,-0.0,-1.0,0.1860602874231624,1.0,2.0
30.12455368041992,-29.980239868164062,1.4411137104034424,-0.0,-0.0,-1.0,0.1771934271704714,2.0,2.0
27.821327209472656,-30.97113037109375,1.7284809350967407,0.5119739703677095,-0.7906973550112965,-0.3356789335720416,0.2079867046854914,4.0,2.0
28.777549743652344,-31.276336669921875,1.738572120666504,-0.0,-0.0,-1.0,0.2208938452077908,1.0,2.0
29.10886573791504,-29.843761444091797,1.8385334014892576,-0.0,-0.0,-1.0,0.2028061695878408,2.0,2.0
28.67900276184082,-29.492847442626953,1.0754977464675903,-0.0,-0.0,-1.0,0.1510837999803182,1.0,2.0
29.048980712890625,-29.363513946533203,1.1124093532562256,-0.0,-0.0,-1.0,0.1873055232295598,1.0,2.0
30.075733184814453,-29.485715866088867,1.1445927619934082,-0.0,-0.0,-1.0,0.0984309988359984,1.0,2.0
27.95823860168457,-30.457517623901367,1.357584834098816,-0.0,-0.0,-1.0,0.1807265004392855,1.0,2.0
28.357587814331055,-30.891468048095703,1.3337035179138184,-0.0,-0.0,-1.0,0.2064499585167946,2.0,2.0
28.42325210571289,-31.016845703125,1.3243025541305542,0.6818099751732272,-0.5891144470842882,-0.4336811340038402,0.254214275828888,6.0,2.0
27.737369537353516,-29.616804122924805,1.424594759941101,-0.6387020460949682,0.416170337885603,-0.6471954466606542,0.1712549446159129,4.0,2.0
28.36861801147461,-30.535381317138672,1.3679678440093994,-0.0,-0.0,-1.0,0.1394507970732658,1.0,2.0
28.652442932128903,-30.812522888183594,1.352657675743103,0.2312257579443657,-0.9251038532790108,-0.3011934752138244,0.2537670718048592,4.0,2.0
28.75065803527832,-30.625045776367188,1.374415397644043,-0.6684724441217036,-0.7399872730180264,-0.0745883852975843,0.1743628900923619,3.0,2.0
28.851919174194336,-30.72571563720703,1.368420124053955,-0.0,-0.0,-1.0,0.1641778461194372,1.0,2.0
29.222692489624023,-30.125102996826172,1.4399222135543823,-0.0,-0.0,-1.0,0.1790841566647726,1.0,2.0
29.39802360534668,-30.351516723632812,1.4237267971038818,-0.0,-0.0,-1.0,0.2433431072986044,1.0,2.0
29.960372924804688,-31.576679229736328,1.3176274299621582,-0.0,-0.0,-1.0,0.0362777055731443,1.0,2.0
29.340774536132812,-29.542015075683594,1.5005513429641724,-0.0,-0.0,-1.0,0.1342918778686417,1.0,2.0
29.527727127075195,-29.92440414428711,1.4698140621185305,-0.0,-0.0,-1.0,0.2294081528946928,1.0,2.0
30.14604759216309,-30.75682830810547,1.4048030376434326,-0.0,-0.0,-1.0,0.0930359252001197,1.0,2.0
29.42361068725586,-29.488292694091797,1.50889253616333,-0.0,-0.0,-1.0,0.1247983044814663,1.0,2.0
29.783153533935547,-29.92771339416504,1.4776558876037598,-0.0,-0.0,-1.0,0.2464399416395157,1.0,2.0
29.991222381591797,-30.0119571685791,1.475310206413269,-0.0,-0.0,-1.0,0.1652418171659226,2.0,2.0
30.140033721923828,-30.32611846923828,1.447933316230774,-0.0,-0.0,-1.0,0.0640269668972304,1.0,2.0
27.75910186767578,-31.00598907470703,1.760655164718628,-0.0,-0.0,-1.0,0.2136976673414922,2.0,2.0
28.1428279876709,-31.676815032958984,1.7290730476379397,-0.0,-0.0,-1.0,0.1194597845167169,2.0,2.0
28.695436477661133,-31.229721069335938,1.7709143161773682,0.7751908567101441,-0.6027228621907229,-0.1892202078680175,0.245526378695499,3.0,2.0
29.119516372680664,-29.824316024780273,1.8708571195602417,-0.6952295227821231,0.2070321965334592,-0.6883266522884848,0.1086033954861019,4.0,2.0
30.02431869506836,-29.5100040435791,1.910465955734253,-0.0,-0.0,-1.0,0.1229671586916365,2.0,2.0
27.865535736083984,-30.031339645385746,1.179855465888977,-0.0,-0.0,-1.0,0.0663108312102963,1.0,2.0
27.74530601501465,-30.46182632446289,1.1241246461868286,-0.0,-0.0,-1.0,0.1579407414599169,1.0,2.0
28.031822204589844,-30.880395889282227,1.0918368101119995,-0.0,-0.0,-1.0,0.0554964840179023,2.0,2.0
28.154155731201172,-31.014461517333984,1.0825505256652832,-0.0,-0.0,-1.0,0.1173961737458219,1.0,2.0
27.7696475982666,-29.59860610961914,1.2221627235412598,0.3512964224774865,-0.2778529170867844,-0.8940853315097415,0.178767569531709,3.0,2.0
28.51653480529785,-29.549156188964844,1.2722582817077637,-0.0,-0.0,-1.0,0.1735427254736088,2.0,2.0
28.669631958007812,-30.22805404663086,1.2012377977371216,-0.0,-0.0,-1.0,0.1290803395952832,1.0,2.0
28.744537353515625,-29.373394012451172,1.3050506114959717,-0.0,-0.0,-1.0,0.1087731664452482,1.0,2.0
29.18807601928711,-29.411556243896484,1.3233400583267212,0.2347454991981994,-0.6324551212477741,-0.7381700821718877,0.1335409646307366,4.0,2.0
29.352153778076172,-29.668004989624023,1.300509691238403,-0.0,-0.0,-1.0,0.1406593441101592,2.0,2.0
29.484939575195312,-29.91026306152344,1.2770787477493286,-0.0,-0.0,-1.0,0.2033144386882354,1.0,2.0
29.69967460632324,-29.655588150024418,1.3170945644378662,0.341281964960629,-0.7423683479684463,-0.5765551632994118,0.24544589758196,3.0,2.0
30.025714874267575,-29.90277671813965,1.2990752458572388,0.603894984610041,0.6216022371267709,-0.4989203406976231,0.1422895529093961,4.0,2.0
