x,y,z,nx,ny,nz,curvature,density,label
48.58281326293945,10.800907135009766,-1.8404088020324707,-0.0,-0.0,-1.0,0.0670323977450869,1.0,0.0
48.16474151611328,11.933908462524414,-1.7979345321655271,-0.4208471597678452,-0.5682377920474704,-0.7071021706969602,0.1754321845888229,3.0,0.0
48.23271179199219,11.68908977508545,-1.7983627319335938,-0.0465483730121989,0.991131567696567,-0.1244647118072529,0.1125853694002795,3.0,0.0
48.49606704711914,11.633379936218262,-1.4374332427978516,-0.0,-0.0,-1.0,0.0532338599676654,2.0,0.0
48.56166076660156,11.419087409973145,-1.441091537475586,-0.0,-0.0,-1.0,0.0908463606166123,2.0,0.0
47.98509216308594,12.936819076538086,-1.983714938163757,-0.0,-0.0,-1.0,0.0410332191953555,1.0,0.0
48.03880310058594,12.55742073059082,-1.9298831224441528,-0.0,-0.0,-1.0,0.0789746793545281,2.0,0.0
47.844268798828125,13.06863498687744,-2.015296220779419,-0.0,-0.0,-1.0,0.0380471910052385,1.0,0.0
47.9141845703125,12.888991355895996,-1.999328136444092,-0.0,-0.0,-1.0,0.0391652673113961,2.0,0.0
47.904762268066406,12.466760635375977,-1.9334049224853516,-0.0,-0.0,-1.0,0.0393909848969901,2.0,0.0
47.95004653930664,12.908645629882812,-2.0082931518554688,-0.0,-0.0,-1.0,0.039165267311396,2.0,0.0
47.91822814941406,12.2374849319458,-1.9011430740356443,-0.0,-0.0,-1.0,0.1014668705404556,1.0,0.0
47.97747802734375,11.957436561584473,-1.869689464569092,-0.0,-0.0,-1.0,0.1337896368749618,2.0,0.0
48.08187484741211,11.77292823791504,-1.8607182502746584,-0.0,-0.0,-1.0,0.176687285991596,2.0,0.0
47.950782775878906,11.253006935119627,-1.761932373046875,-0.5394740067034924,-0.285800823308164,-0.7920136902147941,0.1723030472629931,5.0,0.0
48.1595458984375,11.71733283996582,-1.8663263320922852,-0.9201068479999772,-0.0180594508866453,-0.3912508715609719,0.1191818552508836,6.0,0.0
48.71368408203125,10.83948802947998,-1.7879323959350586,-0.0,-0.0,-1.0,0.0568640386487906,2.0,0.0
48.77892303466797,10.836647033691406,-1.7969136238098145,0.3734891229612062,0.0368379575965387,-0.9269028211791052,0.08627082748208,3.0,0.0
49.287132263183594,11.255331993103027,-1.9353811740875244,-0.0,-0.0,-1.0,0.016542468285172,1.0,0.0
49.67098617553711,11.360337257385254,-2.007784366607666,-0.0,-0.0,-1.0,0.0160617871106826,1.0,0.0
50.091407775878906,11.288782119750977,-2.05981707572937,-0.0,-0.0,-1.0,0.0134914849872001,1.0,0.0
48.03913497924805,11.758087158203123,-1.7498736381530762,-0.0,-0.0,-1.0,0.1400265693509616,1.0,0.0
47.95793151855469,11.930371284484863,-1.7638788223266602,-0.0,-0.0,-1.0,0.216002774075554,1.0,0.0
48.022666931152344,11.365617752075195,-1.6997134685516355,-0.0,-0.0,-1.0,0.193523876621015,1.0,0.0
47.92735290527344,11.40255355834961,-1.6952235698699951,-0.0,-0.0,-1.0,0.1829666983971647,1.0,0.0
48.41223907470703,11.119230270385742,-1.7075819969177246,-0.0,-0.0,-1.0,0.1652775659306429,1.0,0.0
48.04456329345703,11.063859939575195,-1.664902925491333,0.203278122471709,-0.7190906905154978,-0.6645198144061024,0.213833033563986,5.0,0.0
47.852657318115234,11.833041191101074,-1.6994597911834717,-0.0,-0.0,-1.0,0.2601595517867993,1.0,0.0
47.8616828918457,11.467050552368164,-1.6623821258544922,-0.0,-0.0,-1.0,0.2420040394995619,1.0,0.0
47.81432342529297,11.56348705291748,-1.6669373512268066,-0.0,-0.0,-1.0,0.2355073786412529,1.0,0.0
48.8175163269043,11.082984924316406,-1.3978325128555298,-0.0,-0.0,-1.0,0.1877593674831301,2.0,0.0
48.332489013671875,11.315732955932615,-1.3872352838516235,-0.0,-0.0,-1.0,0.0977794047003617,1.0,0.0
48.6595458984375,11.04190444946289,-1.3846441507339478,-0.0,-0.0,-1.0,0.1660661051096588,2.0,0.0
48.41724395751953,11.041410446166992,-1.3696268796920776,-0.0,-0.0,-1.0,0.1312848309595779,2.0,0.0
48.472625732421875,12.527772903442385,-2.0403218269348145,-0.0,-0.0,-1.0,0.0328475306425484,1.0,0.0
48.36079406738281,12.667491912841797,-2.0501279830932617,-0.0,-0.0,-1.0,0.075337960450596,1.0,0.0
48.67755889892578,11.98639678955078,-1.9895111322402952,-0.0,-0.0,-1.0,0.1211849670250292,1.0,0.0
48.46622467041016,12.183103561401367,-1.999419331550598,-0.0,-0.0,-1.0,0.0516495757182217,1.0,0.0
48.126930236816406,12.67013931274414,-2.0364999771118164,-0.0,-0.0,-1.0,0.0773193913994138,1.0,0.0
48.73612976074219,11.41939926147461,-1.9277034997940063,-0.0,-0.0,-1.0,0.1327937871631218,1.0,0.0
48.672061920166016,11.665273666381836,-1.9519394636154177,-0.0,-0.0,-1.0,0.1165456344098915,1.0,0.0
48.88585662841797,10.970090866088867,-1.886152386665344,-0.0,-0.0,-1.0,0.0924831836461131,1.0,0.0
48.74355697631836,11.129783630371094,-1.8950387239456177,-0.0,-0.0,-1.0,0.0954631910710259,1.0,0.0
48.77587890625,11.092365264892578,-1.3914650678634644,-0.0,-0.0,-1.0,0.1805154135860533,2.0,0.0
48.3236198425293,11.65968894958496,-1.4552181959152222,0.020575772928002,0.8704791341486046,0.4917750650249672,0.1262609945487931,3.0,0.0
48.613807678222656,11.05929946899414,-1.3831411600112915,-0.0,-0.0,-1.0,0.2099492983247584,2.0,0.0
48.30170440673828,11.230144500732422,-1.3980199098587036,0.455907506497487,-0.888058724827204,-0.0591611931719111,0.1222907432864292,3.0,0.0
47.92887878417969,11.963468551635742,-2.0513176918029785,-0.0,-0.0,-1.0,0.0844384268041387,1.0,0.0
47.727752685546875,12.300464630126951,-2.075777053833008,-0.0,-0.0,-1.0,0.0466788228000051,1.0,0.0
47.97174072265625,11.509593963623049,-2.0020365715026855,-0.0,-0.0,-1.0,0.1092667539199801,2.0,0.0
47.945289611816406,11.750186920166016,-2.0277504920959473,-0.0,-0.0,-1.0,0.0681869837203162,1.0,0.0
47.9166259765625,10.949520111083984,-1.9338282346725464,-0.0,-0.0,-1.0,0.0806870138421646,1.0,0.0
48.403785705566406,11.177154541015623,-1.3459575176239014,-0.0,-0.0,-1.0,0.1450586301955276,2.0,0.0
48.190185546875,11.450397491455078,-1.363651990890503,-0.0,-0.0,-1.0,0.182616765504798,1.0,0.0
48.25164031982422,11.233491897583008,-1.5867009162902832,0.7849508931298681,0.4287925681600532,-0.4472013292302789,0.1723335257794183,3.0,0.0
48.12561798095703,11.567426681518556,-1.610283613204956,0.5312425212113896,0.252107361893776,-0.8088406899605924,0.1998816246092244,3.0,0.0
48.12546157836914,11.838493347167969,-1.6366021633148191,-0.0,-0.0,-1.0,0.2124607666209762,2.0,0.0
48.132041931152344,11.146688461303713,-1.5699257850646973,0.4884591864978946,-0.7874725682366267,0.3758917096726476,0.2220723441435977,6.0,0.0
48.5770263671875,11.015054702758787,-1.7326500415802002,-0.0,-0.0,-1.0,0.1032037335203208,1.0,0.0
48.13855743408203,11.35140895843506,-1.7170510292053225,-0.0,-0.0,-1.0,0.2570506900928171,2.0,0.0
48.15199661254883,11.625384330749512,-1.7387900352478027,-0.0,-0.0,-1.0,0.2114293321537935,1.0,0.0
48.069602966308594,11.888721466064451,-1.750898838043213,-0.0,-0.0,-1.0,0.2326829250606004,2.0,0.0
48.05853271484375,11.088509559631348,-1.6899991035461426,0.1145710515288165,-0.8207564852068979,-0.559671569889342,0.2224293654014376,5.0,0.0
48.07464218139648,11.412871360778809,-1.715723991394043,-0.0,-0.0,-1.0,0.2613691234965412,1.0,0.0
48.345401763916016,11.121341705322266,-1.4799684286117554,-0.0,-0.0,-1.0,0.1050362864787882,2.0,0.0
48.19530487060547,11.624858856201172,-1.5222681760787964,-0.0552501509632066,0.7866680618388624,-0.6148990008946436,0.2235655017572885,3.0,0.0
48.17454147338867,11.255023956298828,-1.4817994832992554,0.8450138816962276,-0.4734571052316529,-0.248575761582535,0.2301424970606678,4.0,0.0
48.17156982421875,11.354270935058594,-1.4920121431350708,-0.0,-0.0,-1.0,0.1981405098370579,2.0,0.0
48.925758361816406,12.927691459655762,-1.992067813873291,-0.0,-0.0,-1.0,0.0244723301437104,1.0,0.0
48.77312469482422,10.796025276184082,-1.8008644580841064,-0.208150271536074,0.1240716480429575,-0.9701956970690824,0.08627082748208,3.0,0.0
48.50779724121094,10.843192100524902,-1.778071641921997,-0.0,-0.0,-1.0,0.0658300974930775,1.0,0.0
48.25186538696289,11.61332893371582,-1.8153293132781985,-0.0,-0.0,-1.0,0.1822310380901267,1.0,0.0
48.115989685058594,11.874743461608888,-1.8242216110229492,0.1280674314966466,0.8675517082465162,-0.4805754535017404,0.215089475573434,4.0,0.0
48.256473541259766,12.360103607177734,-1.8792831897735596,-0.0,-0.0,-1.0,0.0578446554848797,2.0,0.0
48.1483154296875,10.787935256958008,-1.73797869682312,-0.0,-0.0,-1.0,0.0656474291903414,2.0,0.0
48.0814208984375,11.128813743591309,-1.758840799331665,0.8181847825234282,-0.4594197588894696,-0.3456980572537718,0.1914342889424197,3.0,0.0
49.174537658691406,13.042207717895508,-2.047616481781006,-0.0,-0.0,-1.0,0.0510194349756718,2.0,0.0
48.938262939453125,10.689009666442873,-1.818292021751404,-0.0201921820850865,-0.6222974936204857,-0.7825203545060689,0.0802249932073909,3.0,0.0
48.70526123046875,10.857375144958496,-1.8079856634140017,-0.2295918708552271,-0.2345884804440878,-0.9445929375557128,0.0718862878741819,4.0,0.0
48.24466323852539,12.326322555541992,-1.8897124528884888,-0.0,-0.0,-1.0,0.0501941622526735,2.0,0.0
48.08938217163086,10.812615394592283,-1.7408462762832642,0.5244706680928576,0.440781103944213,-0.7284521512878886,0.0706771781190049,4.0,0.0
48.09886169433594,11.169934272766112,-1.7722102403640747,0.8377064688144774,-0.4128008345383132,-0.3575518747130981,0.1961218675290103,4.0,0.0
48.25067901611328,11.551750183105469,-1.8207515478134155,-0.0,-0.0,-1.0,0.1878919284862515,1.0,0.0
48.14246368408203,11.860546112060549,-1.8372973203659055,0.3778500156451191,0.7536777877578346,-0.5377724034546956,0.1831310460724658,5.0,0.0
48.10124969482422,12.1211519241333,-1.8567148447036743,0.6079153462543627,-0.7935899798450332,-0.025570992902075,0.1804297547272569,4.0,0.0
48.54976272583008,11.090099334716797,-1.5609724521636963,-0.0,-0.0,-1.0,0.1758565754712583,1.0,0.0
48.24940490722656,11.758792877197266,-1.586200475692749,-0.696734432457558,0.6890700130036732,0.1993580893948429,0.2205294243741779,9.0,0.0
48.24748229980469,11.100160598754885,-1.5324947834014893,0.8789456660867097,-0.2522670563414338,-0.4047417057238082,0.1127624824939543,4.0,0.0
48.17804336547851,11.331926345825195,-1.544391632080078,0.3863807027912596,0.112381658087728,-0.9154672661739388,0.1851971477939769,4.0,0.0
48.22771453857422,11.572320938110352,-1.5687189102172852,-0.0165802093584964,0.987948909505246,-0.1538897295631638,0.1801462287614128,4.0,0.0
48.524166107177734,10.67767333984375,-1.8558871746063232,-0.0,-0.0,-1.0,0.0612759183659142,1.0,0.0
48.259735107421875,11.436164855957031,-1.8757169246673584,-0.0,-0.0,-1.0,0.2309620105588105,1.0,0.0
48.18608856201172,11.72614288330078,-1.8876757621765137,0.5042421422827005,0.3707879145509765,0.7799078050443466,0.093151967435661,3.0,0.0
48.10414123535156,12.417886734008787,-1.9292669296264648,-0.0,-0.0,-1.0,0.0561061280254236,2.0,0.0
48.12238311767578,12.82721710205078,-1.962857961654663,0.8115657947468844,0.4971822337823168,-0.3068725911646129,0.0461791267206209,3.0,0.0
48.033592224121094,10.788808822631836,-1.8052098751068115,0.4521827724034053,0.1176583707707145,-0.8841307867782637,0.0799101487169929,3.0,0.0
47.98227310180664,11.116243362426758,-1.8212039470672607,-0.0,-0.0,-1.0,0.1400096850954361,2.0,0.0
48.045013427734375,12.017181396484377,-1.8925034999847412,0.0698348879979409,-0.4823405641742562,-0.8731956645393835,0.0867758765595575,4.0,0.0
48.88494873046875,12.96750259399414,-1.977079153060913,-0.0,-0.0,-1.0,0.0244723301437104,1.0,0.0
48.14776611328125,12.398109436035156,-1.8738138675689695,-0.0,-0.0,-1.0,0.0747436857762476,2.0,0.0
48.12442779541016,11.515901565551758,-1.8772597312927248,-0.0,-0.0,-1.0,0.1466722170989417,1.0,0.0
48.047645568847656,11.851825714111328,-1.8629181385040283,-0.3878696428182476,-0.2981175008156715,-0.8721714830739787,0.1318718281372529,4.0,0.0
47.99308013916016,12.13122272491455,-1.8530209064483645,-0.0,-0.0,-1.0,0.1305907262133978,1.0,0.0
47.872432708740234,11.216909408569336,-1.844099283218384,-0.0,-0.0,-1.0,0.1257947970201278,1.0,0.0
47.83702850341797,11.004674911499023,-1.8418333530426023,-0.0,-0.0,-1.0,0.0846635210205156,1.0,0.0
48.832664489746094,10.770718574523926,-1.879449486732483,-0.0,-0.0,-1.0,0.0743936433086551,1.0,0.0
48.68333435058594,10.823549270629885,-1.8652924299240112,-0.0,-0.0,-1.0,0.0499207608463357,1.0,0.0
48.008018493652344,10.937552452087402,-1.791901707649231,0.3247608040073371,0.9265069010154336,0.1900404760867681,0.0632492530479571,3.0,0.0
48.04042053222656,11.23427391052246,-1.8192428350448608,-0.0,-0.0,-1.0,0.1984549062227645,1.0,0.0
48.19889450073242,11.680908203125,-1.874449610710144,-0.0,-0.0,-1.0,0.086904038272028,2.0,0.0
48.06060791015625,12.027387619018556,-1.8864113092422483,-0.2664682237704888,0.6384906717365281,-0.7220279411671251,0.119313730838373,4.0,0.0
48.18506622314453,12.47837257385254,-1.9395111799240112,-0.0,-0.0,-1.0,0.0926373438213785,1.0,0.0
48.13373947143555,12.719871520996094,-1.9541586637496948,-0.0,-0.0,-1.0,0.0739533789637049,2.0,0.0
48.133766174316406,11.220948219299316,-1.5996402502059937,-0.0,-0.0,-1.0,0.2240451425362281,2.0,0.0
48.198272705078125,11.561120986938477,-1.6374903917312622,0.1261513729765848,0.9728443034035024,0.1940613110114342,0.2530011808232959,5.0,0.0
48.17280960083008,11.80474853515625,-1.6570590734481812,0.6959138395770469,0.2935601952284264,-0.655382590295608,0.1519460481574464,5.0,0.0
48.22736358642578,11.647987365722656,-1.711479663848877,-0.672758190519193,0.7175049710711067,0.1805077105765606,0.1562126135784952,4.0,0.0
48.14532470703125,11.269290924072266,-1.677011489868164,0.3001253950032816,-0.654824092688532,-0.6936354625513066,0.2724710679616071,3.0,0.0
48.148345947265625,11.706247329711914,-1.705888748168945,-0.0,-0.0,-1.0,0.1778224347329765,1.0,0.0
48.16408157348633,11.927732467651367,-1.7225499153137207,-0.4078868323165567,0.8372344029455646,-0.3642346586297754,0.243499767707146,7.0,0.0
48.16019821166992,11.192235946655272,-1.588735818862915,-0.118823560291012,-0.5524336272622423,-0.8250442709271121,0.2029305786406586,4.0,0.0
48.183860778808594,11.42445468902588,-1.5971629619598389,-0.5621554827998243,0.7451558275200164,-0.3587812785961045,0.2225219951800746,6.0,0.0
48.200927734375,11.703832626342772,-1.6063828468322754,0.5909736442536949,0.549921318520234,-0.5902005550950241,0.1505988215745868,3.0,0.0
48.13548278808594,11.11347198486328,-1.583930492401123,0.9112758245136868,0.2763506130831082,0.3052977404198909,0.1865384883828303,5.0,0.0
48.238800048828125,11.41330337524414,-1.4383246898651123,0.6758559231495455,-0.2237237327814667,-0.7022581167448351,0.2585833599632814,4.0,0.0
48.28416442871094,11.653162956237791,-1.4420158863067627,-0.0,-0.0,-1.0,0.1285604806055217,2.0,0.0
48.24744415283203,11.17372989654541,-1.4411888122558594,0.74660666565324,0.5551962301717385,0.3665182571240369,0.1896658595888031,4.0,0.0
48.17871856689453,11.41773796081543,-1.431314468383789,-0.4738638813608563,-0.0025964516146994,-0.8805942768270963,0.1948909701779918,4.0,0.0
48.275901794433594,11.62048625946045,-1.7151576280593872,-0.0,-0.0,-1.0,0.1339780933116611,2.0,0.0
48.169532775878906,11.87967300415039,-1.6975690126419067,-0.2965882213405575,0.950386937181924,-0.0938088300534992,0.1504802938743255,3.0,0.0
48.19499969482422,11.29611587524414,-1.7112807035446167,-0.0,-0.0,-1.0,0.23246260908595,2.0,0.0
48.194122314453125,11.628947257995604,-1.704928278923035,-0.4809677550784492,0.8717700504731777,0.0932040646795524,0.1703353022304019,3.0,0.0
48.04511260986328,10.864025115966797,-1.702023148536682,-0.0,-0.0,-1.0,0.0705297177341129,2.0,0.0
48.01734161376953,11.068920135498049,-1.6940432786941528,0.3920682133542302,-0.6483886886835123,-0.6525907020977981,0.2019692565952306,5.0,0.0
48.17481231689453,11.787744522094728,-1.65091073513031,0.6959138395770469,0.2935601952284264,-0.655382590295608,0.1523735889567836,5.0,0.0
48.12510681152344,11.23317527770996,-1.6516646146774292,-0.0,-0.0,-1.0,0.2097383036328623,2.0,0.0
48.15399932861328,11.578631401062012,-1.6506837606430054,0.1725943827437705,-0.2760268197375675,-0.9455265061492782,0.1107078221171207,3.0,0.0
47.97542572021485,11.235763549804688,-1.7510716915130615,-0.2478060140238975,-0.7030698487335812,-0.666547048013362,0.2002682842208651,4.0,0.0
48.038795471191406,10.921648025512695,-1.7669575214385986,0.2181748123314189,0.9618066369665133,-0.165311053324683,0.0571035107792798,5.0,0.0
48.04716491699219,10.735107421875,-1.77394437789917,-0.8088764982588268,-0.5278567315570251,0.2590098096877277,0.0701862718712705,3.0,0.0
48.260440826416016,11.741883277893066,-1.534717321395874,0.050219185319687,0.0787098795227138,-0.9956318537950394,0.1749860078831385,8.0,0.0
48.3394889831543,12.098068237304688,-1.5652894973754885,-0.0,-0.0,-1.0,0.1432424713663116,1.0,0.0
48.311378479003906,11.979314804077148,-1.5549535751342771,0.9220889848934908,0.2214522942783182,-0.3173496262751235,0.1305613666509496,3.0,0.0
47.989505767822266,11.041299819946287,-1.8032176494598389,-0.0,-0.0,-1.0,0.1617749417295786,2.0,0.0
48.11785888671875,11.384337425231934,-1.8158197402954104,-0.0,-0.0,-1.0,0.1794707243559893,2.0,0.0
48.1978645324707,11.790692329406738,-1.8243391513824463,-0.0,-0.0,-1.0,0.1358331433481195,2.0,0.0
48.207969665527344,11.478882789611816,-1.4367560148239136,0.791589327324001,-0.610725461421098,0.0200186822423988,0.2406817926372698,5.0,0.0
48.26863098144531,11.749889373779297,-1.45040762424469,-0.0,-0.0,-1.0,0.2410238008520498,2.0,0.0
47.77172088623047,12.151337623596191,-2.0092194080352783,-0.0,-0.0,-1.0,0.0655466800770136,2.0,0.0
47.766075134277344,11.905096054077148,-1.9987192153930664,-0.0,-0.0,-1.0,0.0807743126601905,1.0,0.0
48.06705474853515,10.909478187561035,-1.772974967956543,0.133937318802603,0.6714117615597924,-0.7288806768402811,0.0652577258798633,3.0,0.0
48.07804107666016,11.243021965026855,-1.785303831100464,0.2235093867794846,0.3350060297941094,-0.9153220821235803,0.2296426161108169,4.0,0.0
48.15003204345703,11.969980239868164,-1.8181676864624023,-0.0,-0.0,-1.0,0.1501474866756217,2.0,0.0
48.231231689453125,11.686655044555664,-1.817197322845459,-0.0465483730121989,0.991131567696567,-0.1244647118072529,0.1292382379867923,3.0,0.0
47.964378356933594,11.292486190795898,-1.7582794427871704,-0.5484917413430651,0.2623466165851368,-0.7939339156660229,0.1546154760731192,3.0,0.0
47.96352005004883,11.063467025756836,-1.749735713005066,-0.0,-0.0,-1.0,0.1987225844571314,1.0,0.0
48.09650421142578,11.584619522094728,-1.7839363813400269,-0.0,-0.0,-1.0,0.2208458203327565,1.0,0.0
48.784149169921875,10.898681640625,-1.835328221321106,-0.0,-0.0,-1.0,0.1032987689167,2.0,0.0
49.38554382324219,10.6525239944458,-1.8936485052108765,-0.0,-0.0,-1.0,0.0266410377922659,2.0,0.0
48.04768753051758,12.050101280212402,-1.7962347269058228,-0.0,-0.0,-1.0,0.1276364786821586,2.0,0.0
48.17124557495117,11.82742691040039,-1.801458954811096,0.6401032154460965,0.7218989791824132,0.2629253457370709,0.1506136184664453,5.0,0.0
49.4061279296875,10.749110221862791,-1.8993974924087524,-0.0,-0.0,-1.0,0.0298854289136258,1.0,0.0
48.420188903808594,11.869665145874023,-1.4821139574050903,-0.0,-0.0,-1.0,0.0825415558797254,1.0,0.0
48.52122497558594,11.654837608337402,-1.4901479482650757,-0.0,-0.0,-1.0,0.0587330632507831,1.0,0.0
48.133941650390625,11.893606185913086,-1.7466745376586914,0.4079358833996749,0.8942022998283191,-0.1843652950440269,0.1480165364208885,3.0,0.0
47.8561897277832,12.232887268066406,-1.974069356918335,-0.0,-0.0,-1.0,0.0622522327847162,2.0,0.0
47.89899444580078,11.946067810058594,-1.9689431190490725,-0.0,-0.0,-1.0,0.0935155633949169,1.0,0.0
47.83380126953125,11.301599502563477,-1.9382002353668213,-0.0,-0.0,-1.0,0.0916070951478973,1.0,0.0
47.787376403808594,11.073280334472656,-1.9246020317077637,0.6077777813317359,0.793316430476681,0.0354289381044674,0.0775885622479085,4.0,0.0
48.03500747680664,12.969078063964844,-2.0228867530822754,0.4404630285857865,-0.5350415237129997,-0.7209180871305061,0.0384742872348871,3.0,0.0
47.978904724121094,12.7753324508667,-2.0088815689086914,-0.0,-0.0,-1.0,0.0577395165162637,1.0,0.0
48.07672882080078,11.571231842041016,-1.9773743152618408,-0.0,-0.0,-1.0,0.0789587834172945,1.0,0.0
47.77195358276367,11.7283935546875,-1.5746126174926758,-0.0,-0.0,-1.0,0.1487499197003262,1.0,0.0
47.851863861083984,11.41506004333496,-1.5578389167785645,-0.0,-0.0,-1.0,0.1868208813275468,1.0,0.0
47.82402038574219,12.0943603515625,-1.6060705184936523,-0.0,-0.0,-1.0,0.1421195592624636,1.0,0.0
48.23390197753906,11.43844985961914,-1.5907373428344729,0.4328073316892623,0.6347804706697635,-0.6401027790068512,0.1344636755235152,4.0,0.0
48.124664306640625,11.148277282714844,-1.6009302139282229,0.9484653267576882,0.186299693946739,0.2563317147248523,0.1885682734896947,4.0,0.0
48.51886749267578,11.213682174682615,-1.6318321228027344,-0.0,-0.0,-1.0,0.1466281418805914,1.0,0.0
48.081748962402344,11.493963241577148,-1.631844997406006,-0.0,-0.0,-1.0,0.1707217465168454,1.0,0.0
48.087608337402344,11.810853958129885,-1.6630487442016602,-0.0,-0.0,-1.0,0.2402662271415812,1.0,0.0
48.27503967285156,11.435096740722656,-1.4225621223449707,-0.0,-0.0,-1.0,0.2264835098351255,2.0,0.0
48.59479522705078,11.42856216430664,-1.437406063079834,-0.0935691982418101,-0.037328119002512,-0.9949127683732476,0.0908463606166123,4.0,0.0
48.17608642578125,11.624677658081056,-1.437666416168213,-0.0,-0.0,-1.0,0.1732934512933935,1.0,0.0
48.45980453491211,11.470596313476562,-1.4352378845214844,-0.0,-0.0,-1.0,0.0474435293863956,2.0,0.0
48.113243103027344,11.45668601989746,-1.4947175979614258,-0.3733774547992807,-0.4581456823569848,-0.8066547030701946,0.2744109106406323,3.0,0.0
48.173370361328125,11.22031593322754,-1.471827507019043,0.0119219536121853,-0.2764910612406951,-0.9609425373434474,0.1616016262552231,3.0,0.0
48.55496597290039,11.22181510925293,-1.4904375076293943,-0.0,-0.0,-1.0,0.1597167034736216,1.0,0.0
48.10005569458008,11.654546737670898,-1.5156946182250977,-0.0,-0.0,-1.0,0.1520310113517122,2.0,0.0
48.0799560546875,11.12895965576172,-1.5047481060028076,-0.0,-0.0,-1.0,0.2088107302060244,1.0,0.0
48.316280364990234,11.155380249023438,-1.5196669101715088,-0.0,-0.0,-1.0,0.1577024384414166,2.0,0.0
48.02582550048828,11.487646102905272,-1.541703462600708,-0.0,-0.0,-1.0,0.2423574569511905,1.0,0.0
48.03858184814453,11.832061767578123,-1.580512285232544,-0.0,-0.0,-1.0,0.1364407358215326,1.0,0.0
48.07338333129883,10.938261032104492,-1.6889638900756836,-0.0,-0.0,-1.0,0.0823190633537406,1.0,0.0
48.48014450073242,11.032506942749023,-1.722759246826172,-0.0,-0.0,-1.0,0.0773363308378067,1.0,0.0
48.01360321044922,11.42877960205078,-1.7425227165222168,-0.0,-0.0,-1.0,0.2456051557447062,2.0,0.0
48.03929901123047,11.799156188964844,-1.7869887351989746,-0.0,-0.0,-1.0,0.1933147647369733,2.0,0.0
49.29218673706055,11.612855911254885,-1.835794448852539,-0.0,-0.0,-1.0,0.0378358396062392,1.0,0.0
48.002418518066406,12.072029113769531,-1.8166909217834473,-0.0,-0.0,-1.0,0.1501040803890734,2.0,0.0
48.435028076171875,10.92934226989746,-1.795382022857666,-0.0,-0.0,-1.0,0.0409201333231389,1.0,0.0
48.75010299682617,10.873239517211914,-1.8070721626281736,0.1316471579519882,-0.0504090591030316,-0.9900141173556624,0.0758364228921353,4.0,0.0
49.46286392211914,11.567228317260742,-1.9316210746765137,-0.0,-0.0,-1.0,0.0180009097464307,1.0,0.0
49.64427185058594,11.62684440612793,-1.9494099617004397,-0.0,-0.0,-1.0,0.015109091075199,1.0,0.0
49.8816032409668,11.772592544555664,-1.9807696342468264,-0.0,-0.0,-1.0,0.0124252929365166,1.0,0.0
48.270973205566406,11.330974578857422,-1.407672643661499,-0.0,-0.0,-1.0,0.1206484979467644,1.0,0.0
48.297401428222656,11.203084945678713,-1.5311617851257324,-0.0,-0.0,-1.0,0.1416109706787753,1.0,0.0
48.024681091308594,11.20701789855957,-1.515547275543213,-0.0,-0.0,-1.0,0.137373228597408,1.0,0.0
48.6114501953125,11.047840118408203,-1.5542128086090088,-0.0,-0.0,-1.0,0.1474485768432177,1.0,0.0
48.218414306640625,11.298038482666016,-1.559272527694702,0.6488681932660629,-0.4230368319132296,-0.6324633638499964,0.1731486958466412,3.0,0.0
48.29191589355469,10.9976806640625,-1.5339934825897217,-0.0,-0.0,-1.0,0.0576994996427593,1.0,0.0
48.802947998046875,10.972612380981444,-1.6860604286193848,-0.0,-0.0,-1.0,0.1085341706222975,1.0,0.0
48.599098205566406,10.954572677612305,-1.678511142730713,-0.0,-0.0,-1.0,0.0680345004488283,2.0,0.0
48.310604095458984,11.325044631958008,-1.7156744003295898,-0.0,-0.0,-1.0,0.0939696238200007,1.0,0.0
48.28107833862305,11.66786003112793,-1.756406307220459,0.6479284198658718,0.7370425713327176,0.192242062965862,0.1181995492674195,3.0,0.0
48.28154754638672,10.90894889831543,-1.664778232574463,-0.0,-0.0,-1.0,0.0706127924972271,2.0,0.0
48.59458923339844,11.105842590332031,-1.8132212162017824,-0.0,-0.0,-1.0,0.1007758250522882,1.0,0.0
48.16063690185547,11.139331817626951,-1.7977464199066162,-0.0,-0.0,-1.0,0.1224627162833567,1.0,0.0
48.08128356933594,11.52652359008789,-1.837660551071167,-0.0,-0.0,-1.0,0.2001606823558504,1.0,0.0
48.04485321044922,11.851272583007812,-1.8726541996002195,-0.3878696428182476,-0.2981175008156715,-0.8721714830739787,0.1356563465774441,4.0,0.0
48.47595977783203,11.572702407836914,-1.4170503616333008,-0.0,-0.0,-1.0,0.0949093509322716,2.0,0.0
48.17048263549805,12.765626907348633,-1.9571316242218015,-0.0,-0.0,-1.0,0.1006262766464678,1.0,0.0
48.98450469970703,10.690757751464844,-1.8208754062652588,-0.0,-0.0,-1.0,0.080224993207391,2.0,0.0
48.82830810546875,10.733861923217772,-1.8117573261260984,-0.0,-0.0,-1.0,0.0754454599371466,2.0,0.0
48.142234802246094,12.450069427490234,-1.923187494277954,-0.0,-0.0,-1.0,0.0572011321370444,2.0,0.0
48.54718399047851,10.754228591918944,-1.7900612354278564,-0.0,-0.0,-1.0,0.0616195922884725,1.0,0.0
48.216835021972656,11.474435806274414,-1.832517385482788,0.0205811603485944,0.802480910135533,0.596322735359597,0.2484137506394467,5.0,0.0
48.12727355957031,11.854345321655272,-1.8626463413238523,0.4647323164124384,0.8248094333083957,-0.3220454514620761,0.1737568564852057,4.0,0.0
48.06536865234375,12.080724716186523,-1.8801310062408447,-0.0,-0.0,-1.0,0.126643680274756,2.0,0.0
48.07884979248047,10.78272819519043,-1.7537434101104736,0.9346617979573036,-0.194136955064303,-0.2978559486019727,0.0702846468583299,4.0,0.0
47.88329315185547,11.673242568969728,-1.969308853149414,-0.0,-0.0,-1.0,0.0433893111387784,1.0,0.0
47.824466705322266,11.981698989868164,-1.998453140258789,-0.0,-0.0,-1.0,0.0795682071351381,2.0,0.0
47.935455322265625,10.817010879516602,-1.8810338973999023,-0.0,-0.0,-1.0,0.0794258113768253,2.0,0.0
47.80183792114258,11.05569076538086,-1.895921230316162,0.8140634419277729,0.5780753121575429,-0.0559432390076481,0.0657988749222311,3.0,0.0
47.79471206665039,11.229196548461914,-1.914083480834961,-0.0,-0.0,-1.0,0.0858198364981579,2.0,0.0
48.7496452331543,10.957313537597656,-1.6857447624206543,-0.0,-0.0,-1.0,0.1203723496870472,1.0,0.0
48.24227523803711,11.67961311340332,-1.720496654510498,-0.7133559386608262,0.5640752000994498,0.4158635273862052,0.1815831755059092,4.0,0.0
48.55323028564453,10.971183776855469,-1.671764850616455,-0.0,-0.0,-1.0,0.0659932747777767,2.0,0.0
48.24055480957031,11.140405654907228,-1.6647329330444336,-0.0,-0.0,-1.0,0.1149878098024037,1.0,0.0
48.26805114746094,11.435537338256836,-1.6971964836120603,-0.0,-0.0,-1.0,0.1177177246062487,1.0,0.0
48.05906677246094,12.88471221923828,-2.0032405853271484,-0.0,-0.0,-1.0,0.0401274561684379,1.0,0.0
48.97626876831055,10.759897232055664,-1.816509246826172,-0.0,-0.0,-1.0,0.080224993207391,2.0,0.0
48.77723693847656,10.777664184570312,-1.8040947914123535,-0.0,-0.0,-1.0,0.0646663714358466,2.0,0.0
48.25122833251953,11.631267547607422,-1.866150379180908,-0.0,-0.0,-1.0,0.1182760006928365,2.0,0.0
48.00713348388672,12.032949447631836,-1.8969783782958984,-0.3641157439691754,-0.9184941722962768,-0.15423417407161,0.1150617715102587,3.0,0.0
47.974876403808594,12.358505249023438,-1.9338841438293457,-0.0635244497109845,0.5266429770153388,-0.8477097492947325,0.0544598255908296,4.0,0.0
48.471336364746094,10.796075820922852,-1.784142017364502,-0.0,-0.0,-1.0,0.0466378021488759,2.0,0.0
48.07601547241211,11.147844314575195,-1.796925067901611,0.8181847825234282,-0.4594197588894696,-0.3456980572537718,0.1695931507265136,3.0,0.0
48.08006286621094,11.839658737182615,-1.8789548873901367,-0.3878696428182476,-0.2981175008156715,-0.8721714830739787,0.1651154345944266,4.0,0.0
48.059688568115234,10.729202270507812,-1.746868133544922,-0.7663788753873834,-0.6024053166510539,0.223094719414228,0.0672932376956826,3.0,0.0
48.08123779296875,11.461071014404297,-1.964103937149048,0.4563812792371493,0.7935426110920548,-0.4025000029106423,0.1466961725973448,4.0,0.0
47.954551696777344,11.700798034667969,-1.9824440479278564,-0.0,-0.0,-1.0,0.0444379644598821,2.0,0.0
47.85553741455078,12.047910690307615,-2.01592755317688,-0.0,-0.0,-1.0,0.0633637617361336,1.0,0.0
47.91053009033203,11.083038330078123,-1.906623601913452,-0.0,-0.0,-1.0,0.0733462979051112,1.0,0.0
47.94944381713867,10.70102310180664,-1.8654406070709229,-0.0,-0.0,-1.0,0.0846104104242738,2.0,0.0
48.23725128173828,11.50872802734375,-1.5074183940887451,-0.0,-0.0,-1.0,0.2222338159248562,2.0,0.0
48.32740020751953,11.79233169555664,-1.5367538928985596,-0.3887066309526978,0.7723190906520961,-0.5024244990719726,0.0942828390734395,5.0,0.0
48.233612060546875,11.264688491821287,-1.4895174503326416,0.6824174434796189,0.6164589826314768,0.3927909820346003,0.1746981149384357,7.0,0.0
48.31468963623047,11.362072944641112,-1.5003249645233154,-0.0,-0.0,-1.0,0.1142500117990871,1.0,0.0
48.2573127746582,11.19151496887207,-1.469975471496582,0.74660666565324,0.5551962301717385,0.3665182571240369,0.1592787909835272,4.0,0.0
48.20117950439453,11.456745147705078,-1.4776945114135742,0.9792022930180364,0.2019508680807153,-0.0194606328177029,0.194013223535636,6.0,0.0
48.22300338745117,11.62164306640625,-1.5288710594177246,0.0720338502185104,-0.2087431925438477,-0.975314002764904,0.2295236516392119,5.0,0.0
48.22956466674805,11.21264362335205,-1.5194501876831057,0.6234269455766509,0.28128375729917,-0.7295329268844752,0.1820281345952473,3.0,0.0
48.20325469970703,11.412527084350586,-1.5215134620666504,0.6752956149749999,-0.370929180816492,-0.6374851960746557,0.2025081218726446,6.0,0.0
49.28040313720703,13.13051414489746,-2.0682263374328613,-0.0,-0.0,-1.0,0.0385202919660751,2.0,0.0
48.28507614135742,12.220437049865724,-1.921641826629639,-0.0,-0.0,-1.0,0.0861569243105426,1.0,0.0
48.27919387817383,12.36630916595459,-1.927192211151123,-0.0,-0.0,-1.0,0.0500846154640995,1.0,0.0
48.59039306640625,10.660662651062012,-1.894090175628662,-0.0,-0.0,-1.0,0.0510308968177054,1.0,0.0
48.1806755065918,11.35791015625,-1.8753085136413576,-0.0,-0.0,-1.0,0.2102617536403838,2.0,0.0
48.19483184814453,11.63267707824707,-1.88773250579834,0.52974625361221,0.8462351215908199,0.0570528331461148,0.1819968081315966,3.0,0.0
48.073341369628906,11.865942001342772,-1.8839678764343264,-0.3878696428182476,-0.2981175008156715,-0.8721714830739787,0.1864509739638259,4.0,0.0
48.10643768310547,11.204462051391602,-1.861256122589111,-0.0,-0.0,-1.0,0.1219430860927566,2.0,0.0
47.9608154296875,10.818818092346191,-1.8307318687438965,-0.0,-0.0,-1.0,0.0780126441032605,2.0,0.0
47.96863555908203,11.02625560760498,-1.8393754959106443,0.195815082379782,0.860171344375435,-0.4709158224438379,0.1149441888394597,3.0,0.0
48.260066986083984,11.966472625732422,-1.6999473571777344,-0.0,-0.0,-1.0,0.1381440831987621,2.0,0.0
48.116058349609375,11.104621887207031,-1.662797927856445,0.8997257314396772,-0.2931575633017951,-0.3233454055097923,0.2123035059640846,4.0,0.0
48.200382232666016,11.577337265014648,-1.6834683418273926,-0.1434972652786815,0.9472905620966744,0.2864421858248298,0.2670602898742838,4.0,0.0
48.17348861694336,11.824237823486328,-1.5487322807312012,-0.0,-0.0,-1.0,0.2053124719489751,2.0,0.0
48.253318786621094,11.649072647094728,-1.579702615737915,0.9560928491595372,0.290361554085101,-0.0397068217726297,0.102067059212152,4.0,0.0
48.19971466064453,11.162766456604004,-1.5490243434906006,0.0628635860075256,-0.2983224291732467,-0.9523927224661308,0.2273277404125976,4.0,0.0
48.17902374267578,11.432975769042969,-1.5610125064849854,-0.3021210845998264,0.5264429194372346,-0.794720518682276,0.2027348025132017,5.0,0.0
48.12659454345703,11.65063190460205,-1.5317294597625732,0.5243292987565281,0.3163626194339122,0.790565291098971,0.1983938849088947,3.0,0.0
49.84503173828125,12.843881607055664,-2.0878522396087646,-0.0,-0.0,-1.0,0.0207437284724161,1.0,0.0
48.42165756225586,10.8251371383667,-1.910780668258667,-0.0,-0.0,-1.0,0.0458646510533219,1.0,0.0
48.2302131652832,12.747027397155762,-1.9143378734588623,-0.0,-0.0,-1.0,0.0767286183927147,1.0,0.0
48.19816207885742,11.874635696411133,-1.8987772464752195,-0.0,-0.0,-1.0,0.1224803669659552,1.0,0.0
48.18428039550781,12.090144157409668,-1.900107145309448,-0.0,-0.0,-1.0,0.1518201864638222,1.0,0.0
48.02093505859375,12.46705436706543,-1.8879153728485107,-0.0,-0.0,-1.0,0.048104049861384,1.0,0.0
48.07438278198242,11.660001754760742,-1.8829643726348877,-0.0,-0.0,-1.0,0.1299312508188971,1.0,0.0
47.875301361083984,11.377622604370115,-1.858513116836548,-0.0,-0.0,-1.0,0.1626297970103522,1.0,0.0
48.078983306884766,12.639847755432127,-1.920248746871948,-0.0,-0.0,-1.0,0.0829803869643427,1.0,0.0
47.962364196777344,12.2101469039917,-1.9084489345550537,-0.0,-0.0,-1.0,0.1005423134587385,1.0,0.0
47.94427490234375,12.43547248840332,-1.906111478805542,-0.0,-0.0,-1.0,0.0454497541429923,1.0,0.0
48.213714599609375,11.713190078735352,-1.5496864318847656,0.3121901054730999,0.6590206732130542,0.6842726724943118,0.2130426221061523,8.0,0.0
48.04897689819336,11.362778663635254,-1.5375480651855469,-0.0,-0.0,-1.0,0.1691813659553065,1.0,0.0
48.14877700805664,11.501032829284668,-1.5455832481384275,-0.6427577062392407,-0.4504896770856681,-0.6196140588376933,0.1465179637194587,6.0,0.0
48.18128204345703,11.158805847167969,-1.6812140941619873,0.8600263204931189,-0.502160742473123,0.0904948439299656,0.1698142407391798,5.0,0.0
48.14484786987305,11.632423400878906,-1.6761577129364014,-0.0,-0.0,-1.0,0.176871332110369,2.0,0.0
48.16106414794922,11.940658569335938,-1.6770427227020264,-0.4730440932704007,0.830897783235717,-0.2929815005012363,0.2447585046648696,5.0,0.0
48.088809967041016,11.330291748046877,-1.6715986728668213,-0.142939570671764,0.6128666110487698,-0.7771504334411506,0.2432884711115357,3.0,0.0
48.14973831176758,11.432469367980955,-1.772071123123169,-0.0,-0.0,-1.0,0.2902215206552482,2.0,0.0
48.152889251708984,11.819868087768556,-1.7692782878875732,0.3539729855587296,0.8804367357370272,0.3154905384625157,0.1766787826233715,5.0,0.0
48.06949615478515,11.062752723693848,-1.7677290439605713,0.906831507303888,0.2431106230014604,-0.3443164857290457,0.1797463822645984,4.0,0.0
47.98918151855469,11.23529815673828,-1.7582299709320068,-0.2478060140238975,-0.7030698487335812,-0.666547048013362,0.2092978813588628,4.0,0.0
48.10099792480469,11.252079010009766,-1.4997425079345703,0.5697037410998673,0.0977186481256249,0.8160200445977509,0.1936556476411325,3.0,0.0
47.79648208618164,11.856966018676758,-1.909373998641968,-0.0,-0.0,-1.0,0.2410911316394439,1.0,0.0
47.86027908325195,12.244876861572266,-1.924159288406372,-0.0,-0.0,-1.0,0.0629605119981065,1.0,0.0
48.01429748535156,11.086068153381348,-1.7074191570281982,0.3336040748868112,-0.5422790108702674,-0.7711302066372964,0.2077439086790555,3.0,0.0
48.010459899902344,11.253286361694336,-1.7120282649993896,-0.7023920215157891,-0.3034972486813649,-0.6438438227969614,0.1930527315932979,3.0,0.0
48.15593719482422,11.53669548034668,-1.7368175983428955,-0.0,-0.0,-1.0,0.1830224303524252,2.0,0.0
48.116153717041016,11.961883544921877,-1.745845079421997,-0.0,-0.0,-1.0,0.2172873387194926,2.0,0.0
47.97311782836914,11.636430740356444,-1.9274275302886963,-0.0,-0.0,-1.0,0.1365552602762327,1.0,0.0
47.8552360534668,11.99499797821045,-1.925374746322632,-0.0,-0.0,-1.0,0.1289291840620807,1.0,0.0
47.88094329833984,12.459931373596191,-1.944981813430786,-0.0,-0.0,-1.0,0.0382446022960118,2.0,0.0
47.99071502685547,12.814386367797852,-1.9713194370269775,-0.0,-0.0,-1.0,0.0399507009145345,1.0,0.0
48.0081787109375,13.047727584838867,-1.9821641445159912,-0.0,-0.0,-1.0,0.0413001073332241,2.0,0.0
48.599327087402344,13.093430519104004,-2.056666612625122,-0.0,-0.0,-1.0,0.0138801172338771,1.0,0.0
47.96444320678711,10.978622436523438,-1.753650188446045,0.513310169329488,-0.8016130842184033,-0.3064786016556314,0.1567957847494442,3.0,0.0
48.10786819458008,11.243350982666016,-1.7781639099121094,0.2235093867794846,0.3350060297941094,-0.9153220821235803,0.2573148494904237,4.0,0.0
49.63707733154297,11.72385311126709,-1.975444793701172,-0.0,-0.0,-1.0,0.014981500109348,1.0,0.0
48.11298751831055,11.727831840515137,-1.792827606201172,-0.0,-0.0,-1.0,0.2445614698886893,1.0,0.0
48.19023513793945,11.537182807922363,-1.7964472770690918,-0.2269179105551614,0.9264841987710072,-0.3002254008189934,0.1989426607734564,3.0,0.0
49.83635711669922,12.060112953186035,-2.010049343109131,-0.0,-0.0,-1.0,0.0064840919664132,1.0,0.0
48.060977935791016,11.907922744750977,-1.791977882385254,0.7994187594615283,-0.5836722760117355,-0.1423247035348104,0.1790047289976658,5.0,0.0
49.85544967651367,12.382707595825195,-2.022800922393799,-0.0,-0.0,-1.0,0.0068667795308354,1.0,0.0
47.92550277709961,10.870649337768556,-1.8037400245666504,-0.0,-0.0,-1.0,0.0828563929593451,2.0,0.0
47.97060012817383,11.24075412750244,-1.8200421333312988,-0.1393232159996509,0.8741079265408279,-0.4653217964398504,0.247162939773472,3.0,0.0
48.230262756347656,11.60891342163086,-1.864241123199463,0.3228169968141767,-0.3769151439611076,-0.8681728864809435,0.1147701282396683,3.0,0.0
48.056583404541016,12.062060356140137,-1.8557562828063965,-0.931382267444428,0.1360859608118025,-0.337650237909,0.1405381584442886,4.0,0.0
48.12276077270508,12.420991897583008,-1.875680446624756,-0.0,-0.0,-1.0,0.0731160551962234,2.0,0.0
48.193572998046875,12.70039176940918,-1.8939309120178225,-0.4963558931715321,0.8656636965464006,-0.0652471592907428,0.0671966388319817,3.0,0.0
49.00031661987305,12.864694595336914,-2.0041942596435547,-0.0,-0.0,-1.0,0.0235384128352358,1.0,0.0
48.9835205078125,13.03283405303955,-2.007812023162842,-0.0,-0.0,-1.0,0.0524643753938913,1.0,0.0
48.36143112182617,11.545105934143066,-1.5295863151550293,-0.0,-0.0,-1.0,0.1171690371454332,1.0,0.0
48.45445251464844,11.969218254089355,-1.541295051574707,0.5315012387479414,0.3077233082978806,-0.7891848951542414,0.1633987037486234,3.0,0.0
48.11295318603515,11.289387702941896,-1.512556791305542,0.5697037410998673,0.0977186481256249,0.8160200445977509,0.2474916698655483,3.0,0.0
48.17854690551758,11.56240463256836,-1.521005392074585,-0.4139763704534814,0.8860031961251408,0.2088585673660464,0.1377174870077962,3.0,0.0
48.33890151977539,11.86422348022461,-1.5404818058013916,-0.0,-0.0,-1.0,0.1107649006303938,1.0,0.0
48.13312530517578,11.40467357635498,-1.5143797397613523,0.9063240589063704,-0.3403866109085175,-0.2504269461573485,0.2387679397887445,5.0,0.0
48.23113632202149,11.65626335144043,-1.458172082901001,0.998513048475206,-0.0455948659105009,-0.0298797628396544,0.2346524098068912,3.0,0.0
48.15789794921875,11.395106315612791,-1.450402021408081,-0.0854229466508122,0.2330472376576055,-0.9687063049271702,0.2550317047152276,5.0,0.0
48.088104248046875,11.179566383361816,-1.6638524532318115,-0.0,-0.0,-1.0,0.1747645502136797,2.0,0.0
48.20779800415039,11.63413906097412,-1.6829173564910889,-0.5981027900860456,0.7631802712078177,-0.2445995219342207,0.1839319777552654,4.0,0.0
48.224761962890625,11.34090518951416,-1.682159662246704,-0.0,-0.0,-1.0,0.2059429083210335,1.0,0.0
48.30377197265625,11.998627662658691,-1.5635781288146973,0.9220889848934908,0.2214522942783182,-0.3173496262751235,0.1468268839882672,3.0,0.0
48.18741989135742,11.703022956848145,-1.543560028076172,0.7972633700166448,0.5752859929538496,0.1828035698251138,0.1388862249260931,6.0,0.0
48.17129898071289,11.379262924194336,-1.5355558395385742,-6.587637848768238e-06,0.33264484152204,-0.9430521774352572,0.1984233287143788,6.0,0.0
48.184173583984375,11.503644943237305,-1.5729553699493408,-0.1772022619694097,-0.0278021274508151,-0.9837816831300192,0.182414358062178,5.0,0.0
48.20664978027344,11.178004264831545,-1.5752747058868408,0.9983993554753802,-0.0376516303228591,-0.042202863888315,0.2332946834448124,5.0,0.0
48.22768020629883,11.873126983642578,-1.5788133144378662,-0.0,-0.0,-1.0,0.1718768139185617,1.0,0.0
48.22918701171875,11.744706153869627,-1.5787584781646729,-0.7510106448061737,0.2866763430381919,-0.5948106301421185,0.219015886628706,8.0,0.0
49.454856872558594,12.265384674072266,-2.0145792961120605,-0.0,-0.0,-1.0,0.0069906093030952,1.0,0.0
48.34527587890625,10.749658584594728,-1.721473217010498,-0.0,-0.0,-1.0,0.0389274930663167,1.0,0.0
48.17120361328125,11.63436222076416,-1.2831106185913086,-0.0,-0.0,-1.0,0.1856035331157943,1.0,0.0
48.17649459838867,11.916552543640137,-1.2972888946533203,-0.0,-0.0,-1.0,0.110557032427415,1.0,0.0
47.73822021484375,12.03537654876709,-1.9442873001098633,-0.0,-0.0,-1.0,0.1324282828561348,1.0,0.0
47.815040588378906,12.414491653442385,-1.9560070037841797,-0.0,-0.0,-1.0,0.0365517965410958,1.0,0.0
47.8222541809082,12.791637420654297,-1.955789566040039,-0.0,-0.0,-1.0,0.0219974009221127,2.0,0.0
47.942142486572266,13.080836296081545,-1.975377082824707,-0.0,-0.0,-1.0,0.0418710914809144,1.0,0.0
49.35551071166992,12.479978561401367,-2.050207138061523,-0.0,-0.0,-1.0,0.0050515104097566,1.0,0.0
49.50543594360352,12.827582359313965,-2.075021743774414,0.5438616719438095,-0.1376709858725886,-0.8278050383027113,0.0240114562775557,3.0,0.0
49.619049072265625,13.10518741607666,-2.0938682556152344,-0.0,-0.0,-1.0,0.0196203669087235,2.0,0.0
47.872032165527344,10.83517074584961,-1.7946624755859375,-0.0,-0.0,-1.0,0.0771178654739159,2.0,0.0
47.87507247924805,11.092994689941406,-1.7925987243652344,-0.0,-0.0,-1.0,0.0857898740851556,1.0,0.0
48.15073776245117,11.441774368286133,-1.8394508361816408,-0.0,-0.0,-1.0,0.259572160108912,2.0,0.0
48.15666961669922,11.700897216796877,-1.8381710052490232,-0.9818982592563014,-0.0550450745427278,0.1812342358331628,0.1525772861941886,6.0,0.0
48.04569625854492,11.874114990234377,-1.8164491653442385,-0.0,-0.0,-1.0,0.1583245755315792,2.0,0.0
48.1131706237793,12.21914291381836,-1.825899124145508,-0.0,-0.0,-1.0,0.0974233902956293,1.0,0.0
47.75932312011719,11.940751075744627,-1.9508180618286133,-0.0,-0.0,-1.0,0.1689410075858735,1.0,0.0
47.80791091918945,12.182003021240234,-1.9454755783081057,-0.0,-0.0,-1.0,0.0613085583895163,1.0,0.0
47.87943649291992,12.51148509979248,-1.9393959045410156,-0.0,-0.0,-1.0,0.0360690882332287,1.0,0.0
48.69229507446289,13.114375114440918,-2.0584754943847656,-0.0,-0.0,-1.0,0.0172495271093792,1.0,0.0
48.02157974243164,12.767340660095217,-1.9513025283813477,-0.0,-0.0,-1.0,0.0411138977368609,1.0,0.0
47.83837127685547,12.888068199157717,-2.0595827102661133,-0.0,-0.0,-1.0,0.0312038548325675,1.0,0.0
48.03432083129883,13.13064670562744,-2.07699203491211,-0.0,-0.0,-1.0,0.0410213234369425,2.0,0.0
48.66706085205078,10.690796852111816,-1.7407989501953125,-0.0,-0.0,-1.0,0.0455506687429912,1.0,0.0
48.12602615356445,10.970109939575195,-1.615949630737305,-0.0,-0.0,-1.0,0.0974598527840892,1.0,0.0
48.17273712158203,11.331817626953123,-1.6103763580322266,-0.0,-0.0,-1.0,0.1591915043319897,1.0,0.0
47.73200225830078,11.250463485717772,-1.7910041809082031,-0.0,-0.0,-1.0,0.0989378879384263,1.0,0.0
47.75104141235352,10.650362014770508,-1.860121250152588,-0.0,-0.0,-1.0,0.0708638665607028,1.0,0.0
49.123138427734375,10.711296081542969,-1.722158432006836,-0.0,-0.0,-1.0,0.042719975744711,1.0,0.0
49.71941375732422,11.240093231201172,-1.896754264831543,-0.0,-0.0,-1.0,0.0155475166251461,1.0,0.0
49.11751556396485,10.88563346862793,-1.7536554336547852,-0.0,-0.0,-1.0,0.0407463103056157,1.0,0.0
49.73109817504883,12.32315158843994,-2.1022119522094727,-0.0,-0.0,-1.0,0.0078386361349404,1.0,0.0
49.44725799560547,12.503177642822266,-2.1006898880004883,-0.0,-0.0,-1.0,0.005859287579817,1.0,0.0
49.12092971801758,12.658141136169434,-2.089254379272461,-0.0,-0.0,-1.0,0.0105413543800639,1.0,0.0
49.10158157348633,13.01250171661377,-2.155461311340332,-0.0,-0.0,-1.0,0.0534037680840055,1.0,0.0
48.38343048095703,12.592510223388672,-1.9836196899414065,-0.0,-0.0,-1.0,0.0938196356571792,1.0,0.0
48.11736679077149,11.280004501342772,-1.6992225646972656,0.1455428201843475,-0.0444976617680526,-0.9883507705212572,0.2338671730962143,4.0,0.0
47.99064636230469,11.58588695526123,-1.7408685684204102,-0.0,-0.0,-1.0,0.2460367975689145,1.0,0.0
48.12750625610352,11.603559494018556,-1.4147558212280271,-0.0,-0.0,-1.0,0.2015038365449326,1.0,0.0
48.12703323364258,11.273119926452637,-1.4349470138549805,-0.0,-0.0,-1.0,0.1248523453583623,2.0,0.0
49.640106201171875,10.653192520141602,-1.6847600936889648,-0.0,-0.0,-1.0,0.023444774996932,1.0,0.0
48.22269058227539,11.374905586242676,-1.4538326263427734,0.7012337916263714,-0.7121680939061837,0.0329814418019563,0.2075679048496339,4.0,0.0
48.22612762451172,11.755620002746582,-1.4525413513183594,-0.0,-0.0,-1.0,0.2637491990277345,2.0,0.0
48.28184127807617,11.221455574035645,-1.4206609725952148,0.455907506497487,-0.888058724827204,-0.0591611931719111,0.1398047928432884,3.0,0.0
48.21442413330078,11.572576522827148,-1.4930438995361328,-0.4905730364559555,0.7534233622318192,0.4378256880833795,0.1190179910518041,4.0,0.0
48.24116134643555,11.762388229370115,-1.5400991439819336,0.2728737626907545,0.8761248358151307,-0.3974231771083568,0.1456743656061811,11.0,0.0
48.14078903198242,11.372636795043944,-1.4379510879516602,-0.2341738928876327,-0.328688458037643,-0.9149461653248722,0.2273750329657773,3.0,0.0
48.14936447143555,11.36172866821289,-1.5528464317321775,0.7630287645096586,0.5474444696349043,-0.343644667057445,0.2396920306810621,5.0,0.0
48.171295166015625,11.74030876159668,-1.602067470550537,0.6027971181153217,0.7788927191845773,-0.173094674652683,0.1984872787845567,4.0,0.0
47.7362060546875,10.694067001342772,-1.8881707191467283,-0.0,-0.0,-1.0,0.064865538239873,2.0,0.0
0.0,0.0,0.0,0.0,0.0,0.0,0.0,0.0,0.0
0.0,0.0,0.0,0.0,0.0,0.0,0.0,0.0,0.0
0.0,0.0,0.0,0.0,0.0,0.0,0.0,0.0,0.0
0.0,0.0,0.0,0.0,0.0,0.0,0.0,0.0,0.0
0.0,0.0,0.0,0.0,0.0,0.0,0.0,0.0,0.0
0.0,0.0,0.0,0.0,0.0,0.0,0.0,0.0,0.0
0.0,0.0,0.0,0.0,0.0,0.0,0.0,0.0,0.0
0.0,0.0,0.0,0.0,0.0,0.0,0.0,0.0,0.0
0.0,0.0,0.0,0.0,0.0,0.0,0.0,0.0,0.0
0.0,0.0,0.0,0.0,0.0,0.0,0.0,0.0,0.0
0.0,0.0,0.0,0.0,0.0,0.0,0.0,0.0,0.0
0.0,0.0,0.0,0.0,0.0,0.0,0.0,0.0,0.0
0.0,0.0,0.0,0.0,0.0,0.0,0.0,0.0,0.0
0.0,0.0,0.0,0.0,0.0,0.0,0.0,0.0,0.0
0.0,0.0,0.0,0.0,0.0,0.0,0.0,0.0,0.0
0.0,0.0,0.0,0.0,0.0,0.0,0.0,0.0,0.0
0.0,0.0,0.0,0.0,0.0,0.0,0.0,0.0,0.0
0.0,0.0,0.0,0.0,0.0,0.0,0.0,0.0,0.0
0.0,0.0,0.0,0.0,0.0,0.0,0.0,0.0,0.0
0.0,0.0,0.0,0.0,0.0,0.0,0.0,0.0,0.0
0.0,0.0,0.0,0.0,0.0,0.0,0.0,0.0,0.0
0.0,0.0,0.0,0.0,0.0,0.0,0.0,0.0,0.0
0.0,0.0,0.0,0.0,0.0,0.0,0.0,0.0,0.0
0.0,0.0,0.0,0.0,0.0,0.0,0.0,0.0,0.0
0.0,0.0,0.0,0.0,0.0,0.0,0.0,0.0,0.0
0.0,0.0,0.0,0.0,0.0,0.0,0.0,0.0,0.0
0.0,0.0,0.0,0.0,0.0,0.0,0.0,0.0,0.0
0.0,0.0,0.0,0.0,0.0,0.0,0.0,0.0,0.0
0.0,0.0,0.0,0.0,0.0,0.0,0.0,0.0,0.0
0.0,0.0,0.0,0.0,0.0,0.0,0.0,0.0,0.0
0.0,0.0,0.0,0.0,0.0,0.0,0.0,0.0,0.0
0.0,0.0,0.0,0.0,0.0,0.0,0.0,0.0,0.0
0.0,0.0,0.0,0.0,0.0,0.0,0.0,0.0,0.0
0.0,0.0,0.0,0.0,0.0,0.0,0.0,0.0,0.0
0.0,0.0,0.0,0.0,0.0,0.0,0.0,0.0,0.0
0.0,0.0,0.0,0.0,0.0,0.0,0.0,0.0,0.0
0.0,0.0,0.0,0.0,0.0,0.0,0.0,0.0,0.0
0.0,0.0,0.0,0.0,0.0,0.0,0.0,0.0,0.0
0.0,0.0,0.0,0.0,0.0,0.0,0.0,0.0,0.0
0.0,0.0,0.0,0.0,0.0,0.0,0.0,0.0,0.0
0.0,0.0,0.0,0.0,0.0,0.0,0.0,0.0,0.0
0.0,0.0,0.0,0.0,0.0,0.0,0.0,0.0,0.0
0.0,0.0,0.0,0.0,0.0,0.0,0.0,0.0,0.0
0.0,0.0,0.0,0.0,0.0,0.0,0.0,0.0,0.0
0.0,0.0,0.0,0.0,0.0,0.0,0.0,0.0,0.0
0.0,0.0,0.0,0.0,0.0,0.0,0.0,0.0,0.0
0.0,0.0,0.0,0.0,0.0,0.0,0.0,0.0,0.0
0.0,0.0,0.0,0.0,0.0,0.0,0.0,0.0,0.0
0.0,0.0,0.0,0.0,0.0,0.0,0.0,0.0,0.0
0.0,0.0,0.0,0.0,0.0,0.0,0.0,0.0,0.0
0.0,0.0,0.0,0.0,0.0,0.0,0.0,0.0,0.0
0.0,0.0,0.0,0.0,0.0,0.0,0.0,0.0,0.0
0.0,0.0,0.0,0.0,0.0,0.0,0.0,0.0,0.0
0.0,0.0,0.0,0.0,0.0,0.0,0.0,0.0,0.0
0.0,0.0,0.0,0.0,0.0,0.0,0.0,0.0,0.0
0.0,0.0,0.0,0.0,0.0,0.0,0.0,0.0,0.0
0.0,0.0,0.0,0.0,0.0,0.0,0.0,0.0,0.0
0.0,0.0,0.0,0.0,0.0,0.0,0.0,0.0,0.0
0.0,0.0,0.0,0.0,0.0,0.0,0.0,0.0,0.0
0.0,0.0,0.0,0.0,0.0,0.0,0.0,0.0,0.0
0.0,0.0,0.0,0.0,0.0,0.0,0.0,0.0,0.0
0.0,0.0,0.0,0.0,0.0,0.0,0.0,0.0,0.0
0.0,0.0,0.0,0.0,0.0,0.0,0.0,0.0,0.0
0.0,0.0,0.0,0.0,0.0,0.0,0.0,0.0,0.0
0.0,0.0,0.0,0.0,0.0,0.0,0.0,0.0,0.0
0.0,0.0,0.0,0.0,0.0,0.0,0.0,0.0,0.0
0.0,0.0,0.0,0.0,0.0,0.0,0.0,0.0,0.0
