x,y,z,nx,ny,nz,curvature,density,label
12.875137329101562,-14.0847806930542,1.020155906677246,-0.0,-0.0,-1.0,0.1753922833850186,2.0,2.0
14.866909980773926,-14.153271675109863,1.1733882427215576,-0.0,-0.0,-1.0,0.1428277803481181,2.0,2.0
14.704341888427734,-13.680458068847656,0.739006757736206,-0.0,-0.0,-1.0,0.1157937645024732,1.0,1.0
14.937073707580566,-14.06485080718994,1.3562142848968506,-0.8150874977574253,-0.3526576069950323,-0.4596357070855968,0.2103296684399212,3.0,2.0
14.591745376586914,-13.948463439941406,1.31526780128479,-0.0,-0.0,-1.0,0.1167636301542741,2.0,2.0
14.799488067626951,-12.598726272583008,0.6961960792541504,-0.6109814482726567,-0.7915073462019716,0.0147577361054826,0.2188839996625454,3.0,1.0
14.271158218383787,-12.253615379333496,0.6039776802062988,-0.0,-0.0,-1.0,0.0242633317401639,1.0,1.0
14.288188934326172,-13.03976821899414,0.6934683322906494,-0.0,-0.0,-1.0,0.0707641194930139,2.0,1.0
14.431012153625488,-13.134556770324709,0.7188684940338135,-0.0,-0.0,-1.0,0.0679716704094364,2.0,1.0
14.182147979736328,-13.040644645690918,0.6824145317077637,-0.0,-0.0,-1.0,0.0701156250649967,1.0,1.0
15.15047836303711,-13.95782470703125,0.729844331741333,-0.0,-0.0,-1.0,0.1522414552125872,1.0,1.0
14.801928520202637,-13.663930892944336,0.6554551124572754,-0.0,-0.0,-1.0,0.0963881339536808,2.0,1.0
14.722986221313477,-12.547228813171388,1.069730520248413,-0.6497670934750781,-0.5400267822123669,-0.534952146205907,0.1764131516264765,5.0,2.0
14.556760787963867,-14.103375434875488,1.208492875099182,-0.0,-0.0,-1.0,0.2344990020964615,2.0,2.0
14.98491382598877,-13.511670112609863,0.7239747047424316,-0.0,-0.0,-1.0,0.2019121331894747,1.0,1.0
13.617043495178224,-12.016939163208008,0.9693286418914796,-0.0,-0.0,-1.0,0.2013514180044974,1.0,1.0
14.892256736755373,-13.559711456298828,0.7192330360412598,-0.0,-0.0,-1.0,0.1462991161032412,2.0,1.0
14.774879455566406,-13.570508003234863,0.7069709300994873,-0.0,-0.0,-1.0,0.080662164662851,1.0,1.0
14.733757972717283,-12.433452606201172,1.1122667789459229,-0.0,-0.0,-1.0,0.1368353334064384,1.0,2.0
14.976224899291992,-14.01168441772461,1.2838521003723145,-0.0,-0.0,-1.0,0.177214517118711,1.0,2.0
14.52456283569336,-14.07670783996582,1.2460758686065674,0.8414641792997065,-0.4022293474624244,0.3607625077463331,0.1840924392219252,3.0,2.0
14.328041076660156,-14.341588973999023,1.250312089920044,-0.0,-0.0,-1.0,0.096328592792801,1.0,2.0
14.764166831970217,-12.642786026000977,0.6586158275604248,-0.0,-0.0,-1.0,0.2627473209806393,1.0,1.0
14.73074436187744,-12.59411334991455,0.6483876705169678,-0.0,-0.0,-1.0,0.2396693395239416,2.0,1.0
14.46491241455078,-13.164908409118652,0.6941492557525635,-0.0,-0.0,-1.0,0.0680580993722417,1.0,1.0
14.159363746643066,-12.220924377441406,0.534865140914917,-0.0,-0.0,-1.0,0.0610016420378242,1.0,1.0
14.713979721069336,-14.141828536987305,0.8501205444335938,-0.0,-0.0,-1.0,0.1759416318619018,1.0,1.0
14.606781005859377,-13.906278610229492,0.8071637153625488,0.776615978692906,-0.5105207452074357,0.3691018698837819,0.1753722511776367,3.0,1.0
14.291879653930664,-13.239913940429688,0.6839287281036377,-0.0,-0.0,-1.0,0.081823412625213,1.0,1.0
14.006516456604004,-12.89333152770996,0.6058480739593506,-0.0,-0.0,-1.0,0.0710235525434187,1.0,1.0
14.50710105895996,-14.328243255615234,0.8495404720306396,-0.0,-0.0,-1.0,0.1214605969335089,1.0,1.0
12.71088981628418,-14.303677558898926,1.1374878883361816,-0.0,-0.0,-1.0,0.149900860118643,2.0,2.0
14.747297286987305,-12.540078163146973,0.890535831451416,0.1644491424342791,-0.5242466506394475,-0.8355369105227792,0.2241186886753251,8.0,1.0
15.180337905883787,-14.000889778137209,0.6888926029205322,-0.0,-0.0,-1.0,0.1691422811572298,1.0,1.0
15.048633575439451,-13.896920204162598,0.6543636322021484,-0.0,-0.0,-1.0,0.1603237955310083,1.0,1.0
13.503144264221191,-12.042633056640623,0.6795623302459717,-0.0,-0.0,-1.0,0.1515543273363934,1.0,1.0
13.155385971069336,-11.97450065612793,0.6282382011413574,-0.0,-0.0,-1.0,0.0981566542785708,2.0,1.0
13.128779411315918,-13.441275596618652,0.794548749923706,0.3356012162819987,0.5623093713491395,-0.7557645099652267,0.2134205515181426,4.0,1.0
14.542869567871094,-14.04289722442627,1.0462431907653809,0.9032517277639256,0.4274891025781082,-0.0372744345154537,0.1695596248955419,5.0,2.0
15.096210479736328,-11.932881355285645,0.7301583290100098,-0.0,-0.0,-1.0,0.1240574096531435,1.0,1.0
15.107190132141112,-13.743746757507324,0.583524227142334,-0.0,-0.0,-1.0,0.1190125421223395,1.0,1.0
15.061483383178713,-13.969483375549316,0.6141784191131592,-0.0,-0.0,-1.0,0.1777946705436927,1.0,1.0
13.925166130065918,-12.203679084777832,0.6236531734466553,-0.0070601496118554,-0.1743858587498992,-0.9846520840152214,0.0663412539480303,6.0,1.0
13.58599090576172,-13.044512748718262,0.6932933330535889,-0.0,-0.0,-1.0,0.1590503915578597,1.0,1.0
13.67568016052246,-12.662951469421388,0.6540722846984863,-0.0,-0.0,-1.0,0.074525866535154,1.0,1.0
13.654413223266602,-12.311626434326172,0.6031801700592041,-0.0,-0.0,-1.0,0.0779456226499543,1.0,1.0
14.766668319702148,-12.537627220153809,0.7779533863067627,-0.0,-0.0,-1.0,0.2603119175585584,2.0,1.0
14.907427787780762,-14.242822647094728,1.033914566040039,-0.0,-0.0,-1.0,0.2001348680547214,2.0,2.0
14.753891944885254,-14.15483283996582,1.0012738704681396,-0.0,-0.0,-1.0,0.2407824955835823,2.0,2.0
14.682109832763672,-12.644651412963867,0.7826259136199951,0.0398975191791457,-0.1037881293084725,-0.9937988791390328,0.2614104531588202,3.0,1.0
14.585243225097656,-14.171956062316896,0.9805526733398438,0.5551956903580622,-0.3082166088820868,-0.7725026002655666,0.2650207207124682,4.0,1.0
13.780251502990724,-13.55099391937256,0.7872138023376465,-0.0,-0.0,-1.0,0.1814516017872648,1.0,1.0
12.812017440795898,-14.272478103637695,1.1842961311340332,-0.6696634651893913,0.6216330697120267,-0.4063535037758867,0.1962782036472331,3.0,2.0
15.129019737243652,-13.426549911499023,0.6849188804626465,-0.0,-0.0,-1.0,0.1088315690650962,1.0,1.0
14.787107467651367,-13.643377304077148,0.6674692630767822,-0.0,-0.0,-1.0,0.0965198590008691,2.0,1.0
14.52147102355957,-14.227842330932615,0.7200508117675781,-0.0,-0.0,-1.0,0.1216400701229203,1.0,1.0
14.63986110687256,-13.849404335021973,0.6778905391693115,-0.0,-0.0,-1.0,0.2398768034670191,1.0,1.0
13.31959629058838,-11.933323860168455,0.606776237487793,-0.0161496680090161,0.4935018099847696,-0.8695948204566049,0.1129010593536467,3.0,1.0
12.90261459350586,-11.979928970336914,0.5550916194915771,-0.0,-0.0,-1.0,0.1395888227074137,1.0,1.0
14.921165466308594,-12.446771621704102,0.8961858749389648,-0.0,-0.0,-1.0,0.2018255585633538,1.0,1.0
14.921274185180664,-14.114998817443848,0.9551873207092284,-0.0,-0.0,-1.0,0.1774504334927967,2.0,1.0
14.963702201843262,-13.517531394958496,1.059816837310791,-0.0,-0.0,-1.0,0.1491679126115459,1.0,2.0
14.787497520446776,-12.470213890075684,0.8823738098144531,-0.7850405316805456,-0.3006407205907622,0.5415962709818022,0.262900792127767,5.0,1.0
14.663894653320312,-14.159658432006836,0.9231812953948976,-0.0,-0.0,-1.0,0.1491784272230891,1.0,1.0
14.48893928527832,-13.958908081054688,1.055891513824463,-0.0,-0.0,-1.0,0.1946631623552018,1.0,2.0
13.091219902038574,-13.442841529846191,0.781620979309082,-0.0,-0.0,-1.0,0.193767351108535,2.0,1.0
13.178933143615724,-12.814467430114746,0.7101106643676758,-0.1824844040888215,-0.2475423041304751,-0.9515367832775162,0.0521248110528777,4.0,1.0
12.856283187866213,-14.034208297729492,0.8221371173858643,-0.0,-0.0,-1.0,0.1572695493935553,1.0,1.0
14.610891342163086,-13.792537689208984,1.4311777353286743,0.6793052510021557,-0.7335378557370681,-0.0216006981730383,0.1129654863261844,3.0,2.0
15.114259719848633,-13.692753791809082,0.683220624923706,-0.0,-0.0,-1.0,0.1786311073372892,1.0,1.0
14.956060409545898,-12.379920959472656,0.8166067600250244,-0.0,-0.0,-1.0,0.2095513718117386,1.0,1.0
14.856593132019045,-14.196795463562012,0.7085723876953125,-0.0,-0.0,-1.0,0.1141042437587998,2.0,1.0
14.768439292907717,-13.76930046081543,0.6229977607727051,-0.0,-0.0,-1.0,0.1696479091047094,1.0,1.0
14.733054161071776,-12.735671997070312,0.8293745517730713,-0.3360634190053493,-0.432155709850509,-0.8368409770380737,0.1567515927209923,3.0,1.0
14.786155700683594,-12.533618927001951,0.8096637725830078,0.1599824073093855,-0.9865825346261652,-0.0325658060257357,0.2163126863066304,5.0,1.0
13.78386116027832,-13.05016803741455,0.6992912292480469,-0.0,-0.0,-1.0,0.1213550030597394,2.0,1.0
13.864127159118652,-12.206210136413574,0.6003251075744629,-0.0,-0.0,-1.0,0.0802498211989046,1.0,1.0
13.897449493408203,-11.913805961608888,0.5655481815338135,-0.0,-0.0,-1.0,0.0975804546627571,1.0,1.0
13.685211181640623,-13.644556999206545,0.7560274600982666,-0.942178268324781,0.1597228621120415,-0.2945992498552127,0.2270300586107601,4.0,1.0
13.709178924560549,-13.01145076751709,0.6802432537078857,-0.2368848455175086,-0.2451773691866517,-0.9400923505713992,0.1760501010341174,3.0,1.0
13.64820957183838,-12.609477996826172,0.61586594581604,-0.0,-0.0,-1.0,0.0394540523838954,1.0,1.0
13.628108978271484,-12.412936210632324,0.5858490467071533,-0.0,-0.0,-1.0,0.0496079213867145,1.0,1.0
14.677881240844728,-14.156042098999023,1.0112757682800293,-0.0,-0.0,-1.0,0.1589635061285224,1.0,2.0
14.488877296447754,-14.189477920532228,0.979231595993042,-0.0,-0.0,-1.0,0.181406478038312,2.0,1.0
14.01714324951172,-14.335594177246094,0.9049606323242188,-0.0,-0.0,-1.0,0.0889565064735953,1.0,1.0
13.60092830657959,-12.08741283416748,0.9592854976654052,-0.0,-0.0,-1.0,0.2445507615243208,2.0,1.0
12.819127082824709,-14.331087112426758,1.0536859035491943,-0.0,-0.0,-1.0,0.1953653229279337,1.0,2.0
12.77130889892578,-14.122374534606934,1.0268898010253906,0.2831368347149822,-0.3429448612709296,-0.8956686636002418,0.2703869724542359,4.0,2.0
15.069465637207031,-14.323551177978516,0.6850192546844482,-0.0,-0.0,-1.0,0.1541977427044065,2.0,1.0
14.988616943359377,-14.048336029052734,0.6180157661437988,-0.0,-0.0,-1.0,0.2496994874822853,1.0,1.0
14.78191375732422,-12.58582878112793,0.6603424549102783,-0.0,-0.0,-1.0,0.2025093096404366,2.0,1.0
14.888872146606444,-12.311601638793944,0.6351540088653564,-0.0,-0.0,-1.0,0.18108068373935,1.0,1.0
14.908282279968262,-12.000789642333984,0.5853545665740967,-0.0,-0.0,-1.0,0.074535530743335,1.0,1.0
14.75642204284668,-14.329150199890137,0.7707686424255371,-0.0,-0.0,-1.0,0.2087882927927731,2.0,1.0
14.706348419189451,-14.074029922485352,0.8769562244415283,-0.0,-0.0,-1.0,0.2390943175602195,1.0,1.0
14.53850555419922,-13.007757186889648,0.6789455413818359,-0.0,-0.0,-1.0,0.0721749985974723,1.0,1.0
14.571843147277832,-12.785179138183594,0.6502649784088135,-0.0,-0.0,-1.0,0.149846248338616,2.0,1.0
14.424805641174316,-12.548480987548828,0.5817158222198486,-0.0,-0.0,-1.0,0.1407325093817233,1.0,1.0
14.349477767944336,-14.297367095947266,0.828350305557251,-0.0,-0.0,-1.0,0.1683471750806478,2.0,1.0
14.37446403503418,-14.132308959960938,0.8113517761230469,-0.0,-0.0,-1.0,0.243378122892772,2.0,1.0
14.210945129394531,-13.528926849365234,0.6884663105010986,-0.0,-0.0,-1.0,0.0796157317273863,2.0,1.0
14.246047973632812,-13.169303894042969,0.6420176029205322,-0.0,-0.0,-1.0,0.0834273801300233,1.0,1.0
13.252387046813965,-11.950607299804688,0.6530873775482178,-0.0,-0.0,-1.0,0.0992831740804257,1.0,1.0
13.13939094543457,-13.382734298706056,0.809403657913208,-0.3881008048154875,0.0727960587376021,-0.9187374484224768,0.2190557077797315,5.0,1.0
12.827888488769531,-12.872692108154297,0.6887760162353516,-0.0,-0.0,-1.0,0.0798218516631944,2.0,1.0
12.870380401611328,-12.160093307495115,0.609130859375,-0.0,-0.0,-1.0,0.1471409884574747,1.0,1.0
14.838722229003906,-12.543514251708984,1.0177311897277832,-0.0,-0.0,-1.0,0.1564136389799166,2.0,2.0
14.78213882446289,-12.385370254516602,0.9855053424835204,-0.0,-0.0,-1.0,0.1754605030942805,1.0,1.0
14.668102264404297,-14.350762367248535,1.0642013549804688,-0.0,-0.0,-1.0,0.1758953459710516,2.0,2.0
14.70467758178711,-14.045560836791992,1.034149169921875,-0.0,-0.0,-1.0,0.2443144515638771,1.0,2.0
14.679426193237305,-12.499662399291992,0.9837517738342284,-0.2783959012737315,-0.4601811344227401,-0.8430474753389553,0.1776734991836669,7.0,1.0
13.608196258544922,-14.2349853515625,0.998281478881836,-0.0,-0.0,-1.0,0.1074028757895627,1.0,1.0
13.035693168640137,-14.228954315185549,0.8812198638916016,-0.0,-0.0,-1.0,0.1191579264467299,1.0,1.0
12.788850784301758,-14.213212966918944,1.0128812789916992,-0.5479537732894524,0.7690517748739406,-0.3290988147974599,0.187281716331646,4.0,2.0
14.931510925292969,-14.090686798095703,0.829634428024292,-0.0,-0.0,-1.0,0.2354561167015499,1.0,1.0
14.963869094848633,-13.569497108459473,0.7510807514190674,-0.0,-0.0,-1.0,0.2589522918813798,1.0,1.0
15.014205932617188,-13.32248878479004,0.7202863693237305,-0.0,-0.0,-1.0,0.0930074040676477,2.0,1.0
14.778353691101074,-12.739717483520508,0.8829779624938965,-0.995891380363164,0.0596181433241921,0.068161833198115,0.0987732198409998,3.0,1.0
14.78476905822754,-12.523054122924805,0.8489243984222412,-0.7515290107965232,-0.495046814332155,0.4360421969841728,0.2276632473129438,6.0,1.0
14.827751159667969,-12.299501419067385,0.8209848403930664,-0.0,-0.0,-1.0,0.2000380913350472,1.0,1.0
14.65003776550293,-14.150217056274414,0.7649636268615723,-0.0,-0.0,-1.0,0.1922026714287046,2.0,1.0
14.623369216918944,-13.693178176879885,0.6850259304046631,-0.0,-0.0,-1.0,0.1173744217107652,1.0,1.0
14.429704666137695,-14.290453910827637,0.7276632785797119,-0.0,-0.0,-1.0,0.1442106647220342,1.0,1.0
13.91885471343994,-12.235991477966309,0.6191542148590088,-0.4953490738187103,0.105244628229603,-0.862295113807192,0.0663412539480303,4.0,1.0
13.747725486755373,-13.362594604492188,0.7472860813140869,-0.0,-0.0,-1.0,0.1027759599887433,2.0,1.0
13.76491355895996,-13.066551208496094,0.70977783203125,-0.0,-0.0,-1.0,0.1267761847667384,2.0,1.0
13.801692008972168,-12.703781127929688,0.6652073860168457,-0.0,-0.0,-1.0,0.105315382476724,1.0,1.0
13.77045440673828,-12.35986328125,0.6062717437744141,-0.0,-0.0,-1.0,0.0588901978887886,2.0,1.0
12.830730438232422,-12.3562593460083,0.7826681137084961,-0.0,-0.0,-1.0,0.1304655268002186,1.0,1.0
14.90994930267334,-14.177642822265623,1.1271865367889404,-0.0,-0.0,-1.0,0.208376817079129,1.0,2.0
14.702733039855955,-12.471847534179688,1.152474880218506,-0.0,-0.0,-1.0,0.1479903660002885,1.0,2.0
14.605449676513672,-14.152214050292969,1.0530807971954346,-0.0,-0.0,-1.0,0.2657158403940333,1.0,2.0
14.671210289001465,-12.568252563476562,1.1600463390350342,-0.0,-0.0,-1.0,0.2176281939276174,1.0,2.0
14.285208702087402,-14.238417625427246,1.142378807067871,0.7395389158152234,0.6582179059250608,0.1408239337416491,0.1896149634333603,3.0,2.0
14.226886749267578,-13.89445686340332,0.9306282997131348,-0.0,-0.0,-1.0,0.1591067889708684,1.0,1.0
13.602134704589844,-12.058387756347656,0.8928859233856201,-0.970200672316372,0.2302733785280659,0.0753977889472229,0.2005045786079376,6.0,1.0
13.293584823608398,-14.069923400878906,1.0688273906707764,-0.0,-0.0,-1.0,0.2142267849610782,2.0,2.0
12.87645149230957,-14.048099517822266,0.9792032241821288,-0.0,-0.0,-1.0,0.1626153632646552,1.0,1.0
12.781709671020508,-14.22345733642578,0.9760544300079346,-0.4814657047093743,0.8640500965422739,-0.1469972987982867,0.1861325164444448,3.0,1.0
12.710158348083496,-14.06171989440918,0.9454238414764404,-0.0,-0.0,-1.0,0.1810142251190931,2.0,1.0
14.998529434204102,-13.946128845214844,1.4011348485946655,-0.0,-0.0,-1.0,0.2211771169574991,1.0,2.0
14.714240074157717,-14.342390060424805,1.3905341625213623,-0.0,-0.0,-1.0,0.129124246513541,2.0,2.0
14.55523681640625,-13.906633377075195,1.3087607622146606,0.7845167712842387,-0.1978039776757467,0.5877133842183675,0.0922190409044218,6.0,2.0
15.152795791625977,-12.052112579345703,0.8145520687103271,-0.0,-0.0,-1.0,0.1422458345201742,1.0,1.0
14.817408561706545,-12.45348834991455,0.7912626266479492,-0.0,-0.0,-1.0,0.1821298967649645,2.0,1.0
14.682442665100098,-12.619064331054688,0.7799670696258545,0.0398975191791457,-0.1037881293084725,-0.9937988791390328,0.2172566408381204,3.0,1.0
14.217917442321776,-13.116521835327148,0.7193634510040283,-0.0,-0.0,-1.0,0.0909257917531163,1.0,1.0
14.03104019165039,-12.743144989013672,0.6169333457946777,-0.0,-0.0,-1.0,0.0387654195447216,1.0,1.0
14.071625709533691,-12.417728424072266,0.5829200744628906,-0.0,-0.0,-1.0,0.065426186249444,2.0,1.0
14.032319068908691,-13.946271896362305,0.7623176574707031,-0.0,-0.0,-1.0,0.0842687517797159,1.0,1.0
13.99921989440918,-13.578180313110352,0.7121608257293701,-0.0,-0.0,-1.0,0.0871754886881572,1.0,1.0
13.965716361999512,-13.240068435668944,0.6622841358184814,-0.0,-0.0,-1.0,0.0349908222146616,1.0,1.0
13.927173614501951,-12.93355941772461,0.6127557754516602,-0.0,-0.0,-1.0,0.0915533754078255,1.0,1.0
13.381437301635742,-11.975975036621094,0.6768381595611572,-0.0,-0.0,-1.0,0.0891705425275132,1.0,1.0
13.24113655090332,-12.845573425292969,0.7391870021820068,-0.0,-0.0,-1.0,0.0789517510220954,1.0,1.0
13.155879974365234,-11.977739334106444,0.6214292049407959,-0.0,-0.0,-1.0,0.0981566542785708,2.0,1.0
13.122414588928224,-11.905075073242188,0.6045136451721191,-0.0,-0.0,-1.0,0.0925102214520797,1.0,1.0
13.117826461791992,-13.627781867980955,0.7809791564941406,-0.0,-0.0,-1.0,0.1337941589676877,1.0,1.0
13.071935653686523,-13.105996131896973,0.721299409866333,-0.0,-0.0,-1.0,0.0200777409196941,2.0,1.0
12.852327346801758,-12.618667602539062,0.6158125400543213,-0.0,-0.0,-1.0,0.1428677535132599,2.0,1.0
12.782328605651855,-12.267481803894045,0.5606098175048828,-0.0,-0.0,-1.0,0.1276521352008428,1.0,1.0
12.808267593383787,-11.924690246582031,0.528803825378418,-0.0,-0.0,-1.0,0.1639264724323547,1.0,1.0
14.715023040771484,-12.469735145568848,1.062046766281128,0.2212687300228913,-0.117771748333833,-0.968075391903156,0.1924445171894315,3.0,2.0
14.781826972961426,-14.19278335571289,1.0121536254882812,-0.0,-0.0,-1.0,0.2085251037757757,2.0,2.0
14.691277503967283,-13.79072380065918,1.2092303037643433,-0.0,-0.0,-1.0,0.1677270435280716,1.0,2.0
14.465377807617188,-14.329059600830078,1.0656111240386963,-0.0,-0.0,-1.0,0.129385668841666,2.0,2.0
14.550299644470217,-13.934951782226562,1.051652431488037,-0.0,-0.0,-1.0,0.2104104966547512,2.0,2.0
14.204193115234377,-14.111589431762695,1.111558198928833,-0.0,-0.0,-1.0,0.1793587766156762,1.0,2.0
13.50799560546875,-13.651092529296877,0.8864665031433105,-0.0,-0.0,-1.0,0.2107057097147198,2.0,1.0
13.027061462402344,-12.452302932739258,0.9856688976287842,-0.0,-0.0,-1.0,0.1767057725780291,1.0,1.0
13.077295303344728,-12.34977912902832,0.9875104427337646,-0.0,-0.0,-1.0,0.2142499810862456,2.0,1.0
12.719658851623535,-14.095935821533203,1.037052869796753,-0.0,-0.0,-1.0,0.2355022988043436,1.0,2.0
14.840938568115234,-14.127315521240234,1.4080955982208252,-0.0,-0.0,-1.0,0.1652547369135643,1.0,2.0
14.115238189697266,-14.10726261138916,1.365830898284912,-0.0,-0.0,-1.0,0.1974798832691698,1.0,2.0
13.56393337249756,-12.027509689331056,0.8032457828521729,-0.0,-0.0,-1.0,0.1283218073854613,1.0,1.0
13.48484230041504,-12.043818473815918,0.7839081287384033,-0.0,-0.0,-1.0,0.1363814653404383,1.0,1.0
13.079473495483398,-13.381322860717772,0.8066244125366211,0.408000741830362,0.2962552974803435,-0.8635787129038716,0.202879914677079,3.0,1.0
12.823101043701172,-12.971396446228027,0.6970541477203369,-0.0,-0.0,-1.0,0.0273412596383097,1.0,1.0
12.972040176391602,-14.225029945373535,0.831650972366333,-0.0,-0.0,-1.0,0.204591044181422,1.0,1.0
12.711122512817385,-13.74642276763916,0.724898099899292,-0.0,-0.0,-1.0,0.1166112836836387,1.0,1.0
14.62209129333496,-14.33331298828125,1.332406759262085,-0.0,-0.0,-1.0,0.2482829966568377,1.0,2.0
14.528900146484377,-13.905599594116213,1.272312045097351,0.7845167712842387,-0.1978039776757467,0.5877133842183675,0.1449765553943607,6.0,2.0
13.024932861328123,-12.364938735961914,1.0061442852020264,-0.4161263778112419,-0.7612700560448533,-0.4972994464697919,0.2511058662593637,3.0,2.0
13.299674987792969,-14.015419006347656,0.9178023338317872,-0.0,-0.0,-1.0,0.1638316848252042,2.0,1.0
12.800704956054688,-14.286169052124023,1.0767734050750732,-0.0,-0.0,-1.0,0.1684116717216098,1.0,2.0
12.75495719909668,-12.309321403503418,0.8911852836608887,-0.0,-0.0,-1.0,0.1612514678019183,1.0,1.0
13.045218467712402,-12.356882095336914,0.9768366813659668,0.2453617114232251,-0.9647287553730032,-0.095373262101717,0.1815886626954883,3.0,1.0
13.037542343139648,-12.296028137207031,0.968421459197998,-0.0,-0.0,-1.0,0.1853386454893754,2.0,1.0
13.009827613830566,-12.397333145141602,0.9711089134216307,-0.0,-0.0,-1.0,0.1768341994484375,1.0,1.0
14.076642990112305,-14.066243171691896,1.410036325454712,-0.0,-0.0,-1.0,0.2291694439747929,1.0,2.0
13.949995994567873,-14.336212158203123,0.7671840190887451,-0.2033409752290524,0.662562820243151,-0.7208765199563237,0.1471779383027032,3.0,1.0
13.650734901428224,-13.694107055664062,0.8178226947784424,-0.2153764205264703,-0.6047306907238849,-0.7667553646227835,0.1819154364308688,3.0,1.0
13.631977081298828,-13.601113319396973,0.8597226142883301,-0.4928113515841444,-0.2935541888166866,-0.8191232568899417,0.1880774152925697,3.0,1.0
13.250166893005373,-14.03622055053711,0.767470121383667,-0.0,-0.0,-1.0,0.2462853681692749,1.0,1.0
13.848949432373049,-14.320804595947266,1.0080783367156982,-0.0,-0.0,-1.0,0.113969614149986,2.0,2.0
13.733620643615724,-14.31796646118164,1.0098965167999268,-0.0,-0.0,-1.0,0.1690682239227365,1.0,2.0
12.879695892333984,-12.641119003295898,0.650092363357544,-0.0,-0.0,-1.0,0.180363961171067,2.0,1.0
13.150006294250488,-12.91015625,0.7658047676086426,-0.0,-0.0,-1.0,0.0377074315712259,1.0,1.0
13.887713432312012,-13.318405151367188,0.714511513710022,-0.0,-0.0,-1.0,0.0555520495258975,1.0,1.0
14.281092643737791,-13.340229034423828,0.6960347890853882,-0.0,-0.0,-1.0,0.1731761534413619,1.0,1.0
13.527036666870115,-12.08672332763672,0.789178729057312,0.1341777012344458,0.7845343597594194,-0.6053942375413872,0.1963203391034624,3.0,1.0
14.084716796875,-14.337329864501951,0.8918462991714478,-0.0,-0.0,-1.0,0.1186692668293047,2.0,1.0
14.340734481811523,-14.338497161865234,0.8731136322021484,-0.0,-0.0,-1.0,0.0862574252461315,2.0,1.0
12.81535530090332,-14.118221282958984,0.9920272827148438,0.7794698987353345,0.6043350398172311,-0.1649419189127894,0.2514714517092026,3.0,1.0
14.590107917785645,-14.168964385986328,0.8622889518737793,-0.0,-0.0,-1.0,0.1537597704077118,2.0,1.0
14.647818565368652,-12.510730743408203,0.9317617416381836,0.0281634601840777,-0.9841015324873452,0.1753596112749979,0.2315929445839102,4.0,1.0
14.77513027191162,-12.500709533691406,0.9227317571640016,-0.5680661849237919,-0.317678098661022,-0.7591978893392993,0.2521018029601137,3.0,1.0
14.900047302246094,-12.566356658935549,0.9104771614074708,-0.0,-0.0,-1.0,0.1922372574809445,2.0,1.0
12.790806770324709,-12.836368560791016,0.7425811290740967,-0.0,-0.0,-1.0,0.1600602518658365,1.0,1.0
12.903844833374023,-13.19155502319336,0.7149389982223511,-0.0,-0.0,-1.0,0.0840736649825515,1.0,1.0
13.148402214050291,-12.778457641601562,0.720017671585083,-0.0,-0.0,-1.0,0.1056981808466556,2.0,1.0
14.550959587097168,-13.999361038208008,1.197265625,0.7953153880903105,-0.1249346103918596,-0.5931819085179463,0.2176956124236976,4.0,2.0
12.863449096679688,-14.266029357910156,0.9454586505889891,-0.0,-0.0,-1.0,0.2195183851556477,1.0,1.0
13.06678581237793,-13.465221405029297,0.9733941555023192,-0.0,-0.0,-1.0,0.1216617115147741,1.0,1.0
13.51290798187256,-13.803592681884766,0.9273781776428224,-0.0,-0.0,-1.0,0.1412660245602632,1.0,1.0
13.798227310180664,-13.889163970947266,0.9043565988540648,-0.0,-0.0,-1.0,0.0692931474146575,2.0,1.0
14.026826858520508,-14.04277801513672,0.8814041614532471,-0.0,-0.0,-1.0,0.1433412029377025,1.0,1.0
14.353857040405272,-14.124137878417969,0.8553717136383057,-0.0,-0.0,-1.0,0.2462190263387928,2.0,1.0
14.423718452453612,-13.337352752685549,0.8908734321594238,-0.0,-0.0,-1.0,0.1118855313388114,1.0,1.0
15.049324989318848,-13.536407470703123,0.8379727602005005,-0.0,-0.0,-1.0,0.1840107051396708,1.0,1.0
14.637063026428224,-12.566949844360352,0.9157559871673584,-0.0,-0.0,-1.0,0.2645521643856492,2.0,1.0
14.80097484588623,-12.510387420654297,0.9074432849884032,0.0597896540527802,-0.7008655478594149,-0.7107831463195866,0.2056983872955629,5.0,1.0
14.454955101013184,-14.076555252075195,1.27648663520813,-0.0,-0.0,-1.0,0.1314716320293363,1.0,2.0
14.565559387207031,-13.919986724853516,1.273008108139038,0.6351703430453509,0.0137332097393322,0.77224998171959,0.1213239136812265,7.0,2.0
12.739938735961914,-13.11391258239746,0.7572547197341919,-0.0,-0.0,-1.0,0.0817213679509126,2.0,1.0
13.271286964416504,-12.915441513061523,0.7483309507369995,0.5474703300898691,-0.5786560695007018,-0.6045108691341196,0.0792384081858538,3.0,1.0
13.040937423706056,-13.327606201171877,0.7313982248306274,-0.0,-0.0,-1.0,0.0849845934600279,1.0,1.0
13.510517120361328,-12.969963073730469,0.7347981929779053,-0.0,-0.0,-1.0,0.1002015474287819,2.0,1.0
13.785820960998535,-12.998861312866213,0.7212377786636353,0.3397155721284572,-0.8110049116024851,-0.4763028064268361,0.0934487846012317,3.0,1.0
14.08950424194336,-13.098533630371094,0.7016283273696899,-0.0,-0.0,-1.0,0.060744019835742,1.0,1.0
14.39838695526123,-13.029558181762695,0.6923514604568481,-0.0,-0.0,-1.0,0.0882685137079071,1.0,1.0
14.71852684020996,-12.482471466064451,0.712996244430542,-0.0,-0.0,-1.0,0.2626686890156097,1.0,1.0
14.609247207641602,-13.047357559204102,0.6817022562026978,-0.0,-0.0,-1.0,0.0770604306330218,2.0,1.0
15.024306297302246,-12.530061721801758,0.6958053112030029,-0.0,-0.0,-1.0,0.066954640663297,1.0,1.0
12.71156883239746,-14.01608943939209,1.0591745376586914,-0.0,-0.0,-1.0,0.1458670969113086,1.0,2.0
14.725777626037598,-12.54502773284912,1.057901382446289,-0.6497670934750781,-0.5400267822123669,-0.534952146205907,0.1956688368233249,5.0,2.0
14.64582061767578,-14.348429679870604,0.964607834815979,-0.0,-0.0,-1.0,0.1369945884634015,2.0,1.0
14.49803066253662,-14.213319778442385,1.0702989101409912,-0.0,-0.0,-1.0,0.214654561478407,2.0,2.0
14.698352813720703,-14.202262878417969,1.0590968132019043,-0.0,-0.0,-1.0,0.2247694901726253,1.0,2.0
15.002198219299316,-13.620733261108398,1.0713838338851929,-0.0,-0.0,-1.0,0.1914646896064516,1.0,2.0
14.20734691619873,-14.323871612548828,1.213101506233215,-0.0,-0.0,-1.0,0.1468138819811936,1.0,2.0
14.302408218383787,-14.354583740234377,1.2091810703277588,-0.0,-0.0,-1.0,0.0941301679272371,2.0,2.0
14.643658638000488,-14.033184051513672,1.2195661067962646,-0.0,-0.0,-1.0,0.1746293030607634,1.0,2.0
12.785070419311523,-12.278809547424316,0.6426703929901123,-0.0,-0.0,-1.0,0.1726065532356308,1.0,1.0
12.86204433441162,-14.121444702148438,0.8225257396697998,-0.0,-0.0,-1.0,0.1779423599187065,2.0,1.0
13.146466255187988,-13.361745834350586,0.8964807987213135,-0.4087335351615442,-0.0634156037800418,-0.910447888915977,0.2159373983411333,4.0,1.0
13.015769958496094,-13.880475997924805,0.8491294384002686,-0.0,-0.0,-1.0,0.1010832804474479,1.0,1.0
13.21538543701172,-14.133522033691406,0.8388700485229492,-0.0,-0.0,-1.0,0.2790915492932305,2.0,1.0
13.648881912231444,-13.631582260131836,0.8992094993591309,-0.0,-0.0,-1.0,0.2303832561818372,2.0,1.0
13.368948936462402,-13.847686767578123,0.8688478469848633,-0.6939170162550901,0.239270104958435,-0.6791384184573955,0.1035044122394631,3.0,1.0
13.91678237915039,-14.34751319885254,0.8549795150756836,-0.0,-0.0,-1.0,0.1396674866128382,1.0,1.0
14.317106246948242,-14.329916000366213,0.8744583129882812,-0.0,-0.0,-1.0,0.1108757248115317,2.0,1.0
14.748550415039062,-12.54781723022461,1.034593105316162,-0.9407264450721764,0.2579262290168473,-0.2202448998887704,0.2173095523231974,5.0,2.0
14.871623039245604,-12.601985931396484,1.0355846881866455,-0.0,-0.0,-1.0,0.1906449184402355,2.0,2.0
14.591651916503906,-13.979909896850586,0.9143099784851074,-0.0,-0.0,-1.0,0.2051868740756715,1.0,1.0
13.25811004638672,-12.900309562683104,0.7219126224517822,0.5474703300898691,-0.5786560695007018,-0.6045108691341196,0.0786077921211133,3.0,1.0
13.761341094970703,-13.014824867248535,0.7309591770172119,0.3397155721284572,-0.8110049116024851,-0.4763028064268361,0.1015177057286759,3.0,1.0
13.95809841156006,-13.07062816619873,0.7329161167144775,-0.0,-0.0,-1.0,0.0629849045391969,1.0,1.0
14.10833740234375,-13.349623680114746,0.7099318504333496,-0.0,-0.0,-1.0,0.0695829463034462,2.0,1.0
14.516133308410645,-13.12108325958252,0.7479877471923828,-0.0,-0.0,-1.0,0.0553879203952512,1.0,1.0
14.348301887512209,-13.439230918884276,0.7094414234161377,-0.0,-0.0,-1.0,0.1537246139487973,2.0,1.0
12.90713119506836,-12.74948024749756,0.7217133045196533,-0.0,-0.0,-1.0,0.2601915290712106,2.0,1.0
13.457855224609377,-12.16907024383545,0.8052546977996826,-0.0,-0.0,-1.0,0.1705292672157445,1.0,1.0
14.800006866455078,-12.422837257385254,0.8291671276092529,-0.0,-0.0,-1.0,0.1993273756675277,2.0,1.0
14.603203773498535,-12.625321388244627,0.8018739223480225,-0.0,-0.0,-1.0,0.218694219368581,1.0,1.0
12.881494522094728,-12.763416290283203,0.7244291305541992,-0.0,-0.0,-1.0,0.2601915290712106,2.0,1.0
13.702433586120604,-13.05381202697754,0.729905366897583,-0.0,-0.0,-1.0,0.1012639694998578,1.0,1.0
14.68748664855957,-12.437803268432615,0.8417813777923584,-0.7233539357820462,-0.1534599626423318,-0.6732080833252357,0.2475449042306424,3.0,1.0
14.57713794708252,-12.537824630737305,0.826012134552002,-0.0,-0.0,-1.0,0.224342221857918,1.0,1.0
14.000587463378906,-13.37673568725586,0.7054316997528076,-0.0,-0.0,-1.0,0.0643176997774171,2.0,1.0
14.83626651763916,-12.461847305297852,0.844477653503418,-0.0,-0.0,-1.0,0.2280812724581253,2.0,1.0
14.309496879577637,-13.443790435791016,0.7104110717773438,0.0218668378175288,-0.3206241728138589,-0.9469540544352142,0.1619572126737603,4.0,1.0
14.971960067749023,-13.431156158447266,0.7369694709777832,-0.0,-0.0,-1.0,0.1479754707144182,1.0,1.0
14.306830406188965,-13.089629173278809,0.6340386867523193,-0.0,-0.0,-1.0,0.1385928537314953,2.0,1.0
12.831969261169434,-11.907267570495604,0.8179905414581299,-0.0,-0.0,-1.0,0.2035930396724902,1.0,1.0
13.265108108520508,-12.792176246643066,0.6942274570465088,-0.0,-0.0,-1.0,0.0846040713536208,1.0,1.0
13.014500617980955,-12.737961769104004,0.7046682834625244,-0.0,-0.0,-1.0,0.2327235106698079,1.0,1.0
13.724813461303713,-12.835192680358888,0.6810281276702881,-0.0,-0.0,-1.0,0.087012545383636,1.0,1.0
13.72560214996338,-12.936158180236816,0.6674163341522217,-0.0,-0.0,-1.0,0.1862136070370524,1.0,1.0
14.777981758117676,-12.439574241638184,0.7080767154693604,-0.8278657310918768,0.1490375273840141,0.5407644096230554,0.243388958204047,3.0,1.0
14.577108383178713,-12.663243293762209,0.6840355396270752,-0.0,-0.0,-1.0,0.215573488581302,1.0,1.0
14.04943561553955,-12.937155723571776,0.6605546474456787,-0.0,-0.0,-1.0,0.0412884181904771,1.0,1.0
15.011140823364258,-12.757145881652832,0.6581037044525146,-0.0,-0.0,-1.0,0.0844840135307238,2.0,1.0
14.480550765991213,-12.9059419631958,0.6541445255279541,-0.0,-0.0,-1.0,0.0579000529402397,2.0,1.0
14.377126693725586,-13.027430534362791,0.6405923366546631,-0.0,-0.0,-1.0,0.110360431716416,1.0,1.0
14.127482414245604,-14.23728084564209,1.2731173038482666,0.2236500895539926,0.96985184827589,-0.0967885832024153,0.1887320102005852,3.0,2.0
14.593777656555176,-14.359696388244627,1.249895095825195,-0.0,-0.0,-1.0,0.1741473730447457,1.0,2.0
12.914225578308104,-11.951770782470703,0.6360170841217041,-0.0,-0.0,-1.0,0.1630520705137217,1.0,1.0
14.74136734008789,-12.517560958862305,1.2302863597869873,-0.0,-0.0,-1.0,0.2350576763992221,1.0,2.0
12.87595558166504,-14.182220458984377,1.0580217838287354,-0.0,-0.0,-1.0,0.1481149077003558,2.0,2.0
13.323493957519531,-14.11806297302246,1.0608456134796145,-0.0,-0.0,-1.0,0.1640073602911671,1.0,2.0
14.739276885986328,-14.30217170715332,1.0183005332946775,-0.0,-0.0,-1.0,0.1909952285356735,1.0,2.0
14.56813621520996,-12.637550354003906,0.5783004760742188,-0.0,-0.0,-1.0,0.2099190645004131,1.0,1.0
14.512284278869627,-12.724431991577148,0.5687892436981201,-0.0,-0.0,-1.0,0.1360782867682195,1.0,1.0
12.997393608093262,-12.637048721313477,0.6599948406219482,-0.0,-0.0,-1.0,0.1709124577021036,1.0,1.0
13.83967113494873,-12.313558578491213,0.665534257888794,-0.0,-0.0,-1.0,0.060934709949485,1.0,1.0
13.471363067626951,-12.625972747802734,0.6386301517486572,-0.0,-0.0,-1.0,0.0391298302489657,1.0,1.0
13.248371124267578,-12.757804870605469,0.630265474319458,-0.0,-0.0,-1.0,0.0386032344473492,2.0,1.0
15.064519882202148,-12.050832748413086,0.6345200538635254,-0.0,-0.0,-1.0,0.1348716808813294,1.0,1.0
14.74706745147705,-12.296119689941406,0.6177423000335693,-0.0,-0.0,-1.0,0.224138426208732,1.0,1.0
14.627431869506836,-12.575902938842772,0.5839061737060547,-0.0,-0.0,-1.0,0.19159527270568,1.0,1.0
14.59023094177246,-14.105827331542969,1.1069300174713137,-0.0,-0.0,-1.0,0.2435061418148673,1.0,2.0
14.76640510559082,-14.290069580078123,1.0775978565216064,-0.0,-0.0,-1.0,0.2041357024601988,2.0,2.0
13.177322387695312,-12.34035587310791,0.6095695495605469,-0.0,-0.0,-1.0,0.1488311295222622,1.0,1.0
12.81428337097168,-12.496935844421388,0.6041059494018555,-0.0,-0.0,-1.0,0.1515971154509079,1.0,1.0
13.98560619354248,-12.161852836608888,0.5912318229675293,-0.0,-0.0,-1.0,0.0725210527999774,2.0,1.0
13.658246994018556,-12.508063316345217,0.5572946071624756,-0.0,-0.0,-1.0,0.0387847712605836,1.0,1.0
13.300995826721191,-12.58579921722412,0.5650832653045654,-0.0,-0.0,-1.0,0.0591166164770182,2.0,1.0
13.040474891662598,-12.747784614562988,0.553912878036499,-0.0,-0.0,-1.0,0.0557180542332751,1.0,1.0
13.921634674072266,-12.51049518585205,0.5417189598083496,-0.0,-0.0,-1.0,0.0362872150698911,2.0,1.0
12.715496063232422,-13.779589653015137,1.1092238426208496,-0.0,-0.0,-1.0,0.0994044231834596,1.0,2.0
12.99350929260254,-14.358824729919434,1.027796506881714,-0.0,-0.0,-1.0,0.1292581786388126,1.0,2.0
14.802309036254885,-13.920557975769045,0.988866090774536,-0.0,-0.0,-1.0,0.221701620273157,1.0,1.0
14.461902618408203,-14.355561256408691,0.9561893939971924,-0.0,-0.0,-1.0,0.1321310762456403,1.0,1.0
12.873003005981444,-12.09688949584961,0.5309293270111084,-0.0,-0.0,-1.0,0.1136868062252612,1.0,1.0
13.22412109375,-12.156991958618164,0.4863467216491699,-0.0,-0.0,-1.0,0.0533861028950607,1.0,1.0
12.734135627746582,-13.71574592590332,0.9425578117370604,-0.0,-0.0,-1.0,0.1538875257939927,1.0,1.0
13.131607055664062,-14.03676414489746,0.8644330501556396,-0.0,-0.0,-1.0,0.183370609073337,1.0,1.0
13.07062530517578,-14.151805877685549,0.853877067565918,-0.0,-0.0,-1.0,0.1109210727665384,1.0,1.0
14.337844848632812,-12.783324241638184,0.6861915588378906,-0.0,-0.0,-1.0,0.0296787742726647,1.0,1.0
14.338502883911133,-12.87158203125,0.6780991554260254,-0.0,-0.0,-1.0,0.0634068262080701,1.0,1.0
14.175371170043944,-12.941057205200195,0.7003281116485596,-0.0,-0.0,-1.0,0.0676620111929276,1.0,1.0
13.789186477661133,-13.020345687866213,0.7602198123931885,0.3397155721284572,-0.8110049116024851,-0.4763028064268361,0.0882348252622595,3.0,1.0
13.800569534301758,-13.254158020019531,0.7364523410797119,-0.0,-0.0,-1.0,0.0489244226250558,1.0,1.0
14.638961791992188,-13.974078178405762,1.2258925437927246,-0.0657851003892612,0.7619194635851431,-0.6443221644308866,0.1885816945234966,4.0,2.0
13.061812400817873,-12.108905792236328,0.6089425086975098,-0.0,-0.0,-1.0,0.1141162657083008,1.0,1.0
12.9943265914917,-11.924080848693848,0.6538887023925781,-0.0,-0.0,-1.0,0.1363985209812553,1.0,1.0
12.846567153930664,-12.065098762512209,0.6660714149475098,-0.0,-0.0,-1.0,0.1927048514509994,1.0,1.0
14.682181358337402,-13.15950870513916,0.7744870185852051,-0.0,-0.0,-1.0,0.0644428785715562,1.0,1.0
14.436619758605955,-13.312579154968262,0.8049497604370117,0.0849911041677528,0.921469792062697,-0.379038170278768,0.1169143517300135,3.0,1.0
14.099565505981444,-13.499382019042969,0.8487377166748047,-0.0,-0.0,-1.0,0.0968284664677349,2.0,1.0
13.648542404174805,-13.498827934265137,0.940126895904541,-0.0,-0.0,-1.0,0.1544821598740443,1.0,1.0
14.682682991027832,-13.916130065917969,1.3911714553833008,-0.0,-0.0,-1.0,0.1227217316917936,2.0,2.0
14.746173858642578,-14.351689338684082,1.3313980102539062,-0.0,-0.0,-1.0,0.1331644574829366,1.0,2.0
14.95102882385254,-13.974095344543455,0.8003597259521484,-0.0,-0.0,-1.0,0.1982066923242785,1.0,1.0
14.642038345336914,-13.938758850097656,0.8821325302124023,-0.0,-0.0,-1.0,0.2513770966599449,1.0,1.0
14.974438667297363,-14.188623428344728,0.760498046875,-0.0,-0.0,-1.0,0.1942064405997223,1.0,1.0
14.614540100097656,-14.279937744140623,0.8339395523071289,-0.0,-0.0,-1.0,0.2264213601963066,1.0,1.0
13.925366401672363,-14.228351593017578,1.009106159210205,-0.0,-0.0,-1.0,0.162448070739903,1.0,2.0
14.864355087280272,-13.827134132385254,0.9434981346130372,-0.0,-0.0,-1.0,0.2071913576405825,1.0,1.0
14.973718643188477,-12.408013343811035,1.0607123374938965,-0.0,-0.0,-1.0,0.1786475820289627,1.0,2.0
14.172317504882812,-13.059391975402832,1.1466383934020996,-0.0,-0.0,-1.0,0.1683624667730218,1.0,2.0
14.295852661132812,-13.046429634094238,1.1233201026916504,-0.0,-0.0,-1.0,0.2150130628481393,1.0,2.0
14.34971809387207,-13.289676666259766,0.7398891448974609,-0.0,-0.0,-1.0,0.1072450682920408,1.0,1.0
14.577571868896484,-13.13950538635254,0.7167458534240723,-0.0,-0.0,-1.0,0.0804559505361624,1.0,1.0
14.809680938720703,-12.815145492553713,0.7146892547607422,-0.0,-0.0,-1.0,0.2434522529899511,1.0,1.0
14.87322235107422,-12.456735610961914,0.74810791015625,-0.55787994927611,0.3937213791581234,-0.7305843125810394,0.2312442568987371,3.0,1.0
14.077831268310549,-13.395551681518556,0.7765703201293945,-0.0,-0.0,-1.0,0.0976504213247322,2.0,1.0
13.38673210144043,-13.872753143310549,0.8418464660644531,-0.6939170162550901,0.239270104958435,-0.6791384184573955,0.0989737735442806,3.0,1.0
13.544572830200195,-13.433879852294922,0.8697376251220703,-0.0,-0.0,-1.0,0.126128178894846,1.0,1.0
13.726877212524414,-13.322553634643556,0.8506150245666504,-0.0,-0.0,-1.0,0.0771009764349525,1.0,1.0
12.829031944274902,-13.501426696777344,0.9916267395019532,-0.0,-0.0,-1.0,0.1258981553643311,1.0,1.0
12.893835067749023,-12.068317413330078,0.5689330101013184,-0.0,-0.0,-1.0,0.133147709616514,1.0,1.0
12.720699310302734,-12.07242202758789,0.600090503692627,-0.0,-0.0,-1.0,0.1408416326361795,1.0,1.0
14.4749174118042,-13.258661270141602,0.7022209167480469,-0.0,-0.0,-1.0,0.1064219840274616,1.0,1.0
14.71969223022461,-12.963172912597656,0.7009687423706055,-0.0,-0.0,-1.0,0.1217348529895523,1.0,1.0
13.146218299865724,-14.063735961914062,0.8160734176635742,0.0225889909636868,-0.4505329089752796,-0.892473997053984,0.1812212386272369,3.0,1.0
13.328219413757324,-13.854501724243164,0.8158884048461914,-0.0,-0.0,-1.0,0.1325262979431963,1.0,1.0
13.628835678100586,-13.546915054321287,0.8092160224914551,-0.0,-0.0,-1.0,0.215933650562462,2.0,1.0
14.041825294494627,-13.43959617614746,0.7526388168334961,-0.0,-0.0,-1.0,0.098327307657197,2.0,1.0
14.221213340759276,-13.339399337768556,0.7355804443359375,-0.0,-0.0,-1.0,0.0483914589192223,1.0,1.0
14.627191543579102,-12.944595336914062,0.7202143669128418,-0.0,-0.0,-1.0,0.0799261866735199,1.0,1.0
14.80852508544922,-12.5330810546875,0.7464475631713867,-0.0,-0.0,-1.0,0.2533691415367669,2.0,1.0
15.155705451965332,-12.317827224731444,0.7137136459350586,-0.0,-0.0,-1.0,0.1205394324385255,2.0,1.0
13.30749225616455,-13.398414611816406,0.8868694305419922,-0.0,-0.0,-1.0,0.1023517034010599,1.0,1.0
12.738804817199709,-13.622331619262695,0.951251983642578,-0.0,-0.0,-1.0,0.1734181276222557,1.0,1.0
15.19664192199707,-14.271567344665527,0.7405424118041992,-0.0,-0.0,-1.0,0.1542423008534535,1.0,1.0
14.646596908569336,-14.152981758117676,0.8296928405761719,-0.0,-0.0,-1.0,0.2206870399912898,1.0,1.0
14.911181449890137,-14.195189476013184,0.7893705368041992,-0.0,-0.0,-1.0,0.2312813584062066,1.0,1.0
14.079211235046388,-14.315766334533691,0.8725266456604004,-0.0,-0.0,-1.0,0.1180281935931075,2.0,1.0
14.414573669433594,-14.166827201843262,0.8562803268432617,-0.0,-0.0,-1.0,0.1442780677348074,1.0,1.0
13.61724853515625,-14.209063529968262,0.9471893310546876,-0.0,-0.0,-1.0,0.0901656016993229,1.0,1.0
12.904150009155272,-14.160231590270996,1.0414390563964844,-0.0,-0.0,-1.0,0.2443988156846998,2.0,2.0
13.320332527160645,-14.07667064666748,1.0057597160339355,-0.0,-0.0,-1.0,0.2044670433643058,1.0,2.0
14.785910606384276,-12.520848274230955,1.0853533744812012,-0.0,-0.0,-1.0,0.1998748102664813,1.0,2.0
13.139163970947266,-12.19918155670166,0.5831518173217773,-0.0,-0.0,-1.0,0.1282494186861144,1.0,1.0
14.634034156799316,-13.986029624938965,1.1067137718200684,-0.0,-0.0,-1.0,0.2124379312979041,2.0,2.0
14.499828338623049,-13.947035789489746,1.1261215209960938,-0.0,-0.0,-1.0,0.207607891000779,2.0,2.0
14.707731246948242,-13.901530265808104,1.1153802871704102,-0.0,-0.0,-1.0,0.1955768933699553,1.0,2.0
14.88743495941162,-12.044784545898438,0.6087527275085449,-0.0,-0.0,-1.0,0.078328499913421,1.0,1.0
13.27141284942627,-12.484832763671877,0.6167201995849609,-0.0,-0.0,-1.0,0.1049931039043937,2.0,1.0
13.586538314819336,-12.260231018066406,0.6488561630249023,-0.0,-0.0,-1.0,0.1686947634176805,1.0,1.0
13.978297233581545,-12.211339950561523,0.6337909698486328,-0.0,-0.0,-1.0,0.0612232897010914,2.0,1.0
14.395428657531738,-12.048431396484377,0.6429543495178223,-0.0,-0.0,-1.0,0.0280190870932957,2.0,1.0
12.844862937927246,-12.31138038635254,0.6853165626525879,-0.0,-0.0,-1.0,0.1818039144682513,1.0,1.0
14.68580436706543,-14.349740982055664,1.13881254196167,-0.0,-0.0,-1.0,0.186824169311946,2.0,2.0
14.40860366821289,-14.356586456298828,1.1520161628723145,-0.0,-0.0,-1.0,0.1100454940120849,2.0,2.0
14.681336402893066,-13.968446731567385,1.2158417701721191,-0.0,-0.0,-1.0,0.2030290373166247,2.0,2.0
12.915376663208008,-14.273670196533203,1.2440247535705566,-0.0,-0.0,-1.0,0.3043793245598542,2.0,2.0
13.060911178588867,-12.517083168029783,0.6626653671264648,-0.0,-0.0,-1.0,0.1737252496116154,1.0,1.0
13.432907104492188,-12.485373497009276,0.656280517578125,-0.0,-0.0,-1.0,0.0491942800686767,1.0,1.0
13.939476013183594,-12.252795219421388,0.6947197914123535,-0.0,-0.0,-1.0,0.0663412539480303,1.0,1.0
14.128536224365234,-12.214943885803224,0.6960840225219727,-0.0,-0.0,-1.0,0.0360876680492164,1.0,1.0
14.645511627197266,-12.27038288116455,0.6583471298217773,-0.0,-0.0,-1.0,0.1363921498360466,1.0,1.0
15.036663055419922,-12.078339576721191,0.6881108283996582,-0.0,-0.0,-1.0,0.1348716808813294,2.0,1.0
13.685653686523438,-12.232329368591309,0.7107839584350586,-0.0,-0.0,-1.0,0.0955170971708327,1.0,1.0
14.86237335205078,-11.97486400604248,0.7228751182556152,-0.0,-0.0,-1.0,0.0915952441486727,1.0,1.0
14.578174591064451,-14.339518547058104,1.1592607498168943,-0.0,-0.0,-1.0,0.1325905087742336,1.0,2.0
14.628002166748049,-13.947348594665527,1.2445549964904783,0.7142345256249442,-0.1794810153270208,0.6765024815493975,0.1663472564485612,3.0,2.0
12.848014831542969,-12.400845527648926,0.634305477142334,-0.0,-0.0,-1.0,0.1886818178267102,1.0,1.0
13.232731819152832,-12.470925331115724,0.6057877540588379,-0.0,-0.0,-1.0,0.1098978273266371,2.0,1.0
13.439082145690918,-12.280678749084473,0.6512627601623535,-0.0,-0.0,-1.0,0.140653427435123,1.0,1.0
13.602222442626951,-12.211081504821776,0.6651697158813477,-0.0,-0.0,-1.0,0.2174355506561646,1.0,1.0
14.079083442687988,-12.125079154968262,0.6730771064758301,-0.0,-0.0,-1.0,0.1123060529452927,1.0,1.0
14.523103713989258,-12.189486503601074,0.6404776573181152,-0.0,-0.0,-1.0,0.0485506983787495,1.0,1.0
14.77586555480957,-12.113179206848145,0.6513023376464844,-0.0,-0.0,-1.0,0.0811994203292419,1.0,1.0
15.113916397094728,-12.01969051361084,0.6626763343811035,-0.0,-0.0,-1.0,0.1271981757383151,1.0,1.0
12.74441146850586,-12.228472709655762,0.6834354400634766,-0.0,-0.0,-1.0,0.1598763640093446,1.0,1.0
12.859086036682127,-14.357829093933104,1.0774636268615725,-0.0,-0.0,-1.0,0.1819628494462279,1.0,2.0
12.798669815063477,-14.17017650604248,1.1222491264343262,-0.0,-0.0,-1.0,0.1384173255758192,2.0,2.0
14.535738945007324,-14.120366096496582,1.109222412109375,-0.0,-0.0,-1.0,0.2183216322504902,2.0,2.0
14.759794235229492,-14.16638469696045,1.0941734313964844,-0.0,-0.0,-1.0,0.1790924922864706,2.0,2.0
12.775248527526855,-13.356839179992676,0.7667560577392578,-0.0,-0.0,-1.0,0.1473116897131035,1.0,1.0
13.233205795288086,-13.287833213806152,0.7819862365722656,-0.0,-0.0,-1.0,0.0973852904844485,1.0,1.0
13.570109367370604,-13.299620628356934,0.7749118804931641,-0.0,-0.0,-1.0,0.0989610039335779,1.0,1.0
14.007627487182615,-13.372954368591309,0.7487258911132812,-0.0,-0.0,-1.0,0.0643176997774171,2.0,1.0
14.407564163208008,-13.4081392288208,0.7321619987487793,-0.0,-0.0,-1.0,0.1057634090324689,1.0,1.0
14.69064712524414,-13.421992301940918,0.72259521484375,-0.0,-0.0,-1.0,0.0418958192066678,1.0,1.0
14.454866409301758,-13.176167488098145,0.7934179306030273,-0.0,-0.0,-1.0,0.0771661666934697,1.0,1.0
14.855518341064451,-13.366171836853027,0.7337865829467773,-0.0,-0.0,-1.0,0.0969011548354181,1.0,1.0
12.805460929870604,-13.213047981262209,0.8057165145874023,-0.0,-0.0,-1.0,0.1346700178259158,2.0,1.0
13.036449432373049,-13.198792457580566,0.8079957962036133,-0.0,-0.0,-1.0,0.1378911834263653,1.0,1.0
13.03022003173828,-12.383212089538574,1.0296931266784668,-0.0,-0.0,-1.0,0.2511058662593637,2.0,2.0
14.652109146118164,-12.49460506439209,0.9710779190063475,0.5266639139373612,0.3126378448644155,-0.7904952243465571,0.1989722365525112,5.0,1.0
14.821588516235352,-12.46640682220459,0.9742813110351562,0.0465548374009803,-0.3616000153694225,-0.9311702722914872,0.1764346269353323,3.0,1.0
14.6282958984375,-12.00535488128662,0.5563387870788574,-0.0,-0.0,-1.0,0.0307865706150944,1.0,1.0
14.92308235168457,-11.895785331726074,0.5820732116699219,-0.0,-0.0,-1.0,0.0880611308247173,1.0,1.0
13.909259796142578,-14.348189353942873,0.7676663398742676,-0.2033409752290524,0.662562820243151,-0.7208765199563237,0.1197234176057513,3.0,1.0
14.155923843383787,-14.259984016418455,0.7921218872070312,-0.0,-0.0,-1.0,0.1728145280979995,2.0,1.0
14.565664291381836,-14.219122886657717,0.8029484748840332,-0.0,-0.0,-1.0,0.232699896763745,2.0,1.0
15.054157257080078,-14.362374305725098,0.7624897956848145,-0.0,-0.0,-1.0,0.2195584975873888,2.0,1.0
14.825210571289062,-14.119519233703612,0.8288846015930176,-0.0,-0.0,-1.0,0.2780589108756214,1.0,1.0
12.915542602539062,-12.26645565032959,0.4981794357299804,-0.0,-0.0,-1.0,0.1515684028783628,1.0,1.0
13.075695037841797,-12.248726844787598,0.5030670166015625,-0.0,-0.0,-1.0,0.1052617812295266,1.0,1.0
14.195279121398926,-12.056260108947754,0.5495519638061523,-0.0,-0.0,-1.0,0.0328756522763919,2.0,1.0
14.346590042114258,-12.02793788909912,0.5553631782531738,-0.0,-0.0,-1.0,0.0373381182484239,1.0,1.0
14.4609375,-11.897515296936035,0.5925636291503906,-0.0,-0.0,-1.0,0.0203052783390129,2.0,1.0
12.930177688598633,-14.119547843933104,0.8224010467529297,-0.1646300010667323,0.9624667600416986,-0.215765378510091,0.2408340719710808,3.0,1.0
13.302936553955078,-14.16917324066162,0.8126235008239746,-0.0,-0.0,-1.0,0.1538235204779403,1.0,1.0
13.208368301391602,-14.047499656677246,0.8450555801391602,-0.7665787129979952,0.6177476744904,-0.1753422009672527,0.1990281882521303,3.0,1.0
13.63902759552002,-14.036234855651855,0.851172924041748,-0.0,-0.0,-1.0,0.1393137988390566,1.0,1.0
12.774112701416016,-14.161428451538086,1.0389885902404783,0.3301830738463094,-0.1590196377853818,-0.9304256512715074,0.2243605657016982,4.0,2.0
13.255603790283203,-14.144439697265623,1.050605297088623,-0.0,-0.0,-1.0,0.2269702819758843,2.0,2.0
14.528125762939451,-13.994976043701172,1.097886085510254,-0.0,-0.0,-1.0,0.1778331171571599,2.0,2.0
12.946206092834473,-13.249429702758787,0.7437143325805664,-0.0,-0.0,-1.0,0.1240278565757683,2.0,1.0
12.7222900390625,-13.435548782348633,0.8215551376342773,-0.0,-0.0,-1.0,0.0908289290378049,1.0,1.0
13.102519989013672,-13.109285354614258,0.7447104454040527,0.6025576860100768,-0.0609300620626842,-0.7957460415027016,0.0314627630508896,3.0,1.0
12.958110809326172,-13.207398414611816,0.7763199806213379,0.95089837436822,-0.2962384057389648,0.0896386556632406,0.154566820415886,3.0,1.0
13.373493194580078,-12.274269104003906,0.7437858581542969,-0.0,-0.0,-1.0,0.1408080894253613,1.0,1.0
13.388755798339844,-12.64189624786377,0.7065091133117676,-0.0,-0.0,-1.0,0.0700476691968932,1.0,1.0
13.302915573120115,-12.864456176757812,0.7105731964111328,-0.0,-0.0,-1.0,0.0827944851493417,1.0,1.0
