x,y,z,nx,ny,nz,curvature,density,label
19.3590030670166,-21.075674057006836,1.558097243309021,0.5613128521424225,-0.0544451225976003,-0.8258108806773325,0.1844959479649026,3.0,2.0
19.929637908935547,-20.20989227294922,1.574028491973877,-0.0,-0.0,-1.0,0.1560747570187534,1.0,2.0
19.57134246826172,-20.90870475769043,1.568963885307312,-0.4391335905905581,-0.8896884322807134,-0.1249647273470828,0.2215868520284682,3.0,2.0
19.522605895996097,-21.212554931640625,1.5740947723388672,-0.0,-0.0,-1.0,0.2351490545447359,1.0,2.0
19.746532440185547,-19.88654899597168,0.7932242155075073,-0.0,-0.0,-1.0,0.2399392593998176,1.0,1.0
19.997167587280273,-20.05292320251465,0.8332675695419312,-0.0,-0.0,-1.0,0.1488142500113677,2.0,1.0
20.05569839477539,-20.208660125732425,0.8490873575210571,0.2085356954682043,-0.9327969302695984,-0.2939434479542047,0.1527190040827972,3.0,1.0
19.51982307434082,-21.038772583007812,0.8255341053009033,-0.0,-0.0,-1.0,0.2037463076917782,1.0,1.0
19.29040908813477,-21.340940475463867,0.8110650777816772,-0.0,-0.0,-1.0,0.1132096076704536,1.0,1.0
19.21967506408691,-21.725933074951172,0.8187699317932129,-0.0,-0.0,-1.0,0.1514828017792435,1.0,1.0
19.571582794189453,-21.83238410949707,0.866736888885498,-0.0,-0.0,-1.0,0.1075644436311208,1.0,1.0
18.045520782470703,-19.364389419555664,1.125791311264038,-0.0,-0.0,-1.0,0.1374026682144485,1.0,2.0
17.93112564086914,-19.768861770629883,1.1365025043487549,-0.0,-0.0,-1.0,0.2054998001140323,1.0,2.0
17.83207893371582,-20.05486297607422,1.1419469118118286,-0.0,-0.0,-1.0,0.231161471628667,1.0,2.0
18.55175018310547,-19.38639259338379,1.1710186004638672,-0.0,-0.0,-1.0,0.0937437917886922,1.0,2.0
17.963932037353516,-20.237945556640625,1.1623095273971558,-0.0,-0.0,-1.0,0.1442347001893915,1.0,2.0
17.91909408569336,-21.515850067138672,1.2146763801574707,-0.0,-0.0,-1.0,0.1699856231856716,2.0,2.0
17.726089477539062,-21.817522048950195,1.2096699476242063,-0.0,-0.0,-1.0,0.1818557591677779,1.0,2.0
18.589038848876953,-21.38725852966309,1.268670916557312,-0.0,-0.0,-1.0,0.2054068076737723,2.0,2.0
19.750333786010746,-19.96791076660156,1.3055434226989746,-0.0,-0.0,-1.0,0.1655398871005959,1.0,2.0
19.206768035888672,-20.85781478881836,1.300300359725952,0.3959064799418988,-0.0963892232926692,-0.9132180335347364,0.2604140059332885,3.0,2.0
19.111927032470703,-21.21261215209961,1.3074856996536257,-0.0,-0.0,-1.0,0.0970537623189103,1.0,2.0
20.06605339050293,-19.870220184326172,1.3281147480010986,-0.0,-0.0,-1.0,0.1791265730830645,1.0,2.0
19.561538696289062,-21.032541275024418,1.339320182800293,-0.0,-0.0,-1.0,0.2543613108001026,1.0,2.0
19.747058868408203,-21.5282039642334,1.3768153190612793,-0.0,-0.0,-1.0,0.0998203742735884,1.0,2.0
17.81200408935547,-20.980485916137695,1.7498035430908203,-0.0,-0.0,-1.0,0.1854511936977543,1.0,2.0
18.072490692138672,-21.27642250061035,1.7755391597747805,-0.0,-0.0,-1.0,0.2204865888621336,2.0,2.0
19.602407455444336,-20.912353515625,1.8422324657440183,-0.0,-0.0,-1.0,0.2413544168584183,2.0,2.0
19.49866104125977,-21.3178653717041,1.8531627655029297,-0.0,-0.0,-1.0,0.1660089212559519,1.0,2.0
19.70717430114746,-21.28435516357422,1.862932205200195,-0.0,-0.0,-1.0,0.2277748386291551,1.0,2.0
18.911306381225582,-19.44301414489746,0.9836236238479614,-0.0,-0.0,-1.0,0.1747559853122038,1.0,1.0
18.565773010253903,-19.57107162475586,0.9528406858444214,-0.0,-0.0,-1.0,0.1516340847189327,2.0,1.0
18.375492095947266,-20.507902145385746,0.9701590538024902,-0.0,-0.0,-1.0,0.1069817309939999,1.0,1.0
18.054502487182617,-21.12115478515625,0.9563977718353271,-0.0,-0.0,-1.0,0.1387021883025761,1.0,1.0
18.885669708251953,-20.498023986816406,1.0244338512420654,-0.0,-0.0,-1.0,0.1385850360562747,1.0,2.0
18.36341857910156,-21.185705184936523,0.9916698932647704,-0.0,-0.0,-1.0,0.1343500656610427,1.0,1.0
19.971752166748047,-19.882413864135746,1.1153652667999268,-0.0,-0.0,-1.0,0.243089721957465,2.0,2.0
19.768211364746097,-20.05445098876953,1.1011251211166382,-0.0,-0.0,-1.0,0.2370463433417882,2.0,2.0
19.28158950805664,-20.756534576416016,1.0761990547180176,-0.0,-0.0,-1.0,0.1922339170738682,2.0,2.0
18.663726806640625,-21.43979263305664,1.0316991806030271,-0.0,-0.0,-1.0,0.1568211608166234,2.0,2.0
18.478580474853516,-21.613840103149418,1.016645073890686,-0.0,-0.0,-1.0,0.1529651656896553,1.0,2.0
20.136415481567383,-20.450193405151367,1.1563011407852173,-0.0,-0.0,-1.0,0.220558546480705,1.0,2.0
19.490968704223633,-21.047353744506836,1.108609914779663,0.9181012479945324,0.1712155397524533,0.3574567629492526,0.1240180015906341,3.0,2.0
18.674560546875,-21.832969665527344,1.0436891317367554,-0.0,-0.0,-1.0,0.1776294390835676,1.0,2.0
19.682588577270508,-21.418004989624023,1.1409616470336914,-0.0,-0.0,-1.0,0.1741438576629073,1.0,2.0
17.96819305419922,-20.60474967956543,1.48529052734375,-0.0,-0.0,-1.0,0.1367014964147195,1.0,2.0
18.147274017333984,-21.25126838684082,1.5170046091079712,-0.0,-0.0,-1.0,0.1667732217612953,1.0,2.0
19.04119873046875,-21.04737091064453,1.5762364864349363,-0.0,-0.0,-1.0,0.2139107470532305,2.0,2.0
19.53803062438965,-20.924915313720703,1.6086536645889282,-0.0,-0.0,-1.0,0.2226733714252245,2.0,2.0
19.416824340820312,-21.20882797241211,1.6081081628799438,-0.0,-0.0,-1.0,0.2398165777485371,1.0,2.0
19.817543029785156,-19.86791229248047,0.7634439468383789,-0.8763637878087115,0.4405150866344918,0.194763882342116,0.2154395632025128,3.0,1.0
20.0710391998291,-20.11876106262207,0.8073656558990479,-0.6829345948746148,0.7025839362805025,-0.1999403701207935,0.2110141795091056,3.0,1.0
19.624631881713867,-21.007633209228516,0.7762696743011475,-0.0,-0.0,-1.0,0.1962036408084226,1.0,1.0
19.74596786499023,-21.401142120361328,0.802865743637085,-0.0,-0.0,-1.0,0.1426159557345489,1.0,1.0
19.67249298095703,-21.67844009399414,0.7987766265869141,-0.0,-0.0,-1.0,0.0865803250617787,1.0,1.0
19.887378692626953,-21.834659576416016,0.831206202507019,-0.0,-0.0,-1.0,0.1438414433104763,1.0,1.0
17.82323455810547,-19.422788619995117,1.0339512825012207,-0.0,-0.0,-1.0,0.2391028811095658,1.0,2.0
18.150115966796875,-19.716075897216797,1.0756938457489014,-0.0,-0.0,-1.0,0.1953859130834905,1.0,2.0
17.88778305053711,-19.797544479370117,1.0520007610321045,-0.0,-0.0,-1.0,0.2293100068832981,2.0,2.0
18.23160171508789,-20.03187370300293,1.093285083770752,-0.0,-0.0,-1.0,0.1397803665278819,1.0,2.0
18.08486557006836,-20.19054794311523,1.082963466644287,-0.0,-0.0,-1.0,0.1544355497151238,1.0,2.0
17.71115493774414,-20.40879821777344,1.0510209798812866,-0.0,-0.0,-1.0,0.1202141616231812,1.0,2.0
17.815446853637695,-21.060972213745117,1.076221942901611,-0.0,-0.0,-1.0,0.2630279856182304,2.0,2.0
20.149314880371097,-19.86338233947754,1.2793352603912354,-0.0,-0.0,-1.0,0.1488220527975283,2.0,2.0
18.819583892822266,-20.528091430664062,1.1657918691635132,-0.0,-0.0,-1.0,0.1264941072645467,1.0,2.0
18.143156051635746,-21.231929779052734,1.1128538846969604,-0.0,-0.0,-1.0,0.1973685779270154,2.0,2.0
19.364521026611328,-20.839176177978516,1.2284032106399536,-0.0,-0.0,-1.0,0.2215184417909798,2.0,2.0
19.107810974121097,-21.12285423278809,1.2086915969848633,-0.0,-0.0,-1.0,0.1419857902830798,1.0,2.0
18.374879837036133,-21.42829704284668,1.139989972114563,-0.0,-0.0,-1.0,0.2489335799200911,1.0,2.0
18.055004119873047,-21.581279754638672,1.109948754310608,-0.0,-0.0,-1.0,0.1387895048597101,1.0,2.0
19.492036819458008,-21.041730880737305,1.245893120765686,-0.1002886550169517,0.4873208233367464,-0.8674448690362324,0.1712989755128544,3.0,2.0
18.608497619628903,-21.837888717651367,1.1703407764434814,-0.0,-0.0,-1.0,0.2077644581843817,1.0,2.0
17.933563232421875,-20.80065536499023,1.6214032173156738,-0.0,-0.0,-1.0,0.2452526643076415,2.0,2.0
17.71843147277832,-20.85205078125,1.607999324798584,-0.0,-0.0,-1.0,0.1920778340666012,2.0,2.0
18.099529266357425,-21.140859603881836,1.638010025024414,-0.0,-0.0,-1.0,0.2427399300349292,2.0,2.0
17.857215881347656,-21.219253540039062,1.6230130195617676,-0.0,-0.0,-1.0,0.1150667635433932,1.0,2.0
19.440433502197266,-21.014923095703125,1.7252745628356934,-0.0,-0.0,-1.0,0.2166677310056904,1.0,2.0
19.68402862548828,-21.073684692382812,1.7423827648162842,-0.0,-0.0,-1.0,0.1619126082282694,1.0,2.0
19.507869720458984,-21.263160705566406,1.7338266372680664,-0.0,-0.0,-1.0,0.1696661972119152,1.0,2.0
18.829572677612305,-19.377023696899418,0.8727424144744873,-0.0,-0.0,-1.0,0.1843644211209282,1.0,1.0
19.1400146484375,-19.653478622436523,0.9224840402603148,-0.0,-0.0,-1.0,0.1659867460081925,1.0,1.0
19.929916381835938,-19.911840438842773,1.0256716012954712,-0.0,-0.0,-1.0,0.2206896332058301,1.0,2.0
19.726486206054688,-19.977779388427734,1.0057810544967651,-0.0,-0.0,-1.0,0.2424327969444454,1.0,2.0
19.814048767089844,-19.99928092956543,1.0168744325637815,-0.328425411184492,-0.7327695135240099,0.5959744871536726,0.2476029848716361,3.0,2.0
18.254688262939453,-21.01441192626953,0.8817092180252075,-0.0,-0.0,-1.0,0.1119041978163651,1.0,1.0
18.10648727416992,-21.07054328918457,0.8665974140167236,-0.0,-0.0,-1.0,0.1140169010443729,1.0,1.0
19.5236873626709,-20.826915740966797,1.021559238433838,-0.0,-0.0,-1.0,0.2466431343556299,2.0,2.0
18.419334411621097,-21.167217254638672,0.9067316055297852,-0.0,-0.0,-1.0,0.1428843747869755,2.0,1.0
19.51421546936035,-21.0187931060791,1.0284137725830078,-0.0,-0.0,-1.0,0.2126074319259328,2.0,2.0
19.47353744506836,-21.106006622314453,1.027170181274414,-0.0,-0.0,-1.0,0.0944256015258414,2.0,2.0
18.586843490600582,-21.57637405395508,0.9409395456314088,-0.0,-0.0,-1.0,0.2133877106932794,1.0,1.0
18.221538543701172,-21.54151153564453,0.8970680236816406,-0.0,-0.0,-1.0,0.1901292108670566,1.0,1.0
19.47563934326172,-21.504348754882812,1.0423665046691897,-0.0,-0.0,-1.0,0.1983396676505562,1.0,2.0
20.030746459960938,-19.841957092285156,1.0335489511489868,-0.0,-0.0,-1.0,0.1760678507269956,1.0,2.0
17.85641098022461,-21.17761611938477,1.3663049936294556,-0.0,-0.0,-1.0,0.1688549022157534,1.0,2.0
20.034324645996097,-20.585025787353516,1.0700007677078247,-0.0,-0.0,-1.0,0.188361975735004,1.0,2.0
18.076454162597656,-21.25952911376953,1.3869093656539917,-0.6600003122731364,0.2583517228683165,-0.7054459405867575,0.0910342870805106,3.0,2.0
20.026233673095703,-20.81040954589844,1.0790891647338867,-0.0,-0.0,-1.0,0.0962377871064641,1.0,2.0
19.50601577758789,-20.89022445678711,1.4912068843841553,-0.0,-0.0,-1.0,0.2271435483708087,2.0,2.0
19.056251525878903,-21.050949096679688,1.460136651992798,-0.0,-0.0,-1.0,0.1781234600668815,2.0,2.0
19.581737518310547,-20.971519470214844,1.5002082586288452,-0.0,-0.0,-1.0,0.1403342475237103,1.0,2.0
19.398983001708984,-21.117948532104492,1.4903109073638916,-0.0,-0.0,-1.0,0.1972755807589579,1.0,2.0
17.860618591308594,-21.109853744506836,1.886410117149353,-0.0,-0.0,-1.0,0.1876412503163997,1.0,2.0
19.42635726928711,-20.71682357788086,1.9485976696014404,-0.0,-0.0,-1.0,0.1657701296661131,1.0,2.0
19.189964294433594,-21.05766868591309,1.9473906755447388,-0.0,-0.0,-1.0,0.25991467727392,1.0,2.0
19.649782180786133,-21.06196975708008,1.9690608978271484,-0.0,-0.0,-1.0,0.1448551453782233,2.0,2.0
19.487110137939453,-19.509212493896484,0.8255184888839722,-0.0,-0.0,-1.0,0.0960653012435111,1.0,1.0
17.797855377197266,-19.380882263183594,1.0902585983276367,-0.0,-0.0,-1.0,0.1730343540951085,1.0,2.0
18.215988159179688,-19.608327865600582,1.1375120878219604,-0.0,-0.0,-1.0,0.2083099744936416,2.0,2.0
17.96326446533203,-19.657634735107425,1.1092559099197388,-0.0,-0.0,-1.0,0.2026004074500263,1.0,2.0
19.65424346923828,-19.700618743896484,0.8528048992156982,-0.0,-0.0,-1.0,0.2214086045499781,2.0,1.0
18.01821517944336,-20.0282039642334,1.1153210401535034,-0.0,-0.0,-1.0,0.1928352537529147,2.0,2.0
19.85547637939453,-19.930566787719727,0.8853273391723633,-0.0,-0.0,-1.0,0.1713048314499233,2.0,1.0
19.777389526367188,-19.875761032104492,0.8732080459594727,0.3005526711339303,-0.2463641873996245,-0.9213971885355312,0.2301587317803704,4.0,1.0
18.106361389160156,-20.33084487915039,1.1244078874588013,-0.0,-0.0,-1.0,0.1372007655188071,1.0,2.0
20.148693084716797,-20.348987579345703,0.933013916015625,-0.0,-0.0,-1.0,0.1451112358359479,1.0,1.0
19.410964965820312,-20.5872745513916,0.826117992401123,-0.0,-0.0,-1.0,0.1951293175607003,1.0,1.0
17.826221466064453,-20.96588134765625,1.0879850387573242,-0.0,-0.0,-1.0,0.182322067248254,1.0,2.0
20.184471130371097,-20.504364013671875,0.9396443367004396,-0.0,-0.0,-1.0,0.1024841868565745,1.0,1.0
19.90548324584961,-20.641921997070312,0.8994183540344238,-0.0,-0.0,-1.0,0.278459368923536,1.0,1.0
19.428407669067383,-20.83588409423828,0.8293807506561279,-0.0,-0.0,-1.0,0.1919046058795486,1.0,1.0
18.2515869140625,-21.16416358947754,1.134667992591858,-0.0,-0.0,-1.0,0.1732498782969218,1.0,2.0
17.98675537109375,-21.141435623168945,1.1045533418655396,-0.0,-0.0,-1.0,0.2383779367492271,1.0,2.0
19.434289932250977,-21.154203414916992,0.8301099538803101,-0.0,-0.0,-1.0,0.178245712034531,1.0,1.0
19.264604568481445,-21.17956161499023,0.8047504425048828,-0.0,-0.0,-1.0,0.2113917471685414,1.0,1.0
18.37168884277344,-21.51200294494629,1.1441442966461182,0.6523722677224296,0.2824561558180256,-0.703298616767585,0.2339978346308542,3.0,2.0
17.99840545654297,-21.58143424987793,1.1001144647598269,-0.0,-0.0,-1.0,0.158053528228623,1.0,2.0
19.549659729003903,-21.621973037719727,0.845020055770874,-0.0,-0.0,-1.0,0.1846989336064758,1.0,1.0
18.53896713256836,-21.84320068359375,1.1584562063217163,-0.0,-0.0,-1.0,0.2157424503594961,1.0,2.0
19.71812629699707,-19.914012908935547,1.3059700727462769,-0.0,-0.0,-1.0,0.1515266679888697,2.0,2.0
17.863082885742188,-20.58574485778809,1.5904555320739746,-0.0,-0.0,-1.0,0.1749306207118838,1.0,2.0
20.115320205688477,-20.338912963867188,1.3511567115783691,-0.0,-0.0,-1.0,0.175463805599731,1.0,2.0
19.82848739624023,-20.520767211914062,1.3187532424926758,-0.0,-0.0,-1.0,0.2745991523345386,2.0,2.0
19.038482666015625,-20.688934326171875,1.2285996675491333,-0.0,-0.0,-1.0,0.1578016813751927,1.0,2.0
17.84160041809082,-20.849000930786133,1.584808588027954,-0.0,-0.0,-1.0,0.221079513156704,2.0,2.0
19.38817596435547,-20.92167854309082,1.2669733762741089,-0.1022652341855567,0.7693457178372562,-0.6305941550018128,0.1782923899406031,4.0,2.0
19.034889221191406,-21.05652236938477,1.2256014347076416,-0.0,-0.0,-1.0,0.2124062118160419,1.0,2.0
18.08568572998047,-21.12308120727539,1.599950075149536,-0.0,-0.0,-1.0,0.2703401119564227,2.0,2.0
17.957355499267578,-21.19820213317871,1.5883681774139404,-0.0,-0.0,-1.0,0.2470995284690682,1.0,2.0
19.398164749145508,-21.08405303955078,1.26691997051239,-0.0,-0.0,-1.0,0.2656732072493926,1.0,2.0
19.29423141479492,-21.150047302246097,1.254451870918274,-0.0,-0.0,-1.0,0.2069010092732047,1.0,2.0
19.517749786376953,-20.850875854492188,1.7183334827423096,-0.0,-0.0,-1.0,0.1673513464417563,1.0,2.0
19.165130615234375,-21.02622413635254,1.6877899169921875,-0.0,-0.0,-1.0,0.3045142281190811,1.0,2.0
19.390174865722656,-21.2230167388916,1.702706813812256,-0.0,-0.0,-1.0,0.2313579644267435,1.0,2.0
19.30309677124023,-21.20542907714844,1.6960334777832031,-0.0,-0.0,-1.0,0.1891201743269933,1.0,2.0
18.941774368286133,-21.321590423583984,1.6651747226715088,-0.0,-0.0,-1.0,0.197798406472484,1.0,2.0
19.52315902709961,-19.52709197998047,0.6588249206542969,-0.0,-0.0,-1.0,0.1371953058549796,1.0,1.0
19.552078247070312,-19.627582550048828,0.6683351993560791,-0.0,-0.0,-1.0,0.1661034433506159,1.0,1.0
18.383922576904297,-20.23710823059082,0.9437382221221924,-0.0,-0.0,-1.0,0.1359098247467176,1.0,1.0
20.001197814941406,-19.996315002441406,0.7614383697509766,0.3382175296882933,0.5421401946895694,-0.769215777213068,0.2009849974858766,3.0,1.0
17.93739891052246,-20.80908966064453,0.8890656232833862,-0.0,-0.0,-1.0,0.1247667465510207,1.0,1.0
19.726388931274418,-20.647518157958984,0.7371926307678223,-0.0,-0.0,-1.0,0.1316292566600718,1.0,1.0
18.186992645263672,-21.00570297241211,0.9273149967193604,-0.0,-0.0,-1.0,0.1201973181636831,1.0,1.0
19.85318374633789,-20.93930435180664,0.7678995132446289,-0.0,-0.0,-1.0,0.1104524425020868,1.0,1.0
18.09522819519043,-21.43976593017578,0.9174262285232544,-0.0,-0.0,-1.0,0.1208990959182181,1.0,1.0
19.891372680664062,-21.323009490966797,0.7835919857025146,-0.0,-0.0,-1.0,0.1074685579286672,2.0,1.0
20.10302734375,-21.779632568359375,0.8293846845626831,-0.0,-0.0,-1.0,0.1160976628081884,1.0,1.0
19.76584243774414,-21.680030822753903,0.7672607898712158,-0.0,-0.0,-1.0,0.1022634356583673,1.0,1.0
17.93178367614746,-19.817188262939453,1.3415402173995972,-0.0,-0.0,-1.0,0.131353385251815,1.0,2.0
19.939584732055664,-19.751266479492188,1.1486856937408447,-0.0,-0.0,-1.0,0.1854455249923888,1.0,2.0
19.682769775390625,-19.858797073364254,1.116626858711243,-0.6743546276999351,0.2137831343017584,-0.7067832819102317,0.130605227072358,3.0,2.0
18.955333709716797,-20.014631271362305,1.0194107294082642,-0.0,-0.0,-1.0,0.215946648124131,1.0,2.0
20.12935447692871,-20.098766326904297,1.1855196952819824,-0.0,-0.0,-1.0,0.1718150194234001,1.0,2.0
18.895896911621097,-20.37889862060547,1.0191882848739624,-0.0,-0.0,-1.0,0.2123643860664843,2.0,2.0
18.531795501708984,-20.419580459594727,0.9682720899581908,-0.0,-0.0,-1.0,0.1556951046144971,1.0,1.0
20.189672470092773,-20.4395809173584,1.2031694650650024,-0.0,-0.0,-1.0,0.1418257401319988,1.0,2.0
19.851465225219727,-20.511489868164062,1.1573002338409424,-0.0,-0.0,-1.0,0.1631844286717197,2.0,2.0
19.25864601135254,-20.7644100189209,1.078054904937744,-0.0,-0.0,-1.0,0.1790487534065425,2.0,2.0
19.161466598510746,-20.736682891845703,1.0637140274047852,-0.0,-0.0,-1.0,0.18277746766407,2.0,2.0
18.34746551513672,-21.158037185668945,0.952052116394043,-0.0,-0.0,-1.0,0.1324527311798171,1.0,1.0
19.38948631286621,-20.991077423095703,1.1003371477127075,-0.0,-0.0,-1.0,0.1387366207492301,2.0,2.0
19.104761123657227,-21.103302001953125,1.0609009265899658,-0.0,-0.0,-1.0,0.1885003584188997,1.0,2.0
18.61240005493164,-21.32896423339844,0.991927981376648,-0.0,-0.0,-1.0,0.2268003948996678,1.0,1.0
18.435405731201172,-21.465831756591797,0.9671292304992676,-0.0,-0.0,-1.0,0.2343280886568843,1.0,1.0
19.6263427734375,-21.35388946533203,1.1390488147735596,-0.0,-0.0,-1.0,0.1256452461573013,1.0,2.0
19.31572151184082,-21.588945388793945,1.096010684967041,-0.0,-0.0,-1.0,0.150157428531573,1.0,2.0
18.50226593017578,-21.696720123291016,0.977840781211853,-0.0,-0.0,-1.0,0.1436835601824087,1.0,1.0
17.97614097595215,-20.68517684936523,1.3537691831588743,-0.0,-0.0,-1.0,0.1275038536475627,1.0,2.0
17.861507415771484,-20.887693405151367,1.3419666290283203,-0.0,-0.0,-1.0,0.2193839146048428,1.0,2.0
19.38880157470703,-20.785860061645508,1.508427977561951,-0.0,-0.0,-1.0,0.1667389361303009,2.0,2.0
17.928279876708984,-21.12037467956543,1.3497284650802612,-0.0,-0.0,-1.0,0.1519255864473804,1.0,2.0
19.35607528686523,-21.008953094482425,1.5062634944915771,-0.0,-0.0,-1.0,0.1925039940186485,1.0,2.0
19.238235473632812,-21.06085968017578,1.493636965751648,-0.0,-0.0,-1.0,0.202064248782342,2.0,2.0
18.32156753540039,-21.40384101867676,1.3932209014892578,-0.0,-0.0,-1.0,0.0624148892643412,1.0,2.0
19.465232849121097,-21.363243103027344,1.519554853439331,-0.0,-0.0,-1.0,0.1266101429570392,1.0,2.0
18.08942222595215,-21.825611114501953,1.3660345077514648,-0.0,-0.0,-1.0,0.1116032615434859,2.0,2.0
19.063304901123047,-20.979944229125977,1.8917858600616455,-0.0,-0.0,-1.0,0.1448057677464593,2.0,2.0
17.8526611328125,-21.17338180541992,1.7989239692687988,-0.9182472859830928,0.2675297228974023,-0.2919756310912318,0.1173700424505124,5.0,2.0
19.624271392822266,-20.984546661376953,1.933924913406372,-0.0,-0.0,-1.0,0.1853735714871909,1.0,2.0
19.085647583007812,-21.278541564941406,1.891960382461548,-0.0,-0.0,-1.0,0.2256411304812161,1.0,2.0
19.063230514526367,-21.48573303222656,1.8888368606567385,-0.0,-0.0,-1.0,0.2397223591170887,1.0,2.0
19.36708068847656,-19.584705352783203,0.7249660491943359,-0.0,-0.0,-1.0,0.1687956237378545,1.0,1.0
18.018238067626953,-19.838905334472656,0.9293899536132812,-0.0,-0.0,-1.0,0.1186044433030653,1.0,1.0
20.074886322021484,-19.85853576660156,0.8823835849761963,-0.0,-0.0,-1.0,0.1340084223857519,1.0,1.0
19.94869613647461,-19.962114334106445,0.8657896518707275,0.7171014005053487,-0.5617430203026642,0.412565583313136,0.232246102426904,3.0,1.0
20.02904510498047,-20.16030502319336,0.8958067893981934,0.2644413166021711,-0.8416532534038539,-0.47084030319039,0.1407756472935316,3.0,1.0
19.48523330688477,-20.53754615783691,0.8129720687866211,-0.0,-0.0,-1.0,0.2364015187282996,1.0,1.0
19.46778678894043,-20.69255256652832,0.818507194519043,-0.0,-0.0,-1.0,0.1598790730817399,1.0,1.0
19.419788360595703,-20.907211303710938,0.8205490112304688,-0.0,-0.0,-1.0,0.2039241979493655,2.0,1.0
19.365095138549805,-21.336517333984375,0.8300497531890869,-0.0,-0.0,-1.0,0.1390020094403587,1.0,1.0
19.39426040649414,-21.691511154174805,0.8502821922302246,-0.0,-0.0,-1.0,0.1840836453102561,1.0,1.0
18.454086303710938,-19.553417205810547,0.9860410690307616,-0.0,-0.0,-1.0,0.173902453940162,1.0,1.0
18.211240768432617,-19.681846618652344,0.9532463550567628,0.8218410120164535,0.2076338854957822,-0.5305332417122379,0.263346809160422,3.0,1.0
19.932842254638672,-19.58512306213379,1.2256075143814087,-0.0,-0.0,-1.0,0.172420920085627,2.0,2.0
19.663169860839844,-19.57953834533691,1.1824054718017578,-0.0,-0.0,-1.0,0.150348918226046,1.0,2.0
18.81046485900879,-19.842952728271484,1.0599074363708496,-0.0,-0.0,-1.0,0.1963091066890127,1.0,2.0
18.465770721435547,-19.74227523803711,0.9981451034545898,-0.0,-0.0,-1.0,0.2400112257305847,1.0,1.0
18.280723571777344,-19.8510684967041,0.9733188152313232,-0.0,-0.0,-1.0,0.2074615425073893,1.0,1.0
20.18083953857422,-19.91345977783203,1.285730481147766,-0.0,-0.0,-1.0,0.1374650221998448,1.0,2.0
19.669597625732425,-19.878963470458984,1.201517939567566,-0.0,-0.0,-1.0,0.2273170142976302,1.0,2.0
19.5556640625,-19.82693862915039,1.1801116466522217,-0.0,-0.0,-1.0,0.1837658891339093,2.0,2.0
18.737327575683594,-20.34128189086914,1.0725250244140625,-0.0,-0.0,-1.0,0.134659819182362,2.0,2.0
18.378101348876953,-20.406932830810547,1.015427827835083,-0.0,-0.0,-1.0,0.1495328849197375,2.0,2.0
20.192386627197266,-20.238378524780273,1.1200923919677734,-0.0,-0.0,-1.0,0.1368645544977701,2.0,2.0
20.02592086791992,-20.356508255004883,1.0989919900894165,-0.0,-0.0,-1.0,0.2583870321399145,2.0,2.0
19.595882415771484,-20.52419090270996,1.2237906455993652,-0.0,-0.0,-1.0,0.2255614636736133,1.0,2.0
19.08199691772461,-20.722156524658203,1.146931767463684,-0.0,-0.0,-1.0,0.2172295318920148,1.0,2.0
18.90130615234375,-20.53015518188477,1.1083983182907104,-0.0,-0.0,-1.0,0.1211425338561483,1.0,2.0
17.869640350341797,-20.925811767578125,0.9490177631378174,-0.0,-0.0,-1.0,0.1186848973147017,1.0,1.0
20.02219581604004,-20.55147933959961,0.9207553863525392,-0.0,-0.0,-1.0,0.2074292439029066,1.0,1.0
19.342376708984375,-20.947893142700195,1.1999558210372925,-0.0780393774711708,-0.2956127560115966,-0.9521149899288116,0.2843707050138803,6.0,2.0
19.019535064697266,-21.08658790588379,1.15056574344635,-0.0,-0.0,-1.0,0.1407466665397064,1.0,2.0
18.49371910095215,-21.23856544494629,1.06585693359375,-0.0,-0.0,-1.0,0.1779307939467427,1.0,2.0
18.230148315429688,-21.218809127807617,1.019947528839111,-0.0,-0.0,-1.0,0.1317643838872791,1.0,2.0
19.3895206451416,-21.222185134887695,1.2182495594024658,-0.0,-0.0,-1.0,0.1971706770795112,1.0,2.0
18.403839111328125,-21.40937042236328,1.0554354190826416,-0.0,-0.0,-1.0,0.1771463185482964,1.0,2.0
18.25832748413086,-21.53003692626953,1.0335469245910645,-0.0,-0.0,-1.0,0.1692932409568872,1.0,2.0
19.57373046875,-21.73393821716309,0.8892579078674316,-0.0,-0.0,-1.0,0.1188069496797883,1.0,1.0
18.57884979248047,-21.77635383605957,1.095055341720581,-0.0,-0.0,-1.0,0.1755109154257569,1.0,2.0
17.967487335205078,-19.914907455444336,1.3716695308685305,-0.0,-0.0,-1.0,0.2062137443473288,1.0,2.0
19.292285919189453,-20.894948959350582,1.5799309015274048,-0.0,-0.0,-1.0,0.1804809923811226,2.0,2.0
19.05201530456543,-21.159236907958984,1.5545551776885986,-0.0,-0.0,-1.0,0.1868088628194901,1.0,2.0
17.94715118408203,-21.19436264038086,1.4041893482208252,-0.0,-0.0,-1.0,0.1649539931606201,1.0,2.0
19.363435745239254,-21.17892837524414,1.5973758697509766,-0.0,-0.0,-1.0,0.2200287151711647,1.0,2.0
18.83666229248047,-21.29921531677246,1.5284022092819214,-0.0,-0.0,-1.0,0.1955425251514376,2.0,2.0
18.326257705688477,-21.405176162719727,1.4604380130767822,0.4912349644931189,-0.8614968190344907,0.1284968499726673,0.0613018589772245,4.0,2.0
17.990585327148438,-21.82958984375,1.4204543828964231,-0.0,-0.0,-1.0,0.1108988620036717,1.0,2.0
19.57628059387207,-21.438297271728516,1.6326565742492676,-0.0,-0.0,-1.0,0.155391442420878,1.0,2.0
17.76617431640625,-20.629772186279297,1.807628273963928,-0.0,-0.0,-1.0,0.1360796634345952,1.0,2.0
19.56723403930664,-20.819005966186523,1.9932007789611816,-0.0,-0.0,-1.0,0.1655688804220656,2.0,2.0
19.429195404052734,-20.98038673400879,1.9822099208831787,-0.0,-0.0,-1.0,0.1900853334364662,1.0,2.0
17.914180755615234,-21.30013656616211,1.831214189529419,-0.0,-0.0,-1.0,0.2131208397441402,1.0,2.0
20.143733978271484,-19.6485652923584,0.6613247394561768,-0.0,-0.0,-1.0,0.0929152043972697,1.0,1.0
19.996089935302734,-19.78471946716309,0.6451826095581055,-0.0,-0.0,-1.0,0.07678488703611,2.0,1.0
20.090471267700195,-19.800506591796875,0.6677148342132568,-0.0,-0.0,-1.0,0.1075556867689184,1.0,1.0
20.04335021972656,-19.92188262939453,0.6711881160736084,0.5119854037468432,-0.0607601348680959,-0.856842548173813,0.0654123982734781,4.0,1.0
18.87039375305176,-20.42732048034668,0.8501808643341064,-0.0,-0.0,-1.0,0.222033245799664,1.0,1.0
19.114566802978516,-20.479007720947266,0.9026644229888916,-0.0,-0.0,-1.0,0.1652582659394098,1.0,1.0
18.610984802246097,-20.97502899169922,0.8355772495269775,-0.0,-0.0,-1.0,0.1025716681527297,1.0,1.0
20.097095489501953,-20.72686767578125,0.767474889755249,-0.0,-0.0,-1.0,0.1395229541843592,1.0,1.0
19.932594299316406,-20.92982482910156,0.7483174800872803,-0.0,-0.0,-1.0,0.1116504929892134,1.0,1.0
18.565364837646484,-21.25363540649414,0.8428597450256348,-0.0,-0.0,-1.0,0.1683757221210443,1.0,1.0
18.35093116760254,-21.169931411743164,0.7939631938934326,-0.0,-0.0,-1.0,0.1027236061360951,1.0,1.0
19.93147850036621,-21.321510314941406,0.781080961227417,-0.0,-0.0,-1.0,0.1028889419072941,2.0,1.0
18.610164642333984,-21.519630432128903,0.8668382167816162,-0.0,-0.0,-1.0,0.1913196994944618,1.0,1.0
18.474016189575195,-21.695377349853516,0.847275972366333,-0.0,-0.0,-1.0,0.1791674999351731,1.0,1.0
19.84902572631836,-21.589025497436523,0.7822306156158447,-0.0,-0.0,-1.0,0.1060746454019577,1.0,1.0
19.706043243408203,-21.78167724609375,0.761174201965332,-0.0,-0.0,-1.0,0.0825588346226923,1.0,1.0
17.93914031982422,-19.45133399963379,1.0232255458831787,-0.0,-0.0,-1.0,0.2562803587234347,2.0,2.0
18.454429626464844,-19.542585372924805,1.1129984855651855,-0.0,-0.0,-1.0,0.1547441165216674,1.0,2.0
18.203205108642575,-19.704570770263672,1.0831074714660645,-0.0,-0.0,-1.0,0.1930197692637819,2.0,2.0
17.886735916137695,-19.786937713623047,1.0364418029785156,-0.0,-0.0,-1.0,0.2224315795470433,2.0,2.0
19.529821395874023,-19.781269073486328,1.3024170398712158,-0.0,-0.0,-1.0,0.2710477999151965,1.0,2.0
18.128986358642575,-20.04772186279297,1.0926034450531006,-0.0,-0.0,-1.0,0.1918211212228985,1.0,2.0
18.077903747558594,-20.120410919189453,1.0884811878204346,-0.0,-0.0,-1.0,0.1556258528856047,1.0,2.0
19.939098358154297,-19.99254035949707,1.0221025943756104,-0.0,-0.0,-1.0,0.2285291548697085,1.0,2.0
19.33197021484375,-20.265438079833984,1.30453622341156,-0.0,-0.0,-1.0,0.1882442900868531,1.0,2.0
17.86918067932129,-20.703468322753903,1.0851056575775146,-0.0,-0.0,-1.0,0.2887426809011603,1.0,2.0
20.040172576904297,-20.389577865600582,1.0770130157470703,-0.0,-0.0,-1.0,0.1967482186514761,2.0,2.0
19.77655029296875,-20.58523178100586,1.0417957305908203,-0.0,-0.0,-1.0,0.2129075105859775,2.0,2.0
19.337799072265625,-20.733638763427734,0.9660487174987792,-0.0,-0.0,-1.0,0.2492712301106796,1.0,1.0
17.962352752685547,-21.07629776000977,1.118626832962036,-0.0,-0.0,-1.0,0.2326204798414663,1.0,2.0
17.757675170898438,-20.971229553222656,1.078657627105713,-0.0,-0.0,-1.0,0.1470968094257972,1.0,2.0
19.36443328857422,-20.996809005737305,0.9901137351989746,-0.0,-0.0,-1.0,0.1597195750585689,2.0,1.0
18.953643798828125,-21.064279556274418,1.0994312763214111,-0.0,-0.0,-1.0,0.1946423526000135,1.0,2.0
18.74602508544922,-21.08444595336914,1.2535752058029177,-0.0,-0.0,-1.0,0.2316999856914847,1.0,2.0
18.191804885864254,-21.416746139526367,1.1729073524475098,-0.0,-0.0,-1.0,0.1313159904914225,1.0,2.0
17.853893280029297,-21.51128578186035,1.117605209350586,0.9418692093341012,0.3080578791977029,0.1340997224925099,0.1314230123279349,4.0,2.0
19.524330139160156,-21.380502700805664,1.047705888748169,-0.0,-0.0,-1.0,0.192620958988451,1.0,2.0
18.212663650512695,-21.846193313598633,1.1925408840179443,-0.0,-0.0,-1.0,0.137388998526741,1.0,2.0
20.05181884765625,-21.821460723876953,1.1823703050613403,-0.0,-0.0,-1.0,0.1601410827599714,1.0,2.0
18.022056579589844,-19.890613555908203,1.4846025705337524,-0.0,-0.0,-1.0,0.2218921188181818,1.0,2.0
19.64255142211914,-19.909637451171875,1.3298991918563845,-0.0,-0.0,-1.0,0.185225930548244,2.0,2.0
19.581193923950195,-20.05808448791504,1.33078134059906,-0.0,-0.0,-1.0,0.1864791203963385,2.0,2.0
20.071292877197266,-20.226097106933594,1.4214284420013428,-0.0,-0.0,-1.0,0.235656952995528,1.0,2.0
19.83533096313477,-20.554140090942383,1.4057848453521729,-0.0,-0.0,-1.0,0.1738582971750611,1.0,2.0
19.318347930908203,-20.793670654296875,1.3348751068115234,-0.0,-0.0,-1.0,0.2094661050863548,1.0,2.0
19.381391525268555,-21.013771057128903,1.3577134609222412,-0.0,-0.0,-1.0,0.2522170949783718,2.0,2.0
19.0751895904541,-21.163864135742188,1.4968680143356323,-0.0,-0.0,-1.0,0.221149919660384,1.0,2.0
18.151498794555664,-21.350994110107425,1.558842420578003,-0.0,-0.0,-1.0,0.0482733864501778,1.0,2.0
17.944887161254883,-21.24092483520508,1.526719093322754,-0.0,-0.0,-1.0,0.1339816125126244,1.0,2.0
18.155420303344727,-21.713199615478516,1.569498062133789,-0.0,-0.0,-1.0,0.1489185025944012,2.0,2.0
19.704883575439453,-21.823017120361328,1.4523606300354004,-0.0,-0.0,-1.0,0.1368167229573427,1.0,2.0
17.72949981689453,-20.610092163085938,1.89022696018219,-0.0,-0.0,-1.0,0.1411743623960414,1.0,2.0
18.93600273132324,-20.966941833496097,2.0242671966552734,-0.0,-0.0,-1.0,0.1541776356399615,1.0,3.0
18.050846099853516,-21.155847549438477,1.9361553192138672,-0.0,-0.0,-1.0,0.2043408380875924,1.0,2.0
19.384864807128903,-21.04983711242676,1.7180410623550415,-0.0,-0.0,-1.0,0.2512661122542219,1.0,2.0
17.842464447021484,-21.2921085357666,1.9167721271514893,-0.0,-0.0,-1.0,0.2090695853883749,1.0,2.0
18.53547477722168,-19.397537231445312,0.8306493759155273,-0.0,-0.0,-1.0,0.1474060391654417,2.0,1.0
18.51177215576172,-19.42695045471191,0.8293571472167969,-0.0,-0.0,-1.0,0.1474060391654417,2.0,1.0
18.642608642578125,-19.423091888427734,0.8530924320220947,-0.0,-0.0,-1.0,0.1831614823785733,2.0,1.0
18.437602996826172,-19.789527893066406,0.852262020111084,-0.0,-0.0,-1.0,0.1444100665211006,1.0,1.0
18.29991149902344,-20.038938522338867,0.8499233722686768,-0.0,-0.0,-1.0,0.1055133975434039,1.0,1.0
20.09978675842285,-20.060474395751953,0.851682186126709,-0.0,-0.0,-1.0,0.1709620082012683,1.0,1.0
18.03404998779297,-20.567636489868164,0.8442952632904053,-0.0,-0.0,-1.0,0.1873839760463151,1.0,1.0
18.009042739868164,-20.71806907653809,0.8514056205749512,-0.0,-0.0,-1.0,0.2061639889525026,1.0,1.0
20.131752014160156,-20.25458526611328,0.8840198516845703,-0.0,-0.0,-1.0,0.2301264900952225,1.0,1.0
19.87042999267578,-20.439624786376953,0.850778341293335,-0.0,-0.0,-1.0,0.1561213475409651,1.0,1.0
19.480497360229492,-20.610126495361328,0.7848715782165527,-0.0,-0.0,-1.0,0.1995540416318968,2.0,1.0
18.069503784179688,-20.82819175720215,0.8721017837524414,-0.0,-0.0,-1.0,0.1390188713939956,1.0,1.0
19.43126678466797,-20.935850143432617,0.8095223903656006,-0.0,-0.0,-1.0,0.2091593669204784,2.0,1.0
19.215576171875,-21.109472274780273,0.777829647064209,-0.0,-0.0,-1.0,0.1536115409850268,1.0,1.0
19.16781997680664,-21.555681228637695,0.8084743022918701,-0.0,-0.0,-1.0,0.1084096516389513,1.0,1.0
17.839658737182617,-19.41020774841309,1.1147089004516602,-0.0,-0.0,-1.0,0.1973224829053649,2.0,2.0
17.8642635345459,-19.70562171936035,1.1417973041534424,-0.0,-0.0,-1.0,0.2003846893022458,2.0,2.0
19.751596450805664,-19.798606872558594,1.0959618091583252,-0.0,-0.0,-1.0,0.1528310781438658,1.0,2.0
19.190147399902344,-19.949424743652344,1.0094172954559326,-0.0,-0.0,-1.0,0.1407336401622648,2.0,2.0
18.99312400817871,-19.946823120117188,0.9724159240722656,-0.7831289953738453,0.4682855623848347,0.4091669691784402,0.2338973858787228,3.0,1.0
18.62490463256836,-20.015453338623047,0.909771203994751,-0.0,-0.0,-1.0,0.1639331247225641,1.0,1.0
20.1921329498291,-20.05684280395508,1.039715051651001,-0.0,-0.0,-1.0,0.0745571932836999,1.0,2.0
19.7666015625,-19.92816925048828,1.113034725189209,-0.0,-0.0,-1.0,0.1852387473557546,1.0,2.0
19.359542846679688,-20.11789321899414,1.058175802230835,-0.0,-0.0,-1.0,0.2618077934015442,2.0,2.0
18.94562530517578,-20.335548400878903,1.001368522644043,-0.0,-0.0,-1.0,0.2515920486810993,1.0,2.0
18.714244842529297,-20.274036407470703,0.951324462890625,-0.0,-0.0,-1.0,0.2433666130730142,2.0,1.0
17.80819320678711,-20.709274291992188,1.2022751569747925,-0.0,-0.0,-1.0,0.1439162831651501,1.0,2.0
20.144309997558594,-20.361413955688477,1.065842628479004,-0.0,-0.0,-1.0,0.1953207573471855,1.0,2.0
19.871875762939453,-20.470409393310547,1.0250158309936523,-0.0,-0.0,-1.0,0.2361074552978133,1.0,2.0
19.46162796020508,-20.64090156555176,1.1285258531570437,-0.0,-0.0,-1.0,0.1581106256329251,1.0,2.0
19.080678939819336,-20.59886932373047,1.0517828464508057,-0.0,-0.0,-1.0,0.1407066640847855,1.0,2.0
18.271942138671875,-20.911043167114254,0.9188473224639891,-0.0,-0.0,-1.0,0.1005586548326613,2.0,1.0
17.891775131225586,-21.100284576416016,1.2396334409713743,-0.0,-0.0,-1.0,0.2611241961651857,1.0,2.0
19.407920837402344,-20.973478317260746,1.1486523151397705,-0.0,-0.0,-1.0,0.1685359116445632,2.0,2.0
19.14463806152344,-21.051719665527344,1.1036264896392822,-0.0,-0.0,-1.0,0.1253469581096427,1.0,2.0
18.809083938598633,-21.250951766967773,1.0527517795562744,-0.0,-0.0,-1.0,0.1419312275593642,1.0,2.0
18.46292495727539,-21.338321685791016,0.9892191886901855,0.9699347288531046,-0.0118111146429594,-0.2430784221923986,0.2152851438809977,3.0,1.0
17.72850227355957,-21.615188598632812,1.2386016845703125,-0.0,-0.0,-1.0,0.1284568057723757,1.0,2.0
19.62781524658203,-21.324630737304688,1.2216947078704834,-0.0,-0.0,-1.0,0.0650707115961025,1.0,2.0
18.517139434814453,-21.70779609680176,1.0254240036010742,-0.0,-0.0,-1.0,0.1223417421757238,2.0,2.0
20.15316390991211,-21.839645385742188,1.0654518604278564,-0.0,-0.0,-1.0,0.2428841074298754,1.0,2.0
19.49598693847656,-19.78417205810547,1.4029381275177002,-0.0,-0.0,-1.0,0.21089677191903,1.0,2.0
19.877639770507812,-20.0656795501709,1.485905647277832,-0.0,-0.0,-1.0,0.0970578234655478,1.0,2.0
17.740806579589844,-20.753305435180664,1.5821267366409302,-0.0,-0.0,-1.0,0.1824954803598977,2.0,2.0
19.40262985229492,-20.788414001464844,1.4699605703353882,-0.0,-0.0,-1.0,0.1953089728644037,2.0,2.0
17.956588745117188,-21.093738555908203,1.626650333404541,-0.0,-0.0,-1.0,0.2198731186539089,1.0,2.0
19.460803985595703,-21.018566131591797,1.4958873987197876,-0.0,-0.0,-1.0,0.1544185629923076,1.0,2.0
19.236724853515625,-21.062698364257812,1.462153673171997,-0.0,-0.0,-1.0,0.2799361572099804,2.0,2.0
18.93699836730957,-21.051584243774418,1.4120290279388428,-0.0,-0.0,-1.0,0.1257273959252194,2.0,2.0
18.39806365966797,-21.40903091430664,1.343031644821167,-0.0,-0.0,-1.0,0.1040309442743397,2.0,2.0
19.600486755371097,-21.34900283813477,1.5413649082183838,-0.0,-0.0,-1.0,0.1573023855479415,1.0,2.0
18.366851806640625,-21.728458404541016,1.354503870010376,-0.0,-0.0,-1.0,0.1882704542776458,1.0,2.0
18.084980010986328,-21.716819763183594,1.3052046298980713,-0.0,-0.0,-1.0,0.2054968277334701,1.0,2.0
19.45575714111328,-20.774023056030273,1.8106874227523804,0.5243891256565709,0.842360003864111,-0.1242806050161951,0.2584223151226971,3.0,2.0
18.079986572265625,-21.121002197265625,2.0129752159118652,-0.0,-0.0,-1.0,0.1910903972312479,1.0,3.0
19.253986358642575,-21.209396362304688,1.8072861433029177,-0.0,-0.0,-1.0,0.188144099912645,1.0,2.0
19.016159057617188,-21.279674530029297,1.7787827253341677,-0.0,-0.0,-1.0,0.1912276619734423,1.0,2.0
17.939891815185547,-19.687156677246097,0.927135705947876,-0.0,-0.0,-1.0,0.2663249147234831,1.0,1.0
18.984437942504883,-20.106081008911133,0.8155641555786133,-0.4145569454489535,-0.4088987519536237,-0.812984839729993,0.2057096715334054,4.0,1.0
19.41408920288086,-20.207826614379883,0.9186639785766602,-0.0,-0.0,-1.0,0.2693945427140765,1.0,1.0
19.045413970947266,-20.33074951171875,0.8565464019775391,-0.0,-0.0,-1.0,0.1799506801158474,1.0,1.0
18.58919334411621,-20.763568878173828,0.8071801662445068,-0.0,-0.0,-1.0,0.1000105745868417,1.0,1.0
18.513858795166016,-20.933738708496097,0.8080978393554688,-0.0,-0.0,-1.0,0.0896010368645364,1.0,1.0
18.526582717895508,-21.43991470336914,0.8609976768493652,-0.0,-0.0,-1.0,0.2734052722671282,1.0,1.0
18.41550636291504,-19.746192932128903,1.0201985836029053,-0.0,-0.0,-1.0,0.1969792096684806,1.0,2.0
18.177406311035156,-19.754125595092773,0.9775385856628418,-0.0,-0.0,-1.0,0.232492469811645,1.0,1.0
19.98737335205078,-19.763233184814453,1.1354143619537354,-0.0,-0.0,-1.0,0.2072621877069236,1.0,2.0
19.707338333129883,-19.85959243774414,1.2610646486282349,-0.0,-0.0,-1.0,0.1786266916610795,2.0,2.0
17.798343658447266,-20.385318756103516,0.9661657810211182,-0.0531531608074059,0.7782240756244998,-0.6257331936333367,0.2018246654899448,3.0,1.0
19.862001419067383,-20.177104949951172,1.169076442718506,-0.0,-0.0,-1.0,0.2926367889765568,1.0,2.0
19.444921493530273,-20.350040435791016,1.108508586883545,-0.0,-0.0,-1.0,0.1963593833352329,1.0,2.0
19.28108787536621,-20.536705017089844,0.9322776794433594,-0.0,-0.0,-1.0,0.1407086160891088,1.0,1.0
17.912281036376953,-20.714570999145508,1.0163156986236572,-0.0,-0.0,-1.0,0.2485797190304525,1.0,2.0
20.204496383666992,-20.398841857910156,1.1061513423919678,-0.0,-0.0,-1.0,0.1713575783882197,1.0,2.0
19.922359466552734,-20.492420196533203,1.061269760131836,-0.0,-0.0,-1.0,0.245439526660613,2.0,2.0
19.54355812072754,-20.793880462646484,1.0195109844207764,-0.0,-0.0,-1.0,0.2113590045669652,2.0,2.0
19.16464614868164,-20.818727493286133,1.1042160987854004,-0.0,-0.0,-1.0,0.2679576574320469,2.0,2.0
18.960588455200195,-20.956079483032227,1.075253963470459,-0.0,-0.0,-1.0,0.1433830063872725,2.0,2.0
18.085628509521484,-21.157215118408203,1.0860342979431152,-0.0,-0.0,-1.0,0.20617967501066,1.0,2.0
17.79655647277832,-21.236055374145508,1.0343146324157717,-0.0,-0.0,-1.0,0.1850675505993176,1.0,2.0
19.43561553955078,-20.994020462036133,1.0200598239898682,-0.0,-0.0,-1.0,0.1182152715079549,2.0,2.0
18.88788604736328,-21.20274353027344,1.2476834058761597,-0.0,-0.0,-1.0,0.2251124375602024,1.0,2.0
18.532310485839844,-21.36097717285156,1.190680742263794,0.8959793443580841,0.0153621513506976,-0.4438299435476785,0.2042217743205908,3.0,2.0
18.05466079711914,-21.476543426513672,1.103590965270996,-0.0,-0.0,-1.0,0.1434909155944203,1.0,2.0
17.874473571777344,-21.610204696655273,1.0761733055114746,-0.0,-0.0,-1.0,0.1481018383423515,1.0,2.0
19.342144012451172,-21.56064796447754,1.0603876113891602,-0.0,-0.0,-1.0,0.150157428531573,1.0,2.0
18.544452667236328,-21.77941513061523,0.8955245018005371,-0.0,-0.0,-1.0,0.1420774457204233,1.0,1.0
18.161542892456055,-21.83307647705078,1.149472713470459,-0.0,-0.0,-1.0,0.1418924403771707,1.0,2.0
17.792572021484375,-20.517108917236328,1.526803731918335,-0.0,-0.0,-1.0,0.1259518308890972,1.0,2.0
20.160823822021484,-20.137231826782227,1.371412992477417,-0.0,-0.0,-1.0,0.1642877120054345,1.0,2.0
19.76449966430664,-20.44417953491211,1.3376246690750122,-0.0,-0.0,-1.0,0.2641869608615561,2.0,2.0
17.888717651367188,-20.728513717651367,1.3750587701797483,0.8654819288045954,0.2638760224799848,0.4258056783003485,0.1766003738217954,4.0,2.0
19.521320343017575,-20.77613067626953,1.4830081462860107,-0.0,-0.0,-1.0,0.2180868989334576,1.0,2.0
19.296594619750977,-20.923900604248047,1.459387183189392,-0.0,-0.0,-1.0,0.1997678358185456,2.0,2.0
18.78104782104492,-20.991086959838867,1.5380394458770752,-0.0,-0.0,-1.0,0.2220850022443799,2.0,2.0
17.995342254638672,-21.116241455078125,1.4171098470687866,-0.0,-0.0,-1.0,0.2426121509826663,1.0,2.0
19.337860107421875,-21.095104217529297,1.4805257320404053,-0.0,-0.0,-1.0,0.2006784899576365,1.0,2.0
19.168899536132812,-21.439802169799805,1.6314284801483154,-0.0,-0.0,-1.0,0.1616219238398277,2.0,2.0
18.37941551208496,-21.39215850830078,1.4977335929870603,-0.0,-0.0,-1.0,0.0782979909127427,2.0,2.0
18.164039611816406,-21.82381248474121,1.484748601913452,-0.0,-0.0,-1.0,0.103580277472649,2.0,2.0
17.806690216064453,-20.707130432128903,1.720898985862732,-0.0,-0.0,-1.0,0.2350875684797967,2.0,2.0
17.752927780151367,-20.877378463745117,1.7216070890426636,-0.0,-0.0,-1.0,0.1158752958252769,2.0,2.0
19.549589157104492,-20.81409072875977,1.9520920515060425,-0.0,-0.0,-1.0,0.1904548722440884,2.0,2.0
19.21267318725586,-20.913005828857425,1.915099859237671,-0.0,-0.0,-1.0,0.2111685162982708,1.0,2.0
17.94239044189453,-21.20770263671875,1.7616289854049685,-0.0,-0.0,-1.0,0.2374075983674856,2.0,2.0
18.04959487915039,-19.922618865966797,1.2278114557266235,-0.0,-0.0,-1.0,0.1369212122963133,1.0,2.0
17.88372802734375,-20.72321319580078,1.3390986919403076,0.7954857987086553,0.6056043813404256,-0.0211110718376119,0.2188629334439715,3.0,2.0
17.770647048950195,-20.547935485839844,1.640135645866394,-0.0,-0.0,-1.0,0.1255895898371156,1.0,2.0
17.813156127929688,-20.88115882873535,1.6881837844848633,-0.0,-0.0,-1.0,0.188933418790778,2.0,2.0
19.41744804382324,-20.935203552246097,1.5508288145065308,0.6683215228438552,0.6045368637879909,-0.4334530221662437,0.2001017071232125,3.0,2.0
18.840307235717773,-20.98804473876953,1.4952744245529177,-0.0,-0.0,-1.0,0.1866417211059913,1.0,2.0
18.017539978027344,-21.23556327819824,1.5952690839767456,-0.2265697886552028,-0.9578130825809298,-0.1768056269058029,0.2346255793836842,4.0,2.0
19.199657440185547,-21.464120864868164,1.614396333694458,-0.0,-0.0,-1.0,0.1608940233711915,2.0,2.0
18.982467651367188,-21.236820220947266,1.5523258447647097,-0.0,-0.0,-1.0,0.1679305468410064,1.0,2.0
19.148731231689453,-20.6229190826416,1.7693848609924316,-0.0,-0.0,-1.0,0.2312076020826985,1.0,2.0
19.58991050720215,-20.753040313720703,1.8234919309616089,-0.0,-0.0,-1.0,0.2338244823685981,1.0,2.0
18.98192024230957,-20.96537208557129,1.806058645248413,-0.0,-0.0,-1.0,0.1413281934295781,1.0,2.0
18.56740951538086,-19.450340270996097,0.965644359588623,-0.0,-0.0,-1.0,0.1928780784542433,2.0,1.0
18.22904586791992,-19.416671752929688,0.9079163074493408,-0.0,-0.0,-1.0,0.2124522368930667,1.0,1.0
17.99839210510254,-19.38388442993164,0.866018533706665,-0.0,-0.0,-1.0,0.1693901756172078,1.0,1.0
18.51540756225586,-19.690975189208984,0.9998390674591064,-0.6593900633407608,-0.1934167933399395,-0.7264947958668133,0.2029152683192842,3.0,1.0
18.33594512939453,-19.744373321533203,0.9806740283966064,-0.0,-0.0,-1.0,0.2154248996337435,1.0,1.0
17.86151695251465,-20.237720489501953,0.9815373420715332,-0.0,-0.0,-1.0,0.1981633509829712,1.0,1.0
17.933467864990234,-20.69925117492676,1.0638561248779297,-0.0,-0.0,-1.0,0.1947959397929625,2.0,2.0
17.79999542236328,-20.878005981445312,1.0657310485839844,-0.0,-0.0,-1.0,0.1656932423225468,1.0,2.0
19.847597122192383,-19.79966926574707,1.214652419090271,-0.9847962419287556,-0.1708312378083672,0.0315126969943967,0.1997610667147234,4.0,2.0
19.581024169921875,-19.829328536987305,1.1834075450897217,-0.0,-0.0,-1.0,0.2272215835628905,2.0,2.0
18.029888153076172,-19.942371368408203,1.310097098350525,-0.0,-0.0,-1.0,0.1630393071290718,1.0,2.0
19.88073348999023,-20.138090133666992,1.2832176685333252,-0.0,-0.0,-1.0,0.1665199066253335,1.0,2.0
19.504226684570312,-20.173992156982425,1.2351292371749878,-0.0,-0.0,-1.0,0.2046500715387177,1.0,2.0
20.12651634216309,-20.40275001525879,1.367336988449097,-0.0,-0.0,-1.0,0.1667404661031049,2.0,2.0
19.99915885925293,-20.579910278320312,1.3817662000656128,-0.0,-0.0,-1.0,0.231160673762548,1.0,2.0
19.611328125,-20.36968994140625,1.2865087985992432,-0.0,-0.0,-1.0,0.2047993306660961,1.0,2.0
18.35702896118164,-20.636838912963867,1.1285905838012695,-0.0,-0.0,-1.0,0.1538483684892946,1.0,2.0
17.940753936767578,-20.739734649658203,1.2373380661010742,0.802723150696975,0.3939981634806002,-0.4476616920276244,0.1737727515146667,5.0,2.0
19.436622619628903,-20.966869354248047,1.3619511127471924,-0.0,-0.0,-1.0,0.20647459658925,2.0,2.0
19.12531280517578,-21.002193450927734,1.3162105083465576,-0.0,-0.0,-1.0,0.1920548425271024,1.0,2.0
18.87800407409668,-21.02174186706543,1.277551293373108,-0.0,-0.0,-1.0,0.1967694465229505,1.0,2.0
17.864269256591797,-21.0971736907959,1.1080434322357178,-0.0,-0.0,-1.0,0.2704092487625356,1.0,2.0
19.239896774291992,-21.17768096923828,1.3635462522506714,-0.0,-0.0,-1.0,0.170439900215481,1.0,2.0
18.578020095825195,-21.38033676147461,1.2781202793121338,-0.0,-0.0,-1.0,0.2094509529383322,2.0,2.0
18.317569732666016,-21.37127685546875,1.229416012763977,-0.0,-0.0,-1.0,0.1543151401233956,1.0,2.0
17.870832443237305,-21.481687545776367,1.1607937812805176,-0.0,-0.0,-1.0,0.1893745520602081,2.0,2.0
17.8257999420166,-21.70032119750977,1.18023681640625,-0.0,-0.0,-1.0,0.1583602570706773,1.0,2.0
17.82811164855957,-20.68542098999023,1.7087430953979492,0.9242126175485929,-0.0378489756884337,0.3799980165781336,0.2915442506262802,5.0,2.0
19.769519805908203,-20.979406356811523,1.4174484014511108,-0.0,-0.0,-1.0,0.1976079249795893,1.0,2.0
19.227867126464844,-20.946306228637695,1.6139566898345947,-0.0,-0.0,-1.0,0.2141046749432366,1.0,2.0
18.769933700561523,-20.94379997253418,1.5491052865982056,-0.7694683632915561,-0.0315735859027214,-0.6379040261408118,0.2250047611735364,3.0,2.0
18.156658172607425,-21.178218841552734,1.643449306488037,-0.0,-0.0,-1.0,0.2122079129908297,1.0,2.0
17.941865921020508,-21.15534210205078,1.6130205392837524,-0.0,-0.0,-1.0,0.2139900738789753,2.0,2.0
19.574752807617188,-21.186906814575195,1.4208333492279053,-0.0,-0.0,-1.0,0.1046096853779604,1.0,2.0
19.053016662597656,-21.226940155029297,1.6270034313201904,-0.0,-0.0,-1.0,0.2365549659941662,1.0,2.0
18.38556671142578,-21.429302215576172,1.552639722824097,-0.0,-0.0,-1.0,0.0530938840217554,1.0,2.0
18.24985122680664,-21.835039138793945,1.5770782232284546,-0.0,-0.0,-1.0,0.1511962629646072,1.0,2.0
19.603403091430664,-20.709068298339844,1.9118123054504397,-0.0,-0.0,-1.0,0.24157541213929,1.0,2.0
19.177093505859375,-20.63125991821289,1.857396364212036,-0.0,-0.0,-1.0,0.1434629780063405,1.0,2.0
19.4642333984375,-20.913238525390625,1.921491026878357,-0.0,-0.0,-1.0,0.2726855940922947,1.0,2.0
19.06439971923828,-20.943456649780273,1.88088858127594,-0.0,-0.0,-1.0,0.1476792480094484,2.0,2.0
19.576393127441406,-21.20857810974121,1.9681124687194824,-0.0,-0.0,-1.0,0.1846833630075915,2.0,2.0
19.05336570739746,-21.22140884399414,1.9102634191513064,-0.0,-0.0,-1.0,0.2095692579141178,1.0,2.0
20.038679122924805,-19.88408470153809,1.1354124546051023,-0.0,-0.0,-1.0,0.1249296772308504,2.0,2.0
18.766355514526367,-19.472923278808594,0.8197832107543945,-0.0,-0.0,-1.0,0.2052491551435352,1.0,1.0
18.511497497558594,-19.440515518188477,0.9350318908691406,-0.0,-0.0,-1.0,0.2184620651148401,1.0,1.0
18.107086181640625,-19.409282684326172,1.0246338844299316,-0.0,-0.0,-1.0,0.1640519830883579,2.0,2.0
19.982009887695312,-20.054128646850582,1.157066822052002,-0.0,-0.0,-1.0,0.1798296104123403,1.0,2.0
19.59484481811523,-20.01697540283203,1.0778357982635498,-0.0,-0.0,-1.0,0.2586437164627985,1.0,2.0
19.094940185546875,-19.968128204345703,0.971778392791748,-0.0,-0.0,-1.0,0.2072227936456942,1.0,1.0
18.699338912963867,-19.84316635131836,0.8705704212188721,-0.0,-0.0,-1.0,0.1417702621284904,1.0,1.0
18.549335479736328,-19.771665573120117,0.8279531002044678,-0.0,-0.0,-1.0,0.1150995555987027,1.0,1.0
17.94969940185547,-19.71250343322754,1.0380549430847168,-0.0,-0.0,-1.0,0.2508758561295052,2.0,2.0
19.79646873474121,-20.409992218017575,1.1874428987503052,-0.0,-0.0,-1.0,0.2285903134150006,2.0,2.0
