x,y,z,nx,ny,nz,curvature,density,label
19.416221618652344,-7.595964908599853,0.2459349632263183,-0.0,-0.0,-1.0,0.1446235523665411,1.0,1.0
19.54821014404297,-8.060868263244629,0.335820198059082,-0.4435411889825227,-0.6721772974903619,-0.5928312528996117,0.1880666002265157,3.0,1.0
19.690670013427734,-8.377063751220703,0.2944041490554809,-0.0,-0.0,-1.0,0.1662304757391242,1.0,1.0
19.90056800842285,-7.231585502624512,0.2023766040802002,-0.4791379088908377,0.3202797495689312,-0.8172195214749697,0.1004506387366983,3.0,1.0
19.99328231811523,-7.568049430847168,0.1478739976882934,-0.0,-0.0,-1.0,0.1126573800570575,1.0,1.0
19.90267562866211,-7.917126655578613,0.2289048433303833,-0.0,-0.0,-1.0,0.1723128676204025,1.0,1.0
20.14391326904297,-8.322623252868652,0.3300563097000122,-0.0,-0.0,-1.0,0.0989137669684716,2.0,1.0
20.156661987304688,-7.242405891418457,0.2235748767852783,0.3798870240738744,-0.2034805128964149,-0.9023754926923204,0.2000740229033982,3.0,1.0
17.773618698120117,-9.203774452209473,0.7999247312545776,-0.4278147935069627,-0.306010917551556,-0.8504891655958058,0.255752585037081,4.0,1.0
17.845195770263672,-6.925605297088623,0.6813645362854004,-0.0,-0.0,-1.0,0.1450704949371722,1.0,1.0
17.838661193847656,-7.480842590332031,0.6212034225463867,0.3335393462490163,-0.2421383016282043,-0.9111095144868084,0.2325580923821486,5.0,1.0
17.798904418945312,-7.750481605529785,0.588629961013794,-0.0,-0.0,-1.0,0.2044527370390698,1.0,1.0
17.962703704833984,-8.710809707641602,0.8527169227600098,-0.0,-0.0,-1.0,0.2722022940168804,1.0,1.0
18.162107467651367,-9.190804481506348,0.8136286735534668,-0.0,-0.0,-1.0,0.2582703406275987,2.0,1.0
18.42856216430664,-7.503659725189209,0.6576893329620361,-0.0,-0.0,-1.0,0.2403310352900207,1.0,1.0
18.480911254882812,-8.618322372436523,0.7048653364181519,-0.0,-0.0,-1.0,0.1964502461175898,1.0,1.0
18.66712188720703,-7.478986740112305,0.6753863096237183,-0.4151162218044313,0.110233883172697,-0.903065342816057,0.2386052132355977,3.0,1.0
18.749528884887695,-7.760762691497803,0.6469767093658447,-0.0,-0.0,-1.0,0.2601727300468476,2.0,1.0
18.85450553894043,-8.134939193725586,0.6071043014526367,-0.0,-0.0,-1.0,0.289185690083305,2.0,1.0
18.894983291625977,-8.475202560424805,0.5670061111450195,-0.6099479536503946,0.6673146142649801,-0.4273812108950009,0.1504674377317862,3.0,1.0
19.054046630859375,-7.760477066040039,0.6642621755599976,-0.0,-0.0,-1.0,0.1452538011822288,1.0,1.0
19.166479110717773,-8.149371147155762,0.6217701435089111,-0.1864672911523929,-0.2299510213870618,-0.9551714385875112,0.1871169665780421,4.0,1.0
19.228300094604492,-8.42005443572998,0.5903725624084473,-0.0,-0.0,-1.0,0.2438723422103249,1.0,1.0
19.383071899414062,-9.1533842086792,0.5011227130889893,0.6428788541343192,0.3100339867121891,-0.7004182364775281,0.2235218111712099,4.0,1.0
19.60849380493164,-8.199724197387695,0.636508584022522,0.2720758765652867,-0.0817122435532551,-0.9588002016294764,0.2076914722656137,7.0,1.0
19.67019844055176,-8.365013122558594,0.617546558380127,-0.0,-0.0,-1.0,0.183190406067001,1.0,1.0
19.765466690063477,-8.917834281921387,0.5476210117340088,-0.0,-0.0,-1.0,0.2395623410845843,1.0,1.0
19.784269332885746,-9.219136238098145,0.5072665214538574,-0.6001998422937161,0.5191987915662541,-0.6084346835501242,0.240736443258778,3.0,1.0
19.68307113647461,-6.915350914001465,0.6629977226257324,0.0206833541914482,-0.7976819894097967,-0.6027235208871645,0.0669028588474569,4.0,1.0
19.95243453979492,-7.228625774383545,0.4943270683288574,-0.5706844810270286,0.6938685863658139,0.439164670675611,0.1958113281043779,4.0,1.0
20.070274353027344,-7.424740314483643,0.4716198444366455,-0.0,-0.0,-1.0,0.1782639140985039,2.0,1.0
20.08448028564453,-7.066730499267578,0.5288474559783936,-0.0,-0.0,-1.0,0.1756256006807626,1.0,1.0
18.73310279846191,-7.485027313232422,0.9936707019805908,-0.0,-0.0,-1.0,0.1927435200392309,2.0,1.0
18.696304321289062,-7.760229587554932,0.96698796749115,-0.0,-0.0,-1.0,0.1943148952662908,2.0,1.0
19.029279708862305,-8.20710563659668,0.9355347156524658,0.9970934480138716,0.0251581020774671,0.0719147121781719,0.1233799980680436,3.0,1.0
19.677993774414062,-8.168663024902344,0.9571484327316284,-0.0,-0.0,-1.0,0.21412666189508,2.0,1.0
19.373851776123047,-7.406039237976074,0.0585671663284301,-0.0,-0.0,-1.0,0.0696116569068096,1.0,1.0
19.47007942199707,-7.282635688781738,0.0947813987731933,-0.0,-0.0,-1.0,0.087661255210174,1.0,1.0
19.459735870361328,-7.359439373016357,0.0785655975341796,-0.0,-0.0,-1.0,0.080290090699861,1.0,1.0
19.975250244140625,-7.565446376800537,0.0983980894088745,-0.0,-0.0,-1.0,0.1094705769517097,1.0,1.0
17.811893463134766,-7.730575084686279,0.4554489850997925,-0.0,-0.0,-1.0,0.1714980209414031,1.0,1.0
17.869186401367188,-6.952339172363281,0.4015921354293823,-0.0,-0.0,-1.0,0.156409267040079,1.0,1.0
17.909547805786133,-7.412475109100342,0.5050777196884155,-0.4936345903947925,0.3477616170602537,-0.7971115034080255,0.2591443810797454,6.0,1.0
18.291305541992188,-6.975614547729492,0.292913556098938,-0.0,-0.0,-1.0,0.1868954633085367,2.0,1.0
18.409164428710938,-7.32428503036499,0.4075988531112671,-0.0,-0.0,-1.0,0.1704638723189462,2.0,1.0
18.61346435546875,-7.57046365737915,0.5453941822052002,0.6704649254859966,-0.7188128326121691,-0.1838066793267519,0.2203901398777792,3.0,1.0
18.657337188720703,-8.189044952392578,0.4617249965667724,-0.0,-0.0,-1.0,0.2045616554508513,1.0,1.0
18.629079818725582,-8.349523544311523,0.4362744092941284,-0.0,-0.0,-1.0,0.234296772965079,1.0,1.0
18.68462371826172,-7.3754563331604,0.4272897243499756,-0.0,-0.0,-1.0,0.2426245495308292,2.0,1.0
18.89581871032715,-7.612095355987549,0.4132261276245117,-0.0,-0.0,-1.0,0.1628205212981456,2.0,1.0
18.926034927368164,-8.055536270141602,0.5009950399398804,-0.0,-0.0,-1.0,0.2080209589231714,2.0,1.0
19.159637451171875,-7.698730945587158,0.2739737033843994,-0.0,-0.0,-1.0,0.0747787092964398,1.0,1.0
19.40903091430664,-8.098231315612793,0.3801684379577636,-0.0,-0.0,-1.0,0.2455654231911068,2.0,1.0
19.41765785217285,-8.340591430664062,0.4920203685760498,-0.0,-0.0,-1.0,0.16497144468601,2.0,1.0
19.559982299804688,-8.662678718566895,0.1374117136001587,-0.0,-0.0,-1.0,0.1180401349666289,1.0,1.0
19.318767547607425,-9.092140197753906,0.367763876914978,-0.0,-0.0,-1.0,0.146436596063486,1.0,1.0
19.62723159790039,-6.964052677154541,0.1767855882644653,-0.0,-0.0,-1.0,0.1514210024149037,1.0,1.0
19.502056121826172,-7.702511310577393,0.3070850372314453,-0.0,-0.0,-1.0,0.1904237590517525,1.0,1.0
19.722496032714844,-7.870174884796143,0.2973772287368774,0.2718662555756514,0.3082109841900218,-0.911643970146182,0.2522615646649686,3.0,1.0
19.745512008666992,-8.323948860168457,0.3666027784347534,-0.274156421405694,0.9021656906786998,-0.3330695470382243,0.1441251290464209,3.0,1.0
19.888269424438477,-8.700078964233398,0.4628491401672363,-0.0,-0.0,-1.0,0.2126491747143529,1.0,1.0
19.96166229248047,-9.116976737976074,0.3977546691894531,-0.0,-0.0,-1.0,0.2597408492743936,2.0,1.0
19.94273376464844,-7.129490375518799,0.3158005475997925,-0.8031815846232224,0.5001774432111074,0.3236075824589542,0.2638216248825236,4.0,1.0
20.0091552734375,-7.402186393737793,0.2730982303619385,-0.0,-0.0,-1.0,0.1807716694362292,1.0,1.0
20.08846664428711,-7.75329065322876,0.3507455587387085,-0.0,-0.0,-1.0,0.1588117020305749,1.0,1.0
20.131406784057617,-8.21325969696045,0.2675791978836059,-0.1287700531206506,0.4667400739234105,-0.8749697005115518,0.208142993791201,3.0,1.0
20.105411529541016,-8.752245903015137,0.4656697511672973,-0.0,-0.0,-1.0,0.1609612539493145,2.0,1.0
17.997940063476562,-9.044807434082031,0.8216501474380493,-0.0,-0.0,-1.0,0.2538086569389752,1.0,1.0
18.134052276611328,-9.321030616760254,0.6169241666793823,-0.0,-0.0,-1.0,0.2116567189811033,2.0,1.0
18.178516387939453,-8.274447441101074,0.7447484731674194,-0.0,-0.0,-1.0,0.1955317408653512,2.0,1.0
18.3725528717041,-8.699291229248047,0.7042628526687622,-0.5109025756997695,0.8583743733663934,0.0466046488152471,0.1518192537793002,3.0,1.0
18.260448455810547,-9.084176063537598,0.6519103050231934,-0.0,-0.0,-1.0,0.1827119001373665,2.0,1.0
18.372241973876953,-7.365045070648193,0.8577675223350525,-0.0,-0.0,-1.0,0.1559363044253618,1.0,1.0
18.647613525390625,-7.714811325073242,0.8346580266952515,-0.0,-0.0,-1.0,0.1520984011048628,1.0,1.0
18.467683792114254,-8.176656723022461,0.771405816078186,-0.0,-0.0,-1.0,0.1978332414769937,1.0,1.0
18.667701721191406,-7.441196441650391,0.8667817115783691,-0.0,-0.0,-1.0,0.245126507225849,2.0,1.0
18.85688591003418,-7.594544410705566,0.712859034538269,0.0104684146923501,0.5604184139736684,0.8281434740267337,0.2150238953409811,5.0,1.0
18.83536148071289,-8.029070854187012,0.8077466487884521,-0.0,-0.0,-1.0,0.1741738052266412,1.0,1.0
19.17927360534668,-8.410569190979004,0.7770918607711792,-0.2075585009256645,-0.569627884032792,-0.7952631906644586,0.1449132931841107,3.0,1.0
19.27967071533203,-7.65769100189209,0.7315822839736938,-0.0,-0.0,-1.0,0.1564883239392075,1.0,1.0
19.36039161682129,-7.850837707519531,0.5628029108047485,-0.0,-0.0,-1.0,0.1783520025009498,1.0,1.0
19.209930419921875,-8.421643257141113,0.7770227193832397,0.1743038585794992,0.4878732021768449,-0.8553349656608278,0.1405814183847146,3.0,1.0
19.503345489501953,-9.326656341552734,0.6696536540985107,-0.0,-0.0,-1.0,0.1888462738826888,2.0,1.0
19.731273651123047,-6.948037624359131,0.7219096422195435,0.4152940555682012,-0.3414672127174961,-0.8431672372955793,0.0913772873992468,6.0,1.0
19.56003189086914,-8.140320777893066,0.5324552059173584,-0.0,-0.0,-1.0,0.1981902691959876,2.0,1.0
19.6500244140625,-8.216119766235352,0.6743067502975464,0.9900451731243768,-0.0857571910245346,0.1116076133635345,0.2227391823344815,8.0,1.0
19.884368896484375,-7.078304290771484,0.7142993211746216,-0.0,-0.0,-1.0,0.0976604485680449,1.0,1.0
20.07291603088379,-7.261808395385742,0.7008877992630005,-0.0,-0.0,-1.0,0.1657366263138262,2.0,1.0
20.00062561035156,-7.901329517364502,0.5973836183547974,-0.0,-0.0,-1.0,0.1467048492961048,1.0,1.0
20.07339859008789,-8.222565650939941,0.550641655921936,0.782325936807654,0.622772318343433,0.0109894541799116,0.1937511403676314,4.0,1.0
20.10173988342285,-8.465985298156738,0.5127220153808594,-0.0005975078128272,0.290996582209305,-0.9567239059033265,0.2281690618823535,3.0,1.0
17.843769073486328,-8.95957088470459,1.3545279502868652,-0.0,-0.0,-1.0,0.122385571152572,2.0,2.0
18.4240665435791,-9.077195167541504,1.0041816234588623,-0.0,-0.0,-1.0,0.1278129383755918,2.0,2.0
18.58736228942871,-8.568002700805664,1.057292938232422,-0.6399039881031003,0.7681960538558125,0.0199426389954972,0.1409162371110739,5.0,2.0
17.978479385375977,-8.358057022094727,0.6287652254104614,-0.0,-0.0,-1.0,0.1413719398795941,1.0,1.0
17.93222999572754,-8.586565971374512,0.6018704175949097,0.1015706303500125,-0.5722334309105259,-0.8137765710553911,0.1808905856370714,3.0,1.0
17.991453170776367,-9.187317848205566,0.5428568124771118,0.2782517406328018,0.3458860402609325,-0.8960685330862971,0.1980761486345517,3.0,1.0
17.80541229248047,-7.0300798416137695,0.4219299554824829,-0.0,-0.0,-1.0,0.1524825947137659,2.0,1.0
17.9309139251709,-7.465605735778809,0.3977004289627075,0.5413719813364126,0.4155014103268809,-0.7309411438961828,0.1674244422133387,5.0,1.0
18.291162490844727,-8.652464866638184,0.6256316900253296,-0.0,-0.0,-1.0,0.2886294337295335,2.0,1.0
18.22347640991211,-9.084084510803224,0.5728718042373657,-0.6491685346736443,-0.0539518067135381,-0.7587288159428364,0.2126517793929641,3.0,1.0
18.42538070678711,-6.956920146942139,0.5133534669876099,-0.2938995201269428,-0.9503125994715788,-0.1026110878741832,0.1884597438769569,3.0,1.0
18.31157875061035,-7.544757843017578,0.4388754367828369,-0.0,-0.0,-1.0,0.2189815083556709,1.0,1.0
18.61798858642578,-8.208003997802734,0.3981566429138183,-0.0,-0.0,-1.0,0.1989839910994413,2.0,1.0
18.571136474609375,-8.74288272857666,0.6386770009994507,-0.0,-0.0,-1.0,0.2251359265779293,1.0,1.0
18.671539306640625,-9.267743110656738,0.5852979421615601,-0.0,-0.0,-1.0,0.1713690407491873,1.0,1.0
18.764163970947266,-7.4272966384887695,0.5083998441696167,-0.0,-0.0,-1.0,0.2421514091696301,2.0,1.0
18.880434036254883,-7.748505592346191,0.4852224588394165,0.496725425001757,0.6828653988866261,0.5356852612871038,0.2812215897549812,3.0,1.0
19.097015380859375,-8.121402740478516,0.4627057313919067,0.4515503105664769,0.8825233361764109,-0.1313578247816859,0.2687576340143133,3.0,1.0
19.14292335510254,-9.035154342651367,0.3387378454208374,-0.0,-0.0,-1.0,0.0953234301738556,1.0,1.0
19.164140701293945,-7.873588562011719,0.5024160146713257,-0.0,-0.0,-1.0,0.250919107438267,2.0,1.0
19.323322296142575,-8.129354476928711,0.485758900642395,-0.5299642141752307,0.23625780031538,-0.8144447086719688,0.2334138719186057,4.0,1.0
19.45492172241211,-8.442554473876953,0.4552956819534302,-0.0,-0.0,-1.0,0.2083750611472945,2.0,1.0
19.52491569519043,-9.028786659240724,0.3743703365325928,-0.0,-0.0,-1.0,0.1511017971366263,2.0,1.0
19.654685974121097,-9.110600471496582,0.3726431131362915,0.6799261941672863,0.0525888061669596,-0.7313923625189999,0.1548293727893177,3.0,1.0
19.62171936035156,-8.173316955566406,0.5106052160263062,0.8137834325629646,-0.5497542675804805,-0.1884854640631159,0.1802214001971824,5.0,1.0
19.783447265625,-8.371994972229004,0.496872067451477,-0.4442198150104401,-0.1722333156471538,-0.8792067111511823,0.2156574227402388,6.0,1.0
19.82220458984375,-8.786319732666016,0.4378043413162231,-0.0,-0.0,-1.0,0.1926445959071554,1.0,1.0
19.93587875366211,-9.131600379943848,0.3919856548309326,-0.0,-0.0,-1.0,0.2992925095223231,2.0,1.0
17.72344207763672,-7.602361679077148,0.8298155069351196,-0.0,-0.0,-1.0,0.1199793805851245,2.0,1.0
17.80654525756836,-8.609822273254395,0.9189529418945312,-0.0,-0.0,-1.0,0.203976599324826,1.0,1.0
18.060060501098633,-9.08627700805664,0.8938816785812378,-0.0,-0.0,-1.0,0.2424827069410557,1.0,1.0
18.050891876220703,-7.461047172546387,0.8646501302719116,-0.0,-0.0,-1.0,0.1391113930304134,1.0,1.0
18.35713577270508,-8.319215774536133,0.6661965847015381,0.1523958212671843,-0.8053598467237726,-0.5728621395635795,0.2487587249735935,3.0,1.0
18.30658912658691,-8.53925609588623,0.9541101455688475,0.6710614718720239,0.207003723453595,-0.7119171015260841,0.1966833281745003,3.0,1.0
18.472152709960938,-9.126129150390623,0.911655604839325,-0.0,-0.0,-1.0,0.2055065629671204,1.0,1.0
18.549041748046875,-7.361340522766113,0.7748013734817505,-0.0,-0.0,-1.0,0.2538658088495458,1.0,1.0
18.496891021728516,-7.834469795227051,0.7262996435165405,-0.0,-0.0,-1.0,0.1159837567755917,2.0,1.0
18.54641914367676,-8.11343765258789,0.852837860584259,-0.0,-0.0,-1.0,0.1565621419474364,1.0,1.0
18.552480697631836,-8.61325454711914,0.9616062045097352,-0.92060693176553,-0.3290791089454563,0.2102137417984874,0.1801192163737481,5.0,1.0
18.782102584838867,-7.51439094543457,0.7833409309387207,0.7107568707887227,0.6709150343175676,0.2114182758260974,0.2389536023442895,4.0,1.0
18.862051010131836,-7.673508644104004,0.7752549648284912,0.7200580612758017,0.6675775719917274,0.1893583210882575,0.2209300870444098,4.0,1.0
19.080726623535156,-8.134045600891113,0.7464898824691772,-0.0,-0.0,-1.0,0.1749352277264747,1.0,1.0
19.244678497314453,-8.3824462890625,0.7319656610488892,0.1134650051227743,0.9328150997919408,-0.3420258502111203,0.1216145328592774,3.0,1.0
19.3347225189209,-9.308818817138672,0.6245559453964233,-0.2040311218229705,0.8100645557868998,-0.5496969317591582,0.2393312366482017,3.0,1.0
19.59393882751465,-8.138961791992188,0.7865992784500122,0.1617960502653636,-0.980402405072384,0.1123973409241198,0.1896077462869085,4.0,1.0
19.566349029541016,-9.280694007873535,0.6422606706619263,-0.9733941055246508,-0.2278535823556977,0.0242210721798325,0.20804782412296,7.0,1.0
19.66118812561035,-6.969724655151367,0.6708308458328247,-0.0,-0.0,-1.0,0.0638711699418156,2.0,1.0
19.65048599243164,-8.067646980285645,0.6647583246231079,-0.0,-0.0,-1.0,0.1998844072527217,1.0,1.0
19.83327293395996,-8.309165954589844,0.6476024389266968,-0.0,-0.0,-1.0,0.1177306716472802,1.0,1.0
20.085935592651367,-7.224983215332031,0.6887301206588745,-0.0,-0.0,-1.0,0.1406323979984479,2.0,1.0
20.075220108032227,-7.414341926574707,0.6625089645385742,-0.0,-0.0,-1.0,0.1444420205318398,1.0,1.0
17.748611450195312,-8.521683692932129,1.2503979206085205,-0.0,-0.0,-1.0,0.0840143653335143,2.0,2.0
18.26129913330078,-7.485492706298828,1.0303325653076172,-0.6026336930385773,0.371218199104018,-0.706420328606599,0.1423807354149276,4.0,2.0
18.75484848022461,-7.489644050598144,1.0631496906280518,0.130024742292075,0.8371827705219116,-0.5312424824250553,0.183362902718146,3.0,2.0
18.992393493652344,-8.152358055114746,1.0252799987792969,0.7214348815303931,-0.0106442035368128,-0.6924004712897693,0.1556332500454741,4.0,2.0
19.251628875732425,-7.751402854919434,1.0735142230987549,-0.0,-0.0,-1.0,0.1371591646363162,1.0,2.0
18.71512031555176,-9.356861114501951,0.2841705083847046,-0.0,-0.0,-1.0,0.128739481661615,1.0,1.0
18.486377716064453,-6.938346862792969,0.21018648147583,-0.2833444355456993,-0.7965251306809406,-0.5341007835970657,0.1226069498832136,3.0,1.0
18.815074920654297,-7.416860580444336,0.2273473739624023,-0.0,-0.0,-1.0,0.2040519656471682,1.0,1.0
19.32917022705078,-8.155519485473633,0.2322452068328857,-0.0,-0.0,-1.0,0.1940805061826217,2.0,1.0
19.86534309387207,-8.974900245666504,0.1991748809814453,-0.0,-0.0,-1.0,0.186369350956996,1.0,1.0
17.715518951416016,-8.16029167175293,0.5938571691513062,-0.0,-0.0,-1.0,0.1978509708838078,1.0,1.0
17.91297721862793,-8.688325881958008,0.5751336812973022,-0.0,-0.0,-1.0,0.2155826065606663,1.0,1.0
17.96343231201172,-9.178144454956056,0.5376965999603271,0.2782517406328018,0.3458860402609325,-0.8960685330862971,0.1903436026947665,3.0,1.0
17.794645309448242,-7.066242218017578,0.3715143203735351,-0.0,-0.0,-1.0,0.1514886773080047,2.0,1.0
17.91265869140625,-7.429972648620605,0.5169193744659424,-0.5217892315186267,0.2505578366723813,-0.8154488140608566,0.2290154151800057,7.0,1.0
18.243242263793945,-8.012348175048828,0.6670408248901367,-0.0,-0.0,-1.0,0.2306566637636155,1.0,1.0
18.11461639404297,-8.296564102172852,0.629934549331665,-0.0,-0.0,-1.0,0.2023090104955633,1.0,1.0
18.272544860839844,-8.680627822875977,0.6157872676849365,-0.0,-0.0,-1.0,0.2474805963588237,2.0,1.0
18.296653747558594,-8.878807067871094,0.6008893251419067,-0.0,-0.0,-1.0,0.1646482968619467,1.0,1.0
18.24053001403809,-6.918993949890137,0.4530223608016968,-0.0,-0.0,-1.0,0.1251055267169834,1.0,1.0
18.24954414367676,-7.414577484130859,0.4176479578018188,-0.0,-0.0,-1.0,0.1888086012286359,1.0,1.0
18.48029327392578,-8.201948165893555,0.5326776504516602,-0.0,-0.0,-1.0,0.2090082972826138,2.0,1.0
18.502796173095703,-8.777189254760742,0.6323812007904053,-0.0,-0.0,-1.0,0.1907172260211217,1.0,1.0
18.471302032470703,-6.928990364074707,0.489145278930664,0.3341074177583827,-0.392267850023482,-0.8570286851889969,0.1462259198174442,3.0,1.0
18.72881317138672,-7.452164649963379,0.4882895946502685,-0.4650721969688928,0.8529116860927368,-0.2371697858770631,0.2407985645417387,3.0,1.0
18.841751098632812,-7.717340469360352,0.4813642501831054,0.3143429397988786,0.4907704732776504,0.812608675044409,0.2250355806619672,3.0,1.0
18.999187469482425,-8.075943946838379,0.4688582420349121,-0.0,-0.0,-1.0,0.1084125346384659,1.0,1.0
19.186138153076172,-9.170902252197266,0.3673204183578491,-0.0,-0.0,-1.0,0.1391266602398912,1.0,1.0
18.990062713623047,-7.457539081573486,0.2552721500396728,0.8431863630243657,-0.1562972013904359,-0.5144005657532469,0.1898964848751005,5.0,1.0
19.319236755371097,-7.746271133422852,0.4139463901519775,-0.0,-0.0,-1.0,0.222266625031367,2.0,1.0
19.304594039916992,-8.038716316223145,0.3813574314117431,-0.0,-0.0,-1.0,0.218955139974195,2.0,1.0
19.493284225463867,-8.343923568725586,0.3718355894088745,-0.0,-0.0,-1.0,0.1731929725114269,2.0,1.0
19.39898109436035,-8.623722076416016,0.4623503684997558,-0.0,-0.0,-1.0,0.2312804762793175,1.0,1.0
19.553796768188477,-9.073829650878906,0.4254412651062011,-0.0,-0.0,-1.0,0.2249357791098517,1.0,1.0
19.59247589111328,-6.9588727951049805,0.4176418781280517,-0.1290214247799241,0.4761315789919172,-0.8698575696252936,0.132874811337765,3.0,1.0
19.486560821533203,-7.755736827850342,0.3095803260803222,-0.0,-0.0,-1.0,0.2208549528028085,2.0,1.0
19.604272842407227,-7.989955902099609,0.4311833381652832,-0.0,-0.0,-1.0,0.2151140656841656,2.0,1.0
19.726198196411133,-8.314138412475586,0.4090733528137207,-0.274156421405694,0.9021656906786998,-0.3330695470382243,0.1896575948570846,3.0,1.0
19.87247657775879,-8.614328384399414,0.5242857933044434,-0.0,-0.0,-1.0,0.2286222360349496,1.0,1.0
19.925527572631836,-9.01852798461914,0.3416649103164673,-0.0,-0.0,-1.0,0.2890697884840014,1.0,1.0
20.011451721191406,-7.069615364074707,0.4823375940322876,-0.0,-0.0,-1.0,0.2365951432458514,2.0,1.0
19.99260139465332,-7.287765979766846,0.4541633129119873,0.0177832739778726,0.0321960450608088,-0.9993233560009844,0.2247781314271808,4.0,1.0
20.11545753479004,-8.000372886657715,0.3830404281616211,-0.0,-0.0,-1.0,0.2090099363943745,2.0,1.0
20.077911376953125,-8.32491683959961,0.4593932628631592,-0.0,-0.0,-1.0,0.2197623089266695,2.0,1.0
20.13119888305664,-8.598966598510742,0.2973068952560425,-0.0,-0.0,-1.0,0.1955208516168443,1.0,1.0
20.1348819732666,-7.115810871124268,0.4993177652359009,-0.0293437109072303,-0.8383126387482364,0.5443995466063157,0.1716507836016239,4.0,1.0
17.751087188720703,-8.549074172973633,0.8915850520133972,-0.0,-0.0,-1.0,0.0763096009158426,2.0,1.0
18.036924362182617,-9.157060623168944,0.8738712072372437,-0.0,-0.0,-1.0,0.2306165827001655,1.0,1.0
17.987171173095703,-6.868313789367676,0.7085057497024536,-0.0,-0.0,-1.0,0.1767111727092556,2.0,1.0
18.374942779541016,-8.61749267578125,0.9383887052536012,-0.0,-0.0,-1.0,0.2197462502821593,1.0,1.0
18.302644729614254,-9.157607078552246,0.8943886756896973,-0.0,-0.0,-1.0,0.1573032798917881,1.0,1.0
18.483482360839844,-7.342618465423584,0.7431085109710693,-0.0,-0.0,-1.0,0.2477237639824306,1.0,1.0
18.534900665283203,-7.8691864013671875,0.8565309047698975,-0.0,-0.0,-1.0,0.1926440347175028,1.0,1.0
18.55976104736328,-8.569769859313965,0.9566189050674438,-0.9287210307278928,0.1150640291624759,-0.3524734263410752,0.1606204027569742,3.0,1.0
18.68938446044922,-7.463763236999512,0.7598940134048462,-0.0,-0.0,-1.0,0.2112877313205671,2.0,1.0
18.76509666442871,-7.6834821701049805,0.7529604434967041,-0.0,-0.0,-1.0,0.2212194435733189,1.0,1.0
19.032241821289062,-8.228769302368164,0.878520131111145,-0.0,-0.0,-1.0,0.1431254248702337,1.0,1.0
19.32831382751465,-9.282133102416992,0.6662602424621582,-0.244235047982555,0.7188901841244422,-0.6508042290170559,0.277677892706272,4.0,1.0
19.131481170654297,-7.764512062072754,0.7893030643463135,-0.0,-0.0,-1.0,0.1426940474714326,1.0,1.0
19.248594284057617,-8.182077407836914,0.7669193744659424,-0.0,-0.0,-1.0,0.1849856815890274,1.0,1.0
19.521286010742188,-8.21738052368164,0.7930442094802856,-0.0,-0.0,-1.0,0.216995344112054,2.0,1.0
19.55944442749023,-9.293716430664062,0.686699628829956,-0.968730115409908,0.2105816878519898,0.1312147714219451,0.2628977412391685,8.0,1.0
19.613094329833984,-6.974249839782715,0.664000391960144,-0.0,-0.0,-1.0,0.0689143472993867,2.0,1.0
19.563379287719727,-7.978420257568359,0.8191180229187012,-0.0,-0.0,-1.0,0.1683187849084634,2.0,1.0
19.676769256591797,-8.194795608520508,0.8115969896316528,0.2974858142860626,-0.9269706962395328,-0.2285334080867719,0.2613935381126628,8.0,1.0
19.715404510498047,-6.923442840576172,0.6839432716369629,0.7796943715528893,0.6258303471534764,-0.0203239649306976,0.0777969438000918,6.0,1.0
20.096927642822266,-8.194927215576172,0.6052738428115845,-0.0646951493116679,0.9205475453584516,0.3852359723469117,0.1848489703337521,3.0,1.0
18.76144027709961,-7.195143222808838,0.0937814712524414,-0.0,-0.0,-1.0,0.0882444797595912,1.0,1.0
17.7885799407959,-7.60357666015625,0.4732924699783325,-0.0,-0.0,-1.0,0.1932437730058007,1.0,1.0
17.925077438354492,-6.960203647613525,0.5248130559921265,-0.0,-0.0,-1.0,0.0868016909683129,2.0,1.0
17.924480438232422,-7.270377159118652,0.3604025840759277,-0.0,-0.0,-1.0,0.195811157403206,1.0,1.0
18.03015899658203,-7.438331127166748,0.3700083494186401,-0.0,-0.0,-1.0,0.1729722291537636,2.0,1.0
18.087982177734375,-8.283824920654297,0.4755641222000122,-0.0,-0.0,-1.0,0.2182707732531564,1.0,1.0
18.288908004760746,-9.257153511047363,0.4261512756347656,-0.0,-0.0,-1.0,0.165425746051062,1.0,1.0
18.425718307495117,-7.15174674987793,0.3096064329147339,-0.0,-0.0,-1.0,0.1615250737923446,2.0,1.0
18.48450088500977,-7.387902736663818,0.3061974048614502,-0.0,-0.0,-1.0,0.1742685828016854,1.0,1.0
18.477191925048828,-8.526962280273438,0.5135984420776367,-0.0,-0.0,-1.0,0.1797491959994111,1.0,1.0
18.564443588256836,-8.89947509765625,0.4953588247299194,-0.0,-0.0,-1.0,0.1792410370599789,1.0,1.0
18.565433502197266,-9.09709358215332,0.478066086769104,-0.0,-0.0,-1.0,0.234282234880397,1.0,1.0
18.91099739074707,-7.195720672607422,0.1268190145492553,-0.0,-0.0,-1.0,0.0991518687297564,2.0,1.0
18.82150650024414,-7.471177101135254,0.3627129793167114,0.9528001997183418,0.0296287130950768,-0.3021488354718871,0.174959754570059,8.0,1.0
18.95828437805176,-7.832353591918945,0.3602676391601562,-0.990628779556743,0.02584041521146,0.1341152267850955,0.145291441308789,4.0,1.0
19.36545181274414,-7.812638282775879,0.3052462339401245,-0.0,-0.0,-1.0,0.2055639714267465,2.0,1.0
19.42101287841797,-8.149300575256348,0.2816120386123657,-0.0,-0.0,-1.0,0.2093350916409826,1.0,1.0
19.460601806640625,-8.486190795898438,0.3881313800811767,-0.0,-0.0,-1.0,0.2072851222164466,1.0,1.0
19.524715423583984,-9.036376953125,0.3380283117294311,-0.0,-0.0,-1.0,0.1374399371181149,2.0,1.0
19.75090217590332,-7.446690559387207,0.2893916368484497,-0.0,-0.0,-1.0,0.1208427462141168,2.0,1.0
19.62493133544922,-7.775413513183594,0.2306256294250488,-0.0,-0.0,-1.0,0.0862356537367482,1.0,1.0
19.676925659179688,-8.145235061645508,0.3319932222366333,-0.0,-0.0,-1.0,0.166886315435807,1.0,1.0
19.842369079589844,-8.558391571044922,0.4440120458602905,-0.0,-0.0,-1.0,0.2235233063438363,1.0,1.0
19.87735939025879,-8.951888084411621,0.2735335826873779,-0.0,-0.0,-1.0,0.2209020909453706,1.0,1.0
20.0308895111084,-7.001052379608154,0.3882169723510742,-0.0,-0.0,-1.0,0.2295772085101413,2.0,1.0
20.00168228149414,-7.220078468322754,0.3636626005172729,-0.0451418777250255,-0.7598289973907592,-0.6485538571310892,0.2382659999316826,3.0,1.0
20.120141983032227,-8.177770614624023,0.28816819190979,0.8305084467495593,0.5413764967157721,0.1310236951142512,0.1896381046922142,4.0,1.0
20.135055541992188,-8.572029113769531,0.2408168315887451,-0.0,-0.0,-1.0,0.2303305871776678,1.0,1.0
17.801956176757812,-8.577118873596191,0.7314289808273315,-0.0,-0.0,-1.0,0.2138446469163117,2.0,1.0
17.832618713378906,-8.73991584777832,0.7248846292495728,0.0620064701660724,-0.1196442476237564,-0.9908786261031616,0.2088021991683951,3.0,1.0
17.92145538330078,-9.248281478881836,0.7011126279830933,-0.0,-0.0,-1.0,0.1888002068361081,1.0,1.0
18.17801856994629,-7.27690315246582,0.5493245124816895,-0.0,-0.0,-1.0,0.2161993645206153,1.0,1.0
17.99758529663086,-8.385736465454102,0.7644485235214233,-0.0,-0.0,-1.0,0.2692997779955501,1.0,1.0
18.218273162841797,-8.7134370803833,0.7689603567123413,-0.0,-0.0,-1.0,0.1516006172028779,1.0,1.0
18.16350746154785,-9.15317726135254,0.7336145639419556,-0.9434973141777748,0.2721685041461527,-0.1890426499236902,0.2797021532138007,3.0,1.0
18.58600616455078,-7.456298351287842,0.601618766784668,0.7600552325585472,-0.4832267643724925,0.4345203535560379,0.2014869748505098,3.0,1.0
18.434844970703125,-7.916147232055664,0.5511877536773682,-0.0,-0.0,-1.0,0.1637465994169563,2.0,1.0
18.48783493041992,-8.228178977966309,0.6842681169509888,-0.0,-0.0,-1.0,0.2527256711238954,1.0,1.0
18.537994384765625,-8.614109992980957,0.6647559404373169,-0.0,-0.0,-1.0,0.1913635592582494,2.0,1.0
18.795269012451172,-7.54209041595459,0.7644678354263306,0.6945051050043386,0.6791183987104868,0.2376149398834531,0.1715359484497176,5.0,1.0
18.888559341430664,-7.795811653137207,0.6257702112197876,-0.0,-0.0,-1.0,0.2031471126527692,1.0,1.0
18.9931640625,-8.189421653747559,0.7491852045059204,-0.0,-0.0,-1.0,0.2540476818497546,1.0,1.0
19.130603790283203,-7.891104698181152,0.6544721126556396,-0.0,-0.0,-1.0,0.2352980000698216,1.0,1.0
19.308629989624023,-8.239442825317383,0.653788685798645,-0.0,-0.0,-1.0,0.2148232726470856,1.0,1.0
19.35904884338379,-8.520540237426758,0.6375964879989624,0.034979432867824,0.4875942571360541,-0.8723693482030334,0.1706348779562125,5.0,1.0
19.43260955810547,-9.118280410766602,0.5921976566314697,0.0583745550613458,0.6536581039107963,0.754535283809268,0.1834554630797554,4.0,1.0
19.58645820617676,-9.330876350402832,0.5903685092926025,-0.7963636130418836,-0.0249472322855758,-0.6043034266195804,0.2661716408441875,3.0,1.0
19.547439575195312,-6.867681503295898,0.657097578048706,-0.0,-0.0,-1.0,0.0507604629335977,1.0,1.0
19.701892852783203,-7.757863998413086,0.7469198703765869,-0.0,-0.0,-1.0,0.1828450022704928,1.0,1.0
19.76193618774414,-8.146032333374023,0.6012264490127563,-0.0,-0.0,-1.0,0.186124225431681,2.0,1.0
19.84396743774414,-8.559550285339355,0.5753809213638306,-0.608286744372705,0.1106490714652846,-0.7859669328949698,0.1603860981630162,3.0,1.0
19.767980575561523,-8.863588333129883,0.6611384153366089,-0.0,-0.0,-1.0,0.155179756523927,1.0,1.0
20.05842399597168,-7.286198139190674,0.602258563041687,-0.0,-0.0,-1.0,0.1651410244327047,2.0,1.0
20.113082885742188,-8.232934951782227,0.5249254703521729,-0.0,-0.0,-1.0,0.1483478668963479,2.0,1.0
20.03658676147461,-8.48557186126709,0.4845901727676391,0.5885766471681215,-0.0154425926181891,-0.808293917298381,0.2400411540667837,4.0,1.0
20.12494659423828,-8.74077033996582,0.4697765111923218,-0.0,-0.0,-1.0,0.1692216710219205,2.0,1.0
18.22638702392578,-9.21592903137207,1.0475691556930542,-0.0,-0.0,-1.0,0.1878947862226506,1.0,2.0
18.776840209960938,-7.323806762695312,0.907852590084076,-0.0,-0.0,-1.0,0.1561776517048648,1.0,1.0
19.645477294921875,-8.206783294677734,0.9570260643959044,0.7539160955477195,0.378518014355508,-0.5369680006131136,0.2331849231048953,4.0,1.0
17.86515998840332,-8.93144702911377,1.351679801940918,-0.3765034389856924,0.194641853735498,-0.9057371082197944,0.1258879752760726,3.0,2.0
18.64771270751953,-7.143469333648682,0.1334483623504638,-0.0,-0.0,-1.0,0.0880048309959712,2.0,1.0
17.83629608154297,-7.282103538513184,0.4042050838470459,-0.4228701110979603,0.8760726311461825,-0.2316842983385002,0.2276968897429958,3.0,1.0
17.861976623535156,-7.414732456207275,0.5548328161239624,0.2827659242368761,0.9479124873058616,0.14664702008592,0.2059908370990499,4.0,1.0
17.996761322021484,-8.40650463104248,0.537172794342041,-0.0,-0.0,-1.0,0.2467178197067419,1.0,1.0
17.981325149536133,-9.196385383605955,0.4893534183502197,-0.0,-0.0,-1.0,0.2360231345045151,1.0,1.0
18.251415252685547,-7.358869552612305,0.3282637596130371,0.785505304199245,0.005960244199451,-0.6188262216195546,0.2047011163173045,3.0,1.0
18.377201080322266,-7.422919273376465,0.3498355150222778,-0.0,-0.0,-1.0,0.2421185368221323,1.0,1.0
18.14217185974121,-8.520500183105469,0.5529673099517822,-0.0,-0.0,-1.0,0.2221044564032512,2.0,1.0
18.2312068939209,-8.808050155639648,0.5498735904693604,-0.0,-0.0,-1.0,0.1444813557464005,1.0,1.0
18.287368774414062,-9.223566055297852,0.3808104991912842,-0.0,-0.0,-1.0,0.1962272614144052,2.0,1.0
18.78278160095215,-7.360403060913086,0.292680025100708,0.6112677775998723,-0.5988759702492207,-0.517396633470075,0.1376892884245318,5.0,1.0
18.81849670410156,-7.612259864807129,0.4249993562698364,-0.1890022980089916,0.7712844412151643,0.6077815743231544,0.1537286599919401,5.0,1.0
18.68032455444336,-8.033455848693848,0.379396915435791,-0.0,-0.0,-1.0,0.1568659498581646,1.0,1.0
18.667022705078125,-8.749923706054688,0.3316633701324463,-0.0,-0.0,-1.0,0.1435140190143203,2.0,1.0
18.66720199584961,-9.190956115722656,0.2968686819076538,-0.0,-0.0,-1.0,0.1264505661008935,1.0,1.0
18.90239906311035,-7.26517915725708,0.186467170715332,-0.0,-0.0,-1.0,0.0915991521192161,2.0,1.0
19.035655975341797,-7.639288425445557,0.3336300849914551,-0.1825190145727593,0.9794307427761938,-0.0860362099598887,0.2234254880260284,7.0,1.0
19.090192794799805,-8.006599426269531,0.4560613632202148,-0.0,-0.0,-1.0,0.1706454702911846,2.0,1.0
19.213468551635746,-8.739867210388184,0.4294812679290771,-0.0,-0.0,-1.0,0.160503103373492,1.0,1.0
18.996532440185547,-9.088600158691406,0.3630458116531372,-0.0,-0.0,-1.0,0.1201324285876071,1.0,1.0
19.422773361206055,-7.729735851287842,0.2802505493164062,-0.0,-0.0,-1.0,0.1973322259422273,2.0,1.0
19.386022567749023,-8.067211151123047,0.3796505928039551,-0.567996946839688,-0.5530213725328312,-0.6095464132473396,0.2707393829214186,4.0,1.0
19.51582717895508,-8.374573707580566,0.3842830657958984,-0.7921541333642944,-0.6072910812079344,-0.060740198214705,0.1968792920424949,3.0,1.0
19.48052978515625,-8.810479164123535,0.4701604843139648,-0.0,-0.0,-1.0,0.132730223336014,1.0,1.0
19.55409240722656,-9.1439790725708,0.4541584253311157,-0.0,-0.0,-1.0,0.1359908939161425,1.0,1.0
19.907564163208008,-6.985976219177246,0.4220068454742431,-0.0,-0.0,-1.0,0.2309157221282557,1.0,1.0
19.98534393310547,-7.230087280273437,0.4301742315292358,-0.0,-0.0,-1.0,0.2585438135939207,2.0,1.0
19.886301040649418,-7.411079406738281,0.4000066518783569,0.4863493565266953,-0.4404838238312065,-0.7546113598065616,0.1474566535951434,5.0,1.0
19.93445205688477,-8.161693572998047,0.3622435331344604,-0.0,-0.0,-1.0,0.198701162559204,1.0,1.0
19.957321166992188,-8.424525260925293,0.344896912574768,-0.0,-0.0,-1.0,0.2179852635037389,1.0,1.0
19.94404983520508,-8.791168212890625,0.3072614669799804,-0.0,-0.0,-1.0,0.1449722375942922,1.0,1.0
19.92067527770996,-9.224639892578123,0.3843792676925659,-0.0,-0.0,-1.0,0.2487117462942282,2.0,1.0
20.13511848449707,-7.1448540687561035,0.4669179916381836,-0.9607679982273482,0.2030017939179146,-0.18898445768984,0.2429855128575375,3.0,1.0
20.17900657653809,-8.404659271240234,0.3935179710388183,-0.0,-0.0,-1.0,0.1473032819719059,2.0,1.0
20.131582260131836,-8.765539169311523,0.3483623266220093,-0.0,-0.0,-1.0,0.1745779789392114,1.0,1.0
20.20330047607422,-9.180511474609377,0.3169699907302856,-0.0,-0.0,-1.0,0.1826561590040544,1.0,1.0
18.08160400390625,-7.440352439880371,0.5876543521881104,-0.0,-0.0,-1.0,0.2478997252613176,1.0,1.0
17.766468048095703,-8.581377983093262,0.804951548576355,-0.1292887478873683,-0.2250505367771264,-0.9657311611240698,0.1749358096945978,3.0,1.0
17.83898162841797,-9.130456924438477,0.7874546051025391,-0.0,-0.0,-1.0,0.1958479878275264,2.0,1.0
18.397113800048828,-7.750437259674072,0.6255168914794922,-0.0,-0.0,-1.0,0.2207907148912941,1.0,1.0
18.39017868041992,-7.9986677169799805,0.6145190000534058,-0.0,-0.0,-1.0,0.2270549853699454,1.0,1.0
18.356443405151367,-8.453237533569336,0.7330317497253418,-0.0,-0.0,-1.0,0.1893130024754573,1.0,1.0
18.385343551635746,-8.75793170928955,0.5751986503601074,-0.0,-0.0,-1.0,0.2596312561670232,2.0,1.0
18.358474731445312,-9.091928482055664,0.7002378702163696,-0.0,-0.0,-1.0,0.2362944280004288,1.0,1.0
18.669822692871097,-7.377256393432617,0.6791293621063232,-0.0,-0.0,-1.0,0.2348104072925435,1.0,1.0
18.778318405151367,-7.574348449707031,0.6893121004104614,-0.4316518336502415,0.8935332072821018,0.1235924835519712,0.1880139470748247,6.0,1.0
18.677772521972656,-7.931504249572754,0.7967746257781982,-0.0,-0.0,-1.0,0.2577618435822896,1.0,1.0
18.74206924438477,-8.389368057250977,0.648114800453186,-0.0,-0.0,-1.0,0.1678001789917016,1.0,1.0
18.661235809326172,-8.688103675842285,0.7611486911773682,-0.0,-0.0,-1.0,0.168211508255606,1.0,1.0
19.028793334960938,-8.040192604064941,0.7080898284912109,-0.0,-0.0,-1.0,0.1797671537051209,1.0,1.0
19.51837921142578,-7.721035957336426,0.5502848625183105,-0.0,-0.0,-1.0,0.2019249043042172,1.0,1.0
19.5684814453125,-8.177128791809082,0.6563053131103516,0.507068500421385,-0.344743523288566,0.7899578716811384,0.2290337872926927,7.0,1.0
19.645782470703125,-8.248703956604004,0.6645245552062988,0.8772626320247792,-0.4638868162187508,-0.1233665116285115,0.2123942994793613,7.0,1.0
19.471981048583984,-9.198833465576172,0.6988662481307983,-0.528592249469477,0.3727859759135364,0.7626407083043695,0.1736746328557375,3.0,1.0
20.044471740722656,-7.324828624725342,0.6659979820251465,-0.0,-0.0,-1.0,0.1309328981824535,1.0,1.0
19.86802101135254,-8.521883010864258,0.5620678663253784,-0.2076007186458253,0.1841000346646093,-0.9607336357462596,0.1776784706378227,4.0,1.0
19.873291015625,-8.710948944091797,0.5476764440536499,-0.0,-0.0,-1.0,0.1905389843312462,1.0,1.0
20.074359893798828,-9.15905475616455,0.5409066677093506,-0.0,-0.0,-1.0,0.1625310933062073,2.0,1.0
18.275177001953125,-9.289640426635742,1.1254502534866333,-0.0,-0.0,-1.0,0.1081674536069454,2.0,2.0
19.04684829711914,-8.259575843811035,0.9633526802062988,0.0505046807717005,0.6794590047300375,-0.7319731812788055,0.1199471252036261,4.0,1.0
18.50790786743164,-7.0460968017578125,0.068805456161499,-0.0,-0.0,-1.0,0.1091324295276844,2.0,1.0
17.757320404052734,-7.151218414306641,0.3447557687759399,-0.4241049154304996,-0.6916497956588779,-0.5845986493935147,0.2286757499627163,3.0,1.0
18.011676788330078,-7.177978992462158,0.2456967830657959,-0.0,-0.0,-1.0,0.1060118039128045,1.0,1.0
17.870380401611328,-9.02467441558838,0.4749571084976196,-0.0,-0.0,-1.0,0.1712944612835834,2.0,1.0
18.354278564453125,-6.879484176635742,0.3121520280838012,0.9125687384359832,0.142814273453038,-0.3831740869728001,0.0964137289626641,3.0,1.0
18.42301368713379,-7.217072486877441,0.3278359174728393,0.6027165029182974,0.788476874567274,0.122625590243479,0.1610821359939248,3.0,1.0
18.260074615478516,-9.197196006774902,0.2403082847595214,-0.0,-0.0,-1.0,0.2100114574267528,1.0,1.0
18.77176284790039,-7.471409320831299,0.3971924781799316,0.0599019579216667,0.9421252309945412,0.3298663434796489,0.2278114418729164,3.0,1.0
18.85293960571289,-7.708419799804688,0.4106918573379516,-0.0,-0.0,-1.0,0.224847333701774,2.0,1.0
18.865821838378903,-8.001028060913086,0.4078265428543091,-0.0,-0.0,-1.0,0.1247006137467406,1.0,1.0
18.551071166992188,-8.98779296875,0.3080766201019287,-0.0,-0.0,-1.0,0.1635602966881012,2.0,1.0
18.415504455566406,-9.1416015625,0.2734301090240478,-0.0,-0.0,-1.0,0.1669381853408443,1.0,1.0
19.46189308166504,-6.907742500305176,0.2926903963088989,-0.0,-0.0,-1.0,0.1231751875390901,2.0,1.0
19.055570602416992,-7.523310661315918,0.1979050636291504,0.6239601324870757,0.5099633197464081,0.5921242822076573,0.1576901527386442,3.0,1.0
19.157154083251953,-7.837710380554199,0.3445348739624023,-0.0,-0.0,-1.0,0.1356075288542574,1.0,1.0
19.155467987060547,-8.087936401367188,0.3385229110717773,-0.0,-0.0,-1.0,0.1080296803527498,1.0,1.0
19.122943878173828,-8.659610748291016,0.4356905221939087,-0.0,-0.0,-1.0,0.1684688809237122,2.0,1.0
18.975971221923828,-8.899064064025879,0.3951458930969238,-0.0,-0.0,-1.0,0.1950744048305388,1.0,1.0
19.812211990356445,-7.478153228759766,0.3770332336425781,-0.0,-0.0,-1.0,0.1316556721237551,2.0,1.0
19.43598747253418,-7.824613571166992,0.2826392650604248,-0.0,-0.0,-1.0,0.1446936034862394,2.0,1.0
19.5391788482666,-8.2833833694458,0.2920314073562622,-0.0,-0.0,-1.0,0.1679438542544603,1.0,1.0
19.527769088745117,-8.475939750671387,0.2810447216033935,-0.0,-0.0,-1.0,0.2036484361300253,1.0,1.0
19.22951316833496,-9.13583278656006,0.4307979345321655,-0.0,-0.0,-1.0,0.138145528346664,1.0,1.0
19.99328231811523,-7.18045711517334,0.4208556413650512,-0.6223669006566115,-0.615331569377531,-0.4837628558441297,0.1596329063537479,3.0,1.0
19.940994262695312,-7.3998637199401855,0.4082976579666137,-0.0,-0.0,-1.0,0.2065069592127925,2.0,1.0
19.932111740112305,-8.371387481689453,0.3795448541641235,-0.0,-0.0,-1.0,0.1678254858085405,1.0,1.0
19.97601318359375,-8.689201354980469,0.3729416131973266,-0.0,-0.0,-1.0,0.1506381565103968,1.0,1.0
19.86522674560547,-9.12027072906494,0.3175076246261596,-0.0,-0.0,-1.0,0.1717542527220099,1.0,1.0
19.866609573364254,-9.35897445678711,0.2986388206481933,-0.0,-0.0,-1.0,0.140023341814904,1.0,1.0
20.096555709838867,-8.50070858001709,0.4115852117538452,-0.0,-0.0,-1.0,0.2286072497030049,2.0,1.0
20.03798484802246,-8.724072456359863,0.3849483728408813,-0.0,-0.0,-1.0,0.1716244315572921,1.0,1.0
20.054044723510746,-9.11903476715088,0.3602883815765381,-0.0,-0.0,-1.0,0.1872729150981895,2.0,1.0
17.801490783691406,-7.046833515167236,0.5005913972854614,-0.0,-0.0,-1.0,0.108178543459253,2.0,1.0
18.105712890625,-7.303813457489014,0.5508472919464111,-0.0,-0.0,-1.0,0.1815654272605778,1.0,1.0
17.83071517944336,-7.47178316116333,0.7980409860610962,-0.0,-0.0,-1.0,0.2386193636730684,1.0,1.0
17.86762237548828,-8.716060638427734,0.7820113897323608,-0.0,-0.0,-1.0,0.1699528729607111,1.0,1.0
18.392351150512695,-7.1991801261901855,0.5978983640670776,-0.0,-0.0,-1.0,0.1830860003745684,1.0,1.0
18.468847274780273,-7.473688125610352,0.6097904443740845,-0.0,-0.0,-1.0,0.2207909325253901,1.0,1.0
18.442710876464844,-7.975724220275879,0.5992090702056885,-0.0,-0.0,-1.0,0.2009851414061232,2.0,1.0
18.308134078979492,-8.438998222351074,0.7060215473175049,-0.0,-0.0,-1.0,0.12380711035668,2.0,1.0
18.174739837646484,-8.782605171203613,0.675615668296814,-0.0,-0.0,-1.0,0.1886649948428708,1.0,1.0
18.08885955810547,-9.181102752685549,0.6483466625213623,0.038380351744389,0.9683091894360945,-0.2467878891955415,0.1636107196570641,4.0,1.0
18.79431533813477,-7.466111660003662,0.6632050275802612,-0.0,-0.0,-1.0,0.1410090910294697,2.0,1.0
18.74648666381836,-7.669872283935547,0.6534649133682251,-0.5554023324126297,0.5283058610780045,-0.6422002540494977,0.2524674151559531,5.0,1.0
18.712543487548828,-8.070863723754883,0.6412996053695679,-0.0,-0.0,-1.0,0.2419320322630313,1.0,1.0
18.503599166870117,-8.538867950439453,0.7309969663619995,-0.0,-0.0,-1.0,0.2354168934849443,1.0,1.0
18.53014755249023,-8.772181510925293,0.5906201601028442,-0.0,-0.0,-1.0,0.1157557030292577,1.0,1.0
18.370805740356445,-9.16379737854004,0.6894587278366089,-0.0,-0.0,-1.0,0.2312738121718459,1.0,1.0
19.390066146850582,-6.923638343811035,0.6373938322067261,-0.0,-0.0,-1.0,0.0490814600827639,1.0,1.0
19.16229820251465,-7.805026054382324,0.5977644920349121,-0.0,-0.0,-1.0,0.2690450296231244,1.0,1.0
19.100669860839844,-8.141339302062988,0.5782155990600586,-0.3744544698153451,0.9047581629668948,-0.2029692503313692,0.2635834563423586,3.0,1.0
19.196035385131836,-8.498254776000977,0.582577109336853,-0.189530208356453,0.8551772731921004,-0.4824418426464307,0.2139404912970453,3.0,1.0
19.724720001220703,-6.9890289306640625,0.7008235454559326,0.8980397302859513,0.3512355399517766,-0.2648740045808947,0.0629905567082798,5.0,1.0
19.40536117553711,-7.92542028427124,0.5170060396194458,-0.0,-0.0,-1.0,0.2047299434917661,2.0,1.0
19.54181671142578,-8.262965202331543,0.6512613296508789,-0.0,-0.0,-1.0,0.2253543156955053,2.0,1.0
19.36896324157715,-8.544784545898438,0.6113294363021851,-0.0,-0.0,-1.0,0.2434001954748736,2.0,1.0
19.45586204528809,-9.09965705871582,0.5997024774551392,-0.6502029142080022,0.6605542195130943,0.3753722065348843,0.1702980543672261,3.0,1.0
20.068744659423828,-7.19209623336792,0.4385333061218261,-0.9536802668092872,0.2858408702270041,0.0937493765655852,0.233314353533477,4.0,1.0
19.691970825195312,-8.298152923583984,0.7944819927215576,0.5679431298681874,-0.3939366448197861,-0.722671793488342,0.1955747300271807,3.0,1.0
19.758655548095703,-8.635786056518555,0.5607973337173462,-0.0,-0.0,-1.0,0.1807217684086133,1.0,1.0
19.582077026367188,-9.2050142288208,0.6169497966766357,0.074269043487739,0.98550036969312,0.1525553359084502,0.2073808566961807,3.0,1.0
18.55014419555664,-7.43067741394043,0.8905186057090759,-0.0,-0.0,-1.0,0.2206734402394796,1.0,1.0
18.2501220703125,-9.248215675354004,1.095595359802246,-0.4719048165125658,-0.0488352637219223,-0.8802959508991576,0.1570374207222015,4.0,2.0
18.75597381591797,-7.604384899139404,0.9158385992050172,0.5925504137471385,0.4709183482740688,0.6535441197248413,0.2992810017757833,3.0,1.0
18.285585403442383,-9.334732055664062,1.0960620641708374,-0.0,-0.0,-1.0,0.1488118709691216,1.0,2.0
19.016143798828125,-8.279866218566895,0.9385833740234376,0.176460285717307,0.3675623689266812,-0.9131044149020268,0.1107431096234673,6.0,1.0
17.83493423461914,-9.061311721801758,1.3585388660430908,-0.0,-0.0,-1.0,0.1345934520761347,2.0,2.0
18.219009399414062,-7.2365641593933105,0.1989393234252929,-0.0,-0.0,-1.0,0.1060937799717489,1.0,1.0
17.753643035888672,-7.123948097229004,0.3915632963180542,-0.0,-0.0,-1.0,0.1897615806899641,1.0,1.0
18.40846061706543,-6.948611259460449,0.3687819242477417,0.8454945019827094,-0.0410457853405036,0.5324042548879483,0.1856945266509016,5.0,1.0
18.43086051940918,-7.124342918395996,0.2419455051422119,-0.0,-0.0,-1.0,0.1378189219762853,2.0,1.0
18.636119842529297,-7.322122573852539,0.4198285341262817,-0.0,-0.0,-1.0,0.2681348856981228,1.0,1.0
18.654964447021484,-7.7587504386901855,0.5588095188140869,-0.0,-0.0,-1.0,0.2484096331162954,2.0,1.0
18.504846572875977,-8.047000885009766,0.5305852890014648,-0.0,-0.0,-1.0,0.2240311531058465,2.0,1.0
18.221492767333984,-8.572683334350586,0.4700959920883178,-0.0,-0.0,-1.0,0.1086475454707816,2.0,1.0
18.0754451751709,-8.976794242858887,0.4309134483337402,-0.0,-0.0,-1.0,0.1394378678858935,2.0,1.0
18.103946685791016,-9.209599494934082,0.426419734954834,-0.0,-0.0,-1.0,0.1507273808846377,1.0,1.0
18.863235473632812,-7.535931587219238,0.4698717594146728,-0.0,-0.0,-1.0,0.1784198726017358,2.0,1.0
18.85279655456543,-7.839383125305176,0.4697785377502441,-0.0,-0.0,-1.0,0.2385286716402235,1.0,1.0
18.636903762817383,-8.358725547790527,0.5501139163970947,-0.0,-0.0,-1.0,0.2429045518200396,1.0,1.0
18.640216827392575,-8.657369613647461,0.4145563840866089,0.2781761199675269,0.8646987794248435,-0.4182272912436467,0.182643461808404,4.0,1.0
18.511240005493164,-9.018152236938477,0.3759640455245971,-0.0,-0.0,-1.0,0.1821742137678682,2.0,1.0
18.400146484375,-9.346270561218262,0.4725233316421509,-0.0,-0.0,-1.0,0.1853793384458333,1.0,1.0
19.575206756591797,-6.9051361083984375,0.47824227809906,-0.1877475319515628,0.6516848492304924,-0.7348861963117331,0.0632448788928223,3.0,1.0
19.33548355102539,-8.003225326538086,0.4459694623947143,-0.0,-0.0,-1.0,0.2763337988214577,2.0,1.0
19.265026092529297,-8.350613594055176,0.4267338514328003,-0.0,-0.0,-1.0,0.1594148390260444,2.0,1.0
19.006032943725582,-8.73262882232666,0.3599355220794678,-0.0,-0.0,-1.0,0.2416066685771107,1.0,1.0
18.711376190185547,-9.267327308654783,0.5328150987625122,-0.0,-0.0,-1.0,0.1684742478177111,1.0,1.0
19.848064422607425,-7.148400783538818,0.5452587604522705,-0.0,-0.0,-1.0,0.1987671134811739,1.0,1.0
19.59891128540039,-8.21230697631836,0.5015654563903809,-0.0509201066651805,-0.0144878159392115,-0.998597639655992,0.2522045871251851,4.0,1.0
19.467613220214844,-8.457489967346191,0.4682530164718628,-0.0,-0.0,-1.0,0.2248802006427952,2.0,1.0
19.25252914428711,-8.710626602172852,0.4142718315124511,-0.0,-0.0,-1.0,0.1539268247193352,1.0,1.0
19.443967819213867,-9.128670692443848,0.4375258684158325,-0.0,-0.0,-1.0,0.1847883362090538,1.0,1.0
19.71090507507324,-9.022141456604004,0.5003565549850464,-0.0,-0.0,-1.0,0.2622909752095645,2.0,1.0
19.698701858520508,-9.311833381652832,0.4814385175704956,-0.0,-0.0,-1.0,0.1315842347226681,1.0,1.0
17.76905059814453,-6.950484752655029,0.6828283071517944,-0.0,-0.0,-1.0,0.1689199565821926,1.0,1.0
17.83306884765625,-7.657283306121826,0.697037935256958,-0.0,-0.0,-1.0,0.2365903088961193,2.0,1.0
17.978763580322266,-8.41442584991455,0.7102304697036743,-0.6812537282913667,0.6309088342672472,-0.3712780636297491,0.2265201275365393,4.0,1.0
17.771953582763672,-8.731266021728516,0.6726562976837158,-0.0,-0.0,-1.0,0.1830689111153784,1.0,1.0
18.759445190429688,-7.534052848815918,0.8306933641433716,-0.0,-0.0,-1.0,0.1841052185276988,2.0,1.0
18.73358726501465,-7.6050310134887695,0.8272175788879395,0.7218838633318961,0.546660984504212,0.4243176356008576,0.2471808625572119,5.0,1.0
18.507816314697266,-7.986743450164795,0.7932511568069458,-0.0,-0.0,-1.0,0.2141434654016112,1.0,1.0
18.222862243652344,-8.354133605957031,0.74686598777771,-0.778699269481152,-0.5540870799635875,0.2943041887689425,0.1613881437606017,5.0,1.0
18.08812713623047,-8.845585823059082,0.7151274681091309,-0.0,-0.0,-1.0,0.1893562818654227,1.0,1.0
