x,y,z,nx,ny,nz,curvature,density,label
46.28783416748047,11.585689544677734,-1.9211015701293943,-0.0,-0.0,-1.0,0.0157612960491255,1.0,0.0
47.705711364746094,13.02907657623291,-2.0632834434509277,-0.0,-0.0,-1.0,0.0290356109228971,1.0,0.0
45.90647506713867,11.116564750671388,-1.941321611404419,-0.0,-0.0,-1.0,0.0182254258432548,2.0,0.0
45.58830261230469,13.107027053833008,-2.0174245834350586,-0.0,-0.0,-1.0,0.0219819729465707,2.0,0.0
46.240047454833984,12.266949653625488,-2.0245938301086426,-0.0,-0.0,-1.0,0.0175527319952494,1.0,0.0
46.49272537231445,12.347515106201172,-2.0211198329925537,-0.0,-0.0,-1.0,0.015925473417602,1.0,0.0
46.96669006347656,11.06229019165039,-1.9557143449783323,-0.0,-0.0,-1.0,0.0190516320354095,1.0,0.0
46.23794174194336,11.502412796020508,-1.9052764177322388,-0.0,-0.0,-1.0,0.0138684915585183,2.0,0.0
45.3658561706543,11.124117851257324,-1.984034299850464,-0.0,-0.0,-1.0,0.0216277606782483,2.0,0.0
47.69075012207031,12.436859130859377,-1.9829410314559937,0.7256052266056873,-0.4177248417417387,-0.5468116784728986,0.0203929207942867,4.0,0.0
46.66154479980469,12.844505310058594,-2.064756393432617,-0.0,-0.0,-1.0,0.0068521793870937,1.0,0.0
47.42731094360352,11.33982753753662,-1.931632399559021,-0.4137813573802668,-0.0299578448883391,-0.9098832429571336,0.0336340629954365,3.0,0.0
46.8468017578125,12.01710605621338,-1.949851155281067,-0.0,-0.0,-1.0,0.0108673987444196,1.0,0.0
45.75083923339844,13.000454902648926,-1.963008999824524,-0.0,-0.0,-1.0,0.0201621956591493,2.0,0.0
47.26213836669922,12.624700546264648,-2.068786144256592,-0.0,-0.0,-1.0,0.0335881630979822,1.0,0.0
46.95378875732422,11.65572738647461,-1.9934006929397583,-0.0,-0.0,-1.0,0.0159011025202294,1.0,0.0
46.584678649902344,11.207698822021484,-1.92514967918396,-0.0,-0.0,-1.0,0.0095263817472303,2.0,0.0
45.589385986328125,13.131271362304688,-1.9587186574935913,-0.0,-0.0,-1.0,0.0225497098215981,1.0,0.0
47.44511032104492,11.35015869140625,-1.9400670528411863,-0.0,-0.0,-1.0,0.0337426639522799,2.0,0.0
47.16584014892578,11.927043914794922,-1.9636242389678955,-0.0,-0.0,-1.0,0.0166262709556677,1.0,0.0
46.581634521484375,12.983160018920898,-2.034513235092163,-0.0,-0.0,-1.0,0.0099578536974934,1.0,0.0
47.330177307128906,12.331636428833008,-1.9748647212982176,-0.0,-0.0,-1.0,0.0252715614100568,1.0,0.0
45.77248764038086,13.041391372680664,-1.9520001411437988,-0.0,-0.0,-1.0,0.0272754362329722,2.0,0.0
47.60514831542969,12.737058639526367,-2.025078773498535,-0.0,-0.0,-1.0,0.0289281621707608,2.0,0.0
46.37935256958008,11.090110778808594,-1.9388113021850584,-0.0,-0.0,-1.0,0.0090351968880975,1.0,0.0
46.77084732055664,11.762506484985352,-2.549258232116699,-0.0,-0.0,-1.0,0.1891473772175013,1.0,0.0
47.30117416381836,10.88859748840332,-1.8373627662658691,-0.0,-0.0,-1.0,0.0313500401009413,1.0,0.0
45.22604751586914,11.48837947845459,-1.80181884765625,-0.0,-0.0,-1.0,0.021944471976018,1.0,0.0
46.169097900390625,11.521809577941896,-1.978965759277344,-0.7568113320976003,-0.3469995580126888,-0.5539204946087968,0.0148186119306799,3.0,0.0
47.04294204711914,11.324226379394531,-1.9726619720458984,-0.0,-0.0,-1.0,0.0105800108663487,1.0,0.0
45.7844352722168,10.94858169555664,-1.984541893005371,-0.0,-0.0,-1.0,0.0183824126152469,1.0,0.0
45.586631774902344,11.186306953430176,-1.9870119094848633,-0.0,-0.0,-1.0,0.0217655606407454,2.0,0.0
45.213077545166016,11.802717208862305,-2.0129518508911133,-0.0,-0.0,-1.0,0.0211144280103951,1.0,0.0
45.81513214111328,10.88637924194336,-1.9441914558410645,-0.0,-0.0,-1.0,0.0181215047494026,1.0,0.0
45.74664306640625,11.21039581298828,-1.9556498527526855,-0.0,-0.0,-1.0,0.028374765119965,1.0,0.0
45.676246643066406,11.750513076782228,-1.9825143814086912,-0.0,-0.0,-1.0,0.009077507744596,1.0,0.0
45.67700958251953,12.030986785888672,-2.0026912689208984,-0.0,-0.0,-1.0,0.013080065821255,1.0,0.0
45.54219055175781,12.348812103271484,-2.0050277709960938,-0.0,-0.0,-1.0,0.0210023905636966,2.0,0.0
45.44693756103515,12.67032241821289,-2.0141196250915527,-0.0,-0.0,-1.0,0.0116888131718409,1.0,0.0
45.32693099975586,13.07266616821289,-2.026083469390869,-0.0,-0.0,-1.0,0.0108461942666045,1.0,0.0
46.28314971923828,10.836725234985352,-1.920485496520996,-0.0,-0.0,-1.0,0.0056458893745363,2.0,0.0
46.18349075317383,11.212148666381836,-1.9184885025024416,-0.0,-0.0,-1.0,0.0159690072051468,1.0,0.0
46.22714614868164,11.618043899536133,-1.9422211647033691,-0.0,-0.0,-1.0,0.0162744269462411,1.0,0.0
46.223533630371094,12.089326858520508,-1.9618330001831057,-0.0,-0.0,-1.0,0.013855720811293,1.0,0.0
46.18049621582031,12.414337158203123,-1.9692497253417969,-0.4510584631619717,0.0036610665996349,-0.8924868959269446,0.0132625821344754,3.0,0.0
46.22966766357422,12.696565628051758,-1.9903879165649416,-0.0,-0.0,-1.0,0.0115234362309729,1.0,0.0
46.19573593139648,12.553144454956056,-1.9781312942504885,-0.0,-0.0,-1.0,0.0157261578248144,2.0,0.0
46.18329620361328,12.960105895996094,-1.995354175567627,-0.0,-0.0,-1.0,0.0241724254492042,1.0,0.0
46.56938552856445,10.723434448242188,-1.945068597793579,-0.0,-0.0,-1.0,0.0094932152030573,2.0,0.0
46.51578521728515,11.048699378967283,-1.9456894397735596,-0.0,-0.0,-1.0,0.0153521185274063,1.0,0.0
46.572383880615234,11.459854125976562,-1.9630019664764404,-0.0,-0.0,-1.0,0.0092119086788,1.0,0.0
46.53487777709961,11.859603881835938,-1.9686243534088137,-0.0,-0.0,-1.0,0.0082345984743667,2.0,0.0
46.58308029174805,12.208406448364258,-1.984428644180298,-0.957572862114098,-0.2021336370798881,-0.2054171524081443,0.0203910013697644,4.0,0.0
46.675968170166016,12.707633018493652,-2.010836362838745,-0.0,-0.0,-1.0,0.0172679832027868,1.0,0.0
46.620609283447266,13.04519748687744,-2.014207601547241,-0.0,-0.0,-1.0,0.0080823378740271,1.0,0.0
46.463016510009766,12.854902267456056,-2.0196533203125,-0.0,-0.0,-1.0,0.0107154109075372,1.0,0.0
46.33669662475586,12.628555297851562,-2.0039196014404297,-0.0,-0.0,-1.0,0.0097228587415318,2.0,0.0
46.417850494384766,12.974424362182615,-2.0133724212646484,-0.0,-0.0,-1.0,0.0130972820086472,1.0,0.0
46.058475494384766,11.731569290161133,-1.9725613594055176,-0.0,-0.0,-1.0,0.0123265352851704,1.0,0.0
46.11836624145508,12.132612228393556,-1.9777283668518064,-0.0,-0.0,-1.0,0.0116640391322098,1.0,0.0
46.22089767456055,12.405632019042969,-1.989704132080078,-0.2802832543973536,-0.5538356286476537,-0.7840327759378982,0.0133066054957507,4.0,0.0
45.65256881713867,11.021427154541016,-1.9252891540527344,-0.0,-0.0,-1.0,0.0230328281538,1.0,0.0
45.816436767578125,11.297079086303713,-1.9442486763000488,-0.0,-0.0,-1.0,0.0242580936860258,1.0,0.0
45.983036041259766,11.642017364501951,-2.02557110786438,-0.0,-0.0,-1.0,0.0173628406206388,1.0,0.0
45.568023681640625,11.19027042388916,-1.9854037761688232,-0.0,-0.0,-1.0,0.0213747888155505,2.0,0.0
45.411006927490234,11.066983222961426,-1.9686939716339111,-0.0,-0.0,-1.0,0.0204652748083998,2.0,0.0
46.456260681152344,12.82626724243164,-1.9783897399902344,-0.0,-0.0,-1.0,0.0106374686957606,2.0,0.0
46.1392707824707,12.048101425170898,-1.9481430053710935,-0.0,-0.0,-1.0,0.0110197388733584,1.0,0.0
46.22882080078125,12.376822471618652,-1.954850673675537,-0.0,-0.0,-1.0,0.0139048397016275,2.0,0.0
46.36459732055664,12.634865760803224,-1.9689245223999023,-0.0,-0.0,-1.0,0.009101388425075,2.0,0.0
45.62913131713867,11.227777481079102,-1.8961067199707031,-0.0,-0.0,-1.0,0.0209131157308211,1.0,0.0
45.39616012573242,10.728781700134276,-1.8759880065917969,-0.0,-0.0,-1.0,0.0201337597260542,1.0,0.0
45.50338363647461,11.038891792297363,-1.8834705352783203,-0.0,-0.0,-1.0,0.0241549293119579,1.0,0.0
47.07806015014648,12.778453826904297,-1.9256410598754885,-0.0,-0.0,-1.0,0.0330471037315327,1.0,0.0
47.14974594116211,12.974119186401367,-1.9332671165466309,-0.0,-0.0,-1.0,0.0332296687776133,1.0,0.0
46.76039505004883,11.485149383544922,-1.895796298980713,-0.0,-0.0,-1.0,0.0111345746488606,1.0,0.0
46.78157424926758,12.269142150878906,-1.894248962402344,-0.0,-0.0,-1.0,0.0240747649141017,1.0,0.0
46.872413635253906,12.527750015258787,-1.903480529785156,-0.0,-0.0,-1.0,0.0298135358681784,1.0,0.0
46.5072135925293,11.313653945922852,-1.868968486785889,-0.0,-0.0,-1.0,0.0118603313602506,1.0,0.0
47.654632568359375,10.733407974243164,-1.9535949230194092,-0.0,-0.0,-1.0,0.0551904658974871,1.0,0.0
47.53851318359375,10.71103858947754,-1.9729244709014893,-0.0,-0.0,-1.0,0.0476228084597106,1.0,0.0
47.60697937011719,10.910419464111328,-1.9771926403045657,-0.0,-0.0,-1.0,0.0520969795083314,1.0,0.0
47.28387069702149,12.786996841430664,-2.0128653049468994,-0.0,-0.0,-1.0,0.0587002028641518,2.0,0.0
47.4995002746582,13.01880931854248,-2.0341503620147705,-0.0,-0.0,-1.0,0.0289513571764657,2.0,0.0
46.87898254394531,12.42249870300293,-1.9726688861846924,-0.0,-0.0,-1.0,0.0178601719842194,1.0,0.0
47.1094970703125,12.55119800567627,-1.996441125869751,-0.0,-0.0,-1.0,0.0278358952741288,1.0,0.0
46.81296157836914,11.667150497436523,-1.9759995937347412,-0.0,-0.0,-1.0,0.0166820398166676,1.0,0.0
46.709449768066406,12.183528900146484,-1.9572598934173584,-0.0,-0.0,-1.0,0.0204280516503569,1.0,0.0
46.24334716796875,11.303020477294922,-1.91971755027771,-0.0,-0.0,-1.0,0.0179138217534622,1.0,0.0
47.53045654296875,10.778383255004885,-1.921458721160889,-0.0,-0.0,-1.0,0.0542633563895855,1.0,0.0
47.64044189453125,11.061176300048828,-1.9290060997009275,-0.0,-0.0,-1.0,0.0355763679547282,1.0,0.0
45.47065734863281,13.032194137573242,-1.9728953838348389,-0.0,-0.0,-1.0,0.0104095143349564,1.0,0.0
46.16359329223633,10.780073165893556,-1.9447331428527832,-0.0,-0.0,-1.0,0.0065708378632139,1.0,0.0
46.36286163330078,11.164794921875,-1.943960189819336,-0.0,-0.0,-1.0,0.0094168898439078,2.0,0.0
46.87796401977539,11.522016525268556,-1.9745526313781736,-0.185841404492188,-0.977015152157546,-0.1044239667458489,0.0135032993431062,3.0,0.0
47.14917755126953,11.695135116577148,-1.991655349731445,-0.0,-0.0,-1.0,0.015694578525802,1.0,0.0
47.36048126220703,11.906652450561523,-2.0014448165893555,-0.0,-0.0,-1.0,0.017118782403527,1.0,0.0
47.526222229003906,12.137876510620115,-2.006171226501465,-0.0,-0.0,-1.0,0.0256616808199246,1.0,0.0
46.1268196105957,10.97535514831543,-1.9314498901367188,-0.0,-0.0,-1.0,0.0092484335190459,2.0,0.0
46.338768005371094,11.180183410644531,-1.940922260284424,-0.0,-0.0,-1.0,0.0076253195245605,2.0,0.0
46.4990234375,11.418649673461914,-1.9440679550170896,-0.0,-0.0,-1.0,0.0132603900575706,1.0,0.0
45.63069152832031,11.177743911743164,-1.9605250358581543,-0.0,-0.0,-1.0,0.0226763443775102,1.0,0.0
45.93100357055664,11.470911026000977,-1.9792494773864744,-0.0,-0.0,-1.0,0.0249015733198861,1.0,0.0
45.97811508178711,11.440834045410156,-1.985476016998291,-0.0,-0.0,-1.0,0.024033212217164,1.0,0.0
46.20443344116211,11.782587051391602,-1.994713306427002,-0.0,-0.0,-1.0,0.0109807803838562,1.0,0.0
46.41886520385742,12.131858825683594,-2.002740383148194,-0.0,-0.0,-1.0,0.0138137692367139,1.0,0.0
46.76030349731445,12.56004524230957,-2.021470069885254,-0.0,-0.0,-1.0,0.0229337725867585,1.0,0.0
46.88541030883789,12.974458694458008,-2.0182018280029297,-0.0,-0.0,-1.0,0.0179241762464072,2.0,0.0
46.95225143432617,12.778575897216797,-2.0331616401672363,-0.0,-0.0,-1.0,0.0269740778939746,1.0,0.0
47.28691482543945,13.052043914794922,-2.0582213401794434,-0.0,-0.0,-1.0,0.0378066231903265,2.0,0.0
46.2633171081543,11.053193092346191,-1.9411189556121824,-0.0,-0.0,-1.0,0.0096048062082732,1.0,0.0
46.21111297607422,10.760821342468262,-1.9383156299591064,-0.0,-0.0,-1.0,0.0050734593883348,1.0,0.0
46.51408767700195,11.513701438903809,-1.9689767360687256,-0.0,-0.0,-1.0,0.0098704618975181,2.0,0.0
46.309547424316406,11.226322174072266,-1.944981336593628,-0.0,-0.0,-1.0,0.011334870770647,1.0,0.0
46.772430419921875,12.34908390045166,-1.9943735599517824,-0.0,-0.0,-1.0,0.0250114716736753,1.0,0.0
46.63665008544922,12.091559410095217,-1.978667974472046,-0.0,-0.0,-1.0,0.0181644421018209,1.0,0.0
46.598243713378906,11.730392456054688,-1.9777123928070068,-0.0,-0.0,-1.0,0.0084538562245311,1.0,0.0
47.0035400390625,12.881307601928713,-2.020777463912964,-0.0,-0.0,-1.0,0.0243657151310252,1.0,0.0
46.874298095703125,12.5582857131958,-2.0061681270599365,-0.0,-0.0,-1.0,0.0298135358681784,2.0,0.0
45.408843994140625,11.640521049499512,-1.9302680492401123,-0.0,-0.0,-1.0,0.0251021134077292,2.0,0.0
45.216575622558594,11.066890716552734,-1.9078428745269775,-0.0,-0.0,-1.0,0.013309287592132,1.0,0.0
45.711158752441406,12.051472663879396,-1.970729112625122,-0.0,-0.0,-1.0,0.0165254382090571,1.0,0.0
45.54789352416992,11.81921100616455,-1.9488627910614016,-0.0,-0.0,-1.0,0.008117322414186,2.0,0.0
45.80641555786133,12.891491889953612,-1.9795172214508057,-0.0,-0.0,-1.0,0.0201080666380908,1.0,0.0
45.832489013671875,12.537494659423828,-1.985195875167847,-0.0,-0.0,-1.0,0.0216492319422012,1.0,0.0
45.79109954833984,12.257627487182615,-1.9809019565582275,-0.0,-0.0,-1.0,0.0178365825229414,1.0,0.0
46.91754913330078,10.665057182312012,-1.8854687213897705,-0.0,-0.0,-1.0,0.0335686906672725,1.0,0.0
47.29557037353515,11.439473152160645,-1.938814401626587,-0.0,-0.0,-1.0,0.0265326156881937,1.0,0.0
47.12919616699219,11.134407997131348,-1.91512131690979,-0.0,-0.0,-1.0,0.0233208515891652,1.0,0.0
47.445281982421875,12.408193588256836,-1.962249994277954,-0.0,-0.0,-1.0,0.0251500276415754,1.0,0.0
47.47930145263672,11.968987464904783,-1.9658186435699463,-0.0,-0.0,-1.0,0.0213518938963355,2.0,0.0
47.364994049072266,11.653581619262695,-1.9489467144012451,-0.0,-0.0,-1.0,0.014855363669522,1.0,0.0
47.51974868774414,12.836214065551758,-1.9746172428131104,-0.0,-0.0,-1.0,0.032211144484889,2.0,0.0
47.511844635009766,12.566068649291992,-1.9723222255706787,0.2521061467104775,-0.9005361104100336,-0.3542276169899276,0.0320276469249471,3.0,0.0
47.52083587646485,12.196475982666016,-1.972334623336792,-0.0,-0.0,-1.0,0.0287334395900537,1.0,0.0
45.453311920166016,11.614456176757812,-1.9546420574188232,-0.0,-0.0,-1.0,0.0255592095695151,1.0,0.0
45.785831451416016,12.059855461120604,-1.9952070713043213,-0.0,-0.0,-1.0,0.016993672524825,1.0,0.0
45.579322814941406,11.851369857788086,-1.9686696529388428,-0.0,-0.0,-1.0,0.0069605891915602,2.0,0.0
45.78472137451172,10.796751022338867,-1.9840712547302248,-0.0,-0.0,-1.0,0.0160684394521873,1.0,0.0
45.928810119628906,11.667548179626465,-2.0217514038085938,-0.0,-0.0,-1.0,0.014405286408801,1.0,0.0
45.859901428222656,11.248380661010742,-2.003406524658203,-0.0,-0.0,-1.0,0.025534745040418,1.0,0.0
46.04065704345703,12.487285614013672,-2.0555319786071777,-0.0,-0.0,-1.0,0.018740878569555,1.0,0.0
45.96385192871094,12.084062576293944,-2.0351948738098145,-0.0,-0.0,-1.0,0.0163457891874422,1.0,0.0
46.09321975708008,12.99787425994873,-2.074868679046631,-0.0,-0.0,-1.0,0.0279216239632715,2.0,0.0
46.01893997192383,12.75176239013672,-2.057620048522949,-0.0,-0.0,-1.0,0.0277463141755851,1.0,0.0
47.1616096496582,11.176288604736328,-1.9294569492340088,-0.0,-0.0,-1.0,0.030466432384924,1.0,0.0
47.10187149047851,10.917783737182615,-1.9123303890228271,-0.0,-0.0,-1.0,0.0436604077889912,1.0,0.0
47.252986907958984,11.80838680267334,-1.963794946670532,-0.0,-0.0,-1.0,0.0137743345922823,1.0,0.0
47.223388671875,11.434106826782228,-1.947094678878784,-0.0,-0.0,-1.0,0.0195540721537456,1.0,0.0
47.168251037597656,12.583643913269045,-1.9770348072052,-0.0,-0.0,-1.0,0.0301896959097464,1.0,0.0
47.19524002075195,12.25484561920166,-1.96985125541687,-0.0,-0.0,-1.0,0.0155656085893456,1.0,0.0
47.240081787109375,12.836939811706545,-1.997131109237671,-0.0,-0.0,-1.0,0.0550504117001121,2.0,0.0
47.320587158203125,10.934976577758787,-1.9051411151885984,-0.0,-0.0,-1.0,0.0309426137398318,1.0,0.0
47.30521774291992,10.672452926635742,-1.8934977054595947,-0.0,-0.0,-1.0,0.0421682512574339,1.0,0.0
47.443389892578125,11.552911758422852,-1.946742296218872,-0.0,-0.0,-1.0,0.0560859192742279,2.0,0.0
47.356048583984375,11.296818733215332,-1.9236958026885984,-0.0,-0.0,-1.0,0.0310221129486096,1.0,0.0
47.4319953918457,12.13569450378418,-1.967219591140747,-0.0,-0.0,-1.0,0.022650708959874,1.0,0.0
47.511016845703125,11.85544490814209,-1.968726396560669,-0.0,-0.0,-1.0,0.0242520151628043,2.0,0.0
47.39917755126953,12.678037643432615,-1.983668088912964,-0.0,-0.0,-1.0,0.0398663340183551,1.0,0.0
47.39040756225586,12.415104866027832,-1.9717586040496824,-0.0,-0.0,-1.0,0.0315391965477644,1.0,0.0
47.45609664916992,12.924774169921877,-2.0026791095733643,-0.0,-0.0,-1.0,0.0314658199535857,1.0,0.0
46.52954864501953,10.69521713256836,-1.915905475616455,-0.0,-0.0,-1.0,0.0102229951429902,2.0,0.0
46.46849822998047,11.166452407836914,-1.9217891693115232,-0.0,-0.0,-1.0,0.0094188607555086,2.0,0.0
46.53411865234375,10.921873092651367,-1.9247827529907229,-0.0,-0.0,-1.0,0.0122339718485321,2.0,0.0
46.53299331665039,11.509868621826172,-1.946908473968506,-0.0,-0.0,-1.0,0.0098704618975181,2.0,0.0
46.51578903198242,11.875750541687012,-1.9587154388427737,-0.0,-0.0,-1.0,0.009627514878638,2.0,0.0
46.46133804321289,12.287755966186523,-1.9664325714111328,-0.0,-0.0,-1.0,0.0177833551928693,1.0,0.0
46.4988899230957,12.679859161376951,-1.9912962913513184,-0.0,-0.0,-1.0,0.0150737539587956,2.0,0.0
46.44674301147461,13.08435344696045,-2.0010719299316406,-0.0,-0.0,-1.0,0.0226028795459354,1.0,0.0
46.23627471923828,10.86143684387207,-1.903880834579468,-0.0,-0.0,-1.0,0.0051722012725855,1.0,0.0
46.217308044433594,11.253780364990234,-1.9083287715911863,-0.0,-0.0,-1.0,0.0186832364891643,1.0,0.0
46.31617736816406,11.66358757019043,-1.9363958835601809,-0.0,-0.0,-1.0,0.0091594647993547,1.0,0.0
46.33209991455078,12.089576721191406,-1.9503467082977295,-0.0,-0.0,-1.0,0.0135012153252017,1.0,0.0
46.348751068115234,12.46841526031494,-1.964205026626587,-0.0,-0.0,-1.0,0.0112563146592547,1.0,0.0
46.39622116088867,12.843080520629885,-1.9847710132598877,-0.0,-0.0,-1.0,0.0104290940326066,2.0,0.0
46.59477615356445,10.863306045532228,-1.916097640991211,-0.0,-0.0,-1.0,0.0122306520354155,2.0,0.0
46.60446548461914,11.246936798095703,-1.926958084106445,-0.0,-0.0,-1.0,0.0125811286182547,2.0,0.0
46.647796630859375,11.610380172729492,-1.944762706756592,-0.0,-0.0,-1.0,0.008065406146741,1.0,0.0
46.58676528930664,12.048595428466797,-1.945303440093994,-0.0,-0.0,-1.0,0.0179926205749924,2.0,0.0
46.63930892944336,12.444757461547852,-1.9679217338562012,-0.0,-0.0,-1.0,0.025652148419046,1.0,0.0
46.666229248046875,12.800836563110352,-1.985212326049805,-0.0,-0.0,-1.0,0.0126990640993566,1.0,0.0
45.22919845581055,12.326025009155272,-1.988891363143921,-0.0,-0.0,-1.0,0.0070754211865396,1.0,0.0
45.265167236328125,12.705371856689451,-2.006267786026001,-0.0,-0.0,-1.0,0.0093724137011074,2.0,0.0
45.26631164550781,13.125188827514648,-2.018120527267456,-0.0,-0.0,-1.0,0.0108461942666045,1.0,0.0
46.16144561767578,10.679519653320312,-1.9145238399505615,-0.0,-0.0,-1.0,0.0054371429169932,1.0,0.0
46.160499572753906,11.114091873168944,-1.9206726551055908,-0.0,-0.0,-1.0,0.0121214290881262,1.0,0.0
46.22576904296875,11.493278503417969,-1.9427850246429443,-0.0,-0.0,-1.0,0.0140486791238182,2.0,0.0
46.2872200012207,11.867238998413086,-1.9653780460357664,-0.0,-0.0,-1.0,0.0092578409926385,1.0,0.0
46.29731750488281,12.291155815124512,-1.978736162185669,-0.0,-0.0,-1.0,0.0186390665202148,1.0,0.0
46.353267669677734,12.70202350616455,-2.0041821002960205,-0.0,-0.0,-1.0,0.0080874873988651,1.0,0.0
46.344329833984375,13.09006690979004,-2.0152037143707275,-0.0,-0.0,-1.0,0.0229360266760652,2.0,0.0
45.93626403808594,11.009654998779297,-1.9447789192199707,-0.0,-0.0,-1.0,0.0192382766006053,1.0,0.0
46.0177001953125,11.387229919433594,-1.969099998474121,-0.0,-0.0,-1.0,0.0208521297628053,1.0,0.0
46.04207611083984,11.778444290161133,-1.981231689453125,-0.0,-0.0,-1.0,0.011190879200714,1.0,0.0
46.05913543701172,12.197946548461914,-1.9940733909606936,-0.0,-0.0,-1.0,0.0104508661296992,1.0,0.0
46.09687805175781,12.61293601989746,-2.0141382217407227,-0.0,-0.0,-1.0,0.0238854849364827,1.0,0.0
46.10311508178711,12.998889923095703,-2.0274529457092285,-0.0,-0.0,-1.0,0.0279216239632715,2.0,0.0
46.667213439941406,10.650259017944336,-1.9579225778579712,-0.0,-0.0,-1.0,0.0138450986073388,1.0,0.0
46.801536560058594,11.08217430114746,-1.9869126081466677,-0.0,-0.0,-1.0,0.0150908230796872,1.0,0.0
46.82666778564453,11.005996704101562,-1.9916826486587524,-0.0,-0.0,-1.0,0.017095376789339,1.0,0.0
46.91316986083984,11.467796325683594,-2.012876033782959,-0.0,-0.0,-1.0,0.0148652534205976,1.0,0.0
46.96179962158203,11.707435607910156,-2.0254344940185547,-0.0,-0.0,-1.0,0.0115424163279586,1.0,0.0
46.67510223388672,10.750438690185549,-1.9596463441848757,-0.0,-0.0,-1.0,0.0155952131264076,1.0,0.0
46.74642181396485,10.96316909790039,-1.974894881248474,-0.0,-0.0,-1.0,0.0146358102979628,2.0,0.0
46.83036804199219,11.274930953979492,-1.993994116783142,-0.0,-0.0,-1.0,0.0100023612897547,2.0,0.0
46.9013671875,11.521445274353027,-2.0108580589294434,-0.0,-0.0,-1.0,0.0137229916155343,2.0,0.0
46.80169677734375,11.946516036987305,-1.9949363470077517,-0.0,-0.0,-1.0,0.0101869870657809,2.0,0.0
46.941505432128906,11.779553413391112,-2.0220494270324707,-0.0,-0.0,-1.0,0.0117144197427245,1.0,0.0
46.82115936279297,12.23582363128662,-2.0034217834472656,-0.0,-0.0,-1.0,0.0183624638126776,1.0,0.0
46.88323211669922,12.450273513793944,-2.0202322006225586,-0.0,-0.0,-1.0,0.0210793430089312,1.0,0.0
46.87151336669922,12.518170356750488,-2.019062042236328,-0.0,-0.0,-1.0,0.0270352156117362,2.0,0.0
46.9273796081543,12.685173034667969,-2.0343260765075684,-0.0,-0.0,-1.0,0.0286284762100469,1.0,0.0
46.82677459716797,13.109556198120115,-2.022925853729248,-0.0,-0.0,-1.0,0.0160981949598597,2.0,0.0
46.95537567138672,13.052675247192385,-2.048905849456787,-0.0,-0.0,-1.0,0.0227403078862161,1.0,0.0
47.176307678222656,10.70570182800293,-1.9396460056304932,-0.0,-0.0,-1.0,0.0469426907474371,1.0,0.0
47.30861282348633,11.124905586242676,-1.9670705795288088,-0.9354461126706533,-0.2493268340470698,0.2505527890753329,0.0259751483123588,3.0,0.0
47.36758041381836,11.370182991027832,-1.9802768230438232,-0.0,-0.0,-1.0,0.0261727002675156,2.0,0.0
47.43677520751953,11.548824310302734,-1.9954097270965576,-0.0,-0.0,-1.0,0.0244412237977069,2.0,0.0
47.545745849609375,11.911815643310549,-2.020965814590454,-0.0,-0.0,-1.0,0.0201889070890345,1.0,0.0
47.502716064453125,12.358369827270508,-2.019502878189087,-0.0,-0.0,-1.0,0.0260081359419475,1.0,0.0
47.50007247924805,12.708521842956545,-2.0255649089813232,-0.0,-0.0,-1.0,0.0399527678149529,2.0,0.0
47.65665054321289,13.116776466369627,-2.0653977394104004,-0.0,-0.0,-1.0,0.028500273106691,1.0,0.0
45.43330001831055,10.759116172790527,-1.9253461360931396,-0.0,-0.0,-1.0,0.0201337597260542,1.0,0.0
45.4918098449707,11.193013191223145,-1.938853740692139,-0.0,-0.0,-1.0,0.0191380662369033,1.0,0.0
45.54890823364258,11.5567045211792,-1.9538891315460205,-0.0,-0.0,-1.0,0.0221926979409564,1.0,0.0
45.6401252746582,11.97047996520996,-1.9791340827941897,-0.0,-0.0,-1.0,0.0074616645935807,1.0,0.0
45.674686431884766,12.368088722229004,-1.99316930770874,-0.0,-0.0,-1.0,0.0209650952426347,1.0,0.0
45.65515899658203,12.748197555541992,-1.9961607456207275,-0.0,-0.0,-1.0,0.0201402003758634,2.0,0.0
46.990623474121094,10.756477355957031,-1.9383504390716553,-0.0,-0.0,-1.0,0.0334279499714976,1.0,0.0
47.100284576416016,11.15198040008545,-1.963134527206421,-0.0,-0.0,-1.0,0.0219767166178359,1.0,0.0
47.19574737548828,11.547869682312012,-1.986881971359253,-0.0,-0.0,-1.0,0.0162902646991966,1.0,0.0
47.22883224487305,11.965015411376951,-1.998887538909912,-0.0,-0.0,-1.0,0.012733723129642,2.0,0.0
47.220829010009766,12.359296798706056,-2.003295421600342,-0.0,-0.0,-1.0,0.0243062260874205,1.0,0.0
47.25677490234375,12.770655632019045,-2.019958257675171,-0.0,-0.0,-1.0,0.0548748345281005,2.0,0.0
47.295257568359375,12.729358673095703,-2.027667760848999,-0.0,-0.0,-1.0,0.0501989471012432,1.0,0.0
47.28878402709961,13.061090469360352,-2.0343997478485107,-0.0,-0.0,-1.0,0.0378066231903265,2.0,0.0
47.119834899902344,10.66951847076416,-1.8940467834472656,-0.0,-0.0,-1.0,0.0407945627132152,1.0,0.0
47.25628662109375,11.087400436401367,-1.922233819961548,-0.0,-0.0,-1.0,0.0276312815272119,2.0,0.0
45.22565841674805,11.584236145019531,-1.9226808547973633,-0.0,-0.0,-1.0,0.0224910024845844,2.0,0.0
47.37469100952149,11.484363555908203,-1.9487569332122805,-0.0,-0.0,-1.0,0.0275542832141697,1.0,0.0
45.3471794128418,11.942975997924805,-1.948538064956665,-0.0,-0.0,-1.0,0.0085509790715647,1.0,0.0
47.475399017333984,11.85934829711914,-1.9732401371002195,-0.0,-0.0,-1.0,0.0215824339494959,2.0,0.0
45.44385528564453,12.287099838256836,-1.9703967571258545,-0.0,-0.0,-1.0,0.0176879724838792,1.0,0.0
45.48246383666992,12.413240432739258,-1.979740858078003,-0.0,-0.0,-1.0,0.0190455790565826,2.0,0.0
47.447566986083984,12.294673919677734,-1.9698221683502195,-0.0,-0.0,-1.0,0.027282756862508,1.0,0.0
47.469512939453125,12.217232704162598,-1.974417209625244,-0.0,-0.0,-1.0,0.0297397844382449,1.0,0.0
45.49787902832031,12.732871055603027,-1.9827611446380615,-0.0,-0.0,-1.0,0.0122621465930374,1.0,0.0
47.46768569946289,12.555779457092283,-1.977592706680298,0.2521061467104775,-0.9005361104100336,-0.3542276169899276,0.0323336795661685,3.0,0.0
47.48927307128906,12.698347091674805,-1.98484206199646,-0.0,-0.0,-1.0,0.039952767814953,2.0,0.0
45.53914642333984,13.133563995361328,-1.9949390888214111,-0.0,-0.0,-1.0,0.0100281577587722,1.0,0.0
47.603736877441406,13.072898864746094,-2.018826484680176,-0.0,-0.0,-1.0,0.028160090037083,1.0,0.0
45.266883850097656,11.40522003173828,-1.9614286422729492,-0.0,-0.0,-1.0,0.0224256622589159,1.0,0.0
46.85655975341797,10.662943840026855,-1.9335212707519531,-0.0,-0.0,-1.0,0.0297311913299848,1.0,0.0
46.95463943481445,10.853480339050291,-1.9526433944702148,-0.0,-0.0,-1.0,0.03346643559619,1.0,0.0
47.039588928222656,11.101224899291992,-1.9680869579315183,-0.0,-0.0,-1.0,0.0199573697206289,2.0,0.0
45.29338836669922,11.595035552978516,-1.9611546993255615,-0.0,-0.0,-1.0,0.0235944610959981,1.0,0.0
45.350341796875,11.750314712524414,-1.97147274017334,-0.0,-0.0,-1.0,0.0220394158912603,1.0,0.0
47.17316055297851,11.485644340515137,-1.9946930408477783,-0.0,-0.0,-1.0,0.0149835743162822,1.0,0.0
45.44469451904297,11.958616256713867,-1.9917352199554443,-0.0,-0.0,-1.0,0.0090504586826414,2.0,0.0
47.264259338378906,11.882715225219728,-2.0130419731140137,-0.0,-0.0,-1.0,0.0146883661144817,2.0,0.0
45.551246643066406,12.338024139404297,-2.0123140811920166,-0.0,-0.0,-1.0,0.0210023905636966,2.0,0.0
47.29599380493164,12.270742416381836,-2.018878698348999,-0.0,-0.0,-1.0,0.0233052375222149,2.0,0.0
45.59755325317383,12.736333847045898,-2.018460988998413,-0.0,-0.0,-1.0,0.021168236347237,1.0,0.0
47.33048629760742,12.605948448181152,-2.027714252471924,-0.0,-0.0,-1.0,0.0362859120807206,1.0,0.0
47.395782470703125,12.805768966674805,-2.0455641746520996,-0.0,-0.0,-1.0,0.0410124724287583,1.0,0.0
47.48030090332031,13.077554702758787,-2.070112466812134,-0.0,-0.0,-1.0,0.0342893705640559,1.0,0.0
45.8327751159668,10.765716552734377,-1.9568520784378052,-0.0,-0.0,-1.0,0.01545002596403,2.0,0.0
47.44771957397461,10.728931427001951,-1.9343727827072144,-0.0,-0.0,-1.0,0.0467158896347767,1.0,0.0
45.92167663574219,11.174131393432615,-1.960238575935364,-0.0,-0.0,-1.0,0.0216239931437943,1.0,0.0
47.55033874511719,11.132139205932615,-1.9500561952590945,-0.0,-0.0,-1.0,0.0412477667201634,2.0,0.0
46.041595458984375,11.429483413696287,-1.9829331636428833,-0.0,-0.0,-1.0,0.0220092345317742,1.0,0.0
46.12159729003906,11.614100456237791,-1.9987157583236697,-0.0,-0.0,-1.0,0.0182961810205541,1.0,0.0
47.611053466796875,11.401735305786133,-1.9601041078567505,-0.0,-0.0,-1.0,0.0602667454685932,1.0,0.0
46.16227722167969,11.965514183044434,-1.998026967048645,-0.0,-0.0,-1.0,0.0107425099325314,1.0,0.0
46.25769805908203,12.352685928344728,-2.0156188011169434,-0.0,-0.0,-1.0,0.0166081442406779,1.0,0.0
46.36001968383789,12.739182472229004,-2.0390424728393555,-0.0,-0.0,-1.0,0.0079705319811469,1.0,0.0
46.99972152709961,12.848991394042969,-1.9398906230926511,-0.0,-0.0,-1.0,0.0236177678108356,1.0,0.0
46.67872619628906,12.525697708129885,-1.9190683364868164,-0.0,-0.0,-1.0,0.0226369203077959,1.0,0.0
46.909427642822266,12.679109573364258,-1.938507080078125,-0.0,-0.0,-1.0,0.0281825014513897,1.0,0.0
46.673309326171875,12.440581321716309,-1.9233591556549072,-0.0,-0.0,-1.0,0.025652148419046,1.0,0.0
46.41299819946289,12.101123809814451,-1.9114925861358645,-0.0,-0.0,-1.0,0.0143979181796675,1.0,0.0
46.35718536376953,11.866687774658203,-1.9187099933624268,-0.0,-0.0,-1.0,0.008462296099536,1.0,0.0
47.27596282958984,10.83616542816162,-1.907840371131897,-0.0,-0.0,-1.0,0.0430346411363202,1.0,0.0
47.336647033691406,11.3935546875,-1.9362672567367551,-0.0,-0.0,-1.0,0.0243939309155324,1.0,0.0
47.322261810302734,11.117039680480955,-1.923939108848572,-0.3682211715259857,-0.8748412452058857,-0.3147474615094546,0.0337515615744453,4.0,0.0
47.46263885498047,11.72933864593506,-1.9642127752304075,-0.0,-0.0,-1.0,0.0240047530013404,2.0,0.0
47.30461120605469,12.618106842041016,-1.98139488697052,-0.0,-0.0,-1.0,0.0362859120807205,1.0,0.0
47.48494720458984,12.157662391662598,-1.9838749170303345,-0.0,-0.0,-1.0,0.0260890983666991,1.0,0.0
47.510223388671875,11.970738410949709,-1.979361891746521,-0.0,-0.0,-1.0,0.0216468862771773,2.0,0.0
47.34774398803711,12.907232284545898,-1.9984337091445925,-0.0,-0.0,-1.0,0.0468244017395739,1.0,0.0
47.45854949951172,13.099178314208984,-2.0194811820983887,-0.0,-0.0,-1.0,0.034108975204112,1.0,0.0
46.81922149658203,10.823094367980955,-1.9394855499267576,-0.0,-0.0,-1.0,0.0288276205553906,1.0,0.0
46.51885223388672,11.340328216552734,-1.9342565536499023,-0.0,-0.0,-1.0,0.0127981882343088,1.0,0.0
46.84218978881836,11.294578552246094,-1.9716951847076416,-0.0,-0.0,-1.0,0.012587590440482,2.0,0.0
46.870582580566406,11.090378761291504,-1.9624080657958984,-0.0,-0.0,-1.0,0.0159823032452362,1.0,0.0
46.513465881347656,12.133895874023438,-1.9849073886871336,-0.0,-0.0,-1.0,0.0154369627249289,1.0,0.0
46.6087532043457,11.868721961975098,-1.9794089794158936,-0.0,-0.0,-1.0,0.0096694712065309,1.0,0.0
46.849891662597656,11.52873992919922,-1.9874985218048096,-0.0,-0.0,-1.0,0.0162376393768753,2.0,0.0
46.40603256225586,12.651700019836426,-2.0062241554260254,-0.0,-0.0,-1.0,0.0082921918022716,1.0,0.0
46.466522216796875,12.393597602844238,-1.996368408203125,-0.0,-0.0,-1.0,0.018139434247865,1.0,0.0
46.3853874206543,13.089468002319336,-2.0337278842926025,-0.0,-0.0,-1.0,0.0245207511235552,2.0,0.0
45.537353515625,11.00457763671875,-1.9239803552627563,-0.0,-0.0,-1.0,0.025246138002978,2.0,0.0
45.545162200927734,11.36814785003662,-1.9445863962173464,-0.0,-0.0,-1.0,0.0136307921869484,1.0,0.0
45.40679931640625,11.68443202972412,-1.9360891580581665,-0.0,-0.0,-1.0,0.0251021134077292,2.0,0.0
45.46314239501953,11.863211631774902,-1.9571470022201536,-0.0,-0.0,-1.0,0.0087760686164677,1.0,0.0
45.467384338378906,12.362147331237791,-1.9885739088058472,-0.0,-0.0,-1.0,0.0185463485439025,1.0,0.0
45.51411437988281,12.163162231445312,-1.9848705530166624,-0.0,-0.0,-1.0,0.0162751559660321,1.0,0.0
45.42964553833008,12.621628761291504,-1.998440861701965,-0.0,-0.0,-1.0,0.0120954246868575,2.0,0.0
45.353233337402344,12.997854232788086,-2.0097784996032715,-0.0,-0.0,-1.0,0.0108461942666045,2.0,0.0
47.676361083984375,12.46214485168457,-2.014941692352295,0.7791341831104034,-0.2716147794079451,-0.5649560481276914,0.0270263336189573,3.0,0.0
47.60353088378906,12.69879150390625,-2.019758701324463,-0.0,-0.0,-1.0,0.0274818771257123,2.0,0.0
47.65131378173828,11.0117826461792,-1.912699818611145,-0.0,-0.0,-1.0,0.0418847937808752,1.0,0.0
47.697357177734375,10.80013942718506,-1.9082454442977903,-0.0,-0.0,-1.0,0.0511769223345034,1.0,0.0
47.65393829345703,11.345746994018556,-1.9340144395828247,-0.0,-0.0,-1.0,0.0642334320231219,1.0,0.0
47.705299377441406,11.165521621704102,-1.9317773580551147,-0.0,-0.0,-1.0,0.040260659661056,1.0,0.0
47.53009796142578,12.840202331542969,-2.017695903778076,-0.0,-0.0,-1.0,0.0316956585198721,2.0,0.0
45.41770553588867,10.92044162750244,-1.908782720565796,-0.0,-0.0,-1.0,0.017850578177202,1.0,0.0
45.35749053955078,11.236494064331056,-1.9167401790618896,-0.0,-0.0,-1.0,0.0300372153490119,1.0,0.0
45.31663513183594,11.853057861328123,-1.9532084465026855,-0.0,-0.0,-1.0,0.0157688514193548,1.0,0.0
45.234840393066406,12.140082359313965,-1.9583942890167236,-0.0,-0.0,-1.0,0.007344606408357,2.0,0.0
45.24169921875,10.662527084350586,-1.9161694049835205,-0.0,-0.0,-1.0,0.0191199048478429,1.0,0.0
47.40827178955078,10.815309524536133,-1.912724018096924,-0.0,-0.0,-1.0,0.0490286013606975,1.0,0.0
47.38925552368164,11.224123001098633,-1.933119773864746,-0.0,-0.0,-1.0,0.0332769050284517,1.0,0.0
47.44401168823242,11.624695777893066,-1.9707746505737305,-0.0,-0.0,-1.0,0.0192207365890348,1.0,0.0
47.301048278808594,12.236851692199709,-1.9850115776062012,-0.0,-0.0,-1.0,0.0239648980221486,2.0,0.0
47.437103271484375,12.021474838256836,-1.997347116470337,-0.0,-0.0,-1.0,0.021003216910595,1.0,0.0
47.27100372314453,12.472487449645996,-1.9971704483032229,-0.0,-0.0,-1.0,0.0300324358807795,1.0,0.0
47.23748779296875,12.866406440734863,-2.022409677505493,-0.0,-0.0,-1.0,0.051461527369682,2.0,0.0
46.08976745605469,10.75530242919922,-1.9624364376068115,-0.0,-0.0,-1.0,0.0084555994278651,1.0,0.0
45.99776840209961,11.125396728515623,-1.9649975299835205,-0.0,-0.0,-1.0,0.01606026593646,1.0,0.0
45.97969055175781,11.51993179321289,-1.9906072616577148,-0.0,-0.0,-1.0,0.0244220442514516,1.0,0.0
45.869834899902344,12.036457061767578,-2.007004737854004,-0.0,-0.0,-1.0,0.0073888615095141,1.0,0.0
45.927215576171875,11.90703010559082,-2.00988507270813,-0.0,-0.0,-1.0,0.0091434163455156,2.0,0.0
45.82398223876953,12.3621826171875,-2.025883197784424,-0.0,-0.0,-1.0,0.0168060089695029,1.0,0.0
45.66941833496094,12.776269912719728,-2.0290515422821045,0.6613914069293034,-0.6874352131772503,-0.2999903907194775,0.0203829558679073,3.0,0.0
45.594520568847656,13.006041526794434,-2.034855604171753,-0.0,-0.0,-1.0,0.0219819729465707,1.0,0.0
45.54728698730469,10.742571830749512,-1.9310184717178345,-0.0,-0.0,-1.0,0.0178985353065668,1.0,0.0
47.22911071777344,10.730536460876465,-1.9373899698257449,-0.0,-0.0,-1.0,0.0416289295009982,1.0,0.0
45.51512145996094,11.147472381591797,-1.947278618812561,-0.0,-0.0,-1.0,0.0216912495989611,1.0,0.0
47.23524475097656,11.022908210754396,-1.954378962516785,-0.0,-0.0,-1.0,0.0363071251598414,1.0,0.0
47.27220153808594,10.864832878112791,-1.9550374746322632,-0.0,-0.0,-1.0,0.0430346411363201,1.0,0.0
45.473533630371094,11.569108963012695,-1.9661458730697632,-0.0,-0.0,-1.0,0.0255818995547,1.0,0.0
47.27217102050781,11.33568000793457,-1.9817224740982056,-0.0,-0.0,-1.0,0.0237395780923743,1.0,0.0
47.31367492675781,11.367155075073242,-1.9938236474990845,-0.0,-0.0,-1.0,0.0262093623746648,2.0,0.0
45.41131591796875,11.969865798950195,-1.981686234474182,-0.0,-0.0,-1.0,0.0089692670361753,2.0,0.0
47.250770568847656,11.742524147033691,-2.0026655197143555,-0.0,-0.0,-1.0,0.0125371044920505,1.0,0.0
45.36756896972656,12.439434051513672,-2.0130581855773926,-0.0,-0.0,-1.0,0.0084709728199515,1.0,0.0
45.412235260009766,12.230146408081056,-2.0053610801696777,-0.0,-0.0,-1.0,0.0164356392283171,1.0,0.0
47.121707916259766,12.171029090881348,-2.0017342567443848,-0.0,-0.0,-1.0,0.0077686081416994,1.0,0.0
45.281028747558594,12.80158233642578,-2.026370048522949,-0.0,-0.0,-1.0,0.0105135840803763,1.0,0.0
47.015472412109375,12.65216064453125,-2.0142946243286133,-0.0,-0.0,-1.0,0.0312398779721412,1.0,0.0
47.06218719482422,12.455432891845703,-2.0093464851379395,-0.0,-0.0,-1.0,0.0156643480413204,1.0,0.0
46.87611389160156,13.00782871246338,-2.011904239654541,-0.0,-0.0,-1.0,0.0185121835421407,2.0,0.0
46.87207794189453,10.98675537109375,-1.9691128730773928,-0.0,-0.0,-1.0,0.0245064490118629,1.0,0.0
46.832611083984375,11.40216827392578,-1.9915246963500977,-0.0,-0.0,-1.0,0.0079484835279642,2.0,0.0
46.66972732543945,11.814812660217283,-1.9836299419403076,-0.0,-0.0,-1.0,0.0078306053628546,1.0,0.0
46.57158660888672,12.238693237304688,-1.9991614818573,-0.0,-0.0,-1.0,0.0205018282733929,2.0,0.0
46.472381591796875,12.686458587646484,-2.0217230319976807,-0.0,-0.0,-1.0,0.0121496021312113,2.0,0.0
46.50179290771485,12.537952423095703,-2.012636423110962,-0.0,-0.0,-1.0,0.0151533449747874,1.0,0.0
46.3867301940918,13.033620834350586,-2.0403738021850586,-0.0,-0.0,-1.0,0.0260564724336526,1.0,0.0
45.86283874511719,12.75099754333496,-2.0278825759887695,-0.0,-0.0,-1.0,0.0193603805153056,1.0,0.0
46.07444763183594,12.454994201660156,-2.0204615592956543,-0.0,-0.0,-1.0,0.0130302818987085,1.0,0.0
46.16764831542969,12.30525016784668,-2.0145506858825684,-0.0,-0.0,-1.0,0.0163729441513658,1.0,0.0
45.40342712402344,11.030340194702148,-1.9462034702301023,-0.0,-0.0,-1.0,0.0232712631654103,2.0,0.0
45.75889205932617,10.69171905517578,-1.9569859504699707,-0.0,-0.0,-1.0,0.0154960750802158,2.0,0.0
46.02626419067383,12.821897506713867,-2.021095037460327,-0.0,-0.0,-1.0,0.0284098491095548,1.0,0.0
46.17240524291992,12.662330627441406,-2.01802134513855,-0.0,-0.0,-1.0,0.0146058080770198,1.0,0.0
46.32444763183594,12.478784561157228,-2.012765884399414,-0.0,-0.0,-1.0,0.0129555484216578,1.0,0.0
45.45420455932617,10.95283317565918,-1.9410653114318848,-0.0,-0.0,-1.0,0.0205939090086629,1.0,0.0
45.501129150390625,10.840428352355955,-1.927875518798828,-0.0,-0.0,-1.0,0.0165420648218173,1.0,0.0
45.72272491455078,10.685420989990234,-1.9471204280853271,-0.0,-0.0,-1.0,0.0161258863266546,2.0,0.0
46.27880096435547,12.427614212036133,-1.9937477111816408,-0.0,-0.0,-1.0,0.0153894944647134,1.0,0.0
46.42147445678711,11.528932571411133,-1.9439772367477417,-0.0,-0.0,-1.0,0.0117081003346133,1.0,0.0
46.73002243041992,11.272329330444336,-1.950926661491394,-0.0,-0.0,-1.0,0.0104947911687215,1.0,0.0
46.30921173095703,11.524576187133787,-1.922568678855896,-0.0,-0.0,-1.0,0.014664856069089,1.0,0.0
46.54988861083984,10.92185115814209,-1.9286186695098877,-0.0,-0.0,-1.0,0.0124254169966285,2.0,0.0
46.62272644042969,10.873494148254396,-1.9338164329528809,-0.0,-0.0,-1.0,0.0122177005174691,2.0,0.0
46.72099304199219,10.649704933166504,-1.912846565246582,-0.0,-0.0,-1.0,0.0191844498409072,1.0,0.0
45.43870162963867,12.409772872924805,-1.9695874452590945,-0.0,-0.0,-1.0,0.0165455345545388,2.0,0.0
45.289527893066406,12.597476959228516,-1.973777413368225,-0.0,-0.0,-1.0,0.0103318839338785,1.0,0.0
45.77095031738281,11.963543891906738,-1.958208680152893,-0.0,-0.0,-1.0,0.0074947682858936,1.0,0.0
45.653018951416016,12.145014762878418,-1.9648886919021609,-0.0,-0.0,-1.0,0.016736319674739,1.0,0.0
45.91847610473633,11.733938217163086,-1.950116515159607,-0.0,-0.0,-1.0,0.0124741091215359,1.0,0.0
46.06327438354492,11.27493953704834,-1.914263367652893,-0.0,-0.0,-1.0,0.01974450200723,1.0,0.0
46.37843704223633,10.917780876159668,-1.9162427186965945,-0.0,-0.0,-1.0,0.0082250085491935,1.0,0.0
46.17935562133789,11.065340042114258,-1.905371069908142,-0.0,-0.0,-1.0,0.0104651443994254,1.0,0.0
46.542945861816406,10.724077224731444,-1.9171298742294312,-0.6911210613088391,0.2927934738871661,-0.6607750451283925,0.0092132439485364,3.0,0.0
45.25800704956055,11.400957107543944,-2.011747121810913,-0.0,-0.0,-1.0,0.0224256622589158,1.0,0.0
45.6538200378418,11.0145845413208,-2.0032196044921875,-0.0,-0.0,-1.0,0.022622827730706,1.0,0.0
45.84912109375,10.769553184509276,-1.992602586746216,-0.0,-0.0,-1.0,0.0154500259640299,2.0,0.0
46.995418548583984,10.979278564453123,-2.060431480407715,-0.0,-0.0,-1.0,0.0321046281829991,1.0,0.0
45.876075744628906,11.45823860168457,-2.018484592437744,-0.0,-0.0,-1.0,0.0212064062703059,1.0,0.0
47.05414581298828,10.745439529418944,-2.040212869644165,-0.0,-0.0,-1.0,0.0332688877698339,1.0,0.0
45.73704528808594,11.476158142089844,-2.0090715885162354,-0.0,-0.0,-1.0,0.0139770684058283,1.0,0.0
45.45289611816406,11.435989379882812,-1.9813504219055176,-0.0,-0.0,-1.0,0.026727875152753,1.0,0.0
47.695037841796875,12.773754119873049,-2.023641586303711,-0.0,-0.0,-1.0,0.0215597890993097,2.0,0.0
47.495418548583984,13.007049560546877,-2.0404553413391113,-0.0,-0.0,-1.0,0.0289513571764657,2.0,0.0
47.67891311645508,12.423294067382812,-1.9806419610977173,0.6212652204404334,-0.6227351950886546,-0.4756368390579045,0.0210355856673637,3.0,0.0
47.3944091796875,12.624156951904297,-2.0899434089660645,-0.0,-0.0,-1.0,0.0403415469111331,1.0,0.0
47.47954559326172,12.35595703125,-2.063930034637451,-0.0,-0.0,-1.0,0.0260081359419475,1.0,0.0
47.03710174560547,12.75602912902832,-2.0802950859069824,-0.0,-0.0,-1.0,0.034619901418766,1.0,0.0
46.61766052246094,12.95557975769043,-2.0755529403686523,-0.0,-0.0,-1.0,0.0087631515401736,1.0,0.0
47.60480499267578,10.985624313354492,-1.911675810813904,-0.0,-0.0,-1.0,0.0494867657618307,1.0,0.0
47.532432556152344,11.353486061096191,-1.9434806108474731,-0.0,-0.0,-1.0,0.029711075184642,1.0,0.0
47.48932266235352,11.72238826751709,-1.9791184663772583,-0.0,-0.0,-1.0,0.0486551635488235,2.0,0.0
47.227073669433594,12.007055282592772,-1.9851020574569704,-0.0,-0.0,-1.0,0.0114432797139031,2.0,0.0
46.86784362792969,12.123541831970217,-1.963911175727844,-0.0,-0.0,-1.0,0.010616798749747,1.0,0.0
46.743865966796875,12.418161392211914,-1.9857202768325808,-0.0,-0.0,-1.0,0.0242848421750479,1.0,0.0
46.57154083251953,12.497787475585938,-1.978760838508606,-0.0,-0.0,-1.0,0.013171599190561,2.0,0.0
46.41961669921875,12.824932098388672,-2.002971649169922,0.2840434550991558,0.8363624020203415,-0.4688467213302212,0.0102386258657462,3.0,0.0
46.2325553894043,13.081189155578612,-2.0162625312805176,-0.0,-0.0,-1.0,0.0228156145174044,1.0,0.0
47.634307861328125,12.084674835205078,-2.0688233375549316,-0.0,-0.0,-1.0,0.0182629230101099,1.0,0.0
47.562591552734375,12.22956085205078,-2.0720911026000977,-0.0,-0.0,-1.0,0.0278087947003533,1.0,0.0
47.35426330566406,12.821161270141602,-2.098249912261963,-0.0,-0.0,-1.0,0.0379399861107002,1.0,0.0
47.33607864379883,13.023812294006348,-2.114664077758789,-0.0,-0.0,-1.0,0.0340047512355051,1.0,0.0
47.62647247314453,11.595640182495115,-2.0271830558776855,-0.0,-0.0,-1.0,0.0484338788239651,1.0,0.0
47.61219787597656,11.79864501953125,-2.0419821739196777,-0.0,-0.0,-1.0,0.0244003158791709,1.0,0.0
47.41999053955078,12.427687644958496,-2.0712318420410156,-0.0,-0.0,-1.0,0.0321976655713394,1.0,0.0
47.35160446166992,12.737051010131836,-2.090250015258789,-0.0,-0.0,-1.0,0.0471977195734344,1.0,0.0
47.581356048583984,10.743508338928224,-1.9550257921218872,-0.0,-0.0,-1.0,0.0542633563895855,1.0,0.0
47.569488525390625,11.09815502166748,-1.9803968667984009,-0.0,-0.0,-1.0,0.0387983787735831,2.0,0.0
47.523983001708984,11.323114395141602,-1.992045521736145,-0.0,-0.0,-1.0,0.032017811990851,1.0,0.0
47.298526763916016,12.719382286071776,-2.08205509185791,-0.0,-0.0,-1.0,0.0491793270606526,1.0,0.0
46.925437927246094,10.929019927978516,-1.947339653968811,-0.0,-0.0,-1.0,0.0411916612096127,1.0,0.0
46.94346618652344,11.351418495178224,-1.9738634824752808,-0.0,-0.0,-1.0,0.0151625920592347,1.0,0.0
46.855499267578125,10.727296829223633,-1.9262365102767944,-0.0,-0.0,-1.0,0.0309370915134024,1.0,0.0
46.89495849609375,11.299176216125488,-1.9639183282852173,-0.0,-0.0,-1.0,0.0141738437932286,1.0,0.0
46.752220153808594,11.775667190551758,-1.971783995628357,-0.0,-0.0,-1.0,0.0127126863078398,2.0,0.0
46.62544631958008,12.270641326904297,-1.9848226308822632,-0.0,-0.0,-1.0,0.0230023295975458,1.0,0.0
46.56789779663086,12.076764106750488,-1.9640928506851196,-0.0,-0.0,-1.0,0.0195856681452097,2.0,0.0
46.57111358642578,12.535636901855469,-1.9945775270462036,-0.9391983398003648,-0.1413679123043848,-0.3129242590259476,0.0131744046372925,3.0,0.0
46.49583435058594,12.94517993927002,-2.0118980407714844,-0.0,-0.0,-1.0,0.0103696976744366,2.0,0.0
46.770233154296875,10.949995040893556,-1.9404516220092771,-0.0,-0.0,-1.0,0.015604145682657,2.0,0.0
46.78898620605469,11.39670181274414,-1.9643619060516355,-0.0,-0.0,-1.0,0.0112991070472315,1.0,0.0
46.717506408691406,11.692644119262695,-1.968907356262207,-0.0,-0.0,-1.0,0.0119354114619128,2.0,0.0
46.55708312988281,11.909460067749023,-1.956876516342163,-0.0,-0.0,-1.0,0.0101894059827715,1.0,0.0
46.581268310546875,12.1700439453125,-1.974882125854492,-0.0,-0.0,-1.0,0.0214208473678259,2.0,0.0
46.565208435058594,12.578939437866213,-1.9964165687561035,-0.0,-0.0,-1.0,0.0150501613347724,2.0,0.0
46.492069244384766,12.98151969909668,-2.010686159133911,-0.0,-0.0,-1.0,0.0103914017035408,2.0,0.0
45.24115753173828,12.11385440826416,-1.9690797328948977,-0.0,-0.0,-1.0,0.0095766776313226,2.0,0.0
45.28825378417969,12.73325538635254,-1.9977734088897705,-0.0,-0.0,-1.0,0.0093889882185913,2.0,0.0
45.28182220458984,12.975668907165527,-2.0063252449035645,-0.0,-0.0,-1.0,0.0112684320637256,1.0,0.0
46.4509391784668,12.61023235321045,-1.9952421188354492,-0.0,-0.0,-1.0,0.0138096839070565,1.0,0.0
46.53600311279297,13.050992012023926,-2.0098955631256104,-0.0,-0.0,-1.0,0.0092131044743597,2.0,0.0
46.16621398925781,11.49314785003662,-1.957070589065552,-0.7568113320976003,-0.3469995580126888,-0.5539204946087968,0.0139223819653382,3.0,0.0
46.200706481933594,11.746403694152832,-1.9600520133972168,-0.0,-0.0,-1.0,0.0113578103915947,1.0,0.0
46.298866271972656,12.175889015197754,-1.9725642204284668,-0.0,-0.0,-1.0,0.0153604987936551,1.0,0.0
45.9805908203125,11.310446739196776,-1.931328535079956,-0.0,-0.0,-1.0,0.0186040156244599,1.0,0.0
45.87080001831055,10.795177459716797,-1.922736644744873,-0.0,-0.0,-1.0,0.0151139260250909,2.0,0.0
45.853885650634766,11.012029647827148,-1.9164972305297852,-0.0,-0.0,-1.0,0.0266253364991073,1.0,0.0
45.88066864013672,11.082220077514648,-1.919424533843994,-0.0,-0.0,-1.0,0.0193714379805613,2.0,0.0
45.75175476074219,10.85446548461914,-1.9038922786712649,-0.0,-0.0,-1.0,0.0185560673132308,1.0,0.0
45.425262451171875,12.609846115112305,-1.9583266973495483,-0.0,-0.0,-1.0,0.0130310468894516,2.0,0.0
45.53080368041992,12.876155853271484,-1.9613436460494995,-0.0,-0.0,-1.0,0.0114642374235421,1.0,0.0
47.482215881347656,10.824515342712402,-1.92423415184021,-0.0,-0.0,-1.0,0.0542633563895855,1.0,0.0
47.50193405151367,11.168225288391112,-1.939582109451294,-0.0,-0.0,-1.0,0.0259115904183245,2.0,0.0
47.66524887084961,11.604990005493164,-1.9752986431121824,-0.0,-0.0,-1.0,0.0469386739078895,1.0,0.0
47.64154052734375,12.53409481048584,-2.0098094940185547,-0.0,-0.0,-1.0,0.0265240812432871,1.0,0.0
47.67212677001953,12.438498497009276,-2.0094127655029297,0.7256052266056873,-0.4177248417417387,-0.5468116784728986,0.0245247359877392,4.0,0.0
45.301265716552734,10.74658203125,-1.950186848640442,-0.0,-0.0,-1.0,0.0190340191214246,1.0,0.0
45.361236572265625,11.115354537963867,-1.9642051458358765,-0.0,-0.0,-1.0,0.0205778957790839,2.0,0.0
45.3438720703125,10.870874404907228,-1.9579631090164185,-0.0,-0.0,-1.0,0.0201524137300937,1.0,0.0
45.38603973388672,11.563467979431152,-1.9754115343093872,-0.0,-0.0,-1.0,0.0243696823486148,1.0,0.0
45.406829833984375,11.40823459625244,-1.97551429271698,-0.0,-0.0,-1.0,0.0259995141571764,1.0,0.0
45.553863525390625,12.081130981445312,-2.009000778198242,-0.0,-0.0,-1.0,0.0133865881129071,1.0,0.0
45.670127868652344,12.561076164245604,-2.0357508659362793,-0.0,-0.0,-1.0,0.0254922086885323,1.0,0.0
45.72700500488281,12.363411903381348,-2.039117336273194,-0.0,-0.0,-1.0,0.0203493713286436,1.0,0.0
45.66104888916016,12.772801399230955,-2.039555549621582,-0.0,-0.0,-1.0,0.0203829558679073,2.0,0.0
45.70084381103515,11.142525672912598,-1.942283511161804,-0.0,-0.0,-1.0,0.0195403015291517,1.0,0.0
47.1711311340332,11.228466033935549,-1.9500529766082764,-0.0,-0.0,-1.0,0.0232262994093876,1.0,0.0
47.66712188720703,10.92257308959961,-1.8638570308685305,-0.0,-0.0,-1.0,0.0520969795083315,1.0,0.0
47.52296447753906,10.98537826538086,-1.8651082515716553,-0.0,-0.0,-1.0,0.0472433176294455,1.0,0.0
47.40631484985352,11.306385040283203,-1.8986847400665283,-0.0,-0.0,-1.0,0.030001765485023,1.0,0.0
47.31196212768555,11.77448272705078,-1.9512064456939695,-0.0,-0.0,-1.0,0.0163334754532647,1.0,0.0
46.86064529418945,11.892120361328123,-1.9468567371368408,-0.0,-0.0,-1.0,0.0075544645583584,1.0,0.0
46.38429260253906,11.988391876220703,-1.9394714832305908,-0.0,-0.0,-1.0,0.0117099627965276,1.0,0.0
45.99467468261719,12.1920166015625,-1.9491994380950928,-0.0,-0.0,-1.0,0.0104299290272271,2.0,0.0
46.25920486450195,10.682985305786133,-1.9136183261871336,-0.0,-0.0,-1.0,0.0053085030876002,1.0,0.0
