x,y,z,nx,ny,nz,curvature,density,label
-0.9399538040161132,32.00743103027344,-1.1440439224243164,-0.0,-0.0,-1.0,0.099571398248844,1.0,0.0
0.047621726989746,31.58599281311035,-1.4309606552124023,-0.0,-0.0,-1.0,0.195707844065813,1.0,0.0
-0.1831378936767578,31.48110580444336,-1.4313621520996094,0.3675013626060905,-0.9241939451739574,-0.1039629750750843,0.211515072680183,4.0,0.0
-0.8449621200561523,31.221988677978516,-1.4426960945129397,-0.4478852808073215,-0.8887349626975755,0.0977186845750858,0.1620552607127119,4.0,0.0
-0.6809558868408203,31.36903381347656,-1.4550199508666992,-0.0,-0.0,-1.0,0.1268578386373975,1.0,0.0
-0.6199092864990234,32.66423416137695,-1.1395418643951416,-0.0,-0.0,-1.0,0.0613556922823996,2.0,0.0
-0.0318822860717773,31.057579040527344,-1.5655286312103271,-0.0,-0.0,-1.0,0.0852846232894847,1.0,0.0
-0.5441608428955078,31.128021240234375,-1.6161139011383057,-0.0,-0.0,-1.0,0.0678580817247396,1.0,0.0
-0.8547582626342773,31.113826751708984,-1.639251470565796,-0.0,-0.0,-1.0,0.1365119104760644,1.0,0.0
0.0966567993164062,31.54789352416992,-1.4701178073883057,-0.0,-0.0,-1.0,0.2320303193312034,1.0,0.0
-0.186258316040039,31.474578857421875,-1.4805848598480225,0.1065879505993411,0.9847726769088856,-0.1373382088158282,0.2151852570847425,3.0,0.0
-0.2586832046508789,31.9813175201416,-1.555760622024536,0.2408504500959923,0.8800096825790441,0.4093580575189504,0.113791310758569,3.0,0.0
-0.755946159362793,31.3336181640625,-1.5040371417999268,-0.0,-0.0,-1.0,0.1167271746512733,2.0,0.0
-0.8636703491210938,31.20587730407715,-1.4949071407318115,-0.0,-0.0,-1.0,0.1873423717900574,2.0,0.0
-0.2493515014648437,31.216983795166016,-1.4497992992401123,-0.0,-0.0,-1.0,0.1164394312339774,1.0,0.0
-0.9694986343383788,31.0887451171875,-1.4871814250946045,0.0590842523330874,-0.2310719341284474,-0.9711409848134192,0.1228210744709243,3.0,0.0
-0.5740633010864258,32.717105865478516,-1.0090138912200928,-0.0,-0.0,-1.0,0.0931720604550667,1.0,0.0
-1.2775812149047852,32.56932830810547,-1.6991090774536133,-0.0,-0.0,-1.0,0.033494939902481,1.0,0.0
-0.1547927856445312,31.47132682800293,-1.4323616027832031,-0.0,-0.0,-1.0,0.1787990333897722,2.0,0.0
-0.1193666458129882,32.0257682800293,-1.5089340209960938,-0.0,-0.0,-1.0,0.1161305208463937,1.0,0.0
-0.2378444671630859,31.43712997436523,-1.4354047775268557,-0.0,-0.0,-1.0,0.1655138199106915,2.0,0.0
-0.3660306930541992,31.901025772094727,-1.514425277709961,-0.0,-0.0,-1.0,0.0856985524783407,1.0,0.0
-0.8245344161987305,31.211666107177734,-1.4609174728393557,-0.4478852808073215,-0.8887349626975755,0.0977186845750858,0.1620552607127119,4.0,0.0
0.0992965698242187,32.34331512451172,-1.2551722526550293,-0.0,-0.0,-1.0,0.0856499004303573,2.0,0.0
-0.1018791198730468,32.00662612915039,-1.2257213592529297,-0.0,-0.0,-1.0,0.1744302551365158,1.0,0.0
-0.4576139450073242,32.18476104736328,-1.281604290008545,-0.3930396263293425,0.6531569033412565,-0.6472294119958946,0.1764742665654498,5.0,0.0
-0.8585300445556641,32.10809326171875,-1.3072996139526367,-0.0,-0.0,-1.0,0.1427271529277492,1.0,0.0
-0.8420038223266602,32.542449951171875,-1.3652105331420898,-0.0,-0.0,-1.0,0.0964349566479564,1.0,0.0
-0.9012517929077148,32.92138671875,-1.4225316047668457,-0.0,-0.0,-1.0,0.127407767208101,1.0,0.0
-1.4347562789916992,33.01774597167969,-1.4844837188720703,-0.0,-0.0,-1.0,0.0551344153406885,1.0,0.0
-0.2160615921020507,30.771512985229492,-1.0659005641937256,-0.0,-0.0,-1.0,0.1947129451453515,1.0,0.0
0.0569181442260742,30.982017517089844,-1.4737045764923096,-0.0,-0.0,-1.0,0.0668440455846121,1.0,0.0
-0.1681680679321289,30.745864868164062,-1.4576084613800049,-0.0,-0.0,-1.0,0.1365636443084625,2.0,0.0
-0.167820930480957,30.9517822265625,-1.4904959201812744,-0.0,-0.0,-1.0,0.1372627775244758,1.0,0.0
-0.8147125244140625,31.09408187866211,-1.577484369277954,-0.9805013464716306,0.1379771489240519,0.1399264661960333,0.151742015928401,3.0,0.0
-0.9974851608276368,30.900821685791016,-1.5656583309173584,-0.0,-0.0,-1.0,0.0639796593653009,1.0,0.0
-0.4500045776367187,30.72455596923828,-1.6692173480987549,-0.0,-0.0,-1.0,0.1006430321893529,1.0,0.0
-0.6263465881347656,32.61867141723633,-1.1407477855682373,-0.079545054827961,0.0376030874293018,-0.9961217757223269,0.0601912208347564,3.0,0.0
-0.8248062133789062,32.043697357177734,-1.0817081928253174,-0.0,-0.0,-1.0,0.0733495548861263,2.0,0.0
-0.7050628662109375,32.179039001464844,-1.0879027843475342,-0.0,-0.0,-1.0,0.1823424199614901,1.0,0.0
-0.7142496109008789,32.29112243652344,-1.484879493713379,-0.0,-0.0,-1.0,0.1588442789999726,1.0,0.0
-0.085662841796875,30.783946990966797,-1.17694091796875,-0.0,-0.0,-1.0,0.194772109078694,1.0,0.0
-0.2662191390991211,31.703460693359375,-1.3422651290893557,-0.0,-0.0,-1.0,0.1486937337820331,1.0,0.0
-0.1478147506713867,32.10574722290039,-1.3932509422302246,-0.0,-0.0,-1.0,0.1277238940072559,2.0,0.0
-0.3411359786987304,32.14662170410156,-1.4207844734191897,0.2944600678428511,0.8603954563082611,-0.4159482265980735,0.0999106596710717,3.0,0.0
-0.8116073608398438,32.008056640625,-1.217052698135376,-0.0,-0.0,-1.0,0.2274851622358874,1.0,0.0
0.0931587219238281,31.161388397216797,-1.54559326171875,-0.0,-0.0,-1.0,0.0451880971759281,1.0,0.0
-0.1050729751586914,30.949913024902344,-1.5262508392333984,-0.0,-0.0,-1.0,0.1177144451488615,1.0,0.0
-0.5290327072143555,30.937828063964844,-1.5724267959594729,-0.0,-0.0,-1.0,0.1704409564955425,2.0,0.0
-0.9843292236328124,30.89694595336914,-1.6180343627929688,-0.0,-0.0,-1.0,0.0661714291926184,1.0,0.0
-0.6459760665893555,32.61178970336914,-1.1394400596618652,-0.0,-0.0,-1.0,0.0601912208347564,2.0,0.0
-0.8727378845214844,32.09747314453125,-1.0768556594848633,-0.0,-0.0,-1.0,0.0740832790691546,1.0,0.0
-0.6687221527099609,31.264060974121097,-0.9217171669006348,-0.0,-0.0,-1.0,0.1661589104613458,1.0,0.0
-0.3050851821899414,32.13235092163086,-1.4631359577178955,-0.0,-0.0,-1.0,0.0848328470425696,1.0,0.0
-0.2304620742797851,32.143619537353516,-1.454909086227417,-0.0,-0.0,-1.0,0.1046218965821945,2.0,0.0
-0.6908655166625977,32.14289855957031,-1.518519163131714,-0.0,-0.0,-1.0,0.1184921888784156,1.0,0.0
-0.8226280212402344,32.097412109375,-1.5294277667999268,-0.0,-0.0,-1.0,0.215783668653042,1.0,0.0
0.2009506225585937,32.18674087524414,-1.404869794845581,-0.0,-0.0,-1.0,0.0986249778778625,1.0,0.0
-0.2200736999511718,30.758445739746097,-1.216001272201538,-0.0,-0.0,-1.0,0.1910613441999192,1.0,0.0
-0.2399559020996093,31.183441162109375,-1.291001558303833,-0.0,-0.0,-1.0,0.1504792190549438,1.0,0.0
-0.2990655899047851,31.708030700683594,-1.3891088962554932,-0.0,-0.0,-1.0,0.104894333714215,1.0,0.0
-0.0992879867553711,32.041404724121094,-1.4194719791412354,-0.0,-0.0,-1.0,0.1437964434602819,2.0,0.0
-0.476358413696289,31.89346694946289,-1.4456913471221924,-0.0,-0.0,-1.0,0.0737901617704887,1.0,0.0
-0.2733955383300781,30.927940368652344,-1.3823893070220947,-0.0,-0.0,-1.0,0.2645377100444637,2.0,0.0
-0.2598409652709961,31.334651947021484,-1.4518868923187256,-0.0,-0.0,-1.0,0.111539059905477,1.0,0.0
-0.1697463989257812,31.62428092956543,-1.4929678440093994,-0.0,-0.0,-1.0,0.1893625107075607,1.0,0.0
-0.4453992843627929,31.401338577270508,-1.4840600490570068,-0.0,-0.0,-1.0,0.1235814664987188,2.0,0.0
-0.9523143768310548,31.112720489501953,-1.4918406009674072,0.0590842523330874,-0.2310719341284474,-0.9711409848134192,0.1376212366625711,3.0,0.0
-0.5997648239135742,32.662147521972656,-1.0169458389282229,0.1253322348665615,-0.9783008448090352,0.1649826898473921,0.0931720604550667,4.0,0.0
-0.8381023406982422,32.12657928466797,-0.9611475467681884,-0.0,-0.0,-1.0,0.1019550754467188,1.0,0.0
0.1825151443481445,30.96407127380371,-1.4265069961547852,-0.0,-0.0,-1.0,0.0979139257072064,1.0,0.0
-0.0843420028686523,31.004283905029297,-1.4705185890197754,-0.0,-0.0,-1.0,0.1246991826570431,1.0,0.0
-0.2901592254638672,30.94398498535156,-1.488159418106079,-0.0,-0.0,-1.0,0.2495746001480948,1.0,0.0
-0.9098081588745116,30.910446166992188,-1.5711164474487305,-0.0,-0.0,-1.0,0.0937409181713536,1.0,0.0
-0.3700799942016601,30.922943115234375,-1.3927204608917236,-0.0,-0.0,-1.0,0.2048789445741818,2.0,0.0
-0.4293165206909179,31.257137298583984,-1.4608814716339111,-0.0,-0.0,-1.0,0.1122613143933417,1.0,0.0
-0.4259090423583984,31.405128479003903,-1.4863779544830322,-0.0,-0.0,-1.0,0.1279769744575337,2.0,0.0
-0.9613361358642578,30.917573928833008,-1.4883325099945068,-0.0,-0.0,-1.0,0.0718830249637846,1.0,0.0
-0.6657962799072266,32.5887451171875,-1.090203046798706,-0.0,-0.0,-1.0,0.0601912208347564,1.0,0.0
-0.905344009399414,30.841541290283203,-1.6217365264892578,-0.0,-0.0,-1.0,0.0699870962791845,1.0,0.0
-0.0316438674926757,30.986310958862305,-1.493276596069336,-0.0,-0.0,-1.0,0.0763791862937934,1.0,0.0
-0.2825326919555664,30.9654598236084,-1.533169507980347,-0.0,-0.0,-1.0,0.1865475193084143,1.0,0.0
-0.9240503311157228,30.65262031555176,-1.590426683425903,-0.0,-0.0,-1.0,0.1476501143033483,1.0,0.0
-0.824070930480957,32.168521881103516,-1.2481186389923096,-0.0,-0.0,-1.0,0.1118711868383882,1.0,0.0
-0.7632465362548828,32.68292236328125,-1.3235852718353271,-0.0,-0.0,-1.0,0.145341258523771,1.0,0.0
-0.7812528610229492,32.915191650390625,-1.3647308349609375,-0.0,-0.0,-1.0,0.1046286821935037,1.0,0.0
-1.2166471481323242,33.106346130371094,-1.4604520797729492,-0.0,-0.0,-1.0,0.0835597970765982,2.0,0.0
-0.2201223373413086,32.96997833251953,-1.4513812065124512,-0.0,-0.0,-1.0,0.1056643847816062,1.0,0.0
-0.5699825286865234,32.344024658203125,-1.3915832042694092,-0.0,-0.0,-1.0,0.11891131351822,1.0,0.0
-0.26953125,33.13557434082031,-1.4898381233215332,-0.0,-0.0,-1.0,0.1139417505662991,1.0,0.0
-0.848994255065918,32.253211975097656,-1.4207391738891602,-0.0,-0.0,-1.0,0.2008931916466005,2.0,0.0
-0.6939496994018555,32.50025177001953,-1.4398064613342283,-0.0,-0.0,-1.0,0.1103456283470101,1.0,0.0
-1.2141828536987305,32.57038879394531,-1.5372686386108398,-0.0,-0.0,-1.0,0.0388500367149649,1.0,0.0
-0.0230989456176757,32.238407135009766,-1.2854242324829102,-0.0,-0.0,-1.0,0.114520831254608,2.0,0.0
0.0826082229614257,32.45463943481445,-1.3089334964752195,-0.0,-0.0,-1.0,0.1398681716352083,2.0,0.0
-0.2351932525634765,30.710914611816406,-1.0472192764282229,-0.0,-0.0,-1.0,0.1849732214742831,2.0,0.0
-0.2493267059326172,30.919818878173828,-1.08587384223938,-0.0,-0.0,-1.0,0.1624595064587127,1.0,0.0
-0.3663568496704101,32.34239196777344,-1.3586413860321045,-0.0,-0.0,-1.0,0.1378219387436058,1.0,0.0
0.0968837738037109,31.788818359375,-1.319272518157959,-0.0,-0.0,-1.0,0.0691195502126046,1.0,0.0
0.0789470672607421,32.175018310546875,-1.391843557357788,-0.0,-0.0,-1.0,0.1295132363195933,1.0,0.0
-0.3182601928710937,30.96336555480957,-1.2662832736968994,-0.0,-0.0,-1.0,0.1467752423118352,2.0,0.0
-0.286661148071289,31.559234619140625,-1.359715461730957,-0.0,-0.0,-1.0,0.1810097791606879,1.0,0.0
-0.3518304824829101,31.778100967407227,-1.4111223220825195,-0.0,-0.0,-1.0,0.0717302656644683,2.0,0.0
-0.3823471069335937,32.134822845458984,-1.479574203491211,-0.0,-0.0,-1.0,0.0726088709791404,1.0,0.0
-0.6980438232421875,31.009044647216797,-1.3575053215026855,-0.0,-0.0,-1.0,0.1096668885271124,1.0,0.0
-0.6490602493286133,31.452468872070312,-1.419645071029663,-0.0,-0.0,-1.0,0.0931142631711094,1.0,0.0
-0.7069320678710938,31.803150177001953,-1.4910738468170166,-0.0,-0.0,-1.0,0.1401645139057243,1.0,0.0
-0.0260801315307617,32.069095611572266,-1.3373284339904783,-0.7673823517947653,0.6397329055377381,0.0431987931102045,0.1903748726095773,4.0,0.0
0.0250234603881835,32.339839935302734,-1.37664794921875,-0.0,-0.0,-1.0,0.0944387175064415,1.0,0.0
-0.0843219757080078,33.08311462402344,-1.5388116836547852,-0.0,-0.0,-1.0,0.1112069674307588,1.0,0.0
-0.1968975067138672,32.010276794433594,-1.3626432418823242,-0.0,-0.0,-1.0,0.167458071876289,1.0,0.0
-0.2383632659912109,33.06740188598633,-1.5668528079986572,-0.0,-0.0,-1.0,0.087534344278176,1.0,0.0
-0.7874279022216797,31.8271484375,-1.4577553272247314,-0.0,-0.0,-1.0,0.1630473123665027,2.0,0.0
-0.6556329727172852,32.17471694946289,-1.4900360107421875,-0.0,-0.0,-1.0,0.1008180786924709,1.0,0.0
-0.0605697631835937,30.69751739501953,-1.1037333011627195,-0.7351337857769457,-0.5684864317474791,-0.3693257287656449,0.1968570512230467,3.0,0.0
-0.0619316101074218,31.9700927734375,-1.3268351554870603,-0.0,-0.0,-1.0,0.1891945532593915,1.0,0.0
-0.2354879379272461,30.67908096313477,-1.1400234699249268,-0.0,-0.0,-1.0,0.1140831504999804,1.0,0.0
-0.2288503646850586,31.064393997192383,-1.2034921646118164,-0.0,-0.0,-1.0,0.1571470928397848,1.0,0.0
-0.2637519836425781,31.609615325927734,-1.3055706024169922,-0.0,-0.0,-1.0,0.1819558917619989,2.0,0.0
-0.559300422668457,32.66352462768555,-1.0278446674346924,-0.2153792906785084,-0.9731961880725571,-0.0806284110463926,0.0931720604550668,5.0,0.0
-0.7223834991455078,32.652099609375,-1.4165778160095217,-0.0,-0.0,-1.0,0.1442554962500924,1.0,0.0
-0.9602584838867188,32.22092819213867,-1.3970274925231934,-0.0,-0.0,-1.0,0.2074778934315912,2.0,0.0
-1.0363550186157229,33.05786895751953,-1.557044506072998,-0.0,-0.0,-1.0,0.0742492578644724,1.0,0.0
-0.4134998321533203,32.19891357421875,-1.2692608833312988,-0.0480529229878436,0.7797628525656825,-0.6242281717056306,0.1698078933314871,4.0,0.0
-0.8120441436767578,32.00057601928711,-1.326145887374878,-0.0,-0.0,-1.0,0.1336953273701394,1.0,0.0
-0.5649204254150391,32.110450744628906,-1.2884583473205566,-0.0,-0.0,-1.0,0.1518566750411175,2.0,0.0
-0.841064453125,32.15133285522461,-1.357926368713379,-0.0,-0.0,-1.0,0.2130933426315409,1.0,0.0
-0.5338754653930664,32.21038818359375,-1.302584171295166,-0.0,-0.0,-1.0,0.1638434897697379,1.0,0.0
-0.4941740036010742,32.29271697998047,-1.3067216873168943,-0.0,-0.0,-1.0,0.1449723145556234,1.0,0.0
-0.8610506057739258,31.4668025970459,-1.2648813724517822,-0.0,-0.0,-1.0,0.1635739634448823,1.0,0.0
-0.9011430740356444,32.16143035888672,-1.384411334991455,-0.0,-0.0,-1.0,0.2130933426315409,1.0,0.0
-0.9041614532470704,32.278358459472656,-1.4041798114776611,-0.0,-0.0,-1.0,0.2415323120775544,1.0,0.0
-0.8359336853027344,32.75597381591797,-1.467388153076172,-0.0,-0.0,-1.0,0.1118603555616426,1.0,0.0
-0.1349239349365234,30.754444122314453,-0.9722552299499512,-0.0,-0.0,-1.0,0.2001505407834974,1.0,0.0
-0.8259744644165039,32.03794479370117,-0.8711037635803223,-0.0,-0.0,-1.0,0.1019550754467187,2.0,0.0
-0.6794261932373047,32.21472930908203,-1.0366859436035156,-0.0,-0.0,-1.0,0.154989539053455,1.0,0.0
-0.6073980331420898,32.60660171508789,-1.093195915222168,-0.0,-0.0,-1.0,0.0613556922823996,1.0,0.0
-0.8392524719238281,32.064395904541016,-1.0459282398223877,-0.0,-0.0,-1.0,0.0733495548861263,2.0,0.0
-1.0817842483520508,33.0987663269043,-1.2910277843475342,-0.0,-0.0,-1.0,0.0966213269157731,2.0,0.0
-1.4601726531982422,33.09653854370117,-1.374309539794922,-0.0,-0.0,-1.0,0.0582001237210328,1.0,0.0
-0.6322622299194336,32.63663864135742,-1.2863891124725342,-0.0,-0.0,-1.0,0.1297830930665586,2.0,0.0
-0.8193645477294922,32.05350112915039,-1.239072561264038,-0.0,-0.0,-1.0,0.1220061709679963,1.0,0.0
-0.8595199584960938,32.23019027709961,-1.2786850929260254,-0.0,-0.0,-1.0,0.1211799254029342,2.0,0.0
-0.7919702529907227,32.03719711303711,-0.8387634754180908,0.5545030630840135,0.6072670911701109,-0.5689929990889504,0.1019550754467187,3.0,0.0
-0.5437946319580078,32.95341110229492,-0.9468321800231934,-0.0,-0.0,-1.0,0.0913588511438446,1.0,0.0
-0.5354433059692383,32.67638397216797,-0.9330389499664308,-0.0,-0.0,-1.0,0.1265158088750888,1.0,0.0
-0.4813737869262695,32.255855560302734,-0.884502649307251,-0.0,-0.0,-1.0,0.0982791828980859,1.0,0.0
-0.7633790969848633,32.00813293457031,-1.154582977294922,-0.0,-0.0,-1.0,0.1587454949849042,1.0,0.0
-1.0083036422729492,32.10324478149414,-1.3601233959197998,-0.0,-0.0,-1.0,0.21583620568592,1.0,0.0
-0.8133478164672852,32.932987213134766,-1.418391227722168,-0.0,-0.0,-1.0,0.1323111374118226,1.0,0.0
-0.8366327285766602,32.758941650390625,-1.4015202522277832,-0.0,-0.0,-1.0,0.1012309020999258,1.0,0.0
-0.6774129867553711,32.20310592651367,-1.3097755908966064,-0.0,-0.0,-1.0,0.0911903798977725,1.0,0.0
-0.4460210800170898,32.209651947021484,-1.2683355808258057,0.1124948778393704,0.0667049354080681,-0.99141078975978,0.1592534469835043,4.0,0.0
0.158879280090332,32.324947357177734,-1.176252365112305,-0.0,-0.0,-1.0,0.0856499004303573,1.0,0.0
-0.0952987670898437,30.639890670776367,-1.0545899868011477,-0.0,-0.0,-1.0,0.1968570512230467,1.0,0.0
-0.8819942474365234,30.662582397460938,-1.617694616317749,-0.0,-0.0,-1.0,0.1597167378558095,1.0,0.0
-0.5851516723632812,30.785402297973633,-1.5740225315093994,-0.0,-0.0,-1.0,0.1487979881574217,1.0,0.0
-0.6744251251220703,30.676530838012695,-1.6545941829681396,-0.0,-0.0,-1.0,0.1159865777233433,1.0,0.0
0.0721359252929687,30.727828979492188,-1.5261926651000977,0.4538759877118621,-0.8619328936865389,-0.2259829076716448,0.1404804417231175,3.0,0.0
-0.0997219085693359,30.64549446105957,-1.1199278831481934,-0.0,-0.0,-1.0,0.1491853789877637,1.0,0.0
-0.5263195037841797,32.06085205078125,-1.4412143230438232,-0.0,-0.0,-1.0,0.155632174860306,1.0,0.0
-0.5301647186279297,31.97649383544922,-1.4304914474487305,-0.0,-0.0,-1.0,0.1248164318497361,2.0,0.0
-0.5907058715820312,31.760826110839844,-1.409942865371704,-0.0,-0.0,-1.0,0.0945068781684426,1.0,0.0
-0.1577396392822265,32.073326110839844,-1.3957633972167969,-0.0,-0.0,-1.0,0.1418482739024893,2.0,0.0
0.07342529296875,31.877212524414062,-1.3398947715759275,-0.4075064463259351,0.9041823002605636,-0.1280346207020729,0.1417285896189924,3.0,0.0
-0.113382339477539,31.542068481445312,-1.3192360401153564,-0.0,-0.0,-1.0,0.1787996602919642,2.0,0.0
0.2000370025634765,32.038536071777344,-1.3457159996032717,-0.0,-0.0,-1.0,0.0854789066323885,1.0,0.0
0.144775390625,32.216156005859375,-1.2794461250305176,-0.0,-0.0,-1.0,0.0884353374037517,1.0,0.0
-0.0065422058105468,32.07539367675781,-1.294092893600464,-0.881002202421993,-0.2024458945704435,0.4276105460570053,0.160537441000363,3.0,0.0
-0.1048583984375,31.561241149902344,-1.3034539222717283,-0.0,-0.0,-1.0,0.1840931436790371,2.0,0.0
-0.1064453125,31.420795440673828,-1.30090069770813,-0.0,-0.0,-1.0,0.1459156062344861,1.0,0.0
-1.0779285430908203,33.08327865600586,-1.3405191898345947,-0.0,-0.0,-1.0,0.0983721914623147,1.0,0.0
-0.5407829284667969,32.13671875,-1.2836596965789795,-0.0,-0.0,-1.0,0.1306860376851023,2.0,0.0
-0.1048545837402343,32.081817626953125,-1.2466108798980713,0.3528923300323323,0.8647916698131042,0.357214741053913,0.2043063040313429,4.0,0.0
-0.2041282653808593,30.837600708007812,-1.241018295288086,-0.0,-0.0,-1.0,0.1064213710256357,2.0,0.0
-0.0496673583984375,30.83188247680664,-1.454973220825195,-0.0,-0.0,-1.0,0.1456021932001907,1.0,0.0
-0.7897930145263672,32.16088104248047,-1.400611400604248,-0.0,-0.0,-1.0,0.2222855471361948,1.0,0.0
-0.0902137756347656,31.49551773071289,-1.321263074874878,-0.0,-0.0,-1.0,0.1782032444885275,1.0,0.0
-0.3782367706298828,30.944923400878903,-1.4930307865142822,-0.0,-0.0,-1.0,0.1604340584532519,1.0,0.0
-0.8087844848632812,31.096622467041016,-1.5384502410888672,-0.9221178351307776,-0.3509529540247947,0.1628825410994017,0.151742015928401,3.0,0.0
-0.1703109741210937,30.76405906677246,-1.4670276641845703,-0.0,-0.0,-1.0,0.1343297732181669,2.0,0.0
-0.5009193420410156,32.001426696777344,-1.4207473993301392,-0.0,-0.0,-1.0,0.1503796348477136,2.0,0.0
-0.8570156097412109,31.188854217529297,-1.3994001150131226,-0.0,-0.0,-1.0,0.1686241280714729,1.0,0.0
-0.2879161834716797,30.921646118164062,-1.341060757637024,-0.0,-0.0,-1.0,0.2413035838495388,2.0,0.0
-0.7949371337890625,31.06442070007324,-1.52944016456604,-0.0,-0.0,-1.0,0.2134278795263979,2.0,0.0
-0.3062820434570312,30.888181686401367,-1.4766478538513184,-0.0,-0.0,-1.0,0.2312604769359701,1.0,0.0
-0.9675006866455078,30.996950149536133,-1.4184901714324951,-0.0,-0.0,-1.0,0.1050693857282344,1.0,0.0
-0.3628349304199219,32.17986297607422,-1.508428931236267,-0.0,-0.0,-1.0,0.0698126609030377,1.0,0.0
0.013763427734375,30.688796997070312,-1.2934094667434692,-0.0,-0.0,-1.0,0.0594929524010532,1.0,0.0
-1.342529296875,32.401859283447266,-0.0921263694763183,-0.0,-0.0,-1.0,0.0931204736389095,1.0,0.0
-1.219465255737305,32.21133041381836,-1.1606385707855225,-0.0,-0.0,-1.0,0.1793816348264161,1.0,0.0
-0.172677993774414,31.616924285888672,-1.5875333547592163,-0.0,-0.0,-1.0,0.2434403495835901,1.0,0.0
-0.6869869232177734,32.542232513427734,-1.2501972913742063,-0.0,-0.0,-1.0,0.1393375975942278,1.0,0.0
-0.951528549194336,31.7767391204834,-1.4260365962982178,-0.0,-0.0,-1.0,0.1611621538650996,1.0,0.0
-0.3401088714599609,30.811748504638672,-1.2619041204452517,-0.0,-0.0,-1.0,0.1010212468881928,1.0,0.0
-0.4634475708007812,30.964982986450195,-1.4007389545440674,-0.0,-0.0,-1.0,0.1741719573635521,1.0,0.0
-0.8072948455810547,31.088197708129883,-1.4282350540161133,-0.0,-0.0,-1.0,0.2050482893742378,1.0,0.0
-0.6096134185791016,30.684066772460938,-1.3727021217346191,-0.0,-0.0,-1.0,0.1482532072114182,1.0,0.0
-0.6661033630371094,30.85525703430176,-1.3807485103607178,-0.0,-0.0,-1.0,0.1661174158995886,1.0,0.0
-0.8433933258056641,31.15151596069336,-1.4556854963302612,-0.0,-0.0,-1.0,0.1871887109182362,1.0,0.0
-0.4859809875488281,32.70039367675781,-1.1750248670578003,-0.0,-0.0,-1.0,0.0698258611743714,1.0,0.0
-0.0838222503662109,30.73495864868164,-1.1150814294815063,0.214891980937348,-0.438498194536864,-0.8726630334308499,0.2093840155221348,4.0,0.0
-0.5977230072021484,32.68353271484375,-0.9650404453277588,-0.0,-0.0,-1.0,0.0931720604550667,1.0,0.0
0.0935306549072265,32.374725341796875,-1.2256643772125244,-0.0,-0.0,-1.0,0.0856499004303573,2.0,0.0
-0.0882282257080078,32.07855224609375,-1.2329535484313965,0.0408141863651067,0.9818767724202816,0.1850735150497919,0.2225714487413348,3.0,0.0
-0.4621238708496094,32.16679000854492,-1.271980047225952,0.7902826901743227,-0.2000509446444953,-0.5791656836844538,0.1618446517170239,4.0,0.0
-0.8794212341308594,32.05535888671875,-1.308725357055664,-0.0,-0.0,-1.0,0.1017694077200818,1.0,0.0
-0.8504123687744141,32.136192321777344,-1.1309759616851809,-0.0,-0.0,-1.0,0.0847872291592592,1.0,0.0
-0.1988525390625,30.673118591308594,-1.070347785949707,-0.0,-0.0,-1.0,0.2000583847064033,2.0,0.0
-0.7814178466796875,32.25956344604492,-1.4428939819335938,-0.0,-0.0,-1.0,0.1945527023481402,1.0,0.0
-0.903329849243164,32.24606704711914,-1.4587163925170898,-0.0,-0.0,-1.0,0.2315592071798717,1.0,0.0
0.1177997589111328,32.197933197021484,-1.3242957592010498,-0.0,-0.0,-1.0,0.0884353374037517,1.0,0.0
-0.5226840972900391,32.17707061767578,-1.4074342250823977,-0.0,-0.0,-1.0,0.1733471772457343,1.0,0.0
-0.21929931640625,31.636573791503903,-1.358163595199585,0.1521186886104246,0.3689561699980393,-0.9169139813503898,0.1910748016811674,3.0,0.0
-0.3641853332519531,30.955360412597656,-1.367664813995361,-0.0,-0.0,-1.0,0.1742781801442453,2.0,0.0
-0.9570102691650392,31.239212036132812,-1.451197385787964,-0.0,-0.0,-1.0,0.1467962293999312,1.0,0.0
-0.3093280792236328,30.6514949798584,-1.3566555976867676,-0.0,-0.0,-1.0,0.0959149883552039,1.0,0.0
-0.7091388702392578,32.76846694946289,-1.247763752937317,-0.0,-0.0,-1.0,0.0772778295247469,1.0,0.0
-0.8536090850830078,32.2376708984375,-1.2500659227371216,-0.0,-0.0,-1.0,0.0915900352281718,2.0,0.0
-0.1254444122314453,30.72681427001953,-1.1260629892349243,-0.2840056661661443,-0.8582373740814443,0.4275153696831394,0.2093840155221349,5.0,0.0
-0.0487804412841796,30.940494537353516,-1.51884663105011,-0.0,-0.0,-1.0,0.0662867137350319,1.0,0.0
-0.479410171508789,30.955360412597656,-1.570278525352478,-0.0,-0.0,-1.0,0.1113341540288158,1.0,0.0
0.0709266662597656,30.717376708984375,-1.4887548685073853,0.4538759877118621,-0.8619328936865389,-0.2259829076716448,0.1339469191354038,3.0,0.0
-0.2350683212280273,31.031652450561523,-1.4905054569244385,-0.0,-0.0,-1.0,0.1774568327234115,1.0,0.0
-0.5006074905395508,31.074913024902344,-1.5259485244750977,-0.0,-0.0,-1.0,0.1377853195607591,1.0,0.0
-0.0937366485595703,30.884048461914062,-1.4629395008087158,-0.0,-0.0,-1.0,0.1753077775469244,1.0,0.0
-0.7571296691894531,32.11064910888672,-0.8877499103546143,-0.0,-0.0,-1.0,0.1050509010404489,1.0,0.0
-0.8980922698974609,30.722259521484375,-1.5971033573150637,-0.0,-0.0,-1.0,0.1547188169041088,1.0,0.0
-0.4099540710449219,31.05244827270508,-1.5793099403381348,-0.0,-0.0,-1.0,0.1018936023990719,1.0,0.0
-0.1251897811889648,30.665328979492188,-1.511122226715088,-0.0,-0.0,-1.0,0.1172614152840537,1.0,0.0
0.1787481307983398,30.743648529052734,-1.4885554313659668,-0.0,-0.0,-1.0,0.1465132181133209,2.0,0.0
-0.5194549560546875,32.81028747558594,-1.030344009399414,-0.0,-0.0,-1.0,0.0913588511438447,1.0,0.0
-0.5388031005859375,31.239795684814453,-1.5745642185211182,-0.0,-0.0,-1.0,0.0492284048463,1.0,0.0
-0.9106979370117188,30.659957885742188,-1.534177541732788,-0.0,-0.0,-1.0,0.1476501143033483,1.0,0.0
-0.2756271362304687,31.131017684936523,-1.5405454635620115,-0.0,-0.0,-1.0,0.1083958177046899,1.0,0.0
-0.0583734512329101,31.109140396118164,-1.521191120147705,-0.0,-0.0,-1.0,0.0966107357392464,2.0,0.0
-0.0857753753662109,30.68150329589844,-1.4695894718170166,-0.0,-0.0,-1.0,0.0994806511161282,1.0,0.0
-0.4145145416259765,32.838653564453125,-1.0233256816864014,-0.0,-0.0,-1.0,0.0883151539445901,1.0,0.0
-0.1501836776733398,31.597301483154297,-1.4129266738891602,-0.0,-0.0,-1.0,0.2190882943121232,1.0,0.0
-0.2073917388916015,31.028409957885746,-1.3444881439208984,-0.0,-0.0,-1.0,0.2017478153090089,1.0,0.0
-0.7852058410644531,31.826316833496097,-1.4336823225021362,-0.0,-0.0,-1.0,0.1920720412542483,2.0,0.0
-0.726536750793457,31.65791130065918,-1.4102686643600464,-0.0,-0.0,-1.0,0.1151055064531646,1.0,0.0
-0.5132083892822266,31.64617156982422,-1.3965412378311155,-0.0,-0.0,-1.0,0.0749681919957159,1.0,0.0
-0.2591867446899414,31.06724548339844,-1.313017964363098,-0.0,-0.0,-1.0,0.1644871272902658,1.0,0.0
-0.2282600402832031,30.832725524902344,-1.283551573753357,-0.0,-0.0,-1.0,0.1060507013932056,2.0,0.0
-0.7789373397827148,31.761062622070312,-1.3939751386642456,-0.0,-0.0,-1.0,0.155138210232838,1.0,0.0
-0.3096199035644531,32.143226623535156,-1.4054962396621704,-0.0,-0.0,-1.0,0.1184537133579463,2.0,0.0
-0.4427452087402344,31.484928131103516,-1.3442095518112185,-0.0,-0.0,-1.0,0.1004311855751333,1.0,0.0
0.0970773696899414,31.885883331298828,-1.3539408445358276,-0.4075064463259351,0.9041823002605636,-0.1280346207020729,0.1345339544068571,3.0,0.0
-0.2563800811767578,31.383441925048828,-1.3220268487930298,-0.0,-0.0,-1.0,0.14301997258254,1.0,0.0
-0.2492523193359375,30.936344146728516,-1.2751842737197876,-0.0,-0.0,-1.0,0.176866983770191,1.0,0.0
-0.188262939453125,30.650474548339844,-1.2418922185897827,-0.0,-0.0,-1.0,0.1433280887523843,1.0,0.0
0.2033271789550781,31.63944625854492,-1.3212755918502808,-0.0,-0.0,-1.0,0.1088025654430596,1.0,0.0
-1.1458053588867188,32.35690689086914,-0.0668736696243286,-0.0,-0.0,-1.0,0.0886054380225401,1.0,0.0
-0.1169967651367187,31.571577072143555,-1.4795749187469482,-0.0,-0.0,-1.0,0.2659953219648583,1.0,0.0
-0.5901451110839844,32.59825134277344,-1.2003591060638428,-0.0,-0.0,-1.0,0.0738515995147614,1.0,0.0
-0.7666788101196289,32.832828521728516,-1.5112009048461914,-0.0,-0.0,-1.0,0.0857697613547107,1.0,0.0
-0.3779230117797851,32.161006927490234,-1.4170708656311035,-0.0,-0.0,-1.0,0.1023782763146704,2.0,0.0
-0.189366340637207,31.891590118408203,-1.494910717010498,-0.0,-0.0,-1.0,0.1173084878422238,1.0,0.0
-1.2931241989135742,32.52703857421875,-1.6567935943603516,-0.0,-0.0,-1.0,0.0695789180075952,1.0,0.0
-0.0747623443603515,31.583513259887695,-1.45438814163208,-0.0,-0.0,-1.0,0.2424577920737272,2.0,0.0
-0.2357349395751953,31.059520721435547,-1.417225360870361,-0.0,-0.0,-1.0,0.2239560503985785,1.0,0.0
-0.2103443145751953,31.30567741394043,-1.4391155242919922,-0.0,-0.0,-1.0,0.1247380308746631,2.0,0.0
-0.7897682189941406,31.26608085632324,-1.4877681732177734,-0.0,-0.0,-1.0,0.149816317890049,2.0,0.0
-0.9591951370239258,31.08530044555664,-1.485734939575195,0.0590842523330874,-0.2310719341284474,-0.9711409848134192,0.1228210744709244,3.0,0.0
-0.0427179336547851,32.104679107666016,-1.3976855278015137,-0.0,-0.0,-1.0,0.1797378766175956,2.0,0.0
-0.1094846725463867,30.651382446289062,-1.2386243343353271,-0.0,-0.0,-1.0,0.1509519521367514,2.0,0.0
-0.2028560638427734,31.63431930541992,-1.3563427925109863,-0.0,-0.0,-1.0,0.1420924203051996,2.0,0.0
-0.2628631591796875,32.25791931152344,-1.4311749935150146,-0.0,-0.0,-1.0,0.1167728769329136,1.0,0.0
-0.6647052764892578,32.42582702636719,-1.4798908233642578,-0.0,-0.0,-1.0,0.0689690660828405,1.0,0.0
0.1749076843261718,31.037424087524418,-1.461662769317627,-0.0,-0.0,-1.0,0.0673046121917494,1.0,0.0
-0.1344270706176757,31.025047302246097,-1.4797937870025637,-0.0,-0.0,-1.0,0.1492268015537929,1.0,0.0
-0.7400102615356445,31.22270965576172,-1.5445401668548584,-0.0,-0.0,-1.0,0.1481869379956918,1.0,0.0
-0.9030427932739258,30.969463348388672,-1.5228631496429443,-0.0,-0.0,-1.0,0.092551553433759,2.0,0.0
-0.0805044174194336,32.0845832824707,-1.266653537750244,0.0408141863651067,0.9818767724202816,0.1850735150497919,0.2225714487413348,3.0,0.0
0.1108694076538086,32.429443359375,-1.2884562015533447,-0.0,-0.0,-1.0,0.1280844067663513,2.0,0.0
-0.4260425567626953,32.17599105834961,-1.3076889514923096,-0.1473362621117728,0.8698584862915557,-0.4707847063079834,0.1377242867469407,3.0,0.0
-0.0379095077514648,30.75576400756836,-1.1142528057098389,-0.0,-0.0,-1.0,0.1968570512230467,1.0,0.0
-0.6000595092773438,32.65814971923828,-1.017866849899292,0.1253322348665615,-0.9783008448090352,0.1649826898473921,0.0931720604550667,4.0,0.0
-0.4489250183105469,32.26149368286133,-1.3127527236938477,-0.0,-0.0,-1.0,0.1709613075582645,1.0,0.0
-1.437723159790039,33.10105514526367,-1.5035951137542725,-0.0,-0.0,-1.0,0.0771983925148403,1.0,0.0
-0.2010259628295898,32.15507888793945,-1.4198315143585205,-0.4815159519414395,0.8681179167628743,0.1204726965798332,0.1068390530257376,3.0,0.0
-0.1713933944702148,30.721540451049805,-1.2184383869171145,-0.0,-0.0,-1.0,0.1377108499757051,1.0,0.0
-0.2776632308959961,31.646100997924805,-1.3555400371551514,-0.0,-0.0,-1.0,0.1684043411971791,2.0,0.0
-0.4548416137695312,32.0821533203125,-1.431072235107422,-0.0,-0.0,-1.0,0.0785220142864243,1.0,0.0
-0.1641073226928711,31.53790283203125,-1.3822884559631348,-0.0,-0.0,-1.0,0.2293690857235249,1.0,0.0
-0.258310317993164,31.98558235168457,-1.4563260078430176,-0.0,-0.0,-1.0,0.1125530048667213,1.0,0.0
-0.1582765579223632,32.07228088378906,-1.4607758522033691,-0.0,-0.0,-1.0,0.1134573308838956,2.0,0.0
-0.2411832809448242,31.509937286376953,-1.3846850395202637,-0.0,-0.0,-1.0,0.2266783128450902,1.0,0.0
-0.5329008102416992,31.99256706237793,-1.4805908203125,-0.0,-0.0,-1.0,0.1145756391449432,1.0,0.0
-0.0936498641967773,30.77348899841309,-1.2636690139770508,-0.0,-0.0,-1.0,0.1426064892968413,1.0,0.0
-0.6620540618896484,30.863380432128903,-1.6616435050964355,-0.3656248596636275,-0.8630551467345654,-0.3485029062876391,0.0875098022115856,3.0,0.0
-0.7957983016967773,30.782207489013672,-1.6638202667236328,-0.0,-0.0,-1.0,0.1009467571079601,2.0,0.0
-0.8332953453063965,33.032005310058594,-1.5110487937927246,-0.0,-0.0,-1.0,0.1151563502205248,1.0,0.0
-0.0909304618835449,32.0177001953125,-1.2840430736541748,-0.0,-0.0,-1.0,0.2021402001581149,1.0,0.0
-0.0417151451110839,32.171356201171875,-1.3025405406951904,-0.0,-0.0,-1.0,0.1848132114531105,1.0,0.0
-0.4496903419494629,32.210304260253906,-1.3488883972167969,-0.0,-0.0,-1.0,0.1497496670898635,1.0,0.0
-0.862943172454834,32.70270538330078,-1.4646036624908447,-0.0,-0.0,-1.0,0.1139434243685079,1.0,0.0
-0.180635929107666,30.719327926635746,-1.0978333950042725,-0.0,-0.0,-1.0,0.1990768911410087,2.0,0.0
-0.8286871910095215,32.224884033203125,-1.389575481414795,-0.0,-0.0,-1.0,0.1938870136909026,2.0,0.0
-0.1200385093688964,31.391990661621097,-1.4404661655426023,-0.0,-0.0,-1.0,0.1627433390739878,1.0,0.0
-0.0524482727050781,31.606155395507812,-1.4715311527252195,0.1018197052256995,-0.6623310237911081,-0.7422603064636919,0.2365959297764207,3.0,0.0
-0.231424331665039,31.29115295410156,-1.4335260391235352,-0.0,-0.0,-1.0,0.1028869552030035,2.0,0.0
-0.9140686988830566,31.18890380859375,-1.483771562576294,-0.0,-0.0,-1.0,0.1732586521277002,1.0,0.0
-0.7155251502990723,32.06979751586914,-0.8578338623046875,-0.0,-0.0,-1.0,0.1695262604615116,1.0,0.0
-1.377119064331055,33.09543991088867,-1.680613994598389,-0.0,-0.0,-1.0,0.069668883105896,1.0,0.0
-1.4761834144592283,32.95349884033203,-1.6647882461547852,-0.0,-0.0,-1.0,0.0761661760411035,1.0,0.0
-0.0046510696411132,32.08009338378906,-1.3777718544006348,-0.1992376687116372,0.8676322935075549,0.4555420448533517,0.1685584249395431,4.0,0.0
-0.2403478622436523,32.13151168823242,-1.4071731567382812,-0.0,-0.0,-1.0,0.1113871141339626,2.0,0.0
-0.6825399398803711,32.51568603515625,-1.5145726203918457,-0.0,-0.0,-1.0,0.0713219163155896,1.0,0.0
-0.2689499855041504,31.615196228027344,-1.3171944618225098,-0.0,-0.0,-1.0,0.1819558917619989,2.0,0.0
-0.795384407043457,32.217071533203125,-1.4715337753295898,-0.0,-0.0,-1.0,0.1775345578633631,1.0,0.0
-0.149543285369873,30.74252700805664,-1.1509532928466797,-0.6741752117269235,-0.7042531015736362,0.2225204548280257,0.2030553135497735,4.0,0.0
-0.1833753585815429,31.92687606811523,-1.542637586593628,-0.0,-0.0,-1.0,0.1245010901838922,1.0,0.0
-0.791468620300293,31.404739379882812,-1.4891111850738523,-0.0,-0.0,-1.0,0.1807326218367957,2.0,0.0
0.0227327346801757,31.50411605834961,-1.4401886463165283,-0.0,-0.0,-1.0,0.1408223445680584,1.0,0.0
-0.0665540695190429,30.67165756225586,-1.279041767120361,-0.0,-0.0,-1.0,0.1088878754732487,2.0,0.0
-0.2186007499694824,31.45196533203125,-1.4493610858917236,0.4471644986359535,-0.4152843101533751,-0.7922012704484213,0.1824531050906844,4.0,0.0
-0.8832221031188965,31.11634826660156,-1.4397432804107666,-0.0,-0.0,-1.0,0.1472777321341552,2.0,0.0
-0.814511775970459,31.202579498291016,-1.4507606029510498,-0.5613485565947212,-0.8098146756649433,-0.1705520128485921,0.1585321056748587,3.0,0.0
-0.5456881523132324,32.641292572021484,-1.0068140029907229,-0.0,-0.0,-1.0,0.0931720604550668,2.0,0.0
-1.3052306175231934,32.72777557373047,-1.6280734539031982,-0.0,-0.0,-1.0,0.0452660056740779,1.0,0.0
-0.0027413368225097,32.0989990234375,-1.3492553234100342,-0.807279201005729,0.515350936732028,-0.2875999020044563,0.1729704736888897,3.0,0.0
-0.2550640106201172,31.52765655517578,-1.2690448760986328,-0.0,-0.0,-1.0,0.1624939894532105,1.0,0.0
-0.3475041389465332,32.22336196899414,-1.4138758182525637,-0.0,-0.0,-1.0,0.1166497645171059,1.0,0.0
-0.0698251724243164,30.699073791503903,-1.0877063274383545,-0.7351337857769457,-0.5684864317474791,-0.3693257287656449,0.1968570512230467,3.0,0.0
-0.863614559173584,32.214263916015625,-1.4750597476959229,-0.0,-0.0,-1.0,0.2158085527870409,1.0,0.0
-0.0990948677062988,31.529991149902344,-1.4371490478515625,-0.0,-0.0,-1.0,0.2211743021093785,1.0,0.0
-0.2147560119628906,31.96558380126953,-1.5477824211120603,-0.0,-0.0,-1.0,0.113791310758569,2.0,0.0
-0.315432071685791,31.494373321533203,-1.4558300971984863,-0.0,-0.0,-1.0,0.2012151450556416,1.0,0.0
-0.863039493560791,31.226343154907227,-1.4677181243896484,-0.3444522969551395,-0.8440591252258441,0.4109949005101049,0.1620552607127119,4.0,0.0
-1.0462932586669922,31.625545501708984,-1.5788474082946775,-0.0,-0.0,-1.0,0.0963479699855747,1.0,0.0
-0.1592063903808593,30.695241928100582,-1.260030746459961,-0.0,-0.0,-1.0,0.140960922292218,1.0,0.0
-1.130235195159912,32.273170471191406,-1.6533026695251465,-0.0,-0.0,-1.0,0.0626906369882655,1.0,0.0
-1.2773385047912598,32.18799591064453,-1.6567840576171875,-0.0,-0.0,-1.0,0.0929390901388869,1.0,0.0
-0.0937433242797851,32.027530670166016,-1.4450044631958008,-0.0,-0.0,-1.0,0.1362770003772472,2.0,0.0
-0.138857364654541,30.724029541015625,-1.1528077125549316,-0.6741752117269235,-0.7042531015736362,0.2225204548280257,0.2093840155221348,4.0,0.0
-0.2565345764160156,31.61432456970215,-1.3732938766479492,0.0445775928060302,0.5096871681075025,-0.8592041834664065,0.1927798454973486,3.0,0.0
-0.3179755210876465,31.777931213378903,-1.4196929931640625,-0.0,-0.0,-1.0,0.0771086894668522,2.0,0.0
-0.8318667411804199,31.275936126708984,-1.382617473602295,-0.0,-0.0,-1.0,0.1418842910036622,1.0,0.0
-0.5823402404785156,32.65534591674805,-1.0597903728485107,0.1253322348665615,-0.9783008448090352,0.1649826898473921,0.0931720604550667,4.0,0.0
-0.014833927154541,31.604827880859375,-1.4651868343353271,-0.0,-0.0,-1.0,0.1963496438190807,2.0,0.0
-0.2279458045959472,31.482378005981445,-1.4570152759552002,-0.509611619583163,-0.3539624490612226,-0.7842235534848507,0.2007505105855779,3.0,0.0
-0.1480979919433593,31.7618408203125,-1.5229718685150146,-0.0,-0.0,-1.0,0.0689304850018638,1.0,0.0
-0.9986681938171388,31.252403259277344,-1.492971658706665,-0.0,-0.0,-1.0,0.218239982451494,1.0,0.0
-1.1251335144042969,31.54506492614746,-1.586754560470581,-0.0,-0.0,-1.0,0.0780929708210036,1.0,0.0
-1.4322538375854492,33.065834045410156,-1.439729928970337,-0.0,-0.0,-1.0,0.0582001237210328,2.0,0.0
-0.3761405944824219,32.312110900878906,-1.149832248687744,-0.0,-0.0,-1.0,0.1173410146481776,2.0,0.0
-0.6494355201721191,32.682090759277344,-1.2650187015533447,-0.0,-0.0,-1.0,0.1133617392658321,2.0,0.0
-0.7637786865234375,32.17814254760742,-1.159705638885498,-0.0,-0.0,-1.0,0.1623222845503522,2.0,0.0
-1.2831988334655762,32.10586929321289,-1.7295172214508057,-0.0,-0.0,-1.0,0.0956022914635417,1.0,0.0
-0.0695085525512695,32.068206787109375,-1.5227186679840088,-0.0,-0.0,-1.0,0.1135826696465114,1.0,0.0
-0.0369791984558105,30.654220581054688,-1.131688356399536,-0.0,-0.0,-1.0,0.1968570512230466,1.0,0.0
-0.1307606697082519,30.72176742553711,-1.1651265621185305,-0.6741752117269235,-0.7042531015736362,0.2225204548280257,0.2030553135497735,4.0,0.0
-0.2560849189758301,31.70561408996582,-1.4523417949676514,-0.0,-0.0,-1.0,0.1847919585711024,1.0,0.0
-0.293494701385498,31.980398178100582,-1.5333025455474854,-0.0,-0.0,-1.0,0.1078284965768983,2.0,0.0
-0.6414804458618164,32.66778564453125,-1.2447187900543213,-0.1912326230753177,-0.8360638892117983,-0.514224908991946,0.0964008310197193,3.0,0.0
-0.2923049926757812,30.953128814697266,-1.2539527416229248,-0.0,-0.0,-1.0,0.1723432723155391,2.0,0.0
-0.7062077522277832,31.327394485473633,-0.93861985206604,-0.0,-0.0,-1.0,0.1363964716543407,1.0,0.0
-0.6690936088562012,32.203208923339844,-1.1387710571289062,-0.0,-0.0,-1.0,0.1101663043780165,1.0,0.0
0.0439963340759277,32.01978302001953,-1.4194321632385254,-0.0,-0.0,-1.0,0.2234133678965548,1.0,0.0
-0.1885082721710205,32.09313201904297,-1.4718303680419922,-0.0,-0.0,-1.0,0.0877408106067307,2.0,0.0
-0.33681321144104,31.628284454345703,-1.3507885932922363,-0.0,-0.0,-1.0,0.1515421038672676,1.0,0.0
-0.3101222515106201,31.859682083129883,-1.4171881675720217,-0.0,-0.0,-1.0,0.08469303706168,1.0,0.0
-0.2559020519256592,32.08740234375,-1.4790077209472656,-0.0,-0.0,-1.0,0.0782066329326424,1.0,0.0
-0.9228527545928956,31.819608688354492,-1.491903305053711,-0.0,-0.0,-1.0,0.1228756713585505,1.0,0.0
-1.2365810871124268,32.25431823730469,-1.66796875,-0.0,-0.0,-1.0,0.0998396638147394,1.0,0.0
-0.1895272731781005,30.71414566040039,-1.054748773574829,-0.6738496569539925,0.0060896745820231,-0.7388433905006334,0.2001505407834975,4.0,0.0
-0.1575963497161865,31.062191009521484,-1.1550345420837402,-0.0,-0.0,-1.0,0.1290868631933212,1.0,0.0
-0.6649234294891357,32.6514778137207,-1.2094862461090088,-0.0,-0.0,-1.0,0.1007851285029528,2.0,0.0
-0.3912580013275146,30.788375854492188,-1.1060209274291992,-0.0,-0.0,-1.0,0.1354431311445732,1.0,0.0
-0.7747156620025635,32.17300033569336,-1.09592866897583,-0.0,-0.0,-1.0,0.0933680337384861,1.0,0.0
-1.4704978466033936,33.067535400390625,-1.4224143028259275,-0.0,-0.0,-1.0,0.0582001237210327,2.0,0.0
-0.6169309616088867,32.64461898803711,-1.2889649868011477,-0.0,-0.0,-1.0,0.0999185131984863,2.0,0.0
-0.7951035499572754,33.08845520019531,-1.4443037509918213,-0.0,-0.0,-1.0,0.1352987383748282,2.0,0.0
-0.3483200073242187,32.29374694824219,-1.1503400802612305,-0.0,-0.0,-1.0,0.1223935734561832,2.0,0.0
-0.7706494331359863,32.20941925048828,-1.1789650917053225,-0.0,-0.0,-1.0,0.1548286012969765,2.0,0.0
-0.8012351989746094,32.43510437011719,-1.0117533206939695,-0.0,-0.0,-1.0,0.0429012552943497,1.0,0.0
-0.5449705123901367,30.89971351623535,-1.483470439910889,-0.0,-0.0,-1.0,0.2223581635456482,1.0,0.0
-0.7013492584228516,30.796875,-1.4857258796691897,-0.0,-0.0,-1.0,0.1618916200876173,1.0,0.0
-0.2628707885742187,30.81499481201172,-1.4406800270080566,-0.0,-0.0,-1.0,0.1896416737050281,1.0,0.0
0.1599369049072265,30.67707061767578,-1.3752408027648926,-0.0,-0.0,-1.0,0.1452321006633462,1.0,0.0
-0.6142768859863281,32.632972717285156,-0.9726674556732178,-0.0,-0.0,-1.0,0.0931720604550667,1.0,0.0
-0.575840950012207,30.93597412109375,-1.6435492038726809,-0.0,-0.0,-1.0,0.106070458599136,1.0,0.0
-0.765711784362793,30.78584671020508,-1.6287920475006104,-0.0,-0.0,-1.0,0.1072172014463379,2.0,0.0
-0.7590532302856445,32.010982513427734,-0.834662675857544,-0.0,-0.0,-1.0,0.1387510871367341,2.0,0.0
-0.8143415451049805,31.13075256347656,-1.6110446453094482,-0.0,-0.0,-1.0,0.1582086437205672,2.0,0.0
-0.4112758636474609,30.91962432861328,-1.5530407428741455,-0.0,-0.0,-1.0,0.1276927466290993,1.0,0.0
-0.7303199768066406,30.944896697998047,-1.5734646320343018,-0.0,-0.0,-1.0,0.1612654913860093,1.0,0.0
0.1890592575073242,30.843441009521484,-1.5110924243927002,-0.0,-0.0,-1.0,0.0649072738203943,1.0,0.0
-0.0812501907348632,30.88787078857422,-1.5315706729888916,-0.0,-0.0,-1.0,0.0516307411833224,1.0,0.0
0.088353157043457,30.728111267089844,-1.4946978092193604,0.4538759877118621,-0.8619328936865389,-0.2259829076716448,0.146513218113321,3.0,0.0
-0.8100862503051758,31.02533531188965,-1.6026794910430908,-0.0,-0.0,-1.0,0.0882326680609351,1.0,0.0
-0.55859375,30.916072845458984,-1.5773050785064695,-0.0,-0.0,-1.0,0.1517803303345274,2.0,0.0
-0.9362268447875975,30.703365325927734,-1.5404012203216553,-0.0,-0.0,-1.0,0.1476501143033482,1.0,0.0
-0.6895599365234375,31.05471420288086,-1.517834186553955,-0.0,-0.0,-1.0,0.1238281894014875,1.0,0.0
-0.901829719543457,30.945098876953125,-1.5000829696655271,-0.0,-0.0,-1.0,0.1062871628004585,2.0,0.0
0.0487370491027832,30.90392303466797,-1.479483127593994,-0.0,-0.0,-1.0,0.0427243440926446,1.0,0.0
-0.6520476341247559,30.84902572631836,-1.6365926265716553,-0.3656248596636275,-0.8630551467345654,-0.3485029062876391,0.0799156096598207,3.0,0.0
-0.8474326133728027,30.77627944946289,-1.6175148487091064,-0.0,-0.0,-1.0,0.1123336658659424,1.0,0.0
-0.408782958984375,30.698272705078125,-1.6130073070526123,-0.0,-0.0,-1.0,0.1291498981213487,1.0,0.0
-0.8284168243408203,31.220399856567383,-1.6198968887329102,-0.0,-0.0,-1.0,0.1319873617491905,1.0,0.0
-0.3839123249053955,31.18626594543457,-1.6250004768371582,-0.0,-0.0,-1.0,0.0484150466111968,1.0,0.0
-0.529911994934082,31.020959854125977,-1.5904202461242676,-0.0,-0.0,-1.0,0.0915694273224529,1.0,0.0
-0.0858347415924072,30.953340530395508,-1.589611530303955,-0.0,-0.0,-1.0,0.0699283149727826,1.0,0.0
-0.3547610640525818,30.928735733032227,-1.570425033569336,-0.0,-0.0,-1.0,0.1575833456660735,1.0,0.0
-0.1433472633361816,30.826431274414062,-1.5682158470153809,-0.0,-0.0,-1.0,0.0712676536694437,1.0,0.0
-0.771728515625,33.06163024902344,-1.4534459114074707,-0.0,-0.0,-1.0,0.1352987383748283,2.0,0.0
-1.2353506088256836,33.105770111083984,-1.4317374229431152,-0.0,-0.0,-1.0,0.0835597970765983,2.0,0.0
0.0048599243164062,32.20167922973633,-1.2942767143249512,-0.0,-0.0,-1.0,0.106136439932053,2.0,0.0
-0.4447710514068603,32.13357162475586,-1.2427659034729004,-0.0,-0.0,-1.0,0.1190107753633339,2.0,0.0
-0.0360641479492187,33.017303466796875,-1.4657630920410156,-0.0,-0.0,-1.0,0.0939066170247861,1.0,0.0
-0.2516853809356689,32.14456558227539,-1.2270193099975586,-0.0,-0.0,-1.0,0.1042831122721789,1.0,0.0
0.0325632095336914,33.058570861816406,-1.498626708984375,-0.0,-0.0,-1.0,0.0815897222414105,1.0,0.0
-0.6052632331848145,32.87782287597656,-1.4190168380737305,-0.0,-0.0,-1.0,0.1351672804335859,1.0,0.0
0.1892843246459961,32.359771728515625,-1.3198776245117188,-0.0,-0.0,-1.0,0.1311826432805848,1.0,0.0
-0.198918342590332,32.25129318237305,-1.2707719802856443,-0.0,-0.0,-1.0,0.089195254147342,1.0,0.0
-0.5270843505859375,32.27000427246094,-1.259669303894043,-0.0,-0.0,-1.0,0.1125660794418391,1.0,0.0
-1.2496514320373535,32.32581329345703,-0.11289644241333,-0.0,-0.0,-1.0,0.0931204736389095,1.0,0.0
-0.0671882629394531,31.128421783447266,-1.4968419075012207,-0.0,-0.0,-1.0,0.1159552047472366,2.0,0.0
-0.3296437263488769,31.33603286743164,-1.53007173538208,-0.0,-0.0,-1.0,0.1394805148359154,1.0,0.0
0.1895580291748047,30.75478744506836,-1.4144911766052246,-0.0,-0.0,-1.0,0.1688441703117344,1.0,0.0
-0.6614546775817871,31.2034912109375,-1.455674648284912,-0.0,-0.0,-1.0,0.1395078309936497,1.0,0.0
-1.0104436874389648,31.44110870361328,-1.4902386665344238,-0.0,-0.0,-1.0,0.1307379114106612,1.0,0.0
-1.2181811332702637,32.44561767578125,-1.734241962432861,-0.0,-0.0,-1.0,0.0391362784371176,1.0,0.0
-0.01469087600708,31.26875114440918,-1.5982089042663574,-0.0,-0.0,-1.0,0.0313056591976953,1.0,0.0
-0.3294863700866699,31.58289337158203,-1.633861064910889,-0.0,-0.0,-1.0,0.1958286619793928,1.0,0.0
-0.7041683197021484,31.870861053466797,-1.652970790863037,-0.0,-0.0,-1.0,0.1148402037251122,1.0,0.0
-0.9239821434020996,31.98771095275879,-1.6496453285217283,-0.0,-0.0,-1.0,0.1644724233954003,1.0,0.0
-0.2310590744018554,31.18700408935547,-1.536177158355713,-0.0,-0.0,-1.0,0.14331841732353,1.0,0.0
-0.5034594535827637,31.45519256591797,-1.566479206085205,-0.0,-0.0,-1.0,0.104739056135278,1.0,0.0
-1.0153865814208984,31.9962158203125,-1.6367249488830566,-0.0,-0.0,-1.0,0.1032488418328892,1.0,0.0
0.1513900756835937,32.72351837158203,-0.977303981781006,-0.0,-0.0,-1.0,0.0688264468105788,1.0,0.0
-0.1534361839294433,31.65625,-1.4022774696350098,-0.0,-0.0,-1.0,0.1531778638023723,1.0,0.0
-0.4235706329345703,31.910240173339844,-1.4352927207946775,-0.0,-0.0,-1.0,0.0818580651367828,1.0,0.0
-0.3556761741638183,31.575111389160156,-1.345651149749756,-0.0,-0.0,-1.0,0.1294284089992076,1.0,0.0
-0.6475720405578613,31.98094940185547,-1.4213709831237793,-0.0,-0.0,-1.0,0.1405888285654837,1.0,0.0
-0.9092416763305664,32.181766510009766,-1.441378116607666,-0.0,-0.0,-1.0,0.2161754360244565,1.0,0.0
-1.11842679977417,32.647735595703125,-1.549815654754639,-0.0,-0.0,-1.0,0.0524249432090644,1.0,0.0
-1.318570613861084,32.89289855957031,-1.593827724456787,-0.0,-0.0,-1.0,0.0761661760411035,1.0,0.0
-0.2592902183532715,30.796886444091797,-1.380629062652588,-0.0,-0.0,-1.0,0.133609846046736,1.0,0.0
-0.3771953582763672,31.192272186279297,-1.4973530769348145,-0.0,-0.0,-1.0,0.1123859882088834,1.0,0.0
-0.6268138885498047,31.24615478515625,-1.4806551933288574,-0.0,-0.0,-1.0,0.0901149015739753,1.0,0.0
-0.7599468231201172,31.41571807861328,-1.5198493003845217,-0.0,-0.0,-1.0,0.1642737090326122,2.0,0.0
-1.0324492454528809,31.780582427978516,-1.6069016456604004,-0.0,-0.0,-1.0,0.0955330250625234,1.0,0.0
-1.0878839492797852,31.50775146484375,-1.5067534446716309,-0.0,-0.0,-1.0,0.0909005212764205,1.0,0.0
0.1299843788146972,32.30684280395508,-1.2890806198120115,-0.0,-0.0,-1.0,0.0884353374037517,1.0,0.0
-0.5447182655334473,32.726806640625,-1.2802352905273438,-0.0,-0.0,-1.0,0.0941597927960376,1.0,0.0
-0.7815260887145996,32.00148391723633,-1.0013704299926758,-0.0,-0.0,-1.0,0.1102810263750285,1.0,0.0
0.194279670715332,32.6423225402832,-1.572469711303711,-0.0,-0.0,-1.0,0.0686561626352036,1.0,0.0
-1.3403053283691406,32.343448638916016,-1.5999908447265625,-0.0,-0.0,-1.0,0.0935712280751793,1.0,0.0
-1.1010982990264893,32.722076416015625,-1.673375129699707,-0.0,-0.0,-1.0,0.0586330017615401,1.0,0.0
-0.7860282063484192,32.9611701965332,-1.7092170715332031,-0.0,-0.0,-1.0,0.108998957477841,1.0,0.0
0.2061220407485962,31.59225845336914,-1.5878963470458984,-0.0,-0.0,-1.0,0.1939770155043093,1.0,0.0
-0.3960143327713012,31.459606170654297,-1.616358757019043,-0.0,-0.0,-1.0,0.1566419811918218,1.0,0.0
-0.1529954671859741,31.58519744873047,-1.6221418380737305,-0.0,-0.0,-1.0,0.2028697399167804,1.0,0.0
0.0664597749710083,31.952919006347656,-1.6889925003051758,-0.0,-0.0,-1.0,0.1037503352107681,1.0,0.0
-1.0660227537155151,31.372066497802734,-1.6641054153442385,-0.0,-0.0,-1.0,0.118184093512198,1.0,0.0
