x,y,z,nx,ny,nz,curvature,density,label
32.01880645751953,10.30776596069336,-0.7540827989578247,0.5110656382931612,-0.761939176467212,-0.3978198143889651,0.1234141383631072,3.0,0.0
32.57149887084961,9.604070663452148,-0.82219398021698,-0.0,-0.0,-1.0,0.2286761059907534,1.0,0.0
30.523048400878903,8.167850494384766,-0.9627343416213988,-0.0,-0.0,-1.0,0.1085964380639907,2.0,0.0
30.382125854492188,9.07050609588623,-0.9374536275863647,0.355603353428058,-0.8310667048706052,-0.4276381497086453,0.234317613640355,8.0,0.0
30.59167861938477,8.872126579284668,-0.9819341897964478,0.7141741810723113,0.4276121241785572,-0.5541688464224559,0.2050032086387338,5.0,0.0
30.949966430664062,8.562159538269043,-1.0589884519577026,-0.0,-0.0,-1.0,0.0944402891696098,2.0,0.0
31.10063934326172,8.388659477233887,-1.0914226770401,-0.1074097953204151,0.8659382547693139,-0.4884813965713547,0.0888696027419669,3.0,0.0
30.474529266357425,9.679637908935549,-0.9692996740341188,-0.0,-0.0,-1.0,0.2177877265942807,2.0,0.0
30.257612228393555,10.280824661254885,-1.2979708909988403,-0.0,-0.0,-1.0,0.099426724260845,2.0,0.0
30.573070526123047,9.794922828674316,-0.9942351579666138,-0.3128217409992876,0.4009973587060403,-0.8610131686965966,0.1584132854569132,3.0,0.0
30.825130462646484,9.82972812652588,-1.0518733263015747,-0.0,-0.0,-1.0,0.1663315413884784,2.0,0.0
30.488052368164062,10.43238639831543,-1.1776260137557983,-0.0,-0.0,-1.0,0.1795437559752687,2.0,0.0
30.90050506591797,10.267970085144045,-1.0817452669143677,-0.5563227157596139,0.6656372523915333,-0.4974254558810777,0.1155956622419128,3.0,0.0
31.237428665161133,10.590309143066406,-1.1691030263900757,-0.0,-0.0,-1.0,0.2184357272931839,1.0,0.0
30.350379943847656,8.803840637207031,-0.5636125802993774,-0.0,-0.0,-1.0,0.1355907468592354,2.0,0.0
30.280364990234375,9.209070205688477,-0.916690707206726,0.485923038796664,-0.0852849395014067,-0.8698306038883992,0.1810771758472448,6.0,0.0
30.4529972076416,8.89296817779541,-0.5842413902282715,-0.0,-0.0,-1.0,0.2120106550194537,2.0,0.0
31.22595596313477,8.484151840209961,-0.7227416038513184,-0.0,-0.0,-1.0,0.0916825821790287,1.0,0.0
30.32976722717285,9.607443809509276,-0.9351187944412231,0.5123660422918307,0.1361354427710975,-0.8479081199798257,0.1635179851783614,3.0,0.0
30.796634674072266,9.424206733703612,-0.6594427824020386,-0.0,-0.0,-1.0,0.1850766152869771,1.0,0.0
32.05004119873047,8.211736679077148,-0.8730310201644897,-0.0408260657029861,0.4627832459441927,-0.8855308575270386,0.2312348495630807,3.0,0.0
30.611967086791992,9.876871109008787,-0.6363669633865356,0.7791211523045364,0.6000407040021737,-0.1814425076221875,0.1605385739943609,4.0,0.0
31.126678466796875,10.035696029663086,-0.7383641004562378,-0.6636061118924091,0.6293275367012653,-0.4044425543987141,0.1359153955728749,4.0,0.0
32.46826171875,9.011838912963867,-0.9649330377578736,-0.4618956156320625,0.6261431186299306,-0.6281697503479953,0.0487122942959876,4.0,0.0
32.66668701171875,8.700811386108398,-0.996069312095642,-0.0,-0.0,-1.0,0.1647350172007561,2.0,0.0
31.454654693603516,10.275288581848145,-0.8081361055374146,-0.0,-0.0,-1.0,0.218120483708798,2.0,0.0
32.62400817871094,9.276535034179688,-1.0002840757369995,0.4716872600693115,-0.0587448001301091,-0.8798068976462843,0.1152836463956341,4.0,0.0
31.789968490600582,10.402909278869627,-0.8759647607803345,0.2691098851015286,-0.7776799926935971,0.5681493630241335,0.2389743897306104,3.0,0.0
32.579776763916016,9.663403511047363,-1.00196635723114,-0.0,-0.0,-1.0,0.1136464592666055,1.0,0.0
30.506864547729492,8.237648010253906,-1.096313238143921,-0.0,-0.0,-1.0,0.1473940231009226,2.0,0.0
30.59654235839844,8.549988746643066,-1.1256952285766602,-0.0,-0.0,-1.0,0.0542139760741269,1.0,0.0
30.702823638916016,8.260418891906738,-1.1485857963562012,-0.0,-0.0,-1.0,0.1100915741251467,2.0,0.0
30.451322555541992,9.0171480178833,-1.0991175174713137,0.1083146154730244,0.6412099678883876,-0.7596826450271874,0.1333480394257118,4.0,0.0
31.797496795654297,8.186824798583984,-1.0522875785827637,-0.0,-0.0,-1.0,0.1251460920785896,2.0,0.0
30.264881134033203,9.711002349853516,-1.07706618309021,-0.0,-0.0,-1.0,0.0628261891819827,1.0,0.0
31.737491607666016,8.78468132019043,-1.0558383464813232,-0.0,-0.0,-1.0,0.1132634283458649,2.0,0.0
30.21716690063477,10.140490531921388,-1.0879933834075928,-0.0,-0.0,-1.0,0.1094906216151866,1.0,0.0
30.46562767028809,9.889527320861816,-1.140591382980347,-0.0,-0.0,-1.0,0.088079523976608,1.0,0.0
30.444278717041016,10.406519889831545,-1.1664807796478271,-0.0,-0.0,-1.0,0.1927461215638649,1.0,0.0
30.76817512512207,10.305956840515137,-1.2474191188812256,-0.0,-0.0,-1.0,0.1776298368639679,1.0,0.0
30.971778869628903,10.18779468536377,-1.2947990894317627,-0.0,-0.0,-1.0,0.1492419953125546,1.0,0.0
31.99686050415039,10.594386100769045,-1.2099919319152832,-0.3278303453281775,0.8243185441044951,-0.4615476167498358,0.167093259944441,3.0,0.0
32.031620025634766,10.381270408630373,-1.2039501667022705,-0.0,-0.0,-1.0,0.097103973815107,1.0,0.0
30.32775115966797,8.81982707977295,-0.731295108795166,-0.6277894211399607,-0.7560486578315961,-0.1851239306405169,0.2581533433151912,3.0,0.0
30.516355514526367,8.587471008300781,-0.7680654525756836,0.0863741011170797,-0.9775023020042334,0.1924285951532174,0.1967033664767706,4.0,0.0
30.55986785888672,9.050115585327148,-0.7928967475891113,-0.3929849731453314,0.7713010225851096,-0.5006571116454134,0.1607559078429615,5.0,0.0
30.664417266845703,8.7673921585083,-0.8073351383209229,0.3893354940150466,-0.9104818061609732,-0.1394301034565762,0.1271431147104791,4.0,0.0
31.160390853881836,8.604020118713379,-0.9167709350585938,-0.0,-0.0,-1.0,0.2308868159324529,2.0,0.0
30.212366104125977,9.668963432312012,-0.8978703022003174,-0.0,-0.0,-1.0,0.1835004683530137,2.0,0.0
30.577625274658203,9.37831974029541,-0.8102507591247559,-0.0,-0.0,-1.0,0.1817558331567788,1.0,0.0
32.20228576660156,8.300686836242676,-0.7541561126708984,-0.0,-0.0,-1.0,0.2179732125641115,2.0,0.0
30.653003692626953,9.884397506713867,-0.85263991355896,-0.0,-0.0,-1.0,0.2054840316757605,1.0,0.0
30.89875030517578,9.71121883392334,-0.9008009433746338,0.5118938898300389,0.3169247407421766,-0.7984505960046467,0.0807530208306659,3.0,0.0
31.304502487182617,9.689847946166992,-0.9940752983093262,-0.1257764693420109,0.5605487664510649,-0.8185141172820708,0.0926146218934742,3.0,0.0
32.68091583251953,8.696670532226562,-0.861595869064331,-0.2156432219483999,0.3170082478583402,-0.9235820329659398,0.2266104217458382,3.0,0.0
30.633148193359375,10.39720630645752,-0.8789632320404053,0.6112508451635836,-0.7521871934151182,-0.2461439220234611,0.2448123748327664,6.0,0.0
31.071746826171875,10.004996299743652,-0.9570469856262208,0.6080625930124254,0.7407525154439831,0.2855618914393461,0.1772691682829625,3.0,0.0
31.478424072265625,9.64786148071289,-1.032428741455078,-0.0,-0.0,-1.0,0.0341421994738075,2.0,0.0
31.755653381347656,10.405247688293455,-0.7675683498382568,-0.0,-0.0,-1.0,0.272761636385804,1.0,0.0
32.54705810546875,9.610405921936035,-0.877082347869873,-0.6676971209650808,-0.7353977115218243,0.1156320048403809,0.1504741677576644,6.0,0.0
31.79125213623047,10.585552215576172,-0.786492109298706,0.8019510909962596,0.1900530732459113,0.5663517255201873,0.1894756706791275,3.0,0.0
31.36331558227539,10.241859436035156,-0.6802445650100708,-0.948722989209182,-0.1694152712684643,-0.2668766674084253,0.1631530604163355,5.0,0.0
31.421098709106445,10.240690231323242,-0.6915488243103027,-0.4394461630343994,-0.4951233267137908,-0.7494931361515011,0.1577475476637724,3.0,0.0
30.612228393554688,8.455070495605469,-1.0418145656585691,-0.0,-0.0,-1.0,0.0482410511652797,2.0,0.0
30.82781410217285,8.41220760345459,-0.9393184185028076,-0.0,-0.0,-1.0,0.2499448192427112,1.0,0.0
31.218936920166016,8.200295448303223,-0.8667466640472412,-0.0,-0.0,-1.0,0.1194689097157477,1.0,0.0
31.830480575561523,8.163548469543457,-1.0208747386932373,0.4589551222806664,0.8868190166523254,-0.0539650575478299,0.1545248952499006,3.0,0.0
30.53079414367676,8.892264366149902,-1.0453026294708252,-0.1910119799633964,0.8965614337584565,-0.3996148383224076,0.1589012324453698,4.0,0.0
30.926475524902344,8.656572341918945,-0.9796867370605468,-0.0,-0.0,-1.0,0.2013254143414512,1.0,0.0
31.30437469482422,8.666925430297852,-0.9182345867156982,-0.5233792260482848,0.8371054058472934,-0.1591500086155727,0.1958911299914997,5.0,0.0
31.72705078125,8.368640899658203,-1.0070221424102783,0.4227164388600275,0.6038145451369482,-0.6758097420121714,0.0552155748559572,3.0,0.0
30.211868286132812,9.385008811950684,-0.988600492477417,-0.0,-0.0,-1.0,0.1007140184115101,1.0,0.0
30.487817764282227,9.14938259124756,-1.0512444972991943,-0.0,-0.0,-1.0,0.1926650217509571,1.0,0.0
31.658836364746097,8.844561576843262,-1.0224928855895996,-0.0,-0.0,-1.0,0.1224290549398679,2.0,0.0
32.630882263183594,8.684989929199219,-0.8786838054656982,0.903263159896429,0.222466213088892,0.3669120439666778,0.2530395680543675,6.0,0.0
30.32023811340332,9.808706283569336,-1.059589147567749,-0.0,-0.0,-1.0,0.09084982528816,1.0,0.0
30.593814849853516,10.19240951538086,-1.1769816875457764,-0.0,-0.0,-1.0,0.1726512539926669,1.0,0.0
30.77893829345703,10.041655540466309,-1.2154057025909424,-0.0,-0.0,-1.0,0.087401657830629,1.0,0.0
32.659732818603516,9.688149452209473,-0.9723265171051024,-0.0,-0.0,-1.0,0.1457390610360683,2.0,0.0
30.68874740600586,10.508898735046388,-1.2426507472991943,-0.2393049403543858,-0.7210404257464467,-0.6502567569517186,0.1708987964558678,4.0,0.0
30.965106964111328,10.386383056640623,-1.1425745487213137,-0.0,-0.0,-1.0,0.1270880253197568,1.0,0.0
31.288482666015625,10.452237129211426,-1.0743792057037354,-0.0,-0.0,-1.0,0.1186514469779498,1.0,0.0
31.827457427978516,10.204412460327148,-1.1863775253295898,-0.0,-0.0,-1.0,0.137124767609025,1.0,0.0
31.933692932128903,10.020374298095703,-1.193984031677246,-0.0,-0.0,-1.0,0.1384597350402066,1.0,0.0
31.490583419799805,10.61269187927246,-1.1458361148834229,-0.0,-0.0,-1.0,0.1828172806172473,1.0,0.0
31.793888092041016,10.491018295288086,-1.210221290588379,-0.5100954275135734,0.857313199053493,-0.0694026912908302,0.1973891159398409,3.0,0.0
30.505685806274418,8.571405410766602,-0.7067480087280273,-0.0,-0.0,-1.0,0.2471415595595592,1.0,0.0
31.370590209960938,8.160417556762695,-0.5641202926635742,-0.0,-0.0,-1.0,0.1090091695648817,1.0,0.0
30.54119300842285,8.883769035339355,-0.7371182441711426,0.957304283517608,0.2756320567976681,0.0871520397026125,0.1028702108110228,3.0,0.0
32.193885803222656,8.356460571289062,-0.7579576969146729,-0.0,-0.0,-1.0,0.2423827161033085,2.0,0.0
30.423755645751953,9.382061958312988,-0.7460761070251465,-0.0,-0.0,-1.0,0.0983922315090066,2.0,0.0
30.48729705810547,9.148536682128906,-0.7431011199951172,-0.0,-0.0,-1.0,0.0470304266857561,2.0,0.0
30.548341751098633,9.771668434143066,-0.6605585813522339,-0.0,-0.0,-1.0,0.1257780767947074,1.0,0.0
30.77990341186523,9.797467231750488,-0.7188277244567871,-0.0,-0.0,-1.0,0.2287559615927334,1.0,0.0
32.55311965942383,9.087549209594728,-0.894108772277832,-0.0,-0.0,-1.0,0.1120028054870088,1.0,0.0
30.553298950195312,10.17740249633789,-0.8525619506835938,-0.0,-0.0,-1.0,0.1301047508992701,1.0,0.0
30.857192993164062,9.866814613342283,-0.7444615364074707,-0.0,-0.0,-1.0,0.2463654283592911,1.0,0.0
31.25569725036621,10.035813331604004,-0.6888761520385742,-0.0,-0.0,-1.0,0.1531557025345752,2.0,0.0
31.68878936767578,10.25195026397705,-0.8082313537597656,-0.0,-0.0,-1.0,0.1275924622449663,1.0,0.0
31.65164566040039,10.619088172912598,-0.8412373065948486,0.5937301114345079,-0.8019601703023066,0.0659123662499074,0.1897805945564084,3.0,0.0
32.08589553833008,10.454927444458008,-0.9188246726989746,-0.0,-0.0,-1.0,0.2245024172862204,1.0,0.0
30.828388214111328,8.408342361450195,-0.868972659111023,-0.0,-0.0,-1.0,0.2055869599762194,1.0,0.0
31.633556365966797,8.288917541503906,-1.0985444784164429,-0.0,-0.0,-1.0,0.0603692241892808,2.0,0.0
32.040504455566406,8.28144359588623,-0.8881436586380005,-0.615688141947845,-0.0230323093870085,0.7876532387980836,0.2091816890783385,4.0,0.0
32.12199020385742,8.231658935546875,-0.9078835248947144,0.3678521032104377,0.929525597482535,-0.0258262228828398,0.1882813853267365,4.0,0.0
31.34433364868164,9.06044578552246,-1.026469349861145,-0.0,-0.0,-1.0,0.103928215299955,2.0,0.0
31.588634490966797,8.854987144470215,-1.0923186540603638,-0.0,-0.0,-1.0,0.0902815681735798,1.0,0.0
31.76062774658203,8.742598533630371,-1.1397801637649536,-0.0,-0.0,-1.0,0.0788249593186956,1.0,0.0
32.67681121826172,8.72655963897705,-1.0561732053756714,-0.0,-0.0,-1.0,0.1691439157468017,2.0,0.0
31.3173770904541,9.187666893005373,-1.0222598314285278,-0.0,-0.0,-1.0,0.0602140362373045,2.0,0.0
32.53926086425781,9.18169403076172,-1.0354949235916138,-0.0,-0.0,-1.0,0.0920688114072186,1.0,0.0
32.70765686035156,8.953713417053223,-1.070245385169983,-0.0,-0.0,-1.0,0.1177317894987346,1.0,0.0
31.323776245117188,9.656255722045898,-1.042040467262268,0.8531253898093077,-0.4930100155787119,-0.1706405397371763,0.0828489421069387,3.0,0.0
31.489227294921875,9.817867279052734,-1.098122239112854,-0.0,-0.0,-1.0,0.0838410358490032,1.0,0.0
32.54200744628906,9.509761810302734,-1.049687743186951,-0.0,-0.0,-1.0,0.1465029398054834,1.0,0.0
31.048768997192383,10.096365928649902,-0.9853893518447876,-0.0,-0.0,-1.0,0.2397671728270489,2.0,0.0
31.109533309936523,9.921378135681152,-0.9929524660110474,-0.0,-0.0,-1.0,0.2522212336084793,1.0,0.0
31.722808837890625,10.000707626342772,-1.1762207746505735,-0.0,-0.0,-1.0,0.1187862527456238,1.0,0.0
32.65839385986328,9.913496971130373,-1.099002242088318,-0.0,-0.0,-1.0,0.0682512245233239,1.0,0.0
31.772449493408203,10.477298736572266,-1.2221261262893677,-0.5100954275135734,0.857313199053493,-0.0694026912908302,0.2126740802110204,3.0,0.0
31.94622802734375,10.296196937561035,-1.2598081827163696,-0.0,-0.0,-1.0,0.1137541419540268,1.0,0.0
30.407501220703125,8.692419052124023,-0.7500245571136475,-0.0,-0.0,-1.0,0.1322040791962738,2.0,0.0
30.458402633666992,8.967854499816895,-0.7686233520507812,-0.0,-0.0,-1.0,0.1461197332149982,2.0,0.0
30.58464813232422,9.278712272644045,-0.8128222227096558,-0.0,-0.0,-1.0,0.1280236797593899,1.0,0.0
30.71545028686523,9.38340663909912,-0.8540946245193481,-0.0,-0.0,-1.0,0.1273152489892257,1.0,0.0
30.53720474243164,9.892927169799805,-0.8245774507522583,-0.0,-0.0,-1.0,0.1712686406032144,1.0,0.0
30.834396362304688,9.682608604431152,-0.9008663892745972,-0.6289190344031037,-0.0420944583745732,-0.7763304095162182,0.0910595699840268,4.0,0.0
30.64297103881836,10.34505558013916,-0.8834196329116821,-0.0,-0.0,-1.0,0.1762859197757758,1.0,0.0
30.944412231445312,9.970296859741213,-0.805815577507019,-0.0,-0.0,-1.0,0.15935951127054,1.0,0.0
31.32400894165039,10.202141761779783,-0.7770479917526245,0.4057800421033974,-0.8599270219403414,0.3096257004309891,0.2287815440410396,3.0,0.0
31.698749542236328,10.216211318969728,-0.8730307817459106,-0.0,-0.0,-1.0,0.2098505350523471,1.0,0.0
30.648757934570312,10.419941902160645,-0.8904768228530884,0.737081647297381,0.0419249465716115,-0.6745019970855141,0.2135975640347869,5.0,0.0
30.75331115722656,10.463895797729492,-0.9241560697555542,-0.0,-0.0,-1.0,0.1077461164623671,1.0,0.0
31.35037422180176,10.333755493164062,-0.7921849489212036,-0.0,-0.0,-1.0,0.1995031483901665,2.0,0.0
31.69005584716797,10.526599884033203,-0.8917659521102905,0.8519137276099218,0.0357295534221394,0.5224618643710013,0.2257321115069538,8.0,0.0
32.506866455078125,8.659744262695312,-0.7389487028121948,0.028280040573927,-0.9915038447702322,-0.1269659998227243,0.2261097044677905,4.0,0.0
32.692176818847656,8.713971138000488,-0.7885926961898804,0.7118047635063196,0.2436728086380231,-0.6587545377302305,0.1947737766097255,4.0,0.0
32.543521881103516,9.509773254394531,-0.7791355848312378,-0.4382595280258124,-0.8938155353869855,-0.0949861821291325,0.2030275521665089,9.0,0.0
31.784320831298828,10.511985778808594,-0.6465318202972412,0.7606473268170142,0.2781799950683365,-0.5865420143092144,0.1793248153063954,10.0,0.0
30.23068046569824,9.393396377563477,-0.7744525671005249,-0.3832678672459177,0.6970871894732645,-0.6059498264782571,0.1174833029501798,3.0,0.0
30.30731201171875,9.528972625732422,-0.7601479291915894,-0.5976796627379253,0.0427825825116293,-0.8005927000560993,0.1470505394699295,3.0,0.0
30.3061466217041,8.897727012634277,-0.5988365411758423,-0.0,-0.0,-1.0,0.1489295013252554,2.0,0.0
30.499420166015625,8.714570045471191,-0.6806783676147461,-0.0,-0.0,-1.0,0.1575736340722294,1.0,0.0
30.426738739013672,9.466161727905272,-0.7253241539001465,-0.0,-0.0,-1.0,0.0844351307292602,2.0,0.0
30.751222610473633,9.842039108276367,-0.6599581241607666,-0.0,-0.0,-1.0,0.1180316245172394,2.0,0.0
30.40643882751465,9.893604278564451,-0.6832218170166016,-0.0,-0.0,-1.0,0.1555680479418253,1.0,0.0
30.60267448425293,9.882461547851562,-0.6470779180526733,0.7676313102110056,0.6280492379676398,-0.1276570651080531,0.1330657331241886,5.0,0.0
30.36877822875977,8.915700912475586,-0.7992202043533325,-0.0,-0.0,-1.0,0.1882026036010842,2.0,0.0
30.55717086791992,10.218936920166016,-0.9463337659835817,-0.0,-0.0,-1.0,0.2625393209102837,2.0,0.0
30.665788650512695,9.39102840423584,-0.8068739175796509,0.1446578030298304,0.8407953894450947,-0.5216677420642897,0.1872489410617472,3.0,0.0
30.576152801513672,9.140569686889648,-0.7892290353775024,0.3142879616767797,-0.9438587457820984,-0.1017533545181637,0.1636040008503843,3.0,0.0
30.81694793701172,9.804102897644045,-0.8391886949539185,-0.0,-0.0,-1.0,0.2035001697377797,1.0,0.0
30.33382797241211,8.838410377502441,-0.6282674074172974,-0.0,-0.0,-1.0,0.2469163198982261,2.0,0.0
30.7857723236084,9.264873504638672,-0.7676092386245728,-0.0,-0.0,-1.0,0.1269626817446751,2.0,0.0
30.551971435546875,9.02919578552246,-0.779159426689148,-0.1459868561188073,0.8455846462245515,-0.5134923990769936,0.177602041997609,6.0,0.0
30.558372497558594,8.623120307922363,-0.727383017539978,-0.0,-0.0,-1.0,0.2251956458651952,1.0,0.0
30.866907119750977,9.394972801208496,-0.7711278200149536,-0.0,-0.0,-1.0,0.1116806018262342,2.0,0.0
30.352306365966797,8.889398574829102,-1.0683772563934326,0.2926903489279457,-0.0933123181206058,-0.9516434053422508,0.1543737964262876,4.0,0.0
30.78796768188477,8.838525772094727,-0.9859020709991456,-0.0,-0.0,-1.0,0.2118395101524708,2.0,0.0
30.902448654174805,8.687593460083008,-0.940782070159912,-0.0,-0.0,-1.0,0.15604250182861,1.0,0.0
30.942790985107425,9.04263973236084,-0.9952945709228516,-0.0,-0.0,-1.0,0.0715124009302804,1.0,0.0
31.202184677124023,8.584400177001953,-0.8728775978088379,-0.0,-0.0,-1.0,0.201897627204615,2.0,0.0
30.762008666992188,8.672308921813965,-1.089498519897461,-0.0,-0.0,-1.0,0.1177077269696459,1.0,0.0
30.22469711303711,10.407669067382812,-0.9107418060302734,-0.0,-0.0,-1.0,0.1458557522649185,1.0,0.0
30.710750579833984,10.49010181427002,-0.882216215133667,-0.0,-0.0,-1.0,0.1621999333319805,1.0,0.0
30.534997940063477,9.643362998962402,-0.7845304012298584,-0.0,-0.0,-1.0,0.0814816510124389,2.0,0.0
31.191303253173828,10.192132949829102,-0.8041584491729736,-0.0,-0.0,-1.0,0.2088827490312124,2.0,0.0
30.874725341796875,9.536566734313965,-0.7418458461761475,-0.1899366501188667,0.8743102777490896,-0.446660505489273,0.1598076172223398,3.0,0.0
31.31141471862793,10.066861152648926,-0.7777731418609619,-0.0,-0.0,-1.0,0.231818222506853,1.0,0.0
31.3884220123291,8.989957809448242,-1.0709333419799805,-0.0,-0.0,-1.0,0.0779475497128539,2.0,0.0
31.25783920288086,8.812917709350586,-1.056626319885254,-0.0,-0.0,-1.0,0.1613550920720486,2.0,0.0
31.836774826049805,9.167819023132324,-1.0540506839752195,-0.0,-0.0,-1.0,0.0864462111455257,1.0,0.0
31.571041107177734,8.982721328735352,-1.0507967472076416,-0.2279782125082231,0.502951673514202,-0.8337059126159652,0.1006612774286756,3.0,0.0
31.480144500732425,8.736963272094727,-1.020787477493286,-0.2331125524856661,0.6854577398062329,-0.6897870865805975,0.1879653985920135,3.0,0.0
32.08977508544922,9.150858879089355,-1.0264816284179688,0.5002311392137343,0.086104381436337,-0.8616001641471501,0.0984851939517692,4.0,0.0
31.955781936645508,9.005804061889648,-1.0155737400054932,-0.0,-0.0,-1.0,0.0693020147750724,1.0,0.0
32.0177116394043,8.317193031311035,-0.8969631195068359,-0.601045552957881,0.3675586085505491,0.7096794435165352,0.1909735436244858,4.0,0.0
32.329158782958984,8.976802825927734,-0.9743895530700684,0.0978606292391151,0.9625236683169858,0.2529258491624326,0.0468714129398947,4.0,0.0
32.27787399291992,8.277042388916016,-0.8637292385101318,-0.0,-0.0,-1.0,0.130394443450413,2.0,0.0
32.18693542480469,8.224170684814453,-0.8644142150878906,0.240584713495684,0.6205698184950135,-0.7463324299568295,0.1769753636680389,3.0,0.0
30.73185920715332,8.79061222076416,-0.6577432155609131,-0.0,-0.0,-1.0,0.1916445620084922,1.0,0.0
31.11549949645996,10.597296714782717,-1.1728612184524536,-0.0,-0.0,-1.0,0.1612874177396586,2.0,0.0
31.638019561767575,10.312493324279783,-1.0883125066757202,-0.0,-0.0,-1.0,0.2428443270964017,2.0,0.0
31.23375701904297,10.239964485168455,-1.1075140237808228,-0.0,-0.0,-1.0,0.1191462231419282,2.0,0.0
31.33993148803711,9.673394203186035,-1.0107876062393188,0.2141730502247538,0.8296824692481518,-0.5155161537524453,0.0841109315643015,4.0,0.0
31.09640312194824,9.356182098388672,-0.9823936223983764,-0.0,-0.0,-1.0,0.2517316964543147,1.0,0.0
31.88878059387207,10.225117683410645,-1.0561641454696655,-0.0,-0.0,-1.0,0.1887564803366391,2.0,0.0
31.675025939941406,9.919648170471191,-1.0231529474258425,-0.0,-0.0,-1.0,0.1125876045611508,1.0,0.0
31.424211502075195,9.658454895019531,-1.001712203025818,-0.0,-0.0,-1.0,0.0411059781425647,2.0,0.0
31.18326187133789,9.27590560913086,-0.9628225564956664,-0.0,-0.0,-1.0,0.1205712936471128,2.0,0.0
31.116138458251953,8.86322021484375,-0.9063748121261596,-0.0,-0.0,-1.0,0.1544245722915721,1.0,0.0
30.969676971435547,8.645758628845215,-0.8873676061630249,-0.0,-0.0,-1.0,0.1314503048562156,1.0,0.0
32.45436477661133,10.198670387268066,-1.0130873918533323,-0.8483406583475225,-0.5028067518828668,-0.1658417850105729,0.2101901908783059,3.0,0.0
32.400814056396484,10.200835227966309,-1.016961693763733,0.547989621938827,-0.7826230090759676,-0.2953110223344522,0.2010771732302159,3.0,0.0
32.01255416870117,9.96535587310791,-1.0054436922073364,-0.0,-0.0,-1.0,0.1087447148025169,1.0,0.0
32.69613265991211,10.314373970031738,-1.0186785459518433,-0.0,-0.0,-1.0,0.104789629003143,1.0,0.0
32.51438522338867,9.548752784729004,-0.9027870893478394,-0.9695601994821532,-0.1392427089616004,0.2014062749299606,0.1354916270261029,3.0,0.0
31.716718673706055,10.441389083862305,-0.6136887073516846,-0.0,-0.0,-1.0,0.2449049318575611,2.0,0.0
31.286943435668945,8.58828353881836,-0.8501249551773071,-0.0586283898719532,0.9027794819503918,-0.4260890973381092,0.2268314042976774,4.0,0.0
32.525211334228516,8.592244148254395,-0.7484263181686401,0.653261895438313,-0.5419548189774956,0.5287096274472525,0.2606903405762126,9.0,0.0
30.481887817382812,8.932182312011719,-1.02897310256958,0.048359369337365,0.1255205294358288,-0.9909116853117848,0.1651531323301534,4.0,0.0
31.745269775390625,10.019750595092772,-1.11832857131958,-0.8136130196971696,0.4494559146733468,-0.3688132792408626,0.1568886669586242,4.0,0.0
31.689258575439453,9.847784042358398,-1.0931203365325928,-0.0,-0.0,-1.0,0.0857330248295695,1.0,0.0
31.21185874938965,9.089385986328123,-1.0005652904510498,-0.0,-0.0,-1.0,0.0917777573227277,1.0,0.0
30.67819023132324,8.729629516601562,-0.982846736907959,-0.0,-0.0,-1.0,0.2399162710766596,2.0,0.0
31.747817993164062,9.402069091796877,-1.0164880752563477,-0.0,-0.0,-1.0,0.0743101149360392,2.0,0.0
31.646713256835938,9.216564178466797,-0.9925551414489746,-0.0,-0.0,-1.0,0.0380564871663924,1.0,0.0
31.34505271911621,8.925445556640625,-0.965590000152588,-0.0,-0.0,-1.0,0.1445062043043147,1.0,0.0
31.9930419921875,9.189966201782228,-0.9670648574829102,0.2040412875616261,-0.5285113447496335,-0.8240406006023784,0.1265891650406418,5.0,0.0
31.95720672607422,9.161632537841797,-0.964536190032959,-0.0,-0.0,-1.0,0.0961053813778293,2.0,0.0
31.45677947998047,8.528654098510742,-0.8947532176971436,0.1888070268653885,0.9532024545234008,0.2361291750225211,0.1994199126993819,3.0,0.0
32.64111328125,9.59724235534668,-1.0001862049102783,-0.0,-0.0,-1.0,0.1847118518034276,2.0,0.0
30.54505157470703,9.88266944885254,-0.6617084741592407,0.6155549253470716,-0.5275821376613072,-0.5854478814563144,0.1695286267366601,4.0,0.0
31.219816207885746,10.237390518188477,-0.675520658493042,-0.0,-0.0,-1.0,0.1558781662959681,1.0,0.0
31.201311111450195,10.066545486450195,-0.6538536548614502,-0.0,-0.0,-1.0,0.1637748207654169,2.0,0.0
31.75310516357422,10.490068435668944,-0.6873838901519775,0.5570024864749133,0.016861358182574,-0.8303396441583426,0.1281183294054545,12.0,0.0
32.07366943359375,8.291709899902344,-0.8156976699829102,-0.0,-0.0,-1.0,0.1729601411746179,2.0,0.0
31.969493865966797,8.178213119506836,-0.8041982650756836,-0.0,-0.0,-1.0,0.1661176254184707,2.0,0.0
32.5872802734375,8.627138137817383,-0.8400356769561768,0.7261737467788503,-0.0512285241972656,-0.6855999765152685,0.1415013040436072,4.0,0.0
31.92814826965332,8.237735748291016,-1.04242742061615,-0.0,-0.0,-1.0,0.1360054887389893,2.0,0.0
32.37809753417969,8.375251770019531,-1.035929560661316,-0.0,-0.0,-1.0,0.0568285967721096,1.0,0.0
32.03017807006836,8.207826614379883,-1.03012216091156,-0.0,-0.0,-1.0,0.1734774631326699,2.0,0.0
31.065889358520508,10.13027000427246,-0.9073590040206908,0.5273429821123468,0.7281485382549542,-0.4378459608744043,0.2157928978052079,3.0,0.0
30.833593368530273,10.060606002807615,-0.910397171974182,-0.0,-0.0,-1.0,0.2275123181478885,1.0,0.0
31.843599319458008,10.498449325561523,-0.921756386756897,-0.0,-0.0,-1.0,0.2237963395444507,2.0,0.0
31.68810653686523,10.408906936645508,-0.9159687757492064,-0.0,-0.0,-1.0,0.1593368261436325,1.0,0.0
30.964893341064453,9.785144805908203,-0.8642233610153198,-0.0,-0.0,-1.0,0.0918938442590344,2.0,0.0
30.71898651123047,9.319969177246094,-0.8136640787124634,-0.0,-0.0,-1.0,0.1212677280860956,1.0,0.0
30.423887252807617,9.05129051208496,-0.7952524423599243,0.1881898867720524,0.3603481858512841,-0.9136376477961108,0.1649199644349058,3.0,0.0
32.28120803833008,10.239782333374023,-0.8646551370620728,-0.0,-0.0,-1.0,0.1186857697197122,1.0,0.0
31.846059799194336,10.24443817138672,-0.884642481803894,-0.0,-0.0,-1.0,0.2077847940948789,1.0,0.0
30.970849990844727,9.21344757080078,-0.7838541269302368,-0.4846186550093646,0.8503007163006131,0.2052643443844528,0.1293021306610471,3.0,0.0
30.530323028564453,8.970157623291016,-0.7773879766464233,0.7044183213636328,0.5340846886759754,0.467491576233335,0.1963617735727184,3.0,0.0
32.4918212890625,9.49216651916504,-0.7457360029220581,-0.0,-0.0,-1.0,0.1703975874519956,2.0,0.0
31.12006950378418,10.50465488433838,-1.050674319267273,-0.2431963274033442,-0.2177444498399743,-0.945221085726198,0.1876777653588506,4.0,0.0
30.898483276367188,10.446356773376465,-1.0566338300704956,-0.0,-0.0,-1.0,0.1771560698173582,1.0,0.0
31.70375061035156,10.4616060256958,-1.0092211961746216,-0.2141583840618943,0.5767743171153557,-0.7883321467833928,0.1724177747373599,6.0,0.0
31.296974182128903,10.081533432006836,-0.9797438383102416,-0.0,-0.0,-1.0,0.2233676260927877,1.0,0.0
31.12554931640625,9.858026504516602,-0.9593781232833862,-0.0,-0.0,-1.0,0.1572339086854277,1.0,0.0
32.369537353515625,10.23462963104248,-0.9395333528518676,0.5464114912588409,-0.6562219647116562,-0.5203914058189887,0.194491677918791,8.0,0.0
31.089210510253903,9.703752517700195,-0.9402397871017456,-0.0,-0.0,-1.0,0.1024995086628776,2.0,0.0
31.024133682250977,9.34355354309082,-0.8946083784103394,-0.0,-0.0,-1.0,0.1534906082299077,2.0,0.0
31.15425491333008,9.297770500183104,-0.8793662786483765,-0.7048677804910296,0.7088819367928388,0.0254521455772104,0.151026366263059,4.0,0.0
30.672882080078125,8.774435997009277,-0.8419498205184937,0.8701351487193036,-0.3802183646131947,0.3135264234065499,0.1214508004978033,4.0,0.0
32.4793701171875,9.542108535766602,-0.8330634832382202,-0.6731864971045536,-0.6548391923944343,0.3435193913308326,0.1552943430026847,5.0,0.0
32.59647750854492,8.638104438781738,-0.6960138082504272,0.6521359369950802,0.2309677485804197,-0.7220613677487814,0.2172235048045867,4.0,0.0
31.175331115722656,10.59442138671875,-1.121993064880371,0.0313664513032203,-0.972134052265892,0.2323177353491086,0.2434093073614368,3.0,0.0
31.774595260620117,10.288065910339355,-1.0456948280334473,0.93304189860137,0.3577996921345548,0.0375791932160299,0.2220356711860958,3.0,0.0
31.48373794555664,10.39108943939209,-1.0757806301116943,-0.0,-0.0,-1.0,0.1955439695063142,1.0,0.0
31.27477645874023,10.16545295715332,-1.053450345993042,-0.0,-0.0,-1.0,0.1930872786179398,2.0,0.0
32.43852233886719,10.222784996032717,-1.0051593780517578,0.0690935272232471,0.7501151825548676,-0.6576878419102239,0.2119868521439838,4.0,0.0
32.077693939208984,10.052376747131348,-0.9957931041717528,-0.0,-0.0,-1.0,0.1558547403683185,1.0,0.0
31.22344207763672,9.709484100341797,-0.9894638061523438,-0.0,-0.0,-1.0,0.1459063973656995,2.0,0.0
32.50974655151367,9.578397750854492,-0.9046223163604736,-0.5241200931369356,-0.1340764361833063,-0.8410241597186812,0.1215281942489396,3.0,0.0
31.244842529296875,9.41049575805664,-0.9446873664855956,-0.0,-0.0,-1.0,0.098367236576455,1.0,0.0
31.118629455566406,9.294121742248535,-0.9351284503936768,-0.0,-0.0,-1.0,0.2042933442522981,1.0,0.0
30.819604873657227,8.810336112976074,-0.8841617107391357,-0.0,-0.0,-1.0,0.1345629623920511,2.0,0.0
32.56434631347656,8.6206636428833,-0.758110523223877,0.947068829385748,-0.2608941991749343,-0.187069102854476,0.1819235096820804,11.0,0.0
32.53035354614258,8.584590911865234,-0.7543454170227051,0.653261895438313,-0.5419548189774956,0.5287096274472525,0.2661695255572666,9.0,0.0
30.23497200012207,10.19780158996582,-0.5797590017318726,0.8896660588293297,-0.4278914807345976,0.1593837648000622,0.0903617834266318,3.0,0.0
31.877635955810547,10.279181480407717,-1.1686373949050903,-0.0,-0.0,-1.0,0.2256455438876058,1.0,0.0
31.790355682373047,10.30147647857666,-1.1729739904403689,-0.0,-0.0,-1.0,0.2085928551539715,1.0,0.0
31.99034881591797,10.24427890777588,-1.1620880365371704,-0.0,-0.0,-1.0,0.1996043616508582,1.0,0.0
31.967864990234375,10.15358829498291,-1.1462327241897583,-0.0,-0.0,-1.0,0.2295916704657896,2.0,0.0
31.712247848510746,9.983092308044434,-1.1179016828536987,-0.6973773001519746,0.624096738262095,-0.3523750310725158,0.1279812217732523,3.0,0.0
31.305355072021484,9.382073402404783,-1.0184084177017212,-0.8190718229385038,0.2882268071637314,0.4960309027675572,0.0905558433331104,3.0,0.0
32.00927734375,9.204303741455078,-0.9797948598861694,-0.2042203351004698,-0.9006428579503416,-0.3835837550711612,0.1373442995742121,5.0,0.0
31.709232330322266,9.227103233337402,-0.9865578413009644,-0.0,-0.0,-1.0,0.040564232575629,2.0,0.0
31.393617630004883,9.221060752868652,-0.989472270011902,-0.0,-0.0,-1.0,0.0640917987657341,1.0,0.0
32.60495376586914,8.792082786560059,-0.9052354097366332,-0.0,-0.0,-1.0,0.1632085535800684,2.0,0.0
30.844953536987305,8.880660057067871,-0.9419187307357788,-0.0,-0.0,-1.0,0.1653800253303176,2.0,0.0
32.11851119995117,8.235087394714355,-0.8101145029067993,-0.0,-0.0,-1.0,0.1947039420042129,2.0,0.0
31.58444595336914,8.244644165039062,-0.8189467191696167,-0.0,-0.0,-1.0,0.1559741888207634,1.0,0.0
31.792564392089844,10.480073928833008,-0.6782623529434204,0.7092416935124586,0.6742769435863956,-0.2057348379136805,0.1809707208986479,16.0,0.0
30.34964370727539,8.899410247802734,-0.4675233364105224,-0.4123160440466468,-0.8658282610368359,-0.2834376513656086,0.1638236824960838,4.0,0.0
32.61005401611328,8.807108879089355,-0.956944465637207,-0.0,-0.0,-1.0,0.1883145316288957,1.0,0.0
32.23514175415039,8.743370056152344,-0.9775903224945068,0.4793697600080263,0.636103432230265,-0.6046296855883968,0.0556588546639128,3.0,0.0
31.471412658691406,8.949498176574707,-1.0775511264801023,-0.0,-0.0,-1.0,0.1105537058255015,1.0,0.0
32.02294158935547,8.332869529724121,-0.9316608905792236,-0.9608553967812208,0.2763287805704656,-0.0199827802080263,0.195659947160822,3.0,0.0
31.956878662109375,8.315766334533691,-0.9349765777587892,-0.0,-0.0,-1.0,0.2158984561310745,1.0,0.0
30.46918487548828,8.141314506530762,-1.0584077835083008,-0.0,-0.0,-1.0,0.1207346747809271,1.0,0.0
31.9732608795166,10.387852668762209,-0.7392590045928955,-0.0,-0.0,-1.0,0.1510990462504582,1.0,0.0
31.72906494140625,10.53086757659912,-0.7745218276977539,0.7444984843268824,-0.1234710584457547,0.6561073879794831,0.1718087902573159,6.0,0.0
31.28805351257324,10.368534088134766,-0.7878313064575195,-0.0,-0.0,-1.0,0.1979422443538457,2.0,0.0
30.65610122680664,10.446956634521484,-0.8481788635253906,0.8744375800552986,-0.2871814295324123,-0.3910060678797106,0.213597564034787,3.0,0.0
31.169769287109375,10.088536262512209,-0.763160228729248,-0.0,-0.0,-1.0,0.1891181424844234,2.0,0.0
30.625972747802734,10.239089012145996,-0.8258883953094482,-0.0,-0.0,-1.0,0.1020183245515163,1.0,0.0
30.489423751831055,9.648969650268556,-0.7677323818206787,-0.3275453471861902,-0.6717277635772821,-0.6644515461462492,0.0913886766658701,3.0,0.0
30.59941864013672,9.515059471130373,-0.7423040866851807,-0.09963664390098,0.7174033156673297,-0.6894962087362562,0.1713319953547193,3.0,0.0
30.42150497436523,9.554892539978027,-0.7626829147338867,0.8559737621710057,0.1640642648268782,-0.490297700873287,0.1101577278028288,5.0,0.0
32.007423400878906,10.45884895324707,-0.9017317295074464,-0.0,-0.0,-1.0,0.1670445152916257,1.0,0.0
31.691444396972656,10.460518836975098,-0.920642614364624,-0.3292172077321468,0.4421355291933269,-0.834345374505058,0.1606061914317464,5.0,0.0
31.354528427124023,10.104339599609377,-0.8933303356170654,-0.0,-0.0,-1.0,0.1612280574670203,2.0,0.0
32.36029052734375,8.280150413513184,-1.0287222862243652,-0.0,-0.0,-1.0,0.0848155449191147,1.0,0.0
32.509185791015625,8.229304313659668,-1.009653091430664,-0.0,-0.0,-1.0,0.1273550463986528,1.0,0.0
32.213253021240234,8.176068305969238,-1.0217251777648926,-0.0,-0.0,-1.0,0.1104832698338504,2.0,0.0
32.57414627075195,10.276062965393066,-0.8461165428161621,-0.0,-0.0,-1.0,0.141097301892277,1.0,0.0
32.052223205566406,10.298910140991213,-0.8770928382873535,-0.0,-0.0,-1.0,0.2005862738060327,1.0,0.0
32.52527618408203,10.257757186889648,-0.8460161685943604,-0.0,-0.0,-1.0,0.1461126217364381,1.0,0.0
31.1220760345459,9.93850040435791,-0.8866355419158936,-0.0,-0.0,-1.0,0.1957872777757354,2.0,0.0
31.065269470214844,9.949424743652344,-0.8920619487762451,-0.3993515116610328,0.112323717243227,-0.9098910663803178,0.1836263083458106,3.0,0.0
32.65627670288086,9.537823677062988,-0.7388303279876709,-0.0,-0.0,-1.0,0.1845401307723305,2.0,0.0
30.859264373779297,9.132645606994627,-0.7988381385803223,-0.0,-0.0,-1.0,0.1486387473042967,1.0,0.0
32.372127532958984,8.500717163085938,-1.0369399785995483,-0.2303166762260481,-0.5188822834618783,-0.8232347202114186,0.0979006241908194,4.0,0.0
32.14917755126953,8.50408935546875,-1.04979407787323,-0.0,-0.0,-1.0,0.0575381333970233,2.0,0.0
30.65312385559082,8.181652069091797,-1.097617268562317,-0.0,-0.0,-1.0,0.123951985867684,2.0,0.0
32.41724395751953,8.436775207519531,-1.0233854055404663,-0.0,-0.0,-1.0,0.069333861653726,2.0,0.0
32.134944915771484,8.19386100769043,-0.997512698173523,-0.0,-0.0,-1.0,0.1712829214768969,2.0,0.0
31.825685501098633,8.16659164428711,-1.0116461515426636,-0.0,-0.0,-1.0,0.1658552498803498,2.0,0.0
31.84311866760254,10.491498947143556,-0.8729015588760376,0.4607259379437983,-0.8833138799953442,-0.086534383417101,0.2028592769414394,4.0,0.0
31.3758544921875,10.407781600952148,-0.8845545053482056,-0.0,-0.0,-1.0,0.181157909636041,2.0,0.0
31.11119842529297,10.20389175415039,-0.8711138963699341,-0.0,-0.0,-1.0,0.1513954574276278,1.0,0.0
32.36586380004883,10.315839767456056,-0.8254271745681763,-0.0,-0.0,-1.0,0.1140175548376791,1.0,0.0
31.179733276367188,10.141027450561523,-0.8588725328445435,0.2280269295226938,0.3667405345185042,-0.90194517558083,0.2925473152987066,5.0,0.0
30.732542037963867,9.45510482788086,-0.7927688360214233,-0.0,-0.0,-1.0,0.1818452590733235,1.0,0.0
32.59079360961914,9.514459609985352,-0.7054091691970825,0.2722033969694467,-0.9107257062505374,-0.310618735192766,0.1781787631553134,3.0,0.0
30.651464462280273,9.16390609741211,-0.7591198682785034,-0.0,-0.0,-1.0,0.1377276729010493,2.0,0.0
31.789636611938477,9.607420921325684,-1.1004942655563354,-0.0,-0.0,-1.0,0.0508050138251074,1.0,0.0
31.729881286621097,9.119736671447754,-1.0229965448379517,-0.0,-0.0,-1.0,0.0385513158639858,1.0,0.0
31.14577293395996,8.91716194152832,-1.0085514783859253,0.1549688478597541,-0.9879170819138912,-0.0021202489857864,0.1365714211880098,3.0,0.0
31.0196533203125,8.934514045715332,-1.015945553779602,-0.0,-0.0,-1.0,0.0673222826641879,2.0,0.0
32.19273376464844,9.037335395812988,-0.9984525442123412,-0.0,-0.0,-1.0,0.0410194674379299,1.0,0.0
31.60271453857422,9.032200813293455,-1.0123282670974731,0.1140347695259884,0.8756459745031063,-0.4692975587787132,0.0714799430472809,4.0,0.0
32.69566345214844,8.82114315032959,-0.9543567895889282,-0.0,-0.0,-1.0,0.1240691235596152,2.0,0.0
32.36283874511719,8.821419715881348,-0.9598215818405152,-0.0,-0.0,-1.0,0.0605554662526314,1.0,0.0
32.14480972290039,8.235188484191895,-0.8688324689865112,0.3561569095627035,0.7752976627729662,-0.5215992617609044,0.1720795505790579,6.0,0.0
31.751529693603516,10.450325012207031,-0.6983599662780762,-0.2986433603794944,-0.2039140515069326,-0.932325695719726,0.1529585724047694,8.0,0.0
30.64519500732422,9.966184616088867,-0.6635714769363403,-0.0,-0.0,-1.0,0.1231371215263165,2.0,0.0
30.366392135620117,9.798368453979492,-0.6514737606048584,-0.0,-0.0,-1.0,0.1347024277133137,1.0,0.0
31.81127166748047,10.41207790374756,-0.6924383640289307,0.9699206653477056,0.1408881843219339,-0.1985054720906524,0.1865801612857162,7.0,0.0
31.480573654174805,10.199910163879396,-0.6717466115951538,-0.0,-0.0,-1.0,0.1397060744257099,2.0,0.0
30.879962921142575,9.852145195007324,-0.6425114870071411,-0.0,-0.0,-1.0,0.1646277361390349,2.0,0.0
30.36385154724121,8.910951614379883,-0.5417754650115967,-0.0,-0.0,-1.0,0.2267610483876516,1.0,0.0
31.785573959350582,10.565428733825684,-1.0926884412765503,-0.0,-0.0,-1.0,0.1688712817515588,1.0,0.0
32.146095275878906,10.1403169631958,-1.0356696844100952,-0.0,-0.0,-1.0,0.17374910985668,2.0,0.0
31.89906883239746,9.993492126464844,-1.0076152086257937,-0.0,-0.0,-1.0,0.1529863228177336,1.0,0.0
31.308000564575195,9.72537899017334,-0.9567872285842896,-0.0,-0.0,-1.0,0.0899749666548182,1.0,0.0
30.757349014282227,9.041604042053224,-0.8487304449081421,-0.7028042384815371,0.1543472458888117,-0.6944372758276486,0.1648842537367865,3.0,0.0
31.253150939941406,8.460840225219727,-0.7646199464797974,-0.0,-0.0,-1.0,0.0909017719789221,1.0,0.0
30.368453979492188,9.051631927490234,-0.8964916467666626,-0.9477889182649332,-0.020544341413618,-0.3182359131997325,0.116950850240393,4.0,0.0
30.359813690185547,8.340848922729492,-0.7772434949874878,-0.0,-0.0,-1.0,0.1848699318908834,2.0,0.0
31.70406723022461,9.059837341308594,-1.0410765409469604,-0.0,-0.0,-1.0,0.0420784549214407,1.0,0.0
31.710094451904297,8.959386825561523,-1.0249170064926147,-0.0,-0.0,-1.0,0.0527484222495749,1.0,0.0
32.37589645385742,8.508649826049805,-1.024746060371399,-0.2303166762260481,-0.5188822834618783,-0.8232347202114186,0.1087938342361365,4.0,0.0
31.913957595825195,8.172225952148438,-0.9158381223678588,-0.0,-0.0,-1.0,0.1086001372645659,2.0,0.0
32.61684036254883,8.447212219238281,-1.04231059551239,0.0877261783612576,0.747464447155375,-0.6584838782148266,0.1119820926626594,3.0,0.0
31.761972427368164,10.498044967651367,-0.7004042863845825,0.7450839234308361,0.0106619494791045,-0.6668854998260323,0.1255471582497997,13.0,0.0
31.62397193908691,10.420110702514648,-0.6745294332504272,0.5830808458500986,-0.4823001058567867,-0.6537609158501797,0.1974928546421515,3.0,0.0
31.973861694335938,10.201404571533203,-0.6854201555252075,-0.0,-0.0,-1.0,0.1892035499256649,1.0,0.0
31.612348556518555,10.549446105957031,-1.0586905479431152,-0.2897966239433013,-0.402771933618809,-0.8682123508912035,0.1555310164070981,4.0,0.0
31.76999282836914,10.29684066772461,-1.0149688720703125,0.93304189860137,0.3577996921345548,0.0375791932160299,0.2334047526877784,3.0,0.0
32.22894287109375,10.220186233520508,-0.979250431060791,-0.0,-0.0,-1.0,0.0712168360811806,1.0,0.0
31.95280647277832,10.136516571044922,-0.9826653003692628,-0.0,-0.0,-1.0,0.1876690082013231,1.0,0.0
30.321176528930664,9.12698459625244,-0.9547221660614014,-0.0,-0.0,-1.0,0.1730308919372096,2.0,0.0
32.52802658081055,10.138368606567385,-0.9524924755096436,-0.0,-0.0,-1.0,0.1861513841841019,2.0,0.0
30.48162841796875,8.93591594696045,-0.9167499542236328,0.9211986686000913,-0.0667642629529972,-0.3833217267019469,0.2195800938205081,3.0,0.0
30.370433807373047,8.441450119018555,-0.858856201171875,-0.0,-0.0,-1.0,0.1480452822635693,2.0,0.0
32.530548095703125,8.584863662719727,-0.7404985427856445,0.0729163596427952,-0.702600006977619,0.7078392717923272,0.2606903405762126,8.0,0.0
31.30091094970703,8.230182647705078,-0.7631916999816895,-0.0,-0.0,-1.0,0.2120700844375902,1.0,0.0
30.365413665771484,8.139944076538086,-0.8188025951385498,-0.0,-0.0,-1.0,0.1224746379471545,1.0,0.0
32.19038009643555,8.203433990478516,-0.7060877084732056,-0.0,-0.0,-1.0,0.1735324413555531,1.0,0.0
30.4705810546875,8.69594669342041,-1.148499846458435,-0.0,-0.0,-1.0,0.0582179533265834,1.0,0.0
30.32546043395996,8.831381797790527,-1.1518760919570925,-0.0,-0.0,-1.0,0.1028735456960877,2.0,0.0
31.79241943359375,10.388184547424316,-1.0372930765151978,0.4424412729016141,0.1348181240901637,-0.8866057711576262,0.2186740489066516,3.0,0.0
31.705272674560547,10.390894889831545,-1.0242563486099243,0.6149455918469825,0.2164637050004037,-0.7582779064996306,0.1870687323396515,5.0,0.0
32.390838623046875,10.186774253845217,-1.1026183366775513,-0.0,-0.0,-1.0,0.2100527400392173,1.0,0.0
30.437801361083984,8.844831466674805,-0.6183741092681885,0.3808475838474052,-0.9189694726321878,0.1022263481090491,0.2437836041094923,5.0,0.0
32.69479751586914,8.848221778869629,-0.963126540184021,-0.0,-0.0,-1.0,0.0923944263479743,2.0,0.0
32.57291793823242,8.60923957824707,-0.9098571538925172,-0.0,-0.0,-1.0,0.1621421015156848,1.0,0.0
30.94829559326172,8.462852478027344,-1.189263939857483,-0.0,-0.0,-1.0,0.0432977483565552,1.0,0.0
30.774612426757812,8.377037048339844,-1.167363524436951,-0.0,-0.0,-1.0,0.0618914409423406,2.0,0.0
30.729406356811523,8.231401443481445,-1.142062783241272,-0.0,-0.0,-1.0,0.1077095942691022,2.0,0.0
32.18956756591797,10.570823669433594,-0.9931153059005736,-0.0,-0.0,-1.0,0.1212124662954363,1.0,0.0
30.44683265686035,9.762475967407228,-0.8065606355667114,-0.0,-0.0,-1.0,0.191978503618045,2.0,0.0
30.90312957763672,9.517251968383787,-0.7979768514633179,-0.4764837650997194,0.7297939172131376,-0.4902693749308633,0.1835768615231014,3.0,0.0
30.56921768188477,9.558168411254885,-0.7870699167251587,-0.0,-0.0,-1.0,0.1359194324753383,2.0,0.0
30.214433670043945,9.568761825561523,-0.7718333005905151,-0.0,-0.0,-1.0,0.1322450718443751,2.0,0.0
30.321826934814453,9.142534255981444,-0.7241441011428833,-0.0,-0.0,-1.0,0.1138744105532816,1.0,0.0
31.413864135742188,8.756711959838867,-0.7290611267089844,-0.0,-0.0,-1.0,0.219443877299937,1.0,0.0
31.563045501708984,8.356880187988281,-0.6871391534805298,-0.0,-0.0,-1.0,0.1637424972245421,1.0,0.0
30.69215965270996,8.675708770751953,-0.6838289499282837,-0.0,-0.0,-1.0,0.1754476673391031,2.0,0.0
30.810863494873047,8.238468170166016,-0.6354464292526245,-0.0,-0.0,-1.0,0.1472216068660219,1.0,0.0
32.65751647949219,9.533016204833984,-1.06034517288208,-0.0,-0.0,-1.0,0.1720420670091434,1.0,0.0
31.1793212890625,9.65729522705078,-1.065585374832153,-0.0,-0.0,-1.0,0.1194625616628027,1.0,0.0
30.738561630249023,9.681203842163086,-1.068566083908081,-0.0,-0.0,-1.0,0.2467296805760922,1.0,0.0
30.68090057373047,9.71601104736328,-1.073505163192749,-0.0,-0.0,-1.0,0.1389092554885922,1.0,0.0
31.511863708496097,9.199462890625,-1.0026347637176514,-0.0,-0.0,-1.0,0.082837866443255,1.0,0.0
31.66669273376465,8.857053756713867,-0.9554789066314696,-0.0,-0.0,-1.0,0.1056602603023497,1.0,0.0
30.86965560913086,8.144573211669922,-0.3430051803588867,-0.0,-0.0,-1.0,0.0662461418571086,1.0,0.0
30.46534538269043,10.404411315917969,-1.3162766695022583,-0.0,-0.0,-1.0,0.1134509981585514,1.0,0.0
31.26811981201172,9.129066467285156,-1.1038073301315308,-0.0,-0.0,-1.0,0.0654961178199657,1.0,0.0
31.01740264892578,9.355802536010742,-1.1440259218215942,-0.0,-0.0,-1.0,0.1914932930998362,1.0,0.0
30.792604446411133,9.563249588012695,-1.1810141801834106,-0.0,-0.0,-1.0,0.1165957506496194,1.0,0.0
30.4312744140625,9.58171272277832,-1.1941510438919067,-0.0,-0.0,-1.0,0.1560589176969639,1.0,0.0
32.62284851074219,10.542562484741213,-0.6941982507705688,-0.0,-0.0,-1.0,0.0984866762827826,1.0,0.0
31.044851303100582,10.285486221313477,-0.6963438987731934,-0.0,-0.0,-1.0,0.1451167655273109,1.0,0.0
32.682411193847656,8.564081192016602,-1.0589290857315063,-0.0,-0.0,-1.0,0.1407878430323158,1.0,0.0
32.51770782470703,8.631107330322266,-1.078403353691101,-0.0,-0.0,-1.0,0.06177556425185,1.0,0.0
32.43854904174805,8.618688583374023,-1.0803004503250122,-0.0,-0.0,-1.0,0.0556090519826449,1.0,0.0
31.97633171081543,8.211235046386719,-1.0355552434921265,-0.0,-0.0,-1.0,0.1876716532624155,2.0,0.0
31.610841751098633,8.834785461425781,-1.1621543169021606,-0.0,-0.0,-1.0,0.0962442306483804,1.0,0.0
31.376482009887695,8.210416793823242,-1.0697487592697144,-0.0,-0.0,-1.0,0.1697637973374551,2.0,0.0
30.26695251464844,8.52440071105957,-1.195306658744812,-0.0,-0.0,-1.0,0.0891359270769888,1.0,0.0
31.88384246826172,10.513191223144531,-0.8600624799728394,-0.0,-0.0,-1.0,0.2292166744367409,2.0,0.0
31.74352645874023,10.490589141845703,-0.8653677701950073,0.3862455100435233,0.2169497669858628,-0.8965194948109035,0.2128754334713805,6.0,0.0
31.6387882232666,10.605794906616213,-0.8871592283248901,-0.0,-0.0,-1.0,0.1661141043725759,2.0,0.0
30.68287467956543,9.472738265991213,-0.7950085401535034,-0.8379480196169073,0.3632296622667006,-0.4073172337008608,0.2055980407673082,4.0,0.0
30.26154136657715,8.917078018188477,-0.7485126256942749,-0.0,-0.0,-1.0,0.2368635479020218,2.0,0.0
30.438417434692383,8.351249694824219,-0.6603158712387085,-0.0,-0.0,-1.0,0.1118642665667983,1.0,0.0
32.47670364379883,10.09127140045166,-1.1202691793441772,-0.0,-0.0,-1.0,0.1865510736682599,2.0,0.0
32.41621780395508,9.620317459106444,-1.043547749519348,-0.0,-0.0,-1.0,0.1793820371465051,1.0,0.0
32.12312316894531,9.986376762390137,-1.1072179079055786,-0.0,-0.0,-1.0,0.1540643798093287,1.0,0.0
32.54644775390625,9.068769454956056,-0.9519745111465454,-0.1114002716218979,0.9603995928242308,0.2553871601815933,0.118235378325844,3.0,0.0
31.99455451965332,9.197810173034668,-0.9787873029708862,-0.2042203351004698,-0.9006428579503416,-0.3835837550711612,0.1438646773893161,5.0,0.0
31.77193260192871,9.331480979919434,-1.0041295289993286,-0.0118366643162934,-0.6248030215820639,-0.7806926908840549,0.0732105454779947,3.0,0.0
32.01959228515625,8.210044860839844,-0.8157790899276733,-0.2626602850083841,0.5880757953645297,-0.7649682565869577,0.2438595566577472,3.0,0.0
30.667734146118164,8.916338920593262,-0.9595142602920532,-0.0,-0.0,-1.0,0.1851701063129734,2.0,0.0
30.43670082092285,9.052996635437012,-0.9891599416732788,0.1195385491498259,0.5916347873673211,-0.7972946843194051,0.1666735667557329,5.0,0.0
30.57823181152344,8.217693328857422,-0.8457022905349731,-0.0,-0.0,-1.0,0.1792478241855262,1.0,0.0
30.40709114074707,8.40353012084961,-0.8817631006240845,-0.0,-0.0,-1.0,0.1821858523781583,2.0,0.0
30.61333465576172,9.882943153381348,-0.60389244556427,0.6423784903914993,0.7479911871015178,-0.1669103325165951,0.1385013181211138,3.0,0.0
30.36908912658691,8.892995834350586,-0.4820009469985962,-0.46401621106196,-0.8509162156044493,-0.2462327149123459,0.1607921954943932,3.0,0.0
32.403221130371094,9.97269344329834,-1.102322340011597,-0.0,-0.0,-1.0,0.1172565485816506,1.0,0.0
32.36582565307617,9.439477920532228,-1.018007516860962,-0.0,-0.0,-1.0,0.0639974616717034,1.0,0.0
32.26758575439453,9.644416809082031,-1.0470612049102783,-0.0,-0.0,-1.0,0.0839641698012645,2.0,0.0
31.06446647644043,9.585426330566406,-1.0067598819732666,-0.0,-0.0,-1.0,0.071485445757561,1.0,0.0
