x,y,z,nx,ny,nz,curvature,density,label
23.814172744750977,-32.57991409301758,1.527601718902588,-0.8318647957148076,-0.0058117255062255,0.5549479124179144,0.1938577670324522,3.0,2.0
24.07940673828125,-32.81358337402344,1.5257762670516968,-0.0,-0.0,-1.0,0.2120055048337567,1.0,2.0
24.241695404052734,-33.092315673828125,1.5168588161468506,-0.0,-0.0,-1.0,0.0770952748285918,1.0,2.0
24.552932739257812,-33.5074462890625,1.5053017139434814,-0.0,-0.0,-1.0,0.0992059985104798,2.0,2.0
23.923442840576172,-31.893611907958984,1.5689129829406738,-0.0,-0.0,-1.0,0.1728449619351933,2.0,2.0
24.88467025756836,-33.24115753173828,1.5327866077423096,-0.0,-0.0,-1.0,0.0462145731078587,1.0,2.0
25.133071899414062,-33.38266372680664,1.5334521532058716,-0.0,-0.0,-1.0,0.0188691637914887,1.0,2.0
23.19647979736328,-33.27232360839844,2.0754213333129883,-0.0,-0.0,-1.0,0.1335679252294502,1.0,3.0
23.59756088256836,-33.64638137817383,2.074310541152954,-0.0,-0.0,-1.0,0.1860092168859474,1.0,3.0
22.954097747802734,-34.312156677246094,1.649030685424805,-0.0,-0.0,-1.0,0.1643064581552779,1.0,2.0
22.94204330444336,-33.222930908203125,1.6990495920181274,-0.0,-0.0,-1.0,0.1612828507587227,2.0,2.0
23.164817810058594,-33.41992950439453,1.6972514390945437,-0.0,-0.0,-1.0,0.1416825336528863,2.0,2.0
23.263246536254883,-33.85151290893555,1.680146336555481,-0.0,-0.0,-1.0,0.1401716628497521,1.0,2.0
22.945232391357425,-32.5550537109375,1.728821039199829,-0.0,-0.0,-1.0,0.1935312665868297,2.0,2.0
23.773197174072266,-33.644798278808594,1.7051894664764404,-0.0,-0.0,-1.0,0.2006356496492423,1.0,2.0
23.517147064208984,-32.356101989746094,1.756988525390625,-0.0,-0.0,-1.0,0.1574855857106587,2.0,2.0
23.608341217041016,-33.00847625732422,1.730269432067871,-0.0,-0.0,-1.0,0.1755151342131201,2.0,2.0
23.943763732910156,-33.557064056396484,1.7143681049346924,-0.8981316815859793,0.4335297628133954,0.073562404028843,0.2700127225602623,3.0,2.0
23.78741455078125,-32.270503997802734,1.7697787284851074,-0.0,-0.0,-1.0,0.166250685563377,2.0,2.0
23.92498016357422,-32.75060272216797,1.752140760421753,-0.6516529531826932,-0.2789981842712203,-0.7053427831782481,0.2301044442225204,3.0,2.0
24.621883392333984,-34.05554962158203,1.7079737186431885,-0.0,-0.0,-1.0,0.0430853872068421,2.0,2.0
24.025848388671875,-32.12516403198242,1.3488072156906128,-0.0,-0.0,-1.0,0.0972865568617562,1.0,2.0
24.638750076293945,-32.18517303466797,1.3940088748931885,-0.0,-0.0,-1.0,0.1203349186413379,1.0,2.0
24.77111434936523,-32.142757415771484,1.406256079673767,-0.0,-0.0,-1.0,0.0804545354872228,1.0,2.0
22.815988540649418,-33.318946838378906,1.786347508430481,-0.0,-0.0,-1.0,0.118116759697579,1.0,2.0
22.734771728515625,-33.9373664855957,1.7690718173980713,-0.0,-0.0,-1.0,0.1387818780364548,1.0,2.0
23.043195724487305,-33.33033752441406,1.798722743988037,-0.0,-0.0,-1.0,0.1639173889315822,1.0,2.0
23.108116149902344,-33.518646240234375,1.7983582019805908,-0.0,-0.0,-1.0,0.1604801450361043,2.0,2.0
23.12148094177246,-33.911964416503906,1.7907148599624634,-0.0,-0.0,-1.0,0.1604145968226801,1.0,2.0
23.541614532470703,-33.63966751098633,1.8193581104278564,-0.0,-0.0,-1.0,0.1984509919481119,1.0,2.0
23.14808654785156,-31.953136444091797,1.3687355518341064,-0.0,-0.0,-1.0,0.1302367648266676,2.0,2.0
23.245800018310547,-32.41981506347656,1.3581199645996094,-0.0,-0.0,-1.0,0.1320096796026264,1.0,2.0
23.62677001953125,-32.492610931396484,1.3853355646133425,-0.0,-0.0,-1.0,0.1749793358596741,1.0,2.0
23.953540802001953,-32.61061477661133,1.4058425426483154,-0.0,-0.0,-1.0,0.1738902071105345,1.0,2.0
24.01697158813477,-32.740440368652344,1.405101299285889,-0.0,-0.0,-1.0,0.1906154362316311,2.0,2.0
24.154361724853516,-32.82276916503906,1.4120007753372192,-0.0,-0.0,-1.0,0.1648363048114385,1.0,2.0
22.844818115234375,-34.1346435546875,1.8521623611450195,-0.0,-0.0,-1.0,0.1652740774864814,1.0,2.0
22.967697143554688,-33.228607177734375,1.8743550777435305,-0.0,-0.0,-1.0,0.1340145941941293,2.0,2.0
23.00397491455078,-33.52404022216797,1.871304988861084,-0.0,-0.0,-1.0,0.1768791446692025,2.0,2.0
22.98720932006836,-33.93321990966797,1.8632733821868896,-0.0,-0.0,-1.0,0.2077995756024631,1.0,2.0
22.857006072998047,-32.010162353515625,1.3651347160339355,-0.2528435856705667,0.0760995467582628,-0.964509709732586,0.1976699355936411,4.0,2.0
23.12744140625,-31.97555923461914,1.3896679878234863,-0.6038685763072853,0.7649963847673606,0.2238822767471344,0.1302367648266677,3.0,2.0
23.12950897216797,-32.55526351928711,1.3700121641159058,0.6094642129344334,0.7743754208757607,-0.1699884722435608,0.108123207945785,3.0,2.0
23.568191528320312,-32.45610046386719,1.4104089736938477,-0.0,-0.0,-1.0,0.1653633463995158,2.0,2.0
23.76797866821289,-32.582725524902344,1.4223288297653198,-0.0,-0.0,-1.0,0.1652976186974119,1.0,2.0
24.03055953979492,-32.795806884765625,1.4358174800872805,-0.0,-0.0,-1.0,0.2134336048461702,1.0,2.0
24.093494415283203,-33.1796989440918,1.4259318113327026,-0.0,-0.0,-1.0,0.07575111408779,1.0,2.0
24.953298568725582,-33.05491256713867,1.4985560178756714,-0.0,-0.0,-1.0,0.0584072265580908,1.0,2.0
22.97821807861328,-33.209022521972656,1.8912358283996584,-0.0,-0.0,-1.0,0.1254285126938219,2.0,2.0
22.752857208251953,-33.636878967285156,1.873070240020752,-0.0,-0.0,-1.0,0.1488352730831059,2.0,2.0
22.93475341796875,-33.57094955444336,1.8844096660614016,-0.0,-0.0,-1.0,0.2014020104131765,2.0,2.0
23.00134658813477,-33.99906539916992,1.882878065109253,-0.0,-0.0,-1.0,0.1554016580544038,1.0,2.0
23.3544921875,-33.451202392578125,1.9100719690322876,-0.0,-0.0,-1.0,0.1201570832357324,1.0,2.0
24.79608917236328,-31.91791534423828,1.37372088432312,-0.0,-0.0,-1.0,0.0494506888199985,2.0,2.0
24.90289306640625,-31.97000503540039,1.380037546157837,-0.0,-0.0,-1.0,0.049050176263422,2.0,2.0
23.735614776611328,-32.19123077392578,1.766834378242493,-0.0,-0.0,-1.0,0.1292902121176827,2.0,2.0
23.31647491455078,-32.81840133666992,1.7246289253234863,-0.0,-0.0,-1.0,0.1615192023447369,2.0,2.0
22.798019409179688,-33.41231155395508,1.6769390106201172,-0.0,-0.0,-1.0,0.1689487623089376,2.0,2.0
23.917158126831055,-32.29041290283203,1.7757729291915894,-0.0,-0.0,-1.0,0.1827547653355806,2.0,2.0
23.90355110168457,-32.801109313964844,1.761530876159668,-0.6703321799839164,0.7420609178689742,0.0006022038412167,0.200410579027514,4.0,2.0
23.618070602416992,-32.87945556640625,1.7418627738952637,-0.0,-0.0,-1.0,0.1765011840796418,2.0,2.0
23.269622802734375,-33.39086151123047,1.7067792415618896,-0.0,-0.0,-1.0,0.1647571284891266,1.0,2.0
23.22553253173828,-33.791236877441406,1.6931627988815308,-0.0,-0.0,-1.0,0.124211216130146,2.0,2.0
23.22539520263672,-33.91078567504883,1.6898196935653689,-0.0,-0.0,-1.0,0.1972456692792024,1.0,2.0
24.029783248901367,-32.77769470214844,1.7698709964752195,-0.0,-0.0,-1.0,0.1991490939376721,1.0,2.0
23.54422378540039,-33.642486572265625,1.716503381729126,-0.0,-0.0,-1.0,0.1665126529816092,2.0,2.0
23.94760513305664,-31.871015548706055,1.3556393384933472,-0.0,-0.0,-1.0,0.1061325336306712,1.0,2.0
24.42720603942871,-32.0900764465332,1.3756901025772097,-0.0,-0.0,-1.0,0.1035518520754298,2.0,2.0
24.262304306030273,-32.12693786621094,1.3614780902862549,-0.0,-0.0,-1.0,0.1363875439721868,1.0,2.0
23.05904006958008,-32.47858428955078,1.7593333721160889,-0.0,-0.0,-1.0,0.2001096412829069,1.0,2.0
23.718551635742188,-32.19213104248047,1.8031322956085205,-0.0,-0.0,-1.0,0.1262695606986507,2.0,2.0
22.759090423583984,-33.274864196777344,1.7122268676757812,-0.65775057848706,0.5709599847366029,-0.4912930615523858,0.2030577890407023,4.0,2.0
23.90926742553711,-32.34494400024414,1.805845856666565,-0.0,-0.0,-1.0,0.1738237850075197,2.0,2.0
23.776371002197266,-32.82989501953125,1.778848648071289,-0.0,-0.0,-1.0,0.1767681917443787,1.0,2.0
23.575580596923828,-32.96784210205078,1.7636501789093018,-0.0,-0.0,-1.0,0.2045111175634742,1.0,2.0
23.160533905029297,-33.47422409057617,1.72259259223938,-0.0,-0.0,-1.0,0.1357190895786992,1.0,2.0
23.15507125854492,-33.71105194091797,1.7119996547698977,-0.0,-0.0,-1.0,0.1715043786555972,1.0,2.0
24.783851623535156,-32.04497528076172,1.4037238359451294,-0.0,-0.0,-1.0,0.097968714512257,2.0,2.0
23.511905670166016,-33.635986328125,1.7313673496246338,-0.0,-0.0,-1.0,0.2511351962140949,2.0,2.0
23.16581344604492,-33.98992919921875,1.7000854015350342,-0.0,-0.0,-1.0,0.1495474867481224,1.0,2.0
23.979835510253903,-32.34172439575195,1.8093011379241943,-0.0,-0.0,-1.0,0.1693402615442414,1.0,2.0
23.07181167602539,-34.108428955078125,2.2377429008483887,-0.0,-0.0,-1.0,0.1804303910083519,1.0,3.0
24.485279083251953,-32.009437561035156,1.3504408597946167,-0.0,-0.0,-1.0,0.0957641611953933,1.0,2.0
24.88646697998047,-31.98562240600586,1.3778855800628662,-0.0,-0.0,-1.0,0.0521827580731463,2.0,2.0
24.728984832763672,-32.013038635253906,1.3656492233276367,-0.0,-0.0,-1.0,0.0745286446796987,2.0,2.0
23.323070526123047,-33.343788146972656,1.6652318239212036,-0.0,-0.0,-1.0,0.1671855576409261,1.0,2.0
23.123445510864254,-33.408843994140625,1.6534134149551392,-0.0,-0.0,-1.0,0.1964161400841565,1.0,2.0
22.759700775146484,-33.382423400878906,1.64008629322052,-0.0,-0.0,-1.0,0.1403643366939825,1.0,2.0
23.242630004882812,-33.798728942871094,1.6350172758102417,-0.0,-0.0,-1.0,0.1165998107795422,2.0,2.0
23.17376708984375,-33.87392807006836,1.6278637647628784,-0.0,-0.0,-1.0,0.146824103270251,1.0,2.0
24.01443862915039,-33.59928894042969,1.676258563995361,-0.9903005465071784,-0.0926354527762527,0.1035543358653912,0.1592935986604856,3.0,2.0
23.916099548339844,-33.71607208251953,1.6654188632965088,-0.0,-0.0,-1.0,0.2031182699937331,2.0,2.0
23.130367279052734,-34.19402313232422,1.606898546218872,-0.0,-0.0,-1.0,0.1354743865784985,1.0,2.0
24.445537567138672,-33.83940505981445,1.67650043964386,0.6783248213556146,-0.4896477792740623,-0.5478325373550322,0.0753054202824535,4.0,2.0
24.66718292236328,-34.16773223876953,1.6627321243286133,-0.0,-0.0,-1.0,0.0580833688599894,1.0,2.0
23.05269241333008,-31.990558624267575,1.7300896644592283,-0.0,-0.0,-1.0,0.1493259662498489,2.0,2.0
23.842525482177734,-32.31034469604492,1.7463786602020264,-0.0,-0.0,-1.0,0.1844965690015769,1.0,2.0
23.415626525878903,-32.386512756347656,1.7241883277893066,-0.0,-0.0,-1.0,0.1804769485819735,1.0,2.0
24.04720687866211,-32.70969009399414,1.731388807296753,-0.0,-0.0,-1.0,0.192294601138129,1.0,2.0
23.887908935546875,-32.81220626831055,1.7190284729003906,0.0454987786056712,0.962343072849156,-0.2680031180502124,0.2065904400896356,3.0,2.0
22.944992065429688,-34.12688064575195,2.1323795318603516,-0.0,-0.0,-1.0,0.194054273959437,2.0,3.0
24.73723030090332,-32.0880241394043,1.3975417613983154,-0.0,-0.0,-1.0,0.0782913419563794,1.0,2.0
24.435190200805664,-32.10762023925781,1.3728235960006714,0.4476150410326976,0.3389175110458185,-0.8275117496131427,0.142982354390385,3.0,2.0
24.10705947875977,-32.1800651550293,1.341843605041504,-0.0,-0.0,-1.0,0.0492746231722193,2.0,2.0
23.170331954956055,-33.299110412597656,1.6756980419158936,-0.0,-0.0,-1.0,0.1319310946832749,1.0,2.0
22.718456268310547,-33.243385314941406,1.6529022455215454,-0.0,-0.0,-1.0,0.1879494184135386,1.0,2.0
23.173294067382812,-33.43798828125,1.669717788696289,-0.0,-0.0,-1.0,0.1325613733170908,2.0,2.0
23.202716827392575,-33.808631896972656,1.6546024084091189,-0.3338083625266025,0.9174722314860022,-0.2163716283605687,0.1343363437250314,3.0,2.0
23.17005729675293,-34.00355529785156,1.643943190574646,-0.0,-0.0,-1.0,0.1629813547879444,1.0,2.0
23.130138397216797,-34.31426239013672,1.627488613128662,-0.0,-0.0,-1.0,0.1550504687666724,1.0,2.0
23.76749038696289,-32.1463623046875,1.758750557899475,-0.0,-0.0,-1.0,0.1915540901806375,1.0,2.0
23.912796020507812,-32.374908447265625,1.7570524215698242,-0.0,-0.0,-1.0,0.2198932883578435,1.0,2.0
23.613258361816406,-32.26995849609375,1.7447751760482788,-0.0,-0.0,-1.0,0.1739085176681759,1.0,2.0
23.31775665283203,-32.800498962402344,1.7055511474609375,-0.0,-0.0,-1.0,0.2120559123535915,2.0,2.0
23.906471252441406,-32.80792999267578,1.737534999847412,-0.6703321799839164,0.7420609178689742,0.0006022038412167,0.2004105790275141,4.0,2.0
23.31270217895508,-33.21632766723633,1.6871397495269775,-0.0,-0.0,-1.0,0.1963495837701349,1.0,2.0
24.01914405822754,-33.616371154785156,1.7059760093688965,-0.9903005465071784,-0.0926354527762527,0.1035543358653912,0.1781057282160948,3.0,2.0
24.467863082885746,-33.82861328125,1.7178966999053955,-0.0,-0.0,-1.0,0.0544319380482638,2.0,2.0
22.94441032409668,-34.12166213989258,2.136502265930176,-0.0,-0.0,-1.0,0.1940542739594369,2.0,3.0
22.86913299560547,-32.01301956176758,1.3554342985153198,-0.2528435856705667,0.0760995467582628,-0.964509709732586,0.1975810253780895,4.0,2.0
23.77029800415039,-32.13084030151367,1.3936494588851929,-0.0,-0.0,-1.0,0.1547553912347194,1.0,2.0
23.485992431640625,-32.16380310058594,1.3753176927566528,-0.0,-0.0,-1.0,0.1582479107626835,1.0,2.0
24.855512619018555,-32.1000862121582,1.4516315460205078,-0.0,-0.0,-1.0,0.1122781904283999,1.0,2.0
24.64705467224121,-32.26991653442383,1.424410700798035,-0.0,-0.0,-1.0,0.1107617664403701,2.0,2.0
24.342205047607425,-32.32282257080078,1.4040799140930176,-0.0,-0.0,-1.0,0.1389294838263705,1.0,2.0
23.925586700439453,-32.355560302734375,1.3798120021820068,-0.0,-0.0,-1.0,0.1318087432495215,1.0,2.0
23.639848709106445,-32.3641471862793,1.3641259670257568,-0.0,-0.0,-1.0,0.2228540595254631,1.0,2.0
23.024744033813477,-31.98898696899414,1.7903152704238892,-0.0,-0.0,-1.0,0.1387913315895013,2.0,2.0
23.790122985839844,-32.116092681884766,1.80462646484375,-0.0,-0.0,-1.0,0.109221430516252,1.0,2.0
23.842090606689453,-32.3986930847168,1.7859747409820557,-0.0,-0.0,-1.0,0.2089160434883505,2.0,2.0
23.927553176879883,-32.77888870239258,1.760952115058899,-0.5653146881693287,0.3788853202155327,-0.732710868941623,0.2293058946540694,5.0,2.0
23.236597061157227,-33.156463623046875,1.714389681816101,-0.0,-0.0,-1.0,0.2282174012127008,1.0,2.0
22.776382446289062,-33.248558044433594,1.6945346593856812,-0.0,-0.0,-1.0,0.1871675837236544,2.0,2.0
23.205951690673828,-33.47430419921875,1.6906520128250122,-0.0,-0.0,-1.0,0.1276958873511955,1.0,2.0
23.058990478515625,-33.39619827270508,1.6921565532684326,-0.0,-0.0,-1.0,0.1450917110513918,1.0,2.0
23.931753158569336,-33.75218963623047,1.6896439790725708,-0.5956383011935577,-0.761596253373194,-0.2553158064029061,0.2255882798563135,4.0,2.0
23.457855224609375,-33.80817413330078,1.6731858253479004,-0.0,-0.0,-1.0,0.1496810414212086,1.0,2.0
23.09192657470703,-33.93165588378906,1.6543493270874023,-0.0,-0.0,-1.0,0.1293963999199139,1.0,2.0
24.65810203552246,-34.03010940551758,1.686371088027954,-0.0,-0.0,-1.0,0.045551053302326,2.0,2.0
24.416013717651367,-33.875579833984375,1.6923925876617432,-0.0,-0.0,-1.0,0.0773028171479054,2.0,2.0
24.77157211303711,-34.33026885986328,1.6660270690917969,-0.0,-0.0,-1.0,0.0413888539688857,2.0,2.0
22.886056900024418,-34.08110427856445,2.1170787811279297,-0.0,-0.0,-1.0,0.1915072260311477,2.0,3.0
24.245269775390625,-31.87909507751465,1.3550281524658203,-0.0,-0.0,-1.0,0.130049123851463,1.0,2.0
23.29037857055664,-31.874855041503903,1.2881712913513184,-0.0,-0.0,-1.0,0.0956676778800805,1.0,2.0
24.69827651977539,-31.987627029418945,1.3719080686569214,-0.0,-0.0,-1.0,0.0756702971126883,2.0,2.0
23.19963264465332,-32.1539306640625,1.6371371746063232,-0.0,-0.0,-1.0,0.1538309582471135,1.0,2.0
25.11173439025879,-31.894702911376953,1.4108281135559082,-0.0,-0.0,-1.0,0.176406191297903,1.0,2.0
23.626033782958984,-32.40550994873047,1.6341683864593506,-0.0,-0.0,-1.0,0.158176352877492,2.0,2.0
23.245580673217773,-32.305389404296875,1.625512719154358,-0.0,-0.0,-1.0,0.2477966681882998,1.0,2.0
22.72101593017578,-32.71901321411133,1.5619198083877563,-0.0,-0.0,-1.0,0.1418805841214923,1.0,2.0
23.73913192749023,-32.80722427368164,1.6012017726898191,-0.0,-0.0,-1.0,0.2728883086737123,1.0,2.0
23.44872283935547,-32.79462432861328,1.5893865823745728,-0.0,-0.0,-1.0,0.1371976224476717,1.0,2.0
22.853404998779297,-32.90929412841797,1.5508074760437012,-0.0,-0.0,-1.0,0.1018625029331497,1.0,2.0
24.02235412597656,-32.94207000732422,1.600467085838318,-0.0,-0.0,-1.0,0.1993603614541312,1.0,2.0
23.837087631225582,-33.03010940551758,1.5840458869934082,-0.0,-0.0,-1.0,0.1632704069146895,1.0,2.0
25.053871154785156,-33.396453857421875,1.5969536304473877,-0.0,-0.0,-1.0,0.041346495404107,1.0,2.0
24.558757781982425,-33.5031623840332,1.568679928779602,-0.0,-0.0,-1.0,0.0937799401837106,1.0,2.0
24.27925491333008,-33.59967041015625,1.5486022233963013,-0.0,-0.0,-1.0,0.0868747806487479,1.0,2.0
23.920026779174805,-33.56398010253906,1.5378721952438354,-0.0,-0.0,-1.0,0.152906950786469,1.0,2.0
23.72388458251953,-33.74549102783203,1.512632131576538,-0.0,-0.0,-1.0,0.2014060037867663,1.0,2.0
25.148357391357425,-33.62991714477539,1.5760897397994995,-0.0,-0.0,-1.0,0.0144619842502683,2.0,2.0
24.612037658691406,-33.771183013916016,1.5434396266937256,-0.0,-0.0,-1.0,0.0583287604544141,2.0,2.0
24.479766845703125,-33.74295425415039,1.5415085554122925,-0.0,-0.0,-1.0,0.1090553107710652,1.0,2.0
24.180496215820312,-33.83913040161133,1.520965576171875,0.5328114141193492,0.3128197550558076,-0.786292437856911,0.1036360077069554,3.0,2.0
24.80089950561523,-34.22079086303711,1.5039063692092896,-0.0,-0.0,-1.0,0.0460978054972831,1.0,2.0
22.888473510742188,-33.331199645996094,1.9373648166656496,-0.0,-0.0,-1.0,0.1906979588345516,1.0,2.0
22.750577926635746,-33.64677810668945,1.912959337234497,-0.0,-0.0,-1.0,0.1560820647131131,2.0,2.0
23.44690322875977,-33.66987991333008,1.9272267818450928,-0.0,-0.0,-1.0,0.163340437971752,2.0,2.0
23.142345428466797,-33.747901916503906,1.9169611930847168,-0.0,-0.0,-1.0,0.1232898389115559,1.0,2.0
22.825864791870117,-33.87181854248047,1.89949893951416,-0.0,-0.0,-1.0,0.125210962993032,1.0,2.0
22.936553955078125,-34.071434020996094,1.8885420560836792,-0.0,-0.0,-1.0,0.218314103072041,1.0,2.0
22.716230392456055,-31.96999168395996,1.3912864923477173,-0.0,-0.0,-1.0,0.1969899246499247,2.0,2.0
22.82917594909668,-32.2663688659668,1.3596625328063965,-0.0,-0.0,-1.0,0.0939177869083907,1.0,2.0
23.655282974243164,-32.59623718261719,1.3800915479660034,-0.307865515713414,-0.396394036555028,-0.8649223040355268,0.1570904914297829,3.0,2.0
23.5041561126709,-32.54673385620117,1.3754003047943115,-0.0,-0.0,-1.0,0.1983500423071984,1.0,2.0
23.107913970947266,-32.54407501220703,1.3435558080673218,-0.0,-0.0,-1.0,0.1081232079457851,2.0,2.0
23.908533096313477,-32.78607940673828,1.3705995082855225,-0.0,-0.0,-1.0,0.1966268692028804,1.0,2.0
23.150428771972656,-31.96932029724121,1.4303526878356934,-0.0,-0.0,-1.0,0.1173049674351229,2.0,2.0
23.8974666595459,-31.876543045043945,1.5068563222885132,-0.0,-0.0,-1.0,0.1650221449603167,2.0,2.0
23.669200897216797,-32.237876892089844,1.7851691246032717,-0.0,-0.0,-1.0,0.1581182558445918,2.0,2.0
23.433170318603516,-32.3638916015625,1.3969281911849976,-0.0,-0.0,-1.0,0.1914158716098185,2.0,2.0
23.867172241210938,-32.48774337768555,1.5881322622299194,-0.0,-0.0,-1.0,0.089955249257145,1.0,2.0
23.587329864501953,-32.56028366088867,1.561976432800293,-0.0,-0.0,-1.0,0.2328994035127864,1.0,2.0
24.66193199157715,-32.63154602050781,1.447843074798584,-0.0,-0.0,-1.0,0.0542287742662355,1.0,2.0
24.29829216003418,-32.76702117919922,1.4016276597976685,-0.0,-0.0,-1.0,0.1100602711681158,1.0,2.0
23.93825912475586,-32.80398178100586,1.5519911050796509,-0.0,-0.0,-1.0,0.1511824300889679,2.0,2.0
23.517024993896484,-33.030250549316406,1.680311679840088,-0.0,-0.0,-1.0,0.164284538407507,1.0,2.0
23.151317596435547,-33.246673583984375,1.6331610679626465,-0.0,-0.0,-1.0,0.1793548313685581,1.0,2.0
22.74612617492676,-33.30127716064453,1.6027921438217163,-0.0,-0.0,-1.0,0.2080791601927477,2.0,2.0
23.363414764404297,-33.52867126464844,1.6105995178222656,-0.0,-0.0,-1.0,0.114419656887178,1.0,2.0
24.005949020385746,-33.63402557373047,1.6306722164154053,-0.0,-0.0,-1.0,0.1914006240701916,2.0,2.0
23.674095153808594,-33.70276641845703,1.6053324937820437,-0.0,-0.0,-1.0,0.1724005916857468,1.0,2.0
23.434341430664062,-33.76777648925781,1.5847591161727903,-0.0,-0.0,-1.0,0.1450937303713979,1.0,2.0
23.15003967285156,-34.05104064941406,1.5344250202178955,-0.0,-0.0,-1.0,0.145450019989608,1.0,2.0
24.65765380859375,-33.990142822265625,1.61414897441864,-0.0,-0.0,-1.0,0.0539315687576733,2.0,2.0
24.177040100097656,-34.158260345458984,1.5714728832244873,-0.0,-0.0,-1.0,0.0944184510842693,1.0,2.0
23.8953857421875,-34.23200225830078,1.549019455909729,-0.0,-0.0,-1.0,0.0821258279084761,1.0,2.0
23.383888244628903,-34.24568557739258,1.5222923755645752,-0.0,-0.0,-1.0,0.0680583790120634,1.0,2.0
25.12665748596191,-34.27618408203125,1.5944020748138428,-0.0,-0.0,-1.0,0.0254414053228058,2.0,2.0
24.84679794311523,-34.28935241699219,1.5822257995605469,-0.0,-0.0,-1.0,0.0388826998608487,1.0,2.0
23.91298484802246,-34.34444046020508,1.5354195833206177,-0.0,-0.0,-1.0,0.0760230500852065,1.0,2.0
23.05976104736328,-33.30255889892578,2.0114331245422363,-0.0,-0.0,-1.0,0.1606897424736198,1.0,3.0
22.852670669555664,-33.71576690673828,1.965443134307861,-0.0,-0.0,-1.0,0.1110232707168595,1.0,2.0
23.51784896850586,-33.65367889404297,1.99465811252594,-0.0,-0.0,-1.0,0.131472215683818,1.0,2.0
23.40570640563965,-33.894386291503906,1.9680359363555908,-0.0,-0.0,-1.0,0.1735909511675924,1.0,2.0
22.982566833496097,-34.03985595703125,1.9398884773254397,-0.0,-0.0,-1.0,0.1488531786024123,1.0,2.0
23.22086524963379,-31.952194213867188,1.307901382446289,-0.0,-0.0,-1.0,0.1071489374557701,2.0,2.0
23.06081771850586,-31.904708862304688,1.2987923622131348,-0.0,-0.0,-1.0,0.1062353741394356,1.0,2.0
24.569969177246097,-32.214332580566406,1.3891215324401855,-0.0,-0.0,-1.0,0.1080643663315255,1.0,2.0
24.265291213989254,-32.24460220336914,1.3571648597717283,-0.0,-0.0,-1.0,0.100336648970055,1.0,2.0
23.937515258789062,-32.17496109008789,1.3401312828063965,-0.0,-0.0,-1.0,0.1040955692054103,1.0,2.0
24.65566062927246,-32.274497985839844,1.384631633758545,-0.0,-0.0,-1.0,0.1137406360977652,2.0,2.0
23.254804611206055,-31.991865158081055,1.6261955499649048,-0.0,-0.0,-1.0,0.1564771222040276,1.0,2.0
23.06603240966797,-31.979990005493164,1.6116787195205688,-0.0,-0.0,-1.0,0.1802922011755802,2.0,2.0
25.04364585876465,-32.017173767089844,1.4650607109069824,-0.6877309405779268,0.0040623315072267,-0.7259543035443247,0.1273800354008971,3.0,2.0
23.806055068969727,-32.315834045410156,1.6217374801635742,-0.0,-0.0,-1.0,0.1907849273650217,1.0,2.0
23.51219940185547,-32.41511917114258,1.5839216709136963,-0.0,-0.0,-1.0,0.2257951172371173,1.0,2.0
23.796133041381836,-32.67275619506836,1.56577467918396,-0.0,-0.0,-1.0,0.1717593635100485,1.0,2.0
23.723628997802734,-32.77238082885742,1.5450291633605957,-0.0,-0.0,-1.0,0.169991368371925,1.0,2.0
23.153018951416016,-32.862396240234375,1.4878027439117432,-0.0,-0.0,-1.0,0.1072949092532608,1.0,2.0
22.7948055267334,-33.012672424316406,1.6171584129333496,-0.0,-0.0,-1.0,0.1439120692190199,1.0,2.0
24.38763427734375,-33.01561737060547,1.5517091751098633,-0.0,-0.0,-1.0,0.0878134775954531,2.0,2.0
24.00993537902832,-33.05686569213867,1.5204631090164185,-0.0,-0.0,-1.0,0.1417238343367838,2.0,2.0
23.78355598449707,-32.971168518066406,1.5184245109558103,-0.0,-0.0,-1.0,0.121976587536172,1.0,2.0
23.13066864013672,-33.1948356628418,1.7911964654922483,-0.0,-0.0,-1.0,0.2071375374149336,1.0,2.0
22.88701629638672,-33.43206024169922,1.7480356693267822,-0.0144609051253095,-0.6051839065154829,-0.7959543463777404,0.194607110394316,5.0,2.0
24.952608108520508,-33.27367401123047,1.5420963764190674,-0.0,-0.0,-1.0,0.0455245141878512,1.0,2.0
24.53702163696289,-33.396881103515625,1.498745083808899,-0.0,-0.0,-1.0,0.1190224939056815,1.0,2.0
24.169736862182617,-33.407981872558594,1.4746829271316528,-0.0,-0.0,-1.0,0.0803229415037683,1.0,2.0
23.366222381591797,-33.71083068847656,1.7398643493652344,-0.0,-0.0,-1.0,0.1703143724053929,2.0,2.0
23.053247451782227,-33.69282150268555,1.7251980304718018,-0.0,-0.0,-1.0,0.1459917793429854,1.0,2.0
24.55365562438965,-33.52216720581055,1.479244589805603,-0.0,-0.0,-1.0,0.0992059985104798,2.0,2.0
23.56869125366211,-33.617610931396484,2.1190948486328125,-0.0,-0.0,-1.0,0.2019324966534506,1.0,3.0
24.18427848815918,-31.871173858642575,1.3085064888000488,-0.0,-0.0,-1.0,0.1050469163533994,1.0,2.0
22.88385772705078,-32.22163772583008,1.395716428756714,-0.0,-0.0,-1.0,0.0768904360475836,1.0,2.0
25.012487411499023,-31.87921905517578,1.3783900737762451,-0.0,-0.0,-1.0,0.0649684377969638,1.0,2.0
24.76306915283203,-31.897968292236328,1.3544842004776,-0.0,-0.0,-1.0,0.0443496204803828,2.0,2.0
23.408113479614254,-32.4560546875,1.4021756649017334,-0.0,-0.0,-1.0,0.2689644981086861,1.0,2.0
23.045392990112305,-32.515846252441406,1.3575071096420288,-0.0,-0.0,-1.0,0.0708182364042313,1.0,2.0
22.835365295410156,-32.46415328979492,1.3467835187911987,-0.0,-0.0,-1.0,0.1613981295296394,1.0,2.0
23.97403335571289,-32.7612419128418,1.3901913166046145,-0.0,-0.0,-1.0,0.1749195240856408,2.0,2.0
23.595073699951172,-32.62422180175781,1.386433482170105,-0.0,-0.0,-1.0,0.2093903407552351,2.0,2.0
24.270734786987305,-32.83644485473633,1.3971234560012815,-0.0,-0.0,-1.0,0.0962121727983528,1.0,2.0
24.215532302856445,-32.85600280761719,1.3893736600875854,-0.0,-0.0,-1.0,0.1230644093876735,1.0,2.0
23.857139587402344,-31.95689582824707,1.6738319396972656,-0.0,-0.0,-1.0,0.0709947114468333,1.0,2.0
23.246477127075195,-31.869415283203125,1.4960261583328247,-0.0,-0.0,-1.0,0.0853774037884223,1.0,2.0
23.052026748657227,-31.987224578857425,1.455236554145813,-0.0,-0.0,-1.0,0.1034267108917624,1.0,2.0
23.754491806030273,-32.23229217529297,1.6182705163955688,-0.0,-0.0,-1.0,0.2327540163375565,1.0,2.0
23.47713851928711,-32.32007598876953,1.5803651809692385,-0.0,-0.0,-1.0,0.1702485286457336,1.0,2.0
25.13736343383789,-32.251121520996094,1.5695699453353882,-0.0,-0.0,-1.0,0.1194790717590782,1.0,2.0
24.807353973388672,-32.61565017700195,1.4762362241744995,-0.0,-0.0,-1.0,0.0408992266238446,1.0,2.0
24.603458404541016,-32.7039794921875,1.445819854736328,-0.0,-0.0,-1.0,0.0583548688955603,2.0,2.0
23.92030143737793,-32.73893737792969,1.541820049285889,-0.0,-0.0,-1.0,0.1759865396679194,1.0,2.0
23.652841567993164,-32.936981201171875,1.641451716423035,-0.0,-0.0,-1.0,0.1824023899383406,2.0,2.0
23.203922271728516,-33.06494903564453,1.5910780429840088,-0.0,-0.0,-1.0,0.2064884396399348,1.0,2.0
22.80293083190918,-33.18773651123047,1.5431891679763794,-0.0,-0.0,-1.0,0.2463436538078336,1.0,2.0
24.792827606201172,-32.714935302734375,1.4552665948867798,-0.0,-0.0,-1.0,0.0502221398666577,2.0,2.0
24.43180274963379,-32.7855110168457,1.4182053804397583,-0.0,-0.0,-1.0,0.0421391286036313,1.0,2.0
23.704164505004883,-33.13186264038086,1.6131004095077517,-0.0,-0.0,-1.0,0.1302448120423656,1.0,2.0
23.207778930664062,-33.1566162109375,1.576857089996338,0.3834066966366434,-0.4992065610867794,-0.7770406130583445,0.2343085428893827,3.0,2.0
22.97847366333008,-33.2067756652832,1.5529098510742188,-0.0,-0.0,-1.0,0.1553155266249986,1.0,2.0
24.948801040649418,-33.45244216918945,1.623263597488403,-0.0,-0.0,-1.0,0.0207061804884501,1.0,2.0
24.493160247802734,-33.5636100769043,1.5845164060592651,-0.0,-0.0,-1.0,0.1014449636527823,2.0,2.0
24.1313533782959,-33.61261749267578,1.5582433938980105,-0.0,-0.0,-1.0,0.1055163568893723,2.0,2.0
23.803438186645508,-33.565834045410156,1.5480659008026123,-0.0,-0.0,-1.0,0.1908040287518183,2.0,2.0
23.033143997192383,-33.966121673583984,1.7854493856430054,-0.0,-0.0,-1.0,0.1435536467952524,2.0,2.0
25.001129150390625,-33.484161376953125,1.6198956966400146,-0.0,-0.0,-1.0,0.0231494135983703,2.0,2.0
24.649677276611328,-33.80940246582031,1.549785614013672,-0.0,-0.0,-1.0,0.0631057752506801,1.0,2.0
24.316261291503903,-33.75890350341797,1.5430402755737305,-0.0,-0.0,-1.0,0.0886422062169975,1.0,2.0
23.052480697631836,-34.00299835205078,1.7816259860992432,-0.0,-0.0,-1.0,0.1740366060232452,2.0,2.0
23.18288803100586,-33.14154815673828,1.898631572723389,-0.0,-0.0,-1.0,0.1626877000607559,1.0,2.0
22.859216690063477,-33.48905944824219,1.83757746219635,-0.935509440902374,0.2713203857990722,0.2262903759163662,0.1814494080500814,5.0,2.0
23.382179260253903,-33.653289794921875,1.842543125152588,-0.0,-0.0,-1.0,0.281540292053094,1.0,2.0
23.03807258605957,-33.73943328857422,1.8148428201675415,-0.0,-0.0,-1.0,0.1097309983390978,2.0,2.0
22.88806533813477,-34.09757995605469,2.114201068878174,-0.0,-0.0,-1.0,0.183383876962927,2.0,3.0
23.90550422668457,-32.10569763183594,1.324722409248352,-0.7048259455619077,-0.2063862583277051,-0.6786936708385104,0.0942908218743584,3.0,2.0
23.431859970092773,-31.987829208374023,1.3099998235702517,-0.0,-0.0,-1.0,0.0707104782208038,1.0,2.0
23.231285095214844,-31.96106719970703,1.296505093574524,-0.0,-0.0,-1.0,0.1071489374557702,2.0,2.0
24.093900680541992,-32.16984939575195,1.324046969413757,-0.0,-0.0,-1.0,0.0498884735277472,2.0,2.0
23.17542839050293,-31.889883041381836,1.5687494277954102,-0.0,-0.0,-1.0,0.1033072635539356,2.0,2.0
23.815702438354492,-31.98277282714844,1.4750043153762815,-0.0,-0.0,-1.0,0.2238402535786224,1.0,2.0
23.734146118164062,-31.88455390930176,1.3636707067489624,-0.0,-0.0,-1.0,0.1321276102663336,1.0,2.0
23.017011642456055,-32.06934356689453,1.5185391902923584,-0.0,-0.0,-1.0,0.1947793246947309,1.0,2.0
25.19239044189453,-31.945161819458008,1.4482133388519287,-0.0,-0.0,-1.0,0.1837265603472483,1.0,2.0
24.80470848083496,-32.07823944091797,1.3946232795715332,-0.0,-0.0,-1.0,0.0777025227491597,2.0,2.0
24.429264068603516,-32.14407730102539,1.354686617851257,-0.6238451232851546,0.427043705624796,-0.6545616362418231,0.1441265088584748,3.0,2.0
23.675527572631836,-32.59528732299805,1.46267831325531,-0.8449989100899306,-0.3936986032675187,-0.3619091760815605,0.1835503193116124,3.0,2.0
23.33880043029785,-32.652320861816406,1.4259564876556396,-0.0,-0.0,-1.0,0.1530107831490672,1.0,2.0
22.968433380126953,-32.68143081665039,1.3902060985565186,-0.0,-0.0,-1.0,0.0809086616932008,1.0,2.0
24.9476261138916,-32.5662841796875,1.539323329925537,-0.0,-0.0,-1.0,0.0371277476281585,1.0,2.0
24.67989730834961,-32.72911071777344,1.4921163320541382,-0.0,-0.0,-1.0,0.0639383570753088,2.0,2.0
24.201980590820312,-32.85126495361328,1.441232204437256,-0.0,-0.0,-1.0,0.1283388072402165,1.0,2.0
23.852514266967773,-32.80409240722656,1.5695136785507202,-0.0,-0.0,-1.0,0.2063000075875143,1.0,2.0
23.409425735473633,-33.008644104003906,1.6473112106323242,-0.0,-0.0,-1.0,0.1376058222221454,1.0,2.0
23.106088638305664,-33.162864685058594,1.6022428274154663,0.5025903507681267,-0.862909817242145,-0.0528165373902857,0.2194188447907469,3.0,2.0
25.0139217376709,-32.89051055908203,1.4701385498046875,-0.0,-0.0,-1.0,0.0277958302900527,1.0,2.0
24.666240692138672,-32.89113235473633,1.4559255838394165,-0.0,-0.0,-1.0,0.0485999165271776,2.0,2.0
24.410654067993164,-32.92783737182617,1.4358901977539062,-0.0,-0.0,-1.0,0.0519632697033639,1.0,2.0
23.840076446533203,-33.057865142822266,1.6618931293487549,-0.0,-0.0,-1.0,0.1810343291357126,1.0,2.0
23.45399475097656,-33.30016326904297,1.598259210586548,-0.0,-0.0,-1.0,0.1057538192141856,1.0,2.0
23.046077728271484,-33.279842376708984,1.5780705213546753,-0.0,-0.0,-1.0,0.1610936297094626,1.0,2.0
25.00812339782715,-33.46006774902344,1.6329100131988523,-0.0,-0.0,-1.0,0.0215933475298998,2.0,2.0
24.452167510986328,-33.6265983581543,1.5847948789596558,-0.0,-0.0,-1.0,0.1128702528406409,2.0,2.0
24.02045440673828,-33.62391662597656,1.568071365356445,-0.0,-0.0,-1.0,0.1955186534158307,1.0,2.0
23.75136947631836,-33.6356201171875,1.5537348985671997,-0.0,-0.0,-1.0,0.2099909366453031,1.0,2.0
25.20928955078125,-33.84837341308594,1.5652409791946411,-0.0,-0.0,-1.0,0.0172973904069064,1.0,2.0
24.85194206237793,-33.83930969238281,1.5580744743347168,-0.0,-0.0,-1.0,0.0347512279454954,1.0,2.0
24.54326820373535,-33.82669448852539,1.5509542226791382,-0.0,-0.0,-1.0,0.0556317211343308,1.0,2.0
24.194244384765625,-33.811851501464844,1.5411343574523926,0.5328114141193492,0.3128197550558076,-0.786292437856911,0.1087237484590891,3.0,2.0
24.971895217895508,-34.04236602783203,1.5235145092010498,-0.0,-0.0,-1.0,0.0272158950360488,1.0,2.0
23.629802703857425,-32.242881774902344,1.7949354648590088,-0.0,-0.0,-1.0,0.1477951717127304,2.0,2.0
23.836877822875977,-32.403350830078125,1.778489351272583,-0.7278325022129538,0.6806754013966119,0.0833117438059723,0.2089160434883504,3.0,2.0
23.14303398132324,-33.5557861328125,1.8440756797790527,-0.0,-0.0,-1.0,0.1553719620455379,1.0,2.0
22.83635139465332,-33.49732971191406,1.838255763053894,-0.5666450343788425,-0.4551359049161549,-0.6868513034638232,0.2293277926357165,6.0,2.0
23.453214645385746,-33.66936492919922,1.8407542705535889,-0.0,-0.0,-1.0,0.2151166373898201,1.0,2.0
23.23799514770508,-33.79750061035156,1.813430666923523,-0.0,-0.0,-1.0,0.1807988511518271,1.0,2.0
22.86656951904297,-34.030799865722656,1.928110718727112,-0.0,-0.0,-1.0,0.1895851594770442,1.0,2.0
23.026966094970703,-34.14607238769531,1.7544680833816528,-0.0,-0.0,-1.0,0.1368645815911001,1.0,2.0
23.55206871032715,-33.587886810302734,2.157341241836548,-0.0,-0.0,-1.0,0.190486028848248,1.0,3.0
23.03755569458008,-31.90851402282715,1.6407132148742676,-0.0,-0.0,-1.0,0.1178849764311865,2.0,2.0
23.176502227783203,-32.2166748046875,1.563684582710266,-0.0,-0.0,-1.0,0.2026137350679356,1.0,2.0
23.774696350097656,-32.66153335571289,1.43940269947052,-0.0,-0.0,-1.0,0.1123545774025109,2.0,2.0
23.545883178710938,-32.6176643371582,1.4566344022750854,-0.0,-0.0,-1.0,0.2414871295270694,1.0,2.0
23.10533905029297,-32.78956985473633,1.4193731546401978,-0.0,-0.0,-1.0,0.0740962748472543,2.0,2.0
24.57915306091309,-32.679141998291016,1.3974006175994873,-0.0,-0.0,-1.0,0.0554560137486667,2.0,2.0
24.391769409179688,-32.75625228881836,1.3877313137054443,-0.0,-0.0,-1.0,0.0593056027925259,1.0,2.0
23.921337127685547,-32.892005920410156,1.5041898488998413,-0.3295538971354558,0.5844574043841618,-0.7414875395739042,0.2039013510983805,3.0,2.0
23.59381103515625,-33.028297424316406,1.613979458808899,-0.0,-0.0,-1.0,0.1569535796564209,1.0,2.0
23.24056053161621,-33.11557388305664,1.605635643005371,-0.0,-0.0,-1.0,0.1729262867965914,2.0,2.0
22.851545333862305,-33.286376953125,1.5766106843948364,-0.0,-0.0,-1.0,0.1693811456844058,2.0,2.0
23.98769760131836,-33.449913024902344,1.501911759376526,-0.0,-0.0,-1.0,0.1206747473883899,1.0,2.0
23.748554229736328,-33.4992790222168,1.5018813610076904,-0.0,-0.0,-1.0,0.1859188000078714,1.0,2.0
23.297473907470703,-33.3697509765625,1.5477511882781982,-0.0,-0.0,-1.0,0.1280692118479418,1.0,2.0
22.88488388061523,-33.433319091796875,1.5439125299453735,-0.0,-0.0,-1.0,0.1634649286248465,1.0,2.0
24.451536178588867,-33.492000579833984,1.465362787246704,-0.0,-0.0,-1.0,0.1033414661459534,1.0,2.0
24.19560813903809,-33.534793853759766,1.471078872680664,0.0812522577336095,-0.4455302620815636,-0.8915721261808963,0.071048393811785,3.0,2.0
23.813453674316406,-33.59804916381836,1.4767601490020752,-0.0,-0.0,-1.0,0.1723363594126303,1.0,2.0
22.977313995361328,-31.983783721923828,1.856157898902893,-0.0,-0.0,-1.0,0.1846876603199369,1.0,2.0
23.819347381591797,-32.43172073364258,1.7393755912780762,-0.0,-0.0,-1.0,0.2125488998855984,2.0,2.0
23.731908798217773,-32.64981460571289,1.6938166618347168,-0.0,-0.0,-1.0,0.202361360327439,1.0,2.0
22.926454544067383,-32.52865982055664,1.7398009300231934,-0.0,-0.0,-1.0,0.1949853168185545,2.0,2.0
23.83534812927246,-32.81498336791992,1.652636170387268,-0.0,-0.0,-1.0,0.2151655854172739,1.0,2.0
23.6643123626709,-32.799156188964844,1.9151434898376465,-0.0,-0.0,-1.0,0.118284234443477,1.0,2.0
23.135299682617188,-33.18170166015625,1.864422082901001,-0.0,-0.0,-1.0,0.1642870015531466,1.0,2.0
22.710460662841797,-33.05906295776367,1.8990882635116575,-0.0,-0.0,-1.0,0.175570575484799,1.0,2.0
23.310697555541992,-33.542789459228516,1.7905492782592771,-0.0,-0.0,-1.0,0.1805185739245144,1.0,2.0
22.92688369750977,-33.59724044799805,1.794344425201416,-0.3615410213750469,0.7599996491951291,-0.5400820521794526,0.1616055521201958,3.0,2.0
23.93731689453125,-33.74911117553711,1.720755696296692,-0.5993332179308228,0.5668860122544961,-0.5651901830312343,0.2255882798563135,4.0,2.0
23.44325256347656,-33.67565155029297,1.9000136852264404,-0.0,-0.0,-1.0,0.163340437971752,2.0,2.0
23.109195709228516,-33.85592269897461,1.739852786064148,-0.0,-0.0,-1.0,0.139415250794082,1.0,2.0
22.846580505371097,-34.12932205200195,2.00166916847229,-0.0,-0.0,-1.0,0.1544265112773751,1.0,3.0
24.360761642456055,-34.02650833129883,1.6408121585845947,-0.0,-0.0,-1.0,0.0720831531382549,1.0,2.0
24.35994529724121,-34.236507415771484,1.600274920463562,-0.0,-0.0,-1.0,0.0634003185525299,2.0,2.0
22.78772354125977,-32.339080810546875,1.3815453052520752,-0.0,-0.0,-1.0,0.0934743115244934,1.0,2.0
25.02351188659668,-32.69187927246094,1.4688881635665894,-0.0,-0.0,-1.0,0.0297498200320093,1.0,2.0
24.542470932006836,-32.21733856201172,1.340727925300598,-0.0,-0.0,-1.0,0.0976675992841476,2.0,2.0
24.426729202270508,-32.26148223876953,1.3308227062225342,-0.0,-0.0,-1.0,0.1436856260205974,1.0,2.0
24.79199981689453,-32.84799575805664,1.4389185905456543,-0.0,-0.0,-1.0,0.050702380362308,1.0,2.0
24.2811222076416,-32.30669021606445,1.3205682039260864,-0.0,-0.0,-1.0,0.1262237342075707,2.0,2.0
25.194570541381836,-33.74451446533203,1.526052713394165,-0.0,-0.0,-1.0,0.0206223726182255,1.0,2.0
24.96627426147461,-33.781402587890625,1.5237584114074707,-0.0,-0.0,-1.0,0.0172263968702383,1.0,2.0
24.766403198242188,-33.81812286376953,1.5195062160491943,-0.0,-0.0,-1.0,0.0420940992991142,2.0,2.0
25.153059005737305,-33.60203552246094,1.5545743703842163,0.1710166336320033,-0.6198358677288305,-0.7658699681395175,0.0157743791139002,3.0,2.0
24.841001510620117,-33.617855072021484,1.5571976900100708,-0.0,-0.0,-1.0,0.0228349958348769,2.0,2.0
24.67595672607422,-33.597198486328125,1.5631635189056396,-0.0,-0.0,-1.0,0.0743077023638915,1.0,2.0
23.04655647277832,-32.6255989074707,1.3581043481826782,-0.0,-0.0,-1.0,0.0682890438253392,1.0,2.0
22.853416442871097,-32.607784271240234,1.3551485538482666,-0.0,-0.0,-1.0,0.1059347994241956,1.0,2.0
22.7132568359375,-32.724143981933594,1.3221101760864258,-0.0,-0.0,-1.0,0.0993494717349696,1.0,2.0
23.20653533935547,-33.16276550292969,1.5270979404449463,-0.0,-0.0,-1.0,0.2343085428893828,2.0,2.0
22.85735321044922,-32.81246566772461,1.5862699747085571,-0.0,-0.0,-1.0,0.2086616159179437,1.0,2.0
23.02874183654785,-33.301658630371094,1.6426063776016235,-0.0,-0.0,-1.0,0.2041828406509508,1.0,2.0
22.758079528808594,-33.185455322265625,1.6530158519744873,-0.0,-0.0,-1.0,0.2348738316236735,1.0,2.0
22.78464698791504,-33.519866943359375,1.7432888746261597,-0.0,-0.0,-1.0,0.197767495273887,2.0,2.0
23.062891006469727,-33.96162796020508,1.991984724998474,-0.0,-0.0,-1.0,0.1597308060700924,2.0,2.0
24.106250762939453,-33.108177185058594,1.4706871509552002,-0.0,-0.0,-1.0,0.0925146703935148,1.0,2.0
24.718536376953125,-32.05438995361328,1.4568803310394287,-0.0,-0.0,-1.0,0.1079751622156217,1.0,2.0
24.113292694091797,-33.94179153442383,1.5295372009277344,-0.0,-0.0,-1.0,0.0957438954944303,1.0,2.0
24.77742576599121,-32.17268753051758,1.5232281684875488,-0.0,-0.0,-1.0,0.128556643954118,1.0,2.0
22.92586898803711,-33.49906921386719,1.741996169090271,-0.0,-0.0,-1.0,0.2240306976323577,2.0,2.0
23.770648956298828,-32.34314727783203,1.6841416358947754,-0.0,-0.0,-1.0,0.2183650764546325,1.0,2.0
24.681934356689453,-33.99866485595703,1.613138198852539,-0.0,-0.0,-1.0,0.0589667435386943,2.0,2.0
22.71083641052246,-33.30787658691406,1.5367120504379272,-0.0,-0.0,-1.0,0.1604869017641365,1.0,2.0
22.919536590576172,-32.859580993652344,1.5200616121292114,-0.0,-0.0,-1.0,0.0894339382764202,1.0,2.0
23.48580551147461,-32.51679992675781,1.469794511795044,-0.0,-0.0,-1.0,0.2174804468064219,2.0,2.0
23.667491912841797,-32.568885803222656,1.4527196884155271,-0.0,-0.0,-1.0,0.1586178160814801,2.0,2.0
23.02758026123047,-32.908302307128906,1.504539132118225,-0.0,-0.0,-1.0,0.0783547494716876,2.0,2.0
23.78375244140625,-32.563480377197266,1.4857161045074463,-0.0,-0.0,-1.0,0.1540558292106051,2.0,2.0
24.48196792602539,-33.12665939331055,1.4489961862564087,-0.6794225711967672,0.0615599306636041,-0.7311602729122159,0.0965395517558676,3.0,2.0
25.02432632446289,-32.19453430175781,1.4491004943847656,-0.0,-0.0,-1.0,0.1350369392115697,1.0,2.0
24.8637638092041,-32.58733367919922,1.4466633796691897,-0.0,-0.0,-1.0,0.0335854655012991,1.0,2.0
25.141698837280273,-31.939163208007812,1.4501712322235107,-0.0,-0.0,-1.0,0.176406191297903,2.0,2.0
22.92247009277344,-33.20836639404297,1.6433508396148682,-0.0,-0.0,-1.0,0.1691447179324771,1.0,2.0
22.72022247314453,-33.342071533203125,1.6330633163452148,-0.0,-0.0,-1.0,0.1300498315119268,1.0,2.0
23.643051147460938,-32.66020965576172,1.6822614669799805,-0.0,-0.0,-1.0,0.1820271781196594,1.0,2.0
23.30425071716309,-32.88276672363281,1.6656782627105713,-0.0,-0.0,-1.0,0.1317099008336429,1.0,2.0
23.08935546875,-33.35198211669922,1.6406259536743164,-0.5038148538377355,-0.7679916233692111,-0.3954231397973387,0.1671119442772269,3.0,2.0
24.390771865844727,-33.908935546875,1.642563819885254,-0.0,-0.0,-1.0,0.0744618729966471,2.0,2.0
24.219688415527344,-34.19218444824219,1.6269829273223877,-0.0,-0.0,-1.0,0.0921684628172621,1.0,2.0
24.889480590820312,-34.343536376953125,1.6330735683441162,-0.0,-0.0,-1.0,0.0388826998608487,1.0,2.0
23.67734146118164,-31.99944496154785,1.377363681793213,-0.0,-0.0,-1.0,0.126171298557848,2.0,2.0
25.044166564941406,-34.02742385864258,1.5578370094299316,-0.0,-0.0,-1.0,0.0248600794477554,1.0,2.0
25.181781768798828,-33.93643569946289,1.5717263221740725,-0.0,-0.0,-1.0,0.0173090076717948,1.0,2.0
22.882667541503903,-33.237831115722656,1.6258482933044434,-0.0,-0.0,-1.0,0.1987677751271659,1.0,2.0
23.196821212768555,-33.128822326660156,1.6453280448913574,-0.0,-0.0,-1.0,0.2102539555884725,1.0,2.0
23.643299102783203,-33.33245086669922,1.6261286735534668,-0.0,-0.0,-1.0,0.0733703498824191,1.0,2.0
22.89325904846191,-33.489723205566406,1.9149293899536133,-0.0,-0.0,-1.0,0.2157467955993131,1.0,2.0
22.869667053222656,-32.54874038696289,1.442371845245361,-0.0,-0.0,-1.0,0.2396295493608898,1.0,2.0
23.12982940673828,-32.62752914428711,1.4366202354431152,-0.0,-0.0,-1.0,0.0642981310934511,1.0,2.0
23.085241317749023,-31.975425720214844,1.5367279052734375,-0.0,-0.0,-1.0,0.0990373240328921,2.0,2.0
23.730613708496097,-32.58748245239258,1.456857204437256,-0.0,-0.0,-1.0,0.1738143315437681,1.0,2.0
24.105937957763672,-32.697261810302734,1.4480233192443848,-0.0,-0.0,-1.0,0.1817654252850069,1.0,2.0
24.332117080688477,-32.663002014160156,1.4579153060913086,-0.0,-0.0,-1.0,0.074171164772892,1.0,2.0
24.485939025878903,-32.64601516723633,1.4635405540466309,-0.0,-0.0,-1.0,0.0748951062957928,1.0,2.0
24.834739685058594,-32.35731887817383,1.5140056610107422,-0.0,-0.0,-1.0,0.0758684341882173,1.0,2.0
25.15593910217285,-31.992843627929688,1.5746655464172363,-0.0,-0.0,-1.0,0.1783231682505618,2.0,2.0
24.16392517089844,-33.74895095825195,1.5505967140197754,-0.0,-0.0,-1.0,0.1026817085920618,2.0,2.0
24.41664123535156,-33.609336853027344,1.5531296730041504,-0.0,-0.0,-1.0,0.0995130665007006,2.0,2.0
24.712329864501953,-33.262428283691406,1.5776824951171875,-0.0,-0.0,-1.0,0.0724144634062977,1.0,2.0
24.67969512939453,-33.66023635864258,1.531477928161621,-0.0,-0.0,-1.0,0.0571573359002535,1.0,2.0
24.98605728149414,-33.18049621582031,1.570803165435791,-0.0,-0.0,-1.0,0.0467406993475927,2.0,2.0
22.972457885742188,-33.18400955200195,1.6855244636535645,-0.0,-0.0,-1.0,0.1239356513083585,1.0,2.0
22.85354232788086,-33.41661834716797,1.6626505851745603,-0.6849186061273681,-0.7180512644907742,0.1236482290360175,0.1661947006052123,3.0,2.0
23.505218505859375,-33.35619354248047,1.6356182098388672,-0.0,-0.0,-1.0,0.1320919413518507,1.0,2.0
23.41286849975586,-33.48411560058594,1.62479829788208,-0.0,-0.0,-1.0,0.1496659314387891,2.0,2.0
23.676284790039062,-32.45962142944336,1.7362265586853027,-0.0,-0.0,-1.0,0.1722900955719151,1.0,2.0
23.533592224121097,-32.92588806152344,1.6871113777160645,-0.0,-0.0,-1.0,0.118386188595902,2.0,2.0
22.986339569091797,-34.35834884643555,1.978123664855957,-0.0,-0.0,-1.0,0.1676840347390056,1.0,2.0
23.925960540771484,-33.36405944824219,1.841076374053955,-0.0,-0.0,-1.0,0.1192402936808788,1.0,2.0
25.077163696289062,-34.16553497314453,1.6443772315979004,-0.0,-0.0,-1.0,0.0254414053228058,1.0,2.0
24.991146087646484,-34.30242156982422,1.6560893058776855,-0.0,-0.0,-1.0,0.0339414802438142,1.0,2.0
23.329082489013672,-33.3331298828125,1.7154507637023926,-0.0,-0.0,-1.0,0.1899808809654237,1.0,2.0
23.570377349853516,-32.95787811279297,1.6465764045715332,-0.0,-0.0,-1.0,0.1468468769849216,1.0,2.0
23.942886352539062,-32.81934356689453,1.558061122894287,-0.0,-0.0,-1.0,0.1544343816210861,2.0,2.0
24.099830627441406,-32.27070236206055,1.50162935256958,-0.0,-0.0,-1.0,0.1438775368609165,1.0,2.0
24.11219787597656,-32.587764739990234,1.5112619400024414,-0.0,-0.0,-1.0,0.1474562330103952,1.0,2.0
24.53687286376953,-32.290714263916016,1.4053215980529783,-0.0,-0.0,-1.0,0.1236735243490442,1.0,2.0
24.720985412597656,-32.16472625732422,1.3595995903015137,-0.0,-0.0,-1.0,0.0823696636534974,2.0,2.0
25.090557098388672,-34.275413513183594,1.6247034072875977,-0.0,-0.0,-1.0,0.0304752415152641,2.0,2.0
24.51479721069336,-34.294307708740234,1.6355834007263184,-0.0,-0.0,-1.0,0.0538340540384315,1.0,2.0
24.622024536132812,-33.62700271606445,1.5927534103393557,-0.0,-0.0,-1.0,0.0608220074211739,1.0,2.0
24.818668365478516,-33.05571746826172,1.5312891006469729,-0.0,-0.0,-1.0,0.0698940556262297,1.0,2.0
24.887353897094727,-32.738372802734375,1.5058398246765137,-0.0,-0.0,-1.0,0.0447138505548161,1.0,2.0
24.99146270751953,-32.38236999511719,1.4707555770874023,-0.0,-0.0,-1.0,0.0436234592494157,1.0,2.0
25.070255279541016,-31.995634078979492,1.4399728775024414,-0.7750591526832846,0.1031664767754114,-0.6234099677672934,0.1647740969062516,4.0,2.0
24.509523391723633,-34.04308319091797,1.6254072189331057,-0.0,-0.0,-1.0,0.0659182349715977,1.0,2.0
24.412717819213867,-33.93073654174805,1.6464252471923828,-0.0,-0.0,-1.0,0.0791072880581556,2.0,2.0
24.817798614501953,-33.60511016845703,1.5821309089660645,-0.0,-0.0,-1.0,0.0260959444630123,2.0,2.0
25.010547637939453,-33.23300552368164,1.5567235946655271,-0.0,-0.0,-1.0,0.0477856805737559,1.0,2.0
23.90874671936035,-33.72857666015625,1.743560791015625,-0.484451985506553,0.2552461000588044,-0.8367530711885851,0.1952503828511269,3.0,2.0
22.763999938964844,-33.74110794067383,1.945798397064209,-0.0,-0.0,-1.0,0.1416221398104196,1.0,2.0
25.148286819458008,-33.003116607666016,1.5370116233825684,-0.0,-0.0,-1.0,0.0275265357929773,1.0,2.0
23.922826766967773,-32.974082946777344,1.7641658782958984,-0.0,-0.0,-1.0,0.1865889571930701,1.0,2.0
23.84233665466309,-32.501617431640625,1.7925338745117188,-0.0,-0.0,-1.0,0.1556972724378859,1.0,2.0
24.166603088378903,-33.98478698730469,1.8696589469909668,-0.0,-0.0,-1.0,0.1125293855349981,1.0,2.0
23.25172233581543,-34.07294464111328,1.895303726196289,-0.0,-0.0,-1.0,0.2114146103733458,1.0,2.0
23.610698699951172,-33.07659912109375,1.7967758178710938,-0.0,-0.0,-1.0,0.1806536074019976,1.0,2.0
23.846725463867188,-32.87800598144531,1.7432036399841309,-0.0,-0.0,-1.0,0.1875614609901292,1.0,2.0
24.420995712280273,-32.36294174194336,1.6122570037841797,-0.0,-0.0,-1.0,0.1322365084130787,1.0,2.0
24.11878967285156,-32.9502067565918,1.6887593269348145,-0.0,-0.0,-1.0,0.1190252396854722,1.0,2.0
24.614482879638672,-32.106571197509766,1.5662131309509275,-0.0,-0.0,-1.0,0.1361240099966743,1.0,2.0
24.54564094543457,-32.270294189453125,1.5843253135681152,-0.0,-0.0,-1.0,0.1560437099899392,1.0,2.0
24.71910858154297,-33.14919662475586,1.569620132446289,-0.0,-0.0,-1.0,0.0758984749525946,2.0,2.0
23.655120849609375,-33.0057258605957,1.7275667190551758,-0.0,-0.0,-1.0,0.1555669917253355,2.0,2.0
23.56363296508789,-33.25728988647461,1.755934715270996,-0.0,-0.0,-1.0,0.132948139944701,1.0,2.0
23.87952041625977,-33.030120849609375,1.6787028312683103,-0.0,-0.0,-1.0,0.1898756311865881,1.0,2.0
24.31216049194336,-32.502288818359375,1.565438747406006,-0.0,-0.0,-1.0,0.0902174400067879,1.0,2.0
24.36150360107422,-33.121803283691406,1.5749425888061523,-0.0,-0.0,-1.0,0.1124221258963034,1.0,2.0
24.57683563232422,-33.1307487487793,1.5274953842163086,-0.0,-0.0,-1.0,0.1065270018810991,1.0,2.0
24.48656463623047,-32.244686126708984,1.5181221961975098,-0.0,-0.0,-1.0,0.165328753897247,1.0,2.0
