x,y,z,nx,ny,nz,curvature,density,label
15.182016372680664,-5.5792741775512695,0.666476845741272,0.6892745603091338,-0.0164009968944159,-0.724314564130475,0.0671404844439244,3.0,1.0
14.048280715942385,-6.588169097900391,0.3717831373214721,-0.0,-0.0,-1.0,0.123560346294956,1.0,1.0
14.281719207763672,-6.391496658325195,0.375377893447876,-0.6756386226804859,0.5594164862583292,-0.4801725173776612,0.2037459352841925,6.0,1.0
14.412076950073242,-6.74077033996582,0.3477954864501953,0.7449533653781611,0.6549980640749175,0.1265781160780273,0.1860670716250221,5.0,1.0
14.255474090576172,-5.731842041015625,0.4186296463012695,0.8572866146021206,0.4822755807494176,0.1801941304173008,0.1227998904962841,5.0,1.0
14.305536270141602,-6.314416885375977,0.3794183731079101,0.2150931188789106,-0.366296182347648,-0.9052966679539262,0.2575101221986214,4.0,1.0
12.714056968688965,-6.513872146606445,0.3312174677848816,-0.0,-0.0,-1.0,0.2028526971204303,1.0,1.0
14.39344596862793,-6.386125564575195,0.2869952917098999,-0.0,-0.0,-1.0,0.2587229167381425,1.0,1.0
14.40731716156006,-6.79203987121582,0.2586636543273926,-0.0,-0.0,-1.0,0.1420853397125028,1.0,1.0
14.04258155822754,-5.930036544799805,0.3299725651741028,-0.705870321391007,0.7079135180443238,0.024607729465861,0.2695017136635264,3.0,1.0
14.391838073730469,-5.454986572265625,0.3506572842597961,-0.0,-0.0,-1.0,0.1948784433493356,2.0,1.0
14.754173278808594,-4.598484992980957,0.396771490573883,-0.0,-0.0,-1.0,0.2241755970413933,2.0,1.0
14.91688346862793,-5.599315643310547,0.3224150538444519,-0.0,-0.0,-1.0,0.1964973270007727,1.0,1.0
12.846546173095703,-6.525289535522461,0.647185206413269,-0.0,-0.0,-1.0,0.2814607874783207,2.0,1.0
12.747503280639648,-4.9541778564453125,0.7100978493690491,-0.0,-0.0,-1.0,0.049421698278035,2.0,1.0
14.325762748718262,-6.213933944702148,0.642071545124054,-0.0,-0.0,-1.0,0.1489520664861158,1.0,1.0
14.217325210571287,-5.740779876708984,0.6635081768035889,-0.0,-0.0,-1.0,0.1453982369015815,2.0,1.0
15.145158767700195,-5.637548446655273,0.653117299079895,-0.1419781012952587,0.9230057016183464,-0.3576348606226996,0.0755219821701906,3.0,1.0
12.774422645568848,-6.50242805480957,0.3004101514816284,0.9732942566448164,0.226878221728502,-0.0349937492636487,0.2228739599384807,3.0,1.0
12.732365608215332,-5.69770622253418,0.3575600385665893,-0.150977223649482,0.2942096541743236,-0.94374072569203,0.0797593425397238,3.0,1.0
12.716768264770508,-6.142181396484375,0.3274573087692261,-0.0,-0.0,-1.0,0.0677457312094546,1.0,1.0
13.230175018310549,-6.780601501464844,0.2639110088348388,-0.0,-0.0,-1.0,0.0651690413317595,2.0,1.0
13.188894271850586,-6.077146530151367,0.315127968788147,-0.0,-0.0,-1.0,0.117222791275232,2.0,1.0
14.019775390625,-6.494972229003906,0.2521973848342895,-0.0,-0.0,-1.0,0.2119570398989326,1.0,1.0
14.080254554748535,-5.754350662231445,0.3030743598937988,-0.0,-0.0,-1.0,0.1673308318320072,2.0,1.0
14.358846664428713,-6.269269943237305,0.2538063526153564,-0.6195451450272736,-0.2308947913521984,-0.7502342358220926,0.2400024365669273,7.0,1.0
14.722641944885254,-5.441692352294922,0.297926664352417,-0.0,-0.0,-1.0,0.0494273334005863,1.0,1.0
14.968010902404783,-5.558759689331055,0.2780585289001465,-0.4122350854230934,0.0168593809794273,-0.910921509033136,0.2018256519828787,3.0,1.0
15.175710678100586,-5.82487678527832,0.2484753131866455,-0.0,-0.0,-1.0,0.1299218458313857,1.0,1.0
14.770323753356934,-4.53354549407959,0.3619418144226074,-0.0,-0.0,-1.0,0.2341184470673483,2.0,1.0
15.07358741760254,-4.807927131652832,0.3283606767654419,-0.0,-0.0,-1.0,0.103095333832652,1.0,1.0
14.020021438598633,-4.762692451477051,0.9687416553497314,-0.0,-0.0,-1.0,0.1281682173144987,2.0,1.0
15.18398094177246,-5.589389801025391,0.8731145858764648,-0.0,-0.0,-1.0,0.0973007744616304,1.0,1.0
13.584705352783203,-4.817949295043945,0.197011113166809,-0.157042034283757,0.7869100083404547,-0.5967498958874187,0.1900640416124874,3.0,1.0
13.742374420166016,-4.967510223388672,0.1832811832427978,0.5081689053096443,0.7455215089502403,-0.4312331658963104,0.1175870784091048,3.0,1.0
14.283160209655762,-4.652405738830566,0.1976432800292968,-0.0,-0.0,-1.0,0.1246875277504,2.0,1.0
14.403135299682615,-4.764337539672852,0.1866756677627563,-0.0,-0.0,-1.0,0.1002503535305694,1.0,1.0
14.656726837158203,-5.039661407470703,0.1600165367126464,-0.0,-0.0,-1.0,0.1063953237549654,2.0,1.0
14.553088188171388,-4.74462890625,0.1851414442062378,-0.0,-0.0,-1.0,0.120887635057947,1.0,1.0
12.891094207763672,-6.428906440734863,0.7415015697479248,-0.0,-0.0,-1.0,0.1772504353192562,1.0,1.0
14.769393920898438,-4.492765426635742,0.200036883354187,-0.6004030358835993,-0.5308303629337331,-0.5981097894947037,0.2762531292196078,3.0,1.0
14.343624114990234,-6.218371391296387,0.7041763067245483,-0.0,-0.0,-1.0,0.1458000679325257,1.0,1.0
14.202492713928224,-5.717389106750488,0.7314828634262085,-0.1708735123132536,-0.8787875356442952,-0.4455723397900267,0.1501686875710774,3.0,1.0
14.410447120666504,-6.217057228088379,0.701891303062439,-0.0,-0.0,-1.0,0.2017483097397347,1.0,1.0
13.902005195617676,-4.875911712646484,0.7781892418861389,-0.0,-0.0,-1.0,0.1945299068783394,2.0,1.0
14.047428131103516,-4.984405517578125,0.7689303755760193,-0.8780139581814181,-0.150397992803391,0.4543918276106093,0.2180173455541527,3.0,1.0
12.726396560668944,-6.380001068115234,0.2491637468338012,-0.0,-0.0,-1.0,0.168859770760774,2.0,1.0
13.167367935180664,-4.997384071350098,0.326438307762146,-0.7113023911046303,0.2552028888161146,-0.6549201431844538,0.2077329194861986,3.0,1.0
12.947982788085938,-4.4309844970703125,0.3481049537658691,-0.0,-0.0,-1.0,0.1080471935503548,2.0,1.0
13.723388671875,-6.8338727951049805,0.2033467292785644,-0.0,-0.0,-1.0,0.0946106516969571,1.0,1.0
14.25825309753418,-6.200545310974121,0.2537215948104858,-0.0,-0.0,-1.0,0.1922057493085275,2.0,1.0
14.34145450592041,-6.315316200256348,0.2524675130844116,-0.4978718127065292,-0.2193136394853343,-0.8390620868851193,0.1876083858440273,5.0,1.0
14.262548446655272,-5.390342712402344,0.2874858379364013,-0.0,-0.0,-1.0,0.1274378558029039,2.0,1.0
14.864055633544922,-5.519325256347656,0.3088115453720093,-0.0,-0.0,-1.0,0.1556001665876783,1.0,1.0
15.059356689453123,-5.657537460327148,0.3107800483703613,-0.4708861131950853,-0.6429142165618339,-0.6040923592818476,0.240915420213514,3.0,1.0
14.041787147521973,-5.230181694030762,0.2833441495895386,-0.0,-0.0,-1.0,0.1212070755372782,1.0,1.0
14.506135940551758,-4.556501388549805,0.3327047824859619,-0.0,-0.0,-1.0,0.182649051693676,1.0,1.0
14.731683731079102,-4.495670318603516,0.3458850383758545,-0.0,-0.0,-1.0,0.1440281965586558,1.0,1.0
15.153648376464844,-5.556349754333496,0.9192250967025756,-0.0,-0.0,-1.0,0.0973007744616304,2.0,1.0
14.317350387573242,-6.430327415466309,0.6676394939422607,-0.0,-0.0,-1.0,0.1931475252736398,2.0,1.0
14.057842254638672,-4.889316558837891,0.694399356842041,-0.6830673359476725,0.3989102144633547,-0.6117921668002544,0.2486514433114366,5.0,1.0
12.835600852966309,-6.629169464111328,0.4755342006683349,-0.0,-0.0,-1.0,0.2079783337288146,2.0,1.0
14.416573524475098,-6.373298645019531,0.5609800219535828,-0.0,-0.0,-1.0,0.2212617683261569,1.0,1.0
14.391387939453123,-6.163122177124023,0.5621650218963623,-0.158657092555643,0.694590465951216,-0.7016922484903642,0.1304063826912453,3.0,1.0
14.230941772460938,-5.625046730041504,0.5598056316375732,0.3653482950745529,0.8100288071118841,-0.4586654062985519,0.0888630910764084,3.0,1.0
14.8162202835083,-5.859617233276367,0.5871009826660156,-0.0,-0.0,-1.0,0.1279871322154606,2.0,1.0
12.835673332214355,-4.835995674133301,0.4890987873077392,0.9137716946256426,-0.382176767280668,0.1377033356599613,0.1802087896315695,4.0,1.0
14.142223358154297,-4.882755279541016,0.7036386728286743,0.3665739895768024,-0.3641497593775974,-0.8561649741206332,0.2035691245320288,4.0,1.0
15.01345920562744,-5.50675106048584,0.4216043353080749,-0.0,-0.0,-1.0,0.1412374577294161,2.0,1.0
14.018287658691406,-4.822479248046875,0.919596254825592,-0.0,-0.0,-1.0,0.1307861775700808,2.0,1.0
12.826776504516602,-6.558850288391113,0.5075041055679321,-0.0,-0.0,-1.0,0.232654440189982,1.0,1.0
14.324580192565918,-6.222229957580566,0.5626918077468872,-0.1156148156833721,-0.2761327344612765,-0.9541404128080094,0.1643074824146805,3.0,1.0
12.816523551940918,-5.578860282897949,0.5188702344894409,-0.0,-0.0,-1.0,0.1360052373908982,1.0,1.0
15.169894218444824,-5.568343162536621,0.5999001264572144,0.4617781488963121,0.8848620404473676,-0.0614826038584602,0.0855060459534782,5.0,1.0
14.571063995361328,-4.583038330078125,0.594014048576355,-0.0,-0.0,-1.0,0.1114613676079208,2.0,1.0
14.793907165527344,-4.539298057556152,0.6023759841918945,-0.0,-0.0,-1.0,0.1502859257548026,1.0,1.0
12.823850631713867,-6.7736921310424805,0.3328617811203003,-0.0,-0.0,-1.0,0.1548791310295531,1.0,1.0
12.771844863891602,-6.485562324523926,0.3380604982376098,0.4800545727464135,0.5442194835078502,-0.6880209015398491,0.2108821202460688,4.0,1.0
12.85845947265625,-6.5691938400268555,0.3388359546661377,-0.0,-0.0,-1.0,0.1844926129430598,2.0,1.0
14.507319450378418,-6.738852500915527,0.3834770917892456,0.0055962325679272,0.6759287749334378,-0.7369457058685043,0.1983400158335543,4.0,1.0
14.243871688842772,-6.299178123474121,0.3876506090164184,0.3206164036528712,0.906979990999404,-0.2731161248176689,0.2026058233543554,3.0,1.0
12.743326187133787,-5.585816383361816,0.3573803901672363,-0.0,-0.0,-1.0,0.047522339377311,2.0,1.0
14.968269348144531,-5.681022644042969,0.4248257875442505,-0.0,-0.0,-1.0,0.1652132353520252,1.0,1.0
14.07901668548584,-4.825387001037598,0.418421983718872,-0.0,-0.0,-1.0,0.2044555838653964,1.0,1.0
14.30498218536377,-4.807525634765625,0.4261441826820373,-0.0,-0.0,-1.0,0.1510859579271601,1.0,1.0
12.851316452026367,-6.628134727478027,0.3024535179138183,-0.0,-0.0,-1.0,0.1554291928622256,1.0,1.0
14.487186431884766,-6.758917808532715,0.3705936670303345,0.0055962325679272,0.6759287749334378,-0.7369457058685043,0.1986622020595509,4.0,1.0
14.198986053466797,-6.267373085021973,0.3656263351440429,-0.0,-0.0,-1.0,0.1964935604787597,2.0,1.0
14.96763038635254,-5.600249290466309,0.4074373245239258,-0.0,-0.0,-1.0,0.1813467653830695,1.0,1.0
14.245858192443848,-4.857969284057617,0.3849914073944092,-0.0,-0.0,-1.0,0.1989409891099718,2.0,1.0
14.85282039642334,-4.490738868713379,0.4163965582847595,-0.0,-0.0,-1.0,0.2041072995044753,2.0,1.0
13.766107559204102,-6.623629570007324,0.8972926735877991,-0.0,-0.0,-1.0,0.1159405585353966,1.0,1.0
12.93719482421875,-4.4234771728515625,0.6912395358085632,-0.0,-0.0,-1.0,0.1273984088218286,2.0,1.0
14.154346466064451,-4.926962852478027,0.7074575424194336,-0.8442536187180131,-0.0092509675165326,-0.5358640190211954,0.2029395699431055,4.0,1.0
12.853195190429688,-5.115339279174805,0.8498967885971069,-0.0,-0.0,-1.0,0.1370555104914586,1.0,1.0
14.758007049560549,-4.685845375061035,0.8731234669685364,-0.0,-0.0,-1.0,0.1203052075725897,1.0,1.0
13.894153594970703,-4.554566860198975,0.1266990900039672,-0.0,-0.0,-1.0,0.0586612966288968,1.0,1.0
14.749197006225586,-4.835512638092041,0.1389833688735962,-0.0,-0.0,-1.0,0.0816391677975438,1.0,1.0
13.228479385375977,-4.521122455596924,0.2920615673065185,-0.6003183172051634,0.7934791209978941,-0.1000440031604613,0.106115197689498,3.0,1.0
13.4390869140625,-4.680958271026611,0.290867805480957,-0.0,-0.0,-1.0,0.1179963221794734,1.0,1.0
13.973243713378906,-5.0955729484558105,0.2866925001144409,-0.4497197422055923,0.5876408533895611,-0.6726294528922474,0.1306736708403106,3.0,1.0
14.129600524902344,-5.2728400230407715,0.2829819917678833,-0.0,-0.0,-1.0,0.1098234461487275,1.0,1.0
14.36445426940918,-5.309987545013428,0.2865307331085205,-0.0,-0.0,-1.0,0.1577410068399341,1.0,1.0
14.57423210144043,-4.462388515472412,0.325003981590271,-0.0,-0.0,-1.0,0.192074440278936,1.0,1.0
14.788690567016602,-5.400479793548584,0.2918097972869873,-0.0,-0.0,-1.0,0.0454476163891066,1.0,1.0
15.195987701416016,-4.651244640350342,0.3312890529632568,-0.0,-0.0,-1.0,0.1073721723962552,1.0,1.0
13.678716659545898,-4.502870082855225,0.1918507814407348,-0.0,-0.0,-1.0,0.0701121154775328,2.0,1.0
13.621387481689451,-4.824482440948486,0.17874276638031,-0.2473081326810452,0.641634185193146,-0.7260470094293775,0.1733779787529466,3.0,1.0
14.531906127929688,-4.874099254608154,0.2038009166717529,-0.0,-0.0,-1.0,0.1162567530680871,1.0,1.0
14.75229835510254,-5.215208530426025,0.1973234415054321,0.2399697835665956,-0.2212379867295645,-0.945234497996582,0.1164241207553836,3.0,1.0
12.776519775390623,-6.403672695159912,0.8022570610046387,-0.0,-0.0,-1.0,0.0539023629589893,1.0,1.0
13.233636856079102,-4.522679805755615,0.2487621307373047,-0.6003183172051634,0.7934791209978941,-0.1000440031604613,0.1215686406248435,3.0,1.0
13.532049179077148,-4.482235431671143,0.2602437734603882,-0.0,-0.0,-1.0,0.0549939430982093,1.0,1.0
13.500900268554688,-4.728285789489746,0.2559611797332763,-0.3871755268742125,0.0370005593166367,-0.9212633011251083,0.1295145239026782,3.0,1.0
14.711578369140623,-5.266493320465088,0.2918533086776733,-0.0,-0.0,-1.0,0.1091093645203123,2.0,1.0
13.386001586914062,-4.736177921295166,0.2452853918075561,-0.0,-0.0,-1.0,0.1191685716869969,2.0,1.0
13.662225723266602,-4.851029396057129,0.252739667892456,0.7298180416605206,0.0279718197366615,-0.6830689594524277,0.1762659221477221,3.0,1.0
13.927982330322266,-4.881921291351318,0.2616268396377563,-0.0,-0.0,-1.0,0.1946261221392188,1.0,1.0
14.958805084228516,-5.533082962036133,0.2826998233795166,-0.3812398920389889,0.0830734307440043,-0.9207360913000644,0.2105252680716092,4.0,1.0
13.437028884887695,-4.377195835113525,0.3449976444244385,-0.0,-0.0,-1.0,0.1440788414209975,1.0,1.0
13.762500762939451,-4.683135509490967,0.3568354845046997,-0.0,-0.0,-1.0,0.127790979469921,1.0,1.0
14.069665908813477,-5.17614221572876,0.3674964904785156,-0.0,-0.0,-1.0,0.0812745420579103,1.0,1.0
14.672859191894531,-5.400543212890625,0.3888260126113891,-0.0,-0.0,-1.0,0.0555364253492973,1.0,1.0
13.0792236328125,-4.505918502807617,0.3236578702926636,-0.0,-0.0,-1.0,0.0844649026780349,1.0,1.0
13.072856903076172,-4.5993876457214355,0.3233994245529175,-0.0,-0.0,-1.0,0.1368534992178023,1.0,1.0
12.82832145690918,-5.950408458709717,0.3122304677963257,-0.0,-0.0,-1.0,0.1340206336032568,1.0,1.0
14.648250579833984,-4.711638450622559,0.3816375136375427,-0.0,-0.0,-1.0,0.1965635733673264,1.0,1.0
14.711400985717772,-4.614193439483643,0.3840661644935608,-0.0,-0.0,-1.0,0.1953229844775963,2.0,1.0
14.002574920654297,-4.883710861206055,0.6378406882286072,-0.0,-0.0,-1.0,0.1688348897528378,2.0,1.0
14.202598571777344,-4.7908430099487305,0.7779691219329834,-0.0,-0.0,-1.0,0.1502483734590938,2.0,1.0
14.13629913330078,-4.8828887939453125,0.7755956053733826,-0.0,-0.0,-1.0,0.1381590852146549,2.0,1.0
15.16288948059082,-5.502435684204102,0.7872260808944702,-0.0,-0.0,-1.0,0.0754583930207574,2.0,1.0
14.55533218383789,-4.583440780639648,0.4984891414642334,-0.7952955398390613,0.4573067257568002,-0.3979642733835428,0.1545651327863715,3.0,1.0
15.168304443359377,-4.400259494781494,0.1789121627807617,-0.0,-0.0,-1.0,0.1552134324595979,1.0,1.0
14.886812210083008,-4.530614852905273,0.1644231081008911,-0.0,-0.0,-1.0,0.2166635244409251,1.0,1.0
14.14375114440918,-4.737667560577393,0.9427759647369384,-0.0,-0.0,-1.0,0.0807698098613766,1.0,1.0
14.135028839111328,-5.718118190765381,0.9386922121047974,-0.0,-0.0,-1.0,0.0897742605714117,2.0,1.0
14.620231628417969,-4.545146465301514,0.950145959854126,-0.0,-0.0,-1.0,0.1185552538169777,2.0,1.0
13.232416152954102,-4.442033767700195,0.1882961988449096,-0.0,-0.0,-1.0,0.1183354533219221,1.0,1.0
14.693485260009766,-4.609440326690674,0.2530043125152588,-0.0,-0.0,-1.0,0.1954115462775135,1.0,1.0
12.764427185058594,-6.417022705078125,1.0177403688430786,-0.0,-0.0,-1.0,0.0818082005154782,1.0,2.0
14.735361099243164,-4.373647689819336,0.4874528646469116,-0.0,-0.0,-1.0,0.1217194410237636,2.0,1.0
14.017101287841797,-4.82322359085083,0.454555869102478,-0.9761863626924892,-0.2059327173120416,0.0682048475820231,0.1599514981134796,4.0,1.0
12.712848663330078,-6.24915885925293,1.203342318534851,-0.0,-0.0,-1.0,0.1228431830694294,1.0,2.0
14.078779220581056,-4.682609558105469,0.2925039529800415,-0.0,-0.0,-1.0,0.1632047088768669,1.0,1.0
12.724128723144531,-6.477975845336914,0.6214184761047363,0.6442240165249536,-0.3865130520319044,-0.6599871795280862,0.1674558797299204,3.0,1.0
14.605274200439451,-4.514376163482666,0.7599095106124878,-0.0,-0.0,-1.0,0.0456151684308421,2.0,1.0
14.07537841796875,-4.922675132751465,0.7282825708389282,-0.9722144934036272,0.1284102911013416,-0.1957288327130102,0.2442115485583669,6.0,1.0
14.01093292236328,-4.772690773010254,0.7342257499694824,-0.7488973050281666,0.3992946020735085,-0.5288824512843167,0.2102463584466369,4.0,1.0
14.648035049438477,-4.510875701904297,0.6722739934921265,-0.0,-0.0,-1.0,0.0714995108907727,1.0,1.0
13.957319259643556,-4.858687877655029,0.6460034847259521,-0.0,-0.0,-1.0,0.224787971359017,1.0,1.0
14.514692306518556,-4.499845504760742,0.3842687606811523,-0.0,-0.0,-1.0,0.2032094985645405,1.0,1.0
14.094038009643556,-5.795692443847656,0.3094913959503174,-0.0,-0.0,-1.0,0.1107049240340208,2.0,1.0
14.074712753295898,-5.618015766143799,0.9947748184204102,-0.0,-0.0,-1.0,0.1083707603638823,2.0,1.0
12.720012664794922,-5.616334915161133,0.4724074602127075,-0.0,-0.0,-1.0,0.0631996061213535,1.0,1.0
14.347412109375,-6.140038967132568,0.5824970006942749,0.5386537892581311,0.841801235052256,-0.0349682138856577,0.1705330165619021,3.0,1.0
13.986724853515623,-6.407280921936035,0.5874220132827759,-0.0,-0.0,-1.0,0.2432331828003794,2.0,1.0
14.35194206237793,-6.456923484802246,0.6065171957015991,-0.0,-0.0,-1.0,0.2245243885344676,1.0,1.0
15.066488265991213,-4.985716819763184,0.1809448003768921,-0.0,-0.0,-1.0,0.0933904514116093,2.0,1.0
14.073719024658203,-4.799781799316406,0.7755569815635681,-0.0,-0.0,-1.0,0.1705550554747056,2.0,1.0
15.004518508911133,-4.560203552246094,0.8177506923675537,-0.5907718964853776,0.7552772294737496,0.2838042863691934,0.1900115581192629,4.0,1.0
15.162029266357422,-5.541388511657715,0.7658728957176208,-0.4669562266334981,0.1902674965815806,-0.8635682730119163,0.0714300181582978,4.0,1.0
12.916240692138672,-6.52973747253418,0.641655683517456,-0.0,-0.0,-1.0,0.1784019333170113,2.0,1.0
14.38850212097168,-4.609628677368164,0.5709208250045776,-0.0,-0.0,-1.0,0.2195612702184314,1.0,1.0
15.016372680664062,-5.241994380950928,0.6186431646347046,-0.0,-0.0,-1.0,0.0882258307380317,1.0,1.0
14.89589500427246,-5.319764137268066,0.6158100366592407,-0.0,-0.0,-1.0,0.0784195646558626,1.0,1.0
12.730567932128906,-5.901194095611572,1.1969252824783323,-0.0,-0.0,-1.0,0.1237206921014793,1.0,2.0
13.84976577758789,-6.78431510925293,1.2209104299545288,-0.0,-0.0,-1.0,0.0895057322890028,1.0,2.0
15.02281379699707,-4.497461318969727,0.3707046508789062,-0.0,-0.0,-1.0,0.1369090032407834,1.0,1.0
14.789777755737305,-4.669595241546631,0.3764302730560303,-0.0,-0.0,-1.0,0.174968340994668,1.0,1.0
14.83713722229004,-5.877258777618408,0.4692848920822143,0.8998182092334254,0.3646749455298618,-0.2394564144781754,0.1119139091723643,4.0,1.0
14.756345748901367,-5.933558940887451,0.470254898071289,-0.0,-0.0,-1.0,0.1125649596756163,1.0,1.0
15.098896026611328,-4.475109100341797,0.94235360622406,-0.0,-0.0,-1.0,0.1319026731516315,1.0,1.0
13.36020851135254,-4.427886009216309,0.9341897368431092,-0.0,-0.0,-1.0,0.1313908720898765,1.0,1.0
13.338836669921877,-4.552682876586914,0.9438597559928894,-0.0,-0.0,-1.0,0.1152959905872237,1.0,1.0
13.836647033691406,-5.206075191497803,0.9939651489257812,-0.0,-0.0,-1.0,0.0666691922377358,1.0,1.0
13.824220657348633,-6.026397705078125,1.053161382675171,-0.0,-0.0,-1.0,0.1289302905441978,1.0,2.0
15.208667755126951,-5.602350234985352,0.3788705468177795,-0.0,-0.0,-1.0,0.1612148617865995,1.0,1.0
14.234262466430664,-5.745480060577393,0.3354739546775818,-0.0,-0.0,-1.0,0.1241629742323896,1.0,1.0
12.769243240356444,-5.048060417175293,0.2524681687355041,-0.0,-0.0,-1.0,0.1705114350665758,1.0,1.0
15.097869873046877,-6.277275085449219,0.3859004378318786,-0.0,-0.0,-1.0,0.1299617068190474,1.0,1.0
13.804588317871094,-6.03929328918457,0.3204983472824096,-0.0,-0.0,-1.0,0.1564413999394989,1.0,1.0
14.308160781860352,-6.369213104248047,0.3500615358352661,-0.3111887075271229,0.9491432395566516,-0.0478403502443674,0.1967422253258658,6.0,1.0
14.053129196166992,-6.523530006408691,0.3405485153198242,-0.0,-0.0,-1.0,0.2123737483830548,1.0,1.0
14.312097549438477,-6.81965970993042,0.357522189617157,-0.0,-0.0,-1.0,0.1586695908499149,2.0,1.0
13.433835983276367,-6.723023414611816,0.3144397735595703,-0.0,-0.0,-1.0,0.2182741965293768,1.0,1.0
12.731584548950195,-6.643470764160156,0.2799229025840759,-0.0,-0.0,-1.0,0.1105646929852863,1.0,1.0
14.058408737182615,-5.662802219390869,0.9360787272453308,-0.6318921424717825,-0.7239632505765374,0.2767481383805024,0.1026978592833233,3.0,1.0
14.056493759155272,-5.723731994628906,0.937135636806488,0.2063617137435459,-0.8261444905508076,0.5243091872486819,0.1026978592833233,5.0,1.0
15.182222366333008,-5.571365833282471,0.5447701215744019,0.6881353402495344,0.7231922956329262,0.0588443458357375,0.0921689660521679,5.0,1.0
14.37171745300293,-6.196307182312012,0.5298628807067871,0.3455591489064992,0.8249524841305674,-0.4472608562503783,0.142747518820595,3.0,1.0
14.222414016723633,-5.714599132537842,0.5110561847686768,0.9378171835178368,-0.3205531307354785,-0.133208936165542,0.110686306301549,3.0,1.0
14.346590042114258,-6.402481555938721,0.5343508720397949,-0.0,-0.0,-1.0,0.2107471616024084,2.0,1.0
14.194223403930664,-6.346924304962158,0.5269079208374023,-0.0,-0.0,-1.0,0.155219307364878,1.0,1.0
12.767309188842772,-6.583593845367432,0.4772218465805053,0.6427080153191721,0.7632446761935857,0.0662115647499681,0.1851961179904205,3.0,1.0
14.83539581298828,-4.43159294128418,0.4089109301567077,-0.0,-0.0,-1.0,0.1768270913558008,2.0,1.0
15.10728359222412,-5.534697532653809,0.4724432229995727,-0.0,-0.0,-1.0,0.1455965491751691,2.0,1.0
15.106219291687012,-6.237512111663818,0.5053174495697021,0.95043400784427,-0.1785019716266989,-0.2545824873365391,0.1812399141711639,5.0,1.0
13.01557731628418,-4.408866882324219,0.3210344314575195,-0.7299143414529451,0.0529646326513522,-0.6814835301233778,0.0622990179523252,3.0,1.0
14.330102920532228,-6.391870498657227,0.4755846261978149,-0.0,-0.0,-1.0,0.201462161864179,1.0,1.0
13.234182357788086,-5.057766437530518,0.3610779047012329,0.8317326395197001,-0.3367062402207139,-0.4414178566324924,0.1228856858843611,3.0,1.0
14.020341873168944,-6.468289852142334,0.464423656463623,-0.0,-0.0,-1.0,0.1664666127893937,1.0,1.0
14.025558471679688,-4.698294639587402,0.9641569256782532,-0.0,-0.0,-1.0,0.1248398734580648,2.0,1.0
14.05454444885254,-5.679206848144531,1.0092277526855469,-0.0,-0.0,-1.0,0.1026978592833232,2.0,2.0
14.774377822875977,-4.495494842529297,0.4459562301635742,-0.8450136649214064,0.5336035829054792,0.0349159334191246,0.286497173861708,3.0,1.0
15.086894989013672,-6.300622463226318,0.4760771989822387,0.5661395926475441,-0.4184460277018318,-0.710203409973108,0.1952642864197535,4.0,1.0
14.299643516540527,-6.834318161010742,0.4362657070159912,-0.0,-0.0,-1.0,0.1580741992997189,2.0,1.0
14.03689956665039,-4.735808372497559,0.958835244178772,-0.4809249565048423,-0.0210513274831085,-0.876509000422708,0.1430204137033709,3.0,1.0
14.073083877563477,-5.720334053039551,0.9682236909866332,-0.0508187994048157,-0.9845377394620513,0.1676391636879856,0.1026978592833233,4.0,1.0
12.70965576171875,-6.477953910827637,0.9485348463058472,-0.0,-0.0,-1.0,0.0602079156164879,2.0,1.0
15.088068962097168,-4.477685928344727,0.1111657619476318,-0.0,-0.0,-1.0,0.1626008887987565,2.0,1.0
12.861530303955078,-6.4271559715271,0.6217060089111328,0.9791496391746344,-0.1604774897057315,0.1245510313162051,0.1748359588841907,3.0,1.0
14.65074062347412,-4.507481098175049,0.5762677788734436,-0.0,-0.0,-1.0,0.096935147961891,2.0,1.0
14.353955268859863,-4.369805335998535,0.5535317659378052,-0.0,-0.0,-1.0,0.1470911306397662,1.0,1.0
14.748900413513184,-5.880580425262451,0.670937180519104,-0.0,-0.0,-1.0,0.1365649369715391,1.0,1.0
14.362396240234377,-6.086329460144043,0.666775107383728,-0.0,-0.0,-1.0,0.2614134218209956,2.0,1.0
14.285358428955078,-6.354759216308594,0.680076003074646,-0.0,-0.0,-1.0,0.2183000479887647,2.0,1.0
12.763801574707031,-6.340492248535156,1.1803996562957764,0.3132945089931055,0.0669324753008806,-0.947294354667474,0.1228431830694293,4.0,2.0
14.688125610351562,-4.520997047424316,0.4352121353149414,-0.5461371797055954,0.6713164990838685,-0.5010672000849754,0.2214232649759948,4.0,1.0
14.01270866394043,-4.83797550201416,0.413435697555542,-0.2994701331293629,-0.8874475034249073,0.3503634798725196,0.1618278159305473,3.0,1.0
14.537205696105955,-5.968748092651367,0.5229558348655701,-0.0,-0.0,-1.0,0.1266469870728397,2.0,1.0
14.151129722595217,-5.70178747177124,0.4812009930610657,0.1265511392155966,0.9894013759122796,-0.0712020119527723,0.1395789908021759,3.0,1.0
13.199821472167969,-4.526177406311035,0.3364858031272888,-0.0,-0.0,-1.0,0.0882072919629373,1.0,1.0
13.14117431640625,-4.583923816680908,0.3369041085243225,-0.0,-0.0,-1.0,0.0839439880263439,2.0,1.0
12.715495109558104,-4.868424892425537,0.3295661211013794,-0.0,-0.0,-1.0,0.1268662849171443,1.0,1.0
12.861364364624023,-5.734622955322266,0.3992072343826294,-0.0,-0.0,-1.0,0.2434590701667233,1.0,1.0
14.03843116760254,-4.694798946380615,0.8980588912963867,-0.0,-0.0,-1.0,0.1248398734580649,2.0,1.0
12.71310806274414,-5.011221885681152,0.8804256916046143,-0.0,-0.0,-1.0,0.1003496617937454,1.0,1.0
14.93222999572754,-5.425259113311768,0.1522252559661865,-0.0,-0.0,-1.0,0.0430049036038697,1.0,1.0
14.817455291748049,-5.128902912139893,0.1440211534500122,-0.0,-0.0,-1.0,0.0998618039718677,1.0,1.0
14.258334159851074,-6.523849010467529,0.607585072517395,-0.0,-0.0,-1.0,0.1944575466852323,1.0,1.0
12.71872329711914,-6.6329569816589355,0.522270917892456,-0.0,-0.0,-1.0,0.1395778425151934,1.0,1.0
14.82672119140625,-4.581044673919678,0.5695395469665527,-0.0,-0.0,-1.0,0.2234179317846781,1.0,1.0
12.793490409851074,-5.613049030303955,0.4499782919883728,-0.0,-0.0,-1.0,0.12173104419661,1.0,1.0
13.705265045166016,-5.131474018096924,0.172865629196167,-0.0,-0.0,-1.0,0.1179252788491671,2.0,1.0
13.559605598449709,-4.846700191497803,0.1657037734985351,-0.0,-0.0,-1.0,0.1728982121887773,2.0,1.0
13.507051467895508,-4.817399501800537,0.162103533744812,-0.0,-0.0,-1.0,0.1741664868387296,1.0,1.0
14.440814971923828,-4.3815717697143555,0.2383255958557129,-0.0,-0.0,-1.0,0.2233298541959619,2.0,1.0
13.710840225219728,-4.950377941131592,0.1757395267486572,0.5081689053096443,0.7455215089502403,-0.4312331658963104,0.1040443380438491,3.0,1.0
13.816033363342283,-4.368102073669434,0.1911567449569702,-0.0,-0.0,-1.0,0.0620159452233423,1.0,1.0
12.769658088684082,-5.209068775177002,0.6658535003662109,-0.0,-0.0,-1.0,0.0913761263101716,1.0,1.0
14.364654541015623,-6.250804424285889,0.3334123492240906,-0.0,-0.0,-1.0,0.211696307509812,2.0,1.0
14.956790924072266,-4.639729022979736,0.7137535214424133,-0.0,-0.0,-1.0,0.1868434368517271,1.0,1.0
14.189717292785645,-4.988111972808838,0.666144847869873,-0.2581762134992008,0.8578739164016694,-0.4442942564797308,0.2078762766262629,3.0,1.0
14.848968505859377,-4.409346580505371,0.5831260085105896,-0.0,-0.0,-1.0,0.1266776106152107,2.0,1.0
14.526875495910645,-4.519309997558594,0.562798798084259,-0.2605906840496238,0.9480517006355388,-0.1824567573662651,0.1519793957161821,3.0,1.0
12.874431610107422,-6.551445007324219,0.4453166127204895,0.6220202020050861,-0.5364455882456899,-0.5703656714330623,0.2049962912355954,3.0,1.0
12.7473726272583,-4.949102401733398,0.4307420253753662,0.061309905939533,0.5564316757692859,-0.8286283157328558,0.1235026921591944,3.0,1.0
13.739206314086914,-4.430246353149414,0.1534881591796875,-0.0,-0.0,-1.0,0.0553404162252885,2.0,1.0
12.731794357299805,-4.800516128540039,0.8218250274658203,-0.0,-0.0,-1.0,0.0792901931352707,1.0,1.0
14.57155704498291,-4.5850324630737305,0.8402258157730103,-0.5897598770543566,-0.7438638753542719,-0.3144039159421435,0.099723294659981,4.0,1.0
14.691551208496094,-4.53419303894043,0.3928562998771667,-0.5116926419425054,0.807660271631255,-0.2930111359836453,0.1890210384628837,3.0,1.0
13.396240234375,-6.8028564453125,0.2841615676879883,-0.0,-0.0,-1.0,0.1957556733821029,2.0,1.0
14.88453483581543,-4.834665298461914,0.733257532119751,-0.0,-0.0,-1.0,0.1200180157484227,1.0,1.0
14.365650177001951,-5.036638259887695,0.3786097764968872,-0.0,-0.0,-1.0,0.1298307194961793,1.0,1.0
13.177101135253906,-5.674339294433594,0.4880691170692444,-0.0,-0.0,-1.0,0.1482935343297267,1.0,1.0
12.972063064575195,-6.530385971069336,0.4778244495391845,-0.0,-0.0,-1.0,0.1762336879773398,1.0,1.0
14.737032890319824,-5.107851028442383,0.3436756134033203,-0.0,-0.0,-1.0,0.1195606906110247,1.0,1.0
14.99277400970459,-5.703977584838867,0.2916809916496277,-0.0,-0.0,-1.0,0.1813704039462945,2.0,1.0
14.616045951843262,-5.764766693115234,0.3219062089920044,-0.0,-0.0,-1.0,0.1367332405424682,2.0,1.0
14.460281372070312,-6.1221923828125,0.3254331350326538,-0.0,-0.0,-1.0,0.1613361578002135,1.0,1.0
14.844307899475098,-6.0458526611328125,0.2952181696891784,-0.0,-0.0,-1.0,0.1648125493622272,1.0,1.0
13.917503356933594,-4.969367980957031,0.2161288261413574,-0.0,-0.0,-1.0,0.1557441930252968,2.0,1.0
14.53465175628662,-4.555198669433594,0.2053269147872924,-0.0,-0.0,-1.0,0.255946802721413,2.0,1.0
12.84877586364746,-6.3681182861328125,0.995474934577942,-0.0,-0.0,-1.0,0.0850848075107582,1.0,1.0
15.0938138961792,-5.624301910400391,0.8948937058448792,-0.0,-0.0,-1.0,0.0973007744616303,1.0,1.0
14.116750717163086,-4.941424369812012,0.5508769154548645,-0.0,-0.0,-1.0,0.1770455865662349,1.0,1.0
14.2202787399292,-6.238509178161621,0.5044140815734863,-0.0,-0.0,-1.0,0.2363571429667131,1.0,1.0
12.77083969116211,-5.488032341003418,0.600581705570221,-0.0,-0.0,-1.0,0.0855739254148051,1.0,1.0
14.006877899169922,-4.822958946228027,0.4464878439903259,-0.9761863626924892,-0.2059327173120416,0.0682048475820231,0.1440812083428976,4.0,1.0
14.142739295959473,-4.889019966125488,0.4237272143363952,0.0607630546752712,-0.3051437415662117,-0.9503657970326492,0.1569647620526021,3.0,1.0
14.22756004333496,-6.303374290466309,0.3545671701431274,0.5352906463201631,0.6713163940498308,-0.5126384915728377,0.2141239308877594,5.0,1.0
13.965123176574709,-6.460871696472168,0.3871303200721741,-0.0,-0.0,-1.0,0.1790991408365435,2.0,1.0
14.477394104003906,-6.627394676208496,0.3044719696044922,-0.0,-0.0,-1.0,0.1921582287313524,2.0,1.0
15.073997497558594,-4.709906578063965,0.2915941476821899,-0.0,-0.0,-1.0,0.1685041106055916,1.0,1.0
15.068330764770508,-5.62607479095459,0.2559173107147217,-0.0,-0.0,-1.0,0.1962284371885654,2.0,1.0
12.785046577453612,-6.506071090698242,0.6839084625244141,-0.0,-0.0,-1.0,0.2516491508573069,1.0,1.0
13.98365879058838,-4.956024169921875,0.5895131230354309,-0.0,-0.0,-1.0,0.1261083169535246,1.0,1.0
14.06618595123291,-6.028079986572266,0.5438798666000366,-0.0,-0.0,-1.0,0.1393979296010115,1.0,1.0
14.506683349609377,-4.660419464111328,0.5337109565734863,-0.0,-0.0,-1.0,0.2089913020769104,1.0,1.0
14.3320951461792,-5.407238006591797,0.5311157703399658,-0.0,-0.0,-1.0,0.106522158032958,1.0,1.0
15.168105125427246,-4.763269424438477,0.4455476999282837,-0.0,-0.0,-1.0,0.1003000747858554,2.0,1.0
12.929837226867676,-4.425490379333496,0.3235036134719848,-0.0,-0.0,-1.0,0.1582125944970329,2.0,1.0
13.945466995239258,-4.819338798522949,0.8605327606201172,-0.0,-0.0,-1.0,0.1487140243568095,1.0,1.0
14.837159156799316,-4.501410484313965,0.7729238271713257,-0.0,-0.0,-1.0,0.1398197616997031,1.0,1.0
12.77795696258545,-6.419898986816406,0.4174660444259643,-0.0,-0.0,-1.0,0.1837517974463191,1.0,1.0
13.89939022064209,-6.474357604980469,0.3732529878616333,-0.0,-0.0,-1.0,0.1413041904839299,1.0,1.0
12.848221778869627,-4.793601989746094,0.4898566603660583,-0.0,-0.0,-1.0,0.1744206236034088,2.0,1.0
14.190218925476074,-6.190166473388672,0.3750479221343994,0.080864743356251,0.9744439451829682,-0.2095707302515794,0.1712510281928422,3.0,1.0
14.362558364868164,-6.645984649658203,0.3471436500549316,-0.0,-0.0,-1.0,0.1386543670068947,2.0,1.0
14.125277519226074,-5.71171760559082,0.3997203707695007,-0.0,-0.0,-1.0,0.1161137053854874,1.0,1.0
15.019152641296388,-5.867158889770508,0.3564366698265075,-0.0,-0.0,-1.0,0.1208330623370673,1.0,1.0
14.472570419311523,-4.615251541137695,0.4366532564163208,-0.7156700420846912,-0.2064473781191253,-0.667229998523924,0.1798106284742431,3.0,1.0
15.052001953125,-4.726835250854492,0.4077730178833008,-0.0,-0.0,-1.0,0.132078061076212,1.0,1.0
12.75390338897705,-4.933666229248047,0.8129680156707764,-0.0,-0.0,-1.0,0.0843794723823394,1.0,1.0
14.044483184814451,-5.002630233764648,0.7572077512741089,-0.8780139581814181,-0.150397992803391,0.4543918276106093,0.2044362110000788,3.0,1.0
14.723485946655272,-4.532758712768555,0.7385214567184448,-0.0,-0.0,-1.0,0.0749830825102069,2.0,1.0
12.84055519104004,-6.46671199798584,0.5403873324394226,0.9224628033023788,0.377803774793526,0.0795404568460554,0.2403212472040436,3.0,1.0
14.090197563171388,-5.883639335632324,0.5053858757019043,-0.0,-0.0,-1.0,0.100117795904115,2.0,1.0
14.333573341369627,-6.286280632019043,0.4745076894760132,-0.0,-0.0,-1.0,0.1473257290021752,1.0,1.0
14.197007179260254,-5.783942222595215,0.5043543577194214,-0.0,-0.0,-1.0,0.1137504574868387,1.0,1.0
12.719173431396484,-5.014618873596191,0.6099692583084106,-0.0,-0.0,-1.0,0.0624302967266247,1.0,1.0
14.349668502807615,-5.556838035583496,0.5066245794296265,0.8491844912520945,-0.027270676503145,-0.5273917045422518,0.1433865695644531,3.0,1.0
12.82058048248291,-6.343436241149902,1.219249248504639,0.7279464255624177,-0.2148242795992338,-0.6511102290745931,0.1228431830694293,4.0,2.0
12.815587997436523,-6.49574089050293,0.4694439172744751,-0.0,-0.0,-1.0,0.2484045046114098,1.0,1.0
13.346946716308594,-6.684961318969727,0.4322615265846252,-0.0,-0.0,-1.0,0.2439137511655803,1.0,1.0
14.166875839233398,-6.359886169433594,0.4061896204948425,-0.0,-0.0,-1.0,0.1368264615905931,1.0,1.0
14.466153144836426,-6.755292892456055,0.367493212223053,0.1227211380360437,0.7542580060373549,-0.6450072732982876,0.2331541083754338,6.0,1.0
14.659000396728516,-6.098670959472656,0.392993688583374,-0.0,-0.0,-1.0,0.1424316842347172,2.0,1.0
14.814236640930176,-5.893960952758789,0.3954367041587829,0.9440001108087972,-0.2641162013210391,-0.1977534399011111,0.1123722933065149,5.0,1.0
14.047525405883787,-4.928752899169922,0.491696834564209,0.0352091388926661,-0.2105933450744957,-0.9769394861242796,0.1787735876085046,3.0,1.0
12.836997032165527,-6.471610069274902,0.251049280166626,-0.0,-0.0,-1.0,0.2186188464308181,2.0,1.0
13.19318389892578,-6.615717887878418,0.2262313365936279,-0.0,-0.0,-1.0,0.1121504993038932,1.0,1.0
12.818197250366213,-5.776158332824707,0.2994839549064636,-0.0,-0.0,-1.0,0.1434305045443707,2.0,1.0
13.225000381469728,-6.051596641540527,0.2638944983482361,-0.0,-0.0,-1.0,0.0517279278955251,1.0,1.0
13.142718315124512,-5.039130210876465,0.3369427919387817,-0.0,-0.0,-1.0,0.2060560322437217,2.0,1.0
13.91531753540039,-5.106200218200684,0.2996927499771118,-0.0,-0.0,-1.0,0.1313033307339629,2.0,1.0
14.129261016845703,-5.218840599060059,0.2823096513748169,-0.0,-0.0,-1.0,0.0734600402485913,2.0,1.0
14.029727935791016,-4.892001152038574,0.3095818758010864,-0.0,-0.0,-1.0,0.2473287398816307,1.0,1.0
13.448280334472656,-6.335583686828613,0.5681324005126953,-0.333253752648827,0.8872613593024873,-0.3189188245215021,0.2140157510852514,3.0,1.0
12.833688735961914,-6.316149711608887,1.2277041673660278,0.7379180202785611,-0.150647488630465,-0.6578619380367763,0.1228431830694294,3.0,2.0
14.828227996826172,-5.169290542602539,0.175203800201416,-0.0,-0.0,-1.0,0.1059354063129957,2.0,1.0
14.81358528137207,-5.3084869384765625,0.1643998622894287,-0.0,-0.0,-1.0,0.056015170081248,1.0,1.0
14.810734748840332,-4.461791038513184,0.2322437763214111,-0.0,-0.0,-1.0,0.1515342218284241,2.0,1.0
14.76976203918457,-4.745131492614746,0.2105628252029419,-0.0,-0.0,-1.0,0.1541957235372635,1.0,1.0
15.082145690917969,-5.000452995300293,0.1825373172760009,-0.0,-0.0,-1.0,0.1042487740001059,2.0,1.0
15.117334365844728,-4.466009140014648,0.224713921546936,-0.0,-0.0,-1.0,0.1391161363163373,1.0,1.0
14.446121215820312,-6.129239082336426,0.705901026725769,-0.0,-0.0,-1.0,0.2557189957337726,2.0,1.0
14.363702774047852,-4.604835510253906,0.1565113067626953,-0.0,-0.0,-1.0,0.1093560395849285,1.0,1.0
14.69975471496582,-4.407170295715332,0.1703245639801025,-0.0,-0.0,-1.0,0.1295541278810691,1.0,1.0
14.261903762817385,-6.214085578918457,0.6194663643836975,-0.0,-0.0,-1.0,0.2078196065164629,1.0,1.0
14.74096965789795,-5.954841613769531,0.621155858039856,-0.0,-0.0,-1.0,0.1365649369715389,1.0,1.0
14.032005310058594,-4.782500267028809,0.695681095123291,-0.0,-0.0,-1.0,0.225270325958428,2.0,1.0
14.08207893371582,-4.934088706970215,0.687264621257782,-0.595058758074174,-0.5070460639118936,-0.6235457990482153,0.196505496753128,7.0,1.0
15.139957427978516,-5.5492095947265625,0.6318988800048828,-0.3218881212395595,0.6246332034944606,-0.7114923741665221,0.0801480095630064,5.0,1.0
13.591821670532228,-4.7867231369018555,0.2427862882614135,-0.0,-0.0,-1.0,0.1364473877119633,2.0,1.0
13.872459411621094,-5.000516891479492,0.2278817892074585,-0.0,-0.0,-1.0,0.1630843255376405,2.0,1.0
14.24000644683838,-4.748513221740723,0.2471214532852172,-0.0,-0.0,-1.0,0.1027610720466844,1.0,1.0
14.612232208251951,-4.91060733795166,0.2344517707824707,-0.0,-0.0,-1.0,0.1409770670881914,2.0,1.0
14.788479804992676,-5.227370262145996,0.2093554735183715,0.2399697835665956,-0.2212379867295645,-0.945234497996582,0.1042345659947658,3.0,1.0
15.093290328979492,-5.473955154418945,0.1882030963897705,-0.0,-0.0,-1.0,0.1199191885794774,1.0,1.0
14.447504043579102,-4.415310859680176,0.2722111344337463,-0.0,-0.0,-1.0,0.2218124867986667,2.0,1.0
14.815900802612305,-4.596832275390625,0.2580641508102417,-0.0,-0.0,-1.0,0.1471332943921268,2.0,1.0
14.215436935424805,-5.665586471557617,0.7454780340194702,-0.0,-0.0,-1.0,0.0865784561206297,1.0,1.0
12.939213752746582,-5.219721794128418,0.5519751310348511,-0.0,-0.0,-1.0,0.1280075296529642,1.0,1.0
13.985450744628906,-6.444525718688965,0.5091720819473267,-0.0,-0.0,-1.0,0.191836315069635,1.0,1.0
13.019333839416504,-4.834327697753906,0.5697241425514221,0.8644154843471603,-0.0292121454873848,-0.5019288007047291,0.2094519954342267,3.0,1.0
14.49952507019043,-6.035600662231445,0.5328198671340942,-0.0,-0.0,-1.0,0.169839427232332,1.0,1.0
13.95652198791504,-4.848814964294434,0.5812453031539917,-0.0,-0.0,-1.0,0.1280762092502138,1.0,1.0
14.514846801757812,-4.589260101318359,0.5992861986160278,-0.0,-0.0,-1.0,0.1974424581682137,2.0,1.0
14.889629364013672,-4.38958740234375,0.6123521327972412,-0.0,-0.0,-1.0,0.1266030317935678,2.0,1.0
13.269533157348633,-4.709935188293457,0.2309017181396484,-0.0,-0.0,-1.0,0.1219654582656118,1.0,1.0
13.50119400024414,-4.903958320617676,0.2278482913970947,-0.0,-0.0,-1.0,0.1929395593580503,1.0,1.0
13.710949897766112,-5.055830955505371,0.226212739944458,-0.0,-0.0,-1.0,0.1465116835843043,1.0,1.0
13.87930393218994,-4.96912956237793,0.2369669675827026,-0.4491821731967976,0.3374103270437629,-0.8272784576467727,0.1218149540947351,3.0,1.0
14.091856956481934,-4.832911491394043,0.2520846724510193,-0.0,-0.0,-1.0,0.248262153751425,1.0,1.0
14.486156463623049,-4.870830535888672,0.262850284576416,-0.0,-0.0,-1.0,0.1454460698502582,1.0,1.0
14.49225616455078,-5.200521469116211,0.2433723211288452,-0.0,-0.0,-1.0,0.1175109937217541,1.0,1.0
14.848481178283691,-5.595333099365234,0.2306241989135742,-0.0,-0.0,-1.0,0.1000185390276427,1.0,1.0
14.411259651184082,-4.635697364807129,0.2743208408355713,-0.0,-0.0,-1.0,0.141997575333126,1.0,1.0
14.658147811889648,-4.653055191040039,0.2813850045204162,-0.0,-0.0,-1.0,0.2390301017101596,1.0,1.0
14.712933540344238,-5.167235374450684,0.2523695230484009,-0.0,-0.0,-1.0,0.1107894240686806,2.0,1.0
15.03887939453125,-5.5990495681762695,0.2361524105072021,0.675216026579545,0.2212027271039108,-0.7036708541441259,0.1505526157629909,3.0,1.0
15.14057731628418,-5.723944664001465,0.2315118312835693,-0.0,-0.0,-1.0,0.1822020709327708,1.0,1.0
13.849194526672363,-4.848883628845215,0.7684288024902344,-0.0,-0.0,-1.0,0.21471562706911,1.0,1.0
14.42153549194336,-4.62723445892334,0.7820098400115967,-0.0,-0.0,-1.0,0.0512076170126113,1.0,1.0
14.861017227172852,-4.38657283782959,0.7945922017097473,-0.0,-0.0,-1.0,0.1138594484819136,1.0,1.0
13.045870780944824,-6.3249030113220215,0.4142845273017883,-0.0,-0.0,-1.0,0.1501792968470495,1.0,1.0
14.014351844787598,-6.213955402374268,0.4518215656280517,-0.0,-0.0,-1.0,0.181061033712078,1.0,1.0
13.748961448669434,-4.818262577056885,0.4924395084381103,-0.0,-0.0,-1.0,0.0657313816307745,1.0,1.0
14.38023281097412,-6.07282018661499,0.4693249464035034,-0.0,-0.0,-1.0,0.1614429553129206,1.0,1.0
14.39372730255127,-4.508517742156982,0.5266256332397461,-0.0,-0.0,-1.0,0.1855576484983886,1.0,1.0
14.78360366821289,-6.2358479499816895,0.4763035774230957,-0.0,-0.0,-1.0,0.1908739445071903,1.0,1.0
15.002880096435549,-6.558376789093018,0.470735490322113,-0.0,-0.0,-1.0,0.1259361679889894,1.0,1.0
15.152959823608398,-5.270754337310791,0.5249629020690918,-0.0,-0.0,-1.0,0.0984916198202634,1.0,1.0
15.08445167541504,-4.692033290863037,0.5442200899124146,-0.0,-0.0,-1.0,0.0791215037386052,1.0,1.0
14.967939376831056,-5.546905994415283,1.0096306800842283,-0.0,-0.0,-1.0,0.0897074257242183,1.0,2.0
12.734901428222656,-5.638301849365234,0.3236227631568908,-0.0,-0.0,-1.0,0.055831427408243,2.0,1.0
12.800180435180664,-5.789656639099121,0.3142163157463074,-0.0,-0.0,-1.0,0.1294069170849947,2.0,1.0
12.83848762512207,-6.6679229736328125,0.2523683309555053,-0.0020579826739615,0.9675242345112588,-0.2527698960333618,0.1498462626885984,4.0,1.0
14.247084617614746,-6.324816703796387,0.2953636646270752,-0.7876795578459095,0.5865562439387924,-0.1884481012058442,0.2036214265420569,4.0,1.0
14.442672729492188,-6.728786468505859,0.2665519714355469,-0.0,-0.0,-1.0,0.1922211916825981,1.0,1.0
14.513949394226074,-6.844203948974609,0.2582778334617615,-0.0,-0.0,-1.0,0.1858294607856109,1.0,1.0
14.728087425231934,-6.024749755859375,0.3230716586112976,0.0088846350136389,-0.777052134435261,-0.6293735326737844,0.1859156253275128,3.0,1.0
15.140253067016602,-4.763344764709473,0.4222091436386108,-0.0,-0.0,-1.0,0.1003000747858554,2.0,1.0
15.037583351135254,-5.578744888305664,0.3600380420684814,-0.0,-0.0,-1.0,0.2470002558023376,1.0,1.0
14.056594848632812,-4.725004196166992,0.8830462694168091,-0.785322502545915,-0.1774609750262795,-0.5931072157188307,0.1229599222012625,3.0,1.0
14.544342041015623,-4.561863899230957,0.8861721754074097,-0.0,-0.0,-1.0,0.1060641820865098,2.0,1.0
12.724751472473145,-4.948843479156494,0.487868070602417,-0.0,-0.0,-1.0,0.0788368262354218,2.0,1.0
12.748957633972168,-5.715809345245361,0.4408308267593384,-0.0,-0.0,-1.0,0.0736519390385347,2.0,1.0
12.8309907913208,-6.556873798370361,0.3865621089935303,0.7661134402839963,-0.6240639553451027,-0.1536696985591023,0.2162476162004939,3.0,1.0
13.31530475616455,-6.387366771697998,0.4063862562179565,-0.0,-0.0,-1.0,0.1770904146782213,1.0,1.0
14.076101303100586,-4.50288724899292,0.1019319295883178,-0.0,-0.0,-1.0,0.0586897438208503,2.0,1.0
14.12343406677246,-5.750429630279541,0.463847815990448,-0.0,-0.0,-1.0,0.124487742309969,1.0,1.0
14.276053428649902,-6.195033550262451,0.434079110622406,-0.0,-0.0,-1.0,0.1639733386759599,2.0,1.0
14.318102836608888,-6.216350078582764,0.4330494403839111,-0.2648666630599929,-0.2500248954734048,-0.9313072545851756,0.2407489749978545,7.0,1.0
14.54689884185791,-4.515181064605713,0.5556548833847046,-0.2605906840496238,0.9480517006355388,-0.1824567573662651,0.1432103736810135,3.0,1.0
14.876380920410156,-4.39348030090332,0.5700570940971375,-0.4752488206390456,0.8772099651193326,0.0681266143040692,0.1266776106152106,3.0,1.0
14.81756591796875,-5.8352274894714355,0.4672653079032898,-0.59868208666855,-0.3446943238050767,-0.7230252984776891,0.127265187037168,4.0,1.0
14.00011157989502,-5.6964240074157715,0.9385011792182922,-0.0,-0.0,-1.0,0.0885530039326745,1.0,1.0
15.184439659118652,-5.535971164703369,0.9334290027618408,0.5201997459255342,-0.2087955869662191,-0.8281283881152982,0.0973007744616303,3.0,1.0
12.841708183288574,-4.8415117263793945,0.4188331961631775,0.7663603740880889,-0.6284389441989685,0.133252656414985,0.2006976326514225,3.0,1.0
12.753047943115234,-5.666531562805176,0.3639699816703796,-0.1573400258299294,0.2979738809365793,-0.9415177547722776,0.064410225818003,3.0,1.0
14.455214500427246,-6.712044715881348,0.3377392292022705,-0.0,-0.0,-1.0,0.2465260829835494,2.0,1.0
14.07382869720459,-4.954245567321777,0.4547303915023803,-0.9934750854002288,-0.0207548137524652,0.1121449615235059,0.1711345537987272,4.0,1.0
14.26378059387207,-5.6276044845581055,0.4140804409980774,0.3855378310460877,0.9205297252891844,0.0631316536398122,0.0724871129421961,3.0,1.0
14.119216918945312,-6.101781845092773,0.3756686449050903,-0.0,-0.0,-1.0,0.1281269510046896,2.0,1.0
14.30292797088623,-6.234686851501465,0.3706427812576294,-0.0,-0.0,-1.0,0.2257043553985249,2.0,1.0
14.547531127929688,-4.6012067794799805,0.4936636686325073,-0.0,-0.0,-1.0,0.1609490673877723,2.0,1.0
14.458049774169922,-6.342874526977539,0.3663449287414551,-0.0,-0.0,-1.0,0.2759728785037379,1.0,1.0
12.823296546936035,-4.812328338623047,0.8850794434547424,-0.0,-0.0,-1.0,0.0974180511358827,1.0,1.0
13.9190092086792,-4.763640880584717,0.8946200013160706,-0.0,-0.0,-1.0,0.127248099339147,1.0,1.0
14.12268352508545,-5.704961776733398,0.8516138195991516,-0.8192057069689755,-0.2187196705864066,0.530154425962884,0.1332687100223747,3.0,1.0
14.134044647216797,-5.753190994262695,0.8492718935012817,-0.0,-0.0,-1.0,0.0973225515631079,2.0,1.0
14.654958724975586,-4.4370503425598145,0.9130911827087402,-0.0,-0.0,-1.0,0.1202205540586989,1.0,1.0
15.14424991607666,-5.558185577392578,0.8597594499588013,-0.0,-0.0,-1.0,0.0973007744616304,2.0,1.0
12.809904098510742,-5.868625640869141,0.2173800468444824,-0.1510872310282399,-0.6758045146807969,-0.721429765505466,0.1692673389415096,3.0,1.0
12.896214485168455,-6.005229473114014,0.2099055051803589,-0.0,-0.0,-1.0,0.0635553560412132,1.0,1.0
13.112001419067385,-6.029162883758545,0.216771125793457,-0.0,-0.0,-1.0,0.0497292129663215,2.0,1.0
13.307954788208008,-6.508012771606445,0.1839106082916259,-0.0,-0.0,-1.0,0.1397785533032199,2.0,1.0
13.42670726776123,-6.566174030303955,0.1833194494247436,-0.0,-0.0,-1.0,0.1345105035084363,1.0,1.0
12.881958961486816,-5.314344882965088,0.2641656398773193,-0.0,-0.0,-1.0,0.11838361484058,1.0,1.0
13.15368938446045,-4.558582305908203,0.3330107927322387,-0.0,-0.0,-1.0,0.0839439880263439,2.0,1.0
13.394801139831545,-4.789066791534424,0.3271114826202392,-0.0,-0.0,-1.0,0.1020631173402346,1.0,1.0
14.107643127441406,-5.834024429321289,0.2727202773094177,-0.0,-0.0,-1.0,0.1644724666250324,1.0,1.0
13.896242141723633,-5.926455974578857,0.2565802335739136,-0.0,-0.0,-1.0,0.1446347844489064,1.0,1.0
14.338994026184082,-5.416491985321045,0.3173197507858276,-0.0,-0.0,-1.0,0.1731095076200404,1.0,1.0
14.237560272216797,-5.665501594543457,0.2921969294548034,0.1340557221808843,0.6020879623274107,-0.7870953874664671,0.1527051154429738,4.0,1.0
14.790329933166504,-4.468113422393799,0.4135620594024658,-0.2551439035895667,0.7967452594067663,0.5478125409973038,0.283150269360361,3.0,1.0
14.527738571166992,-4.67663049697876,0.3857491612434387,-0.0,-0.0,-1.0,0.227885528003603,2.0,1.0
15.126514434814451,-5.613918304443359,0.3298914432525635,-0.0,-0.0,-1.0,0.2192951702777256,2.0,1.0
12.727802276611328,-4.955610752105713,0.7401494979858398,-0.0,-0.0,-1.0,0.0520093198632233,2.0,1.0
12.854265213012695,-6.4486403465271,0.6511385440826416,-0.0,-0.0,-1.0,0.1758799402294227,2.0,1.0
14.009852409362791,-4.867086410522461,0.7638586759567261,-0.7851003553711109,-0.2515649159406784,-0.5659792620440388,0.135704331662797,3.0,1.0
14.174949645996094,-5.702852249145508,0.7133748531341553,-0.0,-0.0,-1.0,0.0847806258659287,2.0,1.0
14.407702445983888,-6.054180145263672,0.6922322511672974,-0.0,-0.0,-1.0,0.2176852974230629,2.0,1.0
12.718024253845217,-6.392000675201416,1.1343483924865725,-0.5341159535487124,-0.7627694795448855,-0.3645584579180336,0.1190040160735535,4.0,2.0
