x,y,z,nx,ny,nz,curvature,density,label
7.0897603034973145,21.11121368408203,-0.8650329113006592,-0.0,-0.0,-1.0,0.207370651001349,1.0,0.0
6.807641983032227,20.75365447998047,-0.8008148670196533,-0.0,-0.0,-1.0,0.1312191648930041,2.0,0.0
6.982408046722412,21.007007598876953,-0.8475325107574463,-0.0,-0.0,-1.0,0.2448919368613151,2.0,0.0
6.118186950683594,20.648651123046875,-0.8208765983581543,-0.0,-0.0,-1.0,0.1902279648341062,1.0,0.0
7.554991722106934,22.694372177124023,-1.0604944229125977,-0.0,-0.0,-1.0,0.1594983704348785,2.0,0.0
6.499336242675781,22.921131134033203,-1.159898042678833,-0.0,-0.0,-1.0,0.079643938069841,1.0,0.0
5.733935356140137,22.958797454833984,-1.2131483554840088,-0.0,-0.0,-1.0,0.0544162996861194,1.0,0.0
5.50715970993042,22.974388122558594,-1.231325387954712,-0.0,-0.0,-1.0,0.0464600727114479,1.0,0.0
5.279835224151611,22.822715759277344,-1.21423077583313,-0.0,-0.0,-1.0,0.0372142308978321,1.0,0.0
7.357724189758301,21.883548736572266,-0.8920843601226807,-0.0,-0.0,-1.0,0.2040988656630414,1.0,0.0
7.592989921569824,22.199304580688477,-0.950857400894165,-0.0,-0.0,-1.0,0.2505888140639076,2.0,0.0
7.096835136413574,21.038166046142575,-0.7205905914306641,-0.0,-0.0,-1.0,0.2544270038935027,2.0,0.0
7.278934001922607,21.517637252807617,-0.8160150051116943,-0.0,-0.0,-1.0,0.222349461830457,2.0,0.0
6.865812301635742,20.946048736572266,-0.7123405933380127,-0.0,-0.0,-1.0,0.2189392223106166,1.0,0.0
6.564664840698242,22.928691864013672,-1.1784958839416504,-0.0,-0.0,-1.0,0.0823255843895647,2.0,0.0
6.460866928100586,22.849699020385746,-1.166865348815918,-0.5431696332107822,0.2420915654154618,-0.8039641929292345,0.1220396342776197,3.0,0.0
5.77367639541626,22.74761199951172,-1.192518711090088,-0.0,-0.0,-1.0,0.0618160406975942,1.0,0.0
5.507855415344238,22.691455841064453,-1.2007427215576172,-0.0,-0.0,-1.0,0.0249550663546462,2.0,0.0
5.562533855438232,22.756345748901367,-1.211287021636963,-0.0,-0.0,-1.0,0.0289260019795366,1.0,0.0
7.457091808319092,21.331756591796875,-0.7532291412353516,-0.0,-0.0,-1.0,0.1660850959215433,1.0,0.0
7.3924031257629395,21.71308708190918,-0.8453788757324219,-0.0,-0.0,-1.0,0.1023950529571268,1.0,0.0
7.609818458557129,22.158063888549805,-0.9396331310272216,-0.0,-0.0,-1.0,0.2396634094805248,2.0,0.0
7.58133602142334,22.500768661499023,-1.0215420722961426,-0.0,-0.0,-1.0,0.1333125512874126,1.0,0.0
7.097778797149658,21.230693817138672,-0.749232292175293,-0.0,-0.0,-1.0,0.213036064279123,1.0,0.0
7.307012557983398,21.525299072265625,-0.8060641288757324,-0.0,-0.0,-1.0,0.2098737211709135,2.0,0.0
6.804358959197998,22.044193267822266,-0.957056760787964,-0.0,-0.0,-1.0,0.0983664929608552,1.0,0.0
7.190004348754883,21.000831604003903,-0.6902165412902832,-0.0,-0.0,-1.0,0.2350084829210599,1.0,0.0
7.1931986808776855,21.12934112548828,-0.7199091911315918,-0.0,-0.0,-1.0,0.2745034696525933,1.0,0.0
6.865316867828369,20.8499698638916,-0.6748170852661133,-0.0,-0.0,-1.0,0.1347835764532284,1.0,0.0
5.363071441650391,23.11819076538086,-0.9139406681060792,-0.213722788695021,0.4164592940794807,-0.8836765392196649,0.0759218146655848,4.0,0.0
7.348929405212402,21.534194946289062,-0.4124689102172851,0.9120122863215192,0.4010401116847168,0.086025684644211,0.1638412245052111,5.0,0.0
6.332686424255371,20.947357177734375,-1.0281260013580322,-0.0,-0.0,-1.0,0.1882034767963391,1.0,0.0
7.059340476989746,21.160228729248047,-0.9337258338928224,-0.0,-0.0,-1.0,0.1462966693209028,1.0,0.0
7.410263061523437,21.106090545654297,-0.933290719985962,-0.0,-0.0,-1.0,0.0883218485424023,1.0,0.0
5.813848972320557,21.053665161132812,-1.0335943698883057,-0.0,-0.0,-1.0,0.0949756715961445,1.0,0.0
6.107570648193359,20.96649742126465,-1.0369117259979248,-0.0,-0.0,-1.0,0.1569449000485744,1.0,0.0
6.518189907073975,21.17147445678711,-0.958808422088623,-0.0,-0.0,-1.0,0.2319916682710149,1.0,0.0
6.875200271606445,21.22747802734375,-0.9249064922332764,-0.0,-0.0,-1.0,0.0967847977670884,1.0,0.0
7.205526828765869,21.338777542114254,-0.8795790672302246,-0.0,-0.0,-1.0,0.1870026795558981,1.0,0.0
5.215251922607422,21.349010467529297,-1.0030267238616943,-0.0,-0.0,-1.0,0.188242003895119,1.0,0.0
5.536166667938232,21.22408103942871,-1.0097663402557373,-0.0,-0.0,-1.0,0.0873647080050758,1.0,0.0
6.756473064422607,21.872159957885746,-0.7612881660461426,-0.0,-0.0,-1.0,0.1453957070706322,1.0,0.0
7.116311073303223,20.684974670410156,-0.5701820850372314,-0.0,-0.0,-1.0,0.2370927061472749,1.0,0.0
6.006285190582275,20.68299865722656,-0.6167793273925781,-0.0,-0.0,-1.0,0.1447140283862042,1.0,0.0
6.563783645629883,20.72079849243164,-0.582648515701294,-0.0,-0.0,-1.0,0.0923646421010144,2.0,0.0
7.000016212463379,20.928733825683594,-0.5180506706237793,-0.0,-0.0,-1.0,0.1998111697942685,1.0,0.0
5.484087944030762,20.770950317382812,-0.6254208087921143,-0.0,-0.0,-1.0,0.1818274697478131,1.0,0.0
6.559845447540283,21.28417205810547,-0.4543845653533935,-0.0,-0.0,-1.0,0.0997488841759437,1.0,0.0
7.248134613037109,21.44591522216797,-0.3900139331817627,-0.0,-0.0,-1.0,0.1764222271625799,1.0,0.0
6.3616485595703125,20.7222900390625,-0.3285472393035888,-0.0,-0.0,-1.0,0.1679733669773559,1.0,0.0
6.416252136230469,20.741172790527344,-0.3213653564453125,-0.0,-0.0,-1.0,0.2191901381122183,1.0,0.0
6.66291618347168,21.004161834716797,-0.2545356750488281,-0.0,-0.0,-1.0,0.1446405994216463,1.0,0.0
5.694875240325928,20.686511993408203,-0.7475771903991699,-0.0,-0.0,-1.0,0.1000661811809417,1.0,0.0
5.373332500457764,21.599605560302734,-1.0762062072753906,-0.0,-0.0,-1.0,0.0983931445583283,1.0,0.0
5.722046375274658,21.345294952392575,-1.1011474132537842,-0.0,-0.0,-1.0,0.0345632240446795,2.0,0.0
6.116325855255127,21.29990005493164,-1.0742757320404053,-0.0,-0.0,-1.0,0.0874131620625372,1.0,0.0
6.441324710845947,21.39105987548828,-1.022254467010498,-0.0,-0.0,-1.0,0.1542792467695149,1.0,0.0
7.1859846115112305,21.243213653564453,-0.9989676475524902,-0.0,-0.0,-1.0,0.1530095883073079,1.0,0.0
5.477202415466309,21.720884323120117,-1.0359489917755127,-0.0,-0.0,-1.0,0.1101676287456431,2.0,0.0
6.201688766479492,21.65620231628418,-0.9787330627441406,-0.0,-0.0,-1.0,0.2013472159140027,1.0,0.0
6.704865455627441,21.58394241333008,-0.951545238494873,-0.0,-0.0,-1.0,0.1794006167030173,1.0,0.0
7.004002094268799,21.411361694335938,-0.9704666137695312,-0.0,-0.0,-1.0,0.1175379863436343,1.0,0.0
7.400123119354248,21.254154205322266,-0.9808928966522216,-0.0,-0.0,-1.0,0.1472549708037638,2.0,0.0
6.454909324645996,21.986522674560547,-0.8740062713623047,-0.0,-0.0,-1.0,0.1404242815117462,1.0,0.0
5.244025230407715,23.127986907958984,-0.7334589958190918,-0.0,-0.0,-1.0,0.0761594062544113,1.0,0.0
6.098245620727539,20.92300033569336,-0.6662793159484863,-0.0,-0.0,-1.0,0.1991447784796825,1.0,0.0
6.373040676116943,20.888427734375,-0.6535251140594482,-0.0,-0.0,-1.0,0.1695072114941813,1.0,0.0
6.8630595207214355,20.886699676513672,-0.6207361221313477,-0.0,-0.0,-1.0,0.1468664833882588,1.0,0.0
6.312413692474365,21.45626449584961,-0.5364818572998047,-0.0,-0.0,-1.0,0.1798416301154118,1.0,0.0
6.576026439666748,21.157211303710938,-0.5814213752746582,-0.0,-0.0,-1.0,0.1510333852280309,1.0,0.0
6.8308234214782715,21.085243225097656,-0.579737663269043,-0.0,-0.0,-1.0,0.2166932635086898,1.0,0.0
7.021725177764893,21.650222778320312,-0.444406509399414,-0.0,-0.0,-1.0,0.1319109251169722,1.0,0.0
5.561071872711182,20.922996520996097,-0.7249453067779541,-0.0,-0.0,-1.0,0.2289005257625501,2.0,0.0
6.3123273849487305,20.775047302246097,-0.6860237121582031,-0.0,-0.0,-1.0,0.1598699891526711,2.0,0.0
6.4891357421875,20.760555267333984,-0.6740372180938721,-0.0,-0.0,-1.0,0.1385444959027577,1.0,0.0
6.4887495040893555,20.87043571472168,-0.6507349014282227,-0.0,-0.0,-1.0,0.237646910694235,1.0,0.0
6.616274356842041,20.779621124267575,-0.6595280170440674,-0.0,-0.0,-1.0,0.1777619987224971,1.0,0.0
6.476559162139893,21.061626434326172,-0.6112821102142334,-0.0,-0.0,-1.0,0.1658578660237291,1.0,0.0
6.914408206939697,20.996906280517575,-0.5891947746276855,-0.0,-0.0,-1.0,0.2058337184677676,1.0,0.0
7.017073154449463,20.924861907958984,-0.5967869758605957,-0.0,-0.0,-1.0,0.1901840386215268,1.0,0.0
6.598000526428223,21.41858291625977,-0.5254185199737549,-0.0,-0.0,-1.0,0.1631863116280532,1.0,0.0
7.013287544250488,21.14510726928711,-0.5495898723602295,-0.0,-0.0,-1.0,0.1208856103581619,1.0,0.0
7.336664199829102,21.558128356933594,-0.4358141422271728,0.7851418683876146,0.6082460358052336,0.1165718938339087,0.1732267542401513,4.0,0.0
6.102370738983154,20.664857864379883,-0.8837070465087891,-0.0,-0.0,-1.0,0.1627935243720766,1.0,0.0
6.217328071594238,20.777189254760746,-0.8469541072845459,-0.0,-0.0,-1.0,0.2085507135908187,1.0,0.0
6.31028413772583,21.138973236083984,-0.759958028793335,-0.0,-0.0,-1.0,0.1884393826828679,1.0,0.0
6.580678462982178,20.7841796875,-0.8058269023895264,-0.0,-0.0,-1.0,0.1244701146675383,1.0,0.0
6.354351043701172,21.490476608276367,-0.6808228492736816,-0.0,-0.0,-1.0,0.2064133821708388,1.0,0.0
6.622762203216553,21.237319946289062,-0.7040424346923828,-0.0,-0.0,-1.0,0.138359643681729,1.0,0.0
6.817707538604736,20.910289764404297,-0.7535591125488281,-0.0,-0.0,-1.0,0.2032102909154482,2.0,0.0
7.168485641479492,20.82383155822754,-0.7371189594268799,-0.0,-0.0,-1.0,0.2520198609806024,2.0,0.0
7.246347904205322,21.401798248291016,-0.6028745174407959,-0.0,-0.0,-1.0,0.0879520770175707,1.0,0.0
7.272607803344727,21.047439575195312,-0.6777992248535156,-0.0,-0.0,-1.0,0.1888259742996577,1.0,0.0
6.728757381439209,20.75946044921875,-0.3084845542907715,-0.0,-0.0,-1.0,0.1632309874943168,1.0,0.0
6.242404460906982,20.720699310302734,-0.9435276985168456,-0.0,-0.0,-1.0,0.1587379836646774,1.0,0.0
6.417473316192627,20.909278869628903,-0.8827857971191406,-0.0,-0.0,-1.0,0.2429955287732113,1.0,0.0
6.7876787185668945,20.99089813232422,-0.827582597732544,-0.0,-0.0,-1.0,0.2370707367174865,2.0,0.0
7.11928653717041,20.638954162597656,-0.8794314861297607,-0.0,-0.0,-1.0,0.1609328160843634,1.0,0.0
7.116229057312012,21.086902618408203,-0.7744283676147461,-0.0,-0.0,-1.0,0.2748898815112537,2.0,0.0
7.256245613098144,20.7972354888916,-0.830268383026123,-0.0,-0.0,-1.0,0.1431382970760414,1.0,0.0
7.589446067810059,20.650035858154297,-0.8373594284057617,-0.0,-0.0,-1.0,0.1497494550752499,2.0,0.0
6.8489603996276855,20.89922332763672,-0.3669562339782715,-0.0,-0.0,-1.0,0.2267207911250496,1.0,0.0
7.455665111541748,21.916473388671875,-0.5496206283569336,-0.0,-0.0,-1.0,0.0685924304731814,1.0,0.0
5.551109313964844,20.907501220703125,-0.7127523422241211,-0.0,-0.0,-1.0,0.2289005257625501,2.0,0.0
6.047853469848633,20.746257781982425,-0.7062532901763916,-0.0,-0.0,-1.0,0.1797255256640513,1.0,0.0
6.093010902404785,20.68962287902832,-0.7156951427459717,-0.0,-0.0,-1.0,0.1488269403790014,1.0,0.0
6.228718280792236,20.995378494262695,-0.6335060596466064,-0.0,-0.0,-1.0,0.1692477944300254,1.0,0.0
6.447597980499268,20.7308349609375,-0.6778683662414551,-0.0,-0.0,-1.0,0.1385444959027576,1.0,0.0
6.5582990646362305,21.30170249938965,-0.5349986553192139,-0.0,-0.0,-1.0,0.0866384773358358,1.0,0.0
6.720324516296387,20.983997344970703,-0.5971202850341797,-0.0,-0.0,-1.0,0.142112026378385,1.0,0.0
6.771824836730957,20.8549861907959,-0.6239559650421143,-0.0,-0.0,-1.0,0.0743567479149969,1.0,0.0
7.077794551849365,21.173301696777344,-0.5258214473724365,-0.0,-0.0,-1.0,0.1510771293554275,1.0,0.0
7.180610179901123,20.91737365722656,-0.5803337097167969,-0.0,-0.0,-1.0,0.2129895339455483,1.0,0.0
5.247219085693359,23.043874740600582,-0.7813911437988281,-0.0,-0.0,-1.0,0.0761594062544115,1.0,0.0
6.652076721191406,20.67459487915039,-0.4637243747711181,-0.0,-0.0,-1.0,0.053715538698223,1.0,0.0
6.600833892822266,21.315711975097656,-0.4655256271362304,-0.0,-0.0,-1.0,0.091322287004126,2.0,0.0
7.382919311523437,21.495521545410156,-0.3521331548690796,-0.0,-0.0,-1.0,0.1501686073006599,2.0,0.0
6.591724395751953,21.3602294921875,-0.473302960395813,-0.0,-0.0,-1.0,0.0966730209630431,2.0,0.0
7.301059722900391,21.545259475708008,-0.2914004325866699,-0.0,-0.0,-1.0,0.0923879086384939,1.0,0.0
7.509368896484375,21.35955810546875,-0.4539854526519775,-0.0,-0.0,-1.0,0.1777359743710357,1.0,0.0
5.601594924926758,23.13634872436523,-0.975656509399414,-0.0,-0.0,-1.0,0.0623067376357691,1.0,0.0
7.191343307495117,21.77117919921875,-0.869513750076294,-0.0,-0.0,-1.0,0.1588066162578349,1.0,0.0
6.978715896606445,20.98090934753418,-0.6405260562896729,-0.0,-0.0,-1.0,0.1803793812867994,2.0,0.0
6.778070449829102,20.75387954711914,-0.659224271774292,-0.0,-0.0,-1.0,0.0842476265115077,1.0,0.0
5.342153549194336,23.12207794189453,-0.985198736190796,-0.0,-0.0,-1.0,0.0982334832203888,2.0,0.0
5.239126205444336,23.03944969177246,-0.9962160587310792,-0.0,-0.0,-1.0,0.1050707847102735,2.0,0.0
7.218387603759766,21.515932083129883,-0.3471308946609497,-0.0,-0.0,-1.0,0.1274877523780553,1.0,0.0
6.962970733642578,21.01165771484375,-0.6275068521499634,0.8539229006274193,0.4993287650211386,-0.146582619046458,0.1714278405197894,3.0,0.0
6.713102340698242,20.706666946411133,-0.6451504230499268,0.2289904960620262,0.5627489471176663,-0.7942776436682737,0.1850983182137435,5.0,0.0
7.472806930541992,21.486522674560547,-0.2828439474105835,0.1292581285532576,-0.6945967658075046,-0.7076917896462162,0.15016860730066,4.0,0.0
5.293764114379883,23.0577392578125,-0.9927877187728882,-0.1335425038801975,0.7700487047788644,0.6238520593264084,0.1058222114384078,3.0,0.0
6.810394287109375,21.221704483032227,-0.8513127565383911,-0.0,-0.0,-1.0,0.1783108327840652,2.0,0.0
7.05853271484375,21.039731979370117,-0.591795802116394,0.0359417464027761,0.733520505120875,-0.6787163320804466,0.2706086694940501,3.0,0.0
6.786869049072266,20.90791893005371,-0.6185320615768433,-0.0,-0.0,-1.0,0.0995555283952197,2.0,0.0
6.703327178955078,20.736297607421875,-0.6284431219100952,0.9425416490764066,0.3326628015131699,-0.0308334274082061,0.1832817034301746,5.0,0.0
5.319925308227539,23.0855712890625,-1.021541953086853,-0.6834121993891932,0.7255780494041645,0.0805249026629242,0.1134204507999648,3.0,0.0
7.432489395141602,21.391326904296875,-0.8162349462509155,-0.0,-0.0,-1.0,0.2116952015948727,1.0,0.0
7.095088958740234,21.472190856933594,-0.8527668714523315,-0.0,-0.0,-1.0,0.1569135048499455,1.0,0.0
7.043642044067383,21.04389190673828,-0.767681360244751,-0.0,-0.0,-1.0,0.2408182090349269,2.0,0.0
7.278461456298828,21.592676162719727,-0.4894948005676269,-0.0,-0.0,-1.0,0.2006528160114828,1.0,0.0
6.821706771850586,21.19577407836914,-0.5393187999725342,-0.0,-0.0,-1.0,0.1032040572490408,2.0,0.0
6.744110107421875,20.819433212280273,-0.5508453845977783,-0.0,-0.0,-1.0,0.1478192502808244,2.0,0.0
7.465450286865234,22.053869247436523,-1.078296184539795,-0.0,-0.0,-1.0,0.1645488895363762,1.0,0.0
6.851202011108398,21.212820053100582,-0.5251239538192749,-0.0,-0.0,-1.0,0.118004269322541,2.0,0.0
6.749904632568359,20.799968719482425,-0.5323483943939209,-0.0,-0.0,-1.0,0.1173529497672084,2.0,0.0
5.327182769775391,22.92720413208008,-1.1723462343215942,-0.0,-0.0,-1.0,0.0654545047304556,2.0,0.0
6.059940338134766,23.11191749572754,-1.092401146888733,-0.0,-0.0,-1.0,0.0961951194213113,1.0,0.0
5.581340789794922,23.026309967041016,-1.1459976434707642,-0.0,-0.0,-1.0,0.0795578054914134,2.0,0.0
5.328990936279297,22.856000900268555,-1.168912053108215,-0.0,-0.0,-1.0,0.0655128287029946,2.0,0.0
6.824548721313477,22.15132522583008,-0.954192280769348,-0.0,-0.0,-1.0,0.0940565972336718,1.0,0.0
7.242681503295898,21.600614547729492,-0.8792506456375122,-0.0,-0.0,-1.0,0.2096974686813635,1.0,0.0
7.526047706604004,21.188451766967773,-0.8278125524520874,-0.0,-0.0,-1.0,0.1515794375286263,1.0,0.0
7.458530426025391,21.454355239868164,-0.2736520767211914,0.8574516560867375,-0.4512269802329173,-0.2473274545698358,0.144268184135046,3.0,0.0
6.553991317749023,20.690258026123047,-0.3411153554916382,-0.0,-0.0,-1.0,0.1182167327469727,1.0,0.0
6.485093116760254,22.305458068847656,-1.127755880355835,-0.0,-0.0,-1.0,0.0805030468601441,1.0,0.0
7.682868003845215,22.64756774902344,-0.9777250289916992,-0.0,-0.0,-1.0,0.1432774308301177,1.0,0.0
7.679703712463379,22.213115692138672,-0.9601528644561768,-0.0,-0.0,-1.0,0.1948202067351455,1.0,0.0
7.269224166870117,22.015384674072266,-1.0090749263763428,-0.0,-0.0,-1.0,0.1338919293413635,1.0,0.0
6.673664093017578,21.312429428100582,-0.4857616424560547,-0.0,-0.0,-1.0,0.1139358885514007,2.0,0.0
7.353404998779297,21.501779556274418,-0.4143438339233398,-0.0,-0.0,-1.0,0.1947959220475803,2.0,0.0
7.142429351806641,21.174299240112305,-0.4325771331787109,-0.0,-0.0,-1.0,0.1667344916891363,1.0,0.0
6.8809919357299805,21.10266876220703,-0.4604921340942383,0.3409529381767394,-0.767997185749631,-0.5421544213868361,0.2608887767167353,4.0,0.0
6.575536727905273,20.70943069458008,-0.4908936023712158,-0.0,-0.0,-1.0,0.0892855982853249,2.0,0.0
7.0361223220825195,20.67591857910156,-0.4391320943832397,-0.0,-0.0,-1.0,0.1852424233610861,2.0,0.0
5.679862976074219,22.93346405029297,-1.0862245559692385,-0.0,-0.0,-1.0,0.1295364205706326,1.0,0.0
6.47669792175293,20.643722534179688,-0.2947010993957519,-0.0,-0.0,-1.0,0.0849060382648884,1.0,0.0
6.951878547668457,22.565502166748047,-1.1928457021713257,-0.0,-0.0,-1.0,0.1020268732563526,1.0,0.0
7.594754219055176,22.218496322631836,-1.087809681892395,-0.0,-0.0,-1.0,0.1770398739502519,1.0,0.0
6.580045700073242,21.147594451904297,-0.5127896070480347,-0.0,-0.0,-1.0,0.1037358391348287,1.0,0.0
6.863471984863281,21.113346099853516,-0.4866676330566406,0.481069235858458,-0.77214100001429,-0.4151754646020058,0.2763823170289947,5.0,0.0
7.340181350708008,21.729106903076172,-0.4016021490097046,-0.0,-0.0,-1.0,0.0928299416037445,1.0,0.0
6.765380859375,20.806774139404297,-0.3631513118743896,-0.0,-0.0,-1.0,0.1891916940738528,2.0,0.0
7.390924453735352,21.759502410888672,-0.4011627435684204,-0.0,-0.0,-1.0,0.0813908100619754,1.0,0.0
6.931798934936523,20.7627010345459,-0.3482372760772705,-0.0,-0.0,-1.0,0.1964923293075663,1.0,0.0
6.315199851989746,20.846782684326172,-0.5530787706375122,-0.0,-0.0,-1.0,0.161041468580382,1.0,0.0
6.798831939697266,20.975032806396484,-0.5627692937850952,-0.0,-0.0,-1.0,0.1891195733412581,1.0,0.0
7.483756065368652,21.83649253845215,-0.6900147199630737,-0.0,-0.0,-1.0,0.1196951943317677,1.0,0.0
7.364508628845215,21.581951141357425,-0.649842381477356,-0.0,-0.0,-1.0,0.0948251592506109,2.0,0.0
5.288205146789551,23.12273406982422,-0.966139793395996,0.7069840431245125,0.6876432229591171,0.1652887191725919,0.0915577516738606,3.0,0.0
6.803958892822266,20.91059303283691,-0.6165316104888916,-0.0,-0.0,-1.0,0.0995555283952196,2.0,0.0
7.484704971313477,21.546077728271484,-0.3354533910751343,-0.0,-0.0,-1.0,0.1208907841891349,1.0,0.0
6.817207336425781,20.94422912597656,-0.3952999114990234,-0.0,-0.0,-1.0,0.2451561786312805,1.0,0.0
7.442739486694336,21.42421531677246,-0.327839732170105,0.5064470263687207,0.0602342345185382,-0.8601646624189152,0.1442681841350459,3.0,0.0
7.160654067993164,21.08800506591797,-0.7262192964553833,-0.0,-0.0,-1.0,0.2619501951115459,1.0,0.0
6.804937362670898,20.679656982421875,-0.7211111783981323,-0.0,-0.0,-1.0,0.109023718695102,2.0,0.0
5.448259353637695,23.094526290893555,-0.8928991556167603,-0.6975718258679152,0.4144954933591505,-0.5844544753359818,0.0646828224937288,3.0,0.0
6.901159286499023,20.81693649291992,-0.4648028612136841,-0.0,-0.0,-1.0,0.2330894057106561,1.0,0.0
7.017538070678711,21.177528381347656,-0.4700225591659546,-0.0,-0.0,-1.0,0.1254139179903927,1.0,0.0
6.9660491943359375,21.02033805847168,-0.5800038576126099,-0.0,-0.0,-1.0,0.2083669254143283,2.0,0.0
6.715002059936523,20.702516555786133,-0.6494854688644409,0.2289904960620262,0.5627489471176663,-0.7942776436682737,0.2087798250684459,5.0,0.0
5.372182846069336,23.093406677246097,-0.8393934965133667,-0.0,-0.0,-1.0,0.0670525449991396,2.0,0.0
6.685359954833984,20.689498901367188,-0.6638529300689697,0.5510480511678502,0.1903389871198014,-0.8124759167423504,0.1343001294028314,5.0,0.0
6.795080184936523,20.846363067626953,-0.6728540658950806,-0.0,-0.0,-1.0,0.0853305301488398,1.0,0.0
5.396999359130859,23.09284782409668,-0.9233406782150269,-0.2101922149502887,0.4143056276804712,-0.8855337823293827,0.0720353209856958,5.0,0.0
7.445295333862305,21.29941177368164,-0.3000732660293579,-0.0,-0.0,-1.0,0.1238650137833159,1.0,0.0
7.314931869506836,21.495407104492188,-0.319088339805603,-0.0,-0.0,-1.0,0.15016860730066,2.0,0.0
7.415889739990234,21.813133239746097,-0.5628657341003418,-0.0,-0.0,-1.0,0.0731490465993498,1.0,0.0
6.591285705566406,20.70339584350586,-0.5111209154129028,-0.0,-0.0,-1.0,0.0920954873412362,2.0,0.0
6.896446228027344,20.965349197387695,-0.5179257392883301,-0.0,-0.0,-1.0,0.2713588238620837,2.0,0.0
6.4549407958984375,20.658740997314453,-0.5138609409332275,-0.0,-0.0,-1.0,0.0673299080755203,2.0,0.0
5.420812606811523,23.102115631103516,-0.8547579050064087,-0.0,-0.0,-1.0,0.0634978260325892,2.0,0.0
7.094287872314453,21.028160095214844,-0.6024086475372314,-0.2438701601507478,0.1281203761719888,-0.9613077104640306,0.2481724035175437,3.0,0.0
6.627386093139648,20.679256439208984,-0.6041711568832397,-0.0,-0.0,-1.0,0.085270777643499,1.0,0.0
6.809591293334961,20.98386001586914,-0.6157852411270142,-0.0,-0.0,-1.0,0.1664565779636515,1.0,0.0
7.290912628173828,21.507568359375,-0.4162566661834717,-0.0,-0.0,-1.0,0.1529949190075518,1.0,0.0
6.643945693969727,21.288341522216797,-0.4445078372955322,-0.0,-0.0,-1.0,0.1139358885514008,1.0,0.0
7.031303405761719,21.033838272094727,-0.5996073484420776,0.3210120533696294,-0.2867633788904898,-0.9026173198641402,0.217683363060108,3.0,0.0
6.8721923828125,20.95425796508789,-0.6101033687591553,-0.0,-0.0,-1.0,0.1962637416152342,2.0,0.0
5.282855987548828,23.094789505004883,-0.8237001895904541,-0.0,-0.0,-1.0,0.0761594062544115,1.0,0.0
7.335332870483398,21.428375244140625,-0.486035943031311,-0.0,-0.0,-1.0,0.1503201218255198,1.0,0.0
6.759452819824219,20.939197540283203,-0.533401608467102,-0.0,-0.0,-1.0,0.1952732351712506,1.0,0.0
6.837762832641602,21.58710479736328,-0.5344489812850952,-0.0,-0.0,-1.0,0.1337004567437928,1.0,0.0
7.434314727783203,21.597640991210938,-0.900713324546814,-0.0,-0.0,-1.0,0.2092880307249581,2.0,0.0
5.377841949462891,23.012266159057617,-1.1800826787948608,-0.0,-0.0,-1.0,0.096977770266821,1.0,0.0
7.326385498046875,21.56490707397461,-0.4286826848983764,0.7851418683876146,0.6082460358052336,0.1165718938339087,0.1732267542401513,4.0,0.0
6.995342254638672,20.69135475158691,-0.4335931539535522,-0.0,-0.0,-1.0,0.1856411062902214,2.0,0.0
6.698583602905273,21.341493606567383,-0.4776211977005005,-0.0,-0.0,-1.0,0.1152450247308963,2.0,0.0
6.5182647705078125,20.756027221679688,-0.4777126312255859,-0.0,-0.0,-1.0,0.0993060300488181,2.0,0.0
6.483640670776367,23.034927368164062,-1.0718649625778198,-0.0,-0.0,-1.0,0.0670785635822686,1.0,0.0
5.8554229736328125,23.0189208984375,-1.1547659635543823,-0.0,-0.0,-1.0,0.1103024229087855,2.0,0.0
5.40440559387207,22.881938934326172,-1.212666153907776,-0.0,-0.0,-1.0,0.0641381652477984,1.0,0.0
5.413330078125,23.02448844909668,-1.2135292291641235,-0.349312203553156,-0.178542187471007,-0.9198389379352812,0.0972911892558402,3.0,0.0
5.228601455688477,22.65612030029297,-1.2330564260482788,-0.0,-0.0,-1.0,0.0397163478671098,1.0,0.0
7.161428451538086,21.557518005371097,-0.9609564542770386,-0.0,-0.0,-1.0,0.175957159007182,1.0,0.0
6.8780364990234375,22.18745803833008,-1.0067378282546997,-0.0,-0.0,-1.0,0.0924436996120376,1.0,0.0
7.442719459533691,21.47133445739746,-0.3245519399642944,-0.0374981378607607,0.2500175902141347,-0.9675149064694,0.15016860730066,5.0,0.0
6.956979751586914,20.978912353515625,-0.374348521232605,-0.0,-0.0,-1.0,0.2008117523157017,1.0,0.0
6.782583236694336,20.78065490722656,-0.3925783634185791,-0.0,-0.0,-1.0,0.2199286935330087,2.0,0.0
5.276224136352539,23.022886276245117,-1.0754835605621338,-0.2723552427963864,0.7238384449358924,-0.6339404761916617,0.1013449426975832,5.0,0.0
7.243133544921875,21.56816673278809,-0.8011257648468018,-0.0,-0.0,-1.0,0.1837166126106695,1.0,0.0
6.780162811279297,21.20056915283203,-0.85831618309021,-0.0,-0.0,-1.0,0.252652610929817,2.0,0.0
7.273662567138672,21.533199310302734,-0.7183587551116943,-0.0,-0.0,-1.0,0.242405705750325,1.0,0.0
5.369052886962891,23.11219787597656,-0.9815311431884766,0.2583918529686633,0.3726428744930123,-0.8912748949729291,0.0932987330601216,3.0,0.0
7.059627532958984,20.97796058654785,-0.746912956237793,-0.0,-0.0,-1.0,0.1981702996334558,1.0,0.0
6.858248710632324,20.861330032348633,-0.7744500637054443,-0.3160973157206502,-0.2181205723892925,-0.9233124622221704,0.250896484545863,3.0,0.0
6.808006286621094,21.100069046020508,-0.7809877395629883,-0.8381910360687629,-0.5050393827223433,-0.2058421942979824,0.2167449396929436,4.0,0.0
5.53672981262207,23.133150100708008,-1.0194730758666992,0.1212979209877232,0.9240147824873548,0.3626065307036029,0.0615755393638399,4.0,0.0
5.2902679443359375,23.061058044433594,-1.0523638725280762,-0.4403915027292405,0.7449907966976858,-0.5010429494161444,0.1001925313284222,4.0,0.0
6.7982683181762695,21.938615798950195,-0.8157651424407959,-0.0,-0.0,-1.0,0.1212136929271834,1.0,0.0
7.158402442932129,21.155532836914062,-0.7519311904907227,-0.0,-0.0,-1.0,0.2582644222658443,2.0,0.0
6.833398818969727,20.788782119750977,-0.7945351600646973,-0.0,-0.0,-1.0,0.2295138150294983,2.0,0.0
6.839219093322754,21.073989868164062,-0.796729326248169,-0.6953431673305379,-0.6586241114794847,-0.2875972173450137,0.2774373486716033,3.0,0.0
6.634228706359863,20.80367660522461,-0.8233730792999268,-0.0,-0.0,-1.0,0.1532076937134486,1.0,0.0
6.502841949462891,20.76984214782715,-0.3159761428833008,-0.0,-0.0,-1.0,0.1947020961022846,1.0,0.0
7.424772262573242,22.671306610107425,-1.0423974990844729,-0.0,-0.0,-1.0,0.1165401364115315,1.0,0.0
7.2096357345581055,22.716386795043945,-1.0824308395385742,-0.0,-0.0,-1.0,0.1323266990397716,1.0,0.0
7.464653015136719,22.292957305908203,-1.044067621231079,-0.0,-0.0,-1.0,0.2309996426060799,1.0,0.0
7.418822288513184,22.355131149291992,-1.0512299537658691,-0.0,-0.0,-1.0,0.1994025404870194,1.0,0.0
6.765786170959473,22.628063201904297,-1.1695342063903809,-0.0,-0.0,-1.0,0.0817367881426234,1.0,0.0
6.6920166015625,22.753944396972656,-1.180546760559082,-0.0,-0.0,-1.0,0.0880794201993302,1.0,0.0
7.338680267333984,21.82522773742676,-1.0821928977966309,-0.0,-0.0,-1.0,0.1607219508406473,1.0,0.0
7.0816144943237305,20.971052169799805,-0.6840314865112305,-0.0,-0.0,-1.0,0.2740093175151963,1.0,0.0
6.918551445007324,21.01702117919922,-0.7080090045928955,-0.0,-0.0,-1.0,0.2227618855283773,1.0,0.0
6.728153228759766,20.752429962158203,-0.7518174648284912,-0.0,-0.0,-1.0,0.1878983723823609,1.0,0.0
7.385669708251953,22.418514251708984,-1.1639282703399658,-0.0,-0.0,-1.0,0.0817129065203766,1.0,0.0
7.659102439880371,22.55637550354004,-1.1015052795410156,-0.0,-0.0,-1.0,0.0989831629417693,1.0,0.0
7.492129325866699,22.497438430786133,-1.1388235092163086,-0.0,-0.0,-1.0,0.0813344123778031,1.0,0.0
6.612563133239746,21.62761878967285,-0.8926866054534912,-0.0,-0.0,-1.0,0.1592943704814873,1.0,0.0
6.801036834716797,20.964263916015625,-0.8943383693695068,-0.0,-0.0,-1.0,0.1553453901038332,1.0,0.0
6.544111251831055,21.205860137939453,-0.927711009979248,-0.0,-0.0,-1.0,0.2298376635475154,1.0,0.0
5.231755256652832,21.766422271728516,-1.137639045715332,-0.0,-0.0,-1.0,0.0533074332771208,1.0,0.0
7.122173309326172,21.586353302001953,-0.8018534183502197,-0.0,-0.0,-1.0,0.1384109975841523,1.0,0.0
7.007791519165039,20.97476577758789,-0.8557305335998535,-0.0,-0.0,-1.0,0.2519275319867257,2.0,0.0
6.938451766967773,21.030250549316406,-0.8652749061584473,-0.0,-0.0,-1.0,0.1918818274782815,1.0,0.0
7.336503982543945,21.463592529296875,-0.3330572843551636,-0.0,-0.0,-1.0,0.15016860730066,2.0,0.0
6.988364219665527,21.292247772216797,-0.3943986892700195,-0.0,-0.0,-1.0,0.165572745129334,1.0,0.0
6.661002159118652,20.748659133911133,-0.4769364595413208,-0.0,-0.0,-1.0,0.0830565944674248,1.0,0.0
7.461935997009277,22.75908660888672,-1.081130027770996,-0.0,-0.0,-1.0,0.1547713745069961,1.0,0.0
7.310681343078613,22.575780868530273,-1.115274429321289,-0.0,-0.0,-1.0,0.076324205377844,1.0,0.0
6.884761810302734,22.69269561767578,-1.2089574337005615,-0.0,-0.0,-1.0,0.0847129104800975,1.0,0.0
7.527100563049316,22.19199562072754,-1.0700798034667969,-0.0,-0.0,-1.0,0.1681943243235535,1.0,0.0
7.4259138107299805,21.83382797241211,-1.0981194972991943,-0.0,-0.0,-1.0,0.1543624821758104,1.0,0.0
7.120795249938965,21.84073257446289,-0.7512083053588867,-0.0,-0.0,-1.0,0.1796401502869713,1.0,0.0
6.730343818664551,21.978347778320312,-0.8217363357543945,-0.0,-0.0,-1.0,0.1076221317857112,1.0,0.0
6.734184265136719,21.47601318359375,-0.8365051746368408,-0.0,-0.0,-1.0,0.2437753752112576,1.0,0.0
6.8769731521606445,20.99110412597656,-0.8277616500854492,-0.0,-0.0,-1.0,0.2534130622519359,1.0,0.0
6.612482070922852,21.208011627197266,-0.8698863983154297,-0.0,-0.0,-1.0,0.1995125845881919,1.0,0.0
6.626030921936035,20.83305931091309,-0.8832159042358398,-0.0,-0.0,-1.0,0.1781097305497033,1.0,0.0
7.349616050720215,21.404712677001953,-0.321610689163208,-0.0,-0.0,-1.0,0.144268184135046,1.0,0.0
6.8734283447265625,21.33794593811035,-0.3989754915237427,-0.0,-0.0,-1.0,0.0969824215176203,1.0,0.0
6.44782829284668,21.463220596313477,-0.460403561592102,-0.0,-0.0,-1.0,0.1740045734572297,1.0,0.0
6.481224060058594,20.78578186035156,-0.4866094589233398,-0.0,-0.0,-1.0,0.172201112482523,2.0,0.0
5.619600296020508,22.805065155029297,-1.2106252908706665,-0.0,-0.0,-1.0,0.0319281882628727,1.0,0.0
5.521064758300781,22.696971893310547,-1.231341004371643,-0.0,-0.0,-1.0,0.0249550663546461,2.0,0.0
5.457123756408691,22.463600158691406,-1.2453235387802124,-0.0,-0.0,-1.0,0.0269246208580492,1.0,0.0
5.879652976989746,23.011945724487305,-1.1571224927902222,-0.1063221139191481,-0.0335979261011282,-0.9937639495642148,0.104902348113758,3.0,0.0
5.762007713317871,22.91900062561035,-1.1811155080795288,-0.0,-0.0,-1.0,0.0935526242819938,1.0,0.0
7.583906173706055,22.437397003173828,-1.1739920377731323,-0.0,-0.0,-1.0,0.0886205630729267,1.0,0.0
6.731410026550293,22.230043411254883,-0.9755908250808716,-0.0,-0.0,-1.0,0.1145820329469316,1.0,0.0
7.0488739013671875,21.883262634277344,-0.9095629453659058,-0.0,-0.0,-1.0,0.0700246208259129,1.0,0.0
7.039165496826172,21.527299880981445,-0.9153414964675904,-0.0,-0.0,-1.0,0.1775687648137354,1.0,0.0
6.915345191955566,21.179067611694336,-0.9483567476272584,-0.0,-0.0,-1.0,0.0912732989616139,1.0,0.0
7.344020843505859,21.52760887145996,-0.8497780561447144,-0.0,-0.0,-1.0,0.2294814340559728,2.0,0.0
7.185851097106934,21.504310607910156,-0.8841449022293091,-0.0,-0.0,-1.0,0.1867953389444069,1.0,0.0
6.723640441894531,21.34939193725586,-0.5942552089691162,-0.0,-0.0,-1.0,0.230439560964462,1.0,0.0
7.560606956481934,20.974647521972656,-0.8128751516342163,-0.0,-0.0,-1.0,0.1134299437886059,2.0,0.0
7.048978805541992,21.03723526000977,-0.7300114631652832,-0.0547827283173353,0.9819056476019185,0.1812736933081195,0.240931219388108,3.0,0.0
6.800774574279785,21.142234802246097,-0.5860385894775391,-0.0,-0.0,-1.0,0.1720711708521111,2.0,0.0
7.560091972351074,20.939666748046875,-0.8138223886489868,-0.0,-0.0,-1.0,0.1123505322156976,2.0,0.0
6.616798400878906,20.72845458984375,-0.6334928274154663,-0.0,-0.0,-1.0,0.1026156254826168,2.0,0.0
5.413209915161133,22.97847366333008,-1.2045520544052124,0.8650445458398787,-0.1674800976057779,-0.472914739269815,0.0866566057375858,4.0,0.0
5.249678611755371,22.74599838256836,-1.2238668203353882,-0.0,-0.0,-1.0,0.0342866483116833,2.0,0.0
7.488101005554199,22.810583114624023,-1.129602313041687,-0.0,-0.0,-1.0,0.1626755213996376,1.0,0.0
7.498098373413086,22.682035446166992,-1.1156200170516968,-0.0,-0.0,-1.0,0.1277835171854407,1.0,0.0
7.243474960327148,22.55253028869629,-1.1639021635055542,-0.0,-0.0,-1.0,0.0681692263627706,1.0,0.0
7.583955764770508,22.171348571777344,-1.0524693727493286,-0.0,-0.0,-1.0,0.2749150225994887,1.0,0.0
7.335177421569824,22.034526824951172,-1.1016985177993774,-0.0,-0.0,-1.0,0.097790352174912,1.0,0.0
5.3423662185668945,21.85218048095703,-1.1595677137374878,-0.0,-0.0,-1.0,0.0834266386454043,1.0,0.0
7.234750747680664,21.856489181518555,-1.1131635904312134,-0.0,-0.0,-1.0,0.1577379475270821,1.0,0.0
7.409809112548828,21.41912841796875,-1.043221354484558,-0.0,-0.0,-1.0,0.1566719846194255,1.0,0.0
7.30387020111084,21.65454864501953,-0.7387477159500122,-0.0,-0.0,-1.0,0.2241409993277623,1.0,0.0
6.979869842529297,21.677654266357425,-0.8075984716415405,-0.0,-0.0,-1.0,0.1530575324234944,1.0,0.0
6.448145866394043,21.337865829467773,-0.9045535326004028,-0.0,-0.0,-1.0,0.194805626081158,1.0,0.0
7.128549575805664,21.14679527282715,-0.7528394460678101,-0.0,-0.0,-1.0,0.2311710656773017,2.0,0.0
6.814218521118164,21.109786987304688,-0.8182624578475952,-0.6953431673305379,-0.6586241114794847,-0.2875972173450137,0.2659834934306487,3.0,0.0
6.778705596923828,20.83237075805664,-0.8168832063674927,-0.0,-0.0,-1.0,0.2001758186131398,1.0,0.0
7.330235481262207,21.55611801147461,-0.39061439037323,0.7851418683876146,0.6082460358052336,0.1165718938339087,0.1638412245052111,4.0,0.0
7.131531715393066,21.2778263092041,-0.4158586263656616,-0.0,-0.0,-1.0,0.1280331456553574,1.0,0.0
6.749533653259277,20.797517776489254,-0.4714391231536865,-0.0,-0.0,-1.0,0.121843686104014,1.0,0.0
6.464776039123535,20.65165328979492,-0.5201473236083984,-0.0,-0.0,-1.0,0.0701770478691231,2.0,0.0
6.830236434936523,21.02645492553711,-0.3657389879226684,-0.0,-0.0,-1.0,0.1929423265921472,1.0,0.0
5.40507698059082,22.95963478088379,-1.204037308692932,0.837858663471825,-0.3726124502322545,-0.3989396219694435,0.0955088254289894,3.0,0.0
5.6788740158081055,23.047954559326172,-1.1761308908462524,-0.0,-0.0,-1.0,0.0895261649995005,1.0,0.0
5.921652793884277,23.036396026611328,-1.136839509010315,-0.0,-0.0,-1.0,0.1009118076330502,2.0,0.0
5.8015031814575195,23.04209327697754,-1.156201720237732,-0.0,-0.0,-1.0,0.1308899969634459,1.0,0.0
6.883246898651123,21.063371658325195,-0.655730128288269,-0.0,-0.0,-1.0,0.211893656325837,2.0,0.0
6.709327697753906,20.71267318725586,-0.6338939666748047,0.9656024323106508,-0.2493140382303882,-0.0738542690506909,0.1850983182137435,6.0,0.0
7.12806510925293,21.03489112854004,-0.610080361366272,-0.0,-0.0,-1.0,0.1832219356807,2.0,0.0
6.969254016876221,20.98605155944824,-0.3252357244491577,-0.0,-0.0,-1.0,0.1772466143328387,1.0,0.0
7.454730987548828,21.42316246032715,-0.3208531141281128,0.5064470263687207,0.0602342345185382,-0.8601646624189152,0.144268184135046,3.0,0.0
5.42147159576416,22.53621482849121,-1.2479995489120483,-0.0,-0.0,-1.0,0.0277605143282259,1.0,0.0
5.244288444519043,22.289716720581055,-1.2374848127365112,-0.0,-0.0,-1.0,0.0205867767610369,1.0,0.0
5.910191535949707,22.698184967041016,-1.199445128440857,-0.0,-0.0,-1.0,0.0753347955954815,1.0,0.0
5.6604156494140625,22.640331268310547,-1.2277902364730835,-0.0,-0.0,-1.0,0.0250871863017267,2.0,0.0
6.170210838317871,22.8579044342041,-1.1884814500808716,-0.0,-0.0,-1.0,0.1079417798897091,1.0,0.0
5.717395782470703,23.136857986450195,-0.8954142332077026,-0.0,-0.0,-1.0,0.0698564183279497,1.0,0.0
5.453730583190918,23.068256378173828,-0.9180599451065063,0.5211512465241324,0.6444531436704914,-0.559536883377284,0.0683385574655495,3.0,0.0
6.443569660186768,22.865013122558594,-1.150567650794983,-0.5431696332107822,0.2420915654154618,-0.8039641929292345,0.1220396342776197,3.0,0.0
6.57444953918457,23.04162979125977,-1.1641305685043335,-0.0,-0.0,-1.0,0.0497126353610677,1.0,0.0
7.287018775939941,23.0863094329834,-1.078550934791565,-0.0,-0.0,-1.0,0.1573935245303914,1.0,0.0
7.1848554611206055,22.937000274658203,-1.0631579160690308,-0.0,-0.0,-1.0,0.1346580324393809,1.0,0.0
6.7761077880859375,22.125181198120117,-0.9726897478103638,-0.0,-0.0,-1.0,0.1253599739779438,1.0,0.0
7.426784515380859,22.808244705200195,-1.0076133012771606,-0.0,-0.0,-1.0,0.1236316823887661,1.0,0.0
7.278180122375488,21.999052047729492,-0.8784996271133423,-0.0,-0.0,-1.0,0.1742815899637084,1.0,0.0
7.087392330169678,21.6073055267334,-0.8377522230148315,-0.0,-0.0,-1.0,0.1647106171280657,1.0,0.0
7.603184223175049,22.125782012939453,-0.8564368486404419,-0.0,-0.0,-1.0,0.2263627536974382,1.0,0.0
7.471876621246338,21.96485710144043,-0.8449515104293823,-0.0,-0.0,-1.0,0.0956910004733609,1.0,0.0
6.889482021331787,21.106050491333008,-0.4599995613098144,0.3409529381767394,-0.767997185749631,-0.5421544213868361,0.2645590333069141,4.0,0.0
6.818645000457764,20.84332275390625,-0.756637692451477,-0.3160973157206502,-0.2181205723892925,-0.9233124622221704,0.1612181898660889,3.0,0.0
7.374200820922852,21.45943832397461,-0.6081775426864624,-0.0,-0.0,-1.0,0.0841878394796631,1.0,0.0
7.203721523284912,21.173006057739254,-0.5874367952346802,-0.0,-0.0,-1.0,0.1458978317134742,1.0,0.0
7.113678932189941,20.828216552734375,-0.7059966325759888,-0.0,-0.0,-1.0,0.2639240036487905,1.0,0.0
7.3423357009887695,21.171903610229492,-0.3009213209152221,-0.0,-0.0,-1.0,0.0562804809114654,1.0,0.0
6.519679069519043,20.648691177368164,-0.7104668617248535,-0.0,-0.0,-1.0,0.0636110234621923,1.0,0.0
7.042270660400391,21.09745216369629,-0.6701812744140625,-0.0,-0.0,-1.0,0.1717030388977254,2.0,0.0
6.7113189697265625,20.650800704956055,-0.6542325019836426,-0.0,-0.0,-1.0,0.1289388359715077,2.0,0.0
7.06402587890625,21.14235496520996,-0.5781989097595215,-0.0,-0.0,-1.0,0.1570095503410531,1.0,0.0
6.798933029174805,21.128114700317383,-0.5960092544555664,-0.0,-0.0,-1.0,0.2110573197363953,2.0,0.0
6.685708999633789,20.671911239624023,-0.5659158229827881,-0.0,-0.0,-1.0,0.1157225772039968,2.0,0.0
7.040288925170898,20.928213119506836,-0.7364685535430908,-0.0,-0.0,-1.0,0.2305563537016743,2.0,0.0
7.38395881652832,21.587127685546875,-0.3214640617370605,-0.0,-0.0,-1.0,0.1467063765264001,1.0,0.0
5.271946907043457,23.06816864013672,-1.010331392288208,-0.3474970251836273,0.9365653735448412,0.0457287498773092,0.1048623766720272,4.0,0.0
6.948040008544922,21.044574737548828,-0.6716969013214111,-0.0,-0.0,-1.0,0.1762341558342781,1.0,0.0
6.780119895935059,20.66832733154297,-0.6436071395874023,-0.0,-0.0,-1.0,0.1613573397803753,1.0,0.0
6.599689483642578,20.710126876831055,-0.6612300872802734,0.4884348088124919,0.55859535617841,-0.6703750186248137,0.0980257584018301,3.0,0.0
6.875913619995117,20.990982055664062,-0.5513474941253662,-0.0,-0.0,-1.0,0.1968305849114356,2.0,0.0
5.380199432373047,23.126190185546875,-0.8963909149169922,-0.213722788695021,0.4164592940794807,-0.8836765392196649,0.0741676806831016,4.0,0.0
5.311772346496582,23.09598922729492,-1.1016442775726318,-0.0,-0.0,-1.0,0.0870793588769215,1.0,0.0
6.904537677764893,20.876781463623047,-0.7156202793121338,-0.2658537705014864,-0.6305965444436474,-0.7291568904192527,0.1196572976718238,3.0,0.0
6.699760913848877,20.66404151916504,-0.7068440914154053,-0.0,-0.0,-1.0,0.1335977351479553,2.0,0.0
6.686662673950195,21.21456527709961,-0.5627856254577637,-0.0,-0.0,-1.0,0.1205603879332742,1.0,0.0
5.543389320373535,23.11985969543457,-0.9810826778411864,0.1212979209877232,0.9240147824873548,0.3626065307036029,0.0584758229711762,4.0,0.0
7.384268760681152,21.58601188659668,-0.6336286067962646,-0.0,-0.0,-1.0,0.0824034120708475,2.0,0.0
7.141644477844238,20.872962951660156,-0.560560941696167,-0.0,-0.0,-1.0,0.1557083637405285,1.0,0.0
6.884829998016357,20.95331764221191,-0.5915811061859131,-0.0,-0.0,-1.0,0.2324137951527395,2.0,0.0
6.792848587036133,20.754724502563477,-0.8520960807800293,-0.0,-0.0,-1.0,0.2580730507948496,2.0,0.0
5.276589870452881,23.133607864379883,-0.961695909500122,0.7069840431245125,0.6876432229591171,0.1652887191725919,0.0642986146099789,3.0,0.0
7.118085861206055,20.826736450195312,-0.491321325302124,-0.0,-0.0,-1.0,0.1105091978881828,1.0,0.0
7.560039520263672,22.764102935791016,-0.9979848861694336,-0.0,-0.0,-1.0,0.1991051514189265,1.0,0.0
5.452677249908447,23.12898063659668,-1.1972723007202148,-0.0,-0.0,-1.0,0.0953901670378928,2.0,0.0
5.2329840660095215,22.780914306640625,-1.1578667163848877,-0.0,-0.0,-1.0,0.0482448206181998,1.0,0.0
7.428319931030273,21.79136085510254,-0.8468480110168457,-0.0,-0.0,-1.0,0.1399040307383727,1.0,0.0
7.2218146324157715,20.996625900268555,-0.7301671504974365,-0.0,-0.0,-1.0,0.1977956195095686,2.0,0.0
7.3149614334106445,21.24271011352539,-0.7643425464630127,-0.0,-0.0,-1.0,0.1163285376177305,1.0,0.0
6.938693523406982,20.878263473510746,-0.7293553352355957,-0.2658537705014864,-0.6305965444436474,-0.7291568904192527,0.1256144214528539,3.0,0.0
5.249899864196777,22.997608184814453,-1.0850250720977783,-0.0338612383094108,0.9043862668165638,-0.4253691302078144,0.0919739524848734,4.0,0.0
5.434838771820068,23.124176025390625,-1.0954341888427734,-0.7307081815869894,-0.2484794160306868,-0.6358643984143825,0.1015053094734666,3.0,0.0
7.213380813598633,21.133216857910156,-0.6619234085083008,-0.0,-0.0,-1.0,0.1836552584790994,1.0,0.0
7.11287260055542,21.347877502441406,-0.7034759521484375,-0.0,-0.0,-1.0,0.1385316005074501,1.0,0.0
7.0108795166015625,21.045148849487305,-0.6567230224609375,-0.0,-0.0,-1.0,0.2343953159880007,2.0,0.0
7.562827110290527,21.34109878540039,-0.9211442470550536,-0.0,-0.0,-1.0,0.1927200039051024,1.0,0.0
5.755275249481201,21.599702835083008,-1.1037883758544922,-0.0,-0.0,-1.0,0.0359951562279301,1.0,0.0
5.410609722137451,21.52456283569336,-1.11850905418396,-0.0,-0.0,-1.0,0.0996430711160519,1.0,0.0
6.919149398803711,20.74105453491211,-0.8535127639770508,-0.0,-0.0,-1.0,0.2120768588761013,1.0,0.0
6.827212333679199,20.905214309692383,-0.8909897804260254,-0.0,-0.0,-1.0,0.2198013669370009,2.0,0.0
6.1979827880859375,20.662410736083984,-0.894026517868042,-0.0,-0.0,-1.0,0.1702987997019079,2.0,0.0
7.4615583419799805,21.481151580810547,-0.312042236328125,0.7878788531350854,-0.3042129440568714,-0.5354450461539385,0.15016860730066,5.0,0.0
6.174674987792969,20.644237518310547,-0.9176323413848876,-0.0,-0.0,-1.0,0.155638843382005,2.0,0.0
5.402982234954834,23.125246047973633,-1.059244155883789,-0.0,-0.0,-1.0,0.0785075813020844,2.0,0.0
6.872291564941406,21.039077758789062,-0.5366041660308838,-0.0,-0.0,-1.0,0.1855525148941116,1.0,0.0
6.682281494140625,21.32058334350586,-0.6057543754577637,-0.0,-0.0,-1.0,0.200925215274317,1.0,0.0
7.169213771820068,20.7115478515625,-0.4498763084411621,-0.0,-0.0,-1.0,0.121964555784896,1.0,0.0
7.368260383605957,21.494922637939453,-0.8396568298339844,-0.0,-0.0,-1.0,0.2098335233173436,2.0,0.0
7.433544158935547,21.59156036376953,-0.8571059703826904,-0.0,-0.0,-1.0,0.1884024342282811,2.0,0.0
7.565788269042969,22.25713157653809,-0.9980199337005616,-0.0,-0.0,-1.0,0.2079688516744736,2.0,0.0
7.407025337219238,22.66938591003418,-1.1001718044281006,-0.0,-0.0,-1.0,0.0962113227242359,1.0,0.0
7.199666500091553,21.40665626525879,-0.8310563564300537,0.4706986856862355,-0.7655031015081073,0.4386886696447936,0.1999784999957166,3.0,0.0
6.6353759765625,22.918487548828125,-1.2071876525878906,-0.0,-0.0,-1.0,0.0737558185814412,1.0,0.0
5.652706146240234,22.746910095214844,-1.244595289230347,-0.0,-0.0,-1.0,0.0275451882604452,1.0,0.0
5.363157749176025,22.62702751159668,-1.24275541305542,-0.0,-0.0,-1.0,0.0303562264379724,1.0,0.0
7.182715892791748,21.002775192260746,-0.7419619560241699,-0.0004899314210841,0.8860573633383922,0.4635753540051702,0.1915714190206808,3.0,0.0
6.7896623611450195,20.798114776611328,-0.7241802215576172,-0.0,-0.0,-1.0,0.0894396373583952,1.0,0.0
7.433950424194336,21.491897583007812,-0.3011581897735595,0.2627926284581225,0.8399493157279233,-0.4747896180796968,0.15016860730066,4.0,0.0
6.417441368103027,22.81200408935547,-1.2397465705871582,-0.0,-0.0,-1.0,0.1151857105909632,1.0,0.0
5.697183609008789,22.796695709228516,-1.2980167865753174,-0.0,-0.0,-1.0,0.0297401420266664,1.0,0.0
5.480546951293945,22.68318748474121,-1.2920045852661133,-0.0,-0.0,-1.0,0.0233986659901257,1.0,0.0
7.665410995483398,22.912349700927734,-1.1779382228851318,-0.0,-0.0,-1.0,0.1355491699359912,1.0,0.0
7.383865356445312,21.83217430114746,-0.9362010955810548,-0.0,-0.0,-1.0,0.2039981703041282,1.0,0.0
7.531727313995361,22.232677459716797,-1.0227985382080078,-0.0,-0.0,-1.0,0.2205643699436141,2.0,0.0
7.46989107131958,22.56136131286621,-1.1055009365081787,-0.0,-0.0,-1.0,0.0935878204779691,1.0,0.0
7.419464111328125,22.772789001464844,-1.1592020988464355,-0.0,-0.0,-1.0,0.142200064785189,1.0,0.0
7.242376804351807,21.423166275024418,-0.8480734825134277,0.4706986856862355,-0.7655031015081073,0.4386886696447936,0.1820419002668839,3.0,0.0
7.285972118377685,21.81481552124023,-0.9385037422180176,-0.0,-0.0,-1.0,0.1882852522603765,1.0,0.0
7.224518775939941,21.057876586914062,-0.7619178295135498,-0.0,-0.0,-1.0,0.2732304113686078,1.0,0.0
7.225433826446533,21.21415328979492,-0.7992458343505859,-0.0,-0.0,-1.0,0.2133170358980175,1.0,0.0
6.936323165893555,20.897113800048828,-0.7447934150695801,-0.3713414131365279,-0.2396205695566036,-0.8970437768220316,0.1373633999508873,4.0,0.0
6.966421127319336,21.086605072021484,-0.787503719329834,-0.0,-0.0,-1.0,0.2542520303904362,2.0,0.0
6.595600128173828,20.70488929748535,-0.726475715637207,-0.0,-0.0,-1.0,0.0965589618830445,1.0,0.0
7.412350177764893,21.51168632507324,-0.3565595149993896,-0.0,-0.0,-1.0,0.15016860730066,2.0,0.0
7.652195930480957,22.759498596191406,-1.0388286113739014,-0.0,-0.0,-1.0,0.1911796426135981,1.0,0.0
7.662770271301269,22.83654403686523,-1.0577218532562256,-0.0,-0.0,-1.0,0.2060334405938599,1.0,0.0
7.365669250488281,22.852758407592773,-1.080618381500244,-0.0,-0.0,-1.0,0.147195929894494,1.0,0.0
6.4296369552612305,22.932750701904297,-1.1693289279937744,-0.0,-0.0,-1.0,0.0805619470383346,1.0,0.0
6.055462837219238,22.894771575927734,-1.191117763519287,-0.0,-0.0,-1.0,0.0805803320648721,1.0,0.0
5.677769184112549,22.84710693359375,-1.2128033638000488,-0.0,-0.0,-1.0,0.0390696198154104,1.0,0.0
5.295771598815918,22.73913192749023,-1.2223153114318848,-0.0,-0.0,-1.0,0.0361018869644447,2.0,0.0
7.385727405548096,21.45290756225586,-0.7219023704528809,-0.0,-0.0,-1.0,0.2113870268083823,1.0,0.0
7.391387939453125,21.75632667541504,-0.7988958358764648,-0.0,-0.0,-1.0,0.1558265621616184,1.0,0.0
7.52817440032959,22.236570358276367,-0.9126207828521729,-0.0,-0.0,-1.0,0.2449959273079441,1.0,0.0
7.439357757568359,22.62569046020508,-1.0177974700927734,-0.0,-0.0,-1.0,0.1012781310103052,1.0,0.0
6.996390342712402,21.092823028564453,-0.6581947803497314,-0.2416581908645887,-0.1032311453559816,-0.9648547296958988,0.2057526037170593,3.0,0.0
7.10891580581665,21.215030670166016,-0.6810874938964844,-0.0,-0.0,-1.0,0.1912127653968089,1.0,0.0
6.8496599197387695,21.05429458618164,-0.6597297191619873,-0.0,-0.0,-1.0,0.2404865324334764,2.0,0.0
6.701459884643555,20.67623519897461,-0.575951099395752,-0.5180463840561159,-0.0876181007260357,-0.8508531085866381,0.1157225772039969,3.0,0.0
6.752900123596191,20.74435043334961,-0.588951587677002,-0.0,-0.0,-1.0,0.1788907956796562,2.0,0.0
6.545375347137451,20.70867156982422,-0.5972850322723389,-0.0,-0.0,-1.0,0.1319877843298404,2.0,0.0
7.701477527618408,21.943517684936523,-1.142247438430786,-0.0,-0.0,-1.0,0.1534643318172235,1.0,0.0
7.481122016906738,20.933847427368164,-0.8513529300689697,-0.0,-0.0,-1.0,0.1368321467629556,1.0,0.0
7.39956521987915,21.298572540283203,-0.9670636653900146,0.8356482961368777,0.1728191317060263,-0.5213688453292049,0.1741597989584687,3.0,0.0
7.284697532653809,21.395374298095703,-1.004585027694702,-0.0,-0.0,-1.0,0.0990730829203929,1.0,0.0
6.9806599617004395,20.86437225341797,-0.8681325912475586,-0.0,-0.0,-1.0,0.2053722720978584,1.0,0.0
7.137957572937012,21.064010620117188,-0.9157118797302246,-0.0,-0.0,-1.0,0.2441142082711861,1.0,0.0
6.734225273132324,20.685087203979492,-0.8355040550231934,-0.0,-0.0,-1.0,0.1379950644938603,2.0,0.0
5.938816547393799,23.126401901245117,-1.1293869018554688,-0.0,-0.0,-1.0,0.1032353903339635,2.0,0.0
5.635980129241943,21.30441093444824,-1.1291844844818115,-0.0,-0.0,-1.0,0.0388826320385371,1.0,0.0
5.614487648010254,23.129148483276367,-1.159226894378662,-0.0,-0.0,-1.0,0.0772341269116159,1.0,0.0
5.475410461425781,23.133380889892575,-1.173203468322754,-0.0,-0.0,-1.0,0.0887641232753434,2.0,0.0
5.4270524978637695,21.287364959716797,-1.1478493213653564,-0.0,-0.0,-1.0,0.0346262360167022,1.0,0.0
7.435488700866699,21.810577392578125,-0.6690096855163574,-0.0,-0.0,-1.0,0.1248633675733995,1.0,0.0
7.139125347137451,21.21026611328125,-0.5301899909973145,-0.0,-0.0,-1.0,0.1556296720613514,1.0,0.0
