x,y,z,nx,ny,nz,curvature,density,label
23.982654571533203,-19.348876953125,0.5318208932876587,-0.0,-0.0,-1.0,0.0979297495191839,1.0,1.0
22.74144172668457,-18.24247360229492,0.7234960794448853,0.3959557468657219,-0.8774845457823406,-0.2706287465092497,0.169241316446176,6.0,1.0
22.84480094909668,-18.273771286010746,0.7132092714309692,-0.8207507295450147,-0.277580288798701,-0.4993169566735702,0.2329667635676743,7.0,1.0
23.379392623901367,-18.07769775390625,0.6887567043304443,-0.2723410819521211,-0.953656526621646,0.1279435981715611,0.1782838068523226,3.0,1.0
23.6563720703125,-18.999675750732425,0.5886039733886719,-0.0,-0.0,-1.0,0.0581166994072144,2.0,1.0
23.71377944946289,-17.915348052978516,0.6757649183273315,-0.2131719374105363,0.133941473676278,-0.9677899600275178,0.1146343530175675,6.0,1.0
24.05752182006836,-19.235082626342773,0.5352286100387573,-0.0,-0.0,-1.0,0.1619253764327513,2.0,1.0
24.48573303222656,-19.13441276550293,0.5067945718765259,-0.4119827162132292,-0.7148053088917302,-0.5650872604490107,0.1624037087935053,4.0,1.0
24.65188789367676,-19.184309005737305,0.4878064393997192,-0.0,-0.0,-1.0,0.0949345892206319,1.0,1.0
24.97765350341797,-18.281003952026367,0.5353447198867798,-0.0599688817921854,-0.1692765925632503,-0.9837424299209476,0.1101218718943653,5.0,1.0
25.161046981811523,-18.56561279296875,0.494136095046997,-0.0,-0.0,-1.0,0.0321018196324759,2.0,1.0
22.82754898071289,-18.151752471923828,1.2643274068832395,-0.0,-0.0,-1.0,0.1159670951468471,1.0,2.0
22.715068817138672,-17.340221405029297,0.5412079095840454,-0.9386249872884048,-0.2685206046231877,0.2165174776562845,0.1603417743799843,4.0,1.0
22.955087661743164,-17.22217559814453,0.5468428134918213,-0.0,-0.0,-1.0,0.1833735377862898,2.0,1.0
22.973133087158203,-17.324609756469727,0.5356670618057251,-0.9666681961776078,-0.247544178960223,0.0653794919041089,0.1813924583999504,3.0,1.0
23.287691116333008,-17.30150032043457,0.5286898612976074,-0.0,-0.0,-1.0,0.1929387528280838,2.0,1.0
23.520767211914062,-17.810298919677734,0.4680396318435669,-0.0,-0.0,-1.0,0.0857559393607739,1.0,1.0
23.89946937561035,-17.813541412353516,0.4541448354721069,-0.0,-0.0,-1.0,0.1980273513004906,1.0,1.0
24.26872444152832,-17.73488426208496,0.4480737447738647,-0.0,-0.0,-1.0,0.0544218028125844,2.0,1.0
24.45607566833496,-17.77490234375,0.4361550807952881,-0.0,-0.0,-1.0,0.0583212730575106,2.0,1.0
24.674280166625977,-17.764318466186523,0.4278037548065185,-0.7528674893869254,0.4042846159009908,-0.5193693221302319,0.0895165787264778,5.0,1.0
25.07001495361328,-17.53750991821289,0.4336481094360351,-0.8436763280476329,0.3959514080677526,-0.3625365304920693,0.0627188308666003,3.0,1.0
22.77324867248535,-18.225128173828125,0.9594522714614868,-0.0,-0.0,-1.0,0.128998374585175,2.0,1.0
22.838848114013672,-17.208406448364258,0.4578073024749756,0.0271939035504444,-0.4055765829705172,-0.9136564600306007,0.2264392175546919,4.0,1.0
23.039478302001953,-17.22732162475586,0.4547711610794067,-0.0,-0.0,-1.0,0.1099823423433319,2.0,1.0
23.44771194458008,-17.25333595275879,0.4489448070526123,-0.7773206613813263,0.1001943480763535,-0.6210746187079711,0.1081251080610841,5.0,1.0
23.713577270507812,-17.387964248657227,0.4304978847503662,-0.0,-0.0,-1.0,0.0633623697819486,1.0,1.0
23.90987205505371,-17.538036346435547,0.410319447517395,-0.0,-0.0,-1.0,0.0540571671883525,2.0,1.0
24.261310577392575,-17.544334411621094,0.4041471481323242,-0.0,-0.0,-1.0,0.0368192591180711,1.0,1.0
24.647401809692383,-17.62443733215332,0.3873478174209595,-0.0,-0.0,-1.0,0.0669132050621296,2.0,1.0
25.059032440185547,-17.4631290435791,0.3972319364547729,-0.0,-0.0,-1.0,0.0885489641145029,2.0,1.0
22.789928436279297,-18.18845558166504,0.8202141523361206,-0.6576639385680617,0.3204914119244481,-0.6817355783511805,0.2064903885794435,4.0,1.0
23.298871994018555,-18.043542861938477,0.8248060941696167,-0.3945343199778787,-0.855857372909662,-0.33444106744801,0.1491466928085083,5.0,1.0
22.813461303710938,-18.335906982421875,1.286041021347046,0.063886349680691,-0.8413675589949375,-0.5366741702330907,0.1538151649674151,4.0,2.0
23.05130195617676,-17.364328384399414,0.5663536787033081,-0.0,-0.0,-1.0,0.1936871568587865,1.0,1.0
23.102649688720703,-17.592239379882812,0.5393346548080444,-0.0,-0.0,-1.0,0.0455371146458929,2.0,1.0
23.248268127441406,-18.02181053161621,0.487537145614624,-0.0,-0.0,-1.0,0.1142438450281014,1.0,1.0
23.499897003173828,-18.011505126953125,0.4859912395477295,-0.0,-0.0,-1.0,0.141371854446671,1.0,1.0
23.890644073486328,-18.063657760620117,0.4743351936340332,-0.0,-0.0,-1.0,0.0949116930812156,2.0,1.0
24.302810668945312,-17.887229919433594,0.4881502389907837,-0.652394055456114,-0.3218157626947326,0.6861607765580399,0.1264270817789451,3.0,1.0
24.74365997314453,-17.806352615356445,0.488311767578125,-0.2535562882905361,-0.8749223154473807,-0.4125774480028212,0.0954892845014823,3.0,1.0
24.678430557250977,-17.9420166015625,0.4734174013137817,0.4952992997599145,-0.005018254796813,-0.868707903023872,0.0444845212008099,3.0,1.0
25.1191463470459,-17.723297119140625,0.4885510206222534,-0.6602088466341075,0.0701906484050244,-0.7477951268245493,0.1195267683442737,3.0,1.0
24.92435646057129,-17.821269989013672,0.48198401927948,-0.0,-0.0,-1.0,0.0369391711859339,2.0,1.0
22.808937072753903,-18.43907165527344,1.3335223197937012,-0.6089135789325659,-0.7754265119466185,-0.1671465762791301,0.1505987093714506,5.0,2.0
22.81907081604004,-17.434425354003906,0.6286386251449585,-0.0,-0.0,-1.0,0.108527237452484,1.0,1.0
22.81085205078125,-17.973604202270508,0.564608097076416,-0.0,-0.0,-1.0,0.1035367493165124,1.0,1.0
22.91988182067871,-18.16377830505371,0.5424666404724121,-0.0,-0.0,-1.0,0.1130559803124076,2.0,1.0
23.28030014038086,-17.567394256591797,0.6149548292160034,-0.0,-0.0,-1.0,0.1125060640093392,1.0,1.0
23.21443748474121,-18.24163055419922,0.533804178237915,-0.0,-0.0,-1.0,0.2062482503201085,2.0,1.0
23.599742889404297,-18.10315322875977,0.5502157211303711,-0.0,-0.0,-1.0,0.19115741560904,1.0,1.0
23.610719680786133,-18.37363624572754,0.5173133611679077,-0.0,-0.0,-1.0,0.0659781358104408,2.0,1.0
24.289487838745117,-17.05746078491211,0.3209778070449829,-0.0,-0.0,-1.0,0.0267095453174053,2.0,1.0
24.163097381591797,-17.9231014251709,0.5689677000045776,-0.0,-0.0,-1.0,0.0706288839260374,2.0,1.0
24.03496742248535,-18.152498245239254,0.541919469833374,0.8466474267718612,0.4435513582668054,0.2940243651812859,0.0907060949082299,3.0,1.0
24.18430519104004,-18.46031188964844,0.5030159950256348,-0.0,-0.0,-1.0,0.0631222364829432,1.0,1.0
24.666372299194336,-17.11275863647461,0.3102599382400512,-0.0,-0.0,-1.0,0.0950417410206968,2.0,1.0
24.478782653808594,-18.37055015563965,0.5106735229492188,-0.8864945661510549,-0.3145614627836379,0.3393795372677483,0.0894406302777071,3.0,1.0
24.363636016845703,-18.476837158203125,0.4990110397338867,-0.0,-0.0,-1.0,0.0612928218679269,1.0,1.0
25.09326171875,-17.03105926513672,0.3187487125396728,-0.0,-0.0,-1.0,0.0859933167603159,1.0,1.0
24.82392311096191,-18.2996768951416,0.514957070350647,-0.474034517435901,-0.8109106140823491,-0.3430965640281171,0.0812165559114134,3.0,1.0
25.14335060119629,-18.2466983795166,0.5163455009460449,-0.0,-0.0,-1.0,0.1481845422063453,1.0,1.0
23.014415740966797,-16.935516357421875,0.4015473127365112,-0.0,-0.0,-1.0,0.0582207014475857,2.0,1.0
22.779617309570312,-18.11136245727539,0.571277379989624,-0.1841429172611972,0.053492271521672,-0.9814427965551472,0.0864437515383896,3.0,1.0
23.413105010986328,-17.040714263916016,0.3823479413986206,-0.0,-0.0,-1.0,0.0728102072797189,1.0,1.0
22.88260269165039,-18.20614242553711,0.5572068691253662,-0.0,-0.0,-1.0,0.1302190072224869,2.0,1.0
23.022804260253903,-18.44519805908203,0.5229270458221436,-0.0,-0.0,-1.0,0.0562466893590816,1.0,1.0
23.7855167388916,-17.098857879638672,0.368550181388855,-0.0349355010320786,-0.2280486520663271,-0.9730227762279612,0.034134271516934,3.0,1.0
23.73334312438965,-17.85201644897461,0.5898407697677612,-0.1547128689889196,0.3517139331064126,-0.9232341184271924,0.1597485608451716,5.0,1.0
23.313724517822266,-18.263492584228516,0.5424730777740479,-0.0,-0.0,-1.0,0.1339503407461444,1.0,1.0
23.360877990722656,-18.49345970153809,0.5102498531341553,-0.0,-0.0,-1.0,0.0398093019758242,1.0,1.0
24.199731826782227,-17.197914123535156,0.3443859815597534,-0.0,-0.0,-1.0,0.0174751194231958,2.0,1.0
24.054140090942383,-18.1853084564209,0.5362074375152588,-0.1060584726421798,-0.335857621970114,-0.9359226774394284,0.0954502735902834,5.0,1.0
23.81560516357422,-18.49702835083008,0.4995912313461303,-0.0,-0.0,-1.0,0.0642925945770691,2.0,1.0
24.712535858154297,-17.037412643432617,0.3592743873596191,-0.0,-0.0,-1.0,0.1251233562485254,1.0,1.0
24.593618392944336,-17.242372512817383,0.32705819606781,-0.0,-0.0,-1.0,0.0363155536167371,1.0,1.0
24.141151428222656,-18.19666290283203,0.5322365760803223,-0.0,-0.0,-1.0,0.137620764623956,2.0,1.0
24.255786895751953,-18.489748001098633,0.4884835481643677,-0.0,-0.0,-1.0,0.0402311327059381,2.0,1.0
25.137800216674805,-16.906002044677734,0.3681355714797973,-0.0,-0.0,-1.0,0.1266136711823023,1.0,1.0
24.9449405670166,-16.867130279541016,0.3817806243896484,-0.2487950147176595,-0.967341388431084,-0.0484941118060962,0.0903750963288104,3.0,1.0
24.731685638427734,-18.311767578125,0.4974576234817505,-0.0,-0.0,-1.0,0.0660391612245558,2.0,1.0
24.521841049194336,-18.462982177734375,0.4837789535522461,-0.8842086741138518,-0.1251213817004451,-0.4500218444289071,0.0998423068408228,4.0,1.0
25.07458877563477,-18.12759780883789,0.5102393627166748,-0.0,-0.0,-1.0,0.1068286788290717,1.0,1.0
24.95008087158203,-18.196866989135746,0.5054514408111572,-0.0,-0.0,-1.0,0.0614746462094669,1.0,1.0
22.78818130493164,-17.36406707763672,0.6708929538726807,0.3637093663009491,-0.5506472954545167,-0.7513341818881849,0.146987926410071,5.0,1.0
22.925498962402344,-17.46601104736328,0.6558606624603271,-0.0,-0.0,-1.0,0.0809565518752625,2.0,1.0
22.783737182617188,-18.21615219116211,0.924123227596283,-0.7581109544934201,-0.5397549817946147,-0.3659676765849281,0.16617848690095,4.0,1.0
23.165267944335938,-17.24530792236328,0.6823819875717163,-0.0,-0.0,-1.0,0.1257601506762226,2.0,1.0
22.855987548828125,-18.227096557617188,0.9213701486587524,-0.0,-0.0,-1.0,0.2346824019860474,2.0,1.0
23.774200439453125,-17.82403564453125,0.5927337408065796,-0.434143959120372,0.3639535140923304,-0.8240490654925428,0.2107529889829018,5.0,1.0
24.26510429382324,-17.85664176940918,0.918712854385376,0.0447352970842438,-0.8434592825177508,-0.5353271821320357,0.0756299541978039,3.0,1.0
23.98373031616211,-19.362152099609375,0.7736647129058838,-0.0,-0.0,-1.0,0.0533344959630378,1.0,1.0
22.841236114501953,-18.329038619995117,1.279382586479187,-0.5610228787238405,-0.8141176757977648,0.1498857548336757,0.1414172856468145,5.0,2.0
22.92032814025879,-17.3427734375,0.5299159288406372,-0.0,-0.0,-1.0,0.1602074773465377,1.0,1.0
22.721818923950195,-17.368053436279297,0.5202927589416504,-0.0,-0.0,-1.0,0.1577365687981819,2.0,1.0
23.24970436096191,-17.384292602539062,0.5315228700637817,0.3829565450463546,-0.3748857960533484,-0.8442777531852933,0.1938223217089249,3.0,1.0
23.72008895874023,-17.867578506469727,0.4627512693405151,-0.0,-0.0,-1.0,0.223684078025545,2.0,1.0
23.512651443481445,-17.878599166870117,0.4581845998764038,-0.0,-0.0,-1.0,0.1421191618138018,1.0,1.0
22.757213592529297,-19.094749450683594,0.6133323907852173,-0.0,-0.0,-1.0,0.0281177182940208,1.0,1.0
22.85005569458008,-19.302303314208984,0.5889499187469482,-0.0,-0.0,-1.0,0.0450016765225058,2.0,1.0
24.056161880493164,-17.868064880371094,0.4653916358947754,-0.4871016826524174,0.5029288852483281,0.7139989405734846,0.1588593645920288,3.0,1.0
23.796489715576172,-17.9362735748291,0.4525699615478515,-0.0,-0.0,-1.0,0.2128931456743012,2.0,1.0
24.42090606689453,-17.876750946044922,0.464717149734497,-0.0,-0.0,-1.0,0.0913640939231275,1.0,1.0
23.86103248596191,-19.353883743286133,0.5880048274993896,-0.0,-0.0,-1.0,0.0849396420649467,2.0,1.0
25.120386123657227,-17.679290771484375,0.4915870428085327,-0.2719911297041269,-0.0255805406842634,-0.9619596983764832,0.1083093092819257,4.0,1.0
24.9136962890625,-17.754676818847656,0.4816548824310303,-0.0,-0.0,-1.0,0.0503556865595505,1.0,1.0
24.639760971069336,-17.95509147644043,0.4514452219009399,0.4366517310944321,-0.0518931645271462,-0.8981327102425312,0.0350322235155173,4.0,1.0
24.459291458129883,-19.052331924438477,0.6236491203308105,-0.0,-0.0,-1.0,0.1915929004290801,1.0,1.0
24.022483825683594,-19.34036636352539,0.5894315242767334,-0.9608321301935854,0.2748262253682406,0.0356674002066565,0.1115115574831441,3.0,1.0
22.838071823120117,-18.268386840820312,0.8797773718833923,0.8541471895346257,-0.0964593054858643,-0.5110070263658665,0.2366837826914824,3.0,1.0
22.73637008666992,-18.38417053222656,0.8679227232933044,-0.0,-0.0,-1.0,0.1403166224991442,1.0,1.0
23.469425201416016,-18.006607055664062,0.7546558380126953,-0.0,-0.0,-1.0,0.10526397416643,2.0,1.0
23.255748748779297,-18.104320526123047,0.7408429384231567,0.4884896302213417,-0.2966287683011395,-0.8206029825575613,0.1697226352158146,4.0,1.0
22.83658218383789,-18.45379638671875,1.361830711364746,-0.5669827380052653,-0.8236109790882553,0.0139832016840897,0.1723881051959495,4.0,2.0
22.872142791748047,-17.032196044921875,0.4224284887313843,-0.0,-0.0,-1.0,0.0695660921037368,1.0,1.0
23.28983497619629,-17.141483306884766,0.4039869308471679,-0.0,-0.0,-1.0,0.1344414394089365,1.0,1.0
22.95020866394043,-17.909578323364258,0.5187356472015381,-0.0,-0.0,-1.0,0.0802393982133864,1.0,1.0
23.86003303527832,-17.18777084350586,0.3929953575134277,-0.0,-0.0,-1.0,0.0435422794442134,1.0,1.0
23.626049041748047,-17.19182586669922,0.3936477899551391,-0.0,-0.0,-1.0,0.0392285490162793,1.0,1.0
23.209096908569336,-18.054372787475582,0.4921786785125732,-0.0,-0.0,-1.0,0.1254431127372691,2.0,1.0
24.139183044433594,-17.299251556396484,0.3646289110183716,-0.3984832566155983,-0.8118978997487605,-0.4266531314552599,0.0275803036971786,4.0,1.0
23.702974319458008,-18.009361267089844,0.4958126544952392,-0.0,-0.0,-1.0,0.1565441400555468,1.0,1.0
23.60204315185547,-18.117353439331055,0.4774065017700195,-0.0,-0.0,-1.0,0.1057894714854784,1.0,1.0
24.85722541809082,-17.161827087402344,0.3748308420181274,-0.0,-0.0,-1.0,0.1171017914897508,1.0,1.0
24.54987907409668,-17.36794662475586,0.3397331237792969,-0.0,-0.0,-1.0,0.042950038880688,1.0,1.0
24.01543235778809,-18.12208366394043,0.4697881937026977,-0.0,-0.0,-1.0,0.0763287009564812,1.0,1.0
23.85443687438965,-18.190834045410156,0.4604082107543945,-0.0,-0.0,-1.0,0.0431938112931561,2.0,1.0
25.087055206298828,-17.27071762084961,0.3411895036697387,-0.0,-0.0,-1.0,0.070089768120313,1.0,1.0
24.63896942138672,-18.074480056762695,0.4614996910095215,0.2736993727166576,0.1202368042857859,-0.9542702784167856,0.0307550392032451,3.0,1.0
24.453847885131836,-18.131141662597656,0.4571124315261841,-0.1321553800809321,-0.0255973583894385,-0.9908984462391428,0.0140342511220996,3.0,1.0
24.886993408203125,-18.02507209777832,0.4617737531661987,-0.0,-0.0,-1.0,0.031514169859306,1.0,1.0
22.942657470703125,-17.425241470336914,0.6049705743789673,-0.0,-0.0,-1.0,0.1847296776059883,2.0,1.0
22.9398136138916,-17.631528854370117,0.5682821273803711,-0.0,-0.0,-1.0,0.0444603243000134,1.0,1.0
22.72118377685547,-18.261369705200195,0.7479089498519897,-0.3141282169803653,-0.6066794922133664,-0.7302489007348578,0.180361844577022,3.0,1.0
23.325225830078125,-18.07822608947754,0.7686212062835693,0.4707761650609291,-0.7760379060754117,-0.4196843703840012,0.1570864752560401,8.0,1.0
22.86648178100586,-18.272554397583008,0.7454538345336914,-0.5088694402445338,-0.4370893205986702,0.741623097404475,0.2582554956499798,5.0,1.0
23.617530822753903,-17.91082191467285,0.788381814956665,-0.2325710795286357,0.6977327095995332,-0.6775542479549358,0.1120776557828447,3.0,1.0
24.310789108276367,-17.85223960876465,0.5121468305587769,-0.5261524699450251,-0.6049278458592406,0.5976837622646682,0.1282323278183648,5.0,1.0
24.650480270385746,-17.899351119995117,0.4933782815933227,-0.9947066342503588,0.0122077756213543,0.1020278491035729,0.0485738506788075,3.0,1.0
23.930641174316406,-19.35428810119629,0.5701929330825806,-0.0,-0.0,-1.0,0.1189370274835235,1.0,1.0
24.966632843017575,-17.917694091796875,0.4783526659011841,-0.0,-0.0,-1.0,0.0666974907484121,1.0,1.0
24.725549697875977,-19.31888771057129,0.5510615110397339,-0.0,-0.0,-1.0,0.0506359534601031,2.0,1.0
22.812763214111328,-18.17922019958496,1.0452293157577517,-0.5922132959810104,-0.7504270007782607,-0.2935008152735736,0.1716406949256233,3.0,2.0
22.857620239257812,-18.361814498901367,1.1698006391525269,-0.0,-0.0,-1.0,0.1200008570284443,1.0,2.0
22.972843170166016,-16.902240753173828,0.399404764175415,-0.0,-0.0,-1.0,0.1015391991797701,1.0,1.0
23.355121612548828,-17.16248321533203,0.4555689096450805,0.5098391219503278,-0.1352304834523076,-0.8495744735302339,0.1093555610348898,3.0,1.0
23.063703536987305,-17.30118179321289,0.5318520069122314,-0.4805156085311917,-0.6606749378963795,0.5767264311556335,0.1238995671895858,4.0,1.0
23.893505096435547,-17.095874786376953,0.3581761121749878,-0.0,-0.0,-1.0,0.0281205361319308,1.0,1.0
23.519855499267575,-17.518001556396484,0.4869891405105591,-0.0,-0.0,-1.0,0.0341804609447325,1.0,1.0
23.498924255371097,-17.59820556640625,0.4697296619415283,-0.0,-0.0,-1.0,0.0451701891897801,2.0,1.0
24.47060203552246,-17.165191650390625,0.328596830368042,-0.0,-0.0,-1.0,0.0328580652772581,1.0,1.0
24.226743698120117,-17.183042526245117,0.330798864364624,-0.0,-0.0,-1.0,0.0173414354350679,2.0,1.0
23.913957595825195,-17.724279403686523,0.4382854700088501,-0.0,-0.0,-1.0,0.1419516621113561,2.0,1.0
25.008474349975582,-16.971099853515625,0.3555634021759033,-0.0,-0.0,-1.0,0.0962094809962793,1.0,1.0
24.763256072998047,-17.42084503173828,0.3712481260299682,-0.0,-0.0,-1.0,0.0576138243872636,2.0,1.0
24.496105194091797,-17.74846649169922,0.4193718433380127,-0.0,-0.0,-1.0,0.0440724966481923,2.0,1.0
24.212907791137695,-17.743316650390625,0.4286094903945923,-0.3102920981152811,0.8741488962357628,-0.3736074424539933,0.1014388636607557,3.0,1.0
24.999059677124023,-17.581653594970703,0.4361429214477539,-0.0,-0.0,-1.0,0.074357467244249,1.0,1.0
24.732486724853516,-17.716394424438477,0.4182330369949341,-0.3438688264526209,0.9385053291167428,-0.0310157607285671,0.1157294982994499,3.0,1.0
24.345849990844727,-18.744590759277344,0.4786810874938965,-0.0,-0.0,-1.0,0.0304092962524428,1.0,1.0
23.13176155090332,-17.283960342407227,0.7623467445373535,-0.0,-0.0,-1.0,0.1241989352485529,2.0,1.0
22.813570022583008,-17.513744354248047,0.7189834117889404,-0.0,-0.0,-1.0,0.0394979324395877,1.0,1.0
23.283477783203125,-18.044206619262695,0.8732932806015015,-0.2876695160015395,-0.954518645984736,-0.0783607301580744,0.2144731484002444,8.0,1.0
22.80025863647461,-18.24417495727539,0.7181234359741211,-0.0363101969175306,-0.890350570439785,0.4538253312865641,0.2258955744832119,5.0,1.0
23.325780868530273,-18.186384201049805,0.7229095697402954,-0.0,-0.0,-1.0,0.1936258638868733,1.0,1.0
23.10362434387207,-18.52249526977539,0.5378776788711548,-0.0,-0.0,-1.0,0.0133171299940021,2.0,1.0
23.633968353271484,-18.57339096069336,0.5246894359588623,-0.0,-0.0,-1.0,0.0470841247145658,1.0,1.0
23.36655616760254,-18.612043380737305,0.5204957723617554,-0.0,-0.0,-1.0,0.0327225843817424,1.0,1.0
24.50149154663086,-18.46514320373535,0.5255089998245239,-0.404352134238978,-0.8291262043602707,-0.3860687617245327,0.1040820588348717,4.0,1.0
24.2257080078125,-18.60527801513672,0.5074142217636108,-0.0,-0.0,-1.0,0.0890682991864357,2.0,1.0
23.92987823486328,-18.638370513916016,0.5081048011779785,-0.0,-0.0,-1.0,0.0302042875433355,1.0,1.0
25.02122688293457,-18.29943084716797,0.5365115404129028,-0.0029821909539391,-0.0526487846685007,-0.9986086380609994,0.1434352691885989,4.0,1.0
24.678380966186523,-18.438413619995117,0.524412989616394,-0.6599490888629272,0.1050087319480764,-0.7439357272800179,0.05700608689888,4.0,1.0
24.437599182128903,-18.681854248046875,0.4875435829162597,-0.0,-0.0,-1.0,0.0419168047758797,1.0,1.0
22.82706642150879,-18.176149368286133,1.1107213497161863,-0.3751992375303434,-0.0142269323821992,-0.926835005031446,0.2093227774494072,6.0,2.0
22.864126205444336,-18.366426467895508,1.3477689027786257,0.9108849038925586,-0.1131108374346048,-0.396855931435435,0.1420771777341556,3.0,2.0
22.936185836791992,-17.11831283569336,0.440890908241272,-0.0,-0.0,-1.0,0.1644634931788027,2.0,1.0
23.45673179626465,-17.095943450927734,0.3524590730667114,-0.0,-0.0,-1.0,0.0346146675663131,1.0,1.0
23.21840476989746,-17.199478149414062,0.4221965074539184,-0.7476010402272079,-0.5910125807966797,-0.3029798904073417,0.1556856414005818,4.0,1.0
24.011140823364254,-17.14856719970703,0.3274403810501098,-0.0,-0.0,-1.0,0.0205005852410206,1.0,1.0
23.75876808166504,-17.132410049438477,0.3388397693634033,-0.0,-0.0,-1.0,0.0379312217946463,2.0,1.0
23.601722717285156,-17.521331787109375,0.4350876808166504,-0.0,-0.0,-1.0,0.0233595853882227,1.0,1.0
23.028337478637695,-18.157272338867188,0.5039941072463989,-0.0,-0.0,-1.0,0.091379717334933,1.0,1.0
24.94121360778809,-16.86490821838379,0.3565766811370849,-0.0,-0.0,-1.0,0.0903750963288104,2.0,1.0
24.61845588684082,-17.17034912109375,0.2921077013015747,-0.0,-0.0,-1.0,0.0360193062814055,1.0,1.0
24.32452964782715,-17.20508575439453,0.2984433174133301,-0.0,-0.0,-1.0,0.0372513669771094,1.0,1.0
24.05955696105957,-17.61971092224121,0.3995158672332763,-0.0,-0.0,-1.0,0.0504068817005152,1.0,1.0
23.784021377563477,-17.64427947998047,0.4009139537811279,-0.0,-0.0,-1.0,0.0617001868578443,1.0,1.0
23.477643966674805,-18.230854034423828,0.4860472679138183,-0.0,-0.0,-1.0,0.1358922873622979,1.0,1.0
23.20307731628418,-18.21459197998047,0.4917531013488769,-0.0,-0.0,-1.0,0.127480272222457,1.0,1.0
24.87106132507324,-17.337873458862305,0.3323289155960083,-0.0,-0.0,-1.0,0.0894080962819625,1.0,1.0
24.599042892456055,-17.633251190185547,0.3730925321578979,-0.0,-0.0,-1.0,0.0523177708419034,2.0,1.0
24.33967399597168,-17.658458709716797,0.3796124458312988,-0.0,-0.0,-1.0,0.0520331994717752,1.0,1.0
23.98856544494629,-18.2135009765625,0.4802513122558594,-0.0,-0.0,-1.0,0.0767573370059847,1.0,1.0
23.782678604125977,-18.27826499938965,0.4711858034133911,-0.0,-0.0,-1.0,0.069945413891848,1.0,1.0
25.16558074951172,-17.47947120666504,0.3748419284820556,-0.0,-0.0,-1.0,0.0968270852072089,2.0,1.0
24.89235496520996,-18.0867862701416,0.4706020355224609,-0.0,-0.0,-1.0,0.0473036373680363,1.0,1.0
24.649566650390625,-18.21619033813477,0.4549475908279419,-0.0,-0.0,-1.0,0.0564116425042761,2.0,1.0
24.34657287597656,-18.321537017822266,0.4451488256454468,-0.0,-0.0,-1.0,0.0274763942861812,1.0,1.0
25.10941505432129,-18.01650619506836,0.4728736877441406,-0.0,-0.0,-1.0,0.1064292046375945,2.0,1.0
23.116762161254883,-17.372913360595703,0.6740267276763916,-0.0,-0.0,-1.0,0.1734946746487504,2.0,1.0
22.862733840942383,-17.451536178588867,0.6551046371459961,-0.6174233780725814,-0.2475137471775164,-0.7466761795903136,0.0768350214011579,3.0,1.0
23.261945724487305,-18.087562561035156,0.7412588596343994,0.4884896302213417,-0.2966287683011395,-0.8206029825575613,0.1612432423219245,4.0,1.0
22.82988929748535,-18.15165901184082,0.6196733713150024,-0.1202629748933961,-0.9923112477839052,-0.0292438778437303,0.1303604427435137,3.0,1.0
23.645811080932617,-17.922557830810547,0.7665891647338867,-0.1794227248991504,0.3945760661679737,-0.9011754622697906,0.134208404664635,5.0,1.0
23.315200805664062,-18.106868743896484,0.7373499870300293,-0.3343250175725372,-0.9197086929415412,0.2058220171723241,0.1897696869925519,5.0,1.0
22.800161361694336,-19.040706634521484,0.5705591440200806,-0.0,-0.0,-1.0,0.0270712890881849,1.0,1.0
24.272275924682617,-17.983783721923828,0.5213865041732788,-0.0,-0.0,-1.0,0.0910623642074282,1.0,1.0
24.19805908203125,-18.068124771118164,0.5056906938552856,0.1996857006570243,0.9496836970560696,-0.2413016711484384,0.1252562288035346,4.0,1.0
22.976274490356445,-19.173837661743164,0.5463075637817383,-0.0,-0.0,-1.0,0.0526371969306577,2.0,1.0
24.993179321289062,-17.98155975341797,0.4873822927474975,-0.0,-0.0,-1.0,0.0879823730620792,1.0,1.0
23.778228759765625,-19.2603759765625,0.5212122201919556,-0.0,-0.0,-1.0,0.0765338767300533,1.0,1.0
23.40691375732422,-19.28636932373047,0.5225136280059814,-0.0,-0.0,-1.0,0.0516040936480327,1.0,1.0
24.388687133789062,-19.15622329711914,0.5233980417251587,0.0801079333204899,-0.2313684769552304,-0.9695624512585752,0.1466426195613177,4.0,1.0
24.00874900817871,-19.329030990600582,0.6364630460739136,-0.7545678855937095,0.1781239096359037,-0.6315846569120084,0.123700886653009,3.0,1.0
24.868133544921875,-19.280689239501953,0.482177734375,-0.0,-0.0,-1.0,0.0429654655677696,2.0,1.0
24.655010223388672,-19.237424850463867,0.4988166093826294,-0.0,-0.0,-1.0,0.0693354709942821,1.0,1.0
25.1319637298584,-19.29594612121582,0.4669115543365478,-0.0,-0.0,-1.0,0.0348990066050758,1.0,1.0
22.834569931030273,-18.2011661529541,1.057340383529663,-0.6170510818648325,-0.7480091906497751,-0.2443976535748818,0.2393551268959529,3.0,2.0
22.72024917602539,-18.319665908813477,0.9298334121704102,-0.0,-0.0,-1.0,0.1566573085244818,1.0,1.0
22.827701568603516,-18.45381736755371,1.372409105300903,-0.5669827380052653,-0.8236109790882553,0.0139832016840897,0.1723881051959495,4.0,2.0
22.863603591918945,-17.361343383789062,0.5220746994018555,-0.0,-0.0,-1.0,0.1421611225389406,1.0,1.0
23.16975212097168,-17.359325408935547,0.5051865577697754,-0.0,-0.0,-1.0,0.1830236818823717,1.0,1.0
23.70619773864746,-17.5231990814209,0.4135407209396362,-0.0,-0.0,-1.0,0.019620239701255,2.0,1.0
23.55588150024414,-17.464916229248047,0.4445799589157104,-0.0,-0.0,-1.0,0.0180005287612376,1.0,1.0
23.243568420410156,-18.074790954589844,0.4820846319198608,-0.0,-0.0,-1.0,0.1515150478246096,2.0,1.0
23.016387939453125,-18.080060958862305,0.4945036172866821,-0.0,-0.0,-1.0,0.1118943423925495,1.0,1.0
24.76679801940918,-16.97003173828125,0.4384222030639648,-0.0,-0.0,-1.0,0.1577206600604255,1.0,1.0
24.30482292175293,-17.472393035888672,0.3615472316741943,-0.0,-0.0,-1.0,0.0420851037349916,1.0,1.0
24.00197982788086,-17.4949893951416,0.3910253047943115,-0.0,-0.0,-1.0,0.0445525928489216,1.0,1.0
23.81080436706543,-18.025447845458984,0.450693130493164,-0.0,-0.0,-1.0,0.1194119200045355,1.0,1.0
23.49208068847656,-18.062482833862305,0.4676158428192138,-0.0,-0.0,-1.0,0.130373644940842,1.0,1.0
25.155885696411133,-17.039989471435547,0.3525046110153198,-0.0,-0.0,-1.0,0.1145307291936331,1.0,1.0
24.915019989013672,-17.255380630493164,0.3341922760009765,-0.0,-0.0,-1.0,0.0638413311849205,1.0,1.0
24.5913143157959,-17.431533813476562,0.33401620388031,-0.0,-0.0,-1.0,0.0532819999887974,1.0,1.0
24.535213470458984,-17.85045623779297,0.4181373119354248,-0.4740530675809697,0.052972377398704,-0.8789013689543336,0.0614740694726941,3.0,1.0
24.055334091186523,-17.959117889404297,0.444442868232727,-0.0,-0.0,-1.0,0.0941574141232054,2.0,1.0
24.704410552978516,-17.780704498291016,0.4141103029251098,-0.0,-0.0,-1.0,0.0965273154915578,2.0,1.0
24.63124656677246,-17.820598602294922,0.4136899709701538,-0.4576975833470804,0.6902357146634918,-0.5604351705605398,0.046360326027655,3.0,1.0
22.914203643798828,-17.289871215820312,0.5411092042922974,0.023974282630188,-0.9606674040682388,-0.2766647294708147,0.1877168687208759,4.0,1.0
23.106914520263672,-17.327129364013672,0.6870278120040894,-0.0638973817081898,0.2598653946679239,-0.963528464169545,0.1176577774996135,3.0,1.0
22.87985038757324,-17.53773307800293,0.6439433097839355,-0.9659623918708624,-0.1680364792540916,0.1966733310111239,0.0620868687357216,4.0,1.0
22.75982666015625,-17.954830169677734,0.6332046985626221,-0.0,-0.0,-1.0,0.0904559692551048,1.0,1.0
23.295013427734375,-18.094493865966797,0.7620741128921509,-0.0286961337628885,0.7814688708704464,-0.6232839928696482,0.1883408677587767,7.0,1.0
22.806652069091797,-18.296218872070312,0.7476649284362793,-0.321077531944764,-0.8853393794725981,0.3362787558489732,0.1540543982763034,4.0,1.0
23.771221160888672,-17.969566345214844,0.5642697811126709,-0.0,-0.0,-1.0,0.1259623679893503,1.0,1.0
23.548431396484375,-17.980777740478516,0.4847654104232788,-0.0,-0.0,-1.0,0.1464094430494427,1.0,1.0
23.290678024291992,-18.68589782714844,0.5339534282684326,-0.0,-0.0,-1.0,0.0188440538435377,1.0,1.0
23.04817771911621,-18.74527359008789,0.5350065231323242,-0.0,-0.0,-1.0,0.0281182593515113,2.0,1.0
24.255435943603516,-17.816539764404297,0.4595406055450439,-0.0,-0.0,-1.0,0.1377900430011107,1.0,1.0
24.08216667175293,-18.13362693786621,0.5001693964004517,-0.0,-0.0,-1.0,0.0918147987072195,2.0,1.0
23.889097213745117,-18.59673309326172,0.5093079805374146,-0.0,-0.0,-1.0,0.0450399821861275,1.0,1.0
23.540203094482425,-18.686290740966797,0.5166522264480591,-0.0,-0.0,-1.0,0.0314657750110498,1.0,1.0
25.19432830810547,-17.61988067626953,0.4827897548675537,-0.9555501438977714,0.2943532900081162,-0.0167350876408268,0.1167280084421622,4.0,1.0
24.996910095214844,-17.714235305786133,0.4888550043106079,-0.0,-0.0,-1.0,0.0623082293087842,1.0,1.0
24.7164363861084,-18.301982879638672,0.4924603700637817,-0.0,-0.0,-1.0,0.0645562795484642,2.0,1.0
24.42263412475586,-18.49325942993164,0.4822036027908325,-0.0,-0.0,-1.0,0.073993215228117,1.0,1.0
24.126001358032227,-18.54773712158203,0.4992421865463257,-0.0,-0.0,-1.0,0.1149275915611725,1.0,1.0
25.190937042236328,-17.977275848388672,0.6043360233306885,-0.0,-0.0,-1.0,0.0945227938471015,2.0,1.0
24.883167266845703,-18.20515251159668,0.4938516616821289,-0.0,-0.0,-1.0,0.0818713041316476,1.0,1.0
24.651845932006836,-18.436424255371097,0.4704420566558838,-0.5932872768424796,0.8033470419714823,0.0514172859309368,0.0596634942578308,3.0,1.0
24.489831924438477,-19.216888427734375,0.553604006767273,-0.0,-0.0,-1.0,0.1294498262113563,1.0,1.0
24.717124938964844,-19.30405044555664,0.5161479711532593,-0.0,-0.0,-1.0,0.0694717834919359,2.0,1.0
25.027626037597656,-19.345243453979492,0.4778492450714111,-0.0,-0.0,-1.0,0.0422931750118954,2.0,1.0
22.771976470947266,-18.169464111328125,1.1564339399337769,-0.8771378393470067,0.0171903065772966,-0.4799309368497129,0.1617907832016745,3.0,2.0
22.933612823486328,-18.26573181152344,1.0393803119659424,-0.0,-0.0,-1.0,0.2083770984223952,1.0,2.0
22.751981735229492,-18.37013816833496,1.1306655406951904,-0.0,-0.0,-1.0,0.1105416050382838,1.0,2.0
22.830764770507812,-19.34166145324707,0.5686385631561279,-0.0,-0.0,-1.0,0.0450016765225058,2.0,1.0
23.28287124633789,-19.347415924072266,0.5317126512527466,-0.0,-0.0,-1.0,0.0498172954577155,1.0,1.0
23.8781795501709,-19.19818115234375,0.5096554756164551,-0.0,-0.0,-1.0,0.0726681300079122,1.0,1.0
23.6418399810791,-19.28162384033203,0.5142974853515625,-0.0,-0.0,-1.0,0.0711215942106742,2.0,1.0
24.463823318481445,-19.075897216796875,0.4637525081634521,-0.0,-0.0,-1.0,0.1291810806288102,2.0,1.0
24.100799560546875,-19.284229278564453,0.5652211904525757,0.1442738403988555,-0.1110924542490951,-0.9832820173203,0.1586138356212715,3.0,1.0
25.20134735107422,-18.5700626373291,0.4672541618347168,-0.0,-0.0,-1.0,0.0377996741160488,2.0,1.0
24.892925262451172,-18.772459030151367,0.472690224647522,-0.0,-0.0,-1.0,0.044515090745996,1.0,1.0
24.674352645874023,-18.978824615478516,0.456749677658081,-0.0,-0.0,-1.0,0.0717441500515835,1.0,1.0
22.774147033691406,-18.153413772583008,1.0571651458740234,-0.510591847537605,-0.4160026168425788,-0.7524877327958651,0.1524920449076531,3.0,2.0
23.022977828979492,-18.20179748535156,0.9488792419433594,-0.0,-0.0,-1.0,0.1440205750646307,1.0,1.0
22.783052444458008,-18.341785430908203,1.0126711130142212,0.7364973596690161,0.0980150707659034,-0.6693016398480751,0.1087419178802857,3.0,2.0
23.32604217529297,-18.108074188232425,0.86662757396698,-0.2424759568825151,-0.1897585036405481,-0.9514184781840264,0.180748899191325,3.0,1.0
24.31165313720703,-17.901681900024414,0.8715183734893799,-0.0,-0.0,-1.0,0.1043068660713674,1.0,1.0
22.806930541992188,-18.419490814208984,1.3211970329284668,-0.0,-0.0,-1.0,0.1505987093714507,2.0,2.0
24.046554565429688,-19.355016708374023,0.6949565410614014,-0.0,-0.0,-1.0,0.0988676192164637,2.0,1.0
22.83829689025879,-18.243152618408203,1.2295241355895996,-0.0,-0.0,-1.0,0.1247493366477541,2.0,2.0
24.01885414123535,-19.325054168701172,0.8902697563171387,-0.0,-0.0,-1.0,0.1312361443047323,2.0,1.0
22.77229118347168,-18.393308639526367,1.350568413734436,0.4131556168375421,-0.2701478564288621,-0.8696680814784921,0.1723881051959495,3.0,2.0
22.923439025878903,-17.998777389526367,0.6763361692428589,-0.0,-0.0,-1.0,0.2219413831802077,1.0,1.0
23.67086410522461,-18.565528869628903,0.4775002002716064,-0.0,-0.0,-1.0,0.0465144135262401,1.0,1.0
23.680580139160156,-18.83639907836914,0.4871597290039062,-0.0,-0.0,-1.0,0.0436778897041511,1.0,1.0
24.065486907958984,-19.172115325927734,0.5796594619750977,-0.0,-0.0,-1.0,0.1171423328223174,2.0,1.0
23.615489959716797,-17.953521728515625,0.4416210651397705,-0.0,-0.0,-1.0,0.120743357951338,1.0,1.0
23.739498138427734,-18.334285736083984,0.4846525192260742,-0.0,-0.0,-1.0,0.0819494042504167,2.0,1.0
24.512033462524418,-19.342947006225582,0.5194253921508789,-0.0,-0.0,-1.0,0.1032165718981446,2.0,1.0
24.809547424316406,-18.75908660888672,0.4161050319671631,-0.0,-0.0,-1.0,0.0328311305468969,1.0,1.0
24.865570068359375,-19.05457878112793,0.4378361701965332,-0.0,-0.0,-1.0,0.032404895010363,1.0,1.0
24.917430877685547,-18.478626251220703,0.434037446975708,-0.0,-0.0,-1.0,0.0544632679371095,1.0,1.0
24.947948455810547,-18.85321998596191,0.4545485973358154,-0.0,-0.0,-1.0,0.0249981384886214,1.0,1.0
25.09776496887207,-18.10371780395508,0.4637331962585449,-0.0,-0.0,-1.0,0.1057791241276768,1.0,1.0
24.999290466308594,-18.238584518432617,0.4451074600219726,-0.0,-0.0,-1.0,0.1204209212049036,1.0,1.0
22.882871627807617,-18.076875686645508,1.052926540374756,-0.0,-0.0,-1.0,0.1962495786232931,2.0,2.0
23.026920318603516,-17.93307113647461,1.0693179368972778,-0.0,-0.0,-1.0,0.1037157395993691,1.0,2.0
24.05136489868164,-19.132429122924805,0.9172959327697754,-0.0,-0.0,-1.0,0.166975421752219,1.0,1.0
23.468753814697266,-17.79490852355957,0.768210768699646,-0.0,-0.0,-1.0,0.1377755839105617,1.0,1.0
24.437828063964844,-19.30182456970215,0.9915943145751952,-0.0,-0.0,-1.0,0.0848523107953685,1.0,1.0
23.79465103149414,-17.58951187133789,0.4073739051818847,-0.0,-0.0,-1.0,0.0643663157387505,1.0,1.0
23.847854614257812,-17.289716720581055,0.3924245834350586,-0.0,-0.0,-1.0,0.0635962165879465,1.0,1.0
23.8338565826416,-17.488033294677734,0.406787633895874,-0.0,-0.0,-1.0,0.0569902230150035,2.0,1.0
25.196199417114254,-17.223255157470703,0.3095979690551758,-0.0,-0.0,-1.0,0.1020849570143179,1.0,1.0
22.770597457885746,-17.741455078125,0.62929368019104,-0.0,-0.0,-1.0,0.0333781288122714,1.0,1.0
22.897554397583008,-17.364154815673828,0.624439001083374,-0.651585252129983,-0.6215015780248921,0.4349395908850735,0.2340259901571484,3.0,1.0
22.954965591430664,-17.460655212402344,0.6407680511474609,-0.0,-0.0,-1.0,0.0783455661357775,2.0,1.0
23.337364196777344,-18.05754852294922,0.7438580989837646,0.575937079239451,-0.7806538757755163,-0.2426437862253942,0.1667437000699737,7.0,1.0
23.877178192138672,-18.658384323120117,0.4993999004364013,-0.0,-0.0,-1.0,0.0412404763788705,1.0,1.0
23.83495330810547,-18.971853256225582,0.5081229209899902,-0.0,-0.0,-1.0,0.0841526518699075,1.0,1.0
23.666004180908203,-17.881725311279297,0.78714919090271,-0.1909876141451034,0.6232571757500318,-0.758336484760726,0.1342084046646351,6.0,1.0
23.885501861572266,-18.03068733215332,0.4595913887023926,-0.0,-0.0,-1.0,0.0977590331606097,2.0,1.0
23.95159912109375,-18.436203002929688,0.5006263256072998,-0.0,-0.0,-1.0,0.0549030070256376,1.0,1.0
24.05482482910156,-17.76552963256836,0.4734809398651123,-0.0,-0.0,-1.0,0.1516856210672703,1.0,1.0
24.211978912353516,-17.977630615234375,0.5211737155914307,-0.0,-0.0,-1.0,0.1002995493915759,1.0,1.0
25.04559898376465,-19.32052230834961,0.4449403285980224,-0.0,-0.0,-1.0,0.0403156488383029,2.0,1.0
25.13189697265625,-19.159936904907227,0.4570717811584472,-0.0,-0.0,-1.0,0.0319381164700655,2.0,1.0
22.81555557250977,-18.312503814697266,1.076419711112976,0.0575886066355854,-0.983264452561104,0.1728426125568707,0.1710920333910271,4.0,2.0
22.973339080810547,-18.26238441467285,1.0947730541229248,-0.0,-0.0,-1.0,0.1518062251896123,2.0,2.0
24.04199981689453,-19.33737564086914,0.9290884733200072,-0.0,-0.0,-1.0,0.1312361443047322,2.0,1.0
24.348236083984375,-17.879810333251953,0.8998590707778931,-0.0,-0.0,-1.0,0.0904117947557767,1.0,1.0
24.30205535888672,-17.15428924560547,0.3173420429229736,-0.0,-0.0,-1.0,0.0276294330224688,1.0,1.0
24.82434463500977,-16.883832931518555,0.396740198135376,-0.0,-0.0,-1.0,0.0790020849949697,2.0,1.0
22.869384765625,-18.635454177856445,0.5525989532470703,-0.0,-0.0,-1.0,0.0179850740024134,1.0,1.0
22.87090492248535,-19.047178268432617,0.5729148387908936,-0.0,-0.0,-1.0,0.0336599436558461,1.0,1.0
22.749282836914062,-16.936050415039062,0.4269437789916992,-0.0,-0.0,-1.0,0.1282874960988198,2.0,1.0
23.104738235473633,-17.539915084838867,0.5292587280273438,-0.0,-0.0,-1.0,0.0726367105584613,1.0,1.0
22.988506317138672,-17.796268463134766,0.5255832672119141,-0.0,-0.0,-1.0,0.0411449653234455,1.0,1.0
22.95400619506836,-18.21697235107422,0.5447521209716797,-0.0,-0.0,-1.0,0.1101470909315774,1.0,1.0
23.27132797241211,-17.40008544921875,0.5483436584472656,0.3829565450463546,-0.3748857960533484,-0.8442777531852933,0.1876287372080463,3.0,1.0
23.607702255249023,-17.878293991088867,0.6377072334289551,-0.0,-0.0,-1.0,0.0751724074434237,2.0,1.0
24.41584014892578,-18.84575843811035,0.4689013957977295,-0.0,-0.0,-1.0,0.0657902686540048,2.0,1.0
24.494705200195312,-19.2383975982666,0.5081672668457031,-0.0,-0.0,-1.0,0.0998550209221559,2.0,1.0
24.617881774902344,-18.060813903808594,0.4571733474731445,0.2736993727166576,0.1202368042857859,-0.9542702784167856,0.0288156236733097,3.0,1.0
24.81781959533691,-18.39031219482422,0.5228321552276611,-0.0,-0.0,-1.0,0.0731694900349631,1.0,1.0
24.67475128173828,-18.628589630126953,0.5094845294952393,-0.0,-0.0,-1.0,0.0542925997828246,1.0,1.0
24.97747230529785,-16.89290428161621,0.4280133247375488,-0.0,-0.0,-1.0,0.0948577497055329,2.0,1.0
22.77569580078125,-18.327333450317383,0.9425270557403564,-0.0,-0.0,-1.0,0.1992824313375099,2.0,1.0
22.97907066345215,-18.360816955566406,0.972540020942688,-0.0,-0.0,-1.0,0.1379579676882465,1.0,1.0
22.887680053710938,-18.49683380126953,1.3790829181671145,-0.0,-0.0,-1.0,0.1730672738597643,2.0,2.0
24.414291381835938,-16.924518585205078,0.294182538986206,-0.0,-0.0,-1.0,0.034965380274199,1.0,1.0
24.393653869628903,-17.087928771972656,0.3069288730621338,-0.0,-0.0,-1.0,0.0292057399121345,1.0,1.0
24.511566162109375,-17.24068832397461,0.3454172611236572,-0.0,-0.0,-1.0,0.0861270190459848,1.0,1.0
24.947799682617188,-17.093738555908203,0.4158313274383545,-0.0,-0.0,-1.0,0.1134513168174249,1.0,1.0
22.77650451660156,-18.8543643951416,0.5515341758728027,-0.0,-0.0,-1.0,0.028331999296845,2.0,1.0
23.08853530883789,-17.61109733581543,0.5236124992370605,-0.0,-0.0,-1.0,0.0464722201752193,2.0,1.0
22.976825714111328,-17.971731185913086,0.5303401947021484,-0.0,-0.0,-1.0,0.1086803406464095,2.0,1.0
22.923046112060547,-18.382144927978516,0.5482642650604248,-0.0,-0.0,-1.0,0.1102972902345235,1.0,1.0
22.817310333251953,-18.7276554107666,0.5511927604675293,-0.0,-0.0,-1.0,0.0193882356107023,1.0,1.0
22.87484359741211,-19.12186622619629,0.583258867263794,0.3907607454852295,0.7005440350774269,-0.5971131339246059,0.0411307240667727,3.0,1.0
23.334871292114254,-17.31999397277832,0.5428271293640137,-0.0,-0.0,-1.0,0.1171100626339864,2.0,1.0
23.37093734741211,-17.484039306640625,0.5614957809448242,-0.0,-0.0,-1.0,0.0687157494005983,2.0,1.0
23.74209976196289,-17.905261993408203,0.6551291942596436,-0.6002891622308604,0.0527696339213553,-0.7980402793368128,0.1406826119324072,3.0,1.0
24.688861846923828,-18.051210403442383,0.4565904140472412,-0.0,-0.0,-1.0,0.0338464759559913,1.0,1.0
24.746257781982425,-18.541887283325195,0.5090985298156738,-0.0,-0.0,-1.0,0.0583829544730378,1.0,1.0
24.446334838867188,-18.813331604003903,0.4680593013763428,-0.0,-0.0,-1.0,0.0711772460223742,2.0,1.0
24.508296966552734,-19.26510429382324,0.511988639831543,-0.0,-0.0,-1.0,0.1192256786103926,2.0,1.0
24.980335235595703,-18.15435791015625,0.5243630409240723,-0.0,-0.0,-1.0,0.101859302719759,1.0,1.0
24.940814971923828,-18.349618911743164,0.5330936908721924,-0.0,-0.0,-1.0,0.1254315166209136,2.0,1.0
22.876239776611328,-18.33809280395508,0.959980010986328,-0.0,-0.0,-1.0,0.1371864907482245,1.0,1.0
22.909759521484375,-18.4627628326416,1.3871545791625977,-0.0,-0.0,-1.0,0.1730672738597642,2.0,2.0
23.34135055541992,-17.1313533782959,0.4423496723175049,-0.0,-0.0,-1.0,0.0993956888148564,2.0,1.0
23.496139526367188,-17.39690589904785,0.4919517040252685,-0.0,-0.0,-1.0,0.075512893358114,2.0,1.0
23.35294532775879,-17.680635452270508,0.4921615123748779,0.9959079060635776,-0.0687041697146949,0.0587126877589042,0.0414680817567022,3.0,1.0
23.2919921875,-18.108043670654297,0.5165235996246338,-0.0,-0.0,-1.0,0.19199606369701,1.0,1.0
23.2657527923584,-18.52635955810547,0.5437712669372559,-0.0,-0.0,-1.0,0.0300841445378934,1.0,1.0
23.167102813720703,-18.9025821685791,0.5531797409057617,-0.0,-0.0,-1.0,0.0322301646893789,1.0,1.0
23.095458984375,-19.327560424804688,0.5682487487792969,-0.0,-0.0,-1.0,0.0612967594251723,1.0,1.0
24.990314483642575,-18.639986038208008,0.4973998069763183,-0.0,-0.0,-1.0,0.0301417699536986,1.0,1.0
24.850048065185547,-18.94778060913086,0.4956636428833008,-0.0,-0.0,-1.0,0.0457571236350276,2.0,1.0
24.767040252685547,-19.315446853637695,0.5084095001220703,-0.0,-0.0,-1.0,0.0603535800008,2.0,1.0
22.75322914123535,-18.152870178222656,0.8570096492767334,0.0996997887998918,0.2670218853731578,-0.9585193085405328,0.2131735812869852,3.0,1.0
22.86660385131836,-18.330989837646484,0.8840880393981934,-0.0,-0.0,-1.0,0.1907754200380212,2.0,1.0
22.883882522583008,-18.400381088256836,1.308953881263733,-0.0,-0.0,-1.0,0.1730672738597643,2.0,2.0
24.189876556396484,-16.948471069335938,0.2939918041229248,-0.0,-0.0,-1.0,0.029358867687136,1.0,1.0
24.485626220703125,-17.87311553955078,0.4618086814880371,-0.6819770020226281,-0.4573206753040191,-0.5707584153139611,0.0423648073901593,4.0,1.0
24.315271377563477,-18.175111770629883,0.4667108058929443,-0.0,-0.0,-1.0,0.0670411547065265,2.0,1.0
24.28900909423828,-18.282703399658203,0.4741742610931396,-0.0,-0.0,-1.0,0.0529765413227991,1.0,1.0
24.97253799438477,-17.135169982910156,0.4523286819458008,-0.0,-0.0,-1.0,0.1548845808235995,1.0,1.0
24.459924697875977,-18.020069122314453,0.4746513366699219,-0.0,-0.0,-1.0,0.0468149966905672,2.0,1.0
24.268266677856445,-18.52927589416504,0.4974477291107178,-0.0,-0.0,-1.0,0.0379129685625356,2.0,1.0
24.100852966308594,-18.81955337524414,0.4972689151763916,-0.0,-0.0,-1.0,0.0252665238327372,1.0,1.0
24.024147033691406,-19.07177734375,0.5083727836608887,-0.0,-0.0,-1.0,0.0829493077295559,1.0,1.0
22.833206176757812,-17.19830894470215,0.5291190147399902,-0.0,-0.0,-1.0,0.2239170874313989,1.0,1.0
23.06585693359375,-17.509445190429688,0.594757080078125,-0.0,-0.0,-1.0,0.0532591795713524,1.0,1.0
22.844707489013672,-17.730133056640625,0.5841531753540039,-0.0,-0.0,-1.0,0.0384793246076544,1.0,1.0
22.81208610534668,-18.14948272705078,0.6190412044525146,-0.4046293131658985,-0.9134634408794632,0.0431237881400077,0.1383476276760013,4.0,1.0
23.38899040222168,-18.14303207397461,0.7045042514801025,-0.0,-0.0,-1.0,0.1830561735551125,2.0,1.0
23.70362091064453,-17.895427703857422,0.7268218994140625,0.3028698742996996,-0.9442421822559158,-0.1291376803658381,0.2003955466692273,3.0,1.0
24.717273712158203,-17.903629302978516,0.5064735412597656,-0.0,-0.0,-1.0,0.0812842551764568,1.0,1.0
24.547748565673828,-18.53949928283691,0.5495305061340332,-0.0,-0.0,-1.0,0.0773049215089763,1.0,1.0
24.129817962646484,-19.329978942871097,0.7374744415283203,-0.0,-0.0,-1.0,0.07617059296157,1.0,1.0
22.897804260253903,-18.306554794311523,1.064655303955078,-0.0,-0.0,-1.0,0.1882090313585712,1.0,2.0
23.14441299438477,-16.984037399291992,0.4134223461151123,-0.0,-0.0,-1.0,0.078105253506745,1.0,1.0
23.380287170410156,-17.1552734375,0.4695234298706054,-0.0,-0.0,-1.0,0.0757405214282647,2.0,1.0
23.44409942626953,-17.231948852539062,0.4880597591400146,-0.613910203982316,-0.7150940602523895,0.3342973922096057,0.0858679198101555,3.0,1.0
23.41632652282715,-17.453861236572266,0.50777268409729,-0.0,-0.0,-1.0,0.0377734795369396,1.0,1.0
23.137657165527344,-17.795530319213867,0.4986228942871094,-0.0,-0.0,-1.0,0.0758632803217053,1.0,1.0
23.10012435913086,-18.132469177246097,0.5256607532501221,-0.0,-0.0,-1.0,0.0926332522840739,1.0,1.0
23.792156219482425,-17.884891510009766,0.6135098934173584,0.4138169871891776,-0.6850311603760728,-0.5995730234320774,0.1507085727548161,4.0,1.0
23.073841094970703,-18.3616886138916,0.54292893409729,-0.0,-0.0,-1.0,0.0756335137477486,1.0,1.0
22.970909118652344,-18.66978645324707,0.5533196926116943,-0.0,-0.0,-1.0,0.020412589260411,1.0,1.0
22.89099884033203,-18.91296768188477,0.5606720447540283,-0.0,-0.0,-1.0,0.0251848424441121,1.0,1.0
22.928388595581055,-19.27489471435547,0.5960001945495605,-0.0,-0.0,-1.0,0.0467336479318335,2.0,1.0
25.083850860595703,-18.320098876953125,0.5188798904418945,-0.0,-0.0,-1.0,0.1163730069774196,2.0,1.0
24.78325653076172,-18.592065811157227,0.4931378364562988,-0.0,-0.0,-1.0,0.0394483240160643,2.0,1.0
24.500761032104492,-18.8383846282959,0.4649844169616699,-0.0,-0.0,-1.0,0.0799889765376187,2.0,1.0
24.648387908935547,-19.15097999572754,0.5274713039398193,0.2253819555937297,-0.2571807894939519,-0.9397132624412692,0.0951083613347377,6.0,1.0
22.943668365478516,-18.23977279663086,0.9236891269683838,-0.0,-0.0,-1.0,0.2171326709840411,2.0,1.0
22.7969970703125,-18.288795471191406,0.9081443548202516,-0.0,-0.0,-1.0,0.2271520786851767,2.0,1.0
24.17974853515625,-18.580833435058594,0.7461116313934326,-0.0,-0.0,-1.0,0.0836008665438656,1.0,1.0
22.935470581054688,-18.41679000854492,1.343636393547058,-0.0,-0.0,-1.0,0.1293851388300103,1.0,2.0
24.165328979492188,-17.38100814819336,0.3949031829833984,-0.0,-0.0,-1.0,0.037963533572211,1.0,1.0
24.137298583984375,-17.49283790588379,0.4040987491607666,-0.0,-0.0,-1.0,0.0394083271245571,2.0,1.0
23.048812866210938,-17.195188522338867,0.5942976474761963,-0.0,-0.0,-1.0,0.1882055198643915,1.0,1.0
22.84852600097656,-17.244802474975586,0.5695366859436035,-0.0973380721155249,-0.526462943069505,-0.8446076422170404,0.1672219578076028,3.0,1.0
22.95688247680664,-17.572603225708008,0.6177892684936523,-0.0,-0.0,-1.0,0.0536869622893841,1.0,1.0
22.77208709716797,-17.864337921142578,0.6168713569641113,-0.0,-0.0,-1.0,0.0827441507461814,1.0,1.0
23.346969604492188,-18.063791275024418,0.7233960628509521,0.915392285170563,0.0213281417052118,0.401997605243634,0.2198230026875741,8.0,1.0
22.84435272216797,-18.22681427001953,0.6602866649627686,-0.8197378158409726,-0.5609647526359183,0.115535533843036,0.1771312654500507,3.0,1.0
24.416690826416016,-17.74564552307129,0.4849092960357666,-0.0,-0.0,-1.0,0.1092915945852865,1.0,1.0
24.194711685180664,-17.98270606994629,0.4738373756408691,-0.0,-0.0,-1.0,0.142255901971094,1.0,1.0
23.93301010131836,-17.957536697387695,0.6152880191802979,-0.0,-0.0,-1.0,0.1353710620203285,1.0,1.0
24.3669490814209,-17.95861053466797,0.501828670501709,-0.0,-0.0,-1.0,0.0596969122746802,1.0,1.0
24.08824157714844,-18.340030670166016,0.4949390888214111,-0.0,-0.0,-1.0,0.0725397982620421,1.0,1.0
23.953834533691406,-18.57095718383789,0.4949700832366943,-0.0,-0.0,-1.0,0.0337303606101425,1.0,1.0
24.242509841918945,-18.481666564941406,0.5391616821289062,-0.0,-0.0,-1.0,0.1119307347512029,1.0,1.0
23.904850006103516,-18.78560256958008,0.5076758861541748,-0.0,-0.0,-1.0,0.0371324105875547,1.0,1.0
23.80876922607422,-19.04179573059082,0.5144336223602295,-0.0,-0.0,-1.0,0.0792007911872842,2.0,1.0
24.535324096679688,-19.210187911987305,0.6695249080657959,-0.0,-0.0,-1.0,0.2100728241725334,1.0,1.0
25.153369903564453,-19.18883895874023,0.4604730606079101,-0.0,-0.0,-1.0,0.0319381164700655,2.0,1.0
22.987932205200195,-18.262340545654297,1.084807276725769,-0.0,-0.0,-1.0,0.1454473469394555,2.0,2.0
24.117765426635746,-19.34626007080078,0.9530253410339355,-0.0,-0.0,-1.0,0.1024719199245783,1.0,1.0
