x,y,z,nx,ny,nz,curvature,density,label
34.86800003051758,-24.493772506713867,0.6161763072013855,-0.0,-0.0,-1.0,0.0477736010712815,1.0,1.0
35.16653823852539,-24.402021408081055,0.6193143725395203,-0.0,-0.0,-1.0,0.1134899629130747,1.0,1.0
32.759063720703125,-24.868162155151367,0.8968558311462402,0.0048100314781186,0.2297564542098954,-0.973236269025192,0.1630149443713605,4.0,1.0
32.77959442138672,-25.888547897338867,0.8747292160987854,0.8256447721971678,-0.5066237708822885,-0.248280214516779,0.1765058269148073,3.0,1.0
33.171409606933594,-24.36334228515625,0.8882799744606018,-0.0,-0.0,-1.0,0.1662412865474121,1.0,1.0
33.802513122558594,-25.692251205444336,0.8312753438949585,-0.0,-0.0,-1.0,0.1083675122203311,1.0,1.0
34.07990646362305,-25.830495834350582,0.8154102563858032,-0.0,-0.0,-1.0,0.1781530561932032,2.0,1.0
35.17786407470703,-24.478370666503903,0.7918839454650879,-0.0,-0.0,-1.0,0.0960724650451054,2.0,1.0
34.9291877746582,-24.758649826049805,0.7977991104125977,-0.0,-0.0,-1.0,0.0849586280877588,1.0,1.0
32.733463287353516,-25.884260177612305,0.9252979159355164,-0.0,-0.0,-1.0,0.1709496315279508,1.0,1.0
33.08177185058594,-24.414461135864254,0.9347465634346008,-0.0,-0.0,-1.0,0.1727948728502312,1.0,1.0
33.17208480834961,-24.543521881103516,0.9273817539215088,-0.7779764623557678,0.4715176566060061,0.4152393569125948,0.1779218290972526,3.0,1.0
33.46961975097656,-25.584182739257812,0.8912122249603271,-0.0,-0.0,-1.0,0.1788264578103004,1.0,1.0
35.195587158203125,-24.52779197692871,0.8171027898788452,-0.2519432268342278,-0.1219502855200007,-0.9600274674788982,0.1194195330345295,3.0,1.0
33.106842041015625,-24.46123695373535,0.932953953742981,-0.6477113418859471,-0.6656157855289341,-0.3707096487104235,0.1715417245503958,3.0,1.0
33.02627944946289,-25.61928939819336,0.9144690036773682,-0.0,-0.0,-1.0,0.0936762374822366,1.0,1.0
33.567665100097656,-25.701749801635746,0.8868146538734436,-0.0,-0.0,-1.0,0.2055732900583937,1.0,1.0
33.54537582397461,-26.647899627685547,0.8695802688598633,-0.0,-0.0,-1.0,0.1563794764729128,1.0,1.0
34.988162994384766,-24.713716506958008,0.8368721008300781,-0.0,-0.0,-1.0,0.1150434214962118,1.0,1.0
32.98670196533203,-24.5029239654541,0.76621413230896,-0.0,-0.0,-1.0,0.1698613123868397,1.0,1.0
33.63616180419922,-25.665416717529297,0.7126112580299377,-0.0,-0.0,-1.0,0.1603340328756176,1.0,1.0
33.79119873046875,-25.6879825592041,0.7059659957885742,-0.0,-0.0,-1.0,0.089458738462787,2.0,1.0
34.03266906738281,-25.857481002807617,0.6923145055770874,-0.0,-0.0,-1.0,0.1801345384271345,1.0,1.0
34.30310821533203,-25.058088302612305,0.7011114358901978,-0.0,-0.0,-1.0,0.1754488216895003,2.0,1.0
34.588199615478516,-24.873212814331055,0.6943110823631287,-0.0,-0.0,-1.0,0.1044235077876623,2.0,1.0
35.04320526123047,-24.51826286315918,0.684842586517334,-0.0,-0.0,-1.0,0.125164400789475,2.0,1.0
34.9596061706543,-24.64734268188477,0.6850248575210571,-0.0,-0.0,-1.0,0.0663289556981258,2.0,1.0
33.07786560058594,-24.4560546875,1.0699729919433594,-0.0,-0.0,-1.0,0.1545505905145561,2.0,2.0
33.45196533203125,-26.49932098388672,1.0127291679382324,-0.0,-0.0,-1.0,0.1321686570090968,1.0,2.0
33.552249908447266,-25.53583717346191,1.0272061824798584,-0.0,-0.0,-1.0,0.1009265574652981,2.0,2.0
33.14349365234375,-24.444604873657227,1.1534442901611328,-0.6302880722921138,-0.582304933708385,-0.5134762994580803,0.1025115598719473,3.0,2.0
33.674198150634766,-26.651294708251953,1.1297212839126587,0.7941988487659946,-0.0565477947404978,-0.6050211033747142,0.174486977580172,4.0,2.0
34.43227767944336,-25.182035446166992,1.132681131362915,-0.0,-0.0,-1.0,0.0719933135138732,2.0,2.0
33.06346130371094,-24.427413940429688,1.124168872833252,-0.0,-0.0,-1.0,0.1534083821101085,2.0,2.0
32.717899322509766,-24.90660858154297,1.1232197284698486,-0.1299191872175652,-0.9511154151734096,-0.2801793565062209,0.099103168659755,3.0,2.0
33.151580810546875,-24.426733016967773,1.123249888420105,0.9740651823158392,-0.0901358707713975,0.2075392623102746,0.1326867997734886,3.0,2.0
33.48670196533203,-26.521728515625,1.0995665788650513,-0.0,-0.0,-1.0,0.1462918926023237,2.0,2.0
33.17362976074219,-24.42542839050293,0.899412214756012,-0.398435306321296,0.8753654469002451,0.2738332358385104,0.2523825193165759,3.0,1.0
32.71798324584961,-24.87123107910156,0.8999798893928528,-0.0,-0.0,-1.0,0.1271159254430267,2.0,1.0
33.877166748046875,-25.75721549987793,0.8527210354804993,0.4684549646772727,-0.8633662414018173,-0.1874798103181077,0.0874085600313571,3.0,1.0
33.7347412109375,-25.801952362060547,0.8551231622695923,-0.0,-0.0,-1.0,0.1169003652898749,2.0,1.0
33.272830963134766,-26.700037002563477,0.8458449840545654,0.0183034118715143,-0.3423458439963069,-0.939395714388946,0.1731200710160859,3.0,1.0
34.07634353637695,-25.87602806091309,0.845233142375946,-0.0,-0.0,-1.0,0.143030125098956,1.0,1.0
34.85637664794922,-24.878686904907227,0.8488602042198181,-0.0864226908902024,-0.6282481942250294,-0.7731981149435673,0.1563240149084124,6.0,1.0
33.835655212402344,-25.778472900390625,0.8468891382217407,-0.0,-0.0,-1.0,0.1013689718009413,2.0,1.0
33.75191116333008,-25.771055221557617,0.8495478630065918,0.852036129774118,-0.500920922491552,-0.1520284939402962,0.1300667564815659,3.0,1.0
34.37157440185547,-25.10691261291504,0.8466213345527649,0.9029057694894284,0.3897462938770255,-0.1812705100997581,0.2150449407838224,3.0,1.0
34.278568267822266,-25.170391082763672,0.8479210138320923,-0.0,-0.0,-1.0,0.1985765050576916,1.0,1.0
33.953338623046875,-25.83329200744629,0.8421043157577515,-0.0,-0.0,-1.0,0.1675151568917406,1.0,1.0
34.056724548339844,-25.97231101989746,0.8357636332511902,-0.0,-0.0,-1.0,0.0922012612686099,1.0,1.0
33.21443176269531,-26.73795509338379,0.8428255319595337,-0.0,-0.0,-1.0,0.149949103857765,1.0,1.0
33.10688400268555,-24.44261360168457,0.8994420766830444,-0.0,-0.0,-1.0,0.2203069685684286,2.0,1.0
34.862525939941406,-24.831356048583984,0.8382779955863953,-0.8016814379189108,-0.1157866028594789,-0.5864301618219594,0.1060693163976229,4.0,1.0
33.58103942871094,-25.554012298583984,0.9885549545288086,-0.9004715133283392,0.4339098408954709,0.029551711595735,0.0999823995493363,3.0,1.0
33.55842590332031,-26.612525939941406,0.9716787934303284,-0.1059580307429026,0.0782929798021458,-0.9912835643925436,0.103034905646027,4.0,1.0
33.159751892089844,-24.436508178710938,1.0128602981567385,0.0140697153548935,-0.8788570017846408,-0.476877776294874,0.1649665017423887,4.0,2.0
32.760498046875,-24.805912017822266,1.01262366771698,0.3421497112672709,0.4614107647215748,-0.818555851044249,0.1251150650310987,5.0,2.0
34.04143524169922,-25.83553695678711,0.8294641971588135,-0.0784018530065976,-0.8507051092673019,-0.5197633755004675,0.202063977641091,3.0,1.0
33.59968566894531,-25.75798797607422,0.8312863111495972,-0.0,-0.0,-1.0,0.1817298538542918,1.0,1.0
34.71286392211914,-26.613475799560547,0.8133190870285034,0.0373761775804415,-0.1827627749698831,-0.9824463290352218,0.2508895555306807,3.0,1.0
33.107688903808594,-24.393970489501953,0.8581897616386414,-0.0,-0.0,-1.0,0.203700576331089,2.0,1.0
34.843753814697266,-24.824851989746097,0.848595142364502,-0.0,-0.0,-1.0,0.096641232785704,2.0,1.0
34.352813720703125,-25.059406280517575,0.8445208072662354,-0.0,-0.0,-1.0,0.2151587840560121,2.0,1.0
33.554054260253906,-25.575695037841797,0.8348971009254456,-0.0,-0.0,-1.0,0.1828651459774061,1.0,1.0
33.891510009765625,-25.744796752929688,0.8313707113265991,-0.0,-0.0,-1.0,0.093673297795524,2.0,1.0
33.76961135864258,-25.735511779785156,0.8316351175308228,-0.0,-0.0,-1.0,0.1202240874198547,2.0,1.0
32.72354507446289,-25.95096015930176,0.9155496954917908,-0.0,-0.0,-1.0,0.2008946936551247,2.0,1.0
33.11013412475586,-24.540414810180664,0.9358007311820984,-0.0,-0.0,-1.0,0.1764419324144193,1.0,1.0
33.28384780883789,-24.46377944946289,1.0472848415374756,0.5701433151991431,0.1190915409893751,-0.8128676429767066,0.1428587574890471,3.0,2.0
32.765724182128906,-24.82204818725586,1.0485165119171145,-0.4112588557775001,-0.8434453492564272,-0.3456386789152581,0.1159982795575618,4.0,2.0
33.668426513671875,-25.55594253540039,1.0320814847946167,-0.0,-0.0,-1.0,0.0911706648995532,1.0,2.0
32.9830322265625,-25.97740173339844,1.03406822681427,-0.0,-0.0,-1.0,0.1478634151106684,1.0,2.0
35.11014175415039,-25.92736434936523,1.0157839059829712,-0.0,-0.0,-1.0,0.1146037275632823,1.0,2.0
33.221763610839844,-24.435800552368164,0.841270923614502,-0.0,-0.0,-1.0,0.2508848830963507,2.0,1.0
33.36082458496094,-24.543533325195312,0.8333184123039246,-0.0,-0.0,-1.0,0.1384599627975531,1.0,1.0
32.80177688598633,-24.92228889465332,0.8474529981613159,-0.0,-0.0,-1.0,0.1578066774861843,1.0,1.0
34.734169006347656,-24.813589096069336,0.7732337117195129,-0.0,-0.0,-1.0,0.0998253999936038,1.0,1.0
32.99024200439453,-25.82369804382324,0.8199073076248169,-0.5129490690333491,0.7504273803456689,-0.4168237030272589,0.2165604509181761,3.0,1.0
35.10029983520508,-24.679811477661133,0.7620573043823242,-0.0,-0.0,-1.0,0.1398215528777686,2.0,1.0
33.82176208496094,-25.768314361572266,0.7879015207290649,-0.0,-0.0,-1.0,0.1298497126029348,1.0,1.0
33.53247833251953,-26.067607879638672,0.7927788496017456,-0.0,-0.0,-1.0,0.0435344631589433,2.0,1.0
32.909969329833984,-26.255800247192383,0.8135939836502075,-0.0,-0.0,-1.0,0.0969240525340073,1.0,1.0
35.13866424560547,-25.571685791015625,0.7408125400543213,-0.0,-0.0,-1.0,0.1702426184348605,1.0,1.0
34.65719985961914,-25.88999938964844,0.7524007558822632,-0.0,-0.0,-1.0,0.2053787800511803,2.0,1.0
34.224552154541016,-25.931791305541992,0.7683944702148438,-0.0,-0.0,-1.0,0.1089545915459043,1.0,1.0
34.9548225402832,-25.920751571655273,0.7401734590530396,-0.0,-0.0,-1.0,0.1964362008586761,1.0,1.0
35.091060638427734,-26.816877365112305,0.715062141418457,-0.0,-0.0,-1.0,0.1050823964028605,2.0,1.0
33.28400802612305,-24.41732406616211,1.1017924547195437,-0.0,-0.0,-1.0,0.1285901088991488,1.0,2.0
33.18917465209961,-24.47885513305664,1.1124101877212524,0.7600996959330975,-0.6498057487920035,-0.0009700924060637,0.152428663386357,6.0,2.0
32.76799011230469,-24.92321014404297,1.1574158668518066,-0.0,-0.0,-1.0,0.0949421896331327,2.0,2.0
33.586238861083984,-25.590972900390625,1.054673194885254,-0.4885503807845651,0.2788958914074725,-0.8267621224943045,0.1132610301008317,3.0,2.0
34.91365051269531,-24.901193618774418,0.8981349468231201,-0.0,-0.0,-1.0,0.1768733756192411,2.0,1.0
34.43580627441406,-25.13203811645508,0.9556562900543212,-0.0457419930675359,-0.4546180280847941,-0.8895111683450089,0.158723999266308,3.0,1.0
34.716468811035156,-26.658308029174805,0.9068422317504884,-0.0,-0.0,-1.0,0.1377230561045714,2.0,1.0
34.7408561706543,-24.449201583862305,0.6488041877746582,-0.0,-0.0,-1.0,0.0606870931750602,1.0,1.0
33.15678787231445,-24.44243812561035,1.2132891416549685,-0.0,-0.0,-1.0,0.1014623548432139,2.0,2.0
33.66712188720703,-25.54730796813965,1.2341444492340088,-0.0,-0.0,-1.0,0.0734547140074084,1.0,2.0
33.65825653076172,-26.647478103637695,1.2289252281188965,-0.0,-0.0,-1.0,0.1361086935586915,1.0,2.0
32.932945251464844,-24.396825790405273,0.7603100538253784,-0.0,-0.0,-1.0,0.1324034528871258,1.0,1.0
32.81463623046875,-24.520235061645508,0.7550550699234009,-0.0,-0.0,-1.0,0.1391283417718225,1.0,1.0
33.27425765991211,-25.65871238708496,0.7339164018630981,-0.0,-0.0,-1.0,0.1682009919754003,2.0,1.0
33.221988677978516,-25.8381404876709,0.7284449934959412,-0.0,-0.0,-1.0,0.081862564268277,2.0,1.0
35.17714309692383,-24.636051177978516,0.8339214324951172,-0.0,-0.0,-1.0,0.1798107147479741,2.0,1.0
33.16789627075195,-24.539234161376953,1.0257408618927002,-0.1220363841456422,-0.3449040555238481,-0.9306708942627676,0.1819799096225318,4.0,2.0
35.187782287597656,-24.786346435546875,0.8927478194236755,-0.0,-0.0,-1.0,0.1750180347253548,1.0,1.0
35.17696762084961,-24.510921478271484,0.8198461532592773,-0.1801374008932327,-0.5038423197152295,-0.8448037841199616,0.1226401055199289,4.0,1.0
33.5089111328125,-26.603729248046875,1.0384562015533447,-0.0,-0.0,-1.0,0.1871663193639523,1.0,2.0
33.262760162353516,-26.71239471435547,1.2547314167022705,-0.0,-0.0,-1.0,0.1158226142658181,1.0,2.0
34.109336853027344,-25.71916961669922,0.7818079590797424,-0.0,-0.0,-1.0,0.1959735463379325,1.0,1.0
34.31695556640625,-25.972440719604492,0.7777248024940491,-0.0,-0.0,-1.0,0.065163366603072,1.0,1.0
35.04484939575195,-24.86686134338379,0.7880618572235107,-0.0,-0.0,-1.0,0.0517321499468121,1.0,1.0
33.68190383911133,-26.637279510498047,1.1305036544799805,0.7941988487659946,-0.0565477947404978,-0.6050211033747142,0.1467847439029474,4.0,2.0
34.46550750732422,-25.117366790771484,1.0867183208465576,-0.0,-0.0,-1.0,0.0549220211845722,1.0,2.0
33.894622802734375,-25.784587860107425,0.7669262886047363,-0.0,-0.0,-1.0,0.1165862777578623,2.0,1.0
34.63865661621094,-24.6999568939209,0.7245408892631531,-0.0,-0.0,-1.0,0.1087076754435283,2.0,1.0
35.02540969848633,-24.618751525878903,0.7033097743988037,0.3033528775575864,0.2628709189335928,-0.9159016932272488,0.0808421244403255,6.0,1.0
34.91703796386719,-26.057476043701172,0.7108740210533142,-0.0,-0.0,-1.0,0.1577724823774151,1.0,1.0
33.69670486450195,-25.473190307617188,1.4181203842163086,-0.0,-0.0,-1.0,0.0654117400397349,2.0,2.0
35.20343780517578,-24.675071716308594,0.8952029943466187,-0.0,-0.0,-1.0,0.1435231610216293,1.0,1.0
33.9215087890625,-25.74217414855957,0.6843966245651245,-0.0,-0.0,-1.0,0.1010057832483847,1.0,1.0
34.60738754272461,-24.420398712158203,0.669228196144104,-0.0,-0.0,-1.0,0.0520010622205782,1.0,1.0
34.601924896240234,-24.85028839111328,0.6595257520675659,-0.0,-0.0,-1.0,0.1199808153917128,2.0,1.0
34.945274353027344,-24.41987991333008,0.6462662220001221,-0.0,-0.0,-1.0,0.0815013766508435,1.0,1.0
34.92438888549805,-24.515357971191406,0.6454652547836304,-0.0,-0.0,-1.0,0.0612826876659733,1.0,1.0
33.61391830444336,-26.490875244140625,1.3872623443603516,-0.0,-0.0,-1.0,0.1008816133408698,1.0,2.0
33.62990188598633,-26.69950485229492,1.2617615461349487,0.8918474644721474,0.3044765004296492,-0.3345178034136824,0.1621496576760848,3.0,2.0
34.4293212890625,-25.10283851623535,1.251074194908142,0.2291683826232563,0.6413540108527522,-0.7322205167631732,0.045900947048095,3.0,2.0
33.545318603515625,-25.65745735168457,1.229989767074585,-0.0,-0.0,-1.0,0.1008931252537799,1.0,2.0
33.54405975341797,-26.651168823242188,1.214923620223999,-0.0,-0.0,-1.0,0.2048988895043423,1.0,2.0
33.77978515625,-24.364858627319336,0.6186020374298096,-0.0,-0.0,-1.0,0.0402713799969384,1.0,1.0
33.905616760253906,-24.80521774291992,0.5905666351318359,-0.0,-0.0,-1.0,0.0313628858217807,1.0,1.0
32.945068359375,-26.667993545532227,1.2647258043289185,-0.0,-0.0,-1.0,0.1021206003538981,1.0,2.0
33.88123321533203,-25.40651512145996,1.252884864807129,-0.0,-0.0,-1.0,0.0384280034334272,1.0,2.0
33.910465240478516,-26.565662384033203,1.2317826747894287,-0.0,-0.0,-1.0,0.1654035937565145,1.0,2.0
34.68147659301758,-24.999982833862305,1.2302247285842896,-0.0,-0.0,-1.0,0.0316372154771272,1.0,2.0
33.18876647949219,-24.512359619140625,0.923250138759613,-0.0,-0.0,-1.0,0.1896046520660819,2.0,1.0
32.74100875854492,-26.015716552734375,0.8992453813552856,-0.0,-0.0,-1.0,0.1937381174263676,1.0,1.0
35.12425231933594,-24.643028259277344,0.811217188835144,-0.9788399479338264,-0.2044283554774711,-0.0090224057590234,0.1322497530377958,4.0,1.0
34.881187438964844,-26.83709716796875,0.7555320262908936,-0.0,-0.0,-1.0,0.1031811863465724,1.0,1.0
34.501705169677734,-24.933605194091797,0.6634471416473389,-0.0,-0.0,-1.0,0.0519183645762028,1.0,1.0
35.13920974731445,-24.517709732055664,0.6541761159896851,-0.8723039812456441,-0.3052308177096864,-0.3819946494694331,0.0995003176625916,4.0,1.0
34.83688735961914,-24.634052276611328,0.6627144813537598,-0.0,-0.0,-1.0,0.047409744815107,1.0,1.0
34.449623107910156,-25.755939483642575,0.6249595880508423,-0.0,-0.0,-1.0,0.1264217741490457,1.0,1.0
33.617897033691406,-25.54067039489746,1.3084678649902344,-0.0697628769280765,0.1480771497088642,-0.9865121888435116,0.0563609507636095,3.0,2.0
33.569820404052734,-26.647327423095703,1.2879290580749512,0.5053438025023792,-0.8582385143457759,0.0897457172571019,0.1492499123491021,3.0,2.0
32.90044403076172,-25.86322021484375,0.881261944770813,-0.588563257057819,0.2957067531252751,-0.7524299360057382,0.2554848244639089,5.0,1.0
35.05934143066406,-24.746854782104492,0.823976993560791,-0.0,-0.0,-1.0,0.0996564332298953,2.0,1.0
33.63689041137695,-26.858348846435547,0.8079428672790527,-0.0,-0.0,-1.0,0.1085477250358548,2.0,1.0
33.60029983520508,-25.581947326660156,0.5248039960861206,-0.0,-0.0,-1.0,0.1247941744103815,1.0,1.0
32.8264274597168,-24.51218032836914,0.6555521488189697,-0.0,-0.0,-1.0,0.1523758831818023,1.0,1.0
33.08259582519531,-24.726734161376953,0.6178693771362305,-0.0,-0.0,-1.0,0.1140070596569422,1.0,1.0
33.18560028076172,-25.082509994506836,0.5919344425201416,-0.0,-0.0,-1.0,0.0514399084342291,1.0,1.0
33.45241928100586,-24.97138404846191,0.566107988357544,-0.0,-0.0,-1.0,0.0635970373194499,1.0,1.0
33.332183837890625,-25.278051376342773,0.5674405097961426,-0.0,-0.0,-1.0,0.1048982422235506,1.0,1.0
33.0456428527832,-24.671283721923828,1.1314678192138672,-0.0,-0.0,-1.0,0.2016441054955678,1.0,2.0
33.357967376708984,-26.7160587310791,1.0679655075073242,-0.0,-0.0,-1.0,0.1536777739060761,1.0,2.0
34.473236083984375,-26.78746795654297,0.971015691757202,-0.0,-0.0,-1.0,0.1034872482506446,1.0,1.0
33.290992736816406,-26.579883575439453,0.8043481111526489,-0.0,-0.0,-1.0,0.2139484933186058,1.0,1.0
33.70071792602539,-26.808828353881836,0.7409405708312988,-0.0,-0.0,-1.0,0.0857457746677679,1.0,1.0
34.656639099121094,-24.720027923583984,0.628591775894165,-0.0,-0.0,-1.0,0.1548925157257488,1.0,1.0
34.58070373535156,-24.893699645996097,0.6380569934844971,-0.0,-0.0,-1.0,0.1066285499003607,1.0,1.0
34.479007720947266,-25.929187774658203,0.6402009725570679,-0.0,-0.0,-1.0,0.1191673866161367,1.0,1.0
34.67642593383789,-24.79779052734375,0.6247777938842773,-0.0,-0.0,-1.0,0.1485790327161137,1.0,1.0
34.898685455322266,-25.861778259277344,0.5788600444793701,-0.0,-0.0,-1.0,0.2250832615135256,1.0,1.0
34.828853607177734,-26.09543228149414,0.5861313343048096,-0.0,-0.0,-1.0,0.1217995657601502,1.0,1.0
35.133731842041016,-25.619693756103516,0.5468871593475342,-0.0,-0.0,-1.0,0.1938540090421943,1.0,1.0
32.76690673828125,-24.680278778076172,0.9107314348220824,-0.0,-0.0,-1.0,0.1698719132958236,1.0,1.0
32.807762145996094,-24.86312484741211,0.9021056890487672,-0.0,-0.0,-1.0,0.1562635338844491,2.0,1.0
32.938323974609375,-25.822906494140625,0.8682568073272705,-0.5645186676739828,-0.5796720882261455,-0.5876214291354009,0.2562420408428731,4.0,1.0
33.16849136352539,-24.413780212402344,0.8546998500823975,-0.0,-0.0,-1.0,0.2400531419843852,2.0,1.0
33.24590301513672,-25.410541534423828,0.8295843601226807,-0.0,-0.0,-1.0,0.2464728701272138,1.0,1.0
33.407127380371094,-25.67691421508789,0.8018999099731445,-0.0,-0.0,-1.0,0.1667949983909315,1.0,1.0
33.54978561401367,-25.93264961242676,0.7770729064941406,-0.0,-0.0,-1.0,0.0661664727304871,1.0,1.0
33.51211166381836,-26.004148483276367,0.7814900875091553,-0.0,-0.0,-1.0,0.0471973603174888,1.0,1.0
33.9092903137207,-25.284778594970703,0.7333323955535889,-0.0,-0.0,-1.0,0.2002047372726196,1.0,1.0
34.677650451660156,-24.67011260986328,0.6259695291519165,-0.0,-0.0,-1.0,0.1182427593813925,1.0,1.0
33.72660827636719,-25.422813415527344,1.2837079763412476,-0.0,-0.0,-1.0,0.0605770383381589,1.0,2.0
33.63622283935547,-26.515579223632812,1.3024613857269287,-0.0,-0.0,-1.0,0.0943387207982272,1.0,2.0
33.122467041015625,-24.423009872436523,0.6376941204071045,-0.0,-0.0,-1.0,0.1633700047082736,1.0,1.0
33.283668518066406,-24.656448364257812,0.6028194427490234,-0.0,-0.0,-1.0,0.1335499851461038,2.0,1.0
33.516517639160156,-26.55498504638672,1.0243902206420898,-0.0,-0.0,-1.0,0.1143143115599601,1.0,2.0
34.37632751464844,-25.0991268157959,0.9393333196640016,-0.0,-0.0,-1.0,0.1667775486802216,2.0,1.0
34.70405578613281,-25.867177963256836,0.8828525543212891,-0.0,-0.0,-1.0,0.1788155846292671,2.0,1.0
34.89374542236328,-24.888023376464844,0.8722808361053467,0.6188079468314739,0.5907269500941491,-0.5178015019007578,0.1825017109681361,7.0,1.0
33.18807601928711,-24.465518951416016,1.1089529991149902,0.7684040305100579,-0.0171929725980875,-0.6397340444193507,0.1620401312556272,6.0,2.0
32.83584976196289,-25.060882568359375,0.7655578851699829,-0.0,-0.0,-1.0,0.1400392782525195,1.0,1.0
32.85575866699219,-25.390148162841797,0.7573332786560059,-0.0,-0.0,-1.0,0.0817396352518108,2.0,1.0
32.92844009399414,-25.016864776611328,0.750532865524292,-0.0,-0.0,-1.0,0.1298904110064343,1.0,1.0
33.27837371826172,-24.53779983520508,0.6962622404098511,-0.0,-0.0,-1.0,0.2296985783372387,1.0,1.0
33.62702941894531,-25.156761169433594,0.6305571794509888,-0.0,-0.0,-1.0,0.123823754710283,1.0,1.0
33.787784576416016,-25.429357528686523,0.6001496315002441,-0.0,-0.0,-1.0,0.1369580980117584,1.0,1.0
33.77561569213867,-24.673688888549805,0.6095056533813477,-0.0,-0.0,-1.0,0.0271127380046832,1.0,1.0
32.709774017333984,-24.846942901611328,0.7896665334701538,-0.0,-0.0,-1.0,0.1396480634346413,1.0,1.0
33.609642028808594,-26.551902770996097,1.1352312564849854,-0.1461651783378961,-0.8375955220280709,-0.5263738995428768,0.1506933630835172,4.0,2.0
32.783809661865234,-24.370288848876953,0.7826123237609863,-0.0,-0.0,-1.0,0.1597616663416308,1.0,1.0
33.666805267333984,-26.53355598449707,1.1273212432861328,0.2188982759741002,-0.2125876358276315,-0.9523077453579726,0.1148318528435603,3.0,2.0
33.64824676513672,-25.54895782470703,1.1237355470657349,-0.0,-0.0,-1.0,0.0810882464207413,2.0,2.0
34.46937942504883,-25.038068771362305,1.0021355152130127,-0.0,-0.0,-1.0,0.0672628288013065,1.0,2.0
34.94257354736328,-24.986677169799805,0.9334253072738647,0.5535241081908078,-0.6470787117510063,-0.5243092622205231,0.1787605892818944,3.0,1.0
33.22722625732422,-24.39052963256836,1.1718193292617798,-0.0,-0.0,-1.0,0.0993455434453507,2.0,2.0
33.043922424316406,-25.615863800048828,0.7656272649765015,-0.0,-0.0,-1.0,0.160266472734457,1.0,1.0
33.08887481689453,-25.89547348022461,0.7504879236221313,-0.0,-0.0,-1.0,0.1813544019230672,1.0,1.0
32.888790130615234,-24.85938262939453,0.8097718954086304,-0.0,-0.0,-1.0,0.1609621092777749,1.0,1.0
33.14390563964844,-25.475746154785156,0.753547191619873,-0.0,-0.0,-1.0,0.2278405486599301,1.0,1.0
33.2713737487793,-25.62371063232422,0.7293976545333862,-0.0,-0.0,-1.0,0.1896313740118521,2.0,1.0
33.1767692565918,-24.71603202819824,0.7660002708435059,-0.0,-0.0,-1.0,0.1494511631207685,1.0,1.0
33.69215393066406,-26.665124893188477,1.1469804048538208,0.5563344061022667,-0.2618546858670777,-0.7886216786750746,0.1443064653836809,3.0,2.0
32.755218505859375,-24.84667205810547,0.8316066265106201,-0.0,-0.0,-1.0,0.1457265070755446,1.0,1.0
33.6126594543457,-25.611644744873047,1.1635011434555054,-0.0,-0.0,-1.0,0.1015542980121212,1.0,2.0
33.15151596069336,-24.467138290405273,1.2262436151504517,-0.0,-0.0,-1.0,0.1250977506641998,2.0,2.0
33.24658966064453,-24.39002799987793,1.2131423950195312,0.9010156430382474,-0.1048245176214235,-0.4209306730398834,0.0993455434453507,3.0,2.0
32.895774841308594,-25.98906517028809,0.9746944904327391,-0.187057650656416,0.2201606188105632,-0.9573602964693344,0.1619537866029094,3.0,1.0
33.61701202392578,-26.76625061035156,0.8463950157165527,-0.0,-0.0,-1.0,0.1195501172151585,1.0,1.0
33.07733917236328,-25.723003387451172,0.9573071002960204,-0.0,-0.0,-1.0,0.1476329743760961,1.0,1.0
33.864017486572266,-26.300539016723633,0.8262083530426025,-0.0,-0.0,-1.0,0.0166733577824804,2.0,1.0
33.27843475341797,-25.598302841186523,0.9319311380386353,-0.0,-0.0,-1.0,0.2085508805531428,1.0,1.0
34.844970703125,-26.287010192871097,0.6826117038726807,-0.0,-0.0,-1.0,0.1704149101113465,2.0,1.0
34.9530143737793,-26.30522918701172,0.6660552024841309,-0.8479449166820743,0.0461050837383718,-0.5280755055165004,0.1095595710476402,3.0,1.0
33.954715728759766,-25.24527359008789,0.8405665159225464,-0.0,-0.0,-1.0,0.2059652475340694,1.0,1.0
34.627342224121094,-25.903234481811523,0.7243747711181641,-0.0,-0.0,-1.0,0.1931563902703104,2.0,1.0
35.02261734008789,-26.03794860839844,0.6618137359619141,-0.0,-0.0,-1.0,0.2179285593424318,1.0,1.0
34.9668083190918,-26.25388526916504,0.6652343273162842,-0.0,-0.0,-1.0,0.1667764640135113,2.0,1.0
34.414344787597656,-25.11196517944336,0.773308277130127,-0.0,-0.0,-1.0,0.1421485951174295,2.0,1.0
34.68389129638672,-24.91474723815918,0.7349977493286133,-0.0,-0.0,-1.0,0.1158172356956962,2.0,1.0
34.98282241821289,-24.597270965576172,0.6923556327819824,0.1542891176559314,-0.0304769863175981,-0.9875555789311056,0.0794197934989697,5.0,1.0
33.54737854003906,-26.47093963623047,1.3600530624389648,0.828516724676589,0.5317748414972767,0.175429629429361,0.1055196492537495,3.0,2.0
33.73585891723633,-26.834705352783203,1.3346126079559326,-0.0,-0.0,-1.0,0.2591630887525847,1.0,2.0
32.732383728027344,-24.95416259765625,1.0298887491226196,-0.0,-0.0,-1.0,0.1011543407622093,1.0,2.0
32.736175537109375,-24.79180145263672,1.0336570739746094,-0.6334304849952723,-0.7360687735076475,-0.2386809195256329,0.1159982795575618,3.0,2.0
33.176673889160156,-24.50874710083008,0.974202036857605,-0.0,-0.0,-1.0,0.2313502451983471,2.0,1.0
34.47004318237305,-25.112350463867188,1.2554876804351809,-0.1687351603197344,-0.4020431802565525,-0.8999387350709328,0.0488347710088725,5.0,2.0
33.4248046875,-25.06633758544922,0.5810203552246094,-0.0,-0.0,-1.0,0.0875389363684898,1.0,1.0
33.323974609375,-24.825531005859375,0.6102473735809326,-0.0,-0.0,-1.0,0.0658142484601478,1.0,1.0
33.53037643432617,-26.55845642089844,0.9665274620056152,0.0348642055181143,-0.1811977857540821,-0.982828494505226,0.1105805793845604,3.0,1.0
34.90141296386719,-25.94153213500977,0.8015291690826416,-0.0,-0.0,-1.0,0.1370001928755928,1.0,1.0
33.810340881347656,-25.338438034057617,0.9717367887496948,-0.0,-0.0,-1.0,0.0916369235518299,1.0,1.0
33.201908111572266,-24.574798583984375,0.6433181762695312,-0.0,-0.0,-1.0,0.1570418574763915,1.0,1.0
33.30109405517578,-24.569459915161133,0.6266696453094482,-0.0,-0.0,-1.0,0.1572092034027391,1.0,1.0
34.57582473754883,-25.13151741027832,0.8689903020858765,-0.0,-0.0,-1.0,0.1054310381942039,1.0,1.0
35.06755828857422,-24.774560928344727,0.8050637245178223,-0.0,-0.0,-1.0,0.0967778154798723,2.0,1.0
33.63201141357422,-26.43252944946289,1.4429490566253662,-0.0,-0.0,-1.0,0.1873059493972359,2.0,2.0
33.75091552734375,-25.435806274414062,1.442629098892212,-0.0,-0.0,-1.0,0.0654117400397349,2.0,2.0
32.7152099609375,-24.95964813232422,1.134610652923584,-0.0,-0.0,-1.0,0.0949421896331327,1.0,2.0
32.75865936279297,-24.914236068725582,1.1302120685577393,-0.1323107934766806,-0.9539237571720413,-0.2693015399739632,0.0949421896331327,3.0,2.0
33.16902160644531,-24.49477767944336,1.0858800411224363,0.4286071434837709,-0.4284136645678074,-0.7954606518026296,0.2503626584877872,6.0,2.0
33.31221008300781,-24.470050811767575,1.066259264945984,-0.0,-0.0,-1.0,0.1400449641884561,2.0,2.0
33.26552200317383,-26.73630714416504,0.8589205741882324,-0.0,-0.0,-1.0,0.1731200710160859,2.0,1.0
33.634033203125,-26.84234619140625,0.8021655082702637,-0.0,-0.0,-1.0,0.1085477250358548,2.0,1.0
33.66706466674805,-26.290512084960938,0.8284091949462891,-0.0,-0.0,-1.0,0.0447950639722882,1.0,1.0
34.78211975097656,-26.38633728027344,0.6622635126113892,-0.0,-0.0,-1.0,0.0582585840786088,1.0,1.0
35.02262878417969,-26.66744041442871,0.6132781505584717,-0.0,-0.0,-1.0,0.0738853120800946,2.0,1.0
33.683998107910156,-26.150535583496097,0.8335120677947998,-0.0,-0.0,-1.0,0.0431617592931688,2.0,1.0
34.85249710083008,-26.26010513305664,0.6578426361083984,-0.0,-0.0,-1.0,0.1704149101113464,2.0,1.0
34.011695861816406,-25.816726684570312,0.8031630516052246,-0.0,-0.0,-1.0,0.2101554255627111,2.0,1.0
34.543060302734375,-25.86654281616211,0.7221963405609131,-0.0,-0.0,-1.0,0.1989821430723612,1.0,1.0
34.869956970214844,-25.83926010131836,0.674362063407898,-0.0,-0.0,-1.0,0.2009194746342154,1.0,1.0
34.41671371459961,-25.11683654785156,0.7741043567657471,-0.0,-0.0,-1.0,0.1482786017422069,2.0,1.0
32.95863342285156,-24.541454315185547,0.618134617805481,-0.0,-0.0,-1.0,0.1335111468752875,1.0,1.0
34.59453201293945,-24.95647430419922,0.7531017065048218,-0.0,-0.0,-1.0,0.078846102563358,1.0,1.0
34.81633377075195,-24.86755752563477,0.7220242023468018,-0.0,-0.0,-1.0,0.1284898141105742,1.0,1.0
34.781211853027344,-24.676240921020508,0.7344907522201538,-0.0,-0.0,-1.0,0.0851289498636251,1.0,1.0
35.017086029052734,-24.599241256713867,0.6998183727264404,0.3101958649859044,0.4110464959309993,-0.857216019173985,0.095072235292868,5.0,1.0
32.73255157470703,-26.450944900512695,0.9482260942459106,-0.0,-0.0,-1.0,0.0936741030778827,1.0,1.0
32.908714294433594,-25.892074584960938,0.9569896459579468,-0.4586979630526065,0.2127892551209032,-0.8627380318477217,0.1412407445430562,3.0,1.0
33.0470085144043,-25.82323455810547,0.9414901733398438,-0.0,-0.0,-1.0,0.2146826538447706,2.0,1.0
33.48194122314453,-25.805465698242188,0.8806161880493164,-0.0,-0.0,-1.0,0.180666447096265,1.0,1.0
33.099063873291016,-25.57977294921875,0.9472804069519044,-0.0,-0.0,-1.0,0.1264965430661655,1.0,1.0
32.76205062866211,-25.03130340576172,1.024371862411499,-0.0,-0.0,-1.0,0.1011543407622093,1.0,2.0
34.34627151489258,-25.116714477539062,0.7848798036575317,-0.0,-0.0,-1.0,0.1834591461770716,1.0,1.0
32.96270751953125,-24.65417861938477,1.0133779048919678,-0.0,-0.0,-1.0,0.081634929043751,1.0,2.0
33.11677169799805,-24.427698135375977,1.0010780096054075,-0.0,-0.0,-1.0,0.1673864901524303,2.0,2.0
33.53250503540039,-26.505218505859375,1.2951091527938845,-0.0,-0.0,-1.0,0.1055196492537495,1.0,2.0
33.654659271240234,-25.5206298828125,1.3088762760162354,0.891997194234647,-0.2170539619222533,-0.3965205960493991,0.0563609507636092,6.0,2.0
34.71394348144531,-26.62769317626953,0.8160049915313721,0.0373761775804415,-0.1827627749698831,-0.9824463290352218,0.2601543494176756,3.0,1.0
32.74425506591797,-25.630990982055664,0.74349045753479,-0.0,-0.0,-1.0,0.1038308833649061,1.0,1.0
32.8635139465332,-25.421096801757812,0.7462805509567261,-0.0,-0.0,-1.0,0.0817396352518108,2.0,1.0
33.60771942138672,-25.510208129882812,0.6236082315444946,-0.0,-0.0,-1.0,0.193339361595828,2.0,1.0
33.90934371948242,-25.47524642944336,0.5790278911590576,-0.0,-0.0,-1.0,0.1327528789530658,1.0,1.0
32.94097900390625,-24.88118553161621,0.7850712537765503,-0.0,-0.0,-1.0,0.1451406716123884,2.0,1.0
33.906463623046875,-24.917997360229492,0.627143383026123,-0.0,-0.0,-1.0,0.0447333879293548,1.0,1.0
33.09811782836914,-24.49167823791504,0.7948058843612671,-0.9841236482125072,-0.1114188686007919,0.1381538300179352,0.2358450862121462,4.0,1.0
33.771636962890625,-24.638328552246097,0.672365665435791,-0.0,-0.0,-1.0,0.0333623290783467,1.0,1.0
34.208900451660156,-24.746068954467773,0.5907549858093262,-0.0,-0.0,-1.0,0.0405170054564081,1.0,1.0
34.326316833496094,-24.8740177154541,0.5609664916992188,-0.0,-0.0,-1.0,0.0860037571722159,1.0,1.0
33.554439544677734,-26.612850189208984,0.9651085138320924,-0.1059580307429026,0.0782929798021458,-0.9912835643925436,0.1172986804430757,4.0,1.0
33.90903091430664,-26.67049217224121,0.9167590141296388,-0.0,-0.0,-1.0,0.1276821935421899,2.0,1.0
33.592735290527344,-25.532398223876953,1.0349878072738647,-0.0981223447096364,0.992577360409471,0.0718483755644499,0.1018700906597103,3.0,2.0
34.39149856567383,-25.120929718017575,0.9522573947906494,-0.0370437146214907,-0.5014746296820557,-0.8643789440935533,0.1667775486802215,4.0,1.0
34.68016815185547,-25.05066680908203,0.91569721698761,-0.0,-0.0,-1.0,0.0496333924697984,1.0,1.0
33.171539306640625,-24.478975296020508,1.1579960584640503,-0.1587372096915638,-0.9087699206386924,0.3859271039998123,0.1239558901071297,4.0,2.0
34.856842041015625,-24.95324325561523,0.895827054977417,-0.0,-0.0,-1.0,0.1427286058425544,2.0,1.0
35.206298828125,-24.72786521911621,0.8567543029785156,-0.0,-0.0,-1.0,0.1906474976648409,2.0,1.0
33.56443405151367,-26.44656753540039,1.4059308767318726,-0.0,-0.0,-1.0,0.1103887800210048,1.0,2.0
33.715118408203125,-25.40127182006836,1.4342120885849,-0.0,-0.0,-1.0,0.0654117400397346,2.0,2.0
35.05604934692383,-26.843189239501953,0.6385595798492432,-0.0,-0.0,-1.0,0.1050823964028605,2.0,1.0
35.14695358276367,-26.84663200378418,0.6250045299530029,-0.0,-0.0,-1.0,0.1034017693423022,1.0,1.0
33.515228271484375,-25.414283752441406,0.598980188369751,-0.0,-0.0,-1.0,0.2349516632970051,1.0,1.0
33.25844955444336,-26.673908233642575,0.9011322259902954,-0.0,-0.0,-1.0,0.1818859965805451,1.0,1.0
33.593082427978516,-26.59789276123047,0.8643535375595093,-0.0,-0.0,-1.0,0.1300965752003753,1.0,1.0
34.79144287109375,-26.701744079589844,0.6886157989501953,-0.0,-0.0,-1.0,0.1455441277883289,1.0,1.0
34.10285949707031,-26.210933685302734,0.8285238742828369,-0.0,-0.0,-1.0,0.1604600420857481,2.0,1.0
32.881919860839844,-25.606725692749023,0.6787137985229492,-0.0,-0.0,-1.0,0.087562691835942,1.0,1.0
34.07000732421875,-26.041656494140625,0.8475666046142578,-0.0,-0.0,-1.0,0.072631395727883,1.0,1.0
34.823204040527344,-25.865718841552734,0.7508327960968018,-0.0,-0.0,-1.0,0.0901146567999495,2.0,1.0
34.955787658691406,-25.976268768310547,0.7222326993942261,-0.0,-0.0,-1.0,0.2244659269035549,2.0,1.0
33.58918762207031,-25.535091400146484,0.959022045135498,0.3126332459843929,0.8919426069757003,0.3266478828442849,0.1029917014494759,4.0,1.0
34.8170166015625,-25.800193786621097,0.7567863464355469,-0.0,-0.0,-1.0,0.0765753730599552,1.0,1.0
32.728397369384766,-24.96363067626953,0.7790404558181763,-0.0,-0.0,-1.0,0.139541935212335,1.0,1.0
32.96455383300781,-25.06658172607422,0.7290115356445312,-0.0,-0.0,-1.0,0.1184457437235919,1.0,1.0
34.373085021972656,-25.09595489501953,0.8777056932449341,-0.0,-0.0,-1.0,0.2069823478881254,2.0,1.0
34.61858367919922,-25.038833618164062,0.843738317489624,-0.0,-0.0,-1.0,0.0576737519809678,1.0,1.0
35.20274353027344,-25.43836975097656,0.7234715223312378,-0.0,-0.0,-1.0,0.0796730518748255,1.0,1.0
33.20844268798828,-24.46560287475586,0.7542300224304199,-0.0,-0.0,-1.0,0.2381540004243668,1.0,1.0
33.701560974121094,-24.582836151123047,0.6555927991867065,-0.0,-0.0,-1.0,0.052499647261063,1.0,1.0
33.8791618347168,-24.692842483520508,0.6124696731567383,-0.0,-0.0,-1.0,0.0208353819278063,1.0,1.0
34.87374496459961,-24.85762596130371,0.8158776760101318,-0.8852355249112499,-0.1505265247168441,-0.4401134294608303,0.1742227195917862,4.0,1.0
35.16442108154297,-24.80649185180664,0.772216796875,-0.0,-0.0,-1.0,0.1474455373814524,2.0,1.0
33.59360885620117,-26.63488388061523,1.2729777097702026,0.5053438025023792,-0.8582385143457759,0.0897457172571019,0.1492499123491021,3.0,2.0
33.6677360534668,-25.481449127197266,1.33432936668396,0.933288048602248,-0.0072287445208591,-0.3590559337886781,0.0654117400397349,4.0,2.0
34.486732482910156,-25.121829986572266,1.251180648803711,-0.3747426548624148,-0.3933744287584297,-0.8395382668024419,0.055544910746867,4.0,2.0
33.1988525390625,-24.445533752441406,1.1054197549819946,0.7253889396649631,-0.1795292988610558,-0.6645149487123658,0.1388016333337931,5.0,2.0
33.221580505371094,-26.69869613647461,0.6933474540710449,-0.0,-0.0,-1.0,0.1752418850797706,2.0,1.0
34.600303649902344,-25.95712661743164,0.5783283710479736,-0.0,-0.0,-1.0,0.1343341413148366,1.0,1.0
34.847267150878906,-25.90270233154297,0.5438206195831299,-0.0,-0.0,-1.0,0.207353178612718,1.0,1.0
35.045509338378906,-25.69886589050293,0.5322995185852051,-0.0,-0.0,-1.0,0.1564051400339652,1.0,1.0
33.28410720825195,-24.70228385925293,0.6016368865966797,-0.0,-0.0,-1.0,0.1116371844606088,2.0,1.0
33.405853271484375,-24.692142486572266,0.5809986591339111,-0.0,-0.0,-1.0,0.0789944820710567,1.0,1.0
32.75231170654297,-26.407711029052734,0.7940224409103394,-0.0,-0.0,-1.0,0.0569839279521748,1.0,1.0
33.591583251953125,-26.66865921020508,1.0364532470703125,-0.0,-0.0,-1.0,0.1962729974437378,1.0,2.0
34.69675064086914,-26.647804260253903,0.8967330455780029,-0.0,-0.0,-1.0,0.2508895555306807,2.0,1.0
32.819942474365234,-26.004926681518555,0.8383667469024658,-0.0,-0.0,-1.0,0.1837360427286077,1.0,1.0
33.3263053894043,-26.17134666442871,0.7469618320465088,-0.0,-0.0,-1.0,0.0466139094875736,1.0,1.0
32.967918395996094,-25.82709503173828,0.8412632942199707,-0.5690956575771998,0.7046221446569335,-0.4238369566069451,0.2281078959109766,5.0,1.0
33.728519439697266,-25.70043182373047,0.7456285953521729,-0.0,-0.0,-1.0,0.0959303747958364,1.0,1.0
34.9783821105957,-25.940593719482425,0.9174752235412598,-0.0,-0.0,-1.0,0.1555693416287587,2.0,1.0
32.753841400146484,-25.17693328857422,0.9543097019195556,-0.0,-0.0,-1.0,0.0647263101575685,1.0,1.0
34.375518798828125,-25.090335845947266,0.7106384038925171,-0.0,-0.0,-1.0,0.1682881243532394,1.0,1.0
34.519203186035156,-24.991376876831055,0.6966168880462646,-0.0,-0.0,-1.0,0.0530583281534944,1.0,1.0
33.19293212890625,-24.469099044799805,0.8122012615203857,-0.0,-0.0,-1.0,0.2367073780827809,2.0,1.0
33.41769027709961,-24.47154235839844,0.610020637512207,-0.0,-0.0,-1.0,0.1436150791023421,1.0,1.0
34.60344696044922,-24.712512969970703,0.7104053497314453,-0.0,-0.0,-1.0,0.1132801910116199,2.0,1.0
35.1064567565918,-24.697847366333008,0.8088821172714233,0.2686727821990218,-0.2750158319713764,-0.9231366249209968,0.1331588688086701,3.0,1.0
34.60399627685547,-24.52565574645996,0.7289376258850098,-0.0,-0.0,-1.0,0.0699734055727045,1.0,1.0
35.162384033203125,-24.505550384521484,0.6291558742523193,-0.0,-0.0,-1.0,0.0995003176625916,2.0,1.0
33.611759185791016,-26.39654541015625,1.4389086961746216,-0.0,-0.0,-1.0,0.184264364936251,2.0,2.0
33.543766021728516,-25.55954360961914,1.147306203842163,-0.0,-0.0,-1.0,0.0976932422961559,2.0,2.0
33.616676330566406,-25.543502807617188,1.139220952987671,-0.1137027444097764,0.8414561166948776,-0.5282265513872445,0.0810882464207413,3.0,2.0
34.910945892333984,-26.659399032592773,0.6196818351745605,-0.0,-0.0,-1.0,0.0980945561315866,1.0,1.0
35.10224151611328,-26.610443115234375,0.5971784591674805,-0.0,-0.0,-1.0,0.048141286700572,1.0,1.0
34.95819854736328,-26.265321731567383,0.66121506690979,0.5954515297226322,-0.1725175181296823,-0.7846497191035962,0.1466923930403488,3.0,1.0
33.510311126708984,-25.67205810546875,0.6074032783508301,-0.0,-0.0,-1.0,0.1646174000070631,1.0,1.0
33.59033966064453,-25.5224552154541,0.6195392608642578,-0.0,-0.0,-1.0,0.1783741514883493,2.0,1.0
33.986106872558594,-25.287982940673828,0.5925819873809814,-0.0,-0.0,-1.0,0.1269338460707067,1.0,1.0
34.27429962158203,-25.29157257080078,0.5427744388580322,-0.0,-0.0,-1.0,0.1655525028962592,2.0,1.0
33.959835052490234,-25.1342830657959,0.6208071708679199,-0.0,-0.0,-1.0,0.1359654650696616,1.0,1.0
34.3093376159668,-25.090839385986328,0.5668134689331055,-0.0,-0.0,-1.0,0.1686344020248966,2.0,1.0
34.4521484375,-24.8326358795166,0.5790047645568848,-0.0,-0.0,-1.0,0.0547876945867015,1.0,1.0
34.552555084228516,-24.811534881591797,0.5635068416595459,-0.0,-0.0,-1.0,0.0970213075783176,1.0,1.0
32.91363525390625,-26.71056747436523,0.875208854675293,-0.0,-0.0,-1.0,0.0949550682237075,1.0,1.0
33.62284469604492,-26.796409606933594,0.7784683704376221,-0.0,-0.0,-1.0,0.1125654685980497,2.0,1.0
32.93052673339844,-26.576942443847656,0.8924190998077393,-0.0,-0.0,-1.0,0.1108753009138327,1.0,1.0
33.28929138183594,-26.67369079589844,0.836564302444458,-0.7052406489164426,0.2011370233691981,-0.6798378666609366,0.1868426403071816,3.0,1.0
33.656700134277344,-26.670469284057617,0.7914654016494751,-0.0,-0.0,-1.0,0.1255226776840844,1.0,1.0
32.86644744873047,-25.956737518310547,0.9878590106964112,-0.5531728650509935,-0.4168766994148326,-0.7212583440462028,0.1459562265554752,4.0,1.0
33.892913818359375,-26.2700252532959,0.8143296241760254,-0.0,-0.0,-1.0,0.0218332652375,2.0,1.0
34.012454986572266,-26.089155197143555,0.8216805458068848,-0.0,-0.0,-1.0,0.0614386056004562,1.0,1.0
34.908321380615234,-26.192317962646484,0.6777287721633911,-0.0,-0.0,-1.0,0.1759947033193272,1.0,1.0
32.91636276245117,-25.662731170654297,0.8619786500930786,-0.0,-0.0,-1.0,0.1369963077333594,1.0,1.0
33.56722640991211,-25.58003616333008,0.94976806640625,0.95893277151459,-0.153634501515974,-0.2384205940334961,0.1081673401811567,3.0,1.0
33.624149322509766,-25.552513122558594,0.9455859661102296,-0.0,-0.0,-1.0,0.1058638169038562,2.0,1.0
34.84468078613281,-25.894603729248047,0.7234945297241211,-0.0,-0.0,-1.0,0.0994348238022482,2.0,1.0
33.02571105957031,-25.26073455810547,0.7483309507369995,-0.0,-0.0,-1.0,0.0850810937593996,1.0,1.0
35.202484130859375,-25.517162322998047,0.7103955745697021,-0.0,-0.0,-1.0,0.1380313507271814,1.0,1.0
33.95050811767578,-25.009855270385746,0.641533613204956,-0.0,-0.0,-1.0,0.0718592501004535,2.0,1.0
34.4201774597168,-25.12114715576172,0.8820796012878418,-0.0,-0.0,-1.0,0.179727768052442,2.0,1.0
33.198055267333984,-24.47670555114746,0.8499619960784912,-0.8237874729580639,0.5236211490301894,0.2172443133563481,0.2097679571198717,3.0,1.0
35.20389938354492,-24.59598922729492,0.8104981184005737,-0.0,-0.0,-1.0,0.1340183348573165,1.0,1.0
35.17403030395508,-24.38115119934082,0.6728686094284058,-0.0,-0.0,-1.0,0.1249389867553641,1.0,1.0
33.53916549682617,-26.711212158203125,1.1674565076828003,-0.0,-0.0,-1.0,0.1862779205272405,2.0,2.0
33.60744094848633,-26.576229095458984,1.174227595329285,-0.0,-0.0,-1.0,0.1843291358337379,2.0,2.0
33.65217208862305,-25.505922317504883,1.278836727142334,-0.672235493486845,-0.1509237462591487,-0.7247906346743189,0.0563609507636094,5.0,2.0
33.208194732666016,-24.459732055664062,1.1455568075180054,0.692440551545084,-0.7185756388117216,-0.0646152759203758,0.09734432455812,5.0,2.0
32.906646728515625,-26.704254150390625,0.6803209781646729,-0.0,-0.0,-1.0,0.1068093367661237,1.0,1.0
33.083457946777344,-26.5134220123291,0.694530725479126,-0.0,-0.0,-1.0,0.1439855310693676,1.0,1.0
34.4661979675293,-26.085887908935547,0.5798747539520264,-0.0,-0.0,-1.0,0.094872391539048,1.0,1.0
34.60500717163086,-26.101207733154297,0.5558047294616699,-0.0,-0.0,-1.0,0.0668608387999181,1.0,1.0
34.12181854248047,-25.836679458618164,0.6730060577392578,-0.0,-0.0,-1.0,0.1590700213948043,2.0,1.0
34.35409164428711,-25.975101470947266,0.6151032447814941,-0.0,-0.0,-1.0,0.0598429304362869,1.0,1.0
34.73560333251953,-25.9981689453125,0.5514378547668457,-0.0,-0.0,-1.0,0.1672144945956868,1.0,1.0
35.06985092163086,-25.884048461914062,0.514031171798706,-0.0,-0.0,-1.0,0.1797137597818123,1.0,1.0
33.51231002807617,-26.603836059570312,0.9742529392242432,-0.1465471215807097,-0.0961647428200678,-0.984518300182764,0.1533075545911715,5.0,1.0
33.95927047729492,-26.63941192626953,0.9171571731567384,-0.0,-0.0,-1.0,0.1696660037195182,1.0,1.0
34.751365661621094,-26.624515533447266,0.8168375492095947,0.0373761775804415,-0.1827627749698831,-0.9824463290352218,0.2119646140562164,3.0,1.0
32.805397033691406,-26.05487823486328,0.8087019920349121,-0.0,-0.0,-1.0,0.1556640325069881,1.0,1.0
33.02610778808594,-26.157432556152344,0.7647953033447266,-0.0,-0.0,-1.0,0.1468568733118355,1.0,1.0
33.290130615234375,-25.58255386352539,0.832858681678772,-0.0,-0.0,-1.0,0.175982283304468,1.0,1.0
33.55720520019531,-25.812999725341797,0.757422924041748,-0.0,-0.0,-1.0,0.1374889154011331,1.0,1.0
34.0422248840332,-25.77855110168457,0.6944576501846313,-0.0,-0.0,-1.0,0.2319031624996298,1.0,1.0
34.74696350097656,-25.854572296142575,0.9165537357330322,-0.0,-0.0,-1.0,0.1754028690911762,2.0,1.0
34.99873733520508,-25.886539459228516,0.8757026195526123,-0.0,-0.0,-1.0,0.1519761455839167,1.0,1.0
33.924983978271484,-25.24473571777344,0.7999589443206787,-0.0,-0.0,-1.0,0.2011401976858239,1.0,1.0
32.79182815551758,-24.81659698486328,1.0304410457611084,-0.085018815634732,-0.9133387801924038,-0.3982261588403247,0.1209983187690124,3.0,2.0
34.83591842651367,-24.989425659179688,0.6901508569717407,-0.0,-0.0,-1.0,0.1500168274838126,1.0,1.0
33.19222640991211,-24.524723052978516,1.0272496938705444,0.5380270125818,-0.833760606003223,0.1239765526599392,0.1664469215565717,4.0,2.0
35.004791259765625,-24.67658805847168,0.7053935527801514,0.2838419805436874,-0.5151315436576093,-0.8087479352740046,0.0962208268052736,3.0,1.0
33.651302337646484,-26.730224609375,1.2908556461334229,-0.0,-0.0,-1.0,0.1621496576760848,2.0,2.0
33.57931900024414,-26.639650344848633,1.3078598976135254,0.5053438025023792,-0.8582385143457759,0.0897457172571019,0.1370274583041371,3.0,2.0
33.598628997802734,-25.56485366821289,1.1090941429138184,-0.0,-0.0,-1.0,0.0954234536052256,2.0,2.0
33.74351119995117,-25.40667724609375,1.420600175857544,-0.4337830894534784,-0.6110329248132456,-0.6621714250089373,0.0654117400397348,3.0,2.0
33.13465118408203,-24.46102523803711,1.0461333990097046,0.5984750229815076,-0.7952737399804891,-0.0967849438948508,0.185675184356247,4.0,2.0
33.25750732421875,-24.430830001831055,1.0336370468139648,0.3130419585731586,-0.1389034420812073,-0.9395267776655828,0.1799336888953614,3.0,2.0
33.313472747802734,-26.69843292236328,0.8041591644287109,-0.7989694810022294,-0.5818601786619929,-0.1519424263149112,0.2006244776192009,3.0,1.0
34.67230987548828,-26.830921173095703,0.6254723072052002,-0.0,-0.0,-1.0,0.0836729945546252,1.0,1.0
34.8745231628418,-26.703617095947266,0.6199464797973633,-0.0,-0.0,-1.0,0.1128247957729073,1.0,1.0
35.11079406738281,-26.21859359741211,0.6674208641052246,-0.0,-0.0,-1.0,0.195243139967686,1.0,1.0
33.19108581542969,-26.59169006347656,0.8353354930877686,-0.0,-0.0,-1.0,0.194271285747797,2.0,1.0
33.64542007446289,-26.5527286529541,1.126685619354248,-0.2439931740303718,0.4626088583327923,-0.852326448738167,0.155517817572207,4.0,2.0
34.76038360595703,-26.622892379760746,0.9959242343902588,-0.0,-0.0,-1.0,0.1479180006960374,1.0,1.0
32.92441177368164,-25.95962905883789,0.9758684635162354,-0.0,-0.0,-1.0,0.1697859983566444,2.0,1.0
33.95362091064453,-26.330528259277344,0.8017895221710205,-0.0,-0.0,-1.0,0.0280737212502293,1.0,1.0
34.06707763671875,-26.190021514892575,0.8128563165664673,-0.0,-0.0,-1.0,0.0617792791979657,2.0,1.0
34.43719482421875,-25.116308212280273,0.9475455284118652,-0.0457419930675359,-0.4546180280847941,-0.8895111683450089,0.1331126903457929,3.0,1.0
34.934757232666016,-24.963960647583008,0.8971377611160278,0.5535241081908078,-0.6470787117510063,-0.5243092622205231,0.2023131296280374,3.0,1.0
35.0987663269043,-25.179359436035156,0.8368997573852539,-0.0,-0.0,-1.0,0.0786146694797907,1.0,1.0
33.6940803527832,-25.50808334350586,1.272061467170715,-0.0,-0.0,-1.0,0.0624628395792337,2.0,2.0
34.48664093017578,-25.08953857421875,1.236884832382202,-0.3747426548624148,-0.3933744287584297,-0.8395382668024419,0.0488347710088725,4.0,2.0
34.54910659790039,-25.157981872558594,1.2197202444076538,-0.0,-0.0,-1.0,0.0516389618512917,1.0,2.0
33.265769958496094,-24.437450408935547,1.2163480520248413,-0.0,-0.0,-1.0,0.1945985418569852,2.0,2.0
33.45570755004883,-26.80988883972168,0.8671822547912598,-0.0,-0.0,-1.0,0.1084516601150945,1.0,1.0
32.92692565917969,-26.091562271118164,0.7447351217269897,-0.0,-0.0,-1.0,0.171232871553192,2.0,1.0
32.95972442626953,-26.156648635864254,0.7275241613388062,-0.0,-0.0,-1.0,0.1397183506895476,1.0,1.0
35.098636627197266,-26.798168182373047,0.7423359155654907,-0.0,-0.0,-1.0,0.1066426756146648,2.0,1.0
32.962886810302734,-25.91605758666992,0.7851037979125977,-0.0,-0.0,-1.0,0.1468007108236927,1.0,1.0
33.044273376464844,-25.898427963256836,0.7851477861404419,-0.0,-0.0,-1.0,0.1202962784448225,1.0,1.0
33.657562255859375,-25.866769790649418,0.7540715932846069,-0.0,-0.0,-1.0,0.085562807157887,1.0,1.0
33.94336700439453,-25.96496200561523,0.7088180780410767,-0.0,-0.0,-1.0,0.102888427834662,1.0,1.0
34.342864990234375,-26.218502044677734,0.614548921585083,-0.0,-0.0,-1.0,0.0483903910738475,1.0,1.0
34.769046783447266,-26.13170623779297,0.592149019241333,-0.0,-0.0,-1.0,0.1020707886395679,1.0,1.0
35.12894821166992,-26.498809814453125,0.7970755100250244,-0.0,-0.0,-1.0,0.0630406428800282,1.0,1.0
33.1099967956543,-25.650588989257812,0.840961217880249,-0.0,-0.0,-1.0,0.18731530353806,1.0,1.0
33.94969940185547,-25.854259490966797,0.7343785762786865,-0.0,-0.0,-1.0,0.1565517614540309,1.0,1.0
34.91947555541992,-26.032793045043945,0.5979983806610107,-0.0,-0.0,-1.0,0.1654662969249038,1.0,1.0
35.152976989746094,-25.941762924194336,0.5917527675628662,-0.0,-0.0,-1.0,0.1871927526636647,1.0,1.0
34.316864013671875,-25.299121856689453,0.8301537036895752,-0.0,-0.0,-1.0,0.1280114301656182,2.0,1.0
