x,y,z,nx,ny,nz,curvature,density,label
14.846662521362305,-21.738147735595703,1.448033332824707,-0.0,-0.0,-1.0,0.2386166318822991,1.0,2.0
13.195658683776855,-19.618186950683594,1.2085236310958862,-0.0,-0.0,-1.0,0.259923042597534,1.0,2.0
13.563156127929688,-19.85305404663086,1.2692251205444336,-0.0,-0.0,-1.0,0.2271366039732546,1.0,2.0
13.969276428222656,-20.250112533569336,1.335667848587036,-0.0,-0.0,-1.0,0.1605823036306478,1.0,2.0
14.233515739440918,-20.515640258789062,1.3758587837219238,-0.0,-0.0,-1.0,0.1954927905209658,2.0,2.0
14.316725730895996,-20.86650848388672,1.387363076210022,-0.0,-0.0,-1.0,0.2063168963253318,1.0,2.0
14.514795303344728,-21.16937828063965,1.4128873348236084,-0.0,-0.0,-1.0,0.1948527074836158,2.0,2.0
15.040270805358888,-21.42158889770508,1.480823040008545,-0.0,-0.0,-1.0,0.2436370452034514,2.0,2.0
13.506475448608398,-19.40763282775879,1.2504551410675049,-0.0,-0.0,-1.0,0.1627624232113163,1.0,2.0
13.765915870666504,-19.65764808654785,1.2961533069610596,-0.0,-0.0,-1.0,0.1508942861670162,1.0,2.0
14.074867248535156,-20.027494430541992,1.3489419221878052,-0.0,-0.0,-1.0,0.1814848034629616,2.0,2.0
14.365984916687012,-20.258068084716797,1.394172430038452,-0.0,-0.0,-1.0,0.1274019768511146,2.0,2.0
14.48399257659912,-19.93927764892578,1.408836841583252,-0.0,-0.0,-1.0,0.191130747923558,1.0,2.0
15.01930809020996,-20.079648971557617,1.1903506517410278,-0.0,-0.0,-1.0,0.0749053953277062,1.0,2.0
15.151721000671388,-20.725791931152344,1.5065438747406006,-0.0,-0.0,-1.0,0.136892444493133,1.0,2.0
14.678096771240234,-19.530284881591797,1.279387354850769,-0.0,-0.0,-1.0,0.1981459058228814,2.0,2.0
15.055768013000488,-19.664812088012695,1.347048282623291,-0.0,-0.0,-1.0,0.2108259418285705,1.0,2.0
13.291488647460938,-21.81987571716309,1.9847760200500488,-0.0,-0.0,-1.0,0.2068912869239886,2.0,2.0
13.89614486694336,-21.815135955810547,1.853242039680481,-0.0,-0.0,-1.0,0.2246455425332961,1.0,2.0
13.909095764160156,-21.702293395996097,1.6766719818115234,-0.0,-0.0,-1.0,0.2695519647907683,1.0,2.0
13.161620140075684,-19.971559524536133,1.9234395027160645,-0.0,-0.0,-1.0,0.1180527373482171,1.0,2.0
13.282819747924805,-19.54706573486328,1.7430834770202637,-0.0,-0.0,-1.0,0.1852444791296228,1.0,2.0
13.610599517822266,-19.759490966796875,1.6149559020996094,-0.0,-0.0,-1.0,0.2354587778859995,1.0,2.0
14.019742012023926,-20.20926284790039,1.6735889911651611,-0.0,-0.0,-1.0,0.1115228570317785,2.0,2.0
14.932313919067385,-21.41932678222656,1.784196376800537,-0.0,-0.0,-1.0,0.1448864584023558,1.0,2.0
13.526741027832031,-19.404611587524418,1.5935757160186768,-0.0,-0.0,-1.0,0.1262183142822433,1.0,2.0
13.809696197509766,-19.66921615600586,1.6355780363082886,-0.0,-0.0,-1.0,0.2127498899697992,1.0,2.0
15.062124252319336,-19.576030731201172,1.7790768146514893,-0.0,-0.0,-1.0,0.1016489765124197,2.0,2.0
14.204069137573242,-21.622276306152344,2.0495405197143555,-0.0,-0.0,-1.0,0.115421436823664,1.0,3.0
13.491127014160156,-19.62973403930664,1.9374780654907229,-0.9818987393072688,-0.1412926951282929,0.1261397639532398,0.1372908520467064,4.0,2.0
13.601350784301758,-19.893274307250977,1.9568976163864136,-0.0,-0.0,-1.0,0.0925292101280088,1.0,2.0
12.810976028442385,-21.70917320251465,1.4327651262283323,-0.618982549961481,0.1939541549977862,-0.761079751801529,0.2007634744782792,3.0,2.0
12.728347778320312,-21.36666679382324,1.4188315868377686,-0.0,-0.0,-1.0,0.1507409983583477,1.0,2.0
13.03716278076172,-21.662109375,1.4599316120147705,-0.0,-0.0,-1.0,0.2144275716065188,1.0,2.0
13.368894577026367,-21.79984664916992,1.5009269714355469,-0.0,-0.0,-1.0,0.1148368431442107,1.0,2.0
12.956443786621094,-21.005172729492188,1.4417983293533323,-0.0,-0.0,-1.0,0.1861714645518926,1.0,2.0
13.431352615356444,-21.599328994750977,1.5073895454406738,-0.3446581315634644,0.7654401893370603,-0.5434262497292778,0.2236451193058238,3.0,2.0
13.944732666015623,-21.733722686767575,1.569633960723877,-0.0,-0.0,-1.0,0.1889696825169407,2.0,2.0
12.835875511169434,-20.582733154296875,1.4181691408157349,-0.0,-0.0,-1.0,0.171855846630801,2.0,2.0
12.996858596801758,-20.757747650146484,1.4423739910125732,-0.0,-0.0,-1.0,0.099135260554182,1.0,2.0
13.485268592834473,-20.94049835205078,1.1394331455230713,-0.0,-0.0,-1.0,0.1283434781446423,1.0,2.0
13.690618515014648,-21.05124282836914,1.353745698928833,-0.0,-0.0,-1.0,0.1231495496438622,1.0,2.0
13.376923561096191,-20.20301628112793,1.4782898426055908,-0.0,-0.0,-1.0,0.2652780447182659,1.0,2.0
14.074111938476562,-20.853248596191406,1.2320677042007446,-0.0,-0.0,-1.0,0.2081083283717153,1.0,2.0
14.37371826171875,-21.025421142578125,1.2783633470535278,-0.0,-0.0,-1.0,0.1289162670019153,1.0,2.0
14.762600898742676,-21.16987419128418,1.33703875541687,-0.0,-0.0,-1.0,0.1710694774074418,1.0,2.0
15.155285835266112,-21.48907470703125,1.3913133144378662,-0.0,-0.0,-1.0,0.1521950884383201,1.0,2.0
13.280525207519531,-20.011919021606445,1.4606671333312988,-0.0,-0.0,-1.0,0.2353868973024304,1.0,2.0
14.28717041015625,-20.543113708496097,1.264946222305298,-0.0,-0.0,-1.0,0.1998788497566847,1.0,2.0
14.37951374053955,-20.799394607543945,1.279990553855896,-0.0,-0.0,-1.0,0.1504501229271375,1.0,2.0
14.77765941619873,-21.04781150817871,1.3405351638793943,-0.0,-0.0,-1.0,0.1720038714140105,1.0,2.0
13.885197639465332,-19.76180076599121,1.1901562213897705,-0.0,-0.0,-1.0,0.1656350363299328,2.0,2.0
14.350849151611328,-20.211559295654297,1.2726212739944458,-0.0,-0.0,-1.0,0.2217660663058922,1.0,2.0
14.757336616516112,-19.73890495300293,1.332335114479065,-0.0,-0.0,-1.0,0.1430132946541027,1.0,2.0
15.00556755065918,-19.939300537109375,1.3753046989440918,-0.0,-0.0,-1.0,0.0851913844602352,1.0,2.0
14.915933609008787,-19.568897247314453,1.35516357421875,-0.0,-0.0,-1.0,0.2030755921483308,1.0,2.0
15.19294548034668,-19.76607322692871,1.25532865524292,-0.0,-0.0,-1.0,0.19750890267469,1.0,2.0
12.746781349182127,-21.75136947631836,1.8247041702270508,-0.0,-0.0,-1.0,0.1748679518416527,1.0,2.0
12.787516593933104,-21.41883087158203,1.8204667568206787,-0.0,-0.0,-1.0,0.243382232126105,1.0,2.0
13.12808895111084,-21.81374740600586,1.85998797416687,-0.3472948060643014,0.912295052691768,0.2170346850503001,0.2095247033210638,3.0,2.0
13.786338806152344,-21.806636810302734,1.9177260398864744,-0.0,-0.0,-1.0,0.2005085844471584,2.0,2.0
13.98451042175293,-21.586416244506836,1.7531325817108154,-0.0,-0.0,-1.0,0.2151698768575591,2.0,2.0
14.294262886047363,-21.83582305908203,1.7868614196777344,-0.0,-0.0,-1.0,0.0786509448508139,1.0,2.0
13.887574195861816,-21.05146598815918,1.5581529140472412,-0.0,-0.0,-1.0,0.1132079705216459,1.0,2.0
14.206707954406738,-20.9923038482666,1.5968420505523682,-0.0,-0.0,-1.0,0.2428564641694606,1.0,2.0
14.57936668395996,-21.15099716186523,1.643484354019165,-0.0,-0.0,-1.0,0.1912706498214206,1.0,2.0
14.974528312683104,-21.437620162963867,1.6912353038787842,-0.0,-0.0,-1.0,0.1442823118453742,1.0,2.0
13.69595432281494,-20.319103240966797,1.5218836069107056,-0.0,-0.0,-1.0,0.1181839925999021,1.0,2.0
15.157017707824709,-19.382308959960938,1.3908710479736328,-0.0,-0.0,-1.0,0.1315406831939953,1.0,2.0
13.15919017791748,-21.792909622192383,2.2470285892486572,-0.0,-0.0,-1.0,0.206839495828644,1.0,3.0
12.81102466583252,-20.836090087890625,2.1900999546051025,-0.0,-0.0,-1.0,0.1080764747126321,1.0,3.0
13.91234302520752,-21.727455139160156,2.287076234817505,-0.0,-0.0,-1.0,0.1077289911784459,1.0,3.0
14.521913528442385,-21.333892822265625,1.973656177520752,0.9456141229511452,-0.3137198287819265,-0.0859872054690416,0.1432229003248926,5.0,2.0
14.96291160583496,-21.65677261352539,2.0167646408081055,-0.0,-0.0,-1.0,0.1060148627616072,1.0,3.0
14.069993019104004,-20.9883975982666,1.9260162115097048,-0.0,-0.0,-1.0,0.0856635411219955,2.0,2.0
14.6264009475708,-21.07016944885254,1.977728247642517,-0.0,-0.0,-1.0,0.1644053335871982,2.0,2.0
15.041747093200684,-21.480175018310547,2.021087646484375,-0.0,-0.0,-1.0,0.1891700571848799,1.0,3.0
14.258222579956056,-20.24620056152344,1.9225785732269287,-0.0,-0.0,-1.0,0.1180210263326783,1.0,2.0
14.855178833007812,-21.53577995300293,1.7626769542694092,-0.0,-0.0,-1.0,0.0800929451646041,1.0,2.0
15.165164947509766,-21.773632049560547,1.7810567617416382,-0.0,-0.0,-1.0,0.1357969117903627,1.0,2.0
14.914590835571287,-20.719467163085938,1.222122311592102,-0.0,-0.0,-1.0,0.1975369417588183,1.0,2.0
15.082733154296877,-21.049850463867188,1.2382147312164309,-0.0,-0.0,-1.0,0.2110771518380871,1.0,2.0
15.133129119873049,-21.245716094970703,1.2436847686767578,-0.0,-0.0,-1.0,0.1582243303930754,1.0,2.0
15.130455017089844,-20.8297176361084,1.2400615215301514,-0.0,-0.0,-1.0,0.1349211608086572,1.0,2.0
12.904619216918944,-21.4739990234375,1.7956664562225342,-0.0,-0.0,-1.0,0.2428678394398247,1.0,2.0
12.979207992553713,-21.728809356689453,1.801679611206055,-0.0,-0.0,-1.0,0.2447210143864547,1.0,2.0
12.824346542358398,-21.02420997619629,1.7868833541870115,-0.0,-0.0,-1.0,0.1441080381629784,1.0,2.0
13.162534713745115,-21.2789306640625,1.8045923709869385,-0.0,-0.0,-1.0,0.1700413376360778,1.0,2.0
13.529964447021484,-21.09969139099121,1.8183701038360596,-0.0,-0.0,-1.0,0.1736559324117274,1.0,2.0
15.032556533813477,-21.664417266845703,1.889515399932861,-0.0,-0.0,-1.0,0.1529836760713392,1.0,2.0
13.758695602416992,-19.567138671875,1.8068166971206665,-0.0,-0.0,-1.0,0.1096015485563598,1.0,2.0
14.10784149169922,-19.626937866210938,1.822970628738403,-0.0,-0.0,-1.0,0.1129869089480583,1.0,2.0
14.94777488708496,-20.764461517333984,1.8756698369979856,-0.0,-0.0,-1.0,0.1051256566343,1.0,2.0
15.045391082763672,-20.950218200683594,1.882179617881775,-0.0,-0.0,-1.0,0.1918050363236736,1.0,2.0
12.891349792480469,-20.518247604370117,1.3040227890014648,-0.0,-0.0,-1.0,0.2399929925400096,1.0,2.0
13.310338973999023,-19.758779525756836,1.3127672672271729,-0.0,-0.0,-1.0,0.1984090271939629,1.0,2.0
13.880817413330078,-20.013187408447266,1.3557171821594238,-0.0,-0.0,-1.0,0.2406063939776934,1.0,2.0
14.103017807006836,-20.500484466552734,1.381316900253296,-0.0,-0.0,-1.0,0.1521971738719481,1.0,2.0
14.131141662597656,-20.323707580566406,1.3791286945343018,-0.0,-0.0,-1.0,0.1858373776392236,2.0,2.0
14.859359741210938,-21.193986892700195,1.4442598819732666,-0.0,-0.0,-1.0,0.2603318690414988,2.0,2.0
14.834760665893556,-21.40900421142578,1.4466922283172607,-0.0,-0.0,-1.0,0.2279111934521127,2.0,2.0
14.35379409790039,-19.884300231933594,1.3828539848327637,0.7560737108739861,0.6431006017494593,-0.1215490014550634,0.1738100487637824,3.0,2.0
15.149137496948242,-21.373435974121097,1.4661892652511597,-0.0,-0.0,-1.0,0.2440209364626761,1.0,2.0
14.69583511352539,-19.45587921142578,1.3936349153518677,-0.0,-0.0,-1.0,0.2177761006053591,1.0,2.0
14.78109359741211,-19.52293586730957,1.4009051322937012,-0.0,-0.0,-1.0,0.1625419787241459,2.0,2.0
15.09861946105957,-19.53568649291992,1.4215538501739502,-0.0,-0.0,-1.0,0.1689167201774237,2.0,2.0
13.077665328979492,-21.842330932617188,2.0750460624694824,-0.0,-0.0,-1.0,0.1553019916798585,2.0,3.0
12.855436325073242,-19.802745819091797,2.0236003398895264,0.4566476434382641,0.853886126963592,0.2497026470051869,0.1118746278134992,4.0,3.0
13.609291076660156,-21.657819747924805,2.0868191719055176,-0.0,-0.0,-1.0,0.1462025603819674,2.0,3.0
13.96368408203125,-21.565942764282227,2.0952577590942383,-0.0,-0.0,-1.0,0.1666380379363974,2.0,3.0
14.326847076416016,-21.81382179260254,2.1107044219970703,-0.0,-0.0,-1.0,0.0941839379033946,2.0,3.0
15.153753280639648,-21.499706268310547,1.2977278232574463,-0.0,-0.0,-1.0,0.162076598480564,1.0,2.0
15.181610107421877,-21.765501022338867,1.3041213750839231,-0.5261896274020107,-0.6598309092337634,-0.5364211472660991,0.2362763121559533,3.0,2.0
12.986417770385742,-19.948169708251953,1.85706627368927,-0.0,-0.0,-1.0,0.1004398264162003,1.0,2.0
13.101139068603516,-19.466632843017575,1.852137804031372,-0.0,-0.0,-1.0,0.1660443450340169,1.0,2.0
13.348413467407228,-19.59322929382324,1.8638150691986084,-0.0,-0.0,-1.0,0.1272129515177978,1.0,2.0
13.463895797729492,-21.77724266052246,1.9081737995147705,-0.0,-0.0,-1.0,0.1704963651218257,1.0,2.0
13.461713790893556,-19.757787704467773,1.8712033033370972,-0.0,-0.0,-1.0,0.1110093013662922,1.0,2.0
14.759056091308594,-21.561113357543945,1.952808856964111,-0.0,-0.0,-1.0,0.1194975135987865,1.0,2.0
14.994375228881836,-21.51947975158691,1.9608662128448489,-0.0,-0.0,-1.0,0.2157990536693146,1.0,2.0
15.081567764282228,-19.53342056274414,1.2871922254562378,-0.0,-0.0,-1.0,0.142239463028463,1.0,2.0
15.047128677368164,-21.266462326049805,1.3265864849090576,-0.0,-0.0,-1.0,0.1377803822170976,2.0,2.0
15.146217346191406,-21.334178924560547,1.335025191307068,-0.0,-0.0,-1.0,0.192556399823387,2.0,2.0
15.095970153808594,-21.501323699951172,1.3350452184677124,-0.0,-0.0,-1.0,0.2131428986163647,2.0,2.0
12.968843460083008,-19.890119552612305,1.8950518369674685,-0.0,-0.0,-1.0,0.0746018051701774,1.0,2.0
12.836484909057615,-21.81869125366211,1.932154655456543,-0.0,-0.0,-1.0,0.183165170315225,1.0,2.0
13.298688888549805,-19.479707717895508,1.897397756576538,-0.0,-0.0,-1.0,0.1766533658193775,2.0,2.0
13.296697616577148,-19.77474021911621,1.904021978378296,-0.0,-0.0,-1.0,0.0727383011951631,1.0,2.0
13.463386535644531,-20.360027313232425,1.9229778051376345,-0.0,-0.0,-1.0,0.1625720113499756,1.0,2.0
13.684659957885742,-19.66849899291992,1.9153069257736208,-0.0,-0.0,-1.0,0.0971623427922519,1.0,2.0
13.629289627075195,-19.801361083984375,1.9163599014282229,-0.0,-0.0,-1.0,0.0796932414809003,1.0,2.0
14.070001602172852,-20.254423141479492,1.9420595169067385,-0.0,-0.0,-1.0,0.1294538032690281,1.0,2.0
13.910066604614258,-21.02701759338379,1.9533095359802248,-0.0,-0.0,-1.0,0.1010637225158966,1.0,2.0
14.129257202148438,-21.586448669433594,1.9729708433151243,-0.0,-0.0,-1.0,0.0748507980831211,1.0,2.0
15.128950119018556,-21.355993270874023,1.2527823448181152,-0.0,-0.0,-1.0,0.1569489409363648,1.0,2.0
15.10689926147461,-21.640554428100582,1.2588050365447998,0.7308839200132137,-0.0501437984404997,-0.6806572521791541,0.1770506841134788,3.0,2.0
13.068626403808594,-19.37488174438477,1.7845498323440552,-0.0,-0.0,-1.0,0.1046345450477558,1.0,2.0
13.333845138549805,-19.48011016845703,1.7977900505065918,-0.0,-0.0,-1.0,0.1721200860353698,1.0,2.0
13.005084991455078,-21.80480575561523,1.847133994102478,-0.0,-0.0,-1.0,0.1656372690931251,2.0,2.0
13.87912940979004,-21.458280563354492,1.8722679615020752,-0.0,-0.0,-1.0,0.1666651742925467,2.0,2.0
13.809600830078123,-21.669607162475582,1.8750449419021609,-0.0,-0.0,-1.0,0.2675507391797235,1.0,2.0
14.747957229614258,-21.405574798583984,1.904801845550537,-0.0,-0.0,-1.0,0.1593552437933509,1.0,2.0
15.046035766601562,-21.44778633117676,1.9175333976745603,-0.0,-0.0,-1.0,0.2195751446203621,1.0,2.0
13.12213897705078,-19.41082763671875,1.434849500656128,-0.0,-0.0,-1.0,0.132105651753788,1.0,2.0
12.777667999267578,-19.654052734375,1.427104949951172,-0.0,-0.0,-1.0,0.1715233342003916,1.0,2.0
13.57950210571289,-19.64880752563477,1.469353437423706,-0.0,-0.0,-1.0,0.1566540657969853,1.0,2.0
13.226680755615234,-19.856027603149418,1.4595109224319458,-0.0,-0.0,-1.0,0.2122631151341736,1.0,2.0
12.783946990966797,-20.57830047607422,1.465942144393921,-0.0,-0.0,-1.0,0.1507079446311697,1.0,2.0
13.927495956420898,-21.610437393188477,1.5674667358398438,-0.0,-0.0,-1.0,0.149739839857912,2.0,2.0
13.798892974853516,-21.655576705932617,2.265969753265381,-0.0,-0.0,-1.0,0.2098828873500747,1.0,3.0
15.116680145263672,-21.310062408447266,1.29796302318573,-0.0,-0.0,-1.0,0.1675604373118935,1.0,2.0
13.410987854003906,-19.514787673950195,1.8373533487319944,-0.0,-0.0,-1.0,0.1512817736432585,1.0,2.0
13.708982467651367,-19.69801902770996,1.8535401821136477,-0.0,-0.0,-1.0,0.1171040095450823,1.0,2.0
13.585189819335938,-20.17770004272461,1.8616433143615725,-0.0,-0.0,-1.0,0.1319003989462439,1.0,2.0
14.14565658569336,-20.106401443481445,1.880865454673767,-0.0,-0.0,-1.0,0.1142928889946812,1.0,2.0
13.67943000793457,-21.65593910217285,1.9007607698440552,-0.0,-0.0,-1.0,0.2099512159481025,1.0,2.0
14.711389541625977,-21.441389083862305,1.9350864887237549,-0.0,-0.0,-1.0,0.1135338987981349,1.0,2.0
14.127365112304688,-21.539905548095703,1.9151694774627688,-0.0,-0.0,-1.0,0.1470554320289013,1.0,2.0
15.104652404785156,-21.529340744018555,1.9520022869110107,-0.0,-0.0,-1.0,0.181297569180468,1.0,2.0
13.63213348388672,-19.567197799682617,1.3135627508163452,-0.0,-0.0,-1.0,0.2090812067630804,2.0,2.0
13.40797233581543,-19.59885025024414,1.299373745918274,-0.0,-0.0,-1.0,0.1644513191144221,2.0,2.0
13.617347717285156,-19.77412796020508,1.316590428352356,-0.0,-0.0,-1.0,0.1431828350792715,1.0,2.0
14.808710098266602,-19.60891914367676,1.392017126083374,-0.0,-0.0,-1.0,0.1404322209103938,2.0,2.0
14.056756973266602,-19.944664001464844,1.3488786220550537,-0.0,-0.0,-1.0,0.1866761433449931,1.0,2.0
14.143613815307615,-20.729263305664062,1.3677971363067627,-0.0,-0.0,-1.0,0.2198133140062907,1.0,2.0
14.749967575073242,-21.703706741333008,1.4209789037704468,-0.0,-0.0,-1.0,0.1604908042879775,1.0,2.0
15.1796875,-19.67548942565918,1.417857050895691,0.8813960386191788,0.3530474116699839,-0.3138447836423983,0.2642966219047082,4.0,2.0
15.13747215270996,-21.032997131347656,1.4386086463928225,-0.0,-0.0,-1.0,0.1897707728459863,1.0,2.0
15.073728561401367,-21.124608993530273,1.435615301132202,-0.0,-0.0,-1.0,0.1727665882330074,2.0,2.0
15.036039352416992,-21.374847412109375,1.4363446235656738,-0.0,-0.0,-1.0,0.2058831469761339,1.0,2.0
12.933921813964844,-19.826181411743164,1.9865334033966064,-0.0,-0.0,-1.0,0.1118746278134992,2.0,2.0
12.751958847045898,-20.517555236816406,1.9889768362045288,-0.0,-0.0,-1.0,0.0799160222237627,1.0,2.0
13.899969100952148,-20.82132148742676,2.0289950370788574,-0.0,-0.0,-1.0,0.1734073618281843,1.0,3.0
13.454158782958984,-21.60417938232422,2.0220837593078613,-0.0,-0.0,-1.0,0.1459500496484806,2.0,3.0
13.276735305786133,-21.76573181152344,2.0176663398742676,-0.8614615329056236,-0.2959546522935938,-0.4126679913800817,0.2349445720730763,3.0,3.0
12.94828987121582,-21.851451873779297,2.0077457427978516,-0.0,-0.0,-1.0,0.1394978188426024,2.0,3.0
14.019962310791016,-21.410608291625977,2.038618564605713,-0.0,-0.0,-1.0,0.2055760778894229,1.0,3.0
14.337005615234377,-21.796342849731445,2.0521178245544434,-0.0,-0.0,-1.0,0.0783852355802945,1.0,3.0
13.750925064086914,-19.40369415283203,1.644956111907959,-0.0,-0.0,-1.0,0.2166324835984301,1.0,2.0
13.236928939819336,-19.618717193603516,1.6274235248565674,-0.0,-0.0,-1.0,0.1049001314476655,1.0,2.0
14.616487503051758,-19.74141311645508,1.6953943967819214,-0.0,-0.0,-1.0,0.1992474551304894,1.0,2.0
12.973541259765623,-21.795276641845703,1.6727713346481323,0.8737573779333583,0.3733890935873895,-0.3116546635252072,0.2134789994565976,3.0,2.0
13.832643508911133,-21.636632919311523,2.367643117904663,-0.0,-0.0,-1.0,0.2203958227544343,1.0,3.0
13.526374816894531,-19.587736129760746,1.259438395500183,-0.0,-0.0,-1.0,0.1939080263688402,1.0,2.0
15.021322250366213,-19.64447975158691,1.3772624731063845,-0.0,-0.0,-1.0,0.169030051481878,2.0,2.0
14.478208541870115,-20.66286277770996,1.3186222314834597,-0.0,-0.0,-1.0,0.1139797696751614,1.0,2.0
15.097610473632812,-20.944063186645508,1.363255262374878,-0.0,-0.0,-1.0,0.202286832472179,1.0,2.0
15.017526626586914,-21.234966278076172,1.3510847091674805,-0.0,-0.0,-1.0,0.187051243251048,2.0,2.0
15.067567825317385,-21.582622528076172,1.347821831703186,-0.3359481087328817,-0.7951789183075636,-0.5048062560210725,0.1751382642794356,4.0,2.0
13.610481262207031,-19.619413375854492,1.9109747409820557,-0.0,-0.0,-1.0,0.1654001329545978,2.0,2.0
13.321752548217772,-19.48969268798828,1.9006397724151611,-0.0,-0.0,-1.0,0.1777919071808083,2.0,2.0
13.02598762512207,-19.698585510253903,1.8828293085098269,-0.0,-0.0,-1.0,0.1047551675715211,1.0,2.0
14.003223419189451,-20.028406143188477,1.919994115829468,-0.5332723755317493,-0.3505065480496159,-0.7699128088745291,0.1243197330724508,3.0,2.0
13.752347946166992,-21.314151763916016,1.8779255151748655,-0.0,-0.0,-1.0,0.2399841578660586,1.0,2.0
13.229019165039062,-21.313980102539062,1.85384464263916,-0.0,-0.0,-1.0,0.1700564430129318,1.0,2.0
14.935918807983398,-21.231035232543945,1.9344370365142824,0.0869955024183095,0.2204570426369697,-0.971509379733797,0.1295560538599765,3.0,2.0
14.61501693725586,-21.332855224609375,1.91712486743927,-0.0,-0.0,-1.0,0.1100076330438832,2.0,2.0
13.635002136230469,-21.49020004272461,1.8679523468017576,-0.0,-0.0,-1.0,0.2237390204057923,2.0,2.0
13.562509536743164,-21.545644760131836,1.8631519079208376,-0.0,-0.0,-1.0,0.2252000949165252,2.0,2.0
13.099435806274414,-21.818578720092773,1.8344459533691408,-0.3472948060643014,0.912295052691768,0.2170346850503001,0.2162010503301205,3.0,2.0
14.292863845825195,-21.687419891357425,1.8930689096450808,-0.0,-0.0,-1.0,0.0457497030811172,2.0,2.0
12.928707122802734,-19.557838439941406,1.4352225065231323,-0.0,-0.0,-1.0,0.2298383446050123,1.0,2.0
14.057708740234377,-19.961654663085938,1.5185234546661377,-0.0,-0.0,-1.0,0.0955113774876193,2.0,2.0
13.970354080200195,-20.670978546142575,1.5066924095153809,-0.0,-0.0,-1.0,0.1465546110156156,2.0,2.0
14.909100532531738,-21.141014099121097,1.5739715099334717,-0.0,-0.0,-1.0,0.2231136707335967,1.0,2.0
13.813714981079102,-21.41826438903809,1.4863979816436768,-0.0,-0.0,-1.0,0.1880044154735937,2.0,2.0
15.006779670715332,-21.36211395263672,1.5790834426879885,-0.271522860406526,-0.1442303257857064,-0.951563423740324,0.2884825401178058,3.0,2.0
12.78709602355957,-19.789958953857425,2.0621819496154785,-0.0,-0.0,-1.0,0.1118746278134992,2.0,3.0
13.973989486694336,-21.333202362060547,2.0876026153564453,0.7171457316952345,-0.2916145192092915,-0.6329794401855722,0.214285250321367,3.0,3.0
13.77629280090332,-21.481109619140625,2.0764966011047363,-0.0,-0.0,-1.0,0.1518106067943536,2.0,3.0
13.333650588989258,-21.657665252685547,2.0542807579040527,-0.0,-0.0,-1.0,0.2097751869336127,1.0,3.0
13.06386947631836,-21.764633178710938,2.040687084197998,-0.0,-0.0,-1.0,0.2628514692279455,2.0,3.0
14.270471572875977,-21.72905731201172,2.09293794631958,-0.6376550404190459,0.3531156832456657,-0.6846205983419807,0.0584011756550809,3.0,3.0
13.426973342895508,-19.576900482177734,1.349090576171875,-0.0,-0.0,-1.0,0.1622392223221874,1.0,2.0
13.986236572265623,-20.420976638793945,1.4159057140350342,-0.0,-0.0,-1.0,0.1947816976094543,1.0,2.0
14.060004234313965,-20.66907501220703,1.4254649877548218,-0.0,-0.0,-1.0,0.1916979591008839,2.0,2.0
14.991894721984863,-20.948108673095703,1.5244725942611694,-0.0,-0.0,-1.0,0.1998125698648451,1.0,2.0
13.843239784240724,-21.30829429626465,1.4054203033447266,-0.0,-0.0,-1.0,0.0815880426452092,1.0,2.0
15.00153923034668,-21.218795776367188,1.5269324779510498,-0.0,-0.0,-1.0,0.2293149123604941,1.0,2.0
14.964240074157717,-21.424238204956055,1.5237178802490234,-0.0,-0.0,-1.0,0.2700632066865626,1.0,2.0
14.601898193359377,-21.513050079345703,1.4857134819030762,-0.0,-0.0,-1.0,0.1973359964511309,1.0,2.0
13.306461334228516,-19.389724731445312,1.9349299669265747,-0.0,-0.0,-1.0,0.1495727906952013,1.0,2.0
13.54470443725586,-19.587438583374023,1.9519890546798704,-0.7966606065137852,0.5651874776197423,-0.2142311675992111,0.1449597168311108,3.0,2.0
13.138078689575195,-19.65389060974121,1.924149990081787,-0.0,-0.0,-1.0,0.1201940687941654,1.0,2.0
13.796586990356444,-19.964305877685547,1.9703254699707031,-0.1038599550183603,0.4316871553696725,-0.8960241679957213,0.1164317551688758,3.0,2.0
13.719647407531738,-20.002368927001953,1.9650564193725584,-0.1613876893403342,0.09716994837869,-0.9820957259154884,0.1727202315123042,3.0,2.0
13.908812522888184,-20.784704208374023,1.9779711961746216,-0.0,-0.0,-1.0,0.0890326419986317,2.0,2.0
13.666987419128418,-21.281328201293945,1.9590930938720703,-0.0,-0.0,-1.0,0.1849322105695567,2.0,2.0
13.180049896240234,-21.36335563659668,1.924086570739746,-0.0,-0.0,-1.0,0.1639417305618143,2.0,2.0
12.889984130859377,-21.6669979095459,1.9013484716415403,-0.0,-0.0,-1.0,0.2146188646518709,1.0,2.0
15.132795333862305,-21.30517578125,2.062658309936523,-0.0,-0.0,-1.0,0.1961115510224082,1.0,3.0
14.78701400756836,-21.326547622680664,2.0381274223327637,-0.0,-0.0,-1.0,0.1184236536330411,1.0,3.0
13.520513534545898,-21.543031692504883,1.947169065475464,-0.0,-0.0,-1.0,0.1918130473053056,2.0,2.0
13.062171936035156,-21.75181770324707,1.9129705429077148,-0.0,-0.0,-1.0,0.226373791592693,2.0,2.0
13.11184310913086,-19.379741668701172,1.3791064023971558,-0.0,-0.0,-1.0,0.1196073398072471,1.0,2.0
12.814913749694824,-19.735803604125977,1.35455584526062,-0.0,-0.0,-1.0,0.2116485254935835,1.0,2.0
13.01606559753418,-19.741193771362305,1.3760347366333008,-0.0,-0.0,-1.0,0.2013316284839646,2.0,2.0
12.760751724243164,-20.620494842529297,1.3616633415222168,-0.0,-0.0,-1.0,0.1250859540528583,1.0,2.0
14.826947212219238,-21.27335548400879,1.087028741836548,-0.0,-0.0,-1.0,0.2104200697492274,1.0,2.0
15.049356460571287,-21.283655166625977,1.1189663410186768,-0.0,-0.0,-1.0,0.1877254793883219,1.0,2.0
13.383477210998535,-19.447002410888672,1.409160614013672,-0.0,-0.0,-1.0,0.1318709943753908,2.0,2.0
13.324217796325684,-19.957841873168945,1.4126391410827637,-0.0,-0.0,-1.0,0.1193422181819609,2.0,2.0
14.128021240234377,-19.99588966369629,1.4987177848815918,-0.0,-0.0,-1.0,0.1438712983826301,1.0,2.0
14.109745025634766,-20.653736114501953,1.5075910091400146,-0.0,-0.0,-1.0,0.131206684426462,1.0,2.0
13.949462890625,-20.496740341186523,1.4880170822143557,-0.0,-0.0,-1.0,0.0997290047852138,1.0,2.0
14.023377418518066,-20.73867416381836,1.499450445175171,-0.0,-0.0,-1.0,0.1813619491179535,2.0,2.0
15.06147289276123,-21.087472915649418,1.6158745288848877,-0.0,-0.0,-1.0,0.1792506650177414,1.0,2.0
14.856736183166504,-21.081724166870117,1.5937082767486572,-0.0,-0.0,-1.0,0.2221018434217742,1.0,2.0
14.290444374084473,-21.136533737182617,1.5330681800842283,-0.0,-0.0,-1.0,0.2751487169265238,1.0,2.0
13.88775634765625,-21.328678131103516,1.4923672676086426,-0.0,-0.0,-1.0,0.2208190416457912,1.0,2.0
13.802131652832031,-21.52583694458008,1.4844707250595093,-0.0,-0.0,-1.0,0.1778747681109431,2.0,2.0
13.243298530578612,-21.591419219970703,1.4236555099487305,-0.0,-0.0,-1.0,0.1321803095834743,1.0,2.0
14.842334747314451,-21.357810974121097,1.595240831375122,-0.0,-0.0,-1.0,0.2002551260303052,1.0,2.0
13.491167068481444,-19.488862991333008,1.9866198301315308,-0.0,-0.0,-1.0,0.1244526965788457,1.0,2.0
13.23910903930664,-19.43033790588379,1.96789026260376,-0.0811519815830263,0.6644931558556102,-0.7428749569787636,0.1823911657971436,3.0,2.0
12.828435897827148,-19.80478286743164,1.9410152435302737,-0.1089843666002186,-0.1252331550777208,-0.98612325026136,0.1118746278134992,3.0,2.0
13.69214153289795,-20.025428771972656,2.0054807662963867,-0.0,-0.0,-1.0,0.1755048740219328,2.0,3.0
13.989364624023438,-21.36764335632324,2.0334410667419434,-0.0,-0.0,-1.0,0.2545092910853018,1.0,3.0
13.616459846496582,-21.47991943359375,2.0054564476013184,-0.0,-0.0,-1.0,0.1998801379556681,2.0,3.0
13.23850917816162,-21.59477424621582,1.9768894910812376,-0.0,-0.0,-1.0,0.2846176704960893,1.0,2.0
12.838502883911133,-21.626842498779297,1.9466930627822876,-0.0,-0.0,-1.0,0.2476054897027099,1.0,2.0
15.141833305358888,-20.998003005981445,1.2318768501281738,-0.0,-0.0,-1.0,0.1603370183585105,1.0,2.0
15.084009170532228,-21.291465759277344,1.2324596643447876,-0.0,-0.0,-1.0,0.1422501955750546,1.0,2.0
13.489230155944824,-19.445941925048828,1.4867535829544067,-0.0,-0.0,-1.0,0.1121791925859003,1.0,2.0
12.886630058288574,-19.608551025390625,1.4274170398712158,-0.0,-0.0,-1.0,0.2123760451172419,1.0,2.0
13.32320499420166,-19.95438003540039,1.481952667236328,-0.0,-0.0,-1.0,0.1725826568639083,1.0,2.0
13.177779197692873,-19.660797119140625,1.4595139026641846,0.5693530084541532,-0.7564814636784287,-0.321827511060112,0.2362908316809116,3.0,2.0
13.95481014251709,-19.863933563232425,1.5466761589050293,-0.0,-0.0,-1.0,0.2613190081575088,1.0,2.0
14.428464889526367,-20.8834228515625,1.6199233531951904,-0.0,-0.0,-1.0,0.1931885420824625,1.0,2.0
14.92943000793457,-21.103492736816406,1.6781165599822998,-0.0,-0.0,-1.0,0.1289447132435131,1.0,2.0
14.670117378234863,-21.211193084716797,1.651945948600769,-0.0,-0.0,-1.0,0.1591645800026712,1.0,2.0
13.789326667785645,-21.32725524902344,1.557705044746399,-0.0,-0.0,-1.0,0.2448126639386441,1.0,2.0
13.555500984191896,-21.55282974243164,1.5349429845809937,-0.0,-0.0,-1.0,0.1355582211492572,2.0,2.0
12.870687484741213,-19.729278564453125,1.9825005531311035,-0.1243320549921939,0.2846948515906541,-0.950521110538421,0.1118746278134992,3.0,2.0
13.72927474975586,-19.99689292907715,2.048389196395874,-0.0,-0.0,-1.0,0.1004365832238611,2.0,3.0
13.877612113952637,-21.356849670410156,2.070009708404541,-0.0,-0.0,-1.0,0.1960029322845777,2.0,3.0
13.16993236541748,-21.638500213623047,2.017091751098633,-0.5673623014244003,0.5289644924907246,-0.6311074271520168,0.2265728854747403,6.0,3.0
14.277291297912598,-21.700027465820312,2.1015591621398926,-0.6376550404190459,0.3531156832456657,-0.6846205983419807,0.1347969545368703,3.0,3.0
13.714447975158691,-19.467823028564453,1.1133663654327393,-0.0,-0.0,-1.0,0.2090662342760784,1.0,2.0
15.190485954284668,-19.6348876953125,1.321530818939209,0.7497602507609811,0.6585167945474409,0.0649245537358127,0.2585222806203088,3.0,2.0
14.94264030456543,-20.648143768310547,1.3259727954864502,-0.0,-0.0,-1.0,0.265064971356641,2.0,2.0
13.683865547180176,-19.513992309570312,1.6174474954605105,-0.0,-0.0,-1.0,0.2104102947915832,1.0,2.0
13.423250198364258,-19.52339744567871,1.5899899005889893,-0.0,-0.0,-1.0,0.1973505194304608,1.0,2.0
14.079298973083496,-19.970726013183594,1.66942298412323,-0.0,-0.0,-1.0,0.1014226145891445,1.0,2.0
13.0046968460083,-21.42469596862793,1.5712602138519287,-0.0,-0.0,-1.0,0.184330010133129,1.0,2.0
15.03639793395996,-21.075294494628903,1.3520411252975464,-0.0,-0.0,-1.0,0.1980539148652908,2.0,2.0
14.963116645812988,-21.266822814941406,1.3468354940414429,-0.0,-0.0,-1.0,0.1859417594668792,2.0,2.0
13.862289428710938,-21.401926040649418,1.6669998168945312,-0.0,-0.0,-1.0,0.2127352336614703,1.0,2.0
13.650574684143066,-21.57746124267578,1.6447464227676392,-0.0,-0.0,-1.0,0.1571199363566997,1.0,2.0
15.040493965148926,-21.569765090942383,1.365268349647522,-0.6216502001651448,-0.3783534740306668,-0.6858568927433482,0.1867893260320957,3.0,2.0
13.223328590393066,-21.84811782836914,1.5980263948440552,-0.0,-0.0,-1.0,0.1365743600494697,1.0,2.0
12.824426651000977,-19.86706161499023,2.057950019836426,-0.0,-0.0,-1.0,0.0751088122802978,1.0,3.0
13.16358470916748,-21.23052978515625,2.0851564407348633,-0.0,-0.0,-1.0,0.2030899125881962,1.0,3.0
14.797417640686035,-21.195697784423828,1.7682465314865112,-0.0,-0.0,-1.0,0.1187111962069896,2.0,2.0
13.167829513549805,-21.60153007507324,2.0841269493103027,-0.6562930237114555,0.5967690094418234,-0.4616776108904351,0.2279950582346792,3.0,3.0
12.944671630859377,-21.735504150390625,2.065796375274658,-0.0,-0.0,-1.0,0.2083251619477574,2.0,3.0
14.01427936553955,-21.36612319946289,2.1512439250946045,-0.0,-0.0,-1.0,0.2439765482965486,2.0,3.0
13.653286933898926,-21.489849090576172,2.122745990753174,-0.0,-0.0,-1.0,0.2350794792674391,1.0,3.0
14.231805801391602,-21.772262573242188,2.1671760082244873,-0.2159218877076904,-0.4772084669698663,-0.851850818782853,0.0593645077007806,3.0,3.0
13.76488208770752,-19.39794921875,1.0990419387817385,-0.0,-0.0,-1.0,0.1713923160216063,2.0,2.0
14.995057106018066,-19.590309143066406,1.2487471103668213,-0.0,-0.0,-1.0,0.2501232117893161,1.0,2.0
14.601604461669922,-19.501243591308594,1.1980246305465698,-0.0,-0.0,-1.0,0.2392684193835976,1.0,2.0
14.292879104614258,-19.645233154296875,1.1830828189849854,-0.0,-0.0,-1.0,0.155434509316916,1.0,2.0
13.869983673095703,-19.906768798828125,1.1672929525375366,-0.0,-0.0,-1.0,0.1400768366403525,1.0,2.0
14.236696243286133,-20.23825454711914,1.242978572845459,-0.0,-0.0,-1.0,0.2210452864511743,1.0,2.0
14.044349670410156,-20.247434616088867,1.2225806713104248,-0.0,-0.0,-1.0,0.1342626101742523,2.0,2.0
14.08200454711914,-20.57198905944824,1.260232925415039,-0.0,-0.0,-1.0,0.2648956479344739,2.0,2.0
13.913907051086426,-21.507648468017575,1.3280072212219238,-0.0,-0.0,-1.0,0.2368337533150686,1.0,2.0
13.720741271972656,-19.365203857421875,1.5723367929458618,-0.0,-0.0,-1.0,0.1927396306699189,1.0,2.0
13.490741729736328,-19.478290557861328,1.5658187866210938,-0.0,-0.0,-1.0,0.1513987031039995,1.0,2.0
15.18083953857422,-19.560096740722656,1.2636511325836182,-0.0,-0.0,-1.0,0.1455272011259646,1.0,2.0
14.493099212646484,-19.61208152770996,1.653485655784607,-0.0,-0.0,-1.0,0.2425967431684267,2.0,2.0
13.908349990844728,-19.988862991333008,1.6450905799865725,-0.0,-0.0,-1.0,0.1630131767280278,1.0,2.0
14.459224700927734,-20.086315155029297,1.6964998245239258,-0.0,-0.0,-1.0,0.2163178656530825,1.0,2.0
12.719280242919922,-20.447538375854492,1.5879371166229248,-0.0,-0.0,-1.0,0.0978332935431931,1.0,2.0
14.992589950561523,-21.090646743774418,1.4149386882781982,-0.0,-0.0,-1.0,0.1314382981095404,2.0,2.0
14.634692192077637,-21.314186096191406,1.395408272743225,-0.0,-0.0,-1.0,0.2046434722337637,2.0,2.0
13.781787872314451,-21.298179626464844,1.742707133293152,-0.0,-0.0,-1.0,0.1673659380486704,1.0,2.0
13.557295799255373,-21.464210510253903,1.7352991104125977,-0.0,-0.0,-1.0,0.1987506235477769,2.0,2.0
14.941073417663574,-21.21138381958008,1.8332935571670532,-0.0,-0.0,-1.0,0.1680926006775873,1.0,2.0
14.883877754211426,-21.27325439453125,1.833601713180542,-0.0,-0.0,-1.0,0.1980000812367077,1.0,2.0
13.472044944763184,-21.57776641845703,2.187318801879883,-0.0,-0.0,-1.0,0.1983666584195481,2.0,3.0
12.865009307861328,-21.598299026489254,2.1548285484313965,-0.0,-0.0,-1.0,0.222827293186366,2.0,3.0
14.974111557006836,-21.40132522583008,1.8513281345367432,-0.0,-0.0,-1.0,0.1596250187794209,1.0,2.0
13.68657112121582,-21.505779266357425,2.1948983669281006,-0.090392850133654,0.7899220993035069,-0.6065082107248471,0.1387903832634477,3.0,3.0
13.670026779174805,-19.589252471923828,1.5485703945159912,-0.0,-0.0,-1.0,0.1913372304520623,1.0,2.0
13.57465362548828,-19.58823585510254,1.538704752922058,-0.0,-0.0,-1.0,0.1592319302651551,2.0,2.0
13.85194969177246,-20.003034591674805,1.5936223268508911,-0.0,-0.0,-1.0,0.182167370547571,1.0,2.0
13.535419464111328,-20.088138580322266,1.5656112432479858,-0.0,-0.0,-1.0,0.2161508375301382,2.0,2.0
15.07655429840088,-20.4917049407959,1.338456630706787,-0.0,-0.0,-1.0,0.1475402750683742,1.0,2.0
12.76768684387207,-20.487747192382812,1.5055034160614014,-0.0,-0.0,-1.0,0.1096074987038507,1.0,2.0
14.94472599029541,-20.649274826049805,1.3332319259643557,-0.0,-0.0,-1.0,0.2652482323999131,2.0,2.0
14.61411952972412,-20.656991958618164,1.2887108325958252,-0.0,-0.0,-1.0,0.0896251512189953,1.0,2.0
15.092778205871582,-21.03703498840332,1.3830509185791016,-0.0,-0.0,-1.0,0.2517136109890939,1.0,2.0
14.805477142333984,-21.206809997558594,1.3553718328475952,-0.0,-0.0,-1.0,0.1700395369862756,1.0,2.0
13.277769088745115,-19.41179084777832,1.9802571535110471,-0.0811519815830263,0.6644931558556102,-0.7428749569787636,0.1766533658193775,3.0,2.0
14.628876686096191,-19.437747955322266,1.6348109245300293,-0.0,-0.0,-1.0,0.10423682764997,2.0,2.0
13.605225563049316,-19.703468322753903,2.0175671577453613,-0.0,-0.0,-1.0,0.0888883898543032,1.0,3.0
12.90340518951416,-19.80535125732422,1.970512628555298,-0.0,-0.0,-1.0,0.1118746278134992,2.0,2.0
14.706643104553224,-21.285301208496097,1.7586514949798584,0.8987380293784385,-0.0685561657558402,-0.4330935311059477,0.1983614672863636,3.0,2.0
13.783699035644531,-21.3282413482666,1.65948224067688,-0.0,-0.0,-1.0,0.226811930592939,2.0,2.0
14.87880516052246,-21.495576858520508,1.7884445190429688,-0.0,-0.0,-1.0,0.1904462309212266,1.0,2.0
13.833403587341309,-21.53447532653809,1.6747437715530396,-0.1358761360940472,-0.6790993661654801,-0.7213610237001965,0.2243823489851351,3.0,2.0
13.721807479858398,-21.55621337890625,1.663251876831055,-0.0,-0.0,-1.0,0.1383277258199781,2.0,2.0
12.858871459960938,-21.72040748596191,2.0354509353637695,0.7263863482432955,-0.3874763803213049,-0.5676485953288964,0.2494867469765668,4.0,3.0
13.801263809204102,-20.11840057373047,2.050661563873291,-0.0,-0.0,-1.0,0.0912680436715708,1.0,3.0
14.041586875915527,-21.38664436340332,2.119117259979248,-0.0,-0.0,-1.0,0.2866436505684239,2.0,3.0
14.321176528930664,-21.7727108001709,2.154123306274414,-0.0,-0.0,-1.0,0.0941839379033945,2.0,3.0
13.879754066467283,-21.50337600708008,2.1103408336639404,-0.0,-0.0,-1.0,0.1755625245086289,1.0,3.0
13.6181001663208,-21.62641334533691,2.093602180480957,-0.0,-0.0,-1.0,0.1744967220547213,2.0,3.0
13.24865436553955,-21.696853637695312,2.066181182861328,-0.0,-0.0,-1.0,0.2183764724066812,1.0,3.0
13.361913681030272,-19.426292419433594,1.503368854522705,-0.0,-0.0,-1.0,0.1031242026753309,1.0,2.0
12.731841087341309,-19.36638069152832,1.4240574836730957,-0.0,-0.0,-1.0,0.191285375752063,1.0,2.0
13.162633895874023,-19.684816360473633,1.4891791343688965,-0.0,-0.0,-1.0,0.1680771240880414,2.0,2.0
15.026472091674805,-20.901588439941406,1.3714066743850708,-0.0,-0.0,-1.0,0.2363557411123147,1.0,2.0
12.718597412109377,-20.446443557739254,1.4599391222000122,-0.0,-0.0,-1.0,0.1290479231542095,2.0,2.0
15.0359468460083,-21.194082260131836,1.387831687927246,-0.0,-0.0,-1.0,0.1550359906467358,1.0,2.0
15.194405555725098,-21.54976463317871,1.4299163818359375,-0.0,-0.0,-1.0,0.1588505349426683,1.0,2.0
13.979147911071776,-19.632307052612305,1.5866612195968628,-0.0,-0.0,-1.0,0.2012344293779628,1.0,2.0
13.883530616760254,-19.930614471435547,1.5871061086654663,-0.0,-0.0,-1.0,0.1541458030871748,2.0,2.0
14.696186065673828,-21.279525756835938,1.736037254333496,-0.0,-0.0,-1.0,0.2043384359062691,2.0,2.0
13.967108726501465,-21.43396759033203,1.6477608680725098,-0.0,-0.0,-1.0,0.188082722013959,1.0,2.0
13.265148162841797,-19.434823989868164,1.9610329866409304,-0.0811519815830263,0.6644931558556102,-0.7428749569787636,0.1823911657971436,3.0,2.0
13.733633041381836,-20.005525588989254,2.01644515991211,0.0112222070686623,0.794489652262337,-0.6071739903162674,0.100436583223861,4.0,3.0
12.865541458129885,-19.74498748779297,1.9310039281845093,-0.4039812543857954,0.8851500967852233,0.2308862323006483,0.1118746278134992,3.0,2.0
14.000787734985352,-21.276159286499023,2.0643081665039062,-0.0,-0.0,-1.0,0.1777320105921623,2.0,3.0
13.970651626586914,-21.421039581298828,2.0634772777557373,-0.0,-0.0,-1.0,0.244292485306327,2.0,3.0
13.5067720413208,-21.431730270385746,2.019139528274536,-0.0,-0.0,-1.0,0.1962133814751606,1.0,3.0
15.19063663482666,-19.662322998046875,1.4359958171844482,0.8813960386191788,0.3530474116699839,-0.3138447836423983,0.3012648687910937,4.0,2.0
14.81801700592041,-19.597301483154297,1.3793139457702637,-0.0,-0.0,-1.0,0.1596573510473097,2.0,2.0
14.507844924926758,-19.529024124145508,1.3308603763580322,-0.0,-0.0,-1.0,0.2676632628493675,1.0,2.0
14.217164993286133,-19.622467041015625,1.296238899230957,-0.0,-0.0,-1.0,0.2074867083912997,1.0,2.0
13.859047889709473,-19.703842163085938,1.2503719329833984,-0.0,-0.0,-1.0,0.142369205264053,1.0,2.0
14.097126960754396,-20.20746421813965,1.317184567451477,-0.0,-0.0,-1.0,0.1955543208536599,1.0,2.0
13.967364311218262,-19.981098175048828,1.2840750217437744,-0.0,-0.0,-1.0,0.245365825939953,1.0,2.0
13.43064308166504,-19.71781539916992,1.1891437768936155,-0.0,-0.0,-1.0,0.2149175635818545,1.0,2.0
15.088384628295898,-20.996946334838867,1.3282742500305176,-0.0,-0.0,-1.0,0.255764526043809,2.0,2.0
14.859394073486328,-20.794218063354492,1.4653018712997437,-0.0,-0.0,-1.0,0.1170703665875251,1.0,2.0
14.959715843200684,-21.23638916015625,1.505913257598877,-0.0,-0.0,-1.0,0.2472100442028351,1.0,2.0
13.623847007751465,-20.991363525390625,1.2910231351852417,-0.0,-0.0,-1.0,0.1062607473133771,1.0,2.0
14.939290046691896,-19.420225143432617,1.781266212463379,-0.0,-0.0,-1.0,0.1229193935998779,1.0,2.0
13.591151237487791,-19.454669952392575,1.6330771446228027,-0.0,-0.0,-1.0,0.2211677616867314,1.0,2.0
14.43734645843506,-20.168197631835938,1.7634048461914062,-0.0,-0.0,-1.0,0.1986782383826859,1.0,2.0
12.91553783416748,-19.685544967651367,1.5663461685180664,-0.0,-0.0,-1.0,0.2120280349800769,2.0,2.0
14.734061241149902,-21.247386932373047,1.8442438840866089,0.9435521087913352,-0.0949077763570574,-0.3173356771344555,0.1766978128949479,3.0,2.0
13.809099197387695,-21.554248809814453,1.7438853979110718,-0.0,-0.0,-1.0,0.1716486441579677,1.0,2.0
12.797189712524414,-21.58941078186035,1.6209559440612793,-0.0,-0.0,-1.0,0.1844275136527877,1.0,2.0
12.85285186767578,-19.807384490966797,2.015040397644043,0.4566476434382641,0.853886126963592,0.2497026470051869,0.1118746278134992,4.0,3.0
14.004302978515623,-21.307964324951172,2.1501879692077637,-0.0,-0.0,-1.0,0.2439765482965487,2.0,3.0
14.236763954162598,-21.797863006591797,2.18026065826416,-0.0,-0.0,-1.0,0.0593645077007806,2.0,3.0
13.144518852233888,-21.54908561706543,2.078115940093994,-0.0,-0.0,-1.0,0.2016226421061993,1.0,3.0
12.718677520751951,-21.38303565979004,2.037203788757324,-0.0,-0.0,-1.0,0.1261987130991487,1.0,3.0
15.197232246398926,-19.66337013244629,1.372112274169922,0.8053354244528902,0.5373771063620587,0.2503211930285246,0.2585222806203088,3.0,2.0
14.643248558044434,-19.54010009765625,1.281927227973938,-0.0,-0.0,-1.0,0.1835531621688919,2.0,2.0
14.3585205078125,-19.556468963623047,1.2421983480453491,-0.0001021206119247,0.2522089550941123,-0.9676727920850706,0.1631310908679068,3.0,2.0
14.204496383666992,-19.63976287841797,1.2267661094665527,-0.0,-0.0,-1.0,0.1603034633489346,1.0,2.0
14.14763069152832,-20.04855155944824,1.2514894008636477,-0.0,-0.0,-1.0,0.1654315366447133,1.0,2.0
13.981202125549316,-19.96479225158691,1.2201576232910156,-0.0,-0.0,-1.0,0.2083639149063624,1.0,2.0
14.003782272338867,-20.335243225097656,1.2520248889923096,-0.0,-0.0,-1.0,0.1625264492259852,1.0,2.0
13.700411796569824,-21.00242042541504,1.2522608041763306,-0.0,-0.0,-1.0,0.1035913408375585,1.0,2.0
13.605406761169434,-21.001811981201172,1.2373844385147097,-0.0,-0.0,-1.0,0.1634766191605756,1.0,2.0
14.587183952331545,-19.563522338867188,1.6673020124435425,-0.0,-0.0,-1.0,0.1536129841405798,1.0,2.0
15.179758071899414,-20.863142013549805,1.4694322347640991,-0.0,-0.0,-1.0,0.1415607979915143,1.0,2.0
13.66415023803711,-19.638591766357425,1.565094828605652,-0.0,-0.0,-1.0,0.186410147690152,1.0,2.0
14.987674713134766,-21.13843536376953,1.4606205224990845,-0.0,-0.0,-1.0,0.2476730519295196,1.0,2.0
13.516347885131836,-20.070240020751953,1.5734872817993164,-0.0,-0.0,-1.0,0.1791167925630344,2.0,2.0
12.875734329223633,-19.675291061401367,1.473732829093933,-0.0,-0.0,-1.0,0.2115224356546284,1.0,2.0
14.720818519592283,-21.27455139160156,1.7863661050796509,0.7361278140844594,0.4125923423315452,-0.5365476683209096,0.2149119720573201,3.0,2.0
13.981941223144531,-21.45307159423828,1.7038309574127195,-0.0,-0.0,-1.0,0.1829143863670221,1.0,2.0
13.794770240783691,-21.53691291809082,1.68431556224823,-0.087865733564701,-0.377170550193786,-0.921966370824692,0.1964731342323446,5.0,2.0
13.66669750213623,-21.52575302124023,1.667710304260254,-0.0,-0.0,-1.0,0.2216456550629905,2.0,2.0
13.549105644226074,-19.666954040527344,1.970496654510498,-0.0,-0.0,-1.0,0.1519643842533662,2.0,2.0
14.252118110656738,-21.723182678222656,2.1130623817443848,-0.8548901052420266,0.4905535090737783,-0.1688791363510571,0.0604083765885084,4.0,3.0
13.913074493408203,-21.44507598876953,2.0723109245300293,-0.0,-0.0,-1.0,0.241578654741192,2.0,3.0
13.544732093811035,-21.600238800048828,2.043300151824951,-0.0,-0.0,-1.0,0.2045997602767663,2.0,3.0
13.189974784851074,-21.63064765930176,2.0110831260681152,-0.5673623014244003,0.5289644924907246,-0.6311074271520168,0.224586671855774,6.0,3.0
12.9192533493042,-21.84841537475586,1.991998314857483,-0.0,-0.0,-1.0,0.1288834874740684,2.0,2.0
12.742924690246582,-21.608552932739254,1.9683897495269775,0.1795803278789597,-0.3244127302858766,-0.9287127038365248,0.1563076085678263,3.0,2.0
14.534418106079102,-19.418596267700195,1.2864928245544434,-0.5678184743756969,0.5715440618860095,-0.5923846431842213,0.1712653392771602,4.0,2.0
15.18194580078125,-20.859375,1.1607675552368164,-0.0,-0.0,-1.0,0.1391608530621518,1.0,2.0
14.206552505493164,-19.56005096435547,1.246685028076172,-0.0,-0.0,-1.0,0.2277387546609787,2.0,2.0
14.20537281036377,-19.490461349487305,1.2410944700241089,-0.0,-0.0,-1.0,0.2083113918001966,1.0,2.0
15.15015697479248,-21.05843734741211,1.171088695526123,-0.0,-0.0,-1.0,0.1462446079145484,1.0,2.0
14.07440185546875,-20.23311996459961,1.2749245166778564,-0.0,-0.0,-1.0,0.1468368076252786,1.0,2.0
14.026179313659668,-19.90793228149414,1.2441455125808716,-0.0,-0.0,-1.0,0.1992501936273655,1.0,2.0
13.876656532287598,-19.73694610595703,1.2077040672302246,-0.0,-0.0,-1.0,0.1663038213446147,2.0,2.0
13.382286071777344,-19.40479850769043,1.104785680770874,-0.0,-0.0,-1.0,0.1893989604634367,1.0,2.0
13.991147994995115,-20.272890090942383,1.2641698122024536,-0.0,-0.0,-1.0,0.1383410168515367,2.0,2.0
13.98837184906006,-20.231491088867188,1.2608946561813354,-0.0,-0.0,-1.0,0.1771973182834166,2.0,2.0
13.345388412475586,-19.56974983215332,1.1109209060668943,-0.0,-0.0,-1.0,0.1767428964496457,1.0,2.0
13.06867504119873,-20.503360748291016,1.1274563074111938,-0.0,-0.0,-1.0,0.1609608939067622,1.0,2.0
15.174120903015137,-19.58381462097168,1.3983820676803589,-0.0,-0.0,-1.0,0.1782937295596174,2.0,2.0
14.958529472351074,-21.09694480895996,1.4763760566711426,-0.0,-0.0,-1.0,0.2893056843469022,2.0,2.0
14.917248725891112,-20.9287052154541,1.4587031602859497,-0.0,-0.0,-1.0,0.2516996065154165,1.0,2.0
14.128303527832031,-19.923826217651367,1.643028974533081,-0.0,-0.0,-1.0,0.1395904483575117,1.0,2.0
13.835105895996094,-19.847009658813477,1.6011172533035278,-0.0,-0.0,-1.0,0.1856250024554606,1.0,2.0
13.511387825012209,-19.41516876220703,1.5356287956237793,-0.0,-0.0,-1.0,0.1256662625072593,1.0,2.0
15.137978553771973,-21.786449432373047,1.5472813844680786,-0.0,-0.0,-1.0,0.1245242056205015,1.0,2.0
14.466729164123535,-20.948421478271484,1.3860901594161987,-0.0,-0.0,-1.0,0.2545584752261645,1.0,2.0
14.288511276245115,-20.943273544311523,1.3563449382781982,-0.0,-0.0,-1.0,0.153667119530388,1.0,2.0
13.482240676879885,-19.96590805053711,1.5617390871047974,-0.0,-0.0,-1.0,0.2642887054500299,1.0,2.0
12.784835815429688,-19.450990676879883,1.4441243410110474,-0.0,-0.0,-1.0,0.1437999953005358,2.0,2.0
14.840487480163574,-21.8026123046875,1.4979780912399292,-0.0,-0.0,-1.0,0.1771458060149783,1.0,2.0
14.422609329223633,-21.308399200439453,1.40039324760437,-0.0,-0.0,-1.0,0.0899033800134267,1.0,2.0
13.66561794281006,-21.349294662475582,1.649670124053955,-0.0,-0.0,-1.0,0.1637191045856616,2.0,2.0
12.713160514831545,-20.36574935913086,1.4796494245529177,-0.0,-0.0,-1.0,0.124275575796451,1.0,2.0
13.116366386413574,-21.847551345825195,1.592410445213318,-0.0,-0.0,-1.0,0.1399564850684805,1.0,2.0
13.538012504577637,-19.50259017944336,1.9472172260284424,-0.0,-0.0,-1.0,0.1301935704516132,1.0,2.0
14.762871742248535,-21.09323501586914,1.7859565019607544,-0.0,-0.0,-1.0,0.1602438722605979,1.0,2.0
13.685351371765137,-19.94455909729004,1.9781043529510496,-0.0,-0.0,-1.0,0.1398360476000811,2.0,2.0
14.258295059204102,-21.64873504638672,2.089446544647217,-0.0,-0.0,-1.0,0.1345110216764321,1.0,3.0
13.964505195617676,-21.26592445373535,2.048837423324585,-0.0,-0.0,-1.0,0.2002055790302117,2.0,3.0
13.82587432861328,-20.73202133178711,2.018813133239746,-0.0,-0.0,-1.0,0.0970269574441012,2.0,3.0
12.825408935546877,-19.66796875,1.883349895477295,-0.8573373790538352,0.3654748013585414,0.3624924661962438,0.1170564082862626,3.0,2.0
13.53315258026123,-21.48478889465332,2.0103750228881836,-0.0,-0.0,-1.0,0.2014364063223906,1.0,3.0
15.167150497436523,-19.518112182617188,1.204418420791626,-0.0,-0.0,-1.0,0.1496087887969865,1.0,2.0
15.053348541259766,-21.002864837646484,1.3443732261657717,0.1832274382473686,-0.9823507452095231,0.0376127539486483,0.2700089288325807,3.0,2.0
15.02049446105957,-20.601879119873047,1.2983384132385254,-0.0,-0.0,-1.0,0.2010422078315907,1.0,2.0
14.078269958496094,-19.545001983642575,1.378909468650818,-0.0,-0.0,-1.0,0.1470198278156557,1.0,2.0
14.958855628967283,-21.419435501098633,1.365668535232544,-0.0,-0.0,-1.0,0.1891101682090972,2.0,2.0
14.845513343811035,-21.1851806640625,1.322831630706787,-0.0,-0.0,-1.0,0.1786113899871055,2.0,2.0
14.243392944335938,-20.593320846557617,1.1538445949554443,-0.0,-0.0,-1.0,0.234956071957845,1.0,2.0
