x,y,z,nx,ny,nz,curvature,density,label
38.21936798095703,12.699392318725586,-1.6361682415008545,-0.0,-0.0,-1.0,0.1065446919600207,1.0,0.0
38.136383056640625,12.32551097869873,-1.6497111320495603,-0.0,-0.0,-1.0,0.0550230602961259,1.0,0.0
38.01637649536133,11.9166841506958,-1.6743035316467283,-0.0,-0.0,-1.0,0.0396061756634069,1.0,0.0
38.20146560668945,11.40831470489502,-1.6317873001098633,-0.0,-0.0,-1.0,0.0820099872307142,1.0,0.0
38.16867446899414,11.06619930267334,-1.6421072483062744,-0.0,-0.0,-1.0,0.0777193198460889,1.0,0.0
38.6641960144043,12.61635971069336,-1.532027006149292,-0.0,-0.0,-1.0,0.1222895791963573,1.0,0.0
38.26647186279297,11.143733978271484,-1.6188063621520996,-0.0,-0.0,-1.0,0.0965266665813932,1.0,0.0
38.279754638671875,10.67305850982666,-1.622431755065918,-0.0,-0.0,-1.0,0.0088584226151776,2.0,0.0
38.99842834472656,11.689465522766112,-1.4478154182434082,-0.0,-0.0,-1.0,0.2202148808629025,1.0,0.0
39.009666442871094,11.43747901916504,-1.4460172653198242,-0.0,-0.0,-1.0,0.1753955692544638,2.0,0.0
39.58031463623047,12.909316062927246,-1.7544925212860107,-0.0,-0.0,-1.0,0.0514149536915073,1.0,0.0
39.52629852294922,11.63470458984375,-1.7569944858551023,-0.0,-0.0,-1.0,0.05309565340435,2.0,0.0
39.87602233886719,12.703252792358398,-1.670853614807129,-0.0,-0.0,-1.0,0.100134185677349,1.0,0.0
39.855682373046875,12.441163063049316,-1.672102689743042,-0.432114761108234,0.7967441499681908,0.4224637176419282,0.1248980409055177,3.0,0.0
39.713504791259766,11.985281944274902,-1.706557273864746,-0.0,-0.0,-1.0,0.0813055868096973,2.0,0.0
39.55251693725586,11.637018203735352,-1.7501227855682373,-0.0,-0.0,-1.0,0.0637222942110976,2.0,0.0
39.5968017578125,11.238616943359377,-1.742347002029419,-0.0,-0.0,-1.0,0.0614172729487125,1.0,0.0
39.70284652709961,10.86917781829834,-1.7211410999298096,-0.0,-0.0,-1.0,0.0115049807057965,2.0,0.0
40.0933952331543,12.214454650878906,-1.606055498123169,-0.0,-0.0,-1.0,0.0622727535376001,2.0,0.0
39.84067916870117,10.649728775024414,-1.690361261367798,-0.0,-0.0,-1.0,0.0386416135241216,1.0,0.0
37.901512145996094,12.676836013793944,-1.2269854545593262,0.8606270004687473,0.338064803171926,0.3808324499310602,0.1430345607806518,3.0,0.0
37.720001220703125,12.37516975402832,-1.25780987739563,-0.0,-0.0,-1.0,0.0803868236622968,1.0,0.0
37.71901321411133,12.055214881896973,-1.254685878753662,-0.0,-0.0,-1.0,0.0679128054587188,1.0,0.0
38.288429260253906,13.087967872619627,-1.1602137088775637,-0.0,-0.0,-1.0,0.0898163202120256,1.0,0.0
38.64125061035156,11.695318222045898,-1.0742251873016355,-0.0,-0.0,-1.0,0.0684326024506814,1.0,0.0
39.04283142089844,11.744379997253418,-1.437594652175903,-0.0,-0.0,-1.0,0.1581150570680093,1.0,0.0
39.021766662597656,11.478949546813965,-1.4430153369903564,-0.0,-0.0,-1.0,0.1490400565296179,2.0,0.0
39.369415283203125,12.080391883850098,-1.3634097576141355,0.8919118752281238,0.0358900785644686,-0.450782773725536,0.1403216366670527,4.0,0.0
39.271636962890625,11.706523895263672,-1.3851735591888428,-0.0,-0.0,-1.0,0.1033925226053198,1.0,0.0
38.84925842285156,11.302041053771973,-1.0345258712768557,-0.0,-0.0,-1.0,0.1372284299204338,2.0,0.0
38.088829040527344,12.811945915222168,-1.6521949768066406,-0.0,-0.0,-1.0,0.1455875120640127,1.0,0.0
38.0272331237793,12.625060081481934,-1.6616735458374023,-0.0,-0.0,-1.0,0.158618079721827,1.0,0.0
37.87553405761719,12.220179557800291,-1.6888034343719482,-0.0,-0.0,-1.0,0.0674418234038359,1.0,0.0
38.20598602294922,12.909971237182615,-1.627729415893555,-0.0,-0.0,-1.0,0.1552085094446631,1.0,0.0
38.08613967895508,12.451292037963867,-1.6443393230438232,-0.0,-0.0,-1.0,0.1031895530477749,1.0,0.0
37.95841217041016,12.13051414489746,-1.668367862701416,-0.0,-0.0,-1.0,0.0527625162211401,2.0,0.0
38.66920852661133,12.691460609436035,-1.5147829055786133,-0.0,-0.0,-1.0,0.1236887474803054,1.0,0.0
38.19535827636719,11.5079345703125,-1.6079118251800537,-0.0,-0.0,-1.0,0.0711374876355264,1.0,0.0
38.040958404541016,11.147745132446287,-1.6436965465545654,-0.0,-0.0,-1.0,0.1183173215778551,1.0,0.0
38.08441925048828,10.804313659667969,-1.6355884075164795,-0.0,-0.0,-1.0,0.0146472344466644,1.0,0.0
39.49345779418945,13.109456062316896,-1.7642686367034912,-0.0,-0.0,-1.0,0.0251482454845756,1.0,0.0
39.4132080078125,12.855158805847168,-1.7770187854766846,-0.0,-0.0,-1.0,0.0381439598145279,1.0,0.0
39.65092849731445,12.898691177368164,-1.714667797088623,-0.0,-0.0,-1.0,0.053078313004693,2.0,0.0
39.64394760131836,12.68402099609375,-1.710170030593872,-0.0,-0.0,-1.0,0.1246666005551501,1.0,0.0
39.8760986328125,12.43619155883789,-1.6418440341949463,-0.432114761108234,0.7967441499681908,0.4224637176419282,0.100366825848496,3.0,0.0
39.76454162597656,12.13326930999756,-1.6664221286773682,-0.1924043012775421,0.6272920564598481,-0.7546424721364916,0.1197137346554229,3.0,0.0
39.512054443359375,11.77198886871338,-1.730581760406494,-0.0,-0.0,-1.0,0.0852861960166259,1.0,0.0
39.473106384277344,11.350042343139648,-1.740703582763672,-0.0,-0.0,-1.0,0.0315852216546441,1.0,0.0
39.496376037597656,11.047689437866213,-1.7365028858184814,-0.0,-0.0,-1.0,0.0242613237496378,1.0,0.0
39.55012130737305,10.83537769317627,-1.725090503692627,-0.0,-0.0,-1.0,0.0482010128418904,2.0,0.0
38.00858688354492,12.829761505126951,-1.1971428394317627,-0.0,-0.0,-1.0,0.0835550344858727,1.0,0.0
37.73210144042969,12.551228523254396,-1.2445642948150637,-0.0,-0.0,-1.0,0.149656910557187,1.0,0.0
38.28970718383789,13.021552085876465,-1.147414207458496,-0.0,-0.0,-1.0,0.0791260943949269,1.0,0.0
39.02002716064453,11.93073558807373,-1.4200787544250488,-0.0,-0.0,-1.0,0.140025486351884,1.0,0.0
38.578880310058594,11.798944473266602,-1.0681073665618896,-0.0,-0.0,-1.0,0.0635199519346053,1.0,0.0
39.380245208740234,12.079434394836426,-1.3384952545166016,0.9171696403242988,0.0058381883403027,-0.3984542212404072,0.1205690372079837,3.0,0.0
39.1177864074707,11.866509437561035,-1.3969001770019531,-0.0,-0.0,-1.0,0.1145100365459387,1.0,0.0
39.00926208496094,11.627471923828123,-1.4203567504882812,-0.0,-0.0,-1.0,0.2064277754584487,2.0,0.0
38.669891357421875,11.62995147705078,-1.0490427017211914,-0.0,-0.0,-1.0,0.1215661496102064,1.0,0.0
38.844879150390625,11.300456047058104,-1.0137197971343994,-0.0,-0.0,-1.0,0.1319881127311077,2.0,0.0
38.84651565551758,12.895060539245604,-1.7592933177947998,-0.0,-0.0,-1.0,0.0568210327307404,1.0,0.0
38.851356506347656,12.64495086669922,-1.7526419162750244,-0.0,-0.0,-1.0,0.088772836226188,1.0,0.0
38.00149154663086,12.743568420410156,-1.5000827312469482,-0.0,-0.0,-1.0,0.2021464192260239,1.0,0.0
38.31208038330078,13.00905704498291,-1.4363291263580322,-0.7400330190730828,-0.6342433004473108,-0.2238002826613052,0.2161657840713167,4.0,0.0
38.11021423339844,12.606416702270508,-1.4737637042999268,-0.0,-0.0,-1.0,0.1406986710038801,1.0,0.0
38.95349884033203,13.094488143920898,-1.7367334365844729,-0.0,-0.0,-1.0,0.0197590430579696,2.0,0.0
38.92164993286133,12.537908554077148,-1.7325773239135742,-0.0,-0.0,-1.0,0.0538591074622262,1.0,0.0
37.79515838623047,10.67024040222168,-1.549282789230347,-0.0,-0.0,-1.0,0.0599635136703324,1.0,0.0
39.53654861450195,12.27161979675293,-1.5695555210113523,-0.0,-0.0,-1.0,0.1370494101988147,2.0,0.0
39.24253463745117,12.106005668640137,-1.6445109844207764,-0.0,-0.0,-1.0,0.1040643901124698,2.0,0.0
39.04410552978515,11.794478416442873,-1.6952152252197266,-0.0,-0.0,-1.0,0.1574212652678507,1.0,0.0
39.03571701049805,11.507972717285156,-1.698418378829956,-0.0,-0.0,-1.0,0.175369266724729,1.0,0.0
39.86002349853515,12.307395935058594,-1.4861111640930176,-0.6466580544891569,-0.1379871852344223,-0.750195239437961,0.1422503846825922,3.0,0.0
39.55266571044922,11.937230110168455,-1.5631954669952393,-0.4884094485207467,0.8137852636942873,0.314975800958866,0.1643199258059037,3.0,0.0
39.050071716308594,11.282076835632324,-1.696960210800171,-0.0,-0.0,-1.0,0.1352608001208999,2.0,0.0
39.030521392822266,10.972854614257812,-1.7069456577301023,-0.0,-0.0,-1.0,0.0866468071597751,1.0,0.0
39.103981018066406,10.670641899108888,-1.694824457168579,-0.0,-0.0,-1.0,0.0328261085357988,1.0,0.0
37.7352409362793,12.151538848876951,-1.076399326324463,-0.0,-0.0,-1.0,0.0677903527351398,1.0,0.0
39.14543914794922,12.023695945739746,-1.237828493118286,-0.0,-0.0,-1.0,0.0480207375701096,1.0,0.0
39.04537582397461,11.859697341918944,-1.2597830295562744,-0.0,-0.0,-1.0,0.1349934326072458,2.0,0.0
38.979209899902344,11.448936462402344,-1.2756588459014893,-0.0,-0.0,-1.0,0.1113090484960736,2.0,0.0
38.55602264404297,11.627177238464355,-0.9226303100585938,-0.0,-0.0,-1.0,0.0851300441407854,1.0,0.0
38.67131042480469,13.02163028717041,-1.7437885999679563,-0.0,-0.0,-1.0,0.0770019867720817,1.0,0.0
38.28300094604492,13.00866413116455,-1.3934143781661987,0.2422157112626678,0.1057519219832411,-0.9644418490579768,0.1519896804497113,3.0,0.0
37.85986328125,12.689322471618652,-1.4830743074417114,-0.0,-0.0,-1.0,0.1931300381253363,2.0,0.0
38.67169189453125,12.729670524597168,-1.7373486757278442,-0.0,-0.0,-1.0,0.1084684551753477,1.0,0.0
38.65438079833984,12.62324047088623,-1.739935040473938,-0.0,-0.0,-1.0,0.1187088614559162,1.0,0.0
37.89970779418945,12.138517379760742,-1.469812512397766,-0.0,-0.0,-1.0,0.1124725824111308,1.0,0.0
38.80674362182617,12.093002319335938,-1.6944433450698853,-0.0,-0.0,-1.0,0.0664866636313086,1.0,0.0
39.6483154296875,12.201590538024902,-1.4745692014694214,-0.940343580251721,-0.2793085983041464,0.1942695498341109,0.1309020874925323,3.0,0.0
39.564971923828125,12.16899585723877,-1.4961529970169067,-0.0,-0.0,-1.0,0.1546983474756402,1.0,0.0
38.8993034362793,11.94033908843994,-1.669772028923035,-0.0,-0.0,-1.0,0.2058643872785901,1.0,0.0
38.823448181152344,11.683884620666504,-1.6902531385421753,-0.0,-0.0,-1.0,0.2172854566759592,1.0,0.0
38.1968994140625,11.189859390258787,-1.408497929573059,-0.0,-0.0,-1.0,0.1447629997730643,1.0,0.0
39.85894775390625,12.259963989257812,-1.419948935508728,-0.0,-0.0,-1.0,0.0720076584685688,1.0,0.0
39.46541595458984,11.88828945159912,-1.5212477445602417,-0.0,-0.0,-1.0,0.2221216027857969,1.0,0.0
38.93458557128906,11.387664794921877,-1.6635416746139526,-0.0,-0.0,-1.0,0.1569494724580403,2.0,0.0
38.819801330566406,11.112046241760254,-1.697834849357605,-0.0,-0.0,-1.0,0.1577295129574758,1.0,0.0
38.891502380371094,10.78623390197754,-1.6863006353378296,-0.0,-0.0,-1.0,0.0728869820383222,1.0,0.0
37.730594635009766,12.056929588317873,-1.046330809593201,-0.0,-0.0,-1.0,0.0809994006766413,1.0,0.0
39.02357482910156,11.910162925720217,-1.2164829969406128,-0.0,-0.0,-1.0,0.1585065281060842,2.0,0.0
38.902488708496094,11.649710655212402,-1.2445515394210815,-0.0,-0.0,-1.0,0.1226805466399677,1.0,0.0
38.94264221191406,11.347801208496094,-1.2382417917251587,-0.0,-0.0,-1.0,0.1294412624965683,2.0,0.0
38.46503829956055,11.61159610748291,-0.9091099500656128,-0.0,-0.0,-1.0,0.1127388573925563,2.0,0.0
38.77923202514648,13.004400253295898,-1.762794852256775,-0.0,-0.0,-1.0,0.0584452813004398,1.0,0.0
38.71612930297851,12.81530475616455,-1.77045476436615,-0.0,-0.0,-1.0,0.0825325651938567,2.0,0.0
38.803279876708984,12.703018188476562,-1.7418140172958374,-0.0,-0.0,-1.0,0.0929506857295485,2.0,0.0
38.81282424926758,12.563376426696776,-1.7332669496536257,-0.0,-0.0,-1.0,0.0902033148549951,1.0,0.0
38.847076416015625,12.129569053649902,-1.7084075212478638,-0.0,-0.0,-1.0,0.0619657088248205,1.0,0.0
39.262840270996094,11.950904846191406,-1.5902010202407837,-0.0,-0.0,-1.0,0.1994457424642226,1.0,0.0
38.83902359008789,11.810835838317873,-1.7021397352218628,-0.0,-0.0,-1.0,0.2287433959012627,1.0,0.0
38.793331146240234,11.550355911254885,-1.7092801332473757,-0.0,-0.0,-1.0,0.1484424715243544,1.0,0.0
38.97159576416016,11.44752597808838,-1.6591588258743286,-0.0,-0.0,-1.0,0.1157244330830267,1.0,0.0
38.808780670166016,11.26268482208252,-1.701414704322815,-0.0,-0.0,-1.0,0.092204670667493,1.0,0.0
38.85824203491211,10.89328956604004,-1.6859644651412964,-0.0,-0.0,-1.0,0.1088222379591993,2.0,0.0
38.29524993896485,13.0447998046875,-1.4577528238296509,-0.0,-0.0,-1.0,0.1719917358126145,2.0,0.0
38.087425231933594,12.680267333984377,-1.4916001558303833,-0.0,-0.0,-1.0,0.231729752529475,1.0,0.0
39.911888122558594,12.312796592712402,-1.4254425764083862,-0.8173456545176292,0.3756818979582015,0.4368171157219824,0.209795730552125,4.0,0.0
39.65171432495117,12.178407669067385,-1.4914480447769165,-0.940343580251721,-0.2793085983041464,0.1942695498341109,0.1459753503259431,3.0,0.0
39.099124908447266,11.986628532409668,-1.2323514223098757,-0.0,-0.0,-1.0,0.0971154329293517,2.0,0.0
38.97190856933594,11.795343399047852,-1.2579888105392456,-0.0,-0.0,-1.0,0.1311772391614535,1.0,0.0
38.99107360839844,11.3387451171875,-1.2460111379623413,-0.0,-0.0,-1.0,0.1074738798629989,2.0,0.0
38.95109558105469,11.249401092529297,-1.2544749975204468,-0.0,-0.0,-1.0,0.1146251376948547,1.0,0.0
37.72040939331055,12.275501251220703,-1.1162105798721311,-0.0,-0.0,-1.0,0.0874853113794642,1.0,0.0
38.49827194213867,11.611379623413086,-0.9478989839553832,-0.0,-0.0,-1.0,0.0985016859563741,1.0,0.0
38.53874969482422,13.004419326782228,-1.7428810596466064,-0.0,-0.0,-1.0,0.0944509481304093,1.0,0.0
38.47785186767578,12.7301607131958,-1.7458860874176023,-0.0,-0.0,-1.0,0.1611288587581314,1.0,0.0
38.747283935546875,12.179636001586914,-1.6482539176940918,-0.0,-0.0,-1.0,0.057563792642426,1.0,0.0
38.58708572387695,12.441309928894045,-1.7027010917663574,-0.0,-0.0,-1.0,0.084004849492455,1.0,0.0
38.78260803222656,11.879985809326172,-1.6291091442108154,-0.0,-0.0,-1.0,0.1168734658248845,1.0,0.0
38.61976623535156,11.917510986328123,-1.6758043766021729,-0.0,-0.0,-1.0,0.0642318277082557,1.0,0.0
38.83771896362305,11.60077953338623,-1.6072180271148682,-0.0,-0.0,-1.0,0.1437593037802702,1.0,0.0
38.594730377197266,11.367403984069824,-1.6710171699523926,-0.0,-0.0,-1.0,0.1170722122329817,1.0,0.0
38.60879898071289,11.103154182434082,-1.6643764972686768,-0.0,-0.0,-1.0,0.1606166097589207,2.0,0.0
38.61851501464844,10.71010398864746,-1.660611867904663,-0.0,-0.0,-1.0,0.0406293537351211,1.0,0.0
38.152557373046875,13.03650188446045,-1.429589033126831,-0.0,-0.0,-1.0,0.160299171520868,2.0,0.0
37.940372467041016,12.652161598205566,-1.4639461040496826,-0.0,-0.0,-1.0,0.2145349796809619,1.0,0.0
39.40191650390625,12.258460998535156,-1.4689855575561523,-0.0,-0.0,-1.0,0.0979255393167179,1.0,0.0
39.55739212036133,12.172736167907717,-1.422525405883789,-0.6224983567249931,0.395743165109357,-0.6751911900668663,0.1377742596296722,3.0,0.0
39.29737854003906,11.880817413330078,-1.4855897426605225,-0.0,-0.0,-1.0,0.2031407655012949,1.0,0.0
38.928585052490234,11.90945529937744,-1.3938453197479248,-0.603911393501313,0.6149450529553308,-0.5070834355853758,0.134307887334553,3.0,0.0
38.88876724243164,11.52925968170166,-1.396594762802124,-0.5614761213005234,0.6390964830672978,0.5256427023562024,0.2143956963906164,3.0,0.0
38.42246627807617,11.648871421813965,-0.9189720153808594,-0.0,-0.0,-1.0,0.1809273501069107,2.0,0.0
37.81183242797851,12.686153411865234,-1.6283153295516968,-0.0,-0.0,-1.0,0.1404915665467473,1.0,0.0
38.147674560546875,13.13515281677246,-1.1687768697738647,-0.0,-0.0,-1.0,0.0845248466712257,1.0,0.0
37.73857879638672,12.685222625732422,-1.2390154600143433,-0.0,-0.0,-1.0,0.2632465733092317,2.0,0.0
39.03268814086914,11.991701126098633,-1.2759491205215454,-0.0,-0.0,-1.0,0.1373244580864674,1.0,0.0
38.91290283203125,11.85295867919922,-1.303219199180603,-0.0,-0.0,-1.0,0.1455851126208815,2.0,0.0
38.86238479614258,11.441218376159668,-1.3061579465866089,-0.0,-0.0,-1.0,0.0991636508799892,2.0,0.0
38.444679260253906,11.742531776428224,-1.0452455282211304,-0.8453871181459673,-0.2057350252494922,-0.4929439317594316,0.073824150191043,6.0,0.0
38.157711029052734,12.91102695465088,-1.3565237522125244,-0.0,-0.0,-1.0,0.1462412323600856,1.0,0.0
37.83660125732422,12.43584156036377,-1.4461102485656738,-0.0,-0.0,-1.0,0.1597933037549105,1.0,0.0
38.698692321777344,11.497488975524902,-1.2236058712005615,-0.0,-0.0,-1.0,0.0387199181493222,1.0,0.0
38.71502304077149,11.60548973083496,-1.2155940532684326,-0.0,-0.0,-1.0,0.069048601394554,2.0,0.0
38.24456787109375,11.597253799438477,-0.997215747833252,-0.0,-0.0,-1.0,0.1248799511980783,1.0,0.0
38.78479766845703,11.204195976257324,-1.2106044292449951,-0.0,-0.0,-1.0,0.0914224358498158,1.0,0.0
38.35430908203125,11.452513694763184,-0.9751307964324952,-0.0,-0.0,-1.0,0.0853744037168373,1.0,0.0
37.85698699951172,12.650267601013184,-1.6267187595367432,-0.0,-0.0,-1.0,0.1942871816891873,1.0,0.0
37.819091796875,12.934052467346191,-1.6457369327545166,-0.0,-0.0,-1.0,0.1277526837490585,1.0,0.0
37.726707458496094,12.355520248413086,-1.6606152057647705,-0.0,-0.0,-1.0,0.0706042027675122,1.0,0.0
38.051719665527344,11.427465438842772,-1.5607192516326904,-0.0,-0.0,-1.0,0.1161994885155799,1.0,0.0
37.73237609863281,11.675304412841797,-1.6553623676300049,-0.0,-0.0,-1.0,0.024361939170391,1.0,0.0
37.85261535644531,10.938066482543944,-1.6294794082641602,-0.0,-0.0,-1.0,0.0912960304419853,1.0,0.0
37.805641174316406,11.209574699401855,-1.6381146907806396,-0.0,-0.0,-1.0,0.1585159725135191,1.0,0.0
37.92245864868164,10.70505142211914,-1.6149673461914062,-0.0,-0.0,-1.0,0.0384348061412876,2.0,0.0
38.97581481933594,12.039456367492676,-1.2802248001098633,-0.0,-0.0,-1.0,0.1573122493325986,1.0,0.0
38.20570755004883,13.105244636535645,-1.17921781539917,-0.0,-0.0,-1.0,0.0845248466712256,2.0,0.0
38.87779998779297,11.869562149047852,-1.3092031478881836,-0.0,-0.0,-1.0,0.1107699295198683,2.0,0.0
37.83951187133789,12.716629981994627,-1.265305995941162,-0.0,-0.0,-1.0,0.2599740086703742,2.0,0.0
37.77421569824219,12.815134048461914,-1.2847232818603516,-0.0,-0.0,-1.0,0.2621188452612423,1.0,0.0
38.75590515136719,11.441876411437988,-1.1805126667022705,-0.0,-0.0,-1.0,0.0423717526200989,1.0,0.0
38.49167251586914,11.78508186340332,-1.0836069583892822,-0.0,-0.0,-1.0,0.0587838994081479,1.0,0.0
38.21430969238281,11.688435554504396,-0.8108799457550049,-0.0,-0.0,-1.0,0.1365695032970559,1.0,0.0
37.85246276855469,12.704646110534668,-1.3186495304107666,-0.0,-0.0,-1.0,0.2029986328608434,1.0,0.0
38.563045501708984,11.757180213928224,-1.12308931350708,-0.0,-0.0,-1.0,0.0635199519346053,1.0,0.0
38.7516975402832,11.32121753692627,-1.0848603248596191,-0.854892565715065,-0.5185862295334762,-0.0150673031218477,0.1319881127311078,7.0,0.0
38.59322738647461,11.6167573928833,-1.1191887855529783,-0.0,-0.0,-1.0,0.0650019723925077,2.0,0.0
38.315860748291016,11.561659812927246,-0.8894774913787842,-0.5324420939216312,0.2846511029763339,-0.7971694714392326,0.1131294798818745,5.0,0.0
38.1509895324707,11.589665412902832,-0.7885637283325195,-0.0,-0.0,-1.0,0.1705930040371354,2.0,0.0
38.72859191894531,11.199433326721191,-1.5643097162246704,-0.0451360338856467,-0.7812302760134155,-0.622609022007452,0.1532557700729458,4.0,0.0
39.71918487548828,10.79726505279541,-1.7003589868545532,-0.0,-0.0,-1.0,0.0452680962628838,2.0,0.0
39.26411437988281,12.012800216674805,-1.6805540323257446,-0.0,-0.0,-1.0,0.1574651878954762,1.0,0.0
38.58789825439453,11.258773803710938,-1.5451468229293823,-0.0,-0.0,-1.0,0.1391324915723069,2.0,0.0
38.089691162109375,11.326372146606444,-1.474989414215088,-0.0,-0.0,-1.0,0.1531743304246761,2.0,0.0
38.633941650390625,11.300835609436035,-1.5604183673858645,-0.0,-0.0,-1.0,0.1198539606278133,2.0,0.0
38.789573669433594,11.681768417358398,-1.6116540431976318,-0.0,-0.0,-1.0,0.1550795339577266,1.0,0.0
38.79215240478515,11.560317039489746,-1.603576421737671,-0.0,-0.0,-1.0,0.1437917235597309,2.0,0.0
39.757171630859375,10.99351406097412,-1.7199854850769043,-0.0,-0.0,-1.0,0.0258490260760573,2.0,0.0
39.75453567504883,10.801750183105469,-1.707190752029419,-0.0,-0.0,-1.0,0.0452680962628838,2.0,0.0
39.8436279296875,11.318806648254396,-1.7554051876068115,-0.0,-0.0,-1.0,0.1157002615327866,1.0,0.0
38.85166931152344,11.427724838256836,-1.3282325267791748,-0.0,-0.0,-1.0,0.1183123429474109,2.0,0.0
39.599464416503906,10.895803451538086,-1.7392460107803345,-0.0,-0.0,-1.0,0.0117666180131676,1.0,0.0
39.68748474121094,10.73032569885254,-1.744653582572937,-0.0,-0.0,-1.0,0.0444766433760565,1.0,0.0
38.65602111816406,11.326822280883787,-1.5979567766189575,-0.0,-0.0,-1.0,0.1055594443261726,2.0,0.0
39.590179443359375,11.00572395324707,-1.7447227239608765,-0.0,-0.0,-1.0,0.0122513734456283,1.0,0.0
38.76587677001953,11.58431339263916,-1.635950207710266,-0.0,-0.0,-1.0,0.1654095358210612,2.0,0.0
39.18978118896485,11.675911903381348,-1.7188373804092407,-0.0,-0.0,-1.0,0.0561685689378244,1.0,0.0
39.22554016113281,11.904512405395508,-1.742059350013733,-0.0,-0.0,-1.0,0.1165125841268622,1.0,0.0
38.08399963378906,11.277831077575684,-1.4914788007736206,-0.8637354220000268,0.4507188574479552,0.2254187931900213,0.1934020234799607,3.0,0.0
38.69286346435547,11.299066543579102,-1.0537265539169312,-0.0,-0.0,-1.0,0.1319881127311077,2.0,0.0
38.36376190185547,11.637248992919922,-1.028910517692566,-0.0,-0.0,-1.0,0.1256264028872277,1.0,0.0
40.104679107666016,11.075207710266112,-1.7519816160202026,-0.0,-0.0,-1.0,0.0673647766282275,1.0,0.0
39.72202682495117,11.731392860412598,-1.7334071397781372,-0.0,-0.0,-1.0,0.0412264868672474,1.0,0.0
40.02214813232422,11.444449424743652,-1.766069769859314,-0.0,-0.0,-1.0,0.0501465868618606,2.0,0.0
39.42368698120117,12.009688377380373,-1.701654076576233,-0.0,-0.0,-1.0,0.1678952841609423,1.0,0.0
39.568626403808594,11.907846450805664,-1.719925045967102,-0.0,-0.0,-1.0,0.1267392114827165,2.0,0.0
38.859230041503906,11.584453582763672,-1.5569511651992798,-0.0,-0.0,-1.0,0.1110410139770189,2.0,0.0
38.73820495605469,11.965051651000977,-1.5678790807724,-0.0,-0.0,-1.0,0.1193370977243069,1.0,0.0
38.40404510498047,11.603774070739746,-0.9736367464065552,0.2783375465578185,0.8630576993802459,0.4214968774696341,0.1218500655729448,4.0,0.0
37.79314041137695,11.133358001708984,-1.6340794563293457,-0.0,-0.0,-1.0,0.1730779941683529,1.0,0.0
37.8122444152832,11.30341339111328,-1.6552536487579346,-0.0,-0.0,-1.0,0.1182550561224024,1.0,0.0
38.87559509277344,11.699162483215332,-1.4648165702819824,-0.8752960301701387,-0.0179075740305894,-0.4832558104779855,0.1766313585904961,3.0,0.0
39.64157485961914,12.058435440063477,-1.6526520252227783,-0.0,-0.0,-1.0,0.1134412480424284,1.0,0.0
38.3406982421875,11.59756851196289,-0.8943119049072266,-0.5258700746124922,0.2996008336157953,-0.7960527652886916,0.1682555340176952,7.0,0.0
39.57790756225586,10.645241737365724,-1.7574143409729004,-0.0,-0.0,-1.0,0.0378835325918264,1.0,0.0
38.737548828125,11.121195793151855,-1.5783050060272217,-0.0,-0.0,-1.0,0.1997007906862679,2.0,0.0
39.211814880371094,11.213327407836914,-1.7069995403289795,-0.0,-0.0,-1.0,0.0824439030182645,2.0,0.0
39.435508728027344,11.0180025100708,-1.7484889030456543,-0.0,-0.0,-1.0,0.0304228188974628,1.0,0.0
38.77655792236328,11.494379997253418,-1.620304822921753,-0.6950600863765124,-0.318231126011387,0.6446863010517594,0.1768868133512782,4.0,0.0
39.082763671875,11.56952667236328,-1.7048795223236084,-0.0,-0.0,-1.0,0.1302071046221615,1.0,0.0
38.953277587890625,12.104950904846191,-1.7234275341033936,-0.0,-0.0,-1.0,0.0492590111830951,1.0,0.0
39.137245178222656,11.900083541870115,-1.7496662139892578,-0.0,-0.0,-1.0,0.0575237522575219,1.0,0.0
39.02230453491211,12.280479431152344,-1.75888991355896,-0.0,-0.0,-1.0,0.0328805349857393,1.0,0.0
38.32532501220703,13.08947467803955,-1.6777584552764893,-0.0,-0.0,-1.0,0.1508530212939839,1.0,0.0
38.835941314697266,11.35422420501709,-1.2200942039489746,0.6621303831752579,-0.2472302863458573,-0.7074323580311631,0.0617668383447303,7.0,0.0
38.66159439086914,11.787586212158203,-1.21881103515625,-0.0,-0.0,-1.0,0.0569649681028773,2.0,0.0
38.73208999633789,11.69846248626709,-1.2263147830963137,-0.0,-0.0,-1.0,0.0782433256491828,2.0,0.0
38.95212936401367,11.921789169311523,-1.293816328048706,-0.0,-0.0,-1.0,0.1599229299946079,1.0,0.0
39.350528717041016,12.10103702545166,-1.3963825702667236,-0.0,-0.0,-1.0,0.1590640369037215,2.0,0.0
39.51606750488281,12.198097229003906,-1.441134691238403,-0.0,-0.0,-1.0,0.1340836067272856,1.0,0.0
39.719120025634766,12.304314613342283,-1.494920015335083,-0.0,-0.0,-1.0,0.0835046171371596,2.0,0.0
38.67008209228515,10.648061752319336,-1.6762055158615112,-0.0,-0.0,-1.0,0.0354938205508846,1.0,0.0
38.30445098876953,11.27066135406494,-1.6128696203231812,-0.0,-0.0,-1.0,0.1136451417927223,1.0,0.0
38.610313415527344,11.09169578552246,-1.6896535158157349,-0.0,-0.0,-1.0,0.1223824467425692,2.0,0.0
38.43401718139648,11.66211986541748,-1.6858857870101929,-0.0,-0.0,-1.0,0.0625100466448457,2.0,0.0
38.47468185424805,11.931377410888672,-1.7240937948226929,-0.0,-0.0,-1.0,0.0669775713212869,1.0,0.0
38.38782501220703,12.227293968200684,-1.7295252084732056,-0.0,-0.0,-1.0,0.051883659649634,2.0,0.0
39.538516998291016,12.199335098266602,-1.658854365348816,-0.0,-0.0,-1.0,0.1420363881603888,1.0,0.0
39.73821640014648,12.44221305847168,-1.7328404188156128,-0.0,-0.0,-1.0,0.1517227737406984,1.0,0.0
39.83891677856445,13.037861824035645,-1.8190017938613892,-0.0,-0.0,-1.0,0.052877198468047,1.0,0.0
38.87611770629883,11.5466890335083,-1.4312978982925415,-0.5614761213005234,0.6390964830672978,0.5256427023562024,0.1506211044178633,3.0,0.0
38.902374267578125,11.764492988586426,-1.4561811685562134,-0.0,-0.0,-1.0,0.1619415953574788,2.0,0.0
38.391170501708984,11.603668212890623,-0.9594396352767944,0.1139843047111388,0.9218237444282515,0.3704707309461786,0.1086640999003369,5.0,0.0
38.895957946777344,11.73531723022461,-1.404335618019104,0.4395231996962523,0.7441429500807165,-0.5030612554887693,0.1758017519480207,5.0,0.0
38.92642593383789,11.661104202270508,-1.4047271013259888,-0.0,-0.0,-1.0,0.2273612954885766,2.0,0.0
38.90413665771485,11.849193572998049,-1.419552206993103,0.4373916680786421,-0.847154979743522,-0.3016901870978496,0.1603658965126995,4.0,0.0
39.03927230834961,11.871488571166992,-1.460201859474182,-0.0,-0.0,-1.0,0.1807231788167787,1.0,0.0
40.01548767089844,11.86626148223877,-1.7351638078689575,-0.0,-0.0,-1.0,0.0249405602886493,1.0,0.0
39.58602142333984,12.241483688354492,-1.6573785543441772,-0.0,-0.0,-1.0,0.203519653445468,2.0,0.0
39.748905181884766,12.53843879699707,-1.739681839942932,-0.0,-0.0,-1.0,0.124206374920737,1.0,0.0
38.88646697998047,11.433090209960938,-1.3691612482070925,-0.0,-0.0,-1.0,0.1150880809780806,2.0,0.0
37.76163482666016,12.742853164672852,-1.222246527671814,-0.0,-0.0,-1.0,0.2599740086703743,2.0,0.0
38.25115203857422,13.034393310546877,-1.3985918760299685,-0.0,-0.0,-1.0,0.1685574639954782,2.0,0.0
38.26191329956055,13.1148681640625,-1.084055781364441,-0.0,-0.0,-1.0,0.0813964469302078,1.0,0.0
38.34941864013672,11.574822425842283,-0.918059229850769,-0.6441603180741624,0.5339152784634597,-0.5477152180119522,0.1078366740241452,8.0,0.0
39.96504211425781,12.437782287597656,-1.5241377353668213,-0.0,-0.0,-1.0,0.1331018762598498,1.0,0.0
39.98776626586914,12.748292922973633,-1.5727102756500244,-0.0,-0.0,-1.0,0.0826819215754578,1.0,0.0
38.76324844360352,11.285116195678713,-1.042051076889038,-0.9704938702647816,-0.2295153111307294,-0.073921375359568,0.1319881127311076,7.0,0.0
39.05404281616211,12.013923645019531,-1.2110097408294678,-0.0,-0.0,-1.0,0.120693903015222,1.0,0.0
39.84390640258789,12.318679809570312,-1.4742939472198486,-0.6466580544891569,-0.1379871852344223,-0.750195239437961,0.1422503846825921,3.0,0.0
38.36701202392578,13.098207473754885,-1.181272029876709,-0.0,-0.0,-1.0,0.0663141893540431,1.0,0.0
38.45596694946289,11.641281127929688,-0.9941952228546144,0.1796569508488849,0.4491009872782623,-0.8752323595693725,0.1463396965713879,6.0,0.0
38.3001708984375,12.176431655883787,-1.671794056892395,-0.0,-0.0,-1.0,0.0371501767799378,1.0,0.0
39.299861907958984,12.05421543121338,-1.669275164604187,-0.0,-0.0,-1.0,0.1373014429746201,2.0,0.0
39.092437744140625,12.092065811157228,-1.6711448431015017,-0.0,-0.0,-1.0,0.0948545126236457,1.0,0.0
38.440147399902344,11.885655403137209,-1.6182957887649536,-0.0,-0.0,-1.0,0.0598009062452659,1.0,0.0
37.92700958251953,11.40390396118164,-1.5192211866378784,-0.0,-0.0,-1.0,0.1222828212274292,1.0,0.0
40.18305587768555,12.33562183380127,-1.7512840032577517,-0.0,-0.0,-1.0,0.150656230724885,1.0,0.0
39.79008865356445,12.107585906982422,-1.6942847967147827,-0.0614171814482744,0.6154023001423492,-0.785816733597889,0.0620838582825212,4.0,0.0
39.49845886230469,12.073925018310549,-1.678681254386902,-0.0,-0.0,-1.0,0.1164711530675282,1.0,0.0
38.796024322509766,11.463375091552734,-1.5443309545516968,-0.9795508546519688,-0.0234557840866622,0.1998247966181306,0.1256600250858424,3.0,0.0
38.58517837524414,11.289958953857422,-1.5069299936294556,-0.0,-0.0,-1.0,0.132456897143048,2.0,0.0
37.81352996826172,12.755769729614258,-1.205262541770935,-0.0,-0.0,-1.0,0.2599740086703742,2.0,0.0
38.41050338745117,11.727157592773438,-1.0513874292373655,-0.0,-0.0,-1.0,0.0632395328175708,2.0,0.0
38.609100341796875,11.311288833618164,-0.989742636680603,-0.0,-0.0,-1.0,0.073994007216382,1.0,0.0
37.928489685058594,11.303667068481444,-1.6327853202819824,-0.0,-0.0,-1.0,0.1352524123607369,1.0,0.0
39.89749526977539,11.52199363708496,-1.7386066913604736,-0.0,-0.0,-1.0,0.0418707886963553,1.0,0.0
39.47075271606445,11.490880012512209,-1.714726448059082,-0.0,-0.0,-1.0,0.0291476667455861,2.0,0.0
39.05366516113281,11.40708827972412,-1.6831729412078855,-0.0,-0.0,-1.0,0.168841045301832,1.0,0.0
38.622798919677734,11.274782180786133,-1.643913507461548,-0.0,-0.0,-1.0,0.1927902151203945,1.0,0.0
38.268367767333984,11.31216812133789,-1.6418802738189695,-0.0,-0.0,-1.0,0.0777327463842058,1.0,0.0
37.929473876953125,11.192782402038574,-1.6111900806427002,-0.0,-0.0,-1.0,0.1263144409131488,1.0,0.0
38.02168273925781,13.08803939819336,-1.3908929824829102,-0.0,-0.0,-1.0,0.118622528265326,1.0,0.0
37.77496337890625,12.70535659790039,-1.3257873058319092,-0.0,-0.0,-1.0,0.2022046013276821,1.0,0.0
38.97703552246094,11.973275184631348,-1.2346749305725098,-0.5740418427109722,-0.7464160552535518,0.3366586331534037,0.1526296206754814,5.0,0.0
38.67454528808594,11.678670883178713,-1.1799004077911377,-0.0,-0.0,-1.0,0.0593413644478458,1.0,0.0
38.74103546142578,11.329607009887695,-1.12608003616333,-0.067890185605565,-0.9509157627095116,-0.3019108062475248,0.1377625952437773,4.0,0.0
39.37322235107422,11.509190559387209,-1.733643889427185,-0.0,-0.0,-1.0,0.0348577298644401,1.0,0.0
38.00590133666992,11.493090629577637,-1.6140578985214231,-0.0,-0.0,-1.0,0.092940709546793,1.0,0.0
39.58938217163086,11.358471870422363,-1.72736394405365,-0.0,-0.0,-1.0,0.0644190489532883,1.0,0.0
39.185264587402344,11.426396369934082,-1.701396107673645,-0.0,-0.0,-1.0,0.0671890065534559,1.0,0.0
38.813377380371094,11.250741958618164,-1.6364060640335083,-0.0,-0.0,-1.0,0.105563131155083,1.0,0.0
38.390995025634766,11.242987632751465,-1.5991891622543335,-0.0,-0.0,-1.0,0.1239347209150233,1.0,0.0
39.822322845458984,11.099552154541016,-1.7040656805038452,-0.0,-0.0,-1.0,0.0869855759536012,1.0,0.0
39.75737762451172,11.057785034179688,-1.6901389360427856,-0.0,-0.0,-1.0,0.0590675585366597,1.0,0.0
37.8406867980957,12.649917602539062,-1.2247897386550903,-0.0,-0.0,-1.0,0.2397959326486436,1.0,0.0
38.62358093261719,11.668283462524414,-1.138333439826965,-0.0,-0.0,-1.0,0.057450267885322,2.0,0.0
38.57405853271485,11.682839393615724,-1.1366182565689087,-0.0,-0.0,-1.0,0.0512040353313104,2.0,0.0
38.72503662109375,11.312826156616213,-1.0945438146591189,-0.854892565715065,-0.5185862295334762,-0.0150673031218477,0.1319881127311077,7.0,0.0
38.06268310546875,13.11788272857666,-1.459101676940918,-0.0,-0.0,-1.0,0.1054845585584636,1.0,0.0
40.031795501708984,11.336224555969238,-1.743743896484375,-0.0,-0.0,-1.0,0.0881440802265365,1.0,0.0
39.61081314086914,11.190977096557615,-1.7028725147247314,-0.0,-0.0,-1.0,0.1042441529072994,1.0,0.0
39.175296783447266,11.23242473602295,-1.7005212306976318,-0.385404120512353,-0.4670013372520687,-0.7958476078351174,0.0898302472598659,3.0,0.0
38.71026611328125,10.99445629119873,-1.645167589187622,-0.0,-0.0,-1.0,0.1520687465132084,2.0,0.0
38.32631301879883,10.957320213317873,-1.6333115100860596,-0.0,-0.0,-1.0,0.0223277654075385,2.0,0.0
38.100341796875,10.867338180541992,-1.6136250495910645,-0.0,-0.0,-1.0,0.021083570501808,1.0,0.0
37.91090774536133,10.73781967163086,-1.5869512557983398,-0.0,-0.0,-1.0,0.0384348061412877,2.0,0.0
37.82635498046875,12.670266151428224,-1.386453628540039,-0.0,-0.0,-1.0,0.1551490438415212,1.0,0.0
39.173641204833984,12.061504364013672,-1.2909302711486816,-0.0,-0.0,-1.0,0.0680412264468496,1.0,0.0
38.76966094970703,11.71665859222412,-1.231018304824829,-0.0,-0.0,-1.0,0.0808587162567052,2.0,0.0
38.747352600097656,11.391974449157717,-1.177927017211914,-0.0,-0.0,-1.0,0.0485180147591654,1.0,0.0
38.560489654541016,13.10815715789795,-1.7906663417816162,-0.0,-0.0,-1.0,0.0744462047629752,1.0,0.0
38.468238830566406,13.10522174835205,-1.7873940467834473,-0.0,-0.0,-1.0,0.0623224401438574,1.0,0.0
37.94344711303711,12.85275173187256,-1.728775978088379,-0.0,-0.0,-1.0,0.1630084005612994,1.0,0.0
39.42708206176758,12.45543384552002,-1.7071211338043213,-0.0,-0.0,-1.0,0.0869529306296082,1.0,0.0
38.20389938354492,12.45119571685791,-1.6632823944091797,-0.0,-0.0,-1.0,0.0690816841011225,2.0,0.0
39.795631408691406,12.39412784576416,-1.7133643627166748,-0.0,-0.0,-1.0,0.2232496963084139,2.0,0.0
39.581817626953125,12.236835479736328,-1.6757662296295166,-0.0,-0.0,-1.0,0.1869721384824943,2.0,0.0
39.21630859375,12.119608879089355,-1.6390862464904783,-0.0,-0.0,-1.0,0.1074803239498407,2.0,0.0
38.76662826538086,11.78960418701172,-1.5632891654968262,-0.0,-0.0,-1.0,0.1246963705583302,1.0,0.0
38.495208740234375,11.642788887023926,-1.5278785228729248,-0.0,-0.0,-1.0,0.0695022735485988,1.0,0.0
38.54759979248047,11.470417976379396,-1.4989957809448242,-0.0,-0.0,-1.0,0.0988020184679764,1.0,0.0
37.949371337890625,11.53614902496338,-0.9445102214813232,-0.0,-0.0,-1.0,0.1608051087540996,1.0,0.0
39.01179122924805,12.923959732055664,-1.7633529901504517,-0.0,-0.0,-1.0,0.0141729455536603,2.0,0.0
38.63299560546875,12.88254165649414,-1.7452069520950315,-0.0,-0.0,-1.0,0.1176982559500199,1.0,0.0
38.36430358886719,12.748777389526367,-1.7151416540145874,-0.0,-0.0,-1.0,0.1088725446126576,1.0,0.0
39.42737579345703,12.737594604492188,-1.745275855064392,-0.0,-0.0,-1.0,0.0416284346216812,1.0,0.0
38.7296257019043,12.477943420410156,-1.678105711936951,-0.0,-0.0,-1.0,0.0829642449033559,1.0,0.0
38.21998596191406,12.461109161376951,-1.661831259727478,-0.0,-0.0,-1.0,0.0690816841011224,2.0,0.0
38.08804702758789,12.393438339233398,-1.6471019983291626,-0.0,-0.0,-1.0,0.0684106553589068,2.0,0.0
40.10773468017578,12.289310455322266,-1.6965285539627075,-0.0,-0.0,-1.0,0.1435765840278616,1.0,0.0
39.51593017578125,12.251474380493164,-1.6657334566116333,-0.0,-0.0,-1.0,0.1267528880956393,2.0,0.0
39.359397888183594,12.116348266601562,-1.6368621587753296,-0.0,-0.0,-1.0,0.1704231543986213,1.0,0.0
40.07262420654297,12.16997528076172,-1.6749368906021118,-0.0,-0.0,-1.0,0.0682752463069831,2.0,0.0
39.69441223144531,12.087047576904297,-1.6448990106582642,-0.0,-0.0,-1.0,0.15348836597097,1.0,0.0
37.84838104248047,12.1868896484375,-1.6061755418777466,-0.0,-0.0,-1.0,0.0752363928395511,2.0,0.0
37.75139617919922,12.125762939453123,-1.593661189079285,-0.0,-0.0,-1.0,0.1160614026106061,2.0,0.0
38.781551361083984,11.65993309020996,-1.5390268564224243,-0.0,-0.0,-1.0,0.1310383292963652,2.0,0.0
38.19298553466797,11.413484573364258,-1.4797056913375854,-0.0,-0.0,-1.0,0.0982817047868977,1.0,0.0
37.768985748291016,11.214466094970703,-1.435397744178772,-0.0,-0.0,-1.0,0.1678946116347372,1.0,0.0
38.948848724365234,11.41139793395996,-1.5019193887710571,-0.0,-0.0,-1.0,0.190305497284257,1.0,0.0
38.42332458496094,11.584709167480469,-0.9431711435317992,0.0861220341671014,0.927846646928097,0.3628823432122431,0.0916347973595361,4.0,0.0
38.11650466918945,12.274884223937988,-1.6391562223434448,-0.0,-0.0,-1.0,0.0566207950065608,1.0,0.0
37.82689666748047,12.004023551940918,-1.5808485746383667,-0.0,-0.0,-1.0,0.1194150112896484,1.0,0.0
38.59254455566406,12.019734382629396,-1.624571442604065,-0.0,-0.0,-1.0,0.0729986614319821,1.0,0.0
38.197322845458984,11.310568809509276,-1.4891146421432495,-0.0,-0.0,-1.0,0.1227409445486511,1.0,0.0
37.75684356689453,12.073784828186035,-0.9848567247390748,-0.0,-0.0,-1.0,0.0828618028512087,1.0,0.0
38.53971481323242,12.936938285827637,-1.8343158960342407,-0.0,-0.0,-1.0,0.0905513727103214,1.0,0.0
38.29758071899414,12.78091526031494,-1.7747594118118286,-0.0,-0.0,-1.0,0.081218164645993,1.0,0.0
38.05495834350586,12.61792278289795,-1.7145453691482544,-0.0,-0.0,-1.0,0.1203879565671069,1.0,0.0
38.600563049316406,12.199101448059082,-1.772039532661438,-0.0,-0.0,-1.0,0.0668627423347756,1.0,0.0
38.66561126708984,12.175013542175291,-1.781584620475769,-0.0,-0.0,-1.0,0.0648735787583098,1.0,0.0
38.88528060913086,11.44703769683838,-1.7502723932266235,-0.0,-0.0,-1.0,0.1157740937464967,1.0,0.0
38.45812225341797,11.442778587341309,-1.6709243059158323,-0.0,-0.0,-1.0,0.0921017735227421,1.0,0.0
39.09822082519531,11.27417278289795,-1.7729860544204712,-0.0,-0.0,-1.0,0.1097823577161965,1.0,0.0
38.70185089111328,11.214123725891112,-1.6933609247207642,-0.0,-0.0,-1.0,0.1812816994296668,1.0,0.0
38.430362701416016,11.187275886535645,-1.6405349969863892,-0.0,-0.0,-1.0,0.097587939222421,1.0,0.0
38.053340911865234,11.20156192779541,-1.572806477546692,-0.0,-0.0,-1.0,0.1560596404983913,1.0,0.0
39.22726821899414,10.912901878356934,-1.7618855237960815,-0.0,-0.0,-1.0,0.0388943678681278,1.0,0.0
38.15372467041016,11.483431816101074,-0.935078740119934,-0.0,-0.0,-1.0,0.122116906856601,1.0,0.0
38.73869323730469,12.759971618652344,-1.6621185541152954,-0.0,-0.0,-1.0,0.0857139126456328,1.0,0.0
39.07991027832031,12.293888092041016,-1.6300321817398071,-0.0,-0.0,-1.0,0.0846755340628966,1.0,0.0
38.89004135131836,12.294185638427734,-1.6167956590652466,-0.0,-0.0,-1.0,0.0413965244036169,1.0,0.0
38.41524887084961,12.41537857055664,-1.598518967628479,-0.0,-0.0,-1.0,0.0568266161805898,1.0,0.0
39.94041061401367,11.980653762817385,-1.6540480852127075,-0.0,-0.0,-1.0,0.0327899261794609,1.0,0.0
39.618526458740234,11.943113327026367,-1.6264172792434692,-0.0,-0.0,-1.0,0.1370903608595129,1.0,0.0
38.92642593383789,12.10930061340332,-1.597217679023743,-0.0,-0.0,-1.0,0.1156069652485436,1.0,0.0
38.86752700805664,11.617544174194336,-1.5343245267868042,-0.0,-0.0,-1.0,0.1112473770485136,2.0,0.0
38.44451141357422,11.47702980041504,-1.4879635572433472,-0.0,-0.0,-1.0,0.103969139484275,1.0,0.0
38.96573257446289,11.335432052612305,-1.5075966119766235,-0.0,-0.0,-1.0,0.1859731445512085,2.0,0.0
38.26944351196289,11.39832878112793,-1.4664045572280884,-0.0,-0.0,-1.0,0.1028547763668054,1.0,0.0
37.90962219238281,12.69603157043457,-0.892292857170105,-0.0,-0.0,-1.0,0.1632805941900079,1.0,0.0
37.765869140625,12.600957870483398,-0.8760584592819214,-0.0,-0.0,-1.0,0.1282927764309028,1.0,0.0
38.62004852294922,11.677726745605469,-0.8430866003036499,-0.0,-0.0,-1.0,0.1366438722732131,1.0,0.0
39.976261138916016,12.723310470581056,-1.7615580558776855,-0.0,-0.0,-1.0,0.0692053276357195,2.0,0.0
39.6783332824707,12.57547378540039,-1.7260663509368896,-0.0,-0.0,-1.0,0.1154563569584482,1.0,0.0
39.50163650512695,12.435869216918944,-1.698397159576416,-0.0,-0.0,-1.0,0.0452196466815147,1.0,0.0
38.3918342590332,12.184503555297852,-1.6090047359466553,-0.0,-0.0,-1.0,0.0546170848661801,1.0,0.0
39.932342529296875,11.141328811645508,-1.5552124977111816,-0.0,-0.0,-1.0,0.108500651454553,1.0,0.0
39.97616958618164,11.084814071655272,-1.5505621433258057,-0.0,-0.0,-1.0,0.0907431058622153,1.0,0.0
38.02055740356445,11.695394515991213,-1.526484489440918,-0.0,-0.0,-1.0,0.1032051280397115,1.0,0.0
38.08821487426758,11.17524528503418,-1.460679531097412,-0.0,-0.0,-1.0,0.1458180457276972,1.0,0.0
37.99345779418945,12.276857376098633,-0.907447338104248,-0.0,-0.0,-1.0,0.0860665259869754,1.0,0.0
37.74553680419922,12.471931457519531,-0.9187312126159668,-0.0,-0.0,-1.0,0.0719677836215997,1.0,0.0
37.95257186889648,11.945463180541992,-0.8729534149169922,-0.0,-0.0,-1.0,0.0659301944828139,1.0,0.0
39.35391616821289,11.160659790039062,-0.8484048843383789,-0.0,-0.0,-1.0,0.0364388771442414,1.0,0.0
40.08748245239258,13.127883911132812,-1.733850359916687,-0.0,-0.0,-1.0,0.040469534894513,1.0,0.0
39.89307403564453,13.113773345947266,-1.7265604734420776,-0.0,-0.0,-1.0,0.065181534761229,1.0,0.0
39.47322845458984,12.807052612304688,-1.672561764717102,-0.0,-0.0,-1.0,0.0672567699400413,2.0,0.0
39.231143951416016,12.88558578491211,-1.6775938272476196,-0.0,-0.0,-1.0,0.0163108613088851,1.0,0.0
39.48346710205078,12.293169021606444,-1.6008609533309937,-0.0,-0.0,-1.0,0.2023495045772931,1.0,0.0
39.20569610595703,12.722085952758787,-1.6539183855056765,-0.0,-0.0,-1.0,0.0360205889591112,1.0,0.0
38.44842529296875,12.941450119018556,-1.6681588888168335,-0.0,-0.0,-1.0,0.1642357737994846,1.0,0.0
38.37122344970703,12.93755340576172,-1.6660741567611694,-0.0,-0.0,-1.0,0.1625784237499497,1.0,0.0
38.920711517333984,12.209020614624023,-1.5747507810592651,-0.0,-0.0,-1.0,0.0500664962854148,1.0,0.0
38.44464874267578,12.130332946777344,-1.552756667137146,-0.0,-0.0,-1.0,0.0745962430512697,1.0,0.0
38.367218017578125,12.315519332885742,-1.5774153470993042,-0.0,-0.0,-1.0,0.0427593784590922,1.0,0.0
39.718772888183594,11.304706573486328,-1.4701789617538452,-0.0,-0.0,-1.0,0.1128203385364831,1.0,0.0
39.773006439208984,11.182907104492188,-1.45502769947052,-0.0,-0.0,-1.0,0.1154317621910908,1.0,0.0
38.459754943847656,11.978519439697266,-1.5315598249435425,-0.0,-0.0,-1.0,0.0545888843200882,1.0,0.0
38.49934768676758,11.706586837768556,-1.493951678276062,-0.0,-0.0,-1.0,0.1514289415167326,1.0,0.0
37.865089416503906,11.931631088256836,-1.5127440690994265,-0.0,-0.0,-1.0,0.1111888180971206,1.0,0.0
38.16752243041992,13.073896408081056,-1.619892954826355,0.3815787830363911,0.7498301182347855,-0.5405112636425574,0.2363744881918342,3.0,0.0
38.93510437011719,11.77560806274414,-1.397865653038025,-0.0,-0.0,-1.0,0.2290953667139496,2.0,0.0
38.95936584472656,11.37360954284668,-1.333889365196228,-0.0,-0.0,-1.0,0.1087899239345606,2.0,0.0
38.80206298828125,11.651809692382812,-1.3802109956741333,-0.0,-0.0,-1.0,0.1395826956786172,1.0,0.0
37.91868591308594,12.284337997436523,-1.497662901878357,-0.0,-0.0,-1.0,0.1433953985920299,1.0,0.0
39.97983932495117,12.322877883911133,-1.6155444383621216,-0.0,-0.0,-1.0,0.1114383403942218,2.0,0.0
39.53773498535156,12.063760757446287,-1.55913507938385,-0.0,-0.0,-1.0,0.2537391460572633,1.0,0.0
39.52569580078125,11.910680770874023,-1.5364216566085815,-0.0,-0.0,-1.0,0.1606989851572633,2.0,0.0
38.65593338012695,12.54633903503418,-1.596511721611023,-0.0,-0.0,-1.0,0.1079223171816985,1.0,0.0
38.44785690307617,13.038703918457031,-1.6634711027145386,-0.0,-0.0,-1.0,0.1722889482032561,1.0,0.0
38.968299865722656,11.537267684936523,-1.459110140800476,-0.0,-0.0,-1.0,0.2111463281749196,1.0,0.0
38.91416549682617,11.638782501220703,-1.4718133211135864,-0.0,-0.0,-1.0,0.19461498042119,2.0,0.0
38.12632751464844,12.694128036499023,-1.6014610528945925,-0.0,-0.0,-1.0,0.1231230537716789,1.0,0.0
37.775848388671875,12.481145858764648,-1.5587669610977173,-0.0,-0.0,-1.0,0.1582833366992587,1.0,0.0
39.83243560791016,11.428926467895508,-1.6620070934295654,-0.0,-0.0,-1.0,0.0767441629954592,1.0,0.0
39.76369094848633,11.333760261535645,-1.6444392204284668,-0.0,-0.0,-1.0,0.1054964539282469,1.0,0.0
39.41703414916992,11.411176681518556,-1.63529372215271,-0.0,-0.0,-1.0,0.0301813764618738,1.0,0.0
38.79995346069336,11.35951328277588,-1.592895269393921,-0.6455310768600738,0.4364035091506807,0.626770776288146,0.0839023632668076,3.0,0.0
38.68309783935547,11.356106758117676,-1.5859043598175049,-0.0,-0.0,-1.0,0.0793904513905291,2.0,0.0
38.81452178955078,10.925467491149902,-1.531077861785889,-0.0,-0.0,-1.0,0.0989337768961153,1.0,0.0
38.53557205200195,11.244101524353027,-1.561565637588501,-0.0,-0.0,-1.0,0.1112999191348207,1.0,0.0
38.310333251953125,11.398356437683104,-1.571687936782837,-0.0,-0.0,-1.0,0.1234628451152339,1.0,0.0
37.7999267578125,10.651589393615724,-1.435328722000122,-0.0,-0.0,-1.0,0.0599635136703324,1.0,0.0
38.48663711547851,11.66698169708252,-0.9687862396240234,-0.0,-0.0,-1.0,0.1255167263274333,2.0,0.0
40.0836296081543,11.719289779663086,-1.7540524005889893,-0.0,-0.0,-1.0,0.0151923601788625,1.0,0.0
39.84565734863281,11.856687545776367,-1.750480890274048,-0.0,-0.0,-1.0,0.0429731014109349,1.0,0.0
39.71342086791992,11.848882675170898,-1.7377798557281494,-0.0,-0.0,-1.0,0.062794355970101,1.0,0.0
38.980316162109375,12.30061149597168,-1.732109308242798,-0.0,-0.0,-1.0,0.0304363373837362,1.0,0.0
38.933143615722656,11.05360221862793,-1.5666306018829346,-0.0,-0.0,-1.0,0.165599129871211,1.0,0.0
37.83437728881836,12.45717430114746,-1.6549005508422852,-0.0,-0.0,-1.0,0.1010218540271343,1.0,0.0
38.68343353271485,11.188045501708984,-1.562072992324829,-0.165357609385797,0.1329852701601994,-0.977226575026812,0.1873138461602116,4.0,0.0
37.79021453857422,12.154830932617188,-1.6114177703857422,-0.0,-0.0,-1.0,0.1043190145232765,2.0,0.0
38.22401428222656,13.065418243408203,-1.0884439945220947,-0.0,-0.0,-1.0,0.1311478356314147,1.0,0.0
38.36139297485352,11.591730117797852,-0.948096513748169,-0.5745607978900377,0.8122980147466045,-0.1002587889747769,0.1460542334053081,6.0,0.0
40.01655197143555,12.032451629638672,-1.706484079360962,-0.0,-0.0,-1.0,0.0385818784796345,1.0,0.0
39.72768020629883,11.998788833618164,-1.67051100730896,-0.5499439219507453,0.8298185540851098,-0.0946723296720336,0.065011682270244,3.0,0.0
39.5728645324707,12.117440223693848,-1.6657609939575195,-0.0,-0.0,-1.0,0.134312180464574,2.0,0.0
39.31692886352539,13.10895538330078,-1.7433044910430908,-0.0,-0.0,-1.0,0.0146745135571188,1.0,0.0
38.971431732177734,13.03846836090088,-1.6978414058685305,-0.0,-0.0,-1.0,0.0273047300464048,1.0,0.0
38.82830810546875,13.126568794250488,-1.691736936569214,-0.0,-0.0,-1.0,0.0669652055131457,1.0,0.0
38.48268508911133,12.922905921936035,-1.6320903301239014,-0.0,-0.0,-1.0,0.1758212511288936,1.0,0.0
38.84733200073242,11.466411590576172,-1.515751600265503,-0.5265331403446957,0.4264789587439294,-0.7354444573640124,0.105434076822269,4.0,0.0
38.243900299072266,11.467558860778809,-0.8251516819000244,-0.0,-0.0,-1.0,0.1373419337104701,1.0,0.0
38.185096740722656,11.49178695678711,-0.8218469619750977,-0.0,-0.0,-1.0,0.1172508872227783,1.0,0.0
40.118751525878906,11.952777862548828,-1.7337852716445925,-0.0,-0.0,-1.0,0.0338854566160068,1.0,0.0
39.85528564453125,11.821725845336914,-1.6940609216690063,-0.0,-0.0,-1.0,0.0416963488843367,1.0,0.0
38.95842361450195,11.088872909545898,-1.5140563249588013,-0.0,-0.0,-1.0,0.1523777985145967,2.0,0.0
38.77550506591797,11.619026184082031,-1.5861774682998655,-0.0,-0.0,-1.0,0.1668100517184043,1.0,0.0
38.75054931640625,11.121713638305664,-1.5046852827072144,-0.0,-0.0,-1.0,0.1453570566805203,1.0,0.0
38.66168212890625,11.576595306396484,-1.5716508626937866,-0.0,-0.0,-1.0,0.1625518429150435,1.0,0.0
38.34905242919922,11.813592910766602,-0.967265486717224,-0.0,-0.0,-1.0,0.0821146888220567,1.0,0.0
39.9537353515625,11.819592475891112,-1.7491722106933594,-0.0,-0.0,-1.0,0.0369024346899566,1.0,0.0
39.0010986328125,11.077662467956545,-1.5522007942199707,-0.0,-0.0,-1.0,0.1378367315250458,1.0,0.0
38.71234130859375,11.433626174926758,-1.575801134109497,-0.0,-0.0,-1.0,0.0969768245532486,1.0,0.0
38.554786682128906,12.594804763793944,-1.7341299057006836,-0.0,-0.0,-1.0,0.1192927112620702,1.0,0.0
37.88752746582031,12.159634590148926,-1.611605882644653,0.1048926885121764,0.3370712503098064,-0.9356177083142831,0.0653293614359847,3.0,0.0
38.95301055908203,11.110703468322754,-1.5522420406341553,-0.0,-0.0,-1.0,0.150613926975254,2.0,0.0
38.73246383666992,11.168237686157228,-1.5394830703735352,-0.0,-0.0,-1.0,0.1694277653964337,2.0,0.0
37.78520584106445,12.12054443359375,-1.597127914428711,-0.1501597608693518,-0.3615717996054639,-0.920172744622294,0.1220339567524804,3.0,0.0
38.42176055908203,11.65514087677002,-0.989560604095459,0.0445024360608862,0.4138793505248118,-0.9092433207859196,0.1292873888198266,3.0,0.0
39.372161865234375,10.74679946899414,-1.7079461812973022,-0.0,-0.0,-1.0,0.0417867163532091,1.0,0.0
39.063682556152344,10.893593788146973,-1.6987303495407104,-0.0,-0.0,-1.0,0.0621167684679936,1.0,0.0
38.8400764465332,10.87734317779541,-1.6729196310043335,-0.0,-0.0,-1.0,0.1003433278901291,2.0,0.0
