x,y,z,nx,ny,nz,curvature,density,label
43.14958953857422,10.642769813537598,-1.8191654682159424,-0.0,-0.0,-1.0,0.0277092125405132,1.0,0.0
45.19504165649414,10.749052047729492,-1.9513771533966064,-0.0,-0.0,-1.0,0.0390105424853237,1.0,0.0
44.793190002441406,11.293392181396484,-1.8773109912872312,-0.0,-0.0,-1.0,0.1478929705430382,2.0,0.0
44.79345703125,11.353754997253418,-1.784876823425293,-0.970653403484032,-0.0098536659537759,-0.2402808264763045,0.0852872240579676,3.0,0.0
43.3073844909668,12.618017196655272,-1.910569429397583,-0.0,-0.0,-1.0,0.027626825000688,1.0,0.0
42.91571044921875,10.743650436401367,-1.8300988674163816,-0.9701731301014788,-0.2420264838123724,0.0136849831026101,0.0246981267366472,3.0,0.0
43.05866241455078,10.981307983398438,-1.8320653438568115,-0.0,-0.0,-1.0,0.0267231699535024,1.0,0.0
43.239723205566406,11.61566925048828,-1.8187453746795657,-0.0,-0.0,-1.0,0.1383384218317885,2.0,0.0
43.57215118408203,11.893301010131836,-1.8377816677093504,-0.0,-0.0,-1.0,0.043107275238026,1.0,0.0
43.90260314941406,12.093360900878906,-1.860600233078003,-0.2488979611019398,-0.0867503561457351,-0.964636812830552,0.0756562983144935,3.0,0.0
44.233978271484375,12.132509231567385,-1.8911840915679932,-0.0,-0.0,-1.0,0.0386918122054189,2.0,0.0
44.46077728271485,12.238821029663086,-1.9085214138031008,-0.0,-0.0,-1.0,0.032975532617265,1.0,0.0
45.092063903808594,12.515256881713867,-1.958162546157837,-0.0,-0.0,-1.0,0.0056418306123583,1.0,0.0
43.28074645996094,11.83534049987793,-1.812227487564087,-0.0,-0.0,-1.0,0.0827842938572461,1.0,0.0
43.70269775390625,12.055837631225586,-1.8428514003753664,-0.0,-0.0,-1.0,0.035995034595887,2.0,0.0
43.014060974121094,11.930410385131836,-2.0923662185668945,-0.0,-0.0,-1.0,0.1144855749138811,1.0,0.0
43.135711669921875,12.166269302368164,-2.0914926528930664,-0.0,-0.0,-1.0,0.0793962428142639,1.0,0.0
43.38603973388672,12.1651611328125,-2.1175527572631836,-0.0,-0.0,-1.0,0.1015897469570444,1.0,0.0
44.609130859375,13.025346755981444,-2.1980953216552734,-0.0,-0.0,-1.0,0.0201790169846114,1.0,0.0
44.85221862792969,11.47141456604004,-1.788020133972168,-0.0,-0.0,-1.0,0.0759832946010049,1.0,0.0
43.32317352294922,11.60687255859375,-1.7013287544250488,-0.0,-0.0,-1.0,0.1559087110987995,1.0,0.0
44.628082275390625,11.439105987548828,-1.844322681427002,-0.0,-0.0,-1.0,0.0658966184624397,2.0,0.0
42.97616958618164,12.761698722839355,-1.965285062789917,-0.0,-0.0,-1.0,0.0574691674536297,1.0,0.0
42.95917892456055,12.652243614196776,-1.9662878513336184,-0.0,-0.0,-1.0,0.0401066091638078,1.0,0.0
43.13066482543945,12.92311668395996,-1.9824869632720947,-0.0,-0.0,-1.0,0.1965559027110855,1.0,0.0
43.952781677246094,12.576007843017578,-1.7128217220306396,-0.0,-0.0,-1.0,0.0968303498024664,1.0,0.0
44.73029327392578,11.689988136291504,-1.8321435451507568,-0.0,-0.0,-1.0,0.1364357851079653,1.0,0.0
44.73828887939453,11.51061725616455,-1.834930181503296,-0.8841971728370861,0.4663207671750385,0.0272084848565243,0.093455789441895,3.0,0.0
45.109344482421875,10.752620697021484,-1.8957393169403076,-0.0,-0.0,-1.0,0.0179975979498211,1.0,0.0
43.18359375,12.322287559509276,-1.9012482166290283,-0.0,-0.0,-1.0,0.0421028241805536,1.0,0.0
43.1044921875,12.03899097442627,-1.8947336673736572,-0.0,-0.0,-1.0,0.059516479410191,2.0,0.0
43.0132942199707,11.765028953552246,-1.8863804340362549,-0.0,-0.0,-1.0,0.0425142367113462,1.0,0.0
43.36415481567383,12.828853607177734,-1.9197227954864504,-0.0,-0.0,-1.0,0.0504952686869466,1.0,0.0
43.296878814697266,12.541872024536133,-1.9146130084991455,-0.0,-0.0,-1.0,0.0186383229888909,1.0,0.0
44.71215057373047,11.580729484558104,-1.8467090129852295,-0.0,-0.0,-1.0,0.08460560651795,2.0,0.0
45.08495330810547,10.815410614013672,-1.9171760082244873,0.2214714707400458,-0.882279798245587,-0.4153706119310407,0.0390105424853237,4.0,0.0
44.943511962890625,10.7000732421875,-1.8990919589996336,-0.0,-0.0,-1.0,0.0520339883702496,2.0,0.0
45.19309997558594,11.266629219055176,-1.9234468936920168,-0.0,-0.0,-1.0,0.030078734630208,1.0,0.0
45.2030143737793,11.044219017028809,-1.9295203685760496,-0.0,-0.0,-1.0,0.0127972026123683,1.0,0.0
42.91649627685547,10.74306297302246,-1.7847785949707031,-0.4922296177541913,-0.8498692584692517,0.1882345529239706,0.0373967522066633,4.0,0.0
43.12685775756836,11.060885429382324,-1.825608730316162,-0.0,-0.0,-1.0,0.018855452693964,1.0,0.0
43.231689453125,11.426334381103516,-1.8490018844604492,-0.0,-0.0,-1.0,0.1008248541136071,1.0,0.0
43.32978057861328,11.943029403686523,-1.8743486404418943,0.7481057540127697,-0.6635289050621205,-0.0081959111786697,0.0617693322221036,3.0,0.0
43.310585021972656,11.677593231201172,-1.866671562194824,-0.0,-0.0,-1.0,0.1455765279854035,1.0,0.0
43.35411834716797,12.51694107055664,-1.8889288902282717,-0.0,-0.0,-1.0,0.0238374726532316,2.0,0.0
43.311500549316406,12.305394172668455,-1.877352237701416,-0.0,-0.0,-1.0,0.0259314004314942,1.0,0.0
43.44450378417969,12.82829475402832,-1.9114131927490232,-0.0,-0.0,-1.0,0.029615100061331,1.0,0.0
44.19999313354492,10.662322998046877,-1.8622193336486816,-0.0,-0.0,-1.0,0.0227388150077875,2.0,0.0
43.49723815917969,11.71259880065918,-1.7789411544799805,0.3713291171686499,0.1616563525448222,-0.9143204637459752,0.1393673683267413,3.0,0.0
44.268836975097656,11.093109130859377,-1.8940739631652832,-0.0,-0.0,-1.0,0.0341793990266478,1.0,0.0
44.23312759399414,11.731189727783203,-1.917207717895508,0.8125404049020809,0.5827730593883893,-0.0123956303857298,0.0097499810794011,3.0,0.0
44.27075958251953,11.400060653686523,-1.908508777618408,-0.0,-0.0,-1.0,0.0443059853790847,1.0,0.0
43.727996826171875,12.440936088562012,-1.8579659461975095,-0.0,-0.0,-1.0,0.0544457356545072,1.0,0.0
43.963600158691406,12.091445922851562,-1.884469509124756,-0.1225514878560804,0.6506230224035031,-0.7494470064939825,0.0571769100840758,3.0,0.0
43.72425079345703,12.75950813293457,-1.8738279342651367,-0.0,-0.0,-1.0,0.0910970325049602,2.0,0.0
44.06100082397461,13.073932647705078,-1.953958511352539,-0.0,-0.0,-1.0,0.0749627134030183,2.0,0.0
43.11787033081055,10.798088073730469,-1.7891316413879397,-0.0,-0.0,-1.0,0.0333066711808832,2.0,0.0
43.27802276611328,10.96435546875,-1.8270835876464844,-0.0,-0.0,-1.0,0.0222090228800867,1.0,0.0
43.30476379394531,11.374394416809082,-1.8491439819335935,-0.0,-0.0,-1.0,0.0630775476741053,1.0,0.0
43.31946563720703,11.161203384399414,-1.843181610107422,-0.0,-0.0,-1.0,0.0176716096826234,1.0,0.0
43.354454040527344,11.651214599609377,-1.8709783554077148,-0.0,-0.0,-1.0,0.1500556508642501,1.0,0.0
43.29365921020508,12.072989463806152,-1.878135681152344,-0.0,-0.0,-1.0,0.071009086286166,2.0,0.0
43.316375732421875,12.45655632019043,-1.9011483192443848,-0.0,-0.0,-1.0,0.0160093317993146,2.0,0.0
43.31298828125,12.907855987548828,-1.9234986305236816,-0.0,-0.0,-1.0,0.0683668945160233,1.0,0.0
43.41525650024414,12.789525985717772,-1.9376816749572752,-0.0,-0.0,-1.0,0.0306596647386281,1.0,0.0
42.79181289672851,11.899967193603516,-1.9131340980529783,-0.0,-0.0,-1.0,0.1090813513657951,1.0,0.0
42.76288986206055,12.153312683105469,-1.9104313850402832,-0.0,-0.0,-1.0,0.0808586545706498,1.0,0.0
42.810760498046875,12.141355514526367,-1.921334743499756,-0.0,-0.0,-1.0,0.0815636919141016,1.0,0.0
42.82601165771485,12.561077117919922,-1.9326720237731936,-0.0,-0.0,-1.0,0.0210671876312729,2.0,0.0
42.882232666015625,12.965173721313477,-1.9548683166503904,-0.0,-0.0,-1.0,0.0988879506948092,1.0,0.0
44.248023986816406,10.761896133422852,-1.8726699352264404,-0.0,-0.0,-1.0,0.0161800028797828,1.0,0.0
44.33962631225586,10.87118911743164,-1.893054723739624,-0.0,-0.0,-1.0,0.0220125871887915,1.0,0.0
44.22039031982422,11.014875411987305,-1.868628740310669,-0.0,-0.0,-1.0,0.0276624689081584,1.0,0.0
44.40338134765625,11.200687408447266,-1.908962965011597,-0.0,-0.0,-1.0,0.0431482987410148,1.0,0.0
43.425682067871094,11.565004348754885,-1.6942250728607178,-0.0,-0.0,-1.0,0.1979581507015555,2.0,0.0
44.45381164550781,11.60441780090332,-1.9260847568511963,-0.0,-0.0,-1.0,0.0345916366425159,2.0,0.0
44.63483428955078,11.921629905700684,-1.9725396633148191,-0.0,-0.0,-1.0,0.0718946225341145,1.0,0.0
43.7912712097168,12.439691543579102,-1.792349100112915,0.3365178623080074,-0.9065517772824376,-0.2547932562955753,0.0438085596406497,3.0,0.0
43.84722900390625,12.667715072631836,-1.810361623764038,-0.6852829577632814,0.6641348120303507,-0.2988515003285401,0.1055666541686209,4.0,0.0
44.68611145019531,12.79689598083496,-2.004721403121948,-0.0,-0.0,-1.0,0.0226971630001646,1.0,0.0
44.745628356933594,12.655574798583984,-2.0144002437591553,-0.0,-0.0,-1.0,0.0161394845901456,1.0,0.0
44.98521041870117,10.70928192138672,-1.910102605819702,-0.2413904163778899,-0.0646856439193778,-0.968269814851028,0.0534601143154102,3.0,0.0
44.79245376586914,11.2703275680542,-1.8708765506744385,-0.0,-0.0,-1.0,0.1148747480440314,2.0,0.0
44.95783233642578,11.043275833129885,-1.906425714492798,-0.0,-0.0,-1.0,0.0441476132816691,2.0,0.0
44.6784553527832,11.502676963806152,-1.8475329875946045,-0.4298652431890719,-0.9007789983076924,-0.0617500518687252,0.0758610416789306,3.0,0.0
45.034324645996094,11.665729522705078,-1.9315903186798096,-0.0,-0.0,-1.0,0.043235420184447,1.0,0.0
45.14460754394531,11.956847190856934,-1.9619381427764893,-0.0,-0.0,-1.0,0.0484661477922324,1.0,0.0
43.061767578125,10.79268741607666,-1.830679178237915,-0.0700069465944679,-0.7770219042785657,-0.6255685315773414,0.0379101065200558,3.0,0.0
43.21921920776367,11.115068435668944,-1.8703067302703855,-0.0,-0.0,-1.0,0.023487853784999,2.0,0.0
43.25763702392578,11.233522415161133,-1.880213975906372,-0.0,-0.0,-1.0,0.016895365438121,1.0,0.0
43.33612823486328,11.572482109069824,-1.9013049602508545,-0.0,-0.0,-1.0,0.1321703586074658,1.0,0.0
43.35203552246094,11.968534469604492,-1.9078161716461184,-0.0,-0.0,-1.0,0.0620746349360755,2.0,0.0
43.39543151855469,12.3858642578125,-1.924030065536499,-0.0,-0.0,-1.0,0.0186407079879912,1.0,0.0
43.11507415771485,12.932270050048828,-1.8575761318206787,-0.0,-0.0,-1.0,0.1482573468142577,2.0,0.0
43.455711364746094,12.703853607177734,-1.94527268409729,-0.0,-0.0,-1.0,0.0301596127091602,1.0,0.0
43.548301696777344,13.136385917663574,-1.9795310497283936,-0.0,-0.0,-1.0,0.0781132562659171,1.0,0.0
43.107666015625,10.687829971313477,-1.839895248413086,-0.0,-0.0,-1.0,0.0324839338683142,1.0,0.0
43.35018539428711,11.09035873413086,-1.9010038375854492,-0.0,-0.0,-1.0,0.0150495389800208,1.0,0.0
43.39412307739258,11.500885009765623,-1.9096059799194336,-0.0,-0.0,-1.0,0.1447262360565691,1.0,0.0
43.44086837768555,11.890365600585938,-1.9217395782470703,-0.0,-0.0,-1.0,0.0677439194984096,1.0,0.0
43.447731018066406,12.28898811340332,-1.9250845909118652,-0.0,-0.0,-1.0,0.0397652160887798,1.0,0.0
43.52764892578125,12.676301956176758,-1.9519367218017576,-0.0,-0.0,-1.0,0.0370742944470368,1.0,0.0
43.630401611328125,13.083951950073242,-1.988431930541992,-0.0,-0.0,-1.0,0.0806613323426377,2.0,0.0
43.766605377197266,11.23461627960205,-1.9323421716690063,-0.0,-0.0,-1.0,0.0086502050178789,1.0,0.0
43.39825820922851,10.796270370483398,-1.8538106679916384,-0.0,-0.0,-1.0,0.0178745490284748,2.0,0.0
43.61288070678711,11.002050399780272,-1.8996201753616333,-0.0,-0.0,-1.0,0.00939550664706,1.0,0.0
43.71598434448242,11.185396194458008,-1.9211024045944216,-0.0,-0.0,-1.0,0.0066455404702054,1.0,0.0
43.53727722167969,11.59604835510254,-1.8725892305374143,-0.0,-0.0,-1.0,0.1567642293564496,1.0,0.0
43.74485778808594,11.618820190429688,-1.922404408454895,-0.0,-0.0,-1.0,0.038081313929258,1.0,0.0
43.767189025878906,11.97136116027832,-1.9251350164413452,-0.0,-0.0,-1.0,0.0499185203244668,2.0,0.0
43.603904724121094,12.40553092956543,-1.8843265771865845,-0.0114731602161601,0.0401657073432869,-0.999127160349606,0.0501176220404091,3.0,0.0
43.697357177734375,12.214597702026367,-1.9072219133377075,-0.0,-0.0,-1.0,0.0244341668284637,1.0,0.0
43.621131896972656,12.646883010864258,-1.8890222311019895,-0.0,-0.0,-1.0,0.0384308522878906,1.0,0.0
43.864166259765625,12.828361511230469,-1.949712157249451,-0.0,-0.0,-1.0,0.0555095929324837,1.0,0.0
44.029052734375,13.0076322555542,-1.9918912649154663,-0.0,-0.0,-1.0,0.0508869088056626,1.0,0.0
44.034305572509766,10.823226928710938,-1.8910675048828125,-0.0,-0.0,-1.0,0.012175198018423,1.0,0.0
44.13905715942383,11.089055061340332,-1.909817695617676,-0.0,-0.0,-1.0,0.0309040243275308,1.0,0.0
44.201171875,11.20708465576172,-1.9220049381256104,0.6934430141282111,-0.6022669080264393,-0.3954887579351075,0.0414648129531104,3.0,0.0
44.269554138183594,11.62548828125,-1.9328711032867432,-0.0,-0.0,-1.0,0.0146754599981255,2.0,0.0
43.986289978027344,12.1776123046875,-1.8654658794403076,-0.0,-0.0,-1.0,0.0888287925041345,1.0,0.0
44.26689910888672,11.945404052734377,-1.93011212348938,-0.0,-0.0,-1.0,0.0144390379012249,2.0,0.0
43.80133819580078,12.339696884155272,-1.8230018615722656,-0.0,-0.0,-1.0,0.0712363428344616,1.0,0.0
43.87531280517578,12.264687538146973,-1.839991807937622,-0.450875973494755,-0.7388521554245819,-0.5008076965758478,0.038341682741526,3.0,0.0
43.976375579833984,12.737716674804688,-1.8635106086730957,-0.0,-0.0,-1.0,0.0845763024416595,2.0,0.0
44.420040130615234,12.873403549194336,-1.9663019180297852,-0.0,-0.0,-1.0,0.0309270209504529,1.0,0.0
43.46578598022461,11.638755798339844,-1.75172758102417,-0.7036240144668146,0.6453750687996518,-0.2973285503234579,0.1577747272837552,7.0,0.0
43.773590087890625,12.492865562438965,-1.8166053295135496,0.1268111768134096,-0.9502904827631644,-0.2843711022677063,0.1061394631645362,4.0,0.0
43.81272888183594,12.64686393737793,-1.825711727142334,-0.0,-0.0,-1.0,0.1007550697954133,2.0,0.0
43.84986877441406,12.688541412353516,-1.8343286514282229,-0.0,-0.0,-1.0,0.1032474769057233,2.0,0.0
42.9159049987793,10.681634902954102,-1.8409099578857424,-0.0,-0.0,-1.0,0.0373967522066633,1.0,0.0
43.02968978881836,10.89673900604248,-1.8638429641723633,-0.0,-0.0,-1.0,0.0332142399970633,1.0,0.0
43.186378479003906,11.246379852294922,-1.8959245681762695,-0.0,-0.0,-1.0,0.0163112273680701,2.0,0.0
44.792518615722656,11.311785697937012,-1.779364824295044,0.5191378902594175,-0.1438151175462874,-0.8425040432319293,0.1043034641083658,4.0,0.0
43.30595397949219,11.635351181030272,-1.920341968536377,-0.0,-0.0,-1.0,0.1306590188136363,2.0,0.0
43.330787658691406,12.030529975891112,-1.9226140975952148,-0.0,-0.0,-1.0,0.0697809298549496,1.0,0.0
43.34874725341797,12.300090789794922,-1.925886631011963,-0.0,-0.0,-1.0,0.0807121944041334,1.0,0.0
43.4130859375,12.467530250549316,-1.9428057670593264,-0.0,-0.0,-1.0,0.0261046536312014,1.0,0.0
43.10227584838867,12.93621826171875,-1.8610613346099856,-0.0,-0.0,-1.0,0.1525782367713991,2.0,0.0
43.493072509765625,12.800294876098633,-1.9653239250183103,-0.0,-0.0,-1.0,0.03803966829472,1.0,0.0
43.200462341308594,13.066472053527832,-1.8884787559509275,-0.0,-0.0,-1.0,0.1268594116486198,2.0,0.0
44.59894561767578,10.811555862426758,-1.911827802658081,-0.0,-0.0,-1.0,0.0308391942088951,1.0,0.0
42.82167053222656,11.137710571289062,-1.899608373641968,-0.0,-0.0,-1.0,0.0186423255737683,1.0,0.0
42.89351272583008,11.329519271850586,-1.910879611968994,-0.0,-0.0,-1.0,0.0157661432018876,1.0,0.0
44.58098983764648,11.248538970947266,-1.8973667621612549,-0.0,-0.0,-1.0,0.045002291860291,1.0,0.0
43.041236877441406,11.663307189941406,-1.9392709732055664,-0.0,-0.0,-1.0,0.0408491033961015,1.0,0.0
44.67049407958984,11.63337516784668,-1.9138062000274656,-0.0,-0.0,-1.0,0.1005719626950115,2.0,0.0
44.86777114868164,11.806747436523438,-1.9621782302856443,-0.0,-0.0,-1.0,0.0651890885026643,1.0,0.0
43.11354446411133,12.069812774658203,-1.9466521739959717,-0.0,-0.0,-1.0,0.0577279438383559,2.0,0.0
44.935935974121094,12.027074813842772,-1.9781732559204104,-0.0,-0.0,-1.0,0.0494904192010424,1.0,0.0
43.2000617980957,12.44601821899414,-1.9626829624176023,-0.0,-0.0,-1.0,0.0295839068581516,1.0,0.0
44.96943283081055,12.428635597229004,-1.985868453979492,-0.0,-0.0,-1.0,0.0062263559419089,1.0,0.0
43.227516174316406,12.879507064819336,-1.9640378952026367,-0.0,-0.0,-1.0,0.1204789694761461,1.0,0.0
43.34605026245117,12.835087776184082,-1.999594449996948,-0.0,-0.0,-1.0,0.0511131086167042,1.0,0.0
45.07245635986328,12.80858039855957,-2.014369010925293,-0.0,-0.0,-1.0,0.015800140619757,1.0,0.0
43.14217376708984,10.840436935424805,-1.8297085762023928,-0.0,-0.0,-1.0,0.0306765301908901,2.0,0.0
45.05217742919922,10.757184982299805,-1.900625467300415,-0.0,-0.0,-1.0,0.0382438229841359,2.0,0.0
43.371334075927734,11.1980619430542,-1.873603105545044,-0.0,-0.0,-1.0,0.0162193739322696,1.0,0.0
45.003910064697266,11.222427368164062,-1.8731284141540527,-0.0,-0.0,-1.0,0.0530346265983546,1.0,0.0
45.082557678222656,11.04180145263672,-1.8991155624389648,-0.0,-0.0,-1.0,0.0267880909807718,1.0,0.0
43.424713134765625,11.41811752319336,-1.8769760131835935,-0.0,-0.0,-1.0,0.1367499428548354,2.0,0.0
43.49647903442383,11.622529983520508,-1.8879899978637695,-0.0,-0.0,-1.0,0.1781823995191412,1.0,0.0
44.814361572265625,11.447368621826172,-1.8171765804290771,-0.4791353466459416,-0.0767286897634646,-0.8743809397291636,0.1183252090530611,3.0,0.0
43.574214935302734,12.011377334594728,-1.8941824436187744,-0.0,-0.0,-1.0,0.0150926673791917,2.0,0.0
43.58609390258789,12.4204683303833,-1.883521556854248,-0.0114731602161601,0.0401657073432869,-0.999127160349606,0.0486809403729282,3.0,0.0
43.7341194152832,12.794563293457031,-1.91890549659729,-0.0,-0.0,-1.0,0.0750742961434803,1.0,0.0
43.88294219970703,12.988401412963867,-1.960771083831787,-0.0,-0.0,-1.0,0.0938517066223847,1.0,0.0
43.92736053466797,13.128183364868164,-1.972578525543213,-0.0,-0.0,-1.0,0.0760836405090253,1.0,0.0
45.03557205200195,10.75266456604004,-1.929767370223999,-0.0,-0.0,-1.0,0.0382438229841359,2.0,0.0
45.12027740478515,11.035892486572266,-1.9377129077911377,-0.0,-0.0,-1.0,0.0127972026123682,1.0,0.0
44.839561462402344,11.310300827026367,-1.845290184020996,-0.0,-0.0,-1.0,0.1155274834101503,1.0,0.0
45.1367073059082,11.291887283325195,-1.929842472076416,-0.0,-0.0,-1.0,0.0455852428076611,1.0,0.0
44.84857940673828,11.395386695861816,-1.8437306880950928,-0.0,-0.0,-1.0,0.1537726109254473,1.0,0.0
44.209712982177734,11.342607498168944,-1.8096808195114136,-0.0,-0.0,-1.0,0.0372128456668511,1.0,0.0
44.305931091308594,11.213249206542969,-1.8132449388504028,-0.0,-0.0,-1.0,0.0415139531578722,1.0,0.0
43.01822280883789,10.73128604888916,-1.8188976049423216,-0.0,-0.0,-1.0,0.0397487954225406,2.0,0.0
43.19075775146485,11.055685997009276,-1.8563302755355835,-0.6210179505577614,-0.0251194907556577,-0.7833937172770883,0.0179624674626372,3.0,0.0
43.362674713134766,11.798990249633787,-1.9129356145858765,-0.0,-0.0,-1.0,0.1029576826200214,1.0,0.0
43.43220138549805,11.358952522277832,-1.9023398160934448,-0.0,-0.0,-1.0,0.059130866881151,1.0,0.0
43.05299377441406,10.67647933959961,-1.875427007675171,-0.0,-0.0,-1.0,0.0384723844289023,1.0,0.0
42.95750427246094,11.060575485229492,-1.90194034576416,-0.0,-0.0,-1.0,0.0177252719011714,1.0,0.0
42.78758239746094,11.58303451538086,-1.9335730075836184,-0.0,-0.0,-1.0,0.0827721749321424,1.0,0.0
42.87648391723633,11.411725997924805,-1.927964448928833,-0.0,-0.0,-1.0,0.0864865498679592,1.0,0.0
44.710723876953125,11.16360092163086,-1.9151321649551392,-0.0,-0.0,-1.0,0.0708686523857671,1.0,0.0
44.95263671875,10.990665435791016,-1.9395111799240112,-0.0,-0.0,-1.0,0.0335508295907922,1.0,0.0
43.42425537109375,11.621259689331056,-1.7582212686538696,-0.5278938053398257,0.5669643608695624,0.6323602958658987,0.2087508161534819,6.0,0.0
44.506202697753906,11.559215545654297,-1.910556435585022,-0.0,-0.0,-1.0,0.0471863753449726,2.0,0.0
44.53763198852539,11.391993522644045,-1.9044450521469116,-0.0,-0.0,-1.0,0.0714267075200519,2.0,0.0
44.779579162597656,11.91664981842041,-1.9733670949935913,-0.0,-0.0,-1.0,0.0736257735592091,1.0,0.0
43.70130920410156,12.393587112426758,-1.8502520322799685,0.2942817721436195,-0.179783703051749,-0.9386565179558558,0.0413134600288087,3.0,0.0
44.068477630615234,12.177568435668944,-1.8882800340652464,-0.0,-0.0,-1.0,0.0565246951320271,2.0,0.0
44.49910736083984,12.151698112487791,-1.948626160621643,-0.0,-0.0,-1.0,0.0306601246436452,1.0,0.0
44.710792541503906,12.058417320251465,-1.9728869199752808,-0.0,-0.0,-1.0,0.0479368335447387,1.0,0.0
44.46526336669922,11.179821014404297,-1.877002835273743,-0.0,-0.0,-1.0,0.0390022071437275,2.0,0.0
44.66766357421875,11.017499923706056,-1.8965619802474976,-0.0,-0.0,-1.0,0.0357486480720257,1.0,0.0
43.44331359863281,11.610357284545898,-1.7514084577560425,-0.5278938053398257,0.5669643608695624,0.6323602958658987,0.1596372978119776,6.0,0.0
44.42613983154297,11.420583724975586,-1.8888579607009888,-0.620574072889632,-0.5037860674297222,-0.60090549866087,0.0267051886134422,3.0,0.0
44.04780197143555,12.006622314453123,-1.875944972038269,-0.0,-0.0,-1.0,0.0401844935189929,2.0,0.0
44.447654724121094,11.784391403198242,-1.9200793504714968,-0.0,-0.0,-1.0,0.0204864036778647,1.0,0.0
43.68651580810547,12.36749267578125,-1.849892020225525,-0.0,-0.0,-1.0,0.033757672866213,2.0,0.0
43.89955139160156,12.123218536376951,-1.8624979257583616,-0.2488979611019398,-0.0867503561457351,-0.964636812830552,0.0814078814649147,3.0,0.0
43.08132553100586,12.94283676147461,-1.806568264961243,-0.0,-0.0,-1.0,0.1525782367713991,2.0,0.0
43.6919059753418,12.702957153320312,-1.879160523414612,-0.3076415659142669,0.5953222894828931,-0.7422587409836713,0.0413619068051932,3.0,0.0
43.981056213378906,13.01895523071289,-1.9510377645492551,-0.0,-0.0,-1.0,0.0915271687737048,1.0,0.0
44.09650802612305,13.13021183013916,-1.9786404371261597,-0.0,-0.0,-1.0,0.0391652343847331,2.0,0.0
44.970008850097656,10.776561737060549,-1.9111521244049072,-0.0,-0.0,-1.0,0.0389690343876177,2.0,0.0
44.53197479248047,11.211517333984377,-1.8738138675689695,-0.0,-0.0,-1.0,0.0463465181292894,2.0,0.0
44.75164794921875,11.029067993164062,-1.8951897621154783,-0.0,-0.0,-1.0,0.0465257268458753,1.0,0.0
44.48664093017578,11.466153144836426,-1.8874216079711912,-0.0,-0.0,-1.0,0.0456035100120967,2.0,0.0
44.18972396850586,12.021158218383787,-1.886601448059082,-0.0,-0.0,-1.0,0.0282383362764201,1.0,0.0
44.52001953125,11.812685012817385,-1.922358751296997,-0.0,-0.0,-1.0,0.0375766790753074,1.0,0.0
43.74164962768555,12.344093322753906,-1.8427176475524905,-0.0,-0.0,-1.0,0.0527537275684128,2.0,0.0
43.970455169677734,12.121251106262209,-1.859715461730957,-0.1225514878560804,0.6506230224035031,-0.7494470064939825,0.0818636043982653,3.0,0.0
43.72813415527344,12.725444793701172,-1.8761398792266848,0.0383941025642487,0.0720225906913153,-0.9966637543918196,0.1062838185639748,3.0,0.0
44.06681060791016,13.10495948791504,-1.9677190780639648,0.0101762329845355,-0.4069921097493787,-0.913374987003692,0.0693152769368983,3.0,0.0
43.45377349853515,11.62680721282959,-1.7318956851959229,-0.8737712965114479,0.42817645115443,0.2306266421502538,0.1596372978119776,9.0,0.0
43.059303283691406,12.9254150390625,-1.7869477272033691,-0.0,-0.0,-1.0,0.1432356848726838,2.0,0.0
44.90757751464844,11.04368782043457,-1.9134387969970703,-0.0,-0.0,-1.0,0.0438752714175058,1.0,0.0
45.07866668701172,10.81942081451416,-1.9307234287261963,0.2214714707400458,-0.882279798245587,-0.4153706119310407,0.0390105424853237,4.0,0.0
43.46528625488281,11.647075653076172,-1.689965009689331,-0.9674496762991508,-0.154613383568217,0.2003392758553747,0.1352345968682558,4.0,0.0
44.607688903808594,11.43376922607422,-1.8841745853424072,0.8106096687795463,0.3587217704410627,-0.4628505766365035,0.098128186130593,3.0,0.0
44.70569610595703,11.235511779785156,-1.8888442516326904,-0.0,-0.0,-1.0,0.0956891098178911,2.0,0.0
44.619667053222656,11.666924476623535,-1.902420997619629,-0.0,-0.0,-1.0,0.0594269990907401,1.0,0.0
44.83927917480469,11.898746490478516,-1.9590165615081787,-0.0,-0.0,-1.0,0.0690329868695006,1.0,0.0
43.81923294067383,12.39407444000244,-1.8102433681488037,-0.4068905348629916,-0.9133416203655952,0.0157218684276813,0.0765979226980785,3.0,0.0
44.100860595703125,12.300227165222168,-1.8542025089263916,-0.0,-0.0,-1.0,0.0495754215787158,1.0,0.0
44.5885009765625,12.221736907958984,-1.937061548233032,-0.0,-0.0,-1.0,0.0251167226688513,1.0,0.0
44.86312484741211,12.057153701782228,-1.9748904705047607,-0.0,-0.0,-1.0,0.0435111031953744,1.0,0.0
43.79915618896485,12.57605266571045,-1.8209922313690183,-0.0,-0.0,-1.0,0.102872367430686,1.0,0.0
44.063133239746094,12.810895919799805,-1.8877882957458496,-0.0,-0.0,-1.0,0.0602993654796828,1.0,0.0
44.35748291015625,13.040504455566406,-1.9599978923797607,-0.0,-0.0,-1.0,0.0318698797192797,1.0,0.0
44.485740661621094,13.030067443847656,-1.9823558330535889,-0.0,-0.0,-1.0,0.025226715452612,2.0,0.0
44.79822540283203,11.437126159667969,-1.8074356317520144,-0.4791353466459416,-0.0767286897634646,-0.8743809397291636,0.1066464105096217,3.0,0.0
44.685829162597656,10.825772285461426,-1.9009004831314087,-0.0,-0.0,-1.0,0.0344538043701876,1.0,0.0
44.484642028808594,11.332508087158203,-1.8922754526138303,-0.2267998686895563,-0.0870746313205732,-0.9700411476544624,0.0318015088357764,3.0,0.0
44.56250762939453,11.145285606384276,-1.8957878351211548,-0.0,-0.0,-1.0,0.0343088717511758,1.0,0.0
44.48979568481445,11.5908842086792,-1.912352204322815,0.4033431580637946,0.1578556082155015,-0.9013300748327656,0.0447571363271184,3.0,0.0
44.46991729736328,11.961122512817385,-1.9368363618850708,-0.0,-0.0,-1.0,0.0345867345485387,1.0,0.0
44.57638168334961,11.93666648864746,-1.9574564695358276,-0.0,-0.0,-1.0,0.0595909071980287,1.0,0.0
44.45756912231445,11.364861488342283,-1.888849854469299,-0.132236298361792,-0.0057045590249805,-0.9912018055884992,0.0266601861420999,3.0,0.0
43.46295928955078,11.600865364074709,-1.6944137811660769,-0.9803544150330352,0.0882691571750152,-0.1763909771412575,0.1493842164395808,5.0,0.0
43.90452194213867,12.24726676940918,-1.840587496757507,-0.0,-0.0,-1.0,0.0691490793083628,2.0,0.0
44.272762298583984,12.114300727844238,-1.907404541969299,-0.0,-0.0,-1.0,0.0209140921942325,2.0,0.0
43.727012634277344,12.49303913116455,-1.8245164155960083,0.1268111768134096,-0.9502904827631644,-0.2843711022677063,0.0726647155908943,4.0,0.0
44.04661560058594,12.90277099609375,-1.929075598716736,-0.0,-0.0,-1.0,0.0626859390946208,2.0,0.0
43.10107421875,10.78410530090332,-1.824418067932129,-0.2587177564538643,-0.8495105607673771,0.4597792183648318,0.0342705686593447,3.0,0.0
43.189361572265625,10.980159759521484,-1.8611361980438232,-0.0,-0.0,-1.0,0.0213587888857566,2.0,0.0
43.166202545166016,11.278029441833496,-1.87817907333374,-0.6958351284071573,-0.041569174085731,-0.716997543817568,0.0153764668279557,3.0,0.0
43.20814514160156,11.108240127563477,-1.8756210803985596,-0.0,-0.0,-1.0,0.0186237474066874,2.0,0.0
43.157413482666016,11.586456298828123,-1.901439905166626,-0.0,-0.0,-1.0,0.0658192405971622,1.0,0.0
44.79964065551758,11.46096134185791,-1.810302734375,-0.4791353466459416,-0.0767286897634646,-0.8743809397291636,0.1055156320589485,3.0,0.0
44.9158821105957,11.396215438842772,-1.8310840129852295,-0.0,-0.0,-1.0,0.1327324551374628,1.0,0.0
43.094940185546875,12.036434173583984,-1.9261360168457031,0.7998133587609829,-0.5669566850588426,-0.1971261231155417,0.0588662611606705,3.0,0.0
45.183963775634766,11.758904457092283,-1.916952848434448,-0.0,-0.0,-1.0,0.0364059493030214,1.0,0.0
42.94926452636719,12.591903686523438,-1.9446427822113037,-0.0,-0.0,-1.0,0.0298711424780634,1.0,0.0
42.99301528930664,12.405195236206056,-1.9364383220672607,-0.0,-0.0,-1.0,0.0176448059879034,2.0,0.0
44.007083892822266,12.497699737548828,-1.7224414348602295,-0.0,-0.0,-1.0,0.0441867772890005,2.0,0.0
42.95369720458984,12.828863143920898,-1.971311330795288,-0.0,-0.0,-1.0,0.0755568664405587,1.0,0.0
44.00356674194336,12.591605186462402,-1.7302453517913818,-0.0,-0.0,-1.0,0.0945952406852659,1.0,0.0
45.184078216552734,12.506985664367676,-1.978348970413208,-0.0,-0.0,-1.0,0.004624842402611,1.0,0.0
44.95252990722656,13.112046241760254,-1.9835922718048096,-0.0,-0.0,-1.0,0.0188908299137505,1.0,0.0
45.07150650024414,12.987466812133787,-1.9973676204681396,-0.0,-0.0,-1.0,0.0166452073678847,1.0,0.0
43.286155700683594,10.901958465576172,-1.8536670207977295,-0.0,-0.0,-1.0,0.0241393050865015,1.0,0.0
43.32551574707031,11.28817653656006,-1.8955097198486328,-0.0,-0.0,-1.0,0.0287023649547692,1.0,0.0
45.100318908691406,11.100998878479004,-1.909761667251587,-0.0,-0.0,-1.0,0.0300986552714709,1.0,0.0
45.206825256347656,10.912168502807615,-1.923112392425537,-0.0,-0.0,-1.0,0.0172237235408844,1.0,0.0
43.2598876953125,11.877508163452148,-1.9307184219360352,-0.0,-0.0,-1.0,0.0561870603151856,1.0,0.0
43.30284881591797,11.671737670898438,-1.9231135845184328,-0.0,-0.0,-1.0,0.0894587401581487,2.0,0.0
44.72259140014648,11.481438636779783,-1.844966411590576,0.1699234434188196,0.2375460147212291,-0.956398407708186,0.1066234027650859,3.0,0.0
44.959197998046875,11.327298164367676,-1.891218900680542,-0.0,-0.0,-1.0,0.0737548935044706,1.0,0.0
43.18148040771485,12.113903045654297,-1.9330425262451172,-0.0,-0.0,-1.0,0.0843434047339136,1.0,0.0
45.05231475830078,11.921463012695312,-1.9611937999725344,-0.0,-0.0,-1.0,0.0623939679349646,1.0,0.0
43.133575439453125,12.534648895263672,-1.9659478664398191,-0.0,-0.0,-1.0,0.0108669994570836,1.0,0.0
44.9031982421875,12.410984992980955,-1.968489408493042,-0.0,-0.0,-1.0,0.0078795709343564,1.0,0.0
45.00758743286133,12.207521438598633,-1.9751133918762207,-0.0,-0.0,-1.0,0.0204672094653709,1.0,0.0
43.009857177734375,13.119621276855469,-2.0032782554626465,-0.0,-0.0,-1.0,0.1432410421211999,1.0,0.0
43.05717849731445,12.914170265197754,-1.9902796745300293,-0.0,-0.0,-1.0,0.1648018762612284,1.0,0.0
44.95417022705078,12.603837013244627,-1.999118089675903,-0.0,-0.0,-1.0,0.0039056487393588,1.0,0.0
44.771453857421875,13.107465744018556,-2.0066394805908203,-0.0,-0.0,-1.0,0.0218233151629747,1.0,0.0
43.95922088623047,12.50479507446289,-1.749742031097412,-0.0,-0.0,-1.0,0.0586977871674175,1.0,0.0
44.011722564697266,12.655117988586426,-1.7774710655212402,-0.0,-0.0,-1.0,0.0762511409605006,1.0,0.0
44.26167678833008,10.924086570739746,-1.9193065166473389,-0.0,-0.0,-1.0,0.0249607655042429,1.0,0.0
44.18119812011719,11.425999641418455,-1.9384241104125977,-0.0,-0.0,-1.0,0.026127838664551,1.0,0.0
44.22405242919922,11.24156665802002,-1.9343972206115725,-0.0,-0.0,-1.0,0.044250231636647,2.0,0.0
44.062355041503906,11.74378490447998,-1.9348948001861572,-0.0,-0.0,-1.0,0.0196889643403684,1.0,0.0
43.77842712402344,12.236369132995604,-1.9063739776611328,-0.0,-0.0,-1.0,0.0396155979695779,1.0,0.0
43.90519714355469,12.019128799438477,-1.9182724952697752,-0.0,-0.0,-1.0,0.0581179564667292,1.0,0.0
43.6224365234375,12.576988220214844,-1.9024674892425537,-0.0,-0.0,-1.0,0.0451803473486262,2.0,0.0
43.76168441772461,12.97183322906494,-1.99074387550354,-0.0,-0.0,-1.0,0.0441086137485581,1.0,0.0
43.462833404541016,11.662590980529783,-1.755859613418579,-0.6052517595947721,-0.2823648719994211,-0.7442717155502971,0.2092081210482888,4.0,0.0
43.18556213378906,12.989455223083496,-1.834028244018555,-0.0,-0.0,-1.0,0.1617638871437618,1.0,0.0
45.14225769042969,13.065903663635254,-2.0172362327575684,-0.0,-0.0,-1.0,0.0166452073678847,1.0,0.0
42.78540802001953,11.043010711669922,-1.8290019035339355,-0.0,-0.0,-1.0,0.0171084766781366,2.0,0.0
42.95927429199219,10.7312650680542,-1.7865548133850098,-0.2379901188638914,-0.7747359917708803,-0.5857856659034444,0.0388168513496965,3.0,0.0
44.72675323486328,13.124885559082031,-1.9699326753616333,-0.0,-0.0,-1.0,0.0207704678723497,1.0,0.0
45.112640380859375,12.834602355957031,-1.9812620878219604,-0.0,-0.0,-1.0,0.015800140619757,1.0,0.0
43.82644271850586,12.391672134399414,-1.7632092237472534,-0.4068905348629916,-0.9133416203655952,0.0157218684276813,0.0770695406113944,3.0,0.0
42.76561737060547,11.034428596496582,-1.8284542560577393,-0.0,-0.0,-1.0,0.0165500456502946,2.0,0.0
42.91128921508789,10.763639450073242,-1.79001784324646,-0.9701731301014788,-0.2420264838123724,0.0136849831026101,0.0246981267366473,3.0,0.0
43.174842834472656,12.816937446594238,-2.017448902130127,-0.0,-0.0,-1.0,0.1132327054975644,1.0,0.0
43.26194763183594,12.41128635406494,-1.9599897861480713,-0.0,-0.0,-1.0,0.0225844881430513,1.0,0.0
44.308372497558594,12.191164016723633,-2.0265214443206787,-0.0,-0.0,-1.0,0.0274916164539365,1.0,0.0
43.983665466308594,12.173662185668944,-1.9910480976104736,-0.0,-0.0,-1.0,0.0492132217935221,1.0,0.0
43.56496810913086,12.172410011291504,-1.950112581253052,-0.0,-0.0,-1.0,0.0606270430338308,1.0,0.0
45.10658645629883,11.61630153656006,-2.025946855545044,-0.0,-0.0,-1.0,0.0367707093035456,1.0,0.0
44.89171600341797,11.60722827911377,-2.0004372596740723,-0.0,-0.0,-1.0,0.0889110609438929,1.0,0.0
44.641334533691406,11.538765907287598,-1.9624030590057373,-0.0,-0.0,-1.0,0.0947088306845587,1.0,0.0
44.28575134277344,11.631474494934082,-1.938225507736206,-0.0,-0.0,-1.0,0.0183380129966135,2.0,0.0
43.11746597290039,11.6698637008667,-1.8282802104949951,-0.0,-0.0,-1.0,0.0742836685738281,1.0,0.0
44.44773864746094,11.43852424621582,-1.9262046813964844,0.8156265226147713,-0.5378042074075763,0.213354189323868,0.0330017472726073,3.0,0.0
42.94738006591797,13.135334014892578,-1.9942680597305296,-0.0,-0.0,-1.0,0.1254916551165096,1.0,0.0
43.43539047241211,12.947874069213867,-1.9984251260757449,-0.0,-0.0,-1.0,0.0355437940076449,1.0,0.0
43.194549560546875,12.974246978759766,-1.9855948686599731,-0.0,-0.0,-1.0,0.1507646775767267,1.0,0.0
43.46253967285156,12.641403198242188,-1.9522534608840945,-0.0,-0.0,-1.0,0.0290234094201103,1.0,0.0
43.489620208740234,12.479192733764648,-1.92886221408844,-0.0,-0.0,-1.0,0.0497485860930358,2.0,0.0
43.48245620727539,12.253068923950195,-1.8930476903915403,-0.0861614678560315,0.5559523460413333,-0.8267364697338758,0.0396529353565036,4.0,0.0
43.04461288452149,11.20767593383789,-1.7992476224899292,-0.0,-0.0,-1.0,0.0215704448698137,1.0,0.0
42.76653289794922,11.176441192626951,-1.7737199068069458,-0.0,-0.0,-1.0,0.0147420455200391,1.0,0.0
44.830833435058594,12.43858528137207,-2.0483434200286865,-0.0,-0.0,-1.0,0.0074873280483971,1.0,0.0
44.694549560546875,12.660442352294922,-2.06414532661438,-0.0,-0.0,-1.0,0.0177754915172485,1.0,0.0
44.256736755371094,12.796066284179688,-2.047689914703369,-0.0,-0.0,-1.0,0.0373016268951067,1.0,0.0
43.973506927490234,12.950746536254885,-2.0456690788269043,-0.0,-0.0,-1.0,0.0551514559332756,1.0,0.0
43.697486877441406,12.961481094360352,-2.027233600616455,-0.0,-0.0,-1.0,0.0348867630518914,1.0,0.0
43.43089294433594,13.127777099609377,-2.0287466049194336,-0.0,-0.0,-1.0,0.0462472921947718,1.0,0.0
43.1244010925293,13.07737159729004,-2.0014679431915283,-0.0,-0.0,-1.0,0.17938234590115,1.0,0.0
44.73024368286133,12.09657096862793,-2.0005152225494385,-0.0,-0.0,-1.0,0.0437807687228968,1.0,0.0
44.28708267211914,12.28250503540039,-1.988798141479492,-0.0,-0.0,-1.0,0.0383908857814538,1.0,0.0
44.31613540649414,12.464315414428713,-2.0125467777252197,-0.0,-0.0,-1.0,0.042441650455312,1.0,0.0
45.20719528198242,11.43443489074707,-1.9613125324249268,-0.0,-0.0,-1.0,0.0278159991061406,1.0,0.0
44.715362548828125,11.751073837280272,-1.9590322971343992,-0.0,-0.0,-1.0,0.1195643524536779,1.0,0.0
44.98786926269531,11.44757843017578,-1.94531774520874,-0.0,-0.0,-1.0,0.0867837366558572,1.0,0.0
44.52550506591797,10.923450469970703,-1.8481659889221191,-0.0,-0.0,-1.0,0.0308719136522476,1.0,0.0
44.69731521606445,11.979488372802734,-1.7632945775985718,-0.0,-0.0,-1.0,0.0591905907011565,1.0,0.0
43.95330047607422,12.39946174621582,-1.8314930200576784,-0.0,-0.0,-1.0,0.0662927898894422,1.0,0.0
43.77146911621094,12.50704574584961,-1.834778904914856,0.1268111768134096,-0.9502904827631644,-0.2843711022677063,0.1084609302806672,4.0,0.0
43.17548751831055,11.015241622924805,-1.8429282903671265,-0.7387778079513118,0.0563917266185915,-0.6715856785605456,0.0301221235548632,3.0,0.0
43.03968048095703,10.766813278198242,-1.7960690259933472,0.8205800794184189,-0.5620899609904274,0.1034563145266686,0.0391481219463101,3.0,0.0
42.93959426879883,11.1844482421875,-1.846037745475769,-0.0,-0.0,-1.0,0.0190415226420033,1.0,0.0
42.83882522583008,11.282978057861328,-1.851324439048767,-0.0,-0.0,-1.0,0.015004091019207,1.0,0.0
43.89484405517578,12.47189235687256,-1.7335211038589478,-0.1438028756250424,-0.9395019890307628,0.3108966798941561,0.0549594905882814,3.0,0.0
43.84610748291016,12.614631652832031,-1.7471424341201782,0.5593245367694768,-0.8269383696704876,0.0576974465147829,0.091723866317945,3.0,0.0
44.97161865234375,10.751569747924805,-1.9095392227172852,-0.2890094293163166,-0.0801815223710223,-0.9539625114418924,0.0534601143154102,3.0,0.0
44.76101303100586,10.966041564941406,-1.9048612117767336,-0.0,-0.0,-1.0,0.0398593947895834,1.0,0.0
44.51793670654297,11.114519119262695,-1.8900704383850095,-0.0,-0.0,-1.0,0.0302369986007852,1.0,0.0
44.32012176513672,11.435941696166992,-1.900063753128052,-0.0,-0.0,-1.0,0.0357679944667454,1.0,0.0
44.24901580810547,11.70895004272461,-1.921311855316162,0.8125404049020809,0.5827730593883893,-0.0123956303857298,0.0091947270433161,3.0,0.0
43.977386474609375,11.808212280273438,-1.8996548652648928,-0.0,-0.0,-1.0,0.0343519344798848,2.0,0.0
43.78064727783203,11.999259948730469,-1.8978188037872312,-0.0,-0.0,-1.0,0.0371366585311703,2.0,0.0
43.59827423095703,11.705129623413086,-1.842365026473999,-0.0,-0.0,-1.0,0.112012377529142,2.0,0.0
43.60964584350586,12.134422302246094,-1.8932363986968992,-0.0,-0.0,-1.0,0.0277465281799589,2.0,0.0
43.46549224853515,12.520771026611328,-1.9222285747528076,-0.0,-0.0,-1.0,0.0431333139433069,2.0,0.0
43.39556884765625,12.946426391601562,-1.966160774230957,-0.0,-0.0,-1.0,0.0565654715311124,1.0,0.0
42.71031188964844,10.682920455932615,-1.8209986686706543,-0.0,-0.0,-1.0,0.1522298944246678,1.0,0.0
42.73253631591797,10.930908203125,-1.8477222919464111,-0.0,-0.0,-1.0,0.0189973678244794,1.0,0.0
43.61683654785156,12.877460479736328,-1.935086965560913,-0.0,-0.0,-1.0,0.0357293983087406,2.0,0.0
43.6706428527832,13.129150390625,-1.951622724533081,-0.0,-0.0,-1.0,0.0913271786435573,1.0,0.0
43.52363586425781,12.763805389404297,-1.9162006378173828,-0.0,-0.0,-1.0,0.0240904539722721,1.0,0.0
43.42673873901367,11.171845436096191,-1.867748498916626,-0.0,-0.0,-1.0,0.0161729396958081,1.0,0.0
43.390586853027344,11.397663116455078,-1.8644587993621824,-0.0,-0.0,-1.0,0.0984648490279853,2.0,0.0
43.4466552734375,11.83791732788086,-1.8814876079559328,-0.0,-0.0,-1.0,0.0849661327197904,1.0,0.0
43.437347412109375,12.254362106323242,-1.8886387348175049,-0.0861614678560315,0.5559523460413333,-0.8267364697338758,0.03592658370294,4.0,0.0
43.49044418334961,12.601449966430664,-1.9062085151672363,-0.0,-0.0,-1.0,0.039776066329446,2.0,0.0
43.135108947753906,13.08148956298828,-1.8608906269073489,-0.0,-0.0,-1.0,0.1656787271697509,2.0,0.0
43.14635467529297,10.867321014404297,-1.8152797222137451,-0.0,-0.0,-1.0,0.029611706516399,2.0,0.0
43.22325134277344,11.04050064086914,-1.881601929664612,-0.0,-0.0,-1.0,0.021208195060958,2.0,0.0
43.16072463989258,11.37396240234375,-1.9038366079330444,-0.0,-0.0,-1.0,0.0228516859793804,1.0,0.0
43.112449645996094,11.753416061401367,-1.9337395429611208,-0.0,-0.0,-1.0,0.055318818575816,1.0,0.0
43.03849792480469,10.845603942871094,-1.834738612174988,-0.0,-0.0,-1.0,0.0377972861869921,1.0,0.0
43.084930419921875,11.446760177612305,-1.8992661237716677,-0.0,-0.0,-1.0,0.0252401512009915,1.0,0.0
43.046669006347656,11.835149765014648,-1.9319449663162231,-0.0,-0.0,-1.0,0.0379903222922217,1.0,0.0
42.8868408203125,12.189131736755373,-1.943862795829773,-0.0,-0.0,-1.0,0.0862062246726957,1.0,0.0
42.73164367675781,12.58606243133545,-1.962368369102478,-0.0,-0.0,-1.0,0.0204770611384082,1.0,0.0
44.4343147277832,11.018457412719728,-1.8753241300582888,-0.0,-0.0,-1.0,0.031380611090549,1.0,0.0
44.31832504272461,11.32977294921875,-1.8897215127944944,-0.0,-0.0,-1.0,0.0484886944593634,1.0,0.0
44.23533630371094,11.517640113830566,-1.897011637687683,-0.0,-0.0,-1.0,0.020168012407278,2.0,0.0
43.97328567504883,11.825512886047363,-1.891726851463318,-0.0,-0.0,-1.0,0.0339544764028857,2.0,0.0
43.47795486450195,11.563932418823242,-1.7932003736495972,-0.0,-0.0,-1.0,0.1768723028006932,1.0,0.0
43.47289276123047,11.629735946655272,-1.7993863821029663,-0.0,-0.0,-1.0,0.2607744281406049,2.0,0.0
43.642356872558594,12.207040786743164,-1.8856629133224487,-0.0,-0.0,-1.0,0.0259586599463452,1.0,0.0
43.53158187866211,12.58767318725586,-1.9122689962387085,0.3218732108763202,0.9461729890790824,0.0339751505857261,0.0530473441383897,3.0,0.0
43.59827423095703,12.918098449707031,-1.9593178033828735,-0.0,-0.0,-1.0,0.0395992022487233,2.0,0.0
43.18084716796875,12.967998504638672,-1.9064756631851196,-0.0,-0.0,-1.0,0.1617638871437617,1.0,0.0
44.24653625488281,10.873281478881836,-1.8733634948730469,-0.0,-0.0,-1.0,0.0217404997958236,1.0,0.0
44.22088623046875,11.210765838623049,-1.8930439949035645,0.1516264284902539,-0.9881842244813324,0.0223911739200373,0.0418539229916921,3.0,0.0
44.17246627807617,10.6620454788208,-1.8474080562591553,-0.0,-0.0,-1.0,0.0146881364801637,2.0,0.0
44.1651496887207,11.270668029785156,-1.8887550830841064,-0.0,-0.0,-1.0,0.0399543413703039,1.0,0.0
43.99665832519531,11.598188400268556,-1.8867509365081787,-0.0,-0.0,-1.0,0.0218762287464145,1.0,0.0
43.82112884521485,11.922333717346191,-1.8842787742614744,-0.0,-0.0,-1.0,0.0479414361108133,1.0,0.0
43.64728546142578,11.697038650512695,-1.8400404453277588,-0.0,-0.0,-1.0,0.112012377529142,2.0,0.0
43.750545501708984,12.082748413085938,-1.8859975337982176,-0.0,-0.0,-1.0,0.0366797844890816,2.0,0.0
43.56045150756836,12.413724899291992,-1.883498191833496,-0.0114731602161601,0.0401657073432869,-0.999127160349606,0.0476934868628745,3.0,0.0
43.58685302734375,12.89398193359375,-1.9279935359954832,-0.4818711779422754,-0.6005595756231604,-0.638066112558764,0.0387625516940383,3.0,0.0
43.139801025390625,13.088221549987791,-1.876636743545532,-0.0,-0.0,-1.0,0.165678727169751,2.0,0.0
45.037620544433594,10.678187370300291,-1.9043235778808592,-0.0,-0.0,-1.0,0.0583373472716495,1.0,0.0
44.993751525878906,10.95305061340332,-1.9016520977020264,-0.0,-0.0,-1.0,0.0340715735655785,2.0,0.0
45.172000885009766,11.803841590881348,-1.9490344524383545,-0.0,-0.0,-1.0,0.045252591710291,1.0,0.0
44.8702507019043,11.09665870666504,-1.8845345973968504,-0.0,-0.0,-1.0,0.050139634991291,1.0,0.0
44.67218780517578,11.341387748718262,-1.8579604625701904,-0.0,-0.0,-1.0,0.0920605852386979,2.0,0.0
44.849552154541016,11.639517784118652,-1.8931872844696045,-0.0,-0.0,-1.0,0.1026687896568803,1.0,0.0
43.960899353027344,12.302428245544434,-1.770472764968872,-0.0,-0.0,-1.0,0.0495370538249255,2.0,0.0
43.814727783203125,12.507131576538086,-1.7542083263397217,-0.0,-0.0,-1.0,0.085116391971234,1.0,0.0
43.43836975097656,11.603614807128906,-1.666896104812622,-0.5713326107837725,0.5908981721959736,-0.569577385392412,0.207813768498611,3.0,0.0
44.82651901245117,11.32234001159668,-1.757777452468872,-0.0,-0.0,-1.0,0.077389984285111,2.0,0.0
44.253021240234375,12.972883224487305,-1.9025613069534304,-0.0,-0.0,-1.0,0.0342739746380759,1.0,0.0
43.9898567199707,12.780627250671388,-1.8629070520401,-0.0,-0.0,-1.0,0.0692114172658494,2.0,0.0
43.850364685058594,11.877348899841309,-1.8571125268936155,-0.0,-0.0,-1.0,0.0463224123684011,1.0,0.0
43.62750244140625,12.535073280334473,-1.808698058128357,0.2443340477813083,-0.5200494540213032,-0.8184433019256409,0.0618058822808791,3.0,0.0
43.75849533081055,11.248788833618164,-1.8588584661483765,-0.0,-0.0,-1.0,0.0111381484259828,1.0,0.0
43.70207977294922,11.63493537902832,-1.839351773262024,-0.0,-0.0,-1.0,0.098387076386214,1.0,0.0
43.455955505371094,10.922529220581056,-1.8209670782089231,-0.0,-0.0,-1.0,0.018240163203182,1.0,0.0
43.57777404785156,11.00048542022705,-1.8377028703689575,-0.0,-0.0,-1.0,0.0104519134082637,1.0,0.0
43.09432220458984,10.679879188537598,-1.7722617387771606,-0.0,-0.0,-1.0,0.0364088245715233,1.0,0.0
44.818572998046875,13.127802848815918,-1.9932016134262085,-0.0,-0.0,-1.0,0.0224062348978606,1.0,0.0
44.81647491455078,12.861530303955078,-1.9946459531784055,-0.0,-0.0,-1.0,0.0192822461305593,1.0,0.0
44.06505584716797,11.826133728027344,-1.893847107887268,-0.0,-0.0,-1.0,0.0269338914940659,1.0,0.0
43.928321838378906,12.103591918945312,-1.8681563138961792,-0.1212871318575216,0.4311611719711834,-0.8940858322500208,0.0730639015514547,5.0,0.0
43.75981903076172,12.706259727478027,-1.8343626260757449,-0.0,-0.0,-1.0,0.0974743966404103,1.0,0.0
44.0327262878418,11.27624225616455,-1.90060555934906,-0.0,-0.0,-1.0,0.0187749047189272,1.0,0.0
43.76228332519531,12.268238067626951,-1.840281367301941,-0.0,-0.0,-1.0,0.0458025796152422,1.0,0.0
43.66181564331055,12.44667625427246,-1.8224719762802124,-0.0,-0.0,-1.0,0.0641038795378952,1.0,0.0
43.731903076171875,10.941886901855469,-1.8637319803237915,-0.0,-0.0,-1.0,0.0077287718938079,1.0,0.0
43.420684814453125,10.78842544555664,-1.8212960958480835,-0.0,-0.0,-1.0,0.0176499462432176,2.0,0.0
43.45569610595703,10.851836204528809,-1.824710249900818,-0.0,-0.0,-1.0,0.0179693955649587,1.0,0.0
44.32703399658203,10.810911178588867,-1.9538767337799072,-0.0,-0.0,-1.0,0.0224937294801645,1.0,0.0
44.59423828125,11.483813285827637,-1.8817747831344604,-0.0,-0.0,-1.0,0.0733554931282804,1.0,0.0
44.875640869140625,10.985992431640623,-1.907629132270813,-0.0,-0.0,-1.0,0.0349452943136428,1.0,0.0
45.00032043457031,10.921550750732422,-1.9214597940444944,-0.0,-0.0,-1.0,0.0399809175007032,2.0,0.0
44.62505340576172,11.57688331604004,-1.886890530586243,-0.0,-0.0,-1.0,0.0956635107930805,1.0,0.0
43.49521255493164,11.677322387695312,-1.7860008478164673,-0.7125196824209122,0.1768008199489592,-0.6790119087528423,0.1721786995683009,3.0,0.0
44.522945404052734,11.228647232055664,-1.8978453874588013,-0.0,-0.0,-1.0,0.0479641482392889,2.0,0.0
44.71503448486328,10.893780708312988,-1.911199688911438,-0.0,-0.0,-1.0,0.0387936327941084,1.0,0.0
44.55800247192383,11.629382133483888,-1.9146381616592407,-0.0,-0.0,-1.0,0.0615378301192117,2.0,0.0
44.50765609741211,11.358424186706545,-1.8999825716018677,0.7442396798547892,-0.6675395339146992,-0.0223219531086984,0.033008122207229,3.0,0.0
43.397430419921875,11.829766273498535,-1.7043029069900513,-0.0,-0.0,-1.0,0.1173500436825286,1.0,0.0
43.791141510009766,12.749671936035156,-1.780969262123108,-0.0,-0.0,-1.0,0.1084999131609197,1.0,0.0
43.82166290283203,12.679033279418944,-1.7833203077316284,-0.0,-0.0,-1.0,0.1078054328801198,2.0,0.0
44.69422149658203,11.609004974365234,-1.8799549341201784,0.4442271867224064,-0.549928432332344,-0.707277120999391,0.0998433647837916,3.0,0.0
43.85674285888672,12.842998504638672,-1.7924906015396118,-0.0,-0.0,-1.0,0.0567785787370965,1.0,0.0
43.43296432495117,12.569610595703123,-1.908017873764038,-0.2302337720557689,-0.3059493144832759,-0.923789709388552,0.0380675975960293,3.0,0.0
42.97003936767578,12.983924865722656,-1.9330532550811768,-0.0,-0.0,-1.0,0.1117639348281198,1.0,0.0
43.44318008422851,12.26473617553711,-1.8753197193145752,-0.0861614678560315,0.5559523460413333,-0.8267364697338758,0.03592658370294,4.0,0.0
43.25953674316406,11.59438705444336,-1.794285535812378,-0.0,-0.0,-1.0,0.1445607013767331,2.0,0.0
43.997528076171875,12.307897567749023,-1.7497024536132812,-0.0,-0.0,-1.0,0.049232441626301,2.0,0.0
43.91695785522461,12.45725440979004,-1.7675271034240725,-0.1438028756250424,-0.9395019890307628,0.3108966798941561,0.0579573167071907,3.0,0.0
44.434112548828125,12.192241668701172,-1.8912670612335205,-0.0,-0.0,-1.0,0.0331569781988931,1.0,0.0
43.98945617675781,12.033626556396484,-1.8556692600250244,-0.0,-0.0,-1.0,0.050446217159977,2.0,0.0
43.72698974609375,12.017326354980469,-1.8445332050323489,-0.0,-0.0,-1.0,0.0417867059924534,2.0,0.0
43.5357666015625,12.237255096435549,-1.8659093379974363,-0.0,-0.0,-1.0,0.0225378325925928,1.0,0.0
43.341922760009766,12.560619354248049,-1.9005801677703855,-0.0,-0.0,-1.0,0.019185068454527,2.0,0.0
43.2508430480957,13.081432342529297,-1.9641358852386477,-0.0,-0.0,-1.0,0.1164631974300428,1.0,0.0
42.9932861328125,13.08951187133789,-1.9570643901824951,-0.0,-0.0,-1.0,0.1254916551165096,1.0,0.0
42.73626327514648,13.082115173339844,-1.9481542110443115,-0.0,-0.0,-1.0,0.108552899255031,1.0,0.0
43.78593063354492,11.47541618347168,-1.891993761062622,-0.0,-0.0,-1.0,0.0198977477873433,1.0,0.0
43.26539611816406,11.526504516601562,-1.8758280277252195,-0.0,-0.0,-1.0,0.1423414224508818,1.0,0.0
