x,y,z,nx,ny,nz,curvature,density,label
59.543067932128906,19.32129669189453,-2.306905508041382,-0.0,-0.0,-1.0,0.2236175008517239,1.0,0.0
59.074607849121094,19.56035423278809,-2.26700758934021,-0.0,-0.0,-1.0,0.2583805731001002,1.0,0.0
59.108585357666016,19.46446418762207,-2.263850212097168,-0.0,-0.0,-1.0,0.2537492511349349,1.0,0.0
59.01649475097656,20.17439842224121,-2.30776047706604,-0.0,-0.0,-1.0,0.0546665548684927,1.0,0.0
59.69111633300781,19.09690284729004,-2.428687334060669,-0.0,-0.0,-1.0,0.1376926556151855,2.0,0.0
59.345855712890625,19.620275497436523,-2.419635534286499,-0.0,-0.0,-1.0,0.138037367990406,2.0,0.0
59.08919906616211,20.048025131225582,-2.416468381881714,-0.0,-0.0,-1.0,0.1512269864608312,2.0,0.0
59.01009368896485,20.13328742980957,-2.4121503829956055,0.3179944402844662,-0.9320347193652764,-0.1737550512815663,0.0742064113540215,3.0,0.0
58.74070739746094,19.17626953125,-2.7628116607666016,-0.0,-0.0,-1.0,0.1372359507359282,1.0,0.0
58.98947525024414,18.99066734313965,-2.787867546081543,-0.0,-0.0,-1.0,0.1088847031308504,1.0,0.0
58.71002197265625,19.52094268798828,-2.7853965759277344,-0.8882891019054129,0.2727827029310151,0.3695024606382544,0.13570479350696,4.0,0.0
58.64300155639648,19.841495513916016,-2.800828456878662,-0.0,-0.0,-1.0,0.1335155107468755,2.0,0.0
58.9638786315918,20.25321578979492,-2.885833263397217,-0.0,-0.0,-1.0,0.1626389253489249,2.0,0.0
58.97381210327149,20.559947967529297,-2.913349151611328,-0.0,-0.0,-1.0,0.1724447983386536,2.0,0.0
59.43803405761719,19.48348045349121,-1.9962737560272217,-0.0,-0.0,-1.0,0.2003354042306016,1.0,0.0
58.59282684326172,18.378217697143555,-2.7655105590820312,-0.0,-0.0,-1.0,0.0141943677914385,1.0,0.0
58.88802337646485,18.158130645751953,-2.7987985610961914,-0.0,-0.0,-1.0,0.0141030946448342,1.0,0.0
58.54383850097656,18.733985900878903,-2.7850608825683594,-0.0,-0.0,-1.0,0.0135016081011181,1.0,0.0
58.46905517578125,19.13448905944824,-2.80453109741211,-0.0,-0.0,-1.0,0.0254974312643593,2.0,0.0
58.49788665771485,19.54752540588379,-2.843475341796875,-0.0,-0.0,-1.0,0.0522926237443404,1.0,0.0
58.50249481201172,19.91692352294922,-2.8754587173461914,-0.0,-0.0,-1.0,0.1479326834779635,2.0,0.0
58.489112854003906,20.287540435791016,-2.905244827270508,-0.1919952957624631,-0.3990733772523767,-0.8965925752388688,0.0489344255293203,3.0,0.0
58.98992538452149,19.2825870513916,-2.0588650703430176,-0.0,-0.0,-1.0,0.1139458141935112,2.0,0.0
59.18138885498047,19.47474479675293,-2.099320888519287,-0.0,-0.0,-1.0,0.1173308785144778,1.0,0.0
60.07826232910156,18.214923858642575,-2.896287441253662,-0.0,-0.0,-1.0,0.2577023326827894,1.0,0.0
59.51338577270508,18.588306427001953,-2.8304896354675293,-0.0,-0.0,-1.0,0.1304894194761036,1.0,0.0
59.6185188293457,18.65293884277344,-2.854428768157959,-0.0,-0.0,-1.0,0.2020687671954245,1.0,0.0
59.01903533935547,18.828052520751953,-2.7660536766052246,0.7584989816906302,-0.509045490961433,-0.4068807969247384,0.1068272773644577,3.0,0.0
58.70417022705078,19.103775024414062,-2.73669958114624,-0.6121140164754935,0.140525355110066,-0.7781831759974186,0.1501627382696711,3.0,0.0
58.859588623046875,18.927488327026367,-2.747429847717285,-0.0,-0.0,-1.0,0.1298890824545593,1.0,0.0
58.66343688964844,19.48758316040039,-2.765733242034912,-0.2458456705870508,0.3749599737295502,-0.8938483788396879,0.1802426967020826,3.0,0.0
58.60344314575195,19.886945724487305,-2.7940316200256348,-0.0,-0.0,-1.0,0.1677516651299952,1.0,0.0
58.83479309082031,20.300033569335938,-2.8749775886535645,-0.0,-0.0,-1.0,0.1870953896161588,1.0,0.0
58.885013580322266,20.31058692932129,-2.88474178314209,-0.0,-0.0,-1.0,0.1966252409148422,2.0,0.0
58.898826599121094,20.557130813598633,-2.9121251106262207,-0.0,-0.0,-1.0,0.1951837433958728,1.0,0.0
59.02742767333984,19.43179702758789,-2.0149614810943604,-0.0,-0.0,-1.0,0.1392543515509762,2.0,0.0
58.80558776855469,20.18373680114746,-2.0529661178588867,-0.0,-0.0,-1.0,0.0678374278060541,2.0,0.0
59.33470153808594,19.678089141845703,-2.5388197898864746,-0.0,-0.0,-1.0,0.1382007120446037,1.0,0.0
59.083892822265625,19.981246948242188,-2.5253090858459473,-0.0,-0.0,-1.0,0.1789408069535747,2.0,0.0
59.24034118652344,19.93199920654297,-2.5466549396514893,-0.0,-0.0,-1.0,0.1857426373949322,1.0,0.0
59.07046127319336,18.967845916748047,-2.6975762844085693,-0.0,-0.0,-1.0,0.1150320062552895,2.0,0.0
59.39972686767578,18.938447952270508,-2.756866216659546,-0.0,-0.0,-1.0,0.137346529801806,1.0,0.0
58.796688079833984,19.28083610534668,-2.6734488010406494,-0.0,-0.0,-1.0,0.1389613653789035,2.0,0.0
59.092437744140625,19.14606475830078,-2.7170569896698,-0.0,-0.0,-1.0,0.116838623218866,2.0,0.0
59.448883056640625,19.091806411743164,-2.7791988849639893,-0.0,-0.0,-1.0,0.10822816722717,1.0,0.0
58.76593017578125,19.56385803222656,-2.6929681301116943,0.029316018229269,-0.1456525070488425,-0.9889013693314256,0.1613124345923283,3.0,0.0
58.93500518798828,19.73186492919922,-2.739820718765259,-0.0,-0.0,-1.0,0.0724317668207863,2.0,0.0
59.08570098876953,20.001596450805664,-2.7929141521453857,-0.0,-0.0,-1.0,0.20682206407289,2.0,0.0
59.32337951660156,20.0210018157959,-2.8389699459075928,-0.0,-0.0,-1.0,0.1738721140621056,1.0,0.0
59.12074279785156,20.352367401123047,-2.83259654045105,-0.0,-0.0,-1.0,0.1173996975668566,1.0,0.0
59.07218551635742,20.63518714904785,-2.85097336769104,-0.0,-0.0,-1.0,0.1847658185991661,1.0,0.0
58.96167755126953,19.412931442260746,-1.9815433025360107,-0.6818856768689772,0.4371883327927691,-0.5864284145152036,0.1594845165452273,3.0,0.0
59.545021057128906,19.429821014404297,-2.071364641189575,-0.9456168681513876,0.2977928776488017,-0.1308745226895115,0.1212369774690872,3.0,0.0
58.82524108886719,20.181543350219727,-2.0263466835021973,-0.0,-0.0,-1.0,0.0678374278060541,2.0,0.0
58.85723114013672,20.260639190673828,-2.0381009578704834,-0.0,-0.0,-1.0,0.0678374278060541,1.0,0.0
58.97344207763672,19.191730499267575,-2.6955759525299072,0.1413281150120696,-0.538558640434343,-0.8306509223016895,0.1295325816934543,3.0,0.0
59.38066864013672,19.013093948364254,-2.7588255405426025,-0.0,-0.0,-1.0,0.1499315496700843,2.0,0.0
58.75048065185547,19.462778091430664,-2.6777074337005615,-0.4453810074656649,-0.1392052778164121,-0.8844533050517278,0.1158560330044185,4.0,0.0
59.06779861450195,19.951904296875,-2.7875802516937256,-0.0,-0.0,-1.0,0.2756080730259508,1.0,0.0
59.2197151184082,19.922178268432617,-2.814182996749878,-0.0,-0.0,-1.0,0.2023962419058392,2.0,0.0
59.05791473388672,20.242456436157227,-2.814929723739624,-0.0,-0.0,-1.0,0.1242330439281978,1.0,0.0
59.029640197753906,20.58635902404785,-2.8449881076812744,-0.0,-0.0,-1.0,0.1847658185991661,2.0,0.0
59.12738037109375,19.562463760375977,-2.056218385696411,-0.0,-0.0,-1.0,0.1114476949781767,2.0,0.0
59.54851150512695,19.423397064208984,-2.111201524734497,-0.9996940790876024,-0.0242243756975194,0.0049927807138416,0.1468445993171384,4.0,0.0
58.98627471923828,19.40074920654297,-2.019226312637329,-0.6818856768689772,0.4371883327927691,-0.5864284145152036,0.1405848878298811,3.0,0.0
58.81587219238281,19.318500518798828,-2.5041656494140625,-0.0,-0.0,-1.0,0.1861378138142821,2.0,0.0
59.14934539794922,19.210765838623047,-2.5606861114501953,-0.0,-0.0,-1.0,0.098411598806519,1.0,0.0
58.92913818359375,19.46764755249023,-2.5403823852539062,-0.0,-0.0,-1.0,0.1852480850101047,2.0,0.0
59.34452819824219,19.73739242553711,-2.6479530334472656,-0.0,-0.0,-1.0,0.1691569599394776,2.0,0.0
59.03152084350586,19.97527313232422,-2.6087002754211426,-0.0,-0.0,-1.0,0.1503827663681533,2.0,0.0
59.228816986083984,20.012157440185547,-2.651348352432251,-0.0,-0.0,-1.0,0.2219798079126509,2.0,0.0
59.36241912841797,20.47619247436523,-2.7233004570007324,-0.0,-0.0,-1.0,0.0818932056106607,1.0,0.0
59.55823516845703,20.350345611572266,-2.749361991882324,-0.0,-0.0,-1.0,0.099751640646409,1.0,0.0
59.52180099487305,19.50429344177246,-1.981205701828003,-0.0,-0.0,-1.0,0.1414408578400088,2.0,0.0
59.311012268066406,19.797624588012695,-2.661161422729492,-0.0,-0.0,-1.0,0.1456739323519375,1.0,0.0
59.14523696899414,20.23680877685547,-2.6693501472473145,-0.0,-0.0,-1.0,0.2547902250616931,2.0,0.0
59.27159118652344,20.008312225341797,-2.673259735107422,-0.0,-0.0,-1.0,0.2576430780841749,2.0,0.0
59.13971710205078,20.471160888671875,-2.6918258666992188,-0.0,-0.0,-1.0,0.1206827995935245,1.0,0.0
58.78907775878906,19.321687698364254,-2.507016181945801,-0.0,-0.0,-1.0,0.2027738600709229,2.0,0.0
59.08629608154297,19.22105407714844,-2.560276508331299,-0.0,-0.0,-1.0,0.1026725637865118,1.0,0.0
58.82687759399414,19.513221740722656,-2.5327539443969727,-0.0,-0.0,-1.0,0.1805167696496307,2.0,0.0
58.8796501159668,19.585094451904297,-2.5505852699279785,-0.0,-0.0,-1.0,0.1906248218387705,2.0,0.0
59.127349853515625,19.974889755249023,-2.639820098876953,-0.0,-0.0,-1.0,0.1846229702927988,2.0,0.0
58.94743728637695,19.37748146057129,-1.9208134412765503,-0.0,-0.0,-1.0,0.1683558124033843,1.0,0.0
59.595245361328125,19.43428421020508,-2.038595676422119,-0.0,-0.0,-1.0,0.1110065592826355,2.0,0.0
58.78282165527344,20.268993377685547,-1.9709662199020384,-0.0,-0.0,-1.0,0.0678374278060542,2.0,0.0
58.20795440673828,18.52721405029297,-2.7702391147613525,-0.0,-0.0,-1.0,0.0044949383850632,1.0,0.0
58.23759460449219,18.48021697998047,-2.7733023166656494,-0.0,-0.0,-1.0,0.0044949383850632,1.0,0.0
58.15834045410156,18.921009063720703,-2.7953951358795166,-0.0,-0.0,-1.0,0.0044583426893137,1.0,0.0
58.033084869384766,19.316490173339844,-2.8037288188934326,-0.0,-0.0,-1.0,0.0085427114192591,1.0,0.0
58.1031494140625,19.72050666809082,-2.864297151565552,-0.0,-0.0,-1.0,0.0280266537491213,1.0,0.0
58.08280944824219,20.106996536254883,-2.902052640914917,-0.0,-0.0,-1.0,0.0238169539495982,2.0,0.0
57.79021453857422,20.570730209350582,-2.883028268814087,-0.0,-0.0,-1.0,0.0223808247122313,1.0,0.0
57.97549057006836,20.360443115234375,-2.904283285140991,-0.0,-0.0,-1.0,0.0196710281737808,1.0,0.0
59.2017707824707,19.22661781311035,-2.4837965965270996,-0.0,-0.0,-1.0,0.0522977608782978,1.0,0.0
59.40220642089844,19.681257247924805,-2.5701825618743896,-0.0,-0.0,-1.0,0.1919230740210083,1.0,0.0
59.59166717529297,19.53961181640625,-2.5976057052612305,-0.0,-0.0,-1.0,0.1914219775336345,1.0,0.0
59.24761199951172,20.106857299804688,-2.5788421630859375,-0.0,-0.0,-1.0,0.2705653030791727,1.0,0.0
59.62506866455078,20.21837043762207,-2.6711928844451904,-0.0,-0.0,-1.0,0.1224208089817792,1.0,0.0
59.18537902832031,20.47502899169922,-2.603029489517212,-0.0,-0.0,-1.0,0.1147517578129359,1.0,0.0
59.47718811035156,19.39120101928711,-1.9510955810546875,-0.0,-0.0,-1.0,0.1774063578259658,2.0,0.0
59.55406188964844,19.495899200439453,-1.974053144454956,-0.0,-0.0,-1.0,0.1223517133543667,2.0,0.0
57.826942443847656,18.31136131286621,-2.841273307800293,-0.0,-0.0,-1.0,0.0042592099660813,1.0,0.0
57.81378555297851,18.16297912597656,-2.8228349685668945,-0.0,-0.0,-1.0,0.0038545676777446,1.0,0.0
60.096187591552734,18.28281593322754,-2.89986801147461,-0.0,-0.0,-1.0,0.2472225673993962,1.0,0.0
59.25680923461914,18.983184814453125,-2.7527856826782227,-0.0,-0.0,-1.0,0.1435405718907498,1.0,0.0
60.16549301147461,18.80032730102539,-2.9649763107299805,-0.0,-0.0,-1.0,0.1781521938826059,1.0,0.0
58.792877197265625,19.374711990356445,-2.675847053527832,-0.0,-0.0,-1.0,0.1638689618067082,2.0,0.0
59.067047119140625,19.161895751953125,-2.7227683067321777,-0.0,-0.0,-1.0,0.1390292264975613,2.0,0.0
58.7678337097168,19.692514419555664,-2.70345687866211,-0.0,-0.0,-1.0,0.1636861877048445,2.0,0.0
59.105186462402344,19.87945556640625,-2.8084359169006348,0.8982141774974117,-0.338034259134446,-0.2809699823719147,0.208879255675926,4.0,0.0
58.97087860107422,20.2304630279541,-2.814504623413086,-0.0,-0.0,-1.0,0.1490175648775256,1.0,0.0
59.13740539550781,20.05154800415039,-2.8356714248657227,-0.0,-0.0,-1.0,0.1537149445770409,1.0,0.0
59.02492904663086,20.610273361206055,-2.8724451065063477,-0.0,-0.0,-1.0,0.1895138757933854,2.0,0.0
59.101436614990234,20.488765716552734,-2.8769989013671875,-0.0,-0.0,-1.0,0.1803495925624299,1.0,0.0
59.06861114501953,19.45545196533203,-2.1942896842956543,-0.0,-0.0,-1.0,0.1420567076524024,2.0,0.0
59.26331329345703,19.45921516418457,-2.2366559505462646,-0.0,-0.0,-1.0,0.2013337322483981,1.0,0.0
59.63512420654297,19.333524703979492,-2.304765224456787,-0.0,-0.0,-1.0,0.170718832740327,2.0,0.0
59.2775764465332,19.806623458862305,-2.27380895614624,-0.0,-0.0,-1.0,0.1349504621750874,1.0,0.0
59.0007209777832,20.15050506591797,-2.249459743499756,-0.0,-0.0,-1.0,0.0638556916096837,1.0,0.0
59.50641632080078,19.73910140991211,-1.7478930950164795,-0.0,-0.0,-1.0,0.1995246063302378,1.0,0.0
59.501922607421875,18.186750411987305,-2.853797435760498,-0.0,-0.0,-1.0,0.1012497033728794,1.0,0.0
59.177223205566406,18.718778610229492,-2.813514709472656,-0.0,-0.0,-1.0,0.0597235671708201,1.0,0.0
59.39253234863281,18.486095428466797,-2.8512134552001953,-0.0,-0.0,-1.0,0.0631756373346838,1.0,0.0
58.85834884643555,19.052810668945312,-2.7588248252868652,0.6761069420213162,-0.677917198044723,-0.288630690581886,0.1464523367181342,3.0,0.0
59.03352355957031,18.867441177368164,-2.7883238792419434,0.8901631110094369,-0.0731494437331064,0.4497319142328436,0.1121736512541802,3.0,0.0
58.7235107421875,19.50004005432129,-2.771088123321533,-0.8882891019054129,0.2727827029310151,0.3695024606382544,0.1374320491529294,4.0,0.0
58.54302215576172,19.90548324584961,-2.769219875335694,-0.0,-0.0,-1.0,0.1110861752978431,2.0,0.0
58.63597869873047,19.678850173950195,-2.767648220062256,-0.3511944398298759,0.8236209239566447,-0.4453212762190721,0.150693487271887,3.0,0.0
58.85276794433594,20.196868896484375,-2.8914146423339844,-0.0,-0.0,-1.0,0.1665945392377946,1.0,0.0
58.82719421386719,20.575523376464844,-2.9332752227783203,-0.0,-0.0,-1.0,0.1128153579504062,1.0,0.0
59.59534454345703,18.790054321289062,-2.3964366912841797,-0.0,-0.0,-1.0,0.1214944042572752,2.0,0.0
58.70033645629883,19.151206970214844,-2.725118637084961,-0.0,-0.0,-1.0,0.1674887374883723,2.0,0.0
59.63128280639648,19.08130645751953,-2.4332756996154785,-0.0,-0.0,-1.0,0.1406929873215907,2.0,0.0
58.67916488647461,19.288970947265625,-2.734550952911377,-0.7979687202115103,-0.4346155715585438,-0.4175586503987729,0.1625508493612959,3.0,0.0
58.5278434753418,19.776369094848633,-2.7492551803588867,-0.0,-0.0,-1.0,0.1278191798039706,1.0,0.0
59.26435852050781,19.67785263061523,-2.404967784881592,-0.0,-0.0,-1.0,0.1435058463571693,2.0,0.0
59.73345184326172,19.628862380981445,-2.5137553215026855,-0.0,-0.0,-1.0,0.2025667002969172,2.0,0.0
59.065433502197266,20.017358779907227,-2.3939366340637207,-0.0,-0.0,-1.0,0.1445476374010954,2.0,0.0
58.95711517333984,20.194868087768555,-2.387937545776367,-0.0,-0.0,-1.0,0.0549930557884881,1.0,0.0
58.9901123046875,20.04854393005371,-2.379258632659912,-0.0,-0.0,-1.0,0.0774351191217546,2.0,0.0
59.26945495605469,19.26060676574707,-1.8382731676101685,-0.0,-0.0,-1.0,0.2110936049730988,1.0,0.0
59.43608474731445,19.424768447875977,-1.8882755041122437,-0.2772221728786294,0.5996215344296023,-0.7507342288138596,0.1599386885552243,3.0,0.0
58.86894989013672,20.237829208374023,-1.8519729375839231,-0.0,-0.0,-1.0,0.0678374278060541,1.0,0.0
59.18674087524414,18.387115478515625,-2.8668370246887207,-0.0,-0.0,-1.0,0.0289017148470237,1.0,0.0
59.2536735534668,18.171167373657227,-2.865147590637207,-0.0,-0.0,-1.0,0.0263536586679708,1.0,0.0
58.832275390625,18.823619842529297,-2.805065631866455,-0.0,-0.0,-1.0,0.0754042402243352,1.0,0.0
59.027774810791016,18.62263298034668,-2.843141555786133,-0.0,-0.0,-1.0,0.0790556771911467,1.0,0.0
58.68074798583984,19.11052894592285,-2.7927989959716797,-0.5677401697643549,-0.1506286603789818,-0.8093096479768264,0.0794405905895305,3.0,0.0
58.91349029541016,18.908870697021484,-2.840534210205078,-0.0,-0.0,-1.0,0.0831179239241093,1.0,0.0
58.621368408203125,19.50572204589844,-2.8252744674682617,-0.0,-0.0,-1.0,0.1358732413999161,2.0,0.0
58.44651412963867,19.843324661254883,-2.8174986839294434,-0.0945065779179054,-0.9697030259478724,-0.2252655060096569,0.1838006012732793,5.0,0.0
58.51895904541016,19.865215301513672,-2.842926502227783,-0.1569933138071847,0.251266342488592,-0.9551012116798115,0.1155752796121365,3.0,0.0
59.949893951416016,19.722339630126953,-2.7323522567749023,-0.0,-0.0,-1.0,0.2325235982850211,1.0,0.0
58.47745513916016,20.24886131286621,-2.88553237915039,-0.0,-0.0,-1.0,0.045999987041267,2.0,0.0
58.52688980102539,20.264392852783203,-2.903031349182129,-0.0,-0.0,-1.0,0.0533931505938303,2.0,0.0
59.625732421875,20.28584671020508,-2.7150306701660156,-0.0,-0.0,-1.0,0.1270399581269975,1.0,0.0
59.44646072387695,19.64370346069336,-2.585792064666748,-0.0,-0.0,-1.0,0.1286886738740861,1.0,0.0
59.090206146240234,20.0026798248291,-2.533900022506714,-0.0,-0.0,-1.0,0.1531725049090154,2.0,0.0
59.32268524169922,19.757455825805664,-2.5660369396209717,-0.0,-0.0,-1.0,0.2149961274145383,2.0,0.0
59.12347412109375,20.166868209838867,-2.5641744136810303,-0.0,-0.0,-1.0,0.1354046615767938,2.0,0.0
59.37363815307617,20.560604095458984,-2.6838340759277344,-0.0,-0.0,-1.0,0.0823218631557807,1.0,0.0
58.891502380371094,19.404926300048828,-1.926414966583252,-0.0,-0.0,-1.0,0.2075282185790321,1.0,0.0
58.96435546875,19.493263244628903,-1.9533238410949707,-0.0,-0.0,-1.0,0.1670916935852915,2.0,0.0
59.54001998901367,19.40995216369629,-2.080439805984497,-0.9456168681513876,0.2977928776488017,-0.1308745226895115,0.1359323636638871,3.0,0.0
58.759613037109375,20.281064987182617,-1.9969356060028076,-0.5576634725411053,-0.8218738560372996,0.1163392287913931,0.067837427806054,3.0,0.0
59.63832092285156,18.782941818237305,-2.379601001739502,-0.0,-0.0,-1.0,0.1191623113109839,2.0,0.0
59.20687484741211,19.294353485107425,-2.293737411499023,-0.0,-0.0,-1.0,0.1381342648957655,1.0,0.0
59.684967041015625,19.06163024902344,-2.4130988121032715,-0.0,-0.0,-1.0,0.1494899330551573,2.0,0.0
59.15452575683594,19.440553665161133,-2.2910094261169434,-0.0,-0.0,-1.0,0.2575811937640918,1.0,0.0
59.392860412597656,19.51013565063477,-2.365298271179199,-0.0,-0.0,-1.0,0.067016955595294,1.0,0.0
59.023136138916016,20.076723098754883,-2.31223201751709,-0.0,-0.0,-1.0,0.0714235841678532,1.0,0.0
59.807518005371094,19.639612197875977,-2.494556427001953,-0.0,-0.0,-1.0,0.1063924089441607,1.0,0.0
59.47021484375,19.407337188720703,-1.9148012399673464,-0.132005021663513,0.8485520325145175,-0.5123808372403249,0.1561024925603268,4.0,0.0
59.683292388916016,18.71419906616211,-2.221336126327514,-0.0,-0.0,-1.0,0.1434779089804842,1.0,0.0
58.9610481262207,19.365219116210938,-2.075423002243042,-0.0,-0.0,-1.0,0.1505310429552989,1.0,0.0
59.260948181152344,19.474328994750977,-2.1732144355773926,-0.0,-0.0,-1.0,0.1935246321101562,1.0,0.0
59.580509185791016,19.237468719482425,-2.2408089637756348,-0.0,-0.0,-1.0,0.1081770587447701,2.0,0.0
59.40467834472656,19.82488250732422,-2.2529962062835693,-0.0,-0.0,-1.0,0.1943503477677244,2.0,0.0
58.89435577392578,20.145856857299805,-2.146709442138672,-0.9621232266947536,0.0902739021980226,0.2572343663595856,0.0678374278060541,3.0,0.0
59.42958068847656,19.234590530395508,-1.7646677494049072,-0.0,-0.0,-1.0,0.1628669170537392,1.0,0.0
59.489540100097656,19.295372009277344,-1.7853176593780518,-0.0,-0.0,-1.0,0.1320545476058351,1.0,0.0
58.99079513549805,19.291194915771484,-2.0530786514282227,-0.0,-0.0,-1.0,0.1071809726376751,2.0,0.0
59.537574768066406,19.08835220336914,-2.197528600692749,-0.0,-0.0,-1.0,0.0908578755326811,1.0,0.0
59.685340881347656,19.371767044067383,-2.2726047039031982,-0.0,-0.0,-1.0,0.150043120191059,1.0,0.0
58.90088653564453,20.183074951171875,-2.1353440284729004,-0.9621232266947536,0.0902739021980226,0.2572343663595856,0.0589025091585234,3.0,0.0
59.43290328979492,19.83746337890625,-2.2495570182800293,-0.0,-0.0,-1.0,0.2126975829845836,2.0,0.0
59.51765441894531,19.426097869873047,-1.8100385665893557,-0.0,-0.0,-1.0,0.1599386885552243,1.0,0.0
59.519832611083984,20.344388961791992,-2.6481575965881348,-0.0,-0.0,-1.0,0.1519311040134963,1.0,0.0
59.0869140625,20.23261833190918,-2.5379672050476074,-0.0,-0.0,-1.0,0.1450830946678671,1.0,0.0
59.69981002807617,19.73828887939453,-2.575836658477783,-0.0,-0.0,-1.0,0.1294307748322555,1.0,0.0
59.23750305175781,19.76809310913086,-2.482893943786621,-0.0,-0.0,-1.0,0.0812397005365839,1.0,0.0
59.06578826904297,19.478864669799805,-2.394103527069092,-0.0,-0.0,-1.0,0.1832619872432786,2.0,0.0
58.73396301269531,20.361358642578125,-1.984264016151428,-0.0,-0.0,-1.0,0.0678374278060541,1.0,0.0
58.72955322265625,20.157272338867188,-2.685021162033081,-0.0,-0.0,-1.0,0.1021292375766888,1.0,0.0
59.69068145751953,19.659744262695312,-2.940513849258423,-0.0,-0.0,-1.0,0.1711785949086765,1.0,0.0
59.48453903198242,19.542835235595703,-2.867349863052368,-0.0,-0.0,-1.0,0.1212477087154507,2.0,0.0
59.04349136352539,19.674583435058594,-2.7402279376983643,-0.0,-0.0,-1.0,0.0961115291310188,1.0,0.0
58.82419967651367,19.985260009765625,-2.698702573776245,-0.0,-0.0,-1.0,0.1684618845173096,1.0,0.0
59.383846282958984,19.04054069519043,-2.799795389175415,-0.0,-0.0,-1.0,0.1376317066455787,2.0,0.0
59.331298828125,18.841407775878903,-2.769737482070923,-0.0,-0.0,-1.0,0.0981181822687032,1.0,0.0
59.32169723510742,19.446006774902344,-2.280440330505371,-0.0,-0.0,-1.0,0.2058997827695579,1.0,0.0
59.67633819580078,19.571836471557617,-2.208146333694458,-0.0,-0.0,-1.0,0.1136877301544016,1.0,0.0
58.82951736450195,20.20325088500977,-2.112971782684326,-0.0,-0.0,-1.0,0.0678374278060541,1.0,0.0
59.51759338378906,19.322607040405273,-2.1450436115264893,-0.0,-0.0,-1.0,0.1568879986440573,1.0,0.0
58.934444427490234,19.450824737548828,-2.0374698638916016,0.2440167154070133,0.4746728656748616,-0.8456604006301749,0.1816369700588151,3.0,0.0
59.643836975097656,19.3365421295166,-2.09403657913208,-0.0,-0.0,-1.0,0.1104362091948828,1.0,0.0
59.65007781982422,19.42327308654785,-2.107563018798828,-0.0,-0.0,-1.0,0.1220601991878687,1.0,0.0
59.2144889831543,19.434280395507812,-2.0254430770874023,-0.0,-0.0,-1.0,0.1312929761225381,1.0,0.0
58.96694564819336,19.32909393310547,-1.9627923965454104,-0.0,-0.0,-1.0,0.1788088884328738,1.0,0.0
59.544960021972656,19.47879409790039,-2.1169233322143555,-0.0,-0.0,-1.0,0.1514526402428685,2.0,0.0
59.1990852355957,19.482275009155273,-2.045246124267578,-0.0,-0.0,-1.0,0.0979075246673933,1.0,0.0
58.95613861083984,19.39894676208496,-1.9855284690856936,-0.6818856768689772,0.4371883327927691,-0.5864284145152036,0.1594845165452273,3.0,0.0
58.93529510498047,20.465394973754883,-2.973769187927246,-0.0,-0.0,-1.0,0.0844756903999923,1.0,0.0
59.1478157043457,20.043262481689453,-2.9948697090148926,-0.0,-0.0,-1.0,0.0899069047443833,1.0,0.0
58.92887496948242,20.202770233154297,-2.9484333992004395,-0.0,-0.0,-1.0,0.1599626176566364,1.0,0.0
60.06510925292969,18.980213165283203,-3.1732964515686035,-0.0,-0.0,-1.0,0.1724437130794872,1.0,0.0
59.93831634521485,18.718063354492188,-3.1206307411193848,-0.0,-0.0,-1.0,0.1779160480680472,1.0,0.0
59.75560760498047,18.98927116394043,-3.085649013519287,-0.0,-0.0,-1.0,0.1682329938111079,1.0,0.0
59.282283782958984,19.058544158935547,-2.9561824798583984,-0.0,-0.0,-1.0,0.0931611843904774,1.0,0.0
59.94075775146485,18.48793029785156,-3.1074724197387695,-0.0,-0.0,-1.0,0.1351202702649376,1.0,0.0
59.71971130371094,18.594993591308594,-3.050256729125977,-0.0,-0.0,-1.0,0.091725708702094,1.0,0.0
59.758033752441406,19.631927490234375,-2.5466036796569824,-0.0,-0.0,-1.0,0.2025667002969171,2.0,0.0
58.664329528808594,19.544994354248047,-2.8198366165161133,-0.5637479193906993,0.6187750598466031,-0.5470883920304749,0.1642132876985144,3.0,0.0
59.160491943359375,18.97217559814453,-2.915538787841797,-0.0,-0.0,-1.0,0.0995889788712805,1.0,0.0
58.86248779296875,19.212554931640625,-2.8490805625915527,-0.0,-0.0,-1.0,0.1310314991085478,1.0,0.0
58.670188903808594,19.37731170654297,-2.808035373687744,-0.0,-0.0,-1.0,0.1513096632506241,2.0,0.0
59.65293884277344,19.518943786621097,-2.5140151977539062,-0.0,-0.0,-1.0,0.1638127489535149,1.0,0.0
59.34877395629883,19.835678100585938,-2.4586920738220215,-0.0,-0.0,-1.0,0.1472962426655555,1.0,0.0
58.9279899597168,20.14555549621582,-2.3771681785583496,-0.0,-0.0,-1.0,0.0563405582497372,1.0,0.0
59.0532112121582,19.504919052124023,-2.365561008453369,-0.0,-0.0,-1.0,0.1717944568796229,2.0,0.0
59.04164123535156,19.329458236694336,-2.352014541625977,-0.0,-0.0,-1.0,0.0953845119832327,1.0,0.0
58.345703125,19.895294189453125,-2.7439231872558594,-0.0,-0.0,-1.0,0.1356177043711999,1.0,0.0
58.944793701171875,20.425621032714844,-2.302160263061523,-0.0,-0.0,-1.0,0.0542830211838989,1.0,0.0
59.70698547363281,19.602306365966797,-2.330691337585449,-0.0,-0.0,-1.0,0.1092907437265665,2.0,0.0
59.686744689941406,19.74219512939453,-2.3347692489624023,-0.0,-0.0,-1.0,0.1210369391533217,1.0,0.0
58.85121154785156,18.870824813842773,-2.649202823638916,-0.0,-0.0,-1.0,0.1125740390225898,1.0,0.0
59.05184173583984,19.80749893188477,-2.73434066772461,-0.0,-0.0,-1.0,0.1630455650678516,1.0,0.0
59.07185363769531,19.60363006591797,-2.7213099002838135,-0.0,-0.0,-1.0,0.0782866897474565,1.0,0.0
58.581443786621094,20.510814666748047,-2.7446014881134033,-0.0,-0.0,-1.0,0.0902664012052097,1.0,0.0
58.80000305175781,20.29879379272461,-2.748136520385742,-0.0,-0.0,-1.0,0.2405132868822926,1.0,0.0
59.1302490234375,20.177791595458984,-2.768176317214966,0.7585474788524864,-0.5208912724905138,-0.3915073493176726,0.1866562842844183,3.0,0.0
59.86454772949219,18.77216339111328,-2.5871469974517822,-0.0,-0.0,-1.0,0.1819555017511075,1.0,0.0
59.525238037109375,18.83608055114746,-2.56811261177063,-0.0,-0.0,-1.0,0.1304947793523125,1.0,0.0
59.39104461669922,18.94704818725586,-2.5702381134033203,-0.0,-0.0,-1.0,0.138032734049715,1.0,0.0
59.38687515258789,19.47968864440918,-2.0114293098449707,-0.0,-0.0,-1.0,0.1884498742282224,2.0,0.0
59.514991760253906,19.41568374633789,-2.35770320892334,-0.0,-0.0,-1.0,0.2139918969133482,1.0,0.0
59.60841369628906,19.18001937866211,-2.345187187194824,-0.0,-0.0,-1.0,0.1134521458041084,1.0,0.0
59.27629470825195,19.747093200683594,-2.366898536682129,-0.0,-0.0,-1.0,0.1322241347335713,1.0,0.0
59.72671127319336,19.60436630249023,-2.391017436981201,-0.0,-0.0,-1.0,0.1122424016960804,2.0,0.0
58.99343490600586,20.12097930908203,-2.3766164779663086,0.3179944402844662,-0.9320347193652764,-0.1737550512815663,0.0587160746554612,3.0,0.0
59.36634063720703,20.03426170349121,-2.399074077606201,-0.0,-0.0,-1.0,0.1937351387654119,1.0,0.0
58.775978088378906,19.560426712036133,-2.566550970077514,-0.0,-0.0,-1.0,0.1328919074194704,1.0,0.0
58.87791442871094,19.34075927734375,-2.555184841156006,-0.0,-0.0,-1.0,0.1421352322304372,2.0,0.0
59.079986572265625,19.971614837646484,-2.6324338912963867,-0.0,-0.0,-1.0,0.186033037754964,2.0,0.0
59.130096435546875,20.24109268188477,-2.6624464988708496,-0.0,-0.0,-1.0,0.2168146482297222,2.0,0.0
59.13080596923828,19.882747650146484,-2.7727298736572266,0.4908346175734692,0.7619909030952491,-0.4224348965125787,0.1976201578600461,3.0,0.0
59.00514221191406,20.45020294189453,-2.8488926887512207,-0.0,-0.0,-1.0,0.1268633609354176,2.0,0.0
59.047462463378906,20.15658950805664,-2.807436943054199,-0.0,-0.0,-1.0,0.1590258483538681,1.0,0.0
59.121368408203125,20.61040306091309,-2.882478713989258,-0.0,-0.0,-1.0,0.2055162423331038,1.0,0.0
59.04978942871094,19.202579498291016,-2.666071891784668,-0.0,-0.0,-1.0,0.1163971007593133,1.0,0.0
58.76188659667969,19.455480575561523,-2.680302619934082,-0.2517320653350854,-0.0497357516467459,-0.9665181437977588,0.1109663482012876,3.0,0.0
58.98499298095703,19.95648765563965,-2.772367477416992,-0.0,-0.0,-1.0,0.2205417715214611,2.0,0.0
58.97663116455078,18.87406539916992,-2.8005359172821045,-0.0,-0.0,-1.0,0.1172743415414359,1.0,0.0
58.6341552734375,19.24053382873535,-2.7914464473724365,-0.2807202345498443,0.2423642797323027,-0.928684933561497,0.151622766830386,3.0,0.0
58.86127853393555,19.07468605041504,-2.8033416271209717,0.6761069420213162,-0.677917198044723,-0.288630690581886,0.1137396010168123,3.0,0.0
58.66976165771485,19.604637145996097,-2.823639154434204,-0.0,-0.0,-1.0,0.1517757632948483,2.0,0.0
58.51280212402344,19.90835189819336,-2.830566167831421,0.908610176904278,0.3424698043616532,0.2390438861934508,0.0831244647604293,4.0,0.0
58.80989074707031,19.108341217041016,-2.7431063652038574,0.1742714582433001,-0.8165384134354099,-0.5503584997309822,0.1829871397981448,3.0,0.0
59.04786682128906,19.016088485717773,-2.764254570007324,-0.0,-0.0,-1.0,0.1032022045658321,1.0,0.0
58.65869140625,19.346134185791016,-2.74141263961792,-0.0,-0.0,-1.0,0.1304371904916136,2.0,0.0
58.638031005859375,19.683155059814453,-2.7613048553466797,-0.0,-0.0,-1.0,0.150693487271887,2.0,0.0
58.53484344482422,19.99386405944824,-2.7703847885131836,-0.0,-0.0,-1.0,0.0820163550245498,1.0,0.0
58.88813400268555,20.238880157470703,-2.826826572418213,0.0811710050941385,0.8063408419758449,-0.5858546871824893,0.2040883550854894,3.0,0.0
58.94297790527344,20.550891876220703,-2.854236602783203,-0.0,-0.0,-1.0,0.242597927680222,1.0,0.0
59.791255950927734,19.449298858642575,-2.505451202392578,-0.0,-0.0,-1.0,0.1006434500893928,1.0,0.0
59.39699935913086,19.71729850769043,-2.4855055809020996,-0.0,-0.0,-1.0,0.1884512046094614,1.0,0.0
59.800682067871094,19.68225860595703,-2.5241541862487793,-0.0,-0.0,-1.0,0.1650372067808395,1.0,0.0
59.06526565551758,20.228538513183594,-2.491365432739258,-0.0,-0.0,-1.0,0.1021386847616519,1.0,0.0
59.5850715637207,18.944232940673828,-2.49141001701355,-0.0,-0.0,-1.0,0.1329329589813669,1.0,0.0
59.172943115234375,19.350738525390625,-2.4770326614379883,-0.0,-0.0,-1.0,0.1347567389635369,1.0,0.0
59.30185317993164,19.78060531616211,-2.5235722064971924,-0.0,-0.0,-1.0,0.1975317715216892,2.0,0.0
59.81604766845703,19.686080932617188,-2.571920871734619,-0.0,-0.0,-1.0,0.1836943499661094,1.0,0.0
59.04743957519531,20.07345962524414,-2.518678903579712,-0.0,-0.0,-1.0,0.1250739242954366,2.0,0.0
57.92710876464844,18.15953063964844,-2.770895004272461,-0.0,-0.0,-1.0,0.0040202313238587,2.0,0.0
57.97203063964844,18.8247127532959,-2.8317513465881348,-0.0,-0.0,-1.0,0.0039571803484928,1.0,0.0
57.939964294433594,19.264686584472656,-2.86489200592041,-0.0,-0.0,-1.0,0.0084315598480666,1.0,0.0
57.82849884033203,19.6292781829834,-2.8819804191589355,-0.0,-0.0,-1.0,0.0157535095428321,1.0,0.0
57.8962287902832,20.122194290161133,-2.934243679046631,-0.0,-0.0,-1.0,0.0192288131639644,1.0,0.0
57.942237854003906,19.985624313354492,-2.928053855895996,-0.0,-0.0,-1.0,0.024881479804404,1.0,0.0
57.942962646484375,20.24560546875,-2.9513139724731445,-0.0,-0.0,-1.0,0.0175080833404847,1.0,0.0
58.96937561035156,19.47082138061523,-2.0161662101745605,-0.1732302232248011,0.8437771283503273,-0.5079679590627355,0.1594845165452272,3.0,0.0
59.44694519042969,19.43760681152344,-2.0604286193847656,-0.0,-0.0,-1.0,0.128266971568,1.0,0.0
58.80726623535156,20.254772186279297,-2.058095693588257,-0.0,-0.0,-1.0,0.0678374278060541,2.0,0.0
57.939918518066406,18.187503814697266,-2.7892990112304688,-0.0,-0.0,-1.0,0.0040635174279787,2.0,0.0
57.72638702392578,18.686786651611328,-2.802947521209717,-0.0,-0.0,-1.0,0.0029275659915465,1.0,0.0
59.53961563110352,19.442495346069336,-2.126570701599121,-0.8677796542494539,-0.004306442749593,0.4969305044184173,0.1768926586120208,3.0,0.0
59.01515197753906,20.07246780395508,-2.120605230331421,-0.0,-0.0,-1.0,0.0600531612937873,1.0,0.0
58.918846130371094,19.41658592224121,-2.0611891746520996,-0.0,-0.0,-1.0,0.1869397379188892,2.0,0.0
58.747833251953125,19.296367645263672,-2.6510515213012695,-0.0,-0.0,-1.0,0.0866079545005116,2.0,0.0
58.98806381225586,19.160694122314453,-2.6729655265808105,0.1413281150120696,-0.538558640434343,-0.8306509223016895,0.1457415269480388,3.0,0.0
59.43402099609375,19.120941162109375,-2.7293763160705566,-0.0,-0.0,-1.0,0.1001421125325775,1.0,0.0
58.71278381347656,19.47896194458008,-2.65999984741211,-0.0,-0.0,-1.0,0.0945312064090364,2.0,0.0
59.224822998046875,20.04332733154297,-2.77001953125,-0.0,-0.0,-1.0,0.1885894747488893,1.0,0.0
58.85438537597656,20.28398704528809,-2.739941120147705,-0.0,-0.0,-1.0,0.2471535868791592,1.0,0.0
59.02836608886719,20.279197692871097,-2.76239013671875,-0.0,-0.0,-1.0,0.214549514792152,1.0,0.0
59.189842224121094,19.38348388671875,-1.7765988111495972,-0.0,-0.0,-1.0,0.0656128834447895,1.0,0.0
59.331356048583984,19.339855194091797,-1.7880767583847046,-0.0,-0.0,-1.0,0.1457446199456158,1.0,0.0
59.069732666015625,19.292404174804688,-2.529411554336548,-0.0,-0.0,-1.0,0.0910002967908454,1.0,0.0
59.25120544433594,19.66114616394043,-2.584207057952881,-0.0,-0.0,-1.0,0.1446516021600599,1.0,0.0
59.02584457397461,20.003746032714844,-2.585634708404541,-0.0,-0.0,-1.0,0.1456381761540114,2.0,0.0
59.294830322265625,19.77831268310547,-2.5999081134796143,-0.0,-0.0,-1.0,0.2008217245827297,2.0,0.0
59.024356842041016,20.255123138427734,-2.6077728271484375,-0.0,-0.0,-1.0,0.2263221599458956,2.0,0.0
59.05476379394531,18.883018493652344,-2.7017507553100586,-0.0,-0.0,-1.0,0.1350854857581488,1.0,0.0
59.173702239990234,18.93593978881836,-2.7229151725769043,-0.0,-0.0,-1.0,0.1442972678107079,1.0,0.0
58.76759719848633,19.314491271972656,-2.684770107269287,-0.4808764191258338,-0.6231473556886327,-0.6168024340313358,0.1044610398327467,3.0,0.0
58.94685745239258,19.11728286743164,-2.6995253562927246,-0.0,-0.0,-1.0,0.1909112932211361,1.0,0.0
58.97444534301758,20.0775146484375,-2.7649917602539062,-0.0,-0.0,-1.0,0.1412753988815849,1.0,0.0
59.20713806152344,19.94229507446289,-2.790811061859131,0.0689717309426547,0.7741589653196016,-0.6292223746387745,0.2141171198967913,3.0,0.0
59.109588623046875,20.508228302001953,-2.814063549041748,-0.0,-0.0,-1.0,0.1526085458410534,1.0,0.0
59.39068603515625,19.29848861694336,-1.8901785612106323,-0.0,-0.0,-1.0,0.2136972934173119,1.0,0.0
59.43720626831055,19.409454345703125,-1.9009212255477903,-0.2772221728786294,0.5996215344296023,-0.7507342288138596,0.1599386885552244,3.0,0.0
59.18627166748047,20.005861282348633,-2.5298960208892822,-0.0,-0.0,-1.0,0.1707134584539676,1.0,0.0
59.39323425292969,19.622303009033203,-2.532809257507324,-0.0,-0.0,-1.0,0.119396013006694,1.0,0.0
59.814064025878906,19.388442993164062,-2.5765974521636963,-0.0,-0.0,-1.0,0.0870054669500208,1.0,0.0
58.73051452636719,19.22970390319824,-2.57138729095459,-0.0,-0.0,-1.0,0.1848959618912272,1.0,0.0
59.038612365722656,20.01600646972656,-2.6783082485198975,-0.0,-0.0,-1.0,0.1842715206314564,1.0,0.0
59.094085693359375,19.794546127319336,-2.662692070007324,-0.0,-0.0,-1.0,0.1873710492995995,1.0,0.0
58.84413146972656,19.139068603515625,-2.574491500854492,-0.0,-0.0,-1.0,0.0917731921472256,1.0,0.0
59.85112380981445,19.926136016845703,-2.735177516937256,-0.0,-0.0,-1.0,0.1314296486794191,1.0,0.0
58.70098876953125,20.05154037475586,-2.647928237915039,-0.0,-0.0,-1.0,0.0797546097410574,1.0,0.0
58.746849060058594,19.935646057128903,-2.6418099403381348,-0.0,-0.0,-1.0,0.1010450546280405,1.0,0.0
58.79924011230469,19.35282516479492,-2.596756935119629,-0.0,-0.0,-1.0,0.1172659807715149,2.0,0.0
58.57328414916992,19.52273750305176,-2.5919220447540283,-0.0,-0.0,-1.0,0.1805416172978695,1.0,0.0
59.97172546386719,19.288230895996097,-2.769293785095215,-0.0,-0.0,-1.0,0.0645518354536602,1.0,0.0
60.16606521606445,18.27579689025879,-2.131155490875244,-0.0,-0.0,-1.0,0.1531549703029013,1.0,0.0
59.4224739074707,19.51662254333496,-1.806123971939087,-0.0,-0.0,-1.0,0.2007649724367853,1.0,0.0
59.3645133972168,19.531570434570312,-2.0074822902679443,-0.0,-0.0,-1.0,0.1251657771171762,1.0,0.0
58.76611328125,19.520299911499023,-1.968733310699463,-0.0,-0.0,-1.0,0.1618458715685867,1.0,0.0
59.61262130737305,19.256593704223633,-2.2154734134674072,-0.0,-0.0,-1.0,0.1374656904489195,2.0,0.0
59.66105651855469,19.442249298095703,-2.2311792373657227,-0.0,-0.0,-1.0,0.1399242589195459,1.0,0.0
59.08760070800781,19.46183967590332,-2.19537091255188,-0.0,-0.0,-1.0,0.1874361244732835,2.0,0.0
59.17889404296875,20.34387969970703,-2.7234621047973633,-0.0,-0.0,-1.0,0.2086118413423429,2.0,0.0
59.00566101074219,19.184541702270508,-2.601818084716797,-0.0,-0.0,-1.0,0.1114185097490086,1.0,0.0
58.96909713745117,19.910343170166016,-2.6683831214904785,-0.0,-0.0,-1.0,0.2399047969716407,1.0,0.0
59.02469253540039,20.479530334472656,-2.726834774017334,-0.0,-0.0,-1.0,0.1587520618770518,1.0,0.0
58.72264862060547,19.31923484802246,-2.596203327178955,-0.0,-0.0,-1.0,0.0988390409829409,1.0,0.0
59.685054779052734,19.42328643798828,-2.350874900817871,-0.0,-0.0,-1.0,0.1300064947281302,2.0,0.0
59.72297668457031,19.593029022216797,-2.3667855262756348,-0.8856621362219846,-0.35299865532513,-0.3016529956777503,0.1122424016960804,3.0,0.0
59.19254302978515,19.60247039794922,-2.332864284515381,-0.0,-0.0,-1.0,0.1485690651534243,2.0,0.0
58.993221282958984,20.06879234313965,-2.3576107025146484,-0.0,-0.0,-1.0,0.0714235841678533,2.0,0.0
59.58377456665039,19.416606903076172,-2.0050649642944336,-0.0,-0.0,-1.0,0.1128673664829249,2.0,0.0
59.793907165527344,19.562105178833008,-2.5041921138763428,-0.0,-0.0,-1.0,0.1063924089441607,1.0,0.0
59.63087463378906,19.051738739013672,-2.456372022628784,-0.0,-0.0,-1.0,0.1321134153609544,2.0,0.0
59.320220947265625,19.676040649414062,-2.47494125366211,-0.0,-0.0,-1.0,0.1358807946447999,2.0,0.0
59.676788330078125,19.3269100189209,-2.213636875152588,-0.0,-0.0,-1.0,0.1600151981610782,1.0,0.0
59.21257781982422,19.404386520385746,-2.1645803451538086,-0.0,-0.0,-1.0,0.1427203291333177,1.0,0.0
59.098052978515625,20.537303924560547,-3.01491117477417,-0.0,-0.0,-1.0,0.1326546634543387,1.0,0.0
59.01234817504883,18.730562210083008,-2.843127727508545,-0.0,-0.0,-1.0,0.0895473359895763,1.0,0.0
58.85562896728515,19.062143325805664,-2.858426570892334,-0.0,-0.0,-1.0,0.1056298705479548,1.0,0.0
58.7144889831543,19.48402404785156,-2.8838977813720703,-0.0,-0.0,-1.0,0.1274396810937851,1.0,0.0
58.754146575927734,19.161245346069336,-2.8582663536071777,-0.0,-0.0,-1.0,0.1108246993749921,1.0,0.0
58.70615005493164,19.27544593811035,-2.8642749786376953,-0.0,-0.0,-1.0,0.0986403875304469,1.0,0.0
58.57216262817383,19.750476837158203,-2.8957767486572266,-0.0,-0.0,-1.0,0.1095280328627728,1.0,0.0
58.817142486572266,19.498870849609375,-2.5698399543762207,0.7629876910130647,-0.6439503965854128,-0.0563708266751632,0.1626985008866412,4.0,0.0
59.0260009765625,20.124635696411133,-2.641103744506836,-0.0,-0.0,-1.0,0.1366731394201711,1.0,0.0
59.77446365356445,19.54330825805664,-2.392791748046875,-0.0,-0.0,-1.0,0.1091072219163115,1.0,0.0
59.7245979309082,19.26361846923828,-2.3617639541625977,-0.0,-0.0,-1.0,0.0957918335154665,1.0,0.0
59.70376968383789,19.38422203063965,-2.3721089363098145,-0.0,-0.0,-1.0,0.1295640518444458,2.0,0.0
59.20819854736328,19.614181518554688,-2.3595614433288574,-0.8222557448119308,-0.1514230575010038,-0.5486041813373504,0.1638621479366614,3.0,0.0
59.749168395996094,19.18211555480957,-2.3686397075653076,-0.0,-0.0,-1.0,0.0889220447621249,1.0,0.0
59.63392639160156,19.405075073242188,-2.3760721683502197,-0.0,-0.0,-1.0,0.1249039704685662,1.0,0.0
59.69255828857422,19.54943084716797,-2.3918609619140625,-0.0,-0.0,-1.0,0.1257311731999204,1.0,0.0
59.239532470703125,19.67055320739746,-2.3641183376312256,-0.0,-0.0,-1.0,0.1334692467521107,2.0,0.0
59.012298583984375,20.128246307373047,-2.3810741901397705,0.3179944402844662,-0.9320347193652764,-0.1737550512815663,0.0705975448571118,3.0,0.0
59.24127960205078,19.30790328979492,-1.8003894090652466,-0.0,-0.0,-1.0,0.0964590716117309,1.0,0.0
59.316219329833984,19.276386260986328,-1.8554203510284424,-0.0,-0.0,-1.0,0.2412187259603649,2.0,0.0
59.7122917175293,19.440710067749023,-2.1633734703063965,-0.0,-0.0,-1.0,0.1094332097889261,1.0,0.0
58.99494552612305,20.29569435119629,-2.876762866973877,-0.0,-0.0,-1.0,0.1220918422558632,1.0,0.0
59.04512023925781,20.49091529846191,-2.891643524169922,-0.0,-0.0,-1.0,0.1902035766206282,1.0,0.0
58.87158966064453,20.086313247680664,-2.853267192840576,-0.0,-0.0,-1.0,0.1178876113486497,1.0,0.0
58.57395935058594,19.35580062866211,-2.7875943183898926,-0.0,-0.0,-1.0,0.1019905710585742,2.0,0.0
58.56454086303711,19.604549407958984,-2.7972922325134277,-0.0,-0.0,-1.0,0.1421275886100879,1.0,0.0
58.55426788330078,19.839820861816406,-2.8065810203552246,-0.0,-0.0,-1.0,0.1645400803604871,1.0,0.0
58.5120849609375,18.16985511779785,-2.7341201305389404,-0.0,-0.0,-1.0,0.0087633428721601,1.0,0.0
59.14440155029297,20.189393997192383,-2.756192445755005,0.7585474788524864,-0.5208912724905138,-0.3915073493176726,0.2407109496196098,3.0,0.0
58.99615478515625,20.372543334960938,-2.7398436069488525,-0.0,-0.0,-1.0,0.1646193432441423,1.0,0.0
58.61262512207031,19.83400535583496,-2.6982738971710205,-0.0,-0.0,-1.0,0.0935910226577556,2.0,0.0
59.10419464111328,19.11348342895508,-2.755087614059448,-0.0,-0.0,-1.0,0.1270870392089148,1.0,0.0
58.68383026123047,19.461986541748047,-2.7071969509124756,-0.0,-0.0,-1.0,0.1236780218739026,1.0,0.0
58.577857971191406,19.6358699798584,-2.6949617862701416,-0.0,-0.0,-1.0,0.1604861610452539,2.0,0.0
58.48610305786133,19.83570098876953,-2.845290422439575,-0.4187398822260085,0.5254708106218525,-0.7406330658414879,0.1662327625668429,3.0,0.0
58.46189880371094,20.06795883178711,-2.846179723739624,-0.0,-0.0,-1.0,0.046344036937341,1.0,0.0
58.9072265625,20.36937141418457,-2.891318082809448,-0.0,-0.0,-1.0,0.1297019353671026,2.0,0.0
59.05690383911133,20.355382919311523,-2.250967025756836,-0.0,-0.0,-1.0,0.0506835814985046,1.0,0.0
59.32759094238281,19.935157775878903,-2.24310302734375,-0.0,-0.0,-1.0,0.2073940608852071,1.0,0.0
58.633575439453125,19.41011428833008,-2.4176435470581055,-0.0,-0.0,-1.0,0.1634891165834655,1.0,0.0
59.02293395996094,20.089027404785156,-2.4787163734436035,-0.0,-0.0,-1.0,0.0907106189095327,2.0,0.0
59.457557678222656,19.787322998046875,-2.49940824508667,-0.0,-0.0,-1.0,0.2305541823504782,1.0,0.0
58.692020416259766,19.5389347076416,-2.612020492553711,-0.1404725397477363,-0.9870771886200986,0.0771108895206266,0.1550342427448909,3.0,0.0
58.707855224609375,19.69222640991211,-2.6186442375183105,-0.0,-0.0,-1.0,0.1045770790382623,1.0,0.0
58.95095443725586,20.344985961914062,-2.662184715270996,-0.0,-0.0,-1.0,0.1533178123205875,1.0,0.0
59.07844543457031,20.065757751464844,-2.6636252403259277,-0.0,-0.0,-1.0,0.1768763686286779,2.0,0.0
59.115211486816406,19.729846954345703,-2.2996392250061035,-0.0,-0.0,-1.0,0.1066432775944064,1.0,0.0
59.12105178833008,19.58167266845703,-2.2973575592041016,-0.0,-0.0,-1.0,0.1612855065692178,1.0,0.0
59.03976821899414,20.312984466552734,-2.3043580055236816,-0.0,-0.0,-1.0,0.0598263352058286,1.0,0.0
59.560306549072266,19.51966857910156,-2.3326473236083984,-0.0,-0.0,-1.0,0.1835546197727189,1.0,0.0
59.273048400878906,19.785383224487305,-2.5523757934570312,-0.0,-0.0,-1.0,0.2150023012040578,2.0,0.0
59.10457611083984,20.17690658569336,-2.5508761405944824,-0.0,-0.0,-1.0,0.148281495846908,2.0,0.0
59.08251953125,19.57306671142578,-2.209960460662842,-0.0,-0.0,-1.0,0.1871790760259725,1.0,0.0
59.02440643310547,20.218578338623047,-2.231440305709839,-0.0,-0.0,-1.0,0.0520241756768253,1.0,0.0
59.38249969482422,19.51156234741211,-1.9325745105743408,-0.0,-0.0,-1.0,0.2079592660768079,1.0,0.0
59.30158996582031,19.660560607910156,-1.935025691986084,-0.0,-0.0,-1.0,0.1595400610141118,1.0,0.0
59.36149597167969,19.70897102355957,-1.995519518852234,-0.0,-0.0,-1.0,0.1786876405966292,1.0,0.0
58.619903564453125,19.844566345214844,-2.6903634071350098,-0.0,-0.0,-1.0,0.0894845529557699,2.0,0.0
58.6264533996582,19.637767791748047,-2.685628890991211,-0.0,-0.0,-1.0,0.1678516377984867,2.0,0.0
59.01380920410156,19.484569549560547,-2.720913887023926,-0.0,-0.0,-1.0,0.1675934121171476,1.0,0.0
58.97563552856445,20.246091842651367,-2.736940383911133,-0.0,-0.0,-1.0,0.1571947345298451,1.0,0.0
59.12422180175781,20.154964447021484,-2.749483108520508,0.7585474788524864,-0.5208912724905138,-0.3915073493176726,0.2344824778287463,3.0,0.0
58.3865852355957,19.69424057006836,-2.832444667816162,-0.0,-0.0,-1.0,0.1058267936798787,1.0,0.0
58.83624267578125,19.15038299560547,-2.7501683235168457,-0.0,-0.0,-1.0,0.1625850808911665,2.0,0.0
58.53795623779297,19.71835708618164,-2.792996883392334,-0.4285172383747324,0.4604249204445896,-0.7774200081354259,0.1134243040206293,3.0,0.0
58.407562255859375,19.829299926757812,-2.7977280616760254,0.1468311787322158,-0.8919180826982804,-0.4276946793074839,0.1838006012732793,4.0,0.0
59.28790283203125,19.5670223236084,-1.8176507949829104,-0.0,-0.0,-1.0,0.1819548182499883,1.0,0.0
59.637428283691406,19.2992000579834,-2.287485361099243,-0.0,-0.0,-1.0,0.1495140137626729,2.0,0.0
58.92494583129883,19.4581356048584,-2.6879544258117676,-0.0,-0.0,-1.0,0.2096988270894745,1.0,0.0
59.00385284423828,20.48536491394043,-2.919936418533325,-0.0,-0.0,-1.0,0.1487096153693984,1.0,0.0
58.61921691894531,19.248538970947266,-2.784841775894165,-0.0,-0.0,-1.0,0.1387265237411618,2.0,0.0
58.84344100952149,19.352140426635746,-2.6060965061187744,-0.0,-0.0,-1.0,0.1584436822144657,2.0,0.0
58.66958236694336,19.602439880371097,-2.5915181636810303,-0.0,-0.0,-1.0,0.1818349037177108,1.0,0.0
58.31624984741211,20.456268310546875,-2.851973056793213,-0.0,-0.0,-1.0,0.0334689215624399,1.0,0.0
58.65216445922851,19.802621841430664,-2.7859604358673096,-0.0,-0.0,-1.0,0.0916115489168335,2.0,0.0
58.59550857543945,19.98954200744629,-2.784045457839966,-0.0,-0.0,-1.0,0.1004033285532514,1.0,0.0
58.99365234375,19.85649681091309,-2.838541030883789,-0.0,-0.0,-1.0,0.1140011876809005,1.0,0.0
58.99885559082031,20.048572540283203,-2.8473963737487793,-0.0,-0.0,-1.0,0.1067884460242823,1.0,0.0
59.17759323120117,20.621644973754883,-2.8904471397399902,-0.0,-0.0,-1.0,0.149572798555812,1.0,0.0
58.652366638183594,19.112783432006836,-2.773308753967285,-0.0,-0.0,-1.0,0.0748931639944156,2.0,0.0
58.361576080322266,18.936193466186523,-2.7372941970825195,-0.0,-0.0,-1.0,0.0094982886730489,1.0,0.0
58.431034088134766,19.408920288085938,-2.763845443725586,-0.0,-0.0,-1.0,0.0250351858657835,2.0,0.0
58.41025161743164,20.44642639160156,-2.8067355155944824,-0.0,-0.0,-1.0,0.0463355525592334,1.0,0.0
59.301979064941406,19.881895065307617,-2.5005970001220703,-0.0,-0.0,-1.0,0.1775396441778259,1.0,0.0
59.11708068847656,18.829044342041016,-2.0456111431121826,-0.0,-0.0,-1.0,0.0937219291368126,1.0,0.0
58.36235427856445,18.65536880493164,-2.745208740234375,-0.0,-0.0,-1.0,0.0056597894444474,1.0,0.0
58.41352844238281,18.905433654785156,-2.7564311027526855,-0.0,-0.0,-1.0,0.010202223157307,1.0,0.0
58.50511169433594,19.32165908813477,-2.776106357574463,-0.0,-0.0,-1.0,0.0637976070310338,1.0,0.0
58.59922409057617,19.737953186035156,-2.7963786125183105,-0.0,-0.0,-1.0,0.1401421517511445,2.0,0.0
58.58478164672851,20.09255599975586,-2.8030219078063965,-0.0,-0.0,-1.0,0.0579227088893451,2.0,0.0
58.799991607666016,20.320825576782227,-2.8332676887512207,-0.0,-0.0,-1.0,0.2268903840787263,1.0,0.0
58.95989227294922,20.471895217895508,-2.8553667068481445,-0.0,-0.0,-1.0,0.1470010502098695,2.0,0.0
57.972286224365234,18.8281192779541,-2.7592594623565674,-0.0,-0.0,-1.0,0.0039571803484928,1.0,0.0
58.10279846191406,18.554737091064453,-2.7684996128082275,-0.0,-0.0,-1.0,0.0041242820803727,1.0,0.0
58.196311950683594,18.95911026000977,-2.788769006729126,-0.0,-0.0,-1.0,0.0045330525795959,1.0,0.0
58.31778717041016,19.443735122680664,-2.8146183490753174,-0.0,-0.0,-1.0,0.031963012735868,1.0,0.0
58.4095573425293,19.849653244018555,-2.8354132175445557,0.2769899717636827,-0.9538909943138604,-0.1156223443339082,0.1839062857817265,4.0,0.0
58.58552169799805,20.161113739013672,-2.8641140460968018,-0.0,-0.0,-1.0,0.0618610337471675,1.0,0.0
58.84810256958008,20.46326065063477,-2.9030563831329346,-0.0,-0.0,-1.0,0.1342260121506825,1.0,0.0
57.92440032958984,18.589345932006836,-2.7881100177764893,-0.0,-0.0,-1.0,0.0031436724540431,1.0,0.0
57.963008880615234,18.9908390045166,-2.8029444217681885,-0.0,-0.0,-1.0,0.0030638397270915,1.0,0.0
58.28030776977539,19.362140655517575,-2.850908041000366,-0.0,-0.0,-1.0,0.0196079092268996,1.0,0.0
58.39694595336914,19.834461212158203,-2.877713918685913,-0.0,-0.0,-1.0,0.1569261373323509,2.0,0.0
58.36492538452149,19.598621368408203,-2.8674356937408447,-0.0,-0.0,-1.0,0.0531307584165513,1.0,0.0
58.5571403503418,20.145273208618164,-2.905681848526001,-0.0,-0.0,-1.0,0.0566181832551167,1.0,0.0
58.776912689208984,20.533306121826172,-2.9432671070098877,-0.0,-0.0,-1.0,0.102618070071762,1.0,0.0
58.70281982421875,20.375957489013672,-2.929802179336548,-0.0,-0.0,-1.0,0.0747093305879039,1.0,0.0
