x,y,z,nx,ny,nz,curvature,density,label
48.92454528808594,17.34856605529785,-2.0356059074401855,-0.0,-0.0,-1.0,0.0694730603285209,2.0,0.0
49.00496673583984,17.323772430419922,-1.9887704849243164,-0.0,-0.0,-1.0,0.064325979862741,2.0,0.0
49.20768737792969,16.020605087280273,-2.0908446311950684,0.1089775052101796,0.3833674708027009,-0.9171440921079448,0.1242121472103114,4.0,0.0
48.88545227050781,17.494112014770508,-2.121518611907959,-0.0,-0.0,-1.0,0.0501770135872197,1.0,0.0
49.32892608642578,16.514917373657227,-2.0553550720214844,-0.0,-0.0,-1.0,0.0959841352648057,2.0,0.0
49.022361755371094,17.319618225097656,-2.042236804962158,-0.0,-0.0,-1.0,0.1188977764718921,1.0,0.0
49.480525970458984,16.76888656616211,-1.8632614612579343,-0.0,-0.0,-1.0,0.0501651617435806,2.0,0.0
49.287357330322266,17.287242889404297,-1.8607864379882812,0.1081479972565749,0.5306031547422746,0.8406927517630551,0.1318718744195759,3.0,0.0
49.390106201171875,16.771528244018555,-1.9216291904449463,0.7951342896458965,-0.06834103556503,-0.6025702982119304,0.0483400204339872,4.0,0.0
49.315189361572266,17.376243591308594,-1.953498601913452,-0.0,-0.0,-1.0,0.1042537804393235,1.0,0.0
49.34077453613281,16.868011474609375,-1.8670241832733152,-0.0,-0.0,-1.0,0.0574094604874937,1.0,0.0
49.336875915527344,17.309030532836914,-1.9048793315887451,-0.0,-0.0,-1.0,0.1026839119389124,1.0,0.0
49.33089447021485,17.390220642089844,-1.7753149271011353,-0.0,-0.0,-1.0,0.2476671054877879,1.0,0.0
49.23576354980469,16.678895950317383,-2.0271592140197754,0.5204381037135386,-0.3901283151138844,-0.7595683497549499,0.0949516648524096,4.0,0.0
48.969024658203125,17.184404373168945,-2.0378665924072266,0.1822463304796183,0.7298446419022402,-0.6588725777518022,0.1425360781614101,3.0,0.0
48.962913513183594,15.962335586547852,-2.094076633453369,-0.0,-0.0,-1.0,0.0587693106864273,2.0,0.0
47.86982727050781,17.446186065673828,-2.112168788909912,-0.0,-0.0,-1.0,0.2298859010419278,2.0,0.0
48.86498260498047,15.768060684204102,-2.165865421295166,-0.0,-0.0,-1.0,0.0518185943729026,1.0,0.0
48.115081787109375,16.675825119018555,-2.208253860473633,-0.0,-0.0,-1.0,0.0426003367262611,2.0,0.0
47.884735107421875,17.502727508544922,-2.1253809928894043,-0.0,-0.0,-1.0,0.2668751184488083,2.0,0.0
49.36530685424805,16.757701873779297,-1.9581822156906128,-0.0,-0.0,-1.0,0.0474705291054481,2.0,0.0
49.141319274902344,17.130517959594727,-1.962499737739563,0.7362467240647215,0.444210581464281,-0.5105073169104747,0.130578954946651,5.0,0.0
49.39922332763672,16.794551849365234,-1.91792631149292,0.6859596148092527,-0.1573773406000123,-0.7104166239020658,0.0473664289496143,3.0,0.0
49.12348175048828,17.270687103271484,-1.9241082668304443,0.7510724098060974,-0.1513072587260403,0.642647919692325,0.1057120237181207,5.0,0.0
49.31039810180664,16.449495315551758,-2.0869481563568115,-0.4258189296177483,0.7920166621646821,-0.4374789663889115,0.0695348261675424,3.0,0.0
48.79949951171875,17.5357608795166,-2.125016689300537,-0.0,-0.0,-1.0,0.056539954670862,2.0,0.0
49.58534622192383,16.920866012573242,-1.8662601709365845,-0.0,-0.0,-1.0,0.0298597224903618,1.0,0.0
49.24762344360352,17.2745418548584,-1.8476587533950808,-0.0,-0.0,-1.0,0.2295688779523338,2.0,0.0
49.2330436706543,16.00691032409668,-2.0864450931549072,0.3084841080277687,-0.5420640516503018,-0.7816675245926307,0.1136313865085652,6.0,0.0
49.17781829833984,15.920101165771484,-2.065000057220459,-0.0,-0.0,-1.0,0.1276745497202641,1.0,0.0
48.739524841308594,17.544225692749023,-2.164672374725342,0.8094408187362425,-0.3678355366712207,-0.4577145168392586,0.0405376535444952,3.0,0.0
48.05882263183594,16.58573341369629,-2.2390599250793457,-0.0,-0.0,-1.0,0.0233150442661907,1.0,0.0
49.564002990722656,16.572643280029297,-2.0295960903167725,-0.0,-0.0,-1.0,0.0769636877231381,1.0,0.0
49.133453369140625,17.138797760009766,-2.0168347358703613,0.9776897000476232,-0.0255846757528792,0.20849046689815,0.0719468191498234,5.0,0.0
47.779640197753906,17.814973831176758,-2.2431859970092773,-0.0,-0.0,-1.0,0.110731051436911,1.0,0.0
48.03190612792969,17.065486907958984,-2.2201523780822754,-0.0,-0.0,-1.0,0.0308553985635131,1.0,0.0
47.92327117919922,17.42444610595703,-2.205684185028076,-0.0,-0.0,-1.0,0.2632731890979102,2.0,0.0
48.77057647705078,16.253074645996094,-2.1777076721191406,-0.0,-0.0,-1.0,0.0557816533196886,1.0,0.0
49.22418212890625,16.245752334594727,-2.0676772594451904,-0.0,-0.0,-1.0,0.0134061057837528,2.0,0.0
49.93321990966797,16.246232986450195,-2.174318790435791,-0.0,-0.0,-1.0,0.0543839761040818,2.0,0.0
48.58649826049805,17.369714736938477,-2.136587142944336,-0.0,-0.0,-1.0,0.04051588928981,1.0,0.0
48.728233337402344,16.474573135375977,-2.068659782409668,-0.0,-0.0,-1.0,0.0554726369324517,1.0,0.0
50.03846740722656,16.06610870361328,-2.188196182250977,-0.0,-0.0,-1.0,0.0309102291661564,2.0,0.0
49.07888412475586,15.835870742797852,-2.0510764122009277,-0.0,-0.0,-1.0,0.0496301573321828,2.0,0.0
49.13123321533203,17.232711791992188,-1.9332622289657593,0.5906857900132898,0.3091257640228264,0.7453398952784426,0.1021876076267556,4.0,0.0
49.35649108886719,16.53993797302246,-1.888210654258728,-0.0,-0.0,-1.0,0.070481018522968,1.0,0.0
49.162376403808594,16.00135040283203,-1.8897340297698977,-0.0,-0.0,-1.0,0.1590277285108291,1.0,0.0
49.57320785522461,15.873001098632812,-2.131366729736328,-0.0,-0.0,-1.0,0.0283224511943431,1.0,0.0
48.82978820800781,15.876842498779297,-2.1228229999542236,-0.0,-0.0,-1.0,0.0503182285744038,1.0,0.0
49.15538024902344,16.03518295288086,-2.079227924346924,-0.0,-0.0,-1.0,0.1523242527704524,2.0,0.0
48.836578369140625,16.921167373657227,-2.1652002334594727,-0.0,-0.0,-1.0,0.0646640034426428,2.0,0.0
49.22053527832031,16.01956558227539,-2.070751905441284,0.3640265033977294,0.0508745394561786,-0.9299981107825672,0.1207604468638793,5.0,0.0
48.82532501220703,17.358448028564453,-2.023475646972656,-0.0,-0.0,-1.0,0.0637287042620353,2.0,0.0
48.678348541259766,16.88376235961914,-2.1768081188201904,-0.0,-0.0,-1.0,0.0720145354889388,1.0,0.0
49.17475891113281,17.211122512817383,-1.838635802268982,-0.0,-0.0,-1.0,0.1921255825403573,1.0,0.0
49.41070938110352,16.910940170288086,-1.8470594882965088,-0.0,-0.0,-1.0,0.0363140539060804,1.0,0.0
49.26749801635742,16.665943145751953,-1.9705584049224856,-0.7251173085265036,0.6817058137247066,0.0973759334189673,0.1063889339129523,6.0,0.0
49.051971435546875,17.223941802978516,-1.982846975326538,-0.0,-0.0,-1.0,0.0775135343011449,2.0,0.0
49.13610076904297,16.9451847076416,-1.8202890157699585,-0.0,-0.0,-1.0,0.173379076571503,2.0,0.0
49.192020416259766,16.1013126373291,-2.0915167331695557,-0.0,-0.0,-1.0,0.0883027532762015,2.0,0.0
49.072147369384766,17.02782440185547,-2.1184377670288086,-0.0,-0.0,-1.0,0.0850223845845816,1.0,0.0
49.19269943237305,15.995086669921877,-2.089176654815674,0.1089775052101796,0.3833674708027009,-0.9171440921079448,0.0951276439756715,4.0,0.0
48.81591033935547,17.234209060668945,-2.105559825897217,-0.0,-0.0,-1.0,0.0620548890737567,2.0,0.0
48.524898529052734,15.810155868530272,-2.1564764976501465,-0.3207429009870869,-0.8149681818786404,-0.4826498254343528,0.0191965204901225,3.0,0.0
49.28929138183594,15.82756805419922,-2.1301088333129883,-0.0,-0.0,-1.0,0.0613192300628048,2.0,0.0
48.61822509765625,16.358318328857422,-2.1426258087158203,-0.0,-0.0,-1.0,0.0257966500238971,1.0,0.0
48.87204360961914,17.258102416992188,-2.067437648773194,-0.0,-0.0,-1.0,0.0594334004706009,1.0,0.0
49.247337341308594,15.982986450195312,-2.0449914932250977,0.0840174795187848,-0.8502322195438137,-0.519659730963359,0.1473855973753908,3.0,0.0
48.944862365722656,16.148813247680664,-1.9387567043304443,-0.0,-0.0,-1.0,0.1212681168185214,2.0,0.0
48.6911506652832,17.134313583374023,-2.083832263946533,-0.0,-0.0,-1.0,0.0823591448780562,2.0,0.0
49.12868881225586,17.170330047607422,-2.0002050399780273,0.7748867070239158,-0.3307628191103945,0.5386525306464053,0.0964013388419273,5.0,0.0
49.271728515625,16.66931915283203,-1.9993102550506592,0.4965899110419453,-0.6650112529020781,-0.557815824233197,0.1043968545234621,7.0,0.0
49.08431625366211,17.174476623535156,-1.9716567993164065,-0.0927632130868041,-0.5631842106426144,-0.8211081117494016,0.1219784503052169,4.0,0.0
49.13912582397461,16.86915397644043,-1.887145519256592,-0.0,-0.0,-1.0,0.1450413776323732,1.0,0.0
49.277809143066406,16.657888412475586,-1.9913742542266848,-0.7251173085265036,0.6817058137247066,0.0973759334189673,0.0847087229974114,6.0,0.0
49.116703033447266,16.97509765625,-1.8739063739776611,-0.0,-0.0,-1.0,0.2208710421025486,1.0,0.0
49.11544418334961,16.593393325805664,-2.036142587661743,-0.0,-0.0,-1.0,0.0449076725432531,2.0,0.0
49.20652770996094,17.521915435791016,-2.0892326831817627,-0.0,-0.0,-1.0,0.0623518794486349,1.0,0.0
47.83993148803711,17.479568481445312,-2.1532700061798096,-0.0,-0.0,-1.0,0.1883497022704433,2.0,0.0
49.128639221191406,15.779643058776855,-2.059319496154785,-0.0,-0.0,-1.0,0.0583654186591856,1.0,0.0
48.78465270996094,17.386920928955078,-2.0859556198120117,0.6431790129548837,-0.7296136541744948,0.2323460198422226,0.0559075845395006,3.0,0.0
48.67820358276367,16.569137573242188,-2.1066527366638184,-0.0,-0.0,-1.0,0.0554522867504108,1.0,0.0
48.71491622924805,17.724178314208984,-2.164557456970215,-0.0,-0.0,-1.0,0.0796109173742006,1.0,0.0
49.27189254760742,16.808122634887695,-1.898017168045044,-0.0,-0.0,-1.0,0.0783216550912223,2.0,0.0
48.146881103515625,16.372907638549805,-2.1424851417541504,-0.0,-0.0,-1.0,0.0406916818943095,1.0,0.0
49.10908508300781,17.245359420776367,-1.700334548950195,-0.0,-0.0,-1.0,0.1331800175886504,1.0,0.0
49.02572250366211,16.04391098022461,-2.153024673461914,-0.0,-0.0,-1.0,0.067972701316648,1.0,0.0
48.77138137817383,17.369077682495117,-2.1052494049072266,-0.0,-0.0,-1.0,0.064024697469284,2.0,0.0
48.22531509399414,15.955978393554688,-2.1849851608276367,-0.0,-0.0,-1.0,0.0462897337616087,2.0,0.0
48.66203689575195,17.665142059326172,-2.1808547973632812,-0.0,-0.0,-1.0,0.0867528666393496,2.0,0.0
49.10637664794922,16.824928283691406,-1.988870620727539,-0.0,-0.0,-1.0,0.0928112353906912,2.0,0.0
49.07235336303711,17.204830169677734,-1.915665626525879,-0.0,-0.0,-1.0,0.1247135469269466,1.0,0.0
48.69141387939453,17.421871185302734,-2.0928807258605957,-0.0,-0.0,-1.0,0.0625703661223467,1.0,0.0
49.199222564697266,17.16363525390625,-1.961522102355957,-0.0,-0.0,-1.0,0.1046848415524888,2.0,0.0
48.950828552246094,16.646270751953125,-2.1275100708007812,-0.0,-0.0,-1.0,0.0413270251646833,2.0,0.0
49.3218994140625,17.57494354248047,-1.653573989868164,-0.0,-0.0,-1.0,0.2364486508985956,1.0,0.0
49.15298843383789,16.779695510864258,-2.03246545791626,0.1678342129503816,-0.3310804319718294,-0.928556635067928,0.1139830248723996,4.0,0.0
49.25932693481445,16.813796997070312,-1.92154860496521,-0.0,-0.0,-1.0,0.0886407672439099,2.0,0.0
49.05735778808594,17.033950805664062,-1.911329984664917,-0.0,-0.0,-1.0,0.1364537863323457,2.0,0.0
48.84812927246094,15.786456108093262,-2.1132969856262207,-0.0,-0.0,-1.0,0.0518185943729026,1.0,0.0
48.975563049316406,15.649856567382812,-2.12341833114624,-0.0,-0.0,-1.0,0.068308352623094,1.0,0.0
48.70323944091797,16.11330223083496,-2.1073198318481445,-0.0,-0.0,-1.0,0.0298288407021526,1.0,0.0
48.73750305175781,16.585298538208008,-2.1264376640319824,-0.0,-0.0,-1.0,0.0702652971222777,1.0,0.0
48.697017669677734,16.958587646484375,-2.1339263916015625,0.4746286677373543,-0.3108082688525582,-0.8234839693489728,0.0867745381953395,3.0,0.0
48.49964904785156,15.832240104675291,-2.1769869327545166,-0.3207429009870869,-0.8149681818786404,-0.4826498254343528,0.0185173443328447,3.0,0.0
48.32970428466797,16.60940170288086,-2.195458173751831,-0.135043892526345,-0.2320280302327035,-0.9632892298150462,0.0339791610928233,3.0,0.0
48.304710388183594,16.94965362548828,-2.2095606327056885,-0.0,-0.0,-1.0,0.0389655274571291,1.0,0.0
49.1180534362793,16.81723976135254,-1.9491968154907229,0.9603963420073484,0.0281121880095966,-0.2772157483697799,0.081552456694619,3.0,0.0
49.217647552490234,16.67352867126465,-1.9528484344482424,-0.0,-0.0,-1.0,0.1238686269247139,2.0,0.0
49.10158920288086,16.99171257019043,-1.957179069519043,-0.2554197133042769,-0.2221017657071527,-0.9409737380635692,0.1576249791755469,4.0,0.0
48.41448593139648,15.711827278137209,-2.166776657104492,-0.0,-0.0,-1.0,0.0147179581139386,2.0,0.0
48.23088836669922,15.880802154541016,-2.1631741523742676,-0.0,-0.0,-1.0,0.0166767424368005,2.0,0.0
48.5673713684082,15.69326400756836,-2.192075252532959,-0.0,-0.0,-1.0,0.0175579356025629,1.0,0.0
48.2431640625,15.89289093017578,-2.1930246353149414,-0.0,-0.0,-1.0,0.0179155051618016,2.0,0.0
48.43873977661133,15.805878639221191,-2.198093891143799,-0.0,-0.0,-1.0,0.0170865152778561,2.0,0.0
49.29923629760742,16.59327507019043,-1.957965850830078,-0.0,-0.0,-1.0,0.0888644095541215,1.0,0.0
49.19498062133789,16.71573257446289,-1.9528660774230957,0.8743262696914675,0.4696355637476605,0.1224582026277531,0.0885697614987182,3.0,0.0
49.12483978271485,16.92823600769043,-1.9590740203857424,-0.4534199364550648,0.7687278278682408,-0.4510741489889014,0.1589745393700531,4.0,0.0
49.1337890625,16.313905715942383,-2.0343105792999268,-0.0,-0.0,-1.0,0.0153831107715631,1.0,0.0
48.993896484375,16.494930267333984,-2.0300638675689697,-0.0,-0.0,-1.0,0.0716297148239582,1.0,0.0
49.008338928222656,16.804351806640625,-2.0529162883758545,-0.0,-0.0,-1.0,0.0718644355175243,1.0,0.0
48.9329833984375,17.1624698638916,-2.068977117538452,0.9440428836732973,0.2065737804478732,-0.2571192466877564,0.1183244649734556,4.0,0.0
48.82379913330078,17.35628318786621,-2.069917917251587,-0.0,-0.0,-1.0,0.0646626911139062,2.0,0.0
48.3270149230957,17.622079849243164,-2.2855749130249023,-0.0,-0.0,-1.0,0.0169850681504102,2.0,0.0
49.21775817871094,16.58588981628418,-2.2083001136779785,-0.0,-0.0,-1.0,0.0849281739860151,1.0,0.0
49.05934143066406,16.91675567626953,-2.1876683235168457,-0.0,-0.0,-1.0,0.1685923146137229,2.0,0.0
49.00232696533203,17.197662353515625,-2.1803369522094727,-0.0,-0.0,-1.0,0.0801001370733094,1.0,0.0
48.56856918334961,16.92664909362793,-2.2482621669769287,-0.0,-0.0,-1.0,0.0335863057046841,1.0,0.0
48.55324172973633,17.072303771972656,-2.244316816329956,-0.0,-0.0,-1.0,0.0805961723629166,1.0,0.0
48.59549331665039,17.727745056152344,-2.123495578765869,-0.0,-0.0,-1.0,0.0762376689180701,1.0,0.0
48.43670654296875,16.767173767089844,-2.0941739082336426,-0.0,-0.0,-1.0,0.0479996734023969,1.0,0.0
48.29353332519531,16.89354133605957,-2.0796408653259277,-0.0,-0.0,-1.0,0.0357406249666554,1.0,0.0
48.01043701171875,17.491809844970703,-2.0554070472717285,-0.0,-0.0,-1.0,0.1851071787841634,1.0,0.0
49.177127838134766,16.814912796020508,-1.9933674335479736,-0.9316739405457588,0.1888177733861563,-0.3103731898238506,0.1545818617270131,4.0,0.0
49.12948989868164,17.102169036865234,-1.985119104385376,0.9922399272456192,-0.057269311585416,-0.1103637292326647,0.185425378073331,5.0,0.0
49.25282669067383,17.313901901245117,-1.996429681777954,-0.0,-0.0,-1.0,0.124438025475716,1.0,0.0
49.07726287841797,16.955814361572266,-2.099989652633667,0.8911643494297778,0.2378753067504759,-0.386317797601622,0.1594601706965452,3.0,0.0
49.01493835449219,17.40605354309082,-2.094041109085083,-0.0,-0.0,-1.0,0.1166755039411107,1.0,0.0
48.1561279296875,18.037582397460938,-2.2775912284851074,-0.0,-0.0,-1.0,0.0201913698955874,1.0,0.0
49.06275939941406,16.970808029174805,-2.0336008071899414,-0.0,-0.0,-1.0,0.1669058802734916,2.0,0.0
49.00595474243164,17.14980697631836,-2.0270328521728516,0.990191592830996,-0.1172797703231404,-0.0759346097623897,0.088197313799766,4.0,0.0
49.06289291381836,17.366897583007812,-2.032855987548828,-0.0,-0.0,-1.0,0.1247658186364672,1.0,0.0
47.92498779296875,15.796314239501951,-2.11059832572937,-0.0,-0.0,-1.0,0.0269023064607512,1.0,0.0
48.041053771972656,15.982280731201172,-2.11576771736145,-0.0,-0.0,-1.0,0.0381441837567622,1.0,0.0
48.236236572265625,16.459009170532227,-2.1188905239105225,-0.0,-0.0,-1.0,0.025913253233614,1.0,0.0
48.9429931640625,16.708904266357422,-2.1835715770721436,-0.0,-0.0,-1.0,0.0500238137662387,1.0,0.0
49.272438049316406,16.96135139465332,-2.2093069553375244,-0.0,-0.0,-1.0,0.1462179631583706,1.0,0.0
49.77722930908203,17.238483428955078,-2.2528560161590576,-0.0,-0.0,-1.0,0.1250472995474548,1.0,0.0
48.32081604003906,16.659440994262695,-2.120623826980591,-0.0,-0.0,-1.0,0.0501145414491994,1.0,0.0
49.58728790283203,17.717668533325195,-2.2174313068389893,-0.0,-0.0,-1.0,0.0197107080447367,1.0,0.0
49.14872360229492,17.262792587280273,-1.947394847869873,0.689491974715203,-0.0255910730426376,0.7238410832384802,0.1199777386765265,4.0,0.0
49.178070068359375,16.93935775756836,-1.9624576568603516,0.6415030617357996,0.7637958277355581,-0.0713425211031144,0.1732470794005644,4.0,0.0
49.14585494995117,17.418622970581055,-1.941329002380371,-0.0,-0.0,-1.0,0.0898780952916819,1.0,0.0
49.29638671875,17.50956153869629,-1.9530630111694336,-0.0,-0.0,-1.0,0.1421597333832796,1.0,0.0
48.77020263671875,16.170324325561523,-2.1085987091064453,-0.0,-0.0,-1.0,0.0943272994525239,2.0,0.0
48.961524963378906,15.734779357910156,-2.143972873687744,-0.0,-0.0,-1.0,0.0683083526230941,1.0,0.0
48.85649490356445,17.051849365234375,-2.090430736541748,-0.0,-0.0,-1.0,0.0494031742183483,2.0,0.0
48.85613250732422,16.68511199951172,-2.1017508506774902,0.5148606775904638,0.2841097228754527,-0.8088264016701746,0.0840994663578078,4.0,0.0
49.16148376464844,17.294696807861328,-2.117170810699463,-0.0,-0.0,-1.0,0.1584290756233086,1.0,0.0
49.20436096191406,17.425277709960938,-2.118086338043213,-0.0,-0.0,-1.0,0.0947376592564267,1.0,0.0
47.90851211547851,17.403854370117188,-2.1309025287628174,-0.0,-0.0,-1.0,0.2808516552113165,2.0,0.0
48.14177703857422,16.875263214111328,-2.1629045009613037,-0.0,-0.0,-1.0,0.0411039426076311,1.0,0.0
48.304443359375,16.117202758789062,-2.18562388420105,0.1483859977256158,-0.9770444106800108,-0.152858808179062,0.012984980522236,3.0,0.0
48.303428649902344,15.696049690246582,-2.185974359512329,-0.0,-0.0,-1.0,0.0151211787672291,1.0,0.0
48.43901824951172,17.042739868164062,-2.2050840854644775,-0.0,-0.0,-1.0,0.0345368822585777,1.0,0.0
48.352745056152344,16.58328628540039,-2.1923978328704834,-0.135043892526345,-0.2320280302327035,-0.9632892298150462,0.0398316737367704,3.0,0.0
48.32238006591797,16.35013198852539,-2.1880533695220947,-0.0,-0.0,-1.0,0.0273131661542301,2.0,0.0
48.62156677246094,17.77595329284668,-2.2328665256500244,-0.0,-0.0,-1.0,0.1239962595834731,1.0,0.0
48.572784423828125,17.550683975219727,-2.225201368331909,-0.0,-0.0,-1.0,0.142871906830826,1.0,0.0
49.12769317626953,17.846649169921875,-2.30481219291687,-0.0,-0.0,-1.0,0.0241853085225523,1.0,0.0
49.285919189453125,18.056550979614254,-2.328176736831665,-0.0,-0.0,-1.0,0.0202075170281087,1.0,0.0
48.366546630859375,16.781518936157227,-2.1356499195098877,-0.0,-0.0,-1.0,0.0417570157244005,1.0,0.0
48.422882080078125,16.424427032470703,-2.1385982036590576,-0.742468712886375,-0.2675905793590677,-0.6141135825098876,0.0243200590822213,4.0,0.0
48.436431884765625,16.073368072509766,-2.13572096824646,-0.0,-0.0,-1.0,0.0158638065734182,1.0,0.0
48.44578170776367,16.99562644958496,-2.150493860244751,-0.0,-0.0,-1.0,0.0369667975141473,1.0,0.0
49.157711029052734,16.751049041748047,-1.9909896850585935,0.8141357513404175,0.4899961505174757,-0.3115874690475043,0.1149812678108627,5.0,0.0
49.044559478759766,17.2244873046875,-1.9946188926696775,0.8250349074490612,-0.1994577251844606,-0.5287097666534628,0.078912508405064,3.0,0.0
49.15662384033203,16.9619083404541,-1.9997210502624512,0.7617115983803547,0.6415574433478781,-0.0905510230631293,0.1432923000556233,6.0,0.0
49.271263122558594,17.482994079589844,-2.0389223098754883,-0.0,-0.0,-1.0,0.0667204024483579,1.0,0.0
49.2198486328125,16.23452377319336,-2.0757546424865723,-0.0,-0.0,-1.0,0.0138826587215654,2.0,0.0
49.00960540771485,16.8467960357666,-2.08787202835083,-0.0,-0.0,-1.0,0.1085838829112192,1.0,0.0
49.12055206298828,16.542400360107422,-2.082698345184326,-0.0,-0.0,-1.0,0.0619821250279164,2.0,0.0
47.93878555297851,17.63995933532715,-1.982593059539795,-0.0,-0.0,-1.0,0.2628317647343543,1.0,0.0
48.924591064453125,17.45705795288086,-2.1201863288879395,-0.0,-0.0,-1.0,0.0528374764431914,1.0,0.0
48.979949951171875,17.20308494567871,-2.109684467315674,0.2346805397300244,0.1197714304341773,-0.96466566681093,0.105370193298575,4.0,0.0
48.817161560058594,17.55685043334961,-2.1112141609191895,-0.0,-0.0,-1.0,0.0497883151114286,2.0,0.0
49.30180740356445,17.863914489746094,-2.2090163230895996,-0.0,-0.0,-1.0,0.0245898318982065,2.0,0.0
48.32740020751953,16.11438751220703,-2.1453442573547363,-0.0,-0.0,-1.0,0.0133462907791141,2.0,0.0
48.47342300415039,15.869969367980955,-2.1510987281799316,-0.0,-0.0,-1.0,0.0170865152778561,2.0,0.0
48.1756477355957,16.59823226928711,-2.157416820526123,-0.0,-0.0,-1.0,0.0353350740289307,1.0,0.0
48.266639709472656,16.405454635620117,-2.1575331687927246,-0.0,-0.0,-1.0,0.0286096000875261,1.0,0.0
48.171775817871094,16.931415557861328,-2.183077335357666,-0.0,-0.0,-1.0,0.0482301675048973,1.0,0.0
48.12767791748047,17.363134384155273,-2.21053409576416,-0.0,-0.0,-1.0,0.1615982547564128,2.0,0.0
48.08257293701172,17.887754440307617,-2.246453285217285,-0.0,-0.0,-1.0,0.0177196680859323,1.0,0.0
48.15443420410156,17.651121139526367,-2.238619804382324,-0.0,-0.0,-1.0,0.021404537370882,1.0,0.0
49.49625396728515,17.088836669921875,-1.817216157913208,-0.0,-0.0,-1.0,0.0428729340277111,1.0,0.0
49.43150329589844,17.17278480529785,-1.829387664794922,-0.0,-0.0,-1.0,0.0905409023279595,1.0,0.0
48.63527297973633,15.85766315460205,-2.183556318283081,-0.0,-0.0,-1.0,0.0194007055440553,1.0,0.0
48.42652893066406,16.448453903198242,-2.1787750720977783,-0.0,-0.0,-1.0,0.0261132060507886,2.0,0.0
48.497833251953125,16.237499237060547,-2.1795990467071533,-0.0,-0.0,-1.0,0.0219591556306582,2.0,0.0
48.413429260253906,16.651569366455078,-2.1891582012176514,-0.0,-0.0,-1.0,0.0323347867615733,2.0,0.0
48.41764068603515,17.121627807617188,-2.2209460735321045,-0.0,-0.0,-1.0,0.0576265533439517,1.0,0.0
48.43819046020508,17.556100845336914,-2.25483775138855,-0.0,-0.0,-1.0,0.103768391586896,1.0,0.0
48.46782684326172,17.762659072875977,-2.275324583053589,-0.0,-0.0,-1.0,0.0696969772926847,2.0,0.0
48.84043502807617,17.949901580810547,-2.361475706100464,-0.0,-0.0,-1.0,0.0220476514399226,1.0,0.0
48.96058654785156,18.12063217163086,-2.3974416255950928,-0.0,-0.0,-1.0,0.0207097445047504,1.0,0.0
48.946929931640625,15.791221618652344,-2.163104772567749,-0.0,-0.0,-1.0,0.07636445953946,2.0,0.0
48.737518310546875,16.196256637573242,-2.145334482192993,-0.0,-0.0,-1.0,0.0572697459995407,2.0,0.0
48.65113830566406,16.55363655090332,-2.150243043899536,-0.0,-0.0,-1.0,0.0518803917999055,1.0,0.0
48.71125030517578,16.748275756835938,-2.174705266952514,-0.0,-0.0,-1.0,0.0165927323133052,1.0,0.0
48.6562385559082,17.02988052368164,-2.182244062423706,-0.0,-0.0,-1.0,0.0411587033860401,2.0,0.0
48.749046325683594,16.828113555908203,-2.187452554702759,-0.0,-0.0,-1.0,0.0699673188956133,2.0,0.0
48.613807678222656,17.386035919189453,-2.1980044841766357,-0.0,-0.0,-1.0,0.045582259881906,1.0,0.0
48.59767150878906,17.66109848022461,-2.2140376567840576,-0.0,-0.0,-1.0,0.1468644139221926,2.0,0.0
49.0482177734375,17.881790161132812,-2.3199117183685303,-0.8926835983217523,-0.2066361995140045,-0.4005215029654923,0.0229197873330805,3.0,0.0
49.19895935058594,18.052705764770508,-2.3624956607818604,-0.0,-0.0,-1.0,0.0227788070142733,1.0,0.0
47.94574737548828,17.4415340423584,-2.0682876110076904,-0.0,-0.0,-1.0,0.2515280106003406,2.0,0.0
49.95701599121094,16.100566864013672,-2.194687604904175,-0.0,-0.0,-1.0,0.0323539735740672,1.0,0.0
49.953948974609375,17.824634552001953,-2.319071054458618,-0.0,-0.0,-1.0,0.0355410392369428,2.0,0.0
50.03856658935547,18.1148624420166,-2.3592565059661865,-0.0,-0.0,-1.0,0.0262488696349306,1.0,0.0
49.56816864013672,16.307781219482422,-2.1299426555633545,-0.0,-0.0,-1.0,0.0504926493207148,1.0,0.0
49.12696838378906,16.62134552001953,-2.062390089035034,-0.0,-0.0,-1.0,0.1415274645187766,2.0,0.0
49.00325012207031,17.121673583984375,-2.073338270187378,-0.1740976550920965,0.4186239745863965,-0.8913158667907364,0.1280899796600904,3.0,0.0
49.09400177001953,16.929393768310547,-2.0776445865631104,0.9243733275653572,0.3607758280029021,-0.1239949725374757,0.13647539609472,4.0,0.0
48.96055603027344,17.275712966918945,-2.076158285140991,-0.0,-0.0,-1.0,0.1173862850220257,1.0,0.0
49.32184600830078,17.521129608154297,-2.16778826713562,-0.0,-0.0,-1.0,0.0594406015589053,1.0,0.0
49.393348693847656,17.641433715820312,-2.1914989948272705,-0.0,-0.0,-1.0,0.0429805506685354,1.0,0.0
48.90129089355469,15.855390548706056,-2.135321140289306,-0.1238125928897917,0.6071582801682486,-0.7848753179104573,0.0620528904924942,5.0,0.0
48.83465194702149,16.00457763671875,-2.131181240081787,-0.0,-0.0,-1.0,0.0385610573977715,2.0,0.0
49.014404296875,17.842205047607422,-2.319157600402832,-0.0,-0.0,-1.0,0.0186230979750483,1.0,0.0
49.045074462890625,17.920696258544922,-2.3329782485961914,-0.8926835983217523,-0.2066361995140045,-0.4005215029654923,0.0227552887935504,3.0,0.0
48.73467254638672,16.187211990356445,-2.1223301887512207,-0.2726293662212223,-0.8834365092787948,-0.381068448900079,0.0296402379442888,3.0,0.0
48.70272064208984,16.50347328186035,-2.1390652656555176,-0.0,-0.0,-1.0,0.0545101015998857,2.0,0.0
48.65362930297851,17.039329528808594,-2.1705989837646484,-0.0,-0.0,-1.0,0.0436588522301623,2.0,0.0
48.71762466430664,16.82566261291504,-2.1675119400024414,-0.0,-0.0,-1.0,0.0657339479459953,2.0,0.0
47.943458557128906,17.362884521484375,-2.0403542518615723,-0.0,-0.0,-1.0,0.2335865412322357,2.0,0.0
48.647483825683594,17.249073028564453,-2.186612606048584,-0.0,-0.0,-1.0,0.0855623327154464,2.0,0.0
48.611183166503906,17.639606475830078,-2.21207332611084,-0.0,-0.0,-1.0,0.1503749963481567,2.0,0.0
49.25933074951172,16.7381649017334,-1.976782202720642,-0.0,-0.0,-1.0,0.1139687286270423,2.0,0.0
49.13880157470703,16.98945426940918,-1.9713345766067505,-0.4701376907401556,-0.0333668668400051,-0.8819621329415426,0.2022384169155178,8.0,0.0
49.102447509765625,17.258684158325195,-1.9825690984725952,-0.0,-0.0,-1.0,0.077896595683109,1.0,0.0
47.86905670166016,16.011877059936523,-2.214200735092163,-0.0,-0.0,-1.0,0.0389075111088595,1.0,0.0
47.81175231933594,16.314729690551758,-2.2182748317718506,-0.0,-0.0,-1.0,0.0305326615825614,1.0,0.0
47.7728157043457,16.689472198486328,-2.230798721313477,-0.0,-0.0,-1.0,0.0153842659022513,1.0,0.0
47.7249755859375,17.089359283447266,-2.244319200515747,-0.0,-0.0,-1.0,0.0844364100921381,1.0,0.0
47.72584533691406,17.492835998535156,-2.2691824436187744,-0.0,-0.0,-1.0,0.2408685239094083,1.0,0.0
47.76861572265625,17.902454376220703,-2.3042821884155273,-0.0,-0.0,-1.0,0.0971906665431261,1.0,0.0
49.403324127197266,16.839576721191406,-1.8653061389923096,0.3128916765520985,0.1061993808552763,-0.9438328719907846,0.062181049280074,3.0,0.0
49.27078628540039,17.071149826049805,-1.85675311088562,0.5443899760882633,0.0512547351610627,-0.8372648959906233,0.0987738279190395,3.0,0.0
48.46664810180664,15.941641807556152,-2.175215721130371,-0.0,-0.0,-1.0,0.0161669621984159,1.0,0.0
48.39070510864258,16.2747802734375,-2.181942939758301,-0.0,-0.0,-1.0,0.0275755271014267,1.0,0.0
48.268348693847656,16.724834442138672,-2.1885552406311035,-0.0,-0.0,-1.0,0.0509182908388693,2.0,0.0
48.34735107421875,16.513267517089844,-2.189528703689575,-0.0,-0.0,-1.0,0.035357037888081,1.0,0.0
48.29893493652344,17.09744644165039,-2.222360610961914,-0.2120289907762938,-0.276047676702821,-0.9374654058989916,0.0665447516427931,4.0,0.0
48.32832336425781,17.079530715942383,-2.226942300796509,-0.0,-0.0,-1.0,0.0694768568935397,2.0,0.0
47.9886474609375,17.3689022064209,-2.180060625076294,-0.0,-0.0,-1.0,0.1631724331397714,1.0,0.0
48.35601806640625,17.526884078979492,-2.2673399448394775,-0.0,-0.0,-1.0,0.0505874098114776,1.0,0.0
48.27922058105469,17.90171241760254,-2.2822327613830566,-0.0,-0.0,-1.0,0.0147812646803348,2.0,0.0
48.3472785949707,17.90799331665039,-2.2964963912963867,-0.0,-0.0,-1.0,0.025268633896263,1.0,0.0
49.920501708984375,16.267759323120117,-2.153468132019043,-0.0,-0.0,-1.0,0.0543839761040818,2.0,0.0
50.10115432739258,17.66819953918457,-2.2916572093963623,-0.0,-0.0,-1.0,0.0414449658180563,1.0,0.0
50.031593322753906,17.85162353515625,-2.292797803878784,-0.0,-0.0,-1.0,0.0355410392369428,1.0,0.0
49.31110382080078,16.4716796875,-2.0474722385406494,-0.9207280670760892,0.3469695342586878,-0.178527221438743,0.097199525315117,3.0,0.0
49.170921325683594,16.709190368652344,-2.0366156101226807,-0.0,-0.0,-1.0,0.1097271403053556,1.0,0.0
48.99005889892578,17.230920791625977,-2.03945255279541,-0.0,-0.0,-1.0,0.1073272832632463,1.0,0.0
49.07691192626953,17.032737731933594,-2.041617631912231,-0.0,-0.0,-1.0,0.1414589805966341,2.0,0.0
49.3468017578125,17.494470596313477,-2.129887819290161,-0.0,-0.0,-1.0,0.0518677759992582,1.0,0.0
47.75836181640625,15.858575820922852,-2.1638927459716797,-0.0,-0.0,-1.0,0.0366249149963326,1.0,0.0
47.74534225463867,16.282146453857422,-2.1861770153045654,-0.0,-0.0,-1.0,0.0289361965352128,1.0,0.0
49.95343780517578,16.300840377807617,-2.1166257858276367,-0.0,-0.0,-1.0,0.0543839761040819,1.0,0.0
50.02851867675781,16.155393600463867,-2.123220205307007,-0.0,-0.0,-1.0,0.0344165201078479,1.0,0.0
49.19551086425781,16.723487854003906,-1.986393928527832,0.5622983073407624,0.8036656290260809,0.1947875003274783,0.1271941201381448,3.0,0.0
49.35747528076172,16.52671241760254,-2.00711441040039,-0.0,-0.0,-1.0,0.0831782874282788,1.0,0.0
49.13343048095703,17.02685546875,-1.9943182468414309,0.5822352144459145,0.3930075900493282,-0.711721286194771,0.1882827817446739,5.0,0.0
49.05364990234375,17.274024963378906,-1.9952619075775144,-0.0,-0.0,-1.0,0.0676697477159397,1.0,0.0
49.376068115234375,17.43575668334961,-2.074052572250366,-0.0,-0.0,-1.0,0.0762082721333175,1.0,0.0
50.13886642456055,17.577234268188477,-2.2428979873657227,-0.0,-0.0,-1.0,0.0415146737586627,1.0,0.0
49.381134033203125,15.90876579284668,-2.124337911605835,-0.0,-0.0,-1.0,0.0516585425074538,1.0,0.0
49.76862335205078,15.680307388305664,-2.2009048461914062,-0.0,-0.0,-1.0,0.0106032132960904,1.0,0.0
49.1534309387207,16.24234390258789,-2.092324733734131,-0.0,-0.0,-1.0,0.0155948281256226,2.0,0.0
49.040382385253906,16.608943939208984,-2.090689182281494,-0.0,-0.0,-1.0,0.0451921724060628,1.0,0.0
49.01801681518555,17.017337799072266,-2.1150407791137695,-0.0,-0.0,-1.0,0.0991075003659182,1.0,0.0
48.88969802856445,17.342336654663086,-2.1103131771087646,-0.0,-0.0,-1.0,0.0758939195610254,1.0,0.0
49.215816497802734,17.575305938720703,-2.2047669887542725,-0.0,-0.0,-1.0,0.047956157050941,1.0,0.0
49.33364486694336,17.7404842376709,-2.2458653450012207,-0.0,-0.0,-1.0,0.031621210236469,1.0,0.0
49.68860626220703,17.960037231445312,-2.3467864990234375,-0.0,-0.0,-1.0,0.0266824542920847,1.0,0.0
48.181129455566406,15.899169921875,-2.206167221069336,-0.0,-0.0,-1.0,0.0377543464576338,1.0,0.0
50.160438537597656,15.98752212524414,-2.2224783897399902,-0.0,-0.0,-1.0,0.0311929530869181,2.0,0.0
48.15774917602539,16.296560287475586,-2.2252941131591797,-0.0,-0.0,-1.0,0.0366678321286217,1.0,0.0
50.01113510131836,16.18009376525879,-2.1986145973205566,-0.0,-0.0,-1.0,0.0344165201078479,1.0,0.0
48.100868225097656,16.692188262939453,-2.23783016204834,-0.0,-0.0,-1.0,0.0426003367262611,2.0,0.0
48.100868225097656,17.108543395996094,-2.270899772644043,-0.0,-0.0,-1.0,0.0284421862176407,1.0,0.0
48.033260345458984,17.490856170654297,-2.285212516784668,-0.0,-0.0,-1.0,0.147124821690036,2.0,0.0
48.015357971191406,17.870012283325195,-2.3158516883850098,-0.0,-0.0,-1.0,0.0183791116367224,2.0,0.0
49.904754638671875,17.937837600708008,-2.3094849586486816,-0.0,-0.0,-1.0,0.0271753037220246,1.0,0.0
49.99592208862305,17.824085235595703,-2.321542739868164,-0.0,-0.0,-1.0,0.0355410392369428,2.0,0.0
49.654640197753906,16.369670867919922,-2.124556064605713,-0.0,-0.0,-1.0,0.052501534265311,1.0,0.0
49.23216247558594,16.70347023010254,-2.0454254150390625,-0.2596032048848632,-0.6003187848417401,-0.7564545806455564,0.0959930244093356,3.0,0.0
49.06928253173828,17.223567962646484,-2.0458154678344727,-0.0,-0.0,-1.0,0.0839965546608623,1.0,0.0
49.15846252441406,17.008155822753906,-2.0504722595214844,-0.0,-0.0,-1.0,0.0854871994605633,1.0,0.0
49.33877944946289,17.44000244140625,-2.129070281982422,-0.0,-0.0,-1.0,0.0620031277700277,1.0,0.0
49.64771270751953,17.608999252319336,-2.218339443206787,-0.0,-0.0,-1.0,0.0236284385171261,1.0,0.0
48.945350646972656,15.916004180908203,-2.123342514038086,-0.0,-0.0,-1.0,0.0653592921168473,1.0,0.0
49.13079833984375,15.6964111328125,-2.161902904510498,-0.0,-0.0,-1.0,0.0410826284869408,2.0,0.0
48.81755828857422,16.277938842773438,-2.112697124481201,-0.0,-0.0,-1.0,0.0853093076408586,2.0,0.0
48.794654846191406,16.675230026245117,-2.137665271759033,-0.0,-0.0,-1.0,0.0813877652086878,1.0,0.0
48.74026870727539,17.126018524169922,-2.1621217727661133,-0.0,-0.0,-1.0,0.0398767907658828,1.0,0.0
48.79427337646485,17.019424438476562,-2.167675256729126,-0.0,-0.0,-1.0,0.041807961869666,1.0,0.0
48.678016662597656,17.457008361816406,-2.176769733428955,-0.0,-0.0,-1.0,0.0533961773376964,2.0,0.0
48.66594696044922,17.671419143676758,-2.195425510406494,-0.0,-0.0,-1.0,0.0867528666393496,2.0,0.0
49.049896240234375,17.889911651611328,-2.327842712402344,-0.8926835983217523,-0.2066361995140045,-0.4005215029654923,0.021194950815021,3.0,0.0
49.432430267333984,16.83149528503418,-1.8565664291381836,-0.0,-0.0,-1.0,0.0612316806087554,2.0,0.0
49.322662353515625,17.0689754486084,-1.84993839263916,-0.0,-0.0,-1.0,0.0653541632700806,2.0,0.0
47.955909729003906,17.393505096435547,-1.9651739597320557,-0.0,-0.0,-1.0,0.2308514248451271,1.0,0.0
50.106937408447266,18.102794647216797,-2.143300771713257,0.9816461832183916,0.0436772954385906,-0.1856423034653864,0.0354941549536167,3.0,0.0
49.27079772949219,16.86139488220215,-1.89583420753479,-0.0,-0.0,-1.0,0.0764828876004974,1.0,0.0
49.18638229370117,17.1182804107666,-1.8944456577301023,-0.0,-0.0,-1.0,0.0900169897253572,2.0,0.0
49.37932586669922,16.824052810668945,-1.8750085830688477,-0.0,-0.0,-1.0,0.0588639354372986,2.0,0.0
49.25884246826172,17.10144805908203,-1.8626642227172852,-0.0,-0.0,-1.0,0.0748653747977169,2.0,0.0
49.14887619018555,17.260955810546875,-1.755311131477356,-0.0,-0.0,-1.0,0.1541053270669981,1.0,0.0
49.14461517333984,16.75132179260254,-2.0229930877685547,0.1925535298361563,-0.6758485614906896,-0.7114435044883053,0.11184409936191,5.0,0.0
49.052879333496094,17.063203811645508,-2.0373268127441406,-0.0,-0.0,-1.0,0.1441101862995661,2.0,0.0
49.12546920776367,16.89040756225586,-2.031661033630371,-0.0,-0.0,-1.0,0.1206417983064829,2.0,0.0
48.92559051513672,17.316551208496094,-2.0436220169067383,-0.0,-0.0,-1.0,0.078748809782161,2.0,0.0
49.07628631591797,15.857330322265623,-2.0975341796875,-0.0,-0.0,-1.0,0.0571217720777514,2.0,0.0
49.36082458496094,15.746318817138672,-2.1204023361206055,-0.0,-0.0,-1.0,0.0438206343603579,1.0,0.0
49.59086227416992,15.658441543579102,-2.1391611099243164,-0.0,-0.0,-1.0,0.0291992216300285,1.0,0.0
48.86249542236328,16.16267204284668,-2.101130485534668,-0.0,-0.0,-1.0,0.1274323368110539,1.0,0.0
48.721717834472656,16.533857345581055,-2.1200075149536133,-0.0,-0.0,-1.0,0.060809588978987,2.0,0.0
48.66796875,16.973445892333984,-2.1562771797180176,0.4746286677373543,-0.3108082688525582,-0.8234839693489728,0.0505798569332169,3.0,0.0
47.839805603027344,17.347423553466797,-2.098818778991699,-0.0,-0.0,-1.0,0.2187837449532957,2.0,0.0
48.572265625,17.35418701171875,-2.182840347290039,-0.0,-0.0,-1.0,0.0410133439419529,1.0,0.0
48.499412536621094,17.786924362182617,-2.218019962310791,-0.0,-0.0,-1.0,0.0570072846012449,2.0,0.0
48.67005920410156,15.934392929077148,-2.158306121826172,-0.0,-0.0,-1.0,0.023054002055792,1.0,0.0
48.77705383300781,15.747720718383787,-2.152878999710083,-0.0,-0.0,-1.0,0.0297484495651561,1.0,0.0
48.50274658203125,16.226465225219727,-2.1673336029052734,-0.0,-0.0,-1.0,0.0226150099205439,2.0,0.0
48.28200912475586,16.67533302307129,-2.18672251701355,-0.0,-0.0,-1.0,0.0496385356356903,2.0,0.0
48.22907257080078,17.088510513305664,-2.224102020263672,-0.5527419056669892,-0.8063392335354673,0.2104600346409274,0.0387154313222972,3.0,0.0
48.05394744873047,17.46467399597168,-2.2434241771698,-0.0,-0.0,-1.0,0.2058313758355113,2.0,0.0
48.181114196777344,17.510549545288086,-2.263986587524414,-0.0,-0.0,-1.0,0.0595793263278317,1.0,0.0
48.001182556152344,17.836408615112305,-2.2780184745788574,-0.9710671950317312,-0.089633442128028,-0.2213466710512883,0.0172424844740664,3.0,0.0
48.13795471191406,17.71094512939453,-2.2807164192199707,-0.0,-0.0,-1.0,0.0115189996347365,1.0,0.0
49.314247131347656,15.718255996704102,-2.210096836090088,-0.0,-0.0,-1.0,0.0338667080858584,1.0,0.0
49.4005241394043,15.66012954711914,-2.211371898651123,-0.0,-0.0,-1.0,0.0445171830084988,1.0,0.0
48.87309265136719,16.002696990966797,-2.202815532684326,-0.0,-0.0,-1.0,0.0776665811494494,1.0,0.0
49.12907409667969,15.793415069580078,-2.200085163116455,-0.0,-0.0,-1.0,0.0463772319110424,1.0,0.0
48.50535583496094,16.413753509521484,-2.2258172035217285,-0.0,-0.0,-1.0,0.0193647243045175,1.0,0.0
48.66729736328125,16.22273063659668,-2.2136921882629395,-0.0,-0.0,-1.0,0.029101527892023,1.0,0.0
48.24869537353515,16.851852416992188,-2.2686758041381836,-0.0,-0.0,-1.0,0.043307463241062,1.0,0.0
48.37947082519531,16.65229606628418,-2.2503180503845215,-0.0,-0.0,-1.0,0.0337735876176332,1.0,0.0
47.86693572998047,17.435522079467773,-2.326176643371582,-0.0,-0.0,-1.0,0.1681142911779924,1.0,0.0
48.152042388916016,17.17835807800293,-2.313009738922119,-0.0,-0.0,-1.0,0.028242853813217,1.0,0.0
47.74237823486328,17.593387603759766,-2.340473175048828,-0.0,-0.0,-1.0,0.1446624707781297,1.0,0.0
48.56060791015625,15.810956954956056,-2.194598913192749,-0.0,-0.0,-1.0,0.0203025638979951,2.0,0.0
48.30950546264648,16.30517578125,-2.202234983444214,-0.0,-0.0,-1.0,0.0288782459280386,2.0,0.0
48.423805236816406,16.106523513793945,-2.200826406478882,-0.0,-0.0,-1.0,0.0164536549867022,1.0,0.0
48.24354934692383,16.559356689453125,-2.2158000469207764,-0.0,-0.0,-1.0,0.0347185754844561,1.0,0.0
48.177520751953125,17.00992774963379,-2.2480201721191406,-0.0,-0.0,-1.0,0.0385645590193352,1.0,0.0
48.00048828125,17.461288452148438,-2.265894651412964,-0.0,-0.0,-1.0,0.149804878787789,2.0,0.0
48.138275146484375,17.314842224121094,-2.271204948425293,-0.0,-0.0,-1.0,0.0497594586575688,1.0,0.0
48.00746154785156,17.828882217407227,-2.3025171756744385,-0.945662326449519,-0.0283391246844288,-0.323913041333942,0.0172424844740664,4.0,0.0
48.946044921875,15.817663192749023,-2.145820140838623,-0.0138025490126436,0.5467828350468394,-0.8371606900344126,0.0841125762348651,3.0,0.0
48.69196319580078,16.230636596679688,-2.139615058898926,0.4084987365565475,-0.3390359903839621,-0.8474570074381768,0.0247199095604189,3.0,0.0
48.560035705566406,16.646366119384766,-2.152860641479492,-0.0,-0.0,-1.0,0.0260393136005701,2.0,0.0
48.502174377441406,17.12816047668457,-2.183422088623047,-0.0,-0.0,-1.0,0.1037735393975324,1.0,0.0
48.564353942871094,16.953948974609375,-2.1782169342041016,-0.400226956754276,-0.1949982398456261,-0.8954295447126586,0.033003849759043,3.0,0.0
48.023773193359375,17.44722557067871,-2.1407275199890137,-0.0,-0.0,-1.0,0.1919051271469983,1.0,0.0
48.47986602783203,17.39542007446289,-2.202390670776367,-0.0,-0.0,-1.0,0.0340091466096414,1.0,0.0
48.463436126708984,17.86287498474121,-2.2397265434265137,-0.0,-0.0,-1.0,0.0372928297524887,1.0,0.0
49.16685104370117,16.872007369995117,-1.941909909248352,-0.707967427199493,0.3184118512419381,-0.6303935397933679,0.1156935463846775,3.0,0.0
49.22534942626953,16.782085418701172,-1.9415241479873655,-0.0,-0.0,-1.0,0.0880715069818561,1.0,0.0
49.103267669677734,17.16082763671875,-1.960293889045715,-0.2846058825537726,-0.6762435551396281,-0.6794807913016415,0.1180019192149931,6.0,0.0
49.20562744140625,16.972017288208008,-1.907379388809204,0.3999334119036476,-0.5891119545608168,-0.7021398514802029,0.2175845107221177,3.0,0.0
49.1218147277832,17.343608856201172,-1.9308428764343264,-0.0,-0.0,-1.0,0.1128784471001398,2.0,0.0
49.1552619934082,17.20705223083496,-1.9224679470062256,-0.0,-0.0,-1.0,0.1134760154736849,2.0,0.0
49.27965545654297,16.036195755004883,-2.0994679927825928,-0.0,-0.0,-1.0,0.0522537494541427,1.0,0.0
49.479103088378906,15.946735382080078,-2.123404741287231,-0.0,-0.0,-1.0,0.0415541935753994,1.0,0.0
50.18689727783203,15.862467765808104,-2.2319462299346924,-0.0,-0.0,-1.0,0.0211454171073052,1.0,0.0
49.0218505859375,16.374860763549805,-2.0915684700012207,0.6701117332510238,0.1568926738720488,-0.7254894581209214,0.0446502378644219,3.0,0.0
49.10198974609375,16.171661376953125,-2.0839648246765137,0.5512594326528323,0.271386089351109,-0.7889630082697092,0.029722529491866,3.0,0.0
49.99300384521485,16.022296905517578,-2.215346097946167,-0.0,-0.0,-1.0,0.0311929530869182,1.0,0.0
48.94512176513672,16.6785831451416,-2.1107592582702637,-0.0,-0.0,-1.0,0.0490311902584991,2.0,0.0
48.864051818847656,17.085439682006836,-2.1411986351013184,-0.0,-0.0,-1.0,0.0436753814057614,1.0,0.0
48.720611572265625,17.50217056274414,-2.1643223762512207,0.0255033547741811,-0.0928628161895494,-0.9953522372831682,0.0538650626444334,4.0,0.0
48.79789733886719,17.33333969116211,-2.1577587127685547,-0.0,-0.0,-1.0,0.0637729573112522,2.0,0.0
49.3543701171875,17.995712280273438,-2.3200905323028564,-0.0,-0.0,-1.0,0.0196060682235967,1.0,0.0
47.94139099121094,17.42920684814453,-2.0330846309661865,0.9796110470756156,-0.1936746031629365,0.0534073453477599,0.2481898536226984,3.0,0.0
49.860008239746094,16.41773223876953,-2.1752216815948486,-0.0,-0.0,-1.0,0.0535372570584866,1.0,0.0
50.006710052490234,16.276832580566406,-2.1851015090942383,-0.0,-0.0,-1.0,0.0523121912119013,1.0,0.0
49.26858139038086,17.849191665649414,-2.237513303756714,-0.0,-0.0,-1.0,0.025803518135725,2.0,0.0
49.63323974609375,18.111974716186523,-2.327247142791748,-0.0,-0.0,-1.0,0.0255343338213382,1.0,0.0
49.16126251220703,16.547897338867188,-2.0727977752685547,-0.0,-0.0,-1.0,0.0904325842391308,2.0,0.0
49.336544036865234,16.460491180419922,-2.0924901962280273,-0.0,-0.0,-1.0,0.0801350698338792,2.0,0.0
49.74155044555664,16.501853942871094,-2.164316892623902,-0.0,-0.0,-1.0,0.0473418850278035,1.0,0.0
49.05437850952149,16.790760040283203,-2.0817983150482178,-0.0,-0.0,-1.0,0.0766680263751345,1.0,0.0
48.81819152832031,17.407833099365234,-2.113129138946533,-0.0,-0.0,-1.0,0.0495386791764381,2.0,0.0
48.94964599609375,17.17191505432129,-2.107407331466675,-0.7042202408700624,0.2142186551150347,-0.6768930640430716,0.1009503214880391,4.0,0.0
48.60660552978515,15.750167846679688,-2.151674747467041,-0.0,-0.0,-1.0,0.0191364592707163,1.0,0.0
48.52755355834961,16.04106330871582,-2.1679720878601074,-0.0,-0.0,-1.0,0.0162436823417431,1.0,0.0
48.31555938720703,16.594562530517578,-2.1899008750915527,-0.135043892526345,-0.2320280302327035,-0.9632892298150462,0.0347764529995913,3.0,0.0
48.39566421508789,16.39336395263672,-2.1819911003112793,-0.0,-0.0,-1.0,0.0249489077973665,2.0,0.0
48.22941589355469,16.85633659362793,-2.2046070098876953,-0.0,-0.0,-1.0,0.0475122455783034,1.0,0.0
47.97993087768555,17.42678451538086,-2.2281293869018555,-0.0,-0.0,-1.0,0.2198420243816402,1.0,0.0
48.17152404785156,17.260591506958008,-2.243168830871582,-0.0,-0.0,-1.0,0.0333018605533051,1.0,0.0
48.00559997558594,17.794029235839844,-2.2802367210388184,-0.9710671950317312,-0.089633442128028,-0.2213466710512883,0.0247897840220517,3.0,0.0
48.105201721191406,17.62814712524414,-2.2771849632263184,-0.0,-0.0,-1.0,0.0285762157993437,1.0,0.0
47.97411346435547,18.133544921875,-2.319279670715332,-0.0,-0.0,-1.0,0.0176876961785228,1.0,0.0
49.39026641845703,17.08354949951172,-1.851153016090393,-0.0,-0.0,-1.0,0.0675509549419868,1.0,0.0
49.16446685791016,16.09296989440918,-2.084106206893921,-0.2342511421978101,-0.4410539458218941,-0.8663704861397109,0.090856575945743,4.0,0.0
49.590576171875,15.99905014038086,-2.1535518169403076,-0.0,-0.0,-1.0,0.0147049549539485,1.0,0.0
49.96427917480469,15.930547714233398,-2.216794967651367,-0.0,-0.0,-1.0,0.0211454171073052,1.0,0.0
48.94817352294922,16.519968032836914,-2.097736120223999,-0.0,-0.0,-1.0,0.0324834393048898,1.0,0.0
49.05768966674805,16.335107803344727,-2.0945160388946533,-0.0,-0.0,-1.0,0.0813849143706994,2.0,0.0
48.93757247924805,16.753742218017578,-2.126473188400269,-0.0394880811840103,-0.4737488602532111,-0.8797742374343479,0.0561006360397351,3.0,0.0
47.935279846191406,17.398212432861328,-2.0333895683288574,-0.3988464126391162,0.0876210065149778,-0.9128220518492146,0.2961859507403737,3.0,0.0
48.81733703613281,17.173803329467773,-2.16097354888916,-0.1652058938993,0.5289067852361278,-0.8324449682424166,0.0735141218745505,3.0,0.0
48.67413711547851,17.55591583251953,-2.1881492137908936,-0.0,-0.0,-1.0,0.0558276331382068,2.0,0.0
49.15789031982422,18.086292266845703,-2.3502838611602783,-0.0,-0.0,-1.0,0.0221378874727238,1.0,0.0
49.31010055541992,15.91876983642578,-2.0927977561950684,-0.0,-0.0,-1.0,0.072785485107601,2.0,0.0
49.590301513671875,15.764076232910156,-2.1364002227783203,-0.0,-0.0,-1.0,0.025347792446258,2.0,0.0
49.03668594360352,16.35329818725586,-2.082528591156006,-0.7173564233016351,-0.6237091986173192,-0.3104619099149303,0.0475435515752273,3.0,0.0
49.14061737060547,16.097196578979492,-2.076052188873291,-0.3529952214035858,-0.5087465318608488,-0.7852205677297251,0.090856575945743,4.0,0.0
48.929962158203125,16.935041427612305,-2.1276779174804688,-0.0,-0.0,-1.0,0.0750359630986749,1.0,0.0
48.97477340698242,16.723758697509766,-2.111997127532959,-0.0,-0.0,-1.0,0.0511148635710767,2.0,0.0
48.83575820922851,17.20931053161621,-2.1420693397521973,-0.4664677902272003,0.5919414877748117,-0.657277015976898,0.0770311633821133,3.0,0.0
48.748870849609375,17.488645553588867,-2.159461498260498,0.4288629860792358,0.6839793784330209,-0.5901260450527324,0.0523152183597213,3.0,0.0
49.142940521240234,17.91510581970215,-2.291529655456543,-0.0,-0.0,-1.0,0.0239048820447907,1.0,0.0
48.41666793823242,15.826515197753906,-2.209407091140747,-0.0,-0.0,-1.0,0.0170865152778561,2.0,0.0
48.142112731933594,16.362520217895508,-2.2242321968078613,-0.0,-0.0,-1.0,0.0406916818943095,2.0,0.0
48.30855178833008,16.0048828125,-2.209855556488037,-0.0,-0.0,-1.0,0.015823582422449,1.0,0.0
49.139774322509766,17.10729217529297,-2.0140905380249023,0.9081252786827486,0.2135654155965947,0.3601364900679095,0.1248412304828332,3.0,0.0
49.29266357421875,16.754539489746094,-1.9992516040802,-0.0,-0.0,-1.0,0.0949227806215811,2.0,0.0
49.5423583984375,16.649118423461914,-2.034458637237549,-0.0,-0.0,-1.0,0.098245726730731,1.0,0.0
47.75886535644531,18.01279640197754,-2.2681236267089844,-0.0,-0.0,-1.0,0.0898803952530905,1.0,0.0
47.78555679321289,17.401233673095703,-2.225863456726074,-0.0,-0.0,-1.0,0.1994286320184665,1.0,0.0
47.96640396118164,17.156476974487305,-2.221705436706543,-0.0,-0.0,-1.0,0.0703060031258245,1.0,0.0
48.19557189941406,17.599212646484375,-2.2751998901367188,-0.0,-0.0,-1.0,0.0219834922547982,1.0,0.0
47.991798400878906,16.88062858581543,-2.136397361755371,-0.0,-0.0,-1.0,0.0306091779482061,1.0,0.0
48.227088928222656,17.405248641967773,-2.251603603363037,-0.0,-0.0,-1.0,0.0309916084868513,1.0,0.0
48.267478942871094,17.06622886657715,-2.208601474761963,0.0394165129036145,-0.9417493247635276,-0.333997826067714,0.0355723051384225,4.0,0.0
48.386688232421875,16.658967971801758,-2.169644832611084,-0.0,-0.0,-1.0,0.0389918147163324,2.0,0.0
48.5762939453125,16.32654571533203,-2.1546506881713867,-0.0,-0.0,-1.0,0.0271828416984804,1.0,0.0
48.89815139770508,16.590909957885742,-2.0673933029174805,-0.0,-0.0,-1.0,0.078940723736997,2.0,0.0
48.89202499389648,16.685169219970703,-2.079631090164185,0.3893763579494446,-0.6718511092861599,-0.6300810573418171,0.0900942146059735,3.0,0.0
49.068870544433594,16.426103591918945,-2.069540739059448,-0.0,-0.0,-1.0,0.0470889727364169,1.0,0.0
49.595367431640625,16.416290283203125,-2.146172285079956,-0.0,-0.0,-1.0,0.0562124283789356,1.0,0.0
49.802513122558594,16.326574325561523,-2.1652212142944336,-0.0,-0.0,-1.0,0.0459619873488095,1.0,0.0
49.95417785644531,15.955316543579102,-2.159513473510742,-0.0,-0.0,-1.0,0.0283572815848843,1.0,0.0
