x,y,z,nx,ny,nz,curvature,density,label
20.91152572631836,22.887939453125,-1.5832467079162598,-0.0,-0.0,-1.0,0.1639357618157048,2.0,0.0
21.042640686035156,21.108646392822266,-1.5079822540283203,-0.191865736583911,0.143204481236547,-0.9709171003123204,0.020277126682556,3.0,0.0
20.723064422607425,22.551177978515625,-1.5414187908172607,0.5209586760194622,-0.372231394964063,-0.7681444177257012,0.0661206768214082,4.0,0.0
22.447969436645508,21.017223358154297,-1.2285218238830566,-0.0,-0.0,-1.0,0.0934920301352907,2.0,0.0
22.563549041748047,21.20889663696289,-1.260723352432251,-0.0,-0.0,-1.0,0.1436190951536573,2.0,0.0
22.07107734680176,23.020851135253903,-1.430525541305542,0.2482196201082082,-0.4935223271801499,-0.8335602754258541,0.1065947033082919,6.0,0.0
22.27733039855957,20.94512367248535,-1.2378129959106443,-0.7592691563307015,-0.001769697145741,0.6507743206495453,0.1720038024700558,3.0,0.0
22.10354232788086,21.04486083984375,-1.2935173511505127,-0.0,-0.0,-1.0,0.1165366816764474,2.0,0.0
20.89618682861328,20.889663696289062,-1.4835565090179443,-0.7984279348821952,0.4138401666866319,-0.4373204194141107,0.0509481013914491,3.0,0.0
20.490577697753903,22.204662322998047,-1.5077927112579346,-0.0,-0.0,-1.0,0.039990340360057,2.0,0.0
20.571224212646484,22.4080867767334,-1.5372264385223389,-0.0,-0.0,-1.0,0.0450029390219468,1.0,0.0
20.369234085083008,22.78398704528809,-1.2571496963500977,-0.3496723200063252,0.885435684643836,-0.3061583201232586,0.1995543242693199,9.0,0.0
20.393712997436523,23.090669631958008,-1.309642314910889,-0.0,-0.0,-1.0,0.1899911795127555,2.0,0.0
20.63752555847168,20.69630241394043,-1.491004467010498,-0.0,-0.0,-1.0,0.0164169997046415,1.0,0.0
20.29404067993164,22.04114532470703,-1.5093839168548584,-0.0,-0.0,-1.0,0.1802290784275912,1.0,0.0
21.07623863220215,22.999542236328125,-1.42634379863739,0.5578122708717609,-0.8297869538700973,-0.0172939773295413,0.253161898857806,5.0,0.0
20.886613845825195,23.01112174987793,-1.4541701078414917,-0.0,-0.0,-1.0,0.1727699337935569,1.0,0.0
20.48806953430176,22.76987648010254,-1.4504095315933228,-0.0,-0.0,-1.0,0.1170178308238332,2.0,0.0
20.286876678466797,22.419891357421875,-1.39618980884552,-0.4857316822171797,-0.7592541997424933,-0.4331256088755952,0.0993301182458105,5.0,0.0
20.263832092285156,22.86669158935547,-1.1356712579727173,-0.0,-0.0,-1.0,0.1084472549605057,1.0,0.0
20.31726837158203,23.002046585083008,-1.1566849946975708,-0.8033009999280994,-0.4367049351156341,0.4049645702529609,0.1077758992959493,3.0,0.0
20.42867088317871,23.13260269165039,-1.4298709630966189,-0.0,-0.0,-1.0,0.1091829340681881,1.0,0.0
21.039859771728516,23.111637115478516,-1.3400522470474243,0.1721714639778215,0.9327067332699264,-0.3168834749630778,0.1299969867280224,4.0,0.0
20.424072265625,22.746826171875,-1.3317517042160034,0.167805370136901,0.9840855089363398,0.0584556999335581,0.2434624976766496,3.0,0.0
20.30401611328125,22.644824981689453,-1.324032187461853,-0.7359966784913423,-0.6733716367274978,-0.0698536190948044,0.2023882988546552,5.0,0.0
20.86000061035156,20.822484970092773,-1.4275436401367188,-0.0,-0.0,-1.0,0.069620271983302,2.0,0.0
21.914731979370117,21.214595794677734,-1.3654789924621582,0.9201833527795438,0.3189531320400383,-0.2270054995572736,0.0783237887700577,3.0,0.0
22.177623748779297,21.85468482971191,-1.4888596534729004,0.9652017478000244,-0.2605857155320172,-0.0219242081828508,0.087137012436394,3.0,0.0
22.170108795166016,21.692920684814453,-1.4720354080200195,-0.0,-0.0,-1.0,0.1273639402700422,2.0,0.0
22.031951904296875,21.142162322998047,-1.3880043029785156,0.2716595124361171,0.7999787563088475,-0.5350094380078924,0.1378490992508522,4.0,0.0
21.700424194335938,21.90976333618164,-1.5410367250442505,0.0597733027567216,-0.1592866771539537,-0.9854211824183634,0.1488638017721336,4.0,0.0
21.727352142333984,21.881065368652344,-1.5427626371383667,0.1349517000056642,0.1843943806478851,-0.9735433996751576,0.1428428856262191,4.0,0.0
20.44502639770508,21.13256072998047,-1.5052262544631958,0.9055867823999966,-0.2766181694823166,-0.3215508791072946,0.0369540776323082,4.0,0.0
20.599853515625,21.100759506225582,-1.5045582056045532,-0.0,-0.0,-1.0,0.0409050506660552,1.0,0.0
20.938581466674805,21.02926445007324,-1.5041135549545288,-0.0,-0.0,-1.0,0.0310381274518589,2.0,0.0
21.1901912689209,20.99497985839844,-1.5088878870010376,-0.0,-0.0,-1.0,0.0085508720511135,2.0,0.0
21.319181442260746,21.006694793701172,-1.5184990167617798,-0.0,-0.0,-1.0,0.0128187612656946,2.0,0.0
20.887035369873047,20.758609771728516,-1.439883828163147,-0.0,-0.0,-1.0,0.1274849865116525,2.0,0.0
20.923629760742188,20.84473419189453,-1.4612258672714231,-0.0,-0.0,-1.0,0.0772535643927975,1.0,0.0
20.332597732543945,22.781036376953125,-1.3588773012161257,-0.9974962263240708,-0.0453094506681132,0.0542985464758643,0.1033348208720204,3.0,0.0
20.45470809936523,23.062368392944336,-1.4180845022201538,-0.0,-0.0,-1.0,0.1120656552664969,1.0,0.0
20.962108612060547,22.98430633544922,-1.4281827211380005,0.161143504549971,-0.9385994285595444,-0.3050637370272815,0.181825161888932,3.0,0.0
22.600038528442383,23.042856216430664,-1.6814593076705933,-0.0,-0.0,-1.0,0.0516399712522144,1.0,0.0
22.41389274597168,20.887916564941406,-1.2628597021102903,-0.7005255547600948,0.6009771735381133,0.3848251343327277,0.1693551195997731,4.0,0.0
22.525131225585938,20.98014259338379,-1.2822717428207395,-0.0,-0.0,-1.0,0.0822393168800254,2.0,0.0
20.27703285217285,22.667652130126953,-1.3323878049850464,-0.4294436667607531,-0.7113082683900311,-0.5564338993978122,0.1557425080848818,3.0,0.0
20.85170555114746,23.022449493408203,-1.6141328811645508,-0.0,-0.0,-1.0,0.191339423432063,1.0,0.0
20.983325958251953,22.913341522216797,-1.6047422885894775,-0.0,-0.0,-1.0,0.1647508747918711,1.0,0.0
20.491010665893555,22.404735565185547,-1.5489578247070312,-0.0,-0.0,-1.0,0.0543335799875705,1.0,0.0
20.33845329284668,22.09185791015625,-1.5164391994476318,-0.7312862310866843,-0.5380872358761947,0.4191450522315024,0.1048073575406388,3.0,0.0
20.520111083984375,22.829328536987305,-1.454963445663452,-0.0,-0.0,-1.0,0.0919234410464154,2.0,0.0
20.69811630249023,22.774354934692383,-1.4495480060577393,-0.0,-0.0,-1.0,0.1163439326284564,1.0,0.0
21.85104751586914,22.9668025970459,-1.4648406505584717,-0.0,-0.0,-1.0,0.0947295381571824,1.0,0.0
21.697776794433594,20.932008743286133,-1.2825887203216553,-0.0,-0.0,-1.0,0.0663812337952793,1.0,0.0
22.21000862121582,20.839319229125977,-1.2735755443572998,-0.548424249416365,-0.2246744168450994,-0.8054515808336408,0.215839248662279,4.0,0.0
21.92917251586914,20.66629219055176,-1.2584073543548584,-0.0,-0.0,-1.0,0.1659307927748352,1.0,0.0
22.45861434936523,20.673534393310547,-1.4110124111175537,-0.0,-0.0,-1.0,0.1692535163195765,2.0,0.0
22.661890029907227,21.087236404418945,-1.4665155410766602,-0.0,-0.0,-1.0,0.0831241446309217,1.0,0.0
22.089588165283203,20.71822929382324,-1.4324369430541992,-0.0,-0.0,-1.0,0.0850733765046569,1.0,0.0
22.40766143798828,20.6972599029541,-1.4288506507873535,0.2502451952051699,0.4435914048816056,-0.8605835274927643,0.1151236187694874,3.0,0.0
21.00271987915039,22.924360275268555,-1.395069599151611,0.4382105938499882,0.7953348165677623,-0.418824551563975,0.2269120117497584,4.0,0.0
20.520544052124023,22.734243392944336,-1.3821487426757812,-0.0,-0.0,-1.0,0.2837459537068199,2.0,0.0
22.18728828430176,21.04951286315918,-1.213475227355957,-0.1630478404392802,0.357367211475852,-0.9196217036858472,0.0776777130433741,5.0,0.0
22.36780548095703,20.866117477416992,-1.195462703704834,-0.0,-0.0,-1.0,0.1619797031419702,1.0,0.0
22.441383361816406,20.997180938720703,-1.3125202655792236,-0.0,-0.0,-1.0,0.0773951778751275,1.0,0.0
22.216318130493164,20.872638702392575,-1.3067309856414795,0.1597748189517557,-0.5253406727144765,-0.8357566540691346,0.2416674559123274,5.0,0.0
21.02834701538086,22.969528198242188,-1.5587999820709229,0.6194672030117607,0.3332847867159741,-0.7107613068650218,0.2525803750844141,4.0,0.0
20.70802879333496,23.03602600097656,-1.5763285160064695,-0.0,-0.0,-1.0,0.1223243385759686,2.0,0.0
20.40768051147461,22.51575088500977,-1.5335285663604736,-0.0,-0.0,-1.0,0.0706767973892172,1.0,0.0
20.55952835083008,22.696590423583984,-1.5467607975006104,-0.0,-0.0,-1.0,0.0484071358576016,1.0,0.0
20.257875442504883,22.115402221679688,-1.4978930950164795,-0.0,-0.0,-1.0,0.0369033132395097,2.0,0.0
22.47417640686035,20.664947509765625,-1.5105297565460205,-0.0,-0.0,-1.0,0.1037204133669003,1.0,0.0
20.397594451904297,22.838422775268555,-1.3091354370117188,-0.0,-0.0,-1.0,0.1351999601923646,2.0,0.0
20.26079750061035,22.648866653442383,-1.2958436012268066,-0.6785139075063398,-0.4856921200085822,-0.551109827422853,0.1347515316772915,3.0,0.0
21.066484451293945,22.991682052612305,-1.4703993797302246,0.8973305861228705,0.2488287847754299,-0.3645299097132752,0.2222412687043324,4.0,0.0
20.592958450317383,22.808393478393555,-1.462838649749756,-0.0,-0.0,-1.0,0.0711324112571776,1.0,0.0
22.705968856811523,21.16389274597168,-1.460984706878662,-0.0,-0.0,-1.0,0.0830312629816117,1.0,0.0
21.90395164489746,21.01228141784668,-1.4700374603271484,0.9381757008536395,-0.0409316052670811,-0.3437309384068335,0.0602916526578364,3.0,0.0
21.676416397094727,21.1127986907959,-1.4932217597961426,-0.0,-0.0,-1.0,0.0260225557654181,2.0,0.0
21.14805793762207,21.174985885620117,-1.523684024810791,-0.2992234557255389,0.4538721882001292,-0.8393243475094078,0.0110288849186875,3.0,0.0
21.289644241333008,21.405332565307617,-1.5502548217773438,-0.0,-0.0,-1.0,0.0211618218881743,2.0,0.0
21.001079559326172,20.86513328552246,-1.4861750602722168,-0.0,-0.0,-1.0,0.0526835796946608,1.0,0.0
22.07437515258789,22.841768264770508,-1.655763864517212,-0.0,-0.0,-1.0,0.0794435111402894,1.0,0.0
21.720535278320312,23.00895881652832,-1.6911728382110596,-0.0,-0.0,-1.0,0.0499816801308556,1.0,0.0
22.36569595336914,20.792085647583008,-1.3536951541900637,-0.3315603722431227,0.8855442976902035,-0.3253905597683589,0.134627233682313,6.0,0.0
22.24571228027344,20.9334774017334,-1.377539873123169,-0.0,-0.0,-1.0,0.1197738612504951,2.0,0.0
21.754741668701172,21.79957389831543,-1.5167791843414309,-0.5207322842776453,0.3643618816142775,-0.7720610774656942,0.1484938503774721,4.0,0.0
21.436155319213867,22.71012306213379,-1.6578714847564695,-0.0,-0.0,-1.0,0.0495345635498988,1.0,0.0
21.95162582397461,21.11150550842285,-1.4119913578033447,-0.8296012502110123,0.1757119300731454,-0.5299878142733998,0.1106412218468518,5.0,0.0
20.332340240478516,22.76710319519043,-1.1715679168701172,-0.2647727182964742,0.8069488757575376,-0.5279478379153966,0.2087250305078014,3.0,0.0
20.215320587158203,22.781919479370117,-1.1795282363891602,-0.9253330818090582,-0.3315079460283348,-0.1840140468274775,0.1603333413405724,4.0,0.0
20.5406494140625,22.816150665283203,-1.1290321350097656,-0.0,-0.0,-1.0,0.1644311076096106,1.0,0.0
20.41134262084961,22.704544067382812,-1.1152915954589844,-0.0,-0.0,-1.0,0.2242301618510155,2.0,0.0
21.116788864135746,23.02569007873535,-1.4118139743804932,0.7326612042865981,-0.0540176167689863,0.6784465025423232,0.1853788633036459,4.0,0.0
20.505773544311523,22.73418235778809,-1.376596212387085,-0.0,-0.0,-1.0,0.2837759570537361,2.0,0.0
20.320899963378903,22.61937141418457,-1.362375020980835,-0.19680318230083,0.9077825555026504,-0.3704042917696056,0.1575976902817839,5.0,0.0
21.257946014404297,22.988052368164062,-1.3695123195648191,-0.0,-0.0,-1.0,0.2297660892742206,1.0,0.0
20.45292282104492,22.742517471313477,-1.3420355319976809,-0.0,-0.0,-1.0,0.2040717950554492,2.0,0.0
20.239107131958008,22.71156311035156,-1.340538740158081,-0.0,-0.0,-1.0,0.1315881405053582,2.0,0.0
20.48316192626953,22.79749298095703,-1.193329095840454,-0.5452061174028455,-0.4209568198664959,0.7249452705924783,0.2008747612166894,3.0,0.0
22.53118133544922,20.65962791442871,-1.4683423042297363,-0.0,-0.0,-1.0,0.1009496788540947,2.0,0.0
21.636775970458984,20.932653427124023,-1.5006647109985352,-0.0,-0.0,-1.0,0.0089551966906919,2.0,0.0
21.397010803222656,21.06295585632324,-1.520897388458252,-0.0,-0.0,-1.0,0.0136919708799206,2.0,0.0
20.76871681213379,21.035968780517575,-1.5084452629089355,-0.0,-0.0,-1.0,0.0291350381522357,2.0,0.0
20.544723510742188,21.07100486755371,-1.5129022598266602,-0.0,-0.0,-1.0,0.0387033485548428,2.0,0.0
20.397144317626953,21.045001983642575,-1.5069570541381836,-0.0,-0.0,-1.0,0.0237074334038347,2.0,0.0
22.388591766357425,20.78122329711914,-1.391862154006958,-0.3223827399968298,0.5937396924397167,-0.7372533801711093,0.144395422221035,4.0,0.0
22.04970932006836,21.001792907714844,-1.4246442317962646,-0.0,-0.0,-1.0,0.1352518062407022,1.0,0.0
21.767223358154297,21.64647674560547,-1.535857915878296,-0.0,-0.0,-1.0,0.0761187450546414,1.0,0.0
21.43603515625,22.01405334472656,-1.5981318950653076,-0.0,-0.0,-1.0,0.0349532032378191,2.0,0.0
21.056964874267575,22.075138092041016,-1.60538649559021,-0.0,-0.0,-1.0,0.0125536014498705,1.0,0.0
20.633384704589844,21.94175720214844,-1.5778968334197998,-0.0,-0.0,-1.0,0.0232717818636798,1.0,0.0
20.28603744506836,21.88347625732422,-1.5654780864715576,-0.0,-0.0,-1.0,0.0585116680192635,1.0,0.0
21.578516006469727,21.46124267578125,-1.529888153076172,-0.0,-0.0,-1.0,0.0395646501564148,1.0,0.0
21.249324798583984,21.69819068908691,-1.5652284622192385,-0.0,-0.0,-1.0,0.0209653172433855,1.0,0.0
21.041860580444336,21.637168884277344,-1.550455093383789,-0.5519520632760915,0.4310702711237008,-0.7138118387912913,0.0171478259366793,3.0,0.0
20.776844024658203,21.795249938964844,-1.57435941696167,-0.0,-0.0,-1.0,0.0130915638015122,1.0,0.0
20.508544921875,21.81391143798828,-1.5737271308898926,-0.0,-0.0,-1.0,0.0253670986047483,2.0,0.0
22.44393539428711,20.761674880981445,-1.429485321044922,-0.0,-0.0,-1.0,0.121239358206231,2.0,0.0
21.907920837402344,21.024932861328125,-1.460710525512695,0.9381757008536395,-0.0409316052670811,-0.3437309384068335,0.0602916526578364,3.0,0.0
21.694671630859375,21.164487838745117,-1.4800338745117188,-0.0,-0.0,-1.0,0.0287336333728565,1.0,0.0
21.081329345703125,23.04014778137207,-1.300757884979248,0.820888397667883,-0.2683634802620037,-0.5041064183641389,0.1756163191640345,3.0,0.0
20.397994995117188,22.683183670043945,-1.2296628952026367,-0.0,-0.0,-1.0,0.2345497262596115,2.0,0.0
22.44463348388672,22.499027252197266,-1.6357131004333496,-0.0,-0.0,-1.0,0.0364698096626576,1.0,0.0
22.020397186279297,22.482234954833984,-1.6155433654785156,-0.0,-0.0,-1.0,0.052867222959518,1.0,0.0
22.288997650146484,20.807640075683594,-1.34656023979187,-0.7381897604217478,0.4754017736290292,0.4786115661356873,0.2012924823590518,3.0,0.0
22.126720428466797,21.013145446777344,-1.3732507228851318,-0.0,-0.0,-1.0,0.1195025239699661,2.0,0.0
21.61582946777344,22.61081886291504,-1.62205171585083,-0.0,-0.0,-1.0,0.0557337089598055,1.0,0.0
22.019439697265625,21.068675994873047,-1.3777499198913574,0.7027399571118033,0.7046606428999851,-0.0980302556677281,0.1326057606596474,4.0,0.0
21.721914291381836,21.846771240234375,-1.4962143898010254,0.0365295780162788,0.1764154623720329,-0.983637725265768,0.209372771577061,3.0,0.0
21.551292419433594,21.96929359436035,-1.5103678703308103,-0.0,-0.0,-1.0,0.1459338005277022,1.0,0.0
21.39294052124023,22.62744903564453,-1.6169304847717283,-0.0,-0.0,-1.0,0.0501287536447996,1.0,0.0
21.173503875732425,22.644081115722656,-1.612302303314209,-0.0,-0.0,-1.0,0.0851250853855405,2.0,0.0
20.781652450561523,22.357139587402344,-1.5500941276550293,-0.0,-0.0,-1.0,0.060388655462401,2.0,0.0
20.533580780029297,22.190200805664062,-1.5135560035705566,-0.0,-0.0,-1.0,0.0425460241381499,2.0,0.0
20.245695114135746,22.128599166870117,-1.494412899017334,-0.1456998574721962,0.1243529714542529,-0.9814824960349924,0.0391413869009767,3.0,0.0
21.03794860839844,23.07394027709961,-1.2901580333709717,-0.1974411619981358,0.6645572684874268,-0.7206806674591432,0.1610076588885734,4.0,0.0
20.46396827697754,22.77129173278809,-1.2229783535003662,-0.0,-0.0,-1.0,0.2278876194261256,2.0,0.0
22.565166473388672,20.736846923828125,-1.4403979778289795,-0.0,-0.0,-1.0,0.1025073711240275,1.0,0.0
22.099525451660156,20.852764129638672,-1.4285035133361816,-0.5412588656596551,-0.8336607424111867,0.1097661464535056,0.1267859702673927,3.0,0.0
21.84343147277832,21.16246795654297,-1.4656100273132324,0.8987833101821229,0.3986538042066292,-0.1823834031090786,0.0977244836878135,3.0,0.0
21.771087646484375,21.562929153442383,-1.5311837196350098,-0.0,-0.0,-1.0,0.0719504459632155,2.0,0.0
21.542152404785156,21.871225357055664,-1.5717730522155762,-0.0,-0.0,-1.0,0.1069536482826996,1.0,0.0
21.24044418334961,22.13201141357422,-1.6008429527282717,-0.0,-0.0,-1.0,0.0259348170060392,1.0,0.0
20.69253158569336,22.089824676513672,-1.563551425933838,-0.0,-0.0,-1.0,0.0607221908106439,2.0,0.0
20.38424301147461,21.982872009277344,-1.5283260345458984,-0.0,-0.0,-1.0,0.0783124689201849,2.0,0.0
21.675312042236328,20.677261352539062,-1.5289716720581057,-0.0,-0.0,-1.0,0.0241786609242084,1.0,0.0
21.44346809387207,20.78864288330078,-1.5293211936950684,-0.0,-0.0,-1.0,0.017038037337332,1.0,0.0
21.293479919433594,20.898889541625977,-1.5366888046264648,-0.0,-0.0,-1.0,0.0168926910604373,2.0,0.0
21.092041015625,20.70743179321289,-1.4859123229980469,-0.7701298733552158,-0.3167162226209987,-0.5537064316897226,0.1121597267754231,4.0,0.0
20.85079574584961,20.92068862915039,-1.5052862167358398,-0.0,-0.0,-1.0,0.0404530641151144,1.0,0.0
20.650121688842773,21.091323852539062,-1.520735263824463,-0.0,-0.0,-1.0,0.0255834073414017,2.0,0.0
20.33428001403809,21.259788513183594,-1.527994155883789,-0.0,-0.0,-1.0,0.0235455113474211,1.0,0.0
20.238391876220703,21.38445281982422,-1.5440568923950195,-0.0,-0.0,-1.0,0.0245391720694214,1.0,0.0
21.590539932250977,20.981460571289062,-1.508741855621338,-0.0,-0.0,-1.0,0.0109599373141938,2.0,0.0
21.132081985473633,21.25004768371582,-1.5325040817260742,-0.0,-0.0,-1.0,0.0136700140553667,1.0,0.0
20.918569564819336,21.473180770874023,-1.5637059211730957,-0.0,-0.0,-1.0,0.0151191927761732,1.0,0.0
20.64636993408203,21.596500396728516,-1.572826862335205,-0.0,-0.0,-1.0,0.0151707275442363,1.0,0.0
20.36597442626953,21.665903091430664,-1.571561336517334,-0.0,-0.0,-1.0,0.02521683202299,1.0,0.0
21.036392211914062,20.654367446899418,-1.4105305671691897,-0.0,-0.0,-1.0,0.1492365078975313,2.0,0.0
20.997344970703125,21.11535263061523,-1.498042106628418,-0.0881770211891238,0.5919228244403689,-0.8011567779409655,0.0203055492850561,3.0,0.0
20.272869110107425,21.628528594970703,-1.5591840744018557,-0.0,-0.0,-1.0,0.0240620105308963,1.0,0.0
21.162118911743164,23.08564186096191,-1.3658030033111572,0.201502187913362,-0.772863233162475,-0.6017302477786654,0.2471120905117808,3.0,0.0
20.361270904541016,22.75899124145508,-1.2670352458953855,-0.2804554836249754,0.2564626392144122,-0.9249711543566425,0.1835097513548772,7.0,0.0
21.001129150390625,23.122802734375,-1.3495304584503174,0.3200383522352638,0.9207679006749384,-0.223073813311209,0.1006570307610293,3.0,0.0
20.292301177978516,22.74885368347168,-1.244148015975952,-0.329952319926002,-0.1306979509304528,-0.9349061515457208,0.0932468745726557,6.0,0.0
22.18371963500977,22.98229598999023,-1.4620811939239502,-0.5898606420050274,-0.1608057893811567,-0.7913317389786158,0.1042086152495807,3.0,0.0
21.99858856201172,23.088712692260746,-1.4662322998046875,0.7722178669699727,0.2778596059961854,-0.5713786881639797,0.1100454199649481,4.0,0.0
21.09142684936523,23.053842544555664,-1.3877367973327637,0.7846628993540133,0.6093395169168763,0.1140591403652577,0.1933739622049089,3.0,0.0
20.22640037536621,22.71748161315918,-1.2595503330230713,-0.9289687127100534,0.1273138795258421,-0.3475748939234614,0.1060695840922799,7.0,0.0
21.379615783691406,20.76243782043457,-1.5279333591461182,-0.0,-0.0,-1.0,0.0151027267645562,1.0,0.0
21.06905746459961,20.83091735839844,-1.4921236038208008,-0.0,-0.0,-1.0,0.0314481687959688,1.0,0.0
20.88003158569336,21.213220596313477,-1.529649019241333,-0.0,-0.0,-1.0,0.0240228085789632,1.0,0.0
20.83162498474121,21.39476776123047,-1.5542519092559814,-0.0,-0.0,-1.0,0.0236229586954599,1.0,0.0
20.69034767150879,21.32110023498535,-1.5209176540374756,-0.0,-0.0,-1.0,0.0305948280293207,1.0,0.0
20.59037208557129,21.589017868041992,-1.5542490482330322,-0.0,-0.0,-1.0,0.0244192385780236,1.0,0.0
20.400541305541992,21.791336059570312,-1.5640137195587158,-0.0,-0.0,-1.0,0.0388231953965984,1.0,0.0
22.695358276367188,22.278053283691406,-1.654767990112305,-0.0,-0.0,-1.0,0.0267951426822331,1.0,0.0
22.5078125,22.383499145507812,-1.650926113128662,-0.0,-0.0,-1.0,0.0354041805032099,1.0,0.0
22.41299819946289,20.838367462158203,-1.3556127548217771,-0.5514488793537052,0.5144064422684439,0.6567268424636418,0.0948002911311645,7.0,0.0
22.209646224975582,21.724510192871097,-1.4903082847595217,-0.0,-0.0,-1.0,0.0945400922631839,1.0,0.0
22.465591430664062,22.24906539916992,-1.6204214096069336,-0.0,-0.0,-1.0,0.0326756053480953,1.0,0.0
22.181873321533203,22.51641082763672,-1.6358771324157717,0.1196002669481499,0.5428274170961028,-0.8312846512445088,0.0381382391160438,3.0,0.0
22.237884521484375,20.802209854125977,-1.3257780075073242,-0.0,-0.0,-1.0,0.2635406702430832,1.0,0.0
22.11196517944336,20.98114013671875,-1.341437816619873,-0.9545076880887944,0.2642239460860805,0.1382055704162646,0.1510954156123246,4.0,0.0
22.209545135498047,21.50848960876465,-1.450364589691162,0.7181648526953447,-0.3366653469191128,-0.6090120594347107,0.1323396773416657,4.0,0.0
21.99376678466797,21.77936553955078,-1.4736952781677246,-0.0,-0.0,-1.0,0.1814343986389946,1.0,0.0
21.77544593811035,22.010494232177734,-1.4898457527160645,-0.0,-0.0,-1.0,0.215546292939302,1.0,0.0
21.94761657714844,22.60934829711914,-1.6253914833068848,-0.0,-0.0,-1.0,0.0552768251167766,1.0,0.0
21.781957626342773,22.769895553588867,-1.6367769241333008,-0.0,-0.0,-1.0,0.0573094090602501,2.0,0.0
21.659046173095703,21.80801010131836,-1.4372191429138184,-0.0,-0.0,-1.0,0.1908256310551687,2.0,0.0
21.39115524291992,22.84182929992676,-1.6055059432983398,-0.0,-0.0,-1.0,0.0717340434536271,1.0,0.0
21.02337646484375,22.94322204589844,-1.583953857421875,0.6258568483071845,0.4739944923518464,-0.6193806799110813,0.2234296985110246,3.0,0.0
20.24914169311523,22.472692489624023,-1.403801441192627,-0.0626052567636249,-0.8806891085773003,-0.4695394295039348,0.093775918687631,4.0,0.0
22.661855697631836,22.455230712890625,-1.672727108001709,0.8178628896639667,-0.2574978795601131,-0.5145824868109599,0.0342281254632635,3.0,0.0
22.438146591186523,20.842025756835938,-1.3449819087982178,-0.6040994209425465,0.7767245269778821,-0.1782214880643338,0.1046285647137811,4.0,0.0
22.24138641357422,21.50847053527832,-1.4386422634124756,0.2497449123916821,-0.1963200633656035,-0.9482014086968004,0.1228434229523827,4.0,0.0
22.267812728881836,22.526458740234375,-1.6342954635620115,-0.0,-0.0,-1.0,0.0345628549753876,1.0,0.0
22.08074951171875,22.627342224121097,-1.6293883323669434,-0.0,-0.0,-1.0,0.0539142752629599,1.0,0.0
22.16025161743164,21.320602416992188,-1.3928020000457764,-0.0,-0.0,-1.0,0.1393359746749012,1.0,0.0
22.02178955078125,21.621227264404297,-1.4297749996185305,-0.0,-0.0,-1.0,0.1653546483906607,2.0,0.0
21.81974220275879,21.910720825195312,-1.4574594497680664,-0.0,-0.0,-1.0,0.2201578882182123,1.0,0.0
21.87397575378418,22.783279418945312,-1.633425235748291,-0.0,-0.0,-1.0,0.1108437407046462,1.0,0.0
21.58312225341797,21.866628646850582,-1.4178636074066162,-0.0,-0.0,-1.0,0.2561057396983419,1.0,0.0
21.476770401000977,22.79251480102539,-1.585310459136963,-0.0,-0.0,-1.0,0.0620395202587243,2.0,0.0
21.433855056762695,23.064990997314453,-1.6344900131225586,-0.0,-0.0,-1.0,0.0411542363370185,1.0,0.0
21.01055145263672,22.982820510864254,-1.5666093826293943,0.6194672030117607,0.3332847867159741,-0.7107613068650218,0.2183369787398676,4.0,0.0
22.313709259033203,20.705257415771484,-1.302891731262207,-0.0,-0.0,-1.0,0.2068941684088769,1.0,0.0
22.181318283081055,20.90421485900879,-1.319810390472412,0.0722680958854857,-0.8660445332162472,-0.4947162710113132,0.1732407628662031,6.0,0.0
22.047771453857425,21.067777633666992,-1.3308608531951904,-0.0806662121013567,0.3300481116018456,-0.9405111409511716,0.1548750164911174,8.0,0.0
20.21027946472168,22.61046981811523,-1.3956971168518066,-0.0,-0.0,-1.0,0.1051162523032349,1.0,0.0
22.099666595458984,21.600799560546875,-1.599111557006836,-0.0,-0.0,-1.0,0.1341270539844187,1.0,0.0
22.02107810974121,21.61546516418457,-1.5889382362365725,-0.0,-0.0,-1.0,0.1194858619228717,1.0,0.0
21.96620178222656,20.91274642944336,-1.4543967247009275,-0.0,-0.0,-1.0,0.0422257094462302,1.0,0.0
21.82575225830078,21.195274353027344,-1.4810247421264648,0.647076456278511,0.3025544721069239,-0.699823442832651,0.073954730085613,5.0,0.0
21.72488594055176,21.681699752807617,-1.5532355308532717,-0.0,-0.0,-1.0,0.0680386754045878,2.0,0.0
21.545333862304688,22.03267478942871,-1.5903992652893066,-0.0,-0.0,-1.0,0.0547479071111007,1.0,0.0
21.43645477294922,22.28650665283203,-1.6219120025634766,-0.0,-0.0,-1.0,0.0900509932601667,1.0,0.0
21.17029190063477,22.406667709350582,-1.6046271324157717,-0.0,-0.0,-1.0,0.0362074834159806,1.0,0.0
20.823495864868164,22.406261444091797,-1.5523638725280762,-0.0,-0.0,-1.0,0.0611268715469694,1.0,0.0
20.77698135375977,22.48255920410156,-1.5606379508972168,-0.0,-0.0,-1.0,0.0560177336499643,2.0,0.0
20.380844116210938,22.27004051208496,-1.459697723388672,0.2542464363019858,-0.8555291526997341,-0.451030618149827,0.0572718516263799,3.0,0.0
22.51559066772461,20.684154510498047,-1.4604542255401611,-0.0,-0.0,-1.0,0.1009496788540947,2.0,0.0
22.19746971130371,21.63131523132324,-1.541262149810791,-0.0,-0.0,-1.0,0.1108837302114514,1.0,0.0
22.091041564941406,22.01379776000977,-1.5819039344787598,-0.0,-0.0,-1.0,0.055066925692683,1.0,0.0
21.995222091674805,22.427913665771484,-1.631732940673828,-0.0,-0.0,-1.0,0.0417031653208102,1.0,0.0
21.75795555114746,22.67562484741211,-1.631742000579834,-0.0,-0.0,-1.0,0.0433431114553669,1.0,0.0
21.445425033569336,23.004566192626953,-1.6349496841430664,-0.0,-0.0,-1.0,0.0440401544121189,1.0,0.0
22.20171165466309,20.750267028808594,-1.4109039306640625,-0.5516050524013296,-0.5158468092458275,-0.6554646714783527,0.1063270590910385,3.0,0.0
22.001548767089844,21.01313591003418,-1.4121127128601074,-0.0,-0.0,-1.0,0.1056689414758223,2.0,0.0
21.524696350097656,22.72423934936523,-1.6002159118652344,-0.0,-0.0,-1.0,0.0457844759939424,2.0,0.0
21.209566116333008,22.91640281677246,-1.5806217193603516,-0.0,-0.0,-1.0,0.0952611567446397,1.0,0.0
20.24767303466797,22.651927947998047,-1.37628173828125,-0.0,-0.0,-1.0,0.1359393921751254,1.0,0.0
20.26185417175293,22.552528381347656,-1.3608427047729492,-0.0,-0.0,-1.0,0.0978544844163967,2.0,0.0
21.307783126831055,22.137624740600582,-1.5890843868255615,-0.0,-0.0,-1.0,0.0301313110202061,2.0,0.0
21.237098693847656,22.37358856201172,-1.6097185611724854,-0.911631393497894,0.0475493723908939,-0.4082490166238247,0.040728394394616,3.0,0.0
21.009052276611328,22.57010269165039,-1.594726800918579,-0.0,-0.0,-1.0,0.0941226764906453,1.0,0.0
21.467784881591797,21.282691955566406,-1.5024621486663818,-0.0,-0.0,-1.0,0.0137016652108558,1.0,0.0
21.47216033935547,21.553661346435547,-1.5400383472442627,0.6572366652422872,0.0399707993616394,-0.7526236118137599,0.0537801805585883,3.0,0.0
21.3748836517334,21.93711853027344,-1.5738089084625244,-0.0,-0.0,-1.0,0.0292134131020188,1.0,0.0
20.736745834350582,22.58391571044922,-1.5445940494537354,-0.8385007237016421,0.3067361332469266,-0.4503659411107219,0.0605632689694247,3.0,0.0
21.73142433166504,20.77822494506836,-1.4917352199554443,-0.0,-0.0,-1.0,0.0683341451185008,2.0,0.0
21.54377555847168,21.063297271728516,-1.4891841411590576,-0.0,-0.0,-1.0,0.0153804312348378,2.0,0.0
21.4315185546875,21.196720123291016,-1.483605146408081,-0.0,-0.0,-1.0,0.0116754327594674,2.0,0.0
20.336225509643555,22.357221603393555,-1.4333961009979248,-0.0,-0.0,-1.0,0.0709139352612943,1.0,0.0
22.463804244995117,21.297100067138672,-1.2193198204040527,-0.0,-0.0,-1.0,0.0680536874144547,2.0,0.0
20.711101531982425,21.761653900146484,-1.5518584251403809,-0.0,-0.0,-1.0,0.0206269415112834,1.0,0.0
20.4790096282959,22.018150329589844,-1.5378785133361816,-0.0,-0.0,-1.0,0.0666008964951294,1.0,0.0
20.830154418945312,20.959426879882812,-1.4753961563110352,-0.0,-0.0,-1.0,0.0242834311202434,1.0,0.0
20.82514762878418,21.276046752929688,-1.5135741233825684,-0.0,-0.0,-1.0,0.0248569414616227,1.0,0.0
20.769439697265625,21.564220428466797,-1.5382661819458008,-0.0,-0.0,-1.0,0.0152946931622273,1.0,0.0
20.920305252075195,20.785057067871097,-1.474146842956543,-0.90986478735899,-0.0078945827746657,0.4148297774834806,0.0868377265384775,3.0,0.0
22.470170974731445,23.026668548583984,-1.642371416091919,-0.0,-0.0,-1.0,0.053692961882846,1.0,0.0
22.292335510253903,22.843311309814453,-1.585630178451538,-0.9113835872415064,-0.3977835073485528,0.1055852176598947,0.0649415079256575,3.0,0.0
21.94804573059082,23.09405517578125,-1.5542185306549072,-0.0,-0.0,-1.0,0.12337960406472,1.0,0.0
22.45688819885254,20.94305419921875,-1.3933570384979248,-0.0,-0.0,-1.0,0.1098322942181172,2.0,0.0
22.014942169189453,21.343950271606445,-1.3512201309204102,-0.0,-0.0,-1.0,0.0958295240019267,1.0,0.0
22.156091690063477,21.611854553222656,-1.4093446731567385,-0.5140978922361527,0.142378683939946,-0.8458319381282989,0.1701081679309799,3.0,0.0
21.875442504882812,21.82036590576172,-1.3799288272857666,0.8332138542454139,0.3207523272218643,-0.4504138293561378,0.1658555708027756,3.0,0.0
21.025775909423828,23.105274200439453,-1.386521816253662,0.8771807025254543,0.4800328691811931,-0.0110661475962503,0.1360144509625093,6.0,0.0
22.123422622680664,20.965526580810547,-1.330244064331055,-0.0,-0.0,-1.0,0.1635150670142973,2.0,0.0
22.043487548828125,21.09674072265625,-1.3290297985076904,0.3768499249251085,0.5211106018215287,-0.7657857890775619,0.166970499098959,6.0,0.0
21.929019927978516,21.20648193359375,-1.3189620971679688,-0.0,-0.0,-1.0,0.1158837777225844,2.0,0.0
22.30185890197754,22.98222923278809,-1.4873778820037842,-0.0,-0.0,-1.0,0.0941463108663585,1.0,0.0
22.0625,23.061939239501953,-1.4522044658660889,0.1261403181528918,-0.3357764050617532,-0.9334574580237134,0.1370438162543232,6.0,0.0
22.172548294067383,21.344552993774418,-1.2772886753082275,-0.0,-0.0,-1.0,0.0763166210999674,1.0,0.0
22.20794105529785,20.959712982177734,-1.245910882949829,-0.4341631047166815,-0.8851193575506097,-0.1675294642502268,0.0944886332465013,3.0,0.0
22.12634658813477,21.19979476928711,-1.253429889678955,-0.0,-0.0,-1.0,0.0727340078803139,2.0,0.0
22.46073341369629,22.705646514892575,-1.572380542755127,-0.0,-0.0,-1.0,0.0405088251037416,1.0,0.0
22.60713768005371,23.025991439819336,-1.6345295906066897,-0.4108493218164442,-0.8335399723157136,0.369342590713402,0.0509311868668093,3.0,0.0
22.24959373474121,22.95491600036621,-1.5536527633666992,-0.0,-0.0,-1.0,0.0674909484450944,2.0,0.0
22.006765365600582,23.029760360717773,-1.5115318298339844,-0.0,-0.0,-1.0,0.0804743616607637,1.0,0.0
22.61353302001953,20.71416473388672,-1.437187671661377,-0.0,-0.0,-1.0,0.1201899482088948,1.0,0.0
22.409690856933594,20.758413314819336,-1.3963077068328855,-0.6064759921027202,-0.4307336778138728,-0.6683228035911659,0.1712421910026766,3.0,0.0
22.176288604736328,21.411022186279297,-1.396267652511597,-0.0,-0.0,-1.0,0.1357378645389846,2.0,0.0
22.139497756958008,21.588441848754883,-1.4031999111175537,-0.5140978922361527,0.142378683939946,-0.8458319381282989,0.1706930084303877,3.0,0.0
22.143524169921875,20.906982421875,-1.34989333152771,-0.5971848076484808,0.1639607422308345,0.7851669762037631,0.200845896881114,4.0,0.0
22.03232192993164,21.154191970825195,-1.345036268234253,-0.3532653655919417,0.8194445105205043,-0.4513471786230672,0.1796637852981364,5.0,0.0
21.929601669311523,21.744001388549805,-1.3721070289611816,-0.0,-0.0,-1.0,0.1375162054599694,1.0,0.0
21.126142501831055,22.958515167236328,-1.3241381645202637,0.3820663982134823,-0.921327695341672,-0.0719760040053603,0.2514827139235563,5.0,0.0
20.361284255981445,22.820266723632812,-1.1538329124450684,-0.614807736640688,0.7800425228452973,0.1163834589617379,0.2750339419379408,3.0,0.0
20.355619430541992,22.95986557006836,-1.1683008670806885,-0.630187969375099,-0.5549187389244913,-0.5430730304897691,0.077795907027609,4.0,0.0
20.992630004882812,21.53936004638672,-1.528074026107788,-0.0,-0.0,-1.0,0.0179640964652573,1.0,0.0
21.08113670349121,21.93985366821289,-1.576477289199829,-0.0,-0.0,-1.0,0.0075810151427983,1.0,0.0
21.00606918334961,22.280271530151367,-1.583782434463501,-0.0,-0.0,-1.0,0.026572785521352,1.0,0.0
21.031394958496097,20.688331604003903,-1.487560510635376,-0.0,-0.0,-1.0,0.1492365078975312,2.0,0.0
20.935890197753903,21.036865234375,-1.4836981296539309,-0.865214194491029,-0.4963857342567097,0.070750268392895,0.0300126430872836,3.0,0.0
20.926464080810547,21.294647216796875,-1.4966833591461182,-0.9122752811939236,0.1760622967657164,0.3698051905802952,0.0257501724658205,3.0,0.0
20.214859008789062,22.45775604248047,-1.411522388458252,-0.0,-0.0,-1.0,0.0943587508784819,2.0,0.0
22.368408203125,21.33133888244629,-1.2312953472137451,-0.2815753698888961,-0.9593377802753584,0.0196553913285725,0.0544012493631324,3.0,0.0
22.33173370361328,21.017078399658203,-1.2097547054290771,-0.0,-0.0,-1.0,0.0962784311325035,2.0,0.0
22.353130340576172,21.17449188232422,-1.2210030555725098,-0.0,-0.0,-1.0,0.0472211962125535,2.0,0.0
21.950674057006836,22.199777603149418,-1.6300225257873535,-0.0,-0.0,-1.0,0.0153153720004871,2.0,0.0
21.8563289642334,22.390281677246097,-1.6232757568359375,-0.0,-0.0,-1.0,0.0274317901149814,1.0,0.0
21.84017562866211,22.68416976928711,-1.6432571411132812,-0.0,-0.0,-1.0,0.0591743892895216,1.0,0.0
21.80042266845703,20.83773422241211,-1.5068621635437012,-0.0,-0.0,-1.0,0.0219334820645915,2.0,0.0
21.749691009521484,21.5091552734375,-1.5357470512390137,-0.0,-0.0,-1.0,0.0524839420488933,1.0,0.0
21.69803810119629,21.87137794494629,-1.5486454963684082,0.1343667536212056,0.1846309683285135,-0.9735794682794896,0.1130166572959182,3.0,0.0
21.743974685668945,22.301998138427734,-1.5908284187316897,-0.0,-0.0,-1.0,0.0397188435053459,1.0,0.0
21.795753479003903,20.6534481048584,-1.495966911315918,-0.0,-0.0,-1.0,0.0682959567353259,1.0,0.0
21.66352653503418,21.077804565429688,-1.4893145561218262,0.6457533012967913,-0.315493480147371,-0.6953175805693371,0.0165705660719208,3.0,0.0
21.588603973388672,21.288734436035156,-1.4848971366882324,-0.0,-0.0,-1.0,0.0202150650544681,1.0,0.0
20.557567596435547,20.756885528564453,-1.4997034072875977,-0.0,-0.0,-1.0,0.0152124186380082,2.0,0.0
20.551563262939453,21.161996841430664,-1.5136241912841797,-0.0,-0.0,-1.0,0.0357929963435815,1.0,0.0
20.63111114501953,21.54410171508789,-1.5498762130737305,-0.0,-0.0,-1.0,0.01745024503232,1.0,0.0
20.53236389160156,21.849740982055664,-1.5410199165344238,-0.0,-0.0,-1.0,0.0233105213944121,1.0,0.0
22.12136459350586,20.947248458862305,-1.212320327758789,-0.0,-0.0,-1.0,0.0826047626660428,2.0,0.0
22.15416717529297,21.16847801208496,-1.2281537055969238,0.2972503554585802,-0.4257226730266869,-0.8546358475109503,0.0906827294328884,3.0,0.0
20.281604766845703,21.961181640625,-1.4860024452209473,-0.0,-0.0,-1.0,0.1683493699368789,2.0,0.0
22.127050399780273,20.854660034179688,-1.3698983192443848,-0.8409723394713711,0.0139910025653812,0.5408971954921419,0.1191844650253398,4.0,0.0
22.035329818725582,21.056591033935547,-1.3557798862457275,0.3143706294347155,0.7900101226386157,-0.526360250662358,0.1261746351741261,8.0,0.0
22.143266677856445,21.462074279785156,-1.3921606540679932,-0.0,-0.0,-1.0,0.1267325552318642,2.0,0.0
22.041284561157227,23.0520076751709,-1.4406476020812988,0.0551939156394512,-0.3881336943558874,-0.9199488393285984,0.1174730307923304,5.0,0.0
21.707441329956055,20.716049194335938,-1.4731733798980713,-0.0,-0.0,-1.0,0.0224522185115328,1.0,0.0
21.65707778930664,21.011409759521484,-1.4680488109588623,0.9836611548134012,-0.1680219763050915,-0.0646478769156211,0.0653436624608906,3.0,0.0
22.034896850585938,22.061290740966797,-1.5878016948699951,-0.0,-0.0,-1.0,0.0714612494105847,1.0,0.0
22.07779884338379,22.1813907623291,-1.602407693862915,0.4280651638733206,0.5092898855048581,-0.7465815615192729,0.0393992145589354,3.0,0.0
21.594886779785156,21.23927879333496,-1.459542989730835,0.2988565456627555,-0.6213475448079827,-0.7243010380191494,0.0233567185545548,3.0,0.0
21.747663497924805,21.58043670654297,-1.5047380924224854,-0.0,-0.0,-1.0,0.1267817092534273,2.0,0.0
21.837892532348633,21.912933349609375,-1.53674054145813,-0.0,-0.0,-1.0,0.2195259663895533,1.0,0.0
22.075958251953125,22.372495651245117,-1.6097404956817627,-0.0,-0.0,-1.0,0.0371211310428366,2.0,0.0
22.058666229248047,22.5325870513916,-1.6125686168670654,-0.0,-0.0,-1.0,0.0547101252396973,1.0,0.0
21.74969482421875,20.77361488342285,-1.4922442436218262,0.0426989736321525,-0.9522549323521738,-0.3023033930701359,0.0238055493827364,4.0,0.0
21.6623477935791,21.045167922973633,-1.4756007194519043,0.3980486045202773,-0.3146173119681736,-0.8617269030553593,0.0728857619788741,4.0,0.0
21.758569717407227,21.419994354248047,-1.5052595138549805,-0.0,-0.0,-1.0,0.0649726570492879,1.0,0.0
21.87560272216797,21.81998062133789,-1.5424280166625977,-0.0,-0.0,-1.0,0.2556037908034097,1.0,0.0
22.105323791503903,22.152069091796875,-1.6066279411315918,-0.0,-0.0,-1.0,0.0349255546042052,2.0,0.0
21.76811981201172,21.799903869628903,-1.5162510871887207,0.0263367138994056,0.3990794850548798,-0.9165380200020684,0.1484938503774722,3.0,0.0
22.13050651550293,22.4321231842041,-1.6217288970947266,-0.0,-0.0,-1.0,0.050898873694363,1.0,0.0
21.325986862182617,20.87709045410156,-1.5038902759552002,-0.0,-0.0,-1.0,0.0177250069353368,2.0,0.0
21.29444694519043,21.15633201599121,-1.4961035251617432,-0.0,-0.0,-1.0,0.0075868119001631,2.0,0.0
21.376718521118164,21.46533203125,-1.5186808109283447,0.6316487039875736,0.7524610305344533,0.1866073746609352,0.0246928594975944,4.0,0.0
21.457916259765625,21.77253532409668,-1.5423529148101809,-0.0,-0.0,-1.0,0.1037279235141039,1.0,0.0
21.47661018371582,21.97538948059082,-1.550041437149048,-0.3452545561975836,0.490571784020102,-0.8000866304020733,0.1338508322094531,3.0,0.0
21.638444900512695,22.23868179321289,-1.5963151454925537,-0.0,-0.0,-1.0,0.043130064546618,1.0,0.0
21.322364807128903,23.134376525878903,-1.5388948917388916,-0.0,-0.0,-1.0,0.1392129855567145,1.0,0.0
22.439165115356445,21.09680557250977,-1.207099676132202,-0.0,-0.0,-1.0,0.1045174423848009,2.0,0.0
22.487485885620117,21.20831298828125,-1.2189347743988037,-0.6094065575546577,0.6142291406789572,-0.5013444029309307,0.1099480328051364,4.0,0.0
21.09558868408203,20.71828842163086,-1.4991002082824707,-0.0,-0.0,-1.0,0.1121597267754231,2.0,0.0
21.190269470214844,20.94333839416504,-1.520608901977539,-0.0,-0.0,-1.0,0.0149468516036406,1.0,0.0
21.1807918548584,21.211830139160156,-1.515429973602295,-0.0,-0.0,-1.0,0.0108665270526259,2.0,0.0
21.295717239379883,21.498722076416016,-1.5441150665283203,-0.0,-0.0,-1.0,0.0250270852132311,2.0,0.0
21.332778930664062,21.750652313232425,-1.553645133972168,-0.0,-0.0,-1.0,0.0433999005057081,2.0,0.0
21.48029899597168,22.087387084960938,-1.5944180488586426,-0.0,-0.0,-1.0,0.0464749115401005,1.0,0.0
21.043237686157227,23.11703109741211,-1.4903254508972168,-0.0,-0.0,-1.0,0.2117403680784846,2.0,0.0
21.920551300048828,20.898195266723633,-1.4223549365997314,-0.0,-0.0,-1.0,0.041743041784768,1.0,0.0
21.858394622802734,21.24563217163086,-1.4013714790344238,-0.0,-0.0,-1.0,0.0678436170281849,2.0,0.0
22.098697662353516,21.425762176513672,-1.4622180461883545,-0.0,-0.0,-1.0,0.188785151833065,1.0,0.0
22.15494728088379,21.67369079589844,-1.4754016399383545,-0.0,-0.0,-1.0,0.1260076694425226,2.0,0.0
22.274578094482425,21.753530502319336,-1.5065438747406006,-0.0,-0.0,-1.0,0.0869452223209388,2.0,0.0
22.179746627807617,20.970909118652344,-1.2319965362548828,-0.4341631047166815,-0.8851193575506097,-0.1675294642502268,0.0848734779446403,3.0,0.0
22.231653213500977,21.300594329833984,-1.2368323802947998,-0.144123419567023,-0.5606519646846558,-0.8154126651135261,0.1170645975198534,3.0,0.0
22.514738082885746,20.816822052001953,-1.2132062911987305,-0.0,-0.0,-1.0,0.2306035220463673,1.0,0.0
22.60363388061523,21.00671768188477,-1.2305347919464111,-0.0,-0.0,-1.0,0.1105769463760792,2.0,0.0
20.53084945678711,21.677528381347656,-1.525739669799805,-0.0,-0.0,-1.0,0.0371999729547494,1.0,0.0
20.27381134033203,21.83185577392578,-1.5029792785644531,-0.0,-0.0,-1.0,0.0728678607229829,2.0,0.0
20.82461929321289,21.20050048828125,-1.4990100860595703,-0.0,-0.0,-1.0,0.0249147279491014,1.0,0.0
20.680572509765625,21.4398136138916,-1.5128192901611328,-0.0,-0.0,-1.0,0.0182024670476969,1.0,0.0
21.016700744628903,20.65302276611328,-1.4416656494140625,-0.0,-0.0,-1.0,0.1651168063034885,2.0,0.0
20.883033752441406,20.892837524414062,-1.4565391540527344,-0.7984279348821952,0.4138401666866319,-0.4373204194141107,0.0563460085627247,3.0,0.0
20.953962326049805,21.625099182128903,-1.547903537750244,-0.0,-0.0,-1.0,0.0155644660215775,1.0,0.0
20.710824966430664,21.898876190185547,-1.5521454811096191,-0.0,-0.0,-1.0,0.02342913413557,2.0,0.0
21.360876083374023,20.950550079345703,-1.5016064643859863,-0.0,-0.0,-1.0,0.0112881977023422,2.0,0.0
21.066999435424805,21.309261322021484,-1.51041841506958,-0.0,-0.0,-1.0,0.0182569590383728,1.0,0.0
20.470911026000977,21.93978500366211,-1.512810230255127,-0.0,-0.0,-1.0,0.0245494843715495,1.0,0.0
20.251813888549805,22.06317138671875,-1.4936509132385254,-0.0,-0.0,-1.0,0.1327959538102039,1.0,0.0
22.432355880737305,22.52141761779785,-1.5225319862365725,-0.0,-0.0,-1.0,0.0390464663214175,1.0,0.0
22.215715408325195,22.80448532104492,-1.5099120140075684,-0.0,-0.0,-1.0,0.0731325193089972,1.0,0.0
22.52370262145996,21.208005905151367,-1.382091999053955,-0.0359548905381944,0.929529749298831,-0.3669900421194539,0.1126166074994745,3.0,0.0
21.30484962463379,22.735883712768555,-1.3002476692199707,-0.0,-0.0,-1.0,0.1124952791273772,1.0,0.0
22.418384552001953,20.948524475097656,-1.327320575714111,-0.0,-0.0,-1.0,0.0749698152944582,2.0,0.0
20.506391525268555,22.5085391998291,-1.0956578254699707,-0.0,-0.0,-1.0,0.1373675906269661,1.0,0.0
20.38185691833496,22.703126907348633,-1.093191623687744,-0.0,-0.0,-1.0,0.1854538862430915,2.0,0.0
20.553611755371097,20.71721839904785,-1.4948105812072754,-0.0,-0.0,-1.0,0.0156366300544149,2.0,0.0
20.41008758544922,21.07267189025879,-1.5120654106140137,-0.0,-0.0,-1.0,0.0345234336782146,2.0,0.0
20.269847869873047,20.901214599609375,-1.4888520240783691,-0.0,-0.0,-1.0,0.0162905965628939,1.0,0.0
22.253171920776367,21.566177368164062,-1.1027069091796875,-0.0,-0.0,-1.0,0.2000486355192647,1.0,0.0
22.242883682250977,21.271499633789062,-1.070906639099121,-0.0,-0.0,-1.0,0.0958655628022448,1.0,0.0
20.96217155456543,20.910205841064453,-1.4457645416259766,-0.0,-0.0,-1.0,0.0472282462768874,2.0,0.0
20.941143035888672,21.295469284057617,-1.4608631134033203,-0.0,-0.0,-1.0,0.0264748827535173,2.0,0.0
21.003517150878903,21.69524383544922,-1.503129959106445,-0.0,-0.0,-1.0,0.0139557804619161,2.0,0.0
21.081071853637695,22.111217498779297,-1.551717758178711,-0.0,-0.0,-1.0,0.0126432526761357,1.0,0.0
21.0000057220459,22.5257568359375,-1.5524110794067385,-0.0,-0.0,-1.0,0.1195708522558788,1.0,0.0
20.944120407104492,22.784725189208984,-1.5516815185546875,-0.0,-0.0,-1.0,0.1143812529789702,1.0,0.0
20.54255485534668,20.839832305908203,-1.4721274375915527,-0.0,-0.0,-1.0,0.0147268414098718,2.0,0.0
20.52869033813477,21.246490478515625,-1.4856534004211426,-0.0,-0.0,-1.0,0.0272515325406596,2.0,0.0
20.580249786376953,21.686779022216797,-1.523399829864502,-0.0,-0.0,-1.0,0.0295677027288746,1.0,0.0
20.573522567749023,21.89681625366211,-1.531445026397705,-0.0,-0.0,-1.0,0.023147294101183,2.0,0.0
20.37680435180664,22.07432556152344,-1.4755988121032717,-0.0,-0.0,-1.0,0.1702618085908521,1.0,0.0
20.28683280944824,21.261857986450195,-1.5009231567382812,-0.0,-0.0,-1.0,0.0190095349075879,1.0,0.0
20.28633499145508,21.45820045471191,-1.5069103240966797,-0.0,-0.0,-1.0,0.0200282991262221,1.0,0.0
20.268701553344727,21.79732894897461,-1.5120725631713867,-0.0,-0.0,-1.0,0.0595233371197303,2.0,0.0
20.220666885375977,20.897804260253903,-1.4666662216186523,-0.0,-0.0,-1.0,0.0162905965628939,1.0,0.0
22.31778907775879,21.112462997436523,-1.172957420349121,-0.0,-0.0,-1.0,0.0182452343981131,1.0,0.0
22.507471084594727,20.67685890197754,-1.3605284690856934,-0.0,-0.0,-1.0,0.1647841449301237,2.0,0.0
22.11584854125977,20.926183700561523,-1.2314019203186035,-0.0,-0.0,-1.0,0.1193054933433043,2.0,0.0
22.041872024536133,21.14303970336914,-1.2110581398010254,-0.0,-0.0,-1.0,0.1252914734298829,2.0,0.0
22.179641723632812,21.394128799438477,-1.2640891075134275,-0.0,-0.0,-1.0,0.0888489338271107,2.0,0.0
21.413219451904297,20.96477508544922,-1.514887809753418,0.0298492516837571,-0.2049898371446014,-0.9783088412364208,0.0100704840454934,3.0,0.0
21.34697723388672,21.170888900756836,-1.5106868743896484,-0.0,-0.0,-1.0,0.0118285642760312,1.0,0.0
21.344188690185547,21.492816925048828,-1.5403680801391602,0.3921690133457691,0.8466094193879506,-0.3597998832337267,0.0247522755640093,5.0,0.0
21.358257293701172,21.775699615478516,-1.5728731155395508,-0.0,-0.0,-1.0,0.0430697341761586,2.0,0.0
21.344547271728516,22.05121421813965,-1.595881462097168,-0.0,-0.0,-1.0,0.031747764836209,1.0,0.0
21.297203063964844,22.318572998046875,-1.6069831848144531,-0.0,-0.0,-1.0,0.1093204935994162,2.0,0.0
21.228595733642575,22.56998062133789,-1.609994888305664,-0.0,-0.0,-1.0,0.0367138854534857,1.0,0.0
21.05632781982422,22.82210922241211,-1.5781240463256836,-0.0,-0.0,-1.0,0.1306446934277296,2.0,0.0
21.669675827026367,21.64272117614746,-1.2850580215454102,-0.0,-0.0,-1.0,0.2190553036584406,1.0,0.0
21.8294677734375,21.551578521728516,-1.2774763107299805,-0.0,-0.0,-1.0,0.170299928172864,1.0,0.0
22.272340774536133,21.863420486450195,-1.434478759765625,-0.0,-0.0,-1.0,0.0882640056199629,1.0,0.0
22.346345901489254,21.807958602905273,-1.4270544052124023,-0.0,-0.0,-1.0,0.0649046126435111,1.0,0.0
21.449199676513672,21.416481018066406,-1.464608669281006,-0.0,-0.0,-1.0,0.0154491776578876,1.0,0.0
21.65231704711914,21.161846160888672,-1.448479175567627,-0.0,-0.0,-1.0,0.0255205982284322,1.0,0.0
22.153846740722656,20.95021629333496,-1.4847426414489746,-0.0,-0.0,-1.0,0.0827985454659737,1.0,0.0
22.42289352416992,20.846376419067383,-1.506110668182373,-0.0,-0.0,-1.0,0.0961719328686523,1.0,0.0
21.42958068847656,21.586639404296875,-1.4926753044128418,-0.0,-0.0,-1.0,0.0519573157171484,1.0,0.0
21.291881561279297,22.118968963623047,-1.5693659782409668,-0.0,-0.0,-1.0,0.0301313110202061,2.0,0.0
21.503955841064453,21.959461212158203,-1.571608066558838,-0.3452545561975836,0.490571784020102,-0.8000866304020733,0.0802076708394361,3.0,0.0
22.104429244995117,21.97671127319336,-1.679551124572754,-0.0,-0.0,-1.0,0.0459047828931035,1.0,0.0
22.569068908691406,22.09569549560547,-1.7394304275512695,-0.0,-0.0,-1.0,0.0237208132010671,1.0,0.0
21.39230728149414,21.70650100708008,-1.5621414184570312,-0.0,-0.0,-1.0,0.053962132576685,2.0,0.0
21.52463722229004,21.87610244750977,-1.6202669143676758,-0.0,-0.0,-1.0,0.0640914688951832,1.0,0.0
21.83959197998047,21.91758728027344,-1.6483068466186523,-0.0,-0.0,-1.0,0.0921988776781097,1.0,0.0
20.99375915527344,21.824153900146484,-1.5792770385742188,-0.0,-0.0,-1.0,0.0084405062849161,1.0,0.0
20.67632484436035,22.108123779296875,-1.6523256301879885,-0.0,-0.0,-1.0,0.0601490861556468,1.0,0.0
21.642309188842773,23.05166244506836,-1.3291220664978027,-0.0,-0.0,-1.0,0.0860130016795741,1.0,0.0
21.500307083129883,21.733680725097656,-1.390329360961914,-0.0,-0.0,-1.0,0.2205819443075196,1.0,0.0
21.662046432495117,21.56295585632324,-1.376018524169922,-0.0,-0.0,-1.0,0.1955247643460012,1.0,0.0
22.31839179992676,21.73824882507324,-1.508955955505371,0.1618931965168235,-0.6217743818504157,-0.7662814176241642,0.0740232416806772,4.0,0.0
21.186025619506836,22.415512084960938,-1.4968318939208984,-0.0,-0.0,-1.0,0.0932488819639386,1.0,0.0
21.641510009765625,22.427743911743164,-1.5635862350463867,-0.0,-0.0,-1.0,0.0306637228616029,1.0,0.0
21.404029846191406,22.94978904724121,-1.646650314331055,-0.0,-0.0,-1.0,0.0506454950140378,1.0,0.0
21.736970901489254,22.762149810791016,-1.6512699127197266,-0.0,-0.0,-1.0,0.0441752818071118,2.0,0.0
