x,y,z,nx,ny,nz,curvature,density,label
14.338953971862791,6.5502190589904785,-0.4461555480957031,-0.0,-0.0,-1.0,0.1699090843182934,1.0,0.0
13.987255096435549,7.082304954528809,-0.429610013961792,-0.0,-0.0,-1.0,0.1579915564993196,1.0,0.0
14.039183616638184,7.321443557739258,-0.4541757106781006,-0.0,-0.0,-1.0,0.1439126435344935,2.0,0.0
14.199814796447754,7.554651260375977,-0.4945950508117676,-0.0,-0.0,-1.0,0.172349063972188,1.0,0.0
14.359152793884276,7.940378189086914,-0.5464131832122803,-0.0,-0.0,-1.0,0.1009855786229747,1.0,0.0
14.180669784545898,5.900847434997559,-0.5640542507171631,-0.0,-0.0,-1.0,0.1088523804805967,2.0,0.0
14.272003173828123,5.8813557624816895,-0.5826601982116699,-0.0,-0.0,-1.0,0.0671943370361653,1.0,0.0
14.116003036499023,6.265847206115723,-0.5841267108917236,-0.0,-0.0,-1.0,0.1080047961207505,1.0,0.0
14.220199584960938,6.171650409698486,-0.5982236862182617,-0.0,-0.0,-1.0,0.1023051083927727,1.0,0.0
14.011877059936523,6.627893924713135,-0.5968732833862305,-0.0,-0.0,-1.0,0.0433684408107249,2.0,0.0
13.661738395690918,7.047078609466553,-0.5639524459838867,-0.0,-0.0,-1.0,0.0569693031967381,1.0,0.0
13.647001266479492,7.45489501953125,-0.6051270961761475,-0.0,-0.0,-1.0,0.0951197077609028,1.0,0.0
13.659361839294434,7.806238651275635,-0.6473257541656494,-0.0,-0.0,-1.0,0.0190098688818109,1.0,0.0
14.258848190307615,5.731966495513916,-0.5320262908935547,-0.0,-0.0,-1.0,0.0476911862906492,1.0,0.0
14.20286750793457,6.103886604309082,-0.5550847053527832,-0.0,-0.0,-1.0,0.1168305818603374,1.0,0.0
13.969094276428224,6.527478218078613,-0.5361413955688477,-0.0,-0.0,-1.0,0.0443431782537961,1.0,0.0
14.129228591918944,6.533517837524414,-0.5812978744506836,-0.0,-0.0,-1.0,0.0474115590887122,2.0,0.0
13.749872207641602,6.906179904937744,-0.5188713073730469,-0.0,-0.0,-1.0,0.0702044781843062,1.0,0.0
13.714888572692873,7.320926189422607,-0.5588393211364746,-0.0,-0.0,-1.0,0.0361473819198248,1.0,0.0
13.721659660339355,7.726068019866943,-0.6108026504516602,-0.0,-0.0,-1.0,0.0335622132589706,1.0,0.0
13.67715549468994,8.074065208435059,-0.6431775093078613,-0.0,-0.0,-1.0,0.0223256711130617,2.0,0.0
14.945706367492676,6.9738311767578125,-0.606741189956665,-0.8282550137089283,0.3761827272478233,-0.4153073415994631,0.0337533452632783,3.0,0.0
15.007758140563965,6.828219413757324,-0.6026747226715088,-0.0,-0.0,-1.0,0.0337345918672635,2.0,0.0
15.02268409729004,5.653560161590576,-0.4497110843658447,-0.0,-0.0,-1.0,0.135318744582126,1.0,0.0
14.964703559875488,6.069199562072754,-0.4867560863494873,-0.3324521451440839,-0.2543348242490841,-0.9081791499276364,0.1179957315010162,3.0,0.0
15.0021390914917,6.046785354614258,-0.494182825088501,-0.4415862094922343,-0.514050644165637,-0.7353594731960512,0.1234381572842342,4.0,0.0
14.458524703979492,6.410003185272217,-0.392756700515747,0.6268519282484045,0.7656893944173331,0.1441402488136992,0.1875855337740384,4.0,0.0
14.97829246520996,6.440786361694336,-0.5405457019805908,-0.0,-0.0,-1.0,0.1751084705053516,2.0,0.0
15.003015518188477,6.452502250671387,-0.5488255023956299,0.1364347254841103,0.3384032263184754,-0.9310579048047024,0.1114139793202177,4.0,0.0
14.90321445465088,6.950341701507568,-0.5916979312896729,-0.0654902076671956,0.4160904871203923,-0.90696181795466,0.04493162154961,3.0,0.0
15.0264310836792,6.748633861541748,-0.5964834690093994,-0.0,-0.0,-1.0,0.0318330726062812,2.0,0.0
13.966832160949709,7.232494831085205,-0.3819968700408935,-0.9679384411278812,-0.2359154893629849,-0.0862499626988371,0.0975184813683001,6.0,0.0
14.582754135131836,7.232554912567139,-0.5468318462371826,-0.0,-0.0,-1.0,0.1145475918684143,2.0,0.0
14.691537857055664,7.156525135040283,-0.5647475719451904,-0.7059659182151083,-0.2686596342586898,-0.6553122333961774,0.1192718096383345,3.0,0.0
14.114359855651855,7.679664611816406,-0.4921920299530029,-0.1351552112243596,-0.0450880459729308,-0.9897980283821752,0.0930933996441032,3.0,0.0
14.1368408203125,8.047062873840332,-0.5583202838897705,-0.0,-0.0,-1.0,0.0476358158049,1.0,0.0
13.474218368530272,7.82313346862793,-0.5438830852508545,-0.0,-0.0,-1.0,0.018256410502684,1.0,0.0
13.642450332641602,7.897148132324219,-0.5470597743988037,-0.0,-0.0,-1.0,0.0190747755831032,1.0,0.0
14.384292602539062,6.38102912902832,-0.5279109477996826,-0.0,-0.0,-1.0,0.1692777651642326,1.0,0.0
14.572486877441406,6.390840530395508,-0.5363280773162842,0.7474495134821753,-0.6176305553790272,-0.2446461155576634,0.1021623776618161,4.0,0.0
12.888547897338867,6.377538681030273,-0.4603950977325439,-0.0,-0.0,-1.0,0.0178711277889221,1.0,0.0
13.012744903564451,6.5512847900390625,-0.4472732543945312,-0.0,-0.0,-1.0,0.0183778062519221,2.0,0.0
14.752077102661133,6.791481018066406,-0.5038313865661621,-0.0,-0.0,-1.0,0.0317332595411207,1.0,0.0
15.07689380645752,6.786516189575195,-0.5216364860534668,-0.0,-0.0,-1.0,0.0301624254573051,1.0,0.0
13.16967487335205,6.959451675415039,-0.4110217094421386,-0.0,-0.0,-1.0,0.0271099998481331,1.0,0.0
13.29148292541504,7.166492462158203,-0.3945465087890625,-0.0,-0.0,-1.0,0.0519944032938474,1.0,0.0
13.485784530639648,7.378297805786133,-0.3809778690338135,-0.0,-0.0,-1.0,0.0830017317190013,1.0,0.0
13.712591171264648,7.537937164306641,-0.3745753765106201,-0.0,-0.0,-1.0,0.0865933355524776,1.0,0.0
15.119126319885254,6.069292068481445,-0.2282450199127197,-0.3889463947558411,0.5114688648606465,-0.7662377583260925,0.1323968038410206,4.0,0.0
13.043977737426758,5.707603454589844,-0.3190710544586181,-0.6720811140841714,0.6597499143744343,0.3362097954764341,0.0310567775890969,3.0,0.0
13.276823043823242,5.729915618896484,-0.3207783699035644,-0.7435842933851737,0.4445373632606449,-0.49946864896222,0.1044449640210216,5.0,0.0
14.43917751312256,6.463254928588867,-0.2707898616790771,0.0231389650228909,0.986166976620122,-0.1641319058611008,0.1771259988428776,9.0,0.0
12.781245231628418,7.882772445678711,-0.5232968330383301,-0.0,-0.0,-1.0,0.0571767770711872,2.0,0.0
12.99401569366455,8.01243782043457,-0.5143799781799316,-0.0,-0.0,-1.0,0.0896370430623963,1.0,0.0
13.331960678100586,7.781869888305664,-0.5527353286743164,-0.0,-0.0,-1.0,0.0266854577862802,2.0,0.0
13.750365257263184,7.866662979125977,-0.5568985939025879,-0.0,-0.0,-1.0,0.0333667909613702,1.0,0.0
14.042020797729492,8.072757720947266,-0.5427994728088379,-0.0,-0.0,-1.0,0.0297538286959126,1.0,0.0
14.675634384155272,8.050128936767578,-0.5697057247161865,-0.0,-0.0,-1.0,0.0326406069662819,2.0,0.0
15.011497497558594,8.039508819580078,-0.5846419334411621,-0.0,-0.0,-1.0,0.0170725514088054,1.0,0.0
15.0013427734375,6.398481369018555,-0.2706320285797119,-0.0,-0.0,-1.0,0.2206252794017469,1.0,0.0
13.022405624389648,5.953374862670898,-0.3808178901672363,-0.0,-0.0,-1.0,0.0654189923990032,1.0,0.0
13.227826118469238,5.828916549682617,-0.4063320159912109,-0.0,-0.0,-1.0,0.0595851057230253,1.0,0.0
13.479569435119627,5.837186813354492,-0.4190707206726074,-0.0,-0.0,-1.0,0.0202085810870787,2.0,0.0
13.893678665161133,5.839775085449219,-0.4419624805450439,-0.0,-0.0,-1.0,0.0241640847877595,2.0,0.0
14.30795955657959,6.464210510253906,-0.3925869464874267,-0.0,-0.0,-1.0,0.1369517624290317,1.0,0.0
14.185945510864258,5.888919830322266,-0.4530534744262695,-0.0,-0.0,-1.0,0.0764924314586718,1.0,0.0
14.4642972946167,7.013069152832031,-0.3373746871948242,-0.0,-0.0,-1.0,0.2155450087788077,1.0,0.0
14.390402793884276,6.3998870849609375,-0.4050500392913818,0.1874363333507369,0.7824109741727391,0.5938860904534609,0.2084988690319353,4.0,0.0
14.684287071228027,6.096855163574219,-0.4584524631500244,-0.5586821777237527,-0.5247712032283665,-0.6422533834524329,0.0954597917646574,5.0,0.0
15.04929256439209,6.342578887939453,-0.4522216320037842,-0.808822922940066,-0.2671542614735425,-0.5238645625571688,0.1666378490996055,3.0,0.0
14.9291353225708,6.237201690673828,-0.4570682048797607,0.1287833333619712,-0.6699479574282552,-0.7311529165543198,0.1658697524879082,3.0,0.0
13.411566734313965,8.118196487426758,-0.5903427600860596,-0.0,-0.0,-1.0,0.0204432282480599,1.0,0.0
15.008999824523926,5.951606750488281,-0.190093994140625,-0.0,-0.0,-1.0,0.1153593041144364,2.0,0.0
12.814422607421877,7.115062713623047,-0.4323363304138183,-0.0,-0.0,-1.0,0.0191815000691533,1.0,0.0
13.137605667114258,7.039457321166992,-0.4597425460815429,-0.0,-0.0,-1.0,0.028967244269499,1.0,0.0
13.473204612731934,7.187816619873047,-0.4570291042327881,-0.0,-0.0,-1.0,0.0857751703119677,1.0,0.0
13.928698539733888,7.54625129699707,-0.4323720932006836,-0.0,-0.0,-1.0,0.0992159959768693,2.0,0.0
13.77596950531006,7.383876800537109,-0.4464421272277832,-0.0,-0.0,-1.0,0.0644834654719642,1.0,0.0
14.04140567779541,7.66539192199707,-0.4222042560577392,-0.0,-0.0,-1.0,0.0902805658655668,1.0,0.0
14.63837432861328,7.412601470947266,-0.4951143264770508,-0.8690120777422897,-0.4146155050679704,0.2700222059299209,0.0795042274638655,4.0,0.0
14.851592063903809,7.285703659057617,-0.526982307434082,-0.0,-0.0,-1.0,0.0247243596670261,2.0,0.0
15.090065956115724,7.360071182250977,-0.5324993133544922,-0.0,-0.0,-1.0,0.015337508254272,1.0,0.0
15.031607627868652,7.295452117919922,-0.5376424789428711,-0.0,-0.0,-1.0,0.0177091899027708,1.0,0.0
14.225772857666016,7.847490310668945,-0.4075782299041748,-0.0,-0.0,-1.0,0.0837901429194778,1.0,0.0
14.436426162719728,7.852474212646484,-0.4199142456054687,0.254060380484887,0.7375930884276151,-0.6256274921802005,0.1039080931031855,4.0,0.0
12.880556106567385,8.054576873779297,-0.5522518157958984,0.5287805694382086,-0.7746740482657993,-0.3468014249222194,0.0626557491779312,3.0,0.0
13.211992263793944,8.065397262573242,-0.5642750263214111,-0.0,-0.0,-1.0,0.1067843302842792,2.0,0.0
14.978792190551758,5.9314117431640625,-0.2462415695190429,-0.4420132431344954,0.8412048506616222,0.3114461303613893,0.1149340164944838,3.0,0.0
12.75458812713623,6.407512664794922,-0.4397785663604736,0.9067814084607382,0.1994762202136377,-0.3714252479830099,0.0172549767799497,3.0,0.0
13.118576049804688,6.315330505371094,-0.4691171646118164,-0.0,-0.0,-1.0,0.0288091325067229,2.0,0.0
13.512242317199709,6.449054718017578,-0.4668223857879638,-0.0,-0.0,-1.0,0.0260039887509554,2.0,0.0
13.820069313049316,7.10040283203125,-0.3830976486206054,-0.0,-0.0,-1.0,0.1225482030830109,1.0,0.0
14.059011459350586,7.413053512573242,-0.3477129936218261,-0.0,-0.0,-1.0,0.1067739494784999,1.0,0.0
14.359514236450195,6.451410293579102,-0.5091514587402344,-0.0,-0.0,-1.0,0.1707620493631017,1.0,0.0
14.28400993347168,7.5977020263671875,-0.3313019275665283,0.0130197497154807,-0.3700436109984295,-0.9289231464855364,0.1313933949147567,4.0,0.0
14.571503639221191,7.117528915405273,-0.4196186065673828,-0.0,-0.0,-1.0,0.1906717754786354,2.0,0.0
14.758628845214844,6.447225570678711,-0.5319602489471436,-0.0,-0.0,-1.0,0.1743148471990283,2.0,0.0
15.13992977142334,6.59205436706543,-0.5323011875152588,-0.0,-0.0,-1.0,0.0585732590667151,2.0,0.0
12.733466148376465,7.573038101196289,-0.4770472049713135,0.9221959951768088,0.3143421139962552,-0.2252633610870196,0.0181961659392739,4.0,0.0
12.916872024536133,7.41215705871582,-0.5079762935638428,0.0460414339363327,0.5385234482860871,-0.8413516993547636,0.0518941177714261,4.0,0.0
13.25990867614746,7.440670013427734,-0.5114073753356934,0.1138820547142879,-0.3982497784266899,-0.9101801973220162,0.0413355552459431,3.0,0.0
13.661209106445312,7.4775390625,-0.5162146091461182,-0.0,-0.0,-1.0,0.0936579016238513,2.0,0.0
14.155328750610352,7.837295532226563,-0.4707775115966797,-0.0,-0.0,-1.0,0.0658355256829299,2.0,0.0
13.965394973754885,7.649005889892578,-0.4965293407440185,-0.0,-0.0,-1.0,0.125388326208779,1.0,0.0
14.380324363708496,7.88014030456543,-0.4716250896453857,-0.8291740744868671,0.5558171709286566,-0.0594779513745411,0.1277969655407355,3.0,0.0
14.533522605895996,7.472143173217773,-0.5474264621734619,-0.0,-0.0,-1.0,0.0863239196850808,1.0,0.0
14.64908218383789,7.412729263305664,-0.5622761249542236,-0.5753504951434373,-0.7682225825612735,-0.2807238347221151,0.0716303774208745,5.0,0.0
14.92959213256836,7.54534912109375,-0.5514123439788818,-0.0,-0.0,-1.0,0.0133010497993797,1.0,0.0
14.905282974243164,7.376651763916016,-0.5794429779052734,-0.0,-0.0,-1.0,0.0179050872163617,1.0,0.0
12.726324081420898,6.301179885864258,-0.4143421649932861,-0.3537791238674176,0.0875150005686504,-0.9312257815326378,0.0212220000292231,5.0,0.0
12.973957061767578,6.142087936401367,-0.4469971656799316,0.0866402381266019,0.0990519053891701,-0.991303278102186,0.0594678271099563,3.0,0.0
13.272189140319824,6.068132400512695,-0.4679052829742431,-0.0,-0.0,-1.0,0.0177381827380899,1.0,0.0
13.670364379882812,6.11561393737793,-0.4729979038238525,-0.0,-0.0,-1.0,0.0198383220723614,1.0,0.0
13.995894432067873,6.160245895385742,-0.4773154258728027,-0.0,-0.0,-1.0,0.1328787243094784,2.0,0.0
14.154231071472168,6.04265022277832,-0.503248929977417,-0.0,-0.0,-1.0,0.1124253345051877,1.0,0.0
14.482563972473145,6.416193008422852,-0.4541349411010742,0.5223259914028939,-0.852379887010851,0.0249817318125251,0.1715024583955981,6.0,0.0
14.600733757019045,6.093349456787109,-0.5136268138885498,-0.0,-0.0,-1.0,0.0826503410705833,2.0,0.0
14.911272048950195,6.217046737670898,-0.5072624683380127,-0.0,-0.0,-1.0,0.1718088346013529,1.0,0.0
12.74143123626709,7.467352867126465,-0.5008056163787842,-0.0,-0.0,-1.0,0.0201586186828445,1.0,0.0
13.07046127319336,7.404411315917969,-0.5150675773620605,-0.0,-0.0,-1.0,0.0629395791934384,2.0,0.0
13.342158317565918,7.393365859985352,-0.5199985504150391,-0.0,-0.0,-1.0,0.0796005666692905,1.0,0.0
13.52566146850586,7.346997261047363,-0.5316214561462402,0.3159294206582437,0.1857577883588809,-0.930420681856634,0.1005923351557019,3.0,0.0
13.91262149810791,7.536369323730469,-0.501577615737915,-0.0,-0.0,-1.0,0.0840911701698175,1.0,0.0
13.756462097167969,7.422816276550293,-0.5206949710845947,-0.0,-0.0,-1.0,0.0634831730724923,1.0,0.0
14.247666358947754,7.796045303344727,-0.4583289623260498,0.4383395939364339,0.7935056090850732,-0.4221460040533006,0.089018419294966,3.0,0.0
14.45800495147705,7.43106746673584,-0.5356042385101318,-0.3326517168479145,-0.7678268065267866,0.5475261002518614,0.1608575434239909,4.0,0.0
14.452012062072754,7.756931304931641,-0.4713103771209717,0.1812622284872806,0.9833965383503956,0.0086748420322012,0.104769937946289,3.0,0.0
14.688238143920898,7.364314079284668,-0.5558874607086182,-0.1842460236038109,-0.3408801635979201,-0.9218753260889672,0.0645413088688892,3.0,0.0
14.921710968017578,7.2979736328125,-0.5768246650695801,-0.0,-0.0,-1.0,0.0182633765279303,2.0,0.0
15.135132789611816,7.316381454467773,-0.5812456607818604,-0.0,-0.0,-1.0,0.0180535108372012,2.0,0.0
14.394927978515623,6.402576446533203,-0.1457898616790771,-0.9807043997797926,0.1747330851555869,-0.087676845316009,0.1726734064876864,8.0,0.0
12.843755722045898,7.874403953552246,-0.4976010322570801,-0.7248446846197019,-0.6872453055905463,-0.0478964834024528,0.0502546566139561,3.0,0.0
12.810832977294922,7.767138481140137,-0.5199704170227051,-0.0,-0.0,-1.0,0.0453258534245599,1.0,0.0
13.251180648803713,7.68039608001709,-0.5440776348114014,-0.0,-0.0,-1.0,0.0398184495043306,1.0,0.0
13.637516021728516,7.629765510559082,-0.5622584819793701,-0.0,-0.0,-1.0,0.0476083096953007,1.0,0.0
13.69570541381836,7.625400543212891,-0.5643959045410156,-0.0,-0.0,-1.0,0.0593526233990942,1.0,0.0
13.980819702148438,7.789055824279785,-0.5360665321350098,-0.0,-0.0,-1.0,0.091235566688367,2.0,0.0
14.642147064208984,7.677281379699707,-0.5817430019378662,-0.0,-0.0,-1.0,0.0459609469732079,1.0,0.0
14.947233200073242,7.676532745361328,-0.5942049026489258,-0.0,-0.0,-1.0,0.014105450209387,2.0,0.0
12.857219696044922,5.847460746765137,-0.3426034450531006,-0.2003359563312625,-0.6819017111338034,-0.7034739234354243,0.0550807266809088,3.0,0.0
13.062667846679688,5.7518720626831055,-0.3652064800262451,-0.0,-0.0,-1.0,0.0253321505227279,2.0,0.0
13.36640167236328,5.69188117980957,-0.3852002620697021,-0.9395224361374752,-0.340113613071972,-0.0402532259257807,0.0858049995799909,3.0,0.0
14.173532485961914,7.990177154541016,-0.4977850914001465,-0.0,-0.0,-1.0,0.0615511227898989,1.0,0.0
14.477412223815918,6.4253339767456055,-0.2931158542633056,-0.5341511417043528,0.8245255160980586,-0.1866553806327755,0.2122710876347137,9.0,0.0
14.402609825134276,8.001885414123535,-0.5024209022521973,0.945736778782151,0.1277416239428392,-0.2987708532825897,0.0871872674500068,5.0,0.0
14.788143157958984,6.394007682800293,-0.3128740787506103,0.5391348274729121,-0.5817134401311193,-0.609050992427212,0.136868707258264,3.0,0.0
14.999601364135742,5.970619201660156,-0.4010121822357178,-0.0722870799364798,-0.1476133385608835,-0.9863999596275166,0.1015939490123876,5.0,0.0
15.04190158843994,5.796854019165039,-0.4352245330810547,-0.0,-0.0,-1.0,0.1531765026357113,2.0,0.0
12.746667861938477,7.249480247497559,-0.4847903251647949,-0.0,-0.0,-1.0,0.0227361519066974,1.0,0.0
12.947484970092772,7.078573226928711,-0.520003080368042,-0.9005508108031326,-0.2359303500939768,0.3651644931621287,0.0242233293206466,3.0,0.0
13.030319213867188,7.103017807006836,-0.5145142078399658,-0.0,-0.0,-1.0,0.0216836316966344,1.0,0.0
13.203410148620604,7.090251922607422,-0.517108678817749,-0.0,-0.0,-1.0,0.0445240396468395,1.0,0.0
13.387285232543944,7.114748001098633,-0.5120606422424316,-0.0,-0.0,-1.0,0.0811055517019493,2.0,0.0
13.661216735839844,7.21800422668457,-0.4910690784454345,-0.0,-0.0,-1.0,0.035544317016826,2.0,0.0
13.492364883422852,7.1424455642700195,-0.5064780712127686,-0.0,-0.0,-1.0,0.0676415894511588,2.0,0.0
13.974716186523438,7.480739593505859,-0.4367990493774414,-0.0,-0.0,-1.0,0.0637685160590467,2.0,0.0
14.300606727600098,7.699455261230469,-0.3932249546051025,-0.0,-0.0,-1.0,0.1368735125243244,2.0,0.0
14.363909721374512,7.50350284576416,-0.4372940063476562,-0.6873956533288244,0.6753407573801409,-0.267211671163249,0.0933987350691886,4.0,0.0
14.532119750976562,7.177933692932129,-0.511866569519043,-0.8971432255536006,0.4392237786215579,0.0470797741783189,0.1611809287857022,3.0,0.0
14.645894050598145,7.0765533447265625,-0.536651611328125,0.6775366636481723,-0.6064820072267892,-0.4160812953290107,0.1609129664422628,4.0,0.0
14.853164672851562,6.879005432128906,-0.5855398178100586,-0.0,-0.0,-1.0,0.043995075027961,1.0,0.0
15.124781608581545,6.9262285232543945,-0.5829763412475586,-0.0,-0.0,-1.0,0.0227783915834836,2.0,0.0
14.391742706298828,6.3730974197387695,-0.1628761291503906,0.3627160637055802,0.4255628404755274,-0.8290556832543461,0.2040395089277334,8.0,0.0
12.968206405639648,6.292655944824219,-0.4348924160003662,-0.0,-0.0,-1.0,0.0233523324063795,1.0,0.0
13.523825645446776,6.263343811035156,-0.4481732845306396,-0.0,-0.0,-1.0,0.0219331238392507,2.0,0.0
13.43956184387207,6.172701835632324,-0.4666717052459717,-0.0548188010030835,-0.4499057017530245,-0.891392034172789,0.0208574520696101,3.0,0.0
13.952877044677734,6.307427406311035,-0.44775390625,-0.0,-0.0,-1.0,0.1044590320524333,1.0,0.0
13.746244430541992,6.1761322021484375,-0.471865177154541,-0.3755489784505182,-0.7731760090341141,-0.5110399434866634,0.0295429812357362,3.0,0.0
14.184965133666992,6.176652908325195,-0.4833428859710693,-0.0,-0.0,-1.0,0.1427549923688157,1.0,0.0
14.075716018676758,6.321873664855957,-0.44783616065979,-0.0,-0.0,-1.0,0.1155360450525783,2.0,0.0
14.16316032409668,6.2909345626831055,-0.4571907520294189,-0.0,-0.0,-1.0,0.1458846125337576,2.0,0.0
14.488353729248049,6.873478889465332,-0.3375923633575439,-0.0,-0.0,-1.0,0.13218242692462,1.0,0.0
14.503616333007812,6.4346418380737305,-0.4362037181854248,0.691802604429507,-0.6115962038722955,-0.3838739896288217,0.2251468627485879,4.0,0.0
14.702255249023438,6.22512149810791,-0.4907145500183105,-0.0,-0.0,-1.0,0.0545079728083206,2.0,0.0
15.011608123779297,6.283306121826172,-0.4908955097198486,-0.0,-0.0,-1.0,0.1245024269055241,1.0,0.0
12.724830627441406,6.283051490783691,-0.4267878532409668,-0.3537791238674176,0.0875150005686504,-0.9312257815326378,0.0212220000292231,5.0,0.0
12.93586540222168,6.168076515197754,-0.4477295875549316,-0.1092592589187991,-0.5156818853578532,-0.8497850360263385,0.057616695001091,4.0,0.0
13.203264236450195,6.059684753417969,-0.468238353729248,-0.0,-0.0,-1.0,0.0213030081949034,2.0,0.0
13.490339279174805,5.9637250900268555,-0.4873383045196533,-0.0,-0.0,-1.0,0.0145786575140162,1.0,0.0
13.697769165039062,5.912319183349609,-0.4985866546630859,-0.0,-0.0,-1.0,0.0264411431677572,1.0,0.0
14.106096267700195,5.855600357055664,-0.5135955810546875,-0.0,-0.0,-1.0,0.0695331587080902,1.0,0.0
14.374164581298828,5.895105361938477,-0.5081815719604492,-0.0,-0.0,-1.0,0.0548104521423493,2.0,0.0
14.624631881713867,5.794434547424316,-0.5347895622253418,-0.0,-0.0,-1.0,0.0631069766697446,1.0,0.0
14.429816246032717,5.926841735839844,-0.5020997524261475,-0.0,-0.0,-1.0,0.0407440754860044,2.0,0.0
14.704130172729492,6.525533676147461,-0.3755884170532226,0.2647526959530486,0.1535091171724042,-0.9520194120555218,0.1054522231601275,3.0,0.0
14.953617095947266,6.186100959777832,-0.4557697772979736,0.1811461105918656,-0.2258948685149053,-0.9571612168261276,0.1355886850827772,3.0,0.0
14.93128490447998,5.9978179931640625,-0.4969544410705566,-0.0,-0.0,-1.0,0.0911326102271357,1.0,0.0
15.08406925201416,6.262022972106934,-0.4423897266387939,-0.0,-0.0,-1.0,0.124846762490118,2.0,0.0
12.914039611816406,5.757796287536621,-0.3184773921966553,-0.9124639129165564,0.1950136758493967,0.3596933052709121,0.0379167544052121,3.0,0.0
13.124067306518556,5.641767501831055,-0.3368175029754638,-0.0,-0.0,-1.0,0.0432844401277913,1.0,0.0
13.435663223266602,5.670501708984375,-0.3257601261138916,-0.0,-0.0,-1.0,0.0605421346995983,1.0,0.0
14.506998062133787,6.4464111328125,-0.1621854305267334,-0.0,-0.0,-1.0,0.1297563243767736,2.0,0.0
15.131230354309082,6.049985885620117,-0.24882173538208,-0.3889463947558411,0.5114688648606465,-0.7662377583260925,0.1366900374660693,4.0,0.0
12.989757537841797,5.644009590148926,-0.3462498188018799,-0.0,-0.0,-1.0,0.036866087831924,2.0,0.0
14.40934944152832,6.409605026245117,-0.1206624507904052,-0.3828553198235581,0.8939980447565845,0.232785953300892,0.1493614904222062,9.0,0.0
14.950990676879885,6.068873405456543,-0.1700375080108642,-0.0,-0.0,-1.0,0.1888073287921711,2.0,0.0
12.994067192077637,5.662309646606445,-0.3302733898162842,-0.8422849834447041,0.4531721766629696,-0.2918749474725451,0.0393091447709034,3.0,0.0
12.82607650756836,5.801807403564453,-0.3351273536682129,-0.0,-0.0,-1.0,0.0835994384856927,1.0,0.0
14.44721221923828,6.437735557556152,-0.0292918682098388,-0.0,-0.0,-1.0,0.2168824213922098,1.0,0.0
13.952903747558594,5.662172317504883,-0.4717257022857666,-0.0,-0.0,-1.0,0.0665617589388889,1.0,0.0
13.52446460723877,6.01722526550293,-0.4782083034515381,-0.0,-0.0,-1.0,0.0159261285543033,1.0,0.0
13.735520362854004,5.891423225402832,-0.4671604633331299,-0.0,-0.0,-1.0,0.0261380361011007,1.0,0.0
13.095905303955078,6.376187324523926,-0.4900221824645996,-0.0,-0.0,-1.0,0.0359306864003865,2.0,0.0
13.319283485412598,6.172720909118652,-0.4854278564453125,-0.0,-0.0,-1.0,0.0137192410552629,1.0,0.0
12.767791748046877,6.741878509521484,-0.4911608695983886,-0.0,-0.0,-1.0,0.0146759432623234,2.0,0.0
12.906843185424805,6.533759117126465,-0.4971015453338623,-0.0,-0.0,-1.0,0.0190817410386306,1.0,0.0
15.041486740112305,5.918840408325195,-0.2940104007720947,0.1959759501129464,0.7096095111078298,-0.6767922640830305,0.135170117360604,5.0,0.0
14.404253959655762,6.444958686828613,-0.2949883937835693,0.7861064910961691,0.3326400711699733,-0.5209483349704682,0.1605188317086463,6.0,0.0
14.46454906463623,6.446406364440918,-0.2866885662078857,0.7287593650374325,0.4825529169630663,-0.485852313157686,0.1844404181323584,11.0,0.0
13.732419967651367,6.000953674316406,-0.5041463375091553,0.6376849201206501,-0.5224431973577484,-0.5660486270501262,0.0253341308195887,4.0,0.0
13.96857452392578,5.822473526000977,-0.4949953556060791,-0.0,-0.0,-1.0,0.0381496658791319,1.0,0.0
15.084141731262209,5.9518232345581055,-0.3276395797729492,-0.8943098822461054,-0.2193415726301902,-0.3899988577330349,0.1131556358617257,3.0,0.0
13.344959259033203,6.363559722900391,-0.5142998695373535,-0.0,-0.0,-1.0,0.0178923620441327,1.0,0.0
13.559950828552246,6.150607109069824,-0.5096335411071777,0.889446604123443,-0.3893423202421511,0.2393685361147813,0.0233246799094079,3.0,0.0
14.884481430053713,6.371325492858887,-0.2942607402801513,-0.0,-0.0,-1.0,0.2037736155807943,1.0,0.0
12.938496589660645,6.710542678833008,-0.5343437194824219,-0.0,-0.0,-1.0,0.0178217672630114,1.0,0.0
13.147932052612305,6.525928497314453,-0.5240755081176758,-0.0,-0.0,-1.0,0.0252784502891439,2.0,0.0
14.5342435836792,6.471881866455078,-0.3283474445343017,0.2454584766876724,0.831249755540102,-0.4987724733149253,0.152338310990194,4.0,0.0
14.791406631469728,6.4426469802856445,-0.2970023155212402,-0.3278975099709527,0.6619856221579811,-0.6739868389004042,0.1537564874994017,3.0,0.0
12.88105010986328,6.966560363769531,-0.5135316848754883,-0.8181647255078391,0.0787757794721682,-0.5695619882885744,0.0227076868561441,4.0,0.0
14.74655818939209,6.256970405578613,-0.4797666072845459,-0.0,-0.0,-1.0,0.1011307718844034,2.0,0.0
15.084432601928713,6.075512886047363,-0.452784776687622,-0.0,-0.0,-1.0,0.0968880819410014,1.0,0.0
14.069809913635254,6.656233787536621,-0.5366806983947754,-0.3565107069878279,-0.934285154147379,0.003371430385909,0.0650862941850248,3.0,0.0
14.33884048461914,6.497320175170898,-0.5128195285797119,-0.0,-0.0,-1.0,0.1481602331131776,1.0,0.0
14.565176963806152,6.4396209716796875,-0.4845833778381347,0.3881798356635227,0.2977820316724483,-0.8721480819203064,0.1902575899846857,5.0,0.0
14.076746940612791,6.970001220703125,-0.4997069835662842,-0.0,-0.0,-1.0,0.0903401209535943,2.0,0.0
14.202956199645996,7.178647041320801,-0.4557034969329834,0.5736136682119611,-0.7817005202089758,-0.244768577120174,0.0864555789656254,6.0,0.0
14.361111640930176,7.517779350280762,-0.3921792507171631,-0.5001145694492676,-0.8208451134227994,-0.2758599593896976,0.053255145815568,6.0,0.0
14.659307479858398,6.5924882888793945,-0.5714962482452393,-0.0,-0.0,-1.0,0.1061117091313398,2.0,0.0
14.796246528625488,6.4340925216674805,-0.5679047107696533,-0.0,-0.0,-1.0,0.1226722020446803,2.0,0.0
14.884538650512695,6.414202690124512,-0.5564439296722412,0.6212980022797824,0.4445813696234072,-0.6452411937771231,0.1970639388195548,3.0,0.0
14.967947959899902,6.489459991455078,-0.5348706245422363,-0.0,-0.0,-1.0,0.1894767877374794,1.0,0.0
15.046989440917969,7.222135066986084,-0.5850951671600342,-0.8366122538486863,0.1644986184374721,-0.522513292885821,0.0193063851686385,3.0,0.0
15.06146240234375,7.929637908935547,-0.5932252407073975,-0.0,-0.0,-1.0,0.0130869660282978,1.0,0.0
13.274772644042969,8.06303596496582,-0.5805785655975342,-0.0,-0.0,-1.0,0.0685579048886331,1.0,0.0
14.52703857421875,8.087960243225098,-0.5161031484603882,0.9788267926944948,0.2046902599063803,8.603991588949029e-05,0.0533644981806315,3.0,0.0
14.60250473022461,7.838356018066406,-0.5102615356445312,-0.0,-0.0,-1.0,0.0610384301660456,1.0,0.0
14.640335083007812,7.463122844696045,-0.505540132522583,-0.0,-0.0,-1.0,0.0720595067050775,1.0,0.0
14.596981048583984,6.927926063537598,-0.5041528940200806,-0.0,-0.0,-1.0,0.2189517553605789,1.0,0.0
14.18975830078125,6.673954010009766,-0.5234975814819336,-0.0,-0.0,-1.0,0.0878101824442191,2.0,0.0
14.11016845703125,6.396342754364014,-0.5259356498718262,-0.0,-0.0,-1.0,0.0616048230193885,2.0,0.0
14.664653778076172,7.068428039550781,-0.5015819072723389,0.1778307666072326,-0.9386484791258004,-0.2954915414740419,0.1837785982655027,4.0,0.0
14.698806762695312,6.239199638366699,-0.4948703050613403,-0.0,-0.0,-1.0,0.0515736881653199,2.0,0.0
14.524085998535156,8.102087020874023,-0.5341598987579346,0.2839503296536635,-0.7321011641754148,-0.6191931004965878,0.0167570405738128,3.0,0.0
14.63534927368164,7.793142318725586,-0.5254300832748413,-0.0,-0.0,-1.0,0.0438392514475534,2.0,0.0
14.623275756835938,7.404815196990967,-0.5226224660873413,-0.9623837439879952,0.0590208868283406,-0.2652057017215981,0.0882811386083299,5.0,0.0
14.607295989990234,7.1505818367004395,-0.521327018737793,-0.0,-0.0,-1.0,0.1479417689101055,2.0,0.0
14.22260284423828,6.772660255432129,-0.5384647846221924,-0.0,-0.0,-1.0,0.0208438384154676,1.0,0.0
14.119762420654297,6.497542381286621,-0.5417591333389282,-0.0,-0.0,-1.0,0.0416348404663679,1.0,0.0
14.550395965576172,6.3690924644470215,-0.5183062553405762,0.3988207809772124,-0.909841771060894,-0.1145859340997063,0.1061866870030763,6.0,0.0
12.754417419433594,6.017831325531006,-0.3440480232238769,0.7229008393100511,-0.0151665582434206,-0.6907853154460312,0.0470851045569903,4.0,0.0
12.887557983398438,5.835104942321777,-0.339266300201416,-0.2003359563312625,-0.6819017111338034,-0.7034739234354243,0.0435139749925291,3.0,0.0
13.070735931396484,5.661597728729248,-0.3322809934616089,-0.0,-0.0,-1.0,0.0327018303370044,1.0,0.0
14.415424346923828,7.388924598693848,-0.4019404649734497,-0.0,-0.0,-1.0,0.1717099265864926,1.0,0.0
13.09957504272461,6.442588806152344,-0.4775954484939575,0.7799714249399644,0.3340379025029171,-0.5292100301095708,0.0278813462581125,3.0,0.0
14.225791931152344,7.04498815536499,-0.4158029556274414,-0.0,-0.0,-1.0,0.0682043953355895,2.0,0.0
13.942073822021484,6.751376628875732,-0.4334633350372314,-0.0,-0.0,-1.0,0.0790588019480497,2.0,0.0
13.27387237548828,6.334310531616211,-0.471108078956604,-0.0,-0.0,-1.0,0.0191641454019009,1.0,0.0
13.651180267333984,5.882743835449219,-0.4606322050094604,0.3236080541138578,-0.6971619522395344,-0.639721063950691,0.0219493905127333,5.0,0.0
15.12152099609375,6.341169357299805,-0.3846167325973511,-0.0,-0.0,-1.0,0.0652709503572572,2.0,0.0
14.886085510253906,6.433127403259277,-0.3941706418991089,-0.0,-0.0,-1.0,0.1870444097380925,2.0,0.0
13.826068878173828,5.772346019744873,-0.4542697668075561,-0.0,-0.0,-1.0,0.0240247942316188,1.0,0.0
15.145469665527344,6.039685249328613,-0.3883707523345947,-0.0,-0.0,-1.0,0.126051091772269,2.0,0.0
14.294219970703123,7.665390968322754,-0.3930788040161133,-0.8616469156071576,-0.4586211389986425,-0.2173275032945895,0.1304159974109839,5.0,0.0
14.149280548095703,7.406391143798828,-0.3983837366104126,-0.0,-0.0,-1.0,0.1395294663709295,1.0,0.0
13.98681640625,7.137304306030273,-0.4045678377151489,-0.0,-0.0,-1.0,0.1751887772941641,1.0,0.0
12.73293685913086,6.6134443283081055,-0.4637264013290405,-0.0,-0.0,-1.0,0.0132598999295215,1.0,0.0
12.823474884033203,6.370799541473389,-0.4576809406280517,-0.0,-0.0,-1.0,0.021724597716848,2.0,0.0
13.495532989501951,5.78536319732666,-0.4208680391311645,-0.0,-0.0,-1.0,0.0318330824222632,1.0,0.0
13.17328643798828,6.039495944976807,-0.4382886886596679,-0.0,-0.0,-1.0,0.0294814144598256,2.0,0.0
14.214515686035156,7.283010482788086,-0.3229386806488037,-0.0159188815976903,-0.3802284529809064,-0.9247555962266056,0.1440314671578734,4.0,0.0
13.122417449951172,5.71628999710083,-0.3803956508636474,-0.0,-0.0,-1.0,0.0361759827514245,2.0,0.0
12.87189483642578,5.921606540679932,-0.3919676542282104,-0.0,-0.0,-1.0,0.0722864206378473,1.0,0.0
14.201282501220703,7.24815559387207,-0.3064655065536499,-0.4681211104323889,-0.2260176199577903,-0.8542708361147319,0.1205652087647394,3.0,0.0
14.063220977783203,7.060331344604492,-0.3164048194885254,-0.0,-0.0,-1.0,0.1162774845560828,1.0,0.0
14.515583038330078,6.257025241851807,-0.3099863529205322,-0.0,-0.0,-1.0,0.1385144310439806,2.0,0.0
13.109664916992188,5.7546162605285645,-0.3855831623077392,-0.0,-0.0,-1.0,0.0279000645441807,2.0,0.0
12.728523254394531,6.105494499206543,-0.3969281911849975,-0.7162765274133616,-0.677752298379866,-0.1661317498778149,0.0293792821210551,5.0,0.0
14.11561393737793,6.999229907989502,-0.4611793756484985,0.1577880259417192,-0.4607644049460256,-0.8733837083459653,0.0987470130779367,3.0,0.0
13.992959976196287,6.800220966339111,-0.4791996479034424,-0.0,-0.0,-1.0,0.0621669676398222,2.0,0.0
13.831073760986328,6.598155498504639,-0.4992457628250122,-0.0,-0.0,-1.0,0.0816595132023677,1.0,0.0
13.140926361083984,6.349759578704834,-0.5459685325622559,-0.0,-0.0,-1.0,0.0346285273046548,2.0,0.0
14.314990997314451,7.423384666442871,-0.4258668422698974,-0.1585116097558607,-0.1610549357496155,-0.9741331414356524,0.0918940345987799,3.0,0.0
14.245019912719728,7.188979148864746,-0.4435219764709472,0.4057966320684862,0.1861628599861405,-0.8948030414363011,0.0828358870144615,5.0,0.0
14.970256805419922,6.259366035461426,-0.4701341390609741,-0.2030746582830979,-0.0487627470520102,-0.977948300097272,0.1732404605727683,4.0,0.0
14.519582748413086,6.390148639678955,-0.4817523956298828,0.4192574835490662,0.1158639711283401,-0.9004436143826419,0.1401909155194244,6.0,0.0
15.20357894897461,5.8079118728637695,-0.4894232749938965,-0.0,-0.0,-1.0,0.1349976750461158,1.0,0.0
14.978830337524414,6.04091739654541,-0.4840070009231567,-0.4415862094922343,-0.514050644165637,-0.7353594731960512,0.1221059802183537,4.0,0.0
14.393217086791992,7.630146503448486,-0.4249649047851562,-0.9568042692151963,0.1067301707470525,0.2704334688308363,0.1097751732293411,6.0,0.0
14.337812423706056,7.787272930145264,-0.4231011867523193,-0.7659444349609548,0.6426525197639895,-0.0180793084308716,0.0960770349873588,5.0,0.0
12.828081130981444,7.991526126861572,-0.4946457147598266,-0.0,-0.0,-1.0,0.0700834970776986,1.0,0.0
14.37877082824707,7.276003360748291,-0.4363788366317749,-0.0,-0.0,-1.0,0.126986669707408,1.0,0.0
12.978876113891602,7.730391025543213,-0.4946637153625488,-0.0,-0.0,-1.0,0.0780798911423448,1.0,0.0
14.186290740966797,7.106295585632324,-0.4513883590698242,0.4009364954969266,-0.6309885147793599,0.6641561719920854,0.0879231704491008,3.0,0.0
14.037628173828123,6.855591297149658,-0.4666266441345215,-0.0,-0.0,-1.0,0.0810784892912222,2.0,0.0
15.045068740844728,6.186314105987549,-0.4354888200759887,-0.6713740608003559,-0.2086260774483253,-0.7111483883782382,0.0920097518094617,3.0,0.0
14.51024055480957,6.342683792114258,-0.4580713510513305,-0.0,-0.0,-1.0,0.1485415388693624,2.0,0.0
13.843643188476562,6.536630630493164,-0.4863049983978271,0.8081565910838637,0.5750231445355741,0.1274021488677824,0.0688767172932838,3.0,0.0
14.013916015625,6.066349029541016,-0.4920065402984619,-0.0,-0.0,-1.0,0.0850533488699573,1.0,0.0
14.4024658203125,7.863068103790283,-0.4298042058944702,0.2705467996850336,0.709106988178516,-0.6511310993160904,0.128116247605812,5.0,0.0
13.134458541870115,8.113609313964844,-0.4873417615890503,-0.0,-0.0,-1.0,0.1521798583155295,1.0,0.0
14.45998191833496,7.274380207061768,-0.4484425783157348,-0.0,-0.0,-1.0,0.1314831360803711,1.0,0.0
14.412052154541016,7.476881980895996,-0.4434868097305298,-0.8040546754775539,0.1528087832223607,0.5745829397160928,0.094042563114273,3.0,0.0
14.28256607055664,7.019244194030762,-0.4672036170959472,-0.0,-0.0,-1.0,0.0497978932503913,1.0,0.0
14.408220291137695,6.456882953643799,-0.4815675020217895,-0.0,-0.0,-1.0,0.2337848190162694,2.0,0.0
14.072433471679688,6.704830646514893,-0.4899181127548218,-0.0,-0.0,-1.0,0.0607533197723205,1.0,0.0
12.733234405517578,5.845101833343506,-0.3688653707504272,-0.7306526152230195,0.665306118785894,-0.1533444624817351,0.0709876613353334,3.0,0.0
12.894338607788086,5.665299415588379,-0.3638142347335815,-0.0,-0.0,-1.0,0.0628702980978193,2.0,0.0
14.448505401611328,7.711512088775635,-0.4440568685531616,-0.2738458409382184,0.0159605670023886,-0.961641157450014,0.132250209747054,4.0,0.0
14.39866065979004,7.459018230438232,-0.4574756622314453,-0.8040546754775539,0.1528087832223607,0.5745829397160928,0.1161210577259963,3.0,0.0
13.104230880737305,7.689052581787109,-0.522581934928894,0.4193551282145107,0.9077278527825636,-0.0130928118808821,0.0648217107520148,3.0,0.0
12.837028503417969,7.883764266967773,-0.5301011800765991,-0.1207006347177808,-0.8636629469610412,-0.4894054258233084,0.0568526205008943,4.0,0.0
14.23757553100586,7.127069473266602,-0.4807595014572143,-0.0,-0.0,-1.0,0.0928230070430878,1.0,0.0
14.522092819213867,6.41939640045166,-0.4950617551803589,0.424274542451629,-0.5576275745353995,-0.7134722144170915,0.1552931272706496,8.0,0.0
13.991254806518556,6.7698798179626465,-0.5101646184921265,0.9809194081708024,-0.1631046042927634,0.1058017142221407,0.0635225394505809,3.0,0.0
15.165307998657228,6.126988410949707,-0.4714421033859253,-0.0,-0.0,-1.0,0.0805817564476669,2.0,0.0
14.403837203979492,6.194427490234375,-0.51172935962677,-0.0,-0.0,-1.0,0.0704600647787973,1.0,0.0
14.079776763916016,6.439897060394287,-0.5194045305252075,0.4537564896613222,0.7818199287444773,0.4276244229557229,0.0552067878875794,3.0,0.0
13.854793548583984,6.530269145965576,-0.5283234119415283,-0.0,-0.0,-1.0,0.0636155261020328,2.0,0.0
15.073297500610352,7.981906890869141,-0.5865557193756104,-0.0,-0.0,-1.0,0.0153787720165715,2.0,0.0
14.894725799560549,8.09516429901123,-0.5955798625946045,-0.0,-0.0,-1.0,0.0166827244318451,1.0,0.0
15.12546157836914,7.807776927947998,-0.5893205404281616,0.0860937311963363,0.3290899552482374,-0.9403657112014489,0.0154184536189836,3.0,0.0
14.45876693725586,7.979989528656006,-0.5177695751190186,-0.0,-0.0,-1.0,0.0716169484041075,2.0,0.0
14.640104293823242,7.388382911682129,-0.5328433513641357,-0.9064071123954744,-0.3993458008826472,-0.1376556497797851,0.0816671643322922,6.0,0.0
14.474224090576172,7.633942604064941,-0.532738447189331,0.166826907305303,0.937662682891701,0.304889285005697,0.0786579134290353,4.0,0.0
13.384090423583984,8.046253204345703,-0.5894231796264648,-0.0,-0.0,-1.0,0.0222004596213949,1.0,0.0
14.7867431640625,6.890377998352051,-0.5466349124908447,-0.0,-0.0,-1.0,0.0422300279867666,2.0,0.0
14.675031661987305,7.144561767578125,-0.5420608520507812,-0.8104365953425055,0.0073381246151873,-0.5857803998571308,0.203922663282288,3.0,0.0
14.708251953125,6.778224945068359,-0.5574564933776855,-0.0,-0.0,-1.0,0.0277337778889441,1.0,0.0
14.500326156616213,6.863613128662109,-0.5675606727600098,-0.0,-0.0,-1.0,0.0700511290356924,2.0,0.0
12.740804672241213,6.047239303588867,-0.3611505031585693,-0.8779500373857642,-0.46719753339998,-0.1045475807434574,0.0359052583026376,3.0,0.0
13.110067367553713,5.793540000915527,-0.3527095317840576,-0.0,-0.0,-1.0,0.0243993314868575,1.0,0.0
12.808677673339844,5.986091613769531,-0.3602283000946045,-0.0,-0.0,-1.0,0.0496100300257809,1.0,0.0
15.019491195678713,5.987743377685547,-0.2416306734085083,-0.4724122024652075,0.8443717056295491,-0.2527115622487779,0.1393875102347468,6.0,0.0
13.316734313964844,5.793218612670898,-0.4213511943817138,-0.0,-0.0,-1.0,0.0682962601771397,1.0,0.0
12.91963005065918,6.0814313888549805,-0.431421160697937,-0.8338992559920506,0.5236879007793962,0.1742498592056053,0.0774193676540334,4.0,0.0
12.754972457885742,6.275040626525879,-0.4321485757827759,-0.2482621208883081,-0.5459650606540105,-0.800180024667638,0.02111971554242,6.0,0.0
14.441770553588867,6.430596351623535,-0.3217003345489502,0.4887949570013005,0.8387582085886878,-0.239925316578289,0.2003324182280861,9.0,0.0
15.003559112548828,5.870065689086914,-0.3157767057418823,-0.3433902306222131,-0.2662171370815828,-0.9006728515045345,0.1198793278343653,4.0,0.0
14.193181991577148,7.298470497131348,-0.3288012742996216,-0.5833930654971772,-0.8119835300139463,-0.0183106011888535,0.1445019648839727,3.0,0.0
13.99325942993164,7.000517845153809,-0.3573023080825805,-0.0,-0.0,-1.0,0.1112536098824385,1.0,0.0
14.546205520629885,6.460768699645996,-0.3501995801925659,-0.1318604499228149,0.8525422242435337,-0.5057514978999488,0.158986862957837,3.0,0.0
13.313310623168944,6.110204696655273,-0.4482554197311401,-0.0,-0.0,-1.0,0.0144428554261896,2.0,0.0
13.108680725097656,6.220094680786133,-0.455662727355957,-0.0,-0.0,-1.0,0.0301992963857228,1.0,0.0
12.935108184814451,6.3358564376831055,-0.4608141183853149,-0.0,-0.0,-1.0,0.0188439591923019,2.0,0.0
13.384632110595703,5.917384147644043,-0.4539864063262939,-0.0,-0.0,-1.0,0.0198587896183011,1.0,0.0
14.460088729858398,6.433123588562012,-0.2191288471221923,0.1438374035213659,0.3549281405576241,-0.9237623159604093,0.1423373575690626,6.0,0.0
12.998416900634766,5.805638313293457,-0.3427715301513672,-0.9207823172086208,0.3752077730902537,-0.1066726362689863,0.0311118732958585,3.0,0.0
12.74480438232422,5.990550994873047,-0.3553140163421631,0.4379873549155547,0.2069449254897883,-0.8748376276476121,0.0445706994650843,3.0,0.0
14.457009315490724,6.440648078918457,-0.2740072011947632,0.7434617935401008,0.2207275021119334,-0.6313033592161241,0.1826377377912725,12.0,0.0
14.99077320098877,5.945202827453613,-0.2664870023727417,-0.8339178379693146,0.4715127818193766,-0.2868043516014649,0.1308211904912326,6.0,0.0
13.054729461669922,5.901050567626953,-0.3944429159164428,-0.2379164444224657,-0.8679573815214032,-0.4359423692827772,0.046975807988812,3.0,0.0
12.827009201049805,6.088338851928711,-0.3995903730392456,-0.8961258787839317,0.0729282273029524,-0.4377669277551407,0.0626620535116395,5.0,0.0
13.194520950317385,5.784302711486816,-0.3914915323257446,-0.6418911507011278,-0.760979434857412,0.094265849466685,0.0628189101530254,4.0,0.0
14.54194450378418,8.125946998596191,-0.5541810989379883,-0.0,-0.0,-1.0,0.0166109847574289,2.0,0.0
14.933523178100586,7.619531631469727,-0.5555886030197144,-0.0,-0.0,-1.0,0.0138849181781997,2.0,0.0
14.57201099395752,7.804097175598144,-0.5738552808761597,-0.0,-0.0,-1.0,0.0644930375080813,2.0,0.0
14.86659812927246,7.261530876159668,-0.5870970487594604,-0.9053467911327732,-0.1187475160763596,0.4077330195253816,0.0217761060616471,4.0,0.0
14.679557800292969,7.479643821716309,-0.5874429941177368,-0.0,-0.0,-1.0,0.0618552655910339,2.0,0.0
14.956557273864746,7.0073089599609375,-0.5980573892593384,-0.8282550137089283,0.3761827272478233,-0.4153073415994631,0.0255262116477135,3.0,0.0
14.32167625427246,8.07475471496582,-0.473311185836792,-0.0,-0.0,-1.0,0.120537524808318,2.0,0.0
14.463388442993164,7.669089317321777,-0.4936072826385498,-0.0779398717291986,0.1931053955690168,-0.9780775442657754,0.082984729904292,4.0,0.0
14.38379955291748,7.884096145629883,-0.4831051826477051,-0.8432405683335534,0.0426105024766535,-0.5358448366786723,0.1271684609740755,4.0,0.0
13.308810234069824,7.811971664428711,-0.5753651857376099,-0.3192681503644771,0.8871446483931147,0.3332299821299139,0.0265381478495112,4.0,0.0
13.180559158325195,8.037981033325195,-0.5689330101013184,-0.0,-0.0,-1.0,0.1434793045391011,2.0,0.0
14.480965614318848,7.39194393157959,-0.5142815113067627,0.1437954802279147,-0.7207606535067167,-0.6781054049501404,0.15653650278483,5.0,0.0
14.367419242858888,7.363313674926758,-0.5254466533660889,-0.0,-0.0,-1.0,0.1911905958585342,2.0,0.0
13.416553497314451,7.706961631774902,-0.5745819807052612,-0.0,-0.0,-1.0,0.0133425276919005,1.0,0.0
14.596409797668455,7.071408271789551,-0.5310953855514526,-0.8286517014835821,-0.5503477213831017,0.1022435484360381,0.1981966767603585,3.0,0.0
14.870198249816896,6.56894588470459,-0.5516494512557983,0.0282318602989082,-0.7048574402392056,-0.7087869574163299,0.1537462867944042,3.0,0.0
14.514965057373049,6.699248313903809,-0.5678939819335938,-0.0,-0.0,-1.0,0.0214512181818,1.0,0.0
14.203128814697266,8.019542694091797,-0.4455474615097046,-0.0,-0.0,-1.0,0.0521022007968815,1.0,0.0
14.015933990478516,7.953673362731934,-0.4645566940307617,-0.0,-0.0,-1.0,0.052562501519138,1.0,0.0
14.358169555664062,7.757476806640625,-0.4622995853424072,-0.0,-0.0,-1.0,0.1185542496799038,2.0,0.0
13.932162284851074,7.698246002197266,-0.4960438013076782,-0.0,-0.0,-1.0,0.1002781081446284,1.0,0.0
13.351068496704102,7.626826286315918,-0.5415583848953247,-0.0,-0.0,-1.0,0.0113211309527512,2.0,0.0
13.140116691589355,7.791717529296875,-0.5391033887863159,-0.0,-0.0,-1.0,0.0532866921501534,1.0,0.0
14.530314445495604,7.228006362915039,-0.5064636468887329,-0.0,-0.0,-1.0,0.1598227955249212,2.0,0.0
14.40682601928711,7.395698547363281,-0.4966795444488525,-0.0,-0.0,-1.0,0.1745942007382338,2.0,0.0
14.83467960357666,6.88914680480957,-0.5236169099807739,-0.0,-0.0,-1.0,0.0444806750409573,2.0,0.0
14.502423286437988,6.875936508178711,-0.5455300807952881,-0.9944797666129996,-0.0161193108485939,0.1036829861410292,0.1777122571300489,3.0,0.0
15.12429428100586,6.641115188598633,-0.5329245328903198,-0.0,-0.0,-1.0,0.0424274092316682,2.0,0.0
14.702545166015623,6.650053024291992,-0.5574518442153931,-0.0,-0.0,-1.0,0.086599097718094,2.0,0.0
12.751172065734863,7.990443229675293,-0.5319217443466187,-0.0,-0.0,-1.0,0.0705943435341542,1.0,0.0
13.063516616821287,7.756768226623535,-0.535212516784668,-0.1280284587536851,0.9720906949828806,0.1965919491659215,0.0990120069573178,3.0,0.0
14.386330604553224,7.649173736572266,-0.4589629173278808,-0.4631328806645669,0.6431129179328714,0.6098472838631058,0.1080089708207743,4.0,0.0
14.133370399475098,7.737871170043945,-0.4656715393066406,-0.0,-0.0,-1.0,0.0703136105705546,1.0,0.0
13.624404907226562,7.440574645996094,-0.5317598581314087,-0.0,-0.0,-1.0,0.1271767651689405,1.0,0.0
13.281499862670898,7.484275817871094,-0.5498092174530029,-0.0,-0.0,-1.0,0.0389795433835309,1.0,0.0
14.36342430114746,7.237595558166504,-0.5063403844833374,-0.0,-0.0,-1.0,0.121794767282842,1.0,0.0
14.248270988464355,7.040454864501953,-0.5357913970947266,-0.0,-0.0,-1.0,0.0559825922946429,1.0,0.0
14.572876930236816,6.705028533935547,-0.5536133050918579,-0.0,-0.0,-1.0,0.0856886183354208,1.0,0.0
14.317368507385254,6.686156272888184,-0.5715993642807007,-0.0,-0.0,-1.0,0.0767422429859262,2.0,0.0
15.088465690612791,6.516809463500977,-0.5441712141036987,-0.0,-0.0,-1.0,0.1150545581164593,1.0,0.0
14.621862411499023,6.554535865783691,-0.5679278373718262,-0.0,-0.0,-1.0,0.0669950439510089,1.0,0.0
14.416481971740724,8.122069358825684,-0.5241860151290894,-0.0,-0.0,-1.0,0.1052968964007036,1.0,0.0
13.84370231628418,8.045919418334961,-0.5796809196472168,-0.0,-0.0,-1.0,0.0276569805298446,1.0,0.0
13.625831604003906,8.09335994720459,-0.5922645330429077,-0.0,-0.0,-1.0,0.0186753175710384,1.0,0.0
14.552285194396973,7.745143890380859,-0.5582879781723022,-0.0,-0.0,-1.0,0.066267000440771,2.0,0.0
14.854361534118652,7.328381538391113,-0.5860227346420288,-0.0,-0.0,-1.0,0.0262952288185278,1.0,0.0
14.63413143157959,7.474005699157715,-0.584801197052002,0.1238045355211048,-0.6435976432813865,0.7552843905093293,0.0656709407983872,3.0,0.0
15.042741775512695,7.1855669021606445,-0.5898065567016602,-0.8366122538486863,0.1644986184374721,-0.522513292885821,0.0189479266769944,3.0,0.0
14.965998649597168,7.650209426879883,-0.5378173589706421,-0.0,-0.0,-1.0,0.0138805210518216,2.0,0.0
14.371271133422852,6.409784317016602,-0.2302554845809936,-0.2026836214475491,0.979189615682096,-0.0103463103208705,0.1523229902930212,4.0,0.0
13.278382301330566,5.684298515319824,-0.3562490940093994,-0.6505823330534535,0.7320735041952703,-0.2020173566156699,0.1032992922795865,3.0,0.0
12.954758644104004,5.766797065734863,-0.3640913963317871,0.6465818102034167,0.4462068995196846,-0.6187336790050332,0.0366278685178388,4.0,0.0
14.998994827270508,5.983450889587402,-0.2449185848236084,-0.7329049027853402,0.4987664292466301,-0.4626904500092662,0.1366392281494377,6.0,0.0
12.71825885772705,7.6080427169799805,-0.5007733106613159,-0.0,-0.0,-1.0,0.0187054129767777,2.0,0.0
13.00085735321045,7.325336456298828,-0.5065821409225464,0.1857004209974808,0.7127113655995689,-0.6764302351215207,0.0364452199987253,5.0,0.0
12.91617202758789,7.17890739440918,-0.5289276838302612,0.0131878774678092,0.6764614474909135,-0.7363599594942624,0.0207082038043484,5.0,0.0
13.462881088256836,6.989831924438477,-0.5052824020385742,-0.0,-0.0,-1.0,0.0408482854541969,2.0,0.0
13.201473236083984,7.014517784118652,-0.5234196186065674,-0.0,-0.0,-1.0,0.0284348152564437,1.0,0.0
14.036871910095217,6.889373779296875,-0.4719491004943847,-0.0,-0.0,-1.0,0.0891849200843691,2.0,0.0
13.908979415893556,6.635834693908691,-0.5101711750030518,-0.0,-0.0,-1.0,0.092151406298635,1.0,0.0
14.52814483642578,6.372314453125,-0.4950540065765381,-0.1738000654690606,0.2325383410290897,-0.9569323158898904,0.1135436486251983,6.0,0.0
14.268733024597168,6.401004791259766,-0.5104097127914429,0.11629885669298,0.9902284745216136,0.076955468801794,0.1001682394047034,3.0,0.0
13.973851203918455,6.456356048583984,-0.5256849527359009,-0.0,-0.0,-1.0,0.0665063208477431,1.0,0.0
14.675948143005373,6.160970687866211,-0.5096055269241333,-0.4764129956849299,-0.7348474307367836,-0.4827317175016146,0.0900089938154074,5.0,0.0
14.50795555114746,5.972689628601074,-0.5435088872909546,-0.0,-0.0,-1.0,0.0565113989481282,2.0,0.0
