x,y,z,nx,ny,nz,curvature,density,label
9.024432182312012,9.91769027709961,-0.3227100372314453,-0.0,-0.0,-1.0,0.0078682508918555,2.0,0.0
9.46636199951172,9.841665267944336,-0.3481698036193847,0.6230554354762529,0.7703120279934753,-0.1357251039862427,0.0232024637622955,3.0,0.0
9.893610000610352,9.727909088134766,-0.3797459602355957,-0.0,-0.0,-1.0,0.0216313026810805,2.0,0.0
10.155113220214844,9.733131408691406,-0.3894088268280029,-0.0,-0.0,-1.0,0.031449724109652,1.0,0.0
9.130575180053713,10.512426376342772,-0.4052491188049316,0.4289683005627049,-0.7627219502583708,-0.4839849416112159,0.0284455114682414,5.0,0.0
9.48237419128418,10.491044998168944,-0.4156591892242431,-0.0,-0.0,-1.0,0.0275914891038913,2.0,0.0
8.334152221679688,8.918325424194336,-0.2691359519958496,-0.0,-0.0,-1.0,0.0529936349894909,1.0,0.0
8.597841262817383,9.064241409301758,-0.2551031112670898,-0.0,-0.0,-1.0,0.0515494463589395,1.0,0.0
8.939640045166016,9.199699401855469,-0.2447538375854492,-0.0,-0.0,-1.0,0.0683055632399931,1.0,0.0
9.024571418762209,9.175848007202148,-0.2503013610839844,-0.482132705331304,0.8706606926789526,-0.0974577481461792,0.0383342735505526,5.0,0.0
9.455312728881836,9.14198875427246,-0.2670407295227051,-0.4768996518080511,0.4513703405630008,-0.754209213524603,0.0239172218446463,3.0,0.0
9.734190940856934,8.98276138305664,-0.2977309226989746,-0.7864906046290043,-0.3553274197022155,-0.5051484471302162,0.02967900126224,3.0,0.0
9.95647430419922,8.82884407043457,-0.3266160488128662,-0.0238791177627125,0.7471137721848515,-0.6642671143046269,0.0263280504187652,3.0,0.0
7.913763523101807,8.208335876464844,-0.1271533966064453,-0.0,-0.0,-1.0,0.0919120599241727,2.0,0.0
8.245357513427734,8.167142868041992,-0.1374189853668213,-0.0,-0.0,-1.0,0.1266935936018229,1.0,0.0
8.58564281463623,8.159296035766602,-0.1441104412078857,-0.0,-0.0,-1.0,0.0249382702540421,1.0,0.0
8.787651062011719,8.780319213867188,-0.0645983219146728,0.9682300420701112,-0.1916417003747469,0.1606363729370987,0.1863153691854153,12.0,0.0
9.40358829498291,8.638910293579102,-0.0961055755615234,-0.0,-0.0,-1.0,0.2348529451224849,1.0,0.0
8.430892944335938,9.748809814453123,-0.1969037055969238,-0.4950714046697058,-0.4745738545365617,-0.7277938999941361,0.116458346416084,5.0,0.0
8.470479965209961,9.23786163330078,-0.2734017372131347,-0.0,-0.0,-1.0,0.019714902636448,1.0,0.0
8.903156280517578,9.277971267700195,-0.2694454193115234,-0.0,-0.0,-1.0,0.0688123938491768,2.0,0.0
9.277923583984377,9.229135513305664,-0.279771089553833,-0.0,-0.0,-1.0,0.0371901113169844,2.0,0.0
9.675508499145508,9.121511459350586,-0.3005363941192627,-0.4331120897217615,0.3801781017315133,-0.8172383548883839,0.0143665725126212,6.0,0.0
9.919416427612305,8.917505264282227,-0.3351707458496094,-0.2443467852005401,-0.5544513400491375,-0.7955365234103817,0.028183622718445,4.0,0.0
10.15692901611328,8.813709259033203,-0.3549981117248535,-0.0,-0.0,-1.0,0.0106124813052515,2.0,0.0
8.922292709350586,10.515060424804688,-0.3581993579864502,-0.0,-0.0,-1.0,0.0281523510381969,1.0,0.0
9.19937515258789,10.352744102478027,-0.3828170299530029,0.0592584321575458,0.1564743569281317,-0.985902740559208,0.0306087353944878,3.0,0.0
9.440668106079102,10.250448226928713,-0.3983101844787597,-0.0,-0.0,-1.0,0.0296110558899306,2.0,0.0
9.58271598815918,10.20449161529541,-0.4053683280944824,-0.0,-0.0,-1.0,0.0207422405673929,1.0,0.0
10.09193229675293,10.085098266601562,-0.4247677326202392,-0.0,-0.0,-1.0,0.0231588384129473,1.0,0.0
8.76897144317627,8.77617073059082,-0.0019080638885498,0.5617863943602772,-0.8239516205766675,-0.0741604615732811,0.2473008496162507,8.0,0.0
8.099455833435059,9.121548652648926,-0.2580363750457763,-0.0,-0.0,-1.0,0.0143425182717768,1.0,0.0
8.315555572509766,9.85823917388916,-0.1401646137237548,-0.2196997149670626,0.0521929010567558,-0.9741703836201712,0.1235278930051083,4.0,0.0
8.348140716552734,9.079792976379396,-0.2567989826202392,-0.0,-0.0,-1.0,0.0200173375175682,1.0,0.0
8.724604606628418,9.094152450561523,-0.2441415786743164,-0.0,-0.0,-1.0,0.0682276016484204,1.0,0.0
9.05275535583496,9.135090827941896,-0.2297327518463134,-0.0,-0.0,-1.0,0.0355092919884907,2.0,0.0
9.266218185424805,8.987775802612305,-0.2480015754699707,-0.0,-0.0,-1.0,0.0164657868581261,1.0,0.0
9.504149436950684,8.859273910522461,-0.2635900974273681,-0.0,-0.0,-1.0,0.0313594129977643,2.0,0.0
9.740920066833496,8.570886611938477,-0.3054521083831787,-0.1175012425612244,-0.6804936344253248,-0.723271644337852,0.0251656340496402,3.0,0.0
9.920198440551758,8.363025665283203,-0.3361458778381347,0.8607241136979741,-0.4788554086455024,0.172775859742573,0.0200418576147615,3.0,0.0
10.18136215209961,8.327905654907227,-0.3391740322113037,-0.0,-0.0,-1.0,0.0112438165292451,2.0,0.0
8.77805233001709,8.725229263305664,0.3253176212310791,-0.0,-0.0,-1.0,0.1422231288448972,2.0,1.0
8.64384651184082,10.33223819732666,-0.3519666194915771,-0.0,-0.0,-1.0,0.0883708000488858,1.0,0.0
8.788076400756836,8.828093528747559,-0.0162880420684814,0.9589958376236776,-0.0847231178391848,-0.2704606750048299,0.2193879298882732,5.0,0.0
8.819683074951172,10.21875,-0.3630080223083496,-0.0,-0.0,-1.0,0.0136580145887076,1.0,0.0
9.025733947753906,10.152924537658691,-0.3649377822875976,-0.0,-0.0,-1.0,0.0088126694929335,1.0,0.0
9.357843399047852,10.043657302856444,-0.3700788021087646,-0.0,-0.0,-1.0,0.0207295971448707,1.0,0.0
9.607810020446776,9.893004417419434,-0.3874034881591797,-0.0,-0.0,-1.0,0.0282451718960357,2.0,0.0
9.887371063232422,9.804068565368652,-0.3938972949981689,0.0342203356505169,0.4086411907846027,-0.9120533678585414,0.0223055683158956,3.0,0.0
7.818317413330078,9.484196662902832,-0.3032903671264648,-0.0,-0.0,-1.0,0.1109190177021473,1.0,0.0
8.328094482421875,9.897608757019045,-0.2031216621398925,0.7407787877642569,0.1297156863120868,-0.6591059310331705,0.1177733410101954,3.0,0.0
8.399016380310059,9.485020637512209,-0.2657759189605713,-0.0,-0.0,-1.0,0.041211160929782,2.0,0.0
8.560962677001953,9.3450345993042,-0.2791182994842529,-0.0,-0.0,-1.0,0.0309626257160112,1.0,0.0
8.907974243164062,9.303547859191896,-0.2664647102355957,-0.0,-0.0,-1.0,0.0723407726098899,2.0,0.0
9.239341735839844,9.227056503295898,-0.2619614601135254,-0.0,-0.0,-1.0,0.0330589188082012,2.0,0.0
9.472558975219728,9.071372032165527,-0.2773451805114746,-0.0,-0.0,-1.0,0.0200691571678549,2.0,0.0
9.64622688293457,8.9527006149292,-0.2900173664093017,-0.0,-0.0,-1.0,0.0243758390240099,1.0,0.0
9.828744888305664,8.660558700561523,-0.3335645198822021,-0.0,-0.0,-1.0,0.0137256252519624,2.0,0.0
10.04942512512207,8.502585411071777,-0.3529651165008545,-0.0,-0.0,-1.0,0.0115878655539578,1.0,0.0
7.859886169433594,9.62187385559082,-0.3044233322143554,-0.0,-0.0,-1.0,0.1609847265797142,1.0,0.0
8.306278228759766,9.897453308105469,-0.2276718616485595,0.7407787877642569,0.1297156863120868,-0.6591059310331705,0.0814301327875589,3.0,0.0
8.451146125793457,9.471649169921877,-0.2947683334350586,-0.0,-0.0,-1.0,0.0607601137014789,2.0,0.0
8.477066993713379,9.805013656616213,-0.2335495948791504,-0.7737758460485689,-0.6003575780208468,-0.2020933412677512,0.079672377648153,3.0,0.0
8.7549409866333,9.3807373046875,-0.2942929267883301,0.7017618921418943,-0.1534397037724293,-0.6956913856327798,0.0691543100351542,3.0,0.0
8.97397518157959,9.349672317504885,-0.288388729095459,-0.0,-0.0,-1.0,0.0687383315762615,1.0,0.0
9.191558837890623,9.272075653076172,-0.2920308113098144,-0.0,-0.0,-1.0,0.0278287964500629,1.0,0.0
9.531753540039062,9.15783405303955,-0.2977795600891113,-0.0,-0.0,-1.0,0.0190406679665929,1.0,0.0
9.766693115234377,8.955756187438965,-0.3265950679779053,-0.0,-0.0,-1.0,0.0265155045071444,1.0,0.0
9.93425750732422,8.808730125427246,-0.3484399318695068,-0.0238791177627125,0.7471137721848515,-0.6642671143046269,0.0274110730784379,3.0,0.0
10.174077987670898,8.653090476989746,-0.3706297874450683,-0.921592313368383,0.3516359752717625,-0.1643768500579943,0.0139944296212157,3.0,0.0
7.819039344787598,9.715863227844238,-0.248514175415039,-0.0,-0.0,-1.0,0.1583364789002176,2.0,0.0
7.722864151000977,9.489402770996094,-0.2948668003082275,0.4367066588766912,-0.3869005571475557,-0.8121546976849106,0.1158118873542665,3.0,0.0
7.8581743240356445,9.871310234069824,-0.2190895080566406,-0.0,-0.0,-1.0,0.1329961617257377,2.0,0.0
8.23589038848877,9.372688293457031,-0.2726602554321289,-0.0,-0.0,-1.0,0.029239011869372,1.0,0.0
8.339215278625488,9.34445571899414,-0.2694480419158935,0.5490410884830045,-0.1598798020335979,-0.8203610985773859,0.0322314594864208,3.0,0.0
8.519489288330078,9.258203506469728,-0.2708261013031006,-0.0,-0.0,-1.0,0.0173785417979514,2.0,0.0
8.794319152832031,9.218704223632812,-0.25746750831604,-0.0,-0.0,-1.0,0.0351858450725747,1.0,0.0
9.218682289123535,10.59334659576416,-0.445279598236084,-0.0,-0.0,-1.0,0.0272776490862277,1.0,0.0
9.145455360412598,9.044161796569824,-0.2645213603973388,-0.5817480186790865,-0.5750163416742801,-0.5752612011690732,0.0205519657155077,3.0,0.0
9.42939567565918,8.832883834838867,-0.2854700088500976,-0.0,-0.0,-1.0,0.0333950599386702,1.0,0.0
9.494091033935549,10.523293495178224,-0.432356595993042,-0.0,-0.0,-1.0,0.0244744666273381,2.0,0.0
9.754873275756836,8.512476921081543,-0.3261888027191162,-0.0,-0.0,-1.0,0.0208024468568798,1.0,0.0
9.97673225402832,8.314854621887207,-0.3518178462982178,-0.0,-0.0,-1.0,0.017190016551435,2.0,0.0
10.008403778076172,10.180071830749512,-0.4571893215179443,-0.0,-0.0,-1.0,0.0143959586959819,1.0,0.0
10.16700553894043,8.397543907165527,-0.3261466026306152,-0.0,-0.0,-1.0,0.0116678032713033,1.0,0.0
8.16916275024414,9.863759994506836,-0.193805456161499,-0.0,-0.0,-1.0,0.1421866585470711,2.0,0.0
8.368831634521484,8.606917381286621,0.1342799663543701,-0.0,-0.0,-1.0,0.07709927739172,1.0,1.0
8.355618476867676,9.826403617858888,-0.1847469806671142,-0.3523324685871921,0.932182561341948,-0.0830512125692347,0.1800549127093564,8.0,0.0
8.397586822509766,9.728754997253418,-0.198129653930664,-0.8924718939227922,0.3322017956214076,0.3051817254420334,0.1390393362344349,6.0,0.0
9.010961532592772,9.173649787902832,-0.2502403259277344,-0.482132705331304,0.8706606926789526,-0.0974577481461792,0.0383342735505526,5.0,0.0
9.130814552307127,9.195085525512695,-0.2380237579345703,-0.0,-0.0,-1.0,0.0258870420766928,2.0,0.0
9.39618968963623,8.944700241088867,-0.2665307521820068,-0.505005538122586,0.825987024875771,0.2504293137841284,0.0296524544826187,3.0,0.0
8.811260223388672,8.791759490966797,0.1842174530029297,-0.0,-0.0,-1.0,0.1267578065310442,2.0,1.0
7.862237930297852,8.379953384399414,-0.2336962223052978,-0.0,-0.0,-1.0,0.0255072965968799,2.0,0.0
8.155609130859375,8.247386932373047,-0.2323801517486572,-0.0,-0.0,-1.0,0.1984138054518337,1.0,0.0
8.393444061279297,8.17416000366211,-0.2266590595245361,-0.0,-0.0,-1.0,0.0338505655070365,1.0,0.0
8.721766471862793,8.814432144165039,-0.0923070907592773,0.2833594549039946,-0.7043285287587725,0.6508676846280004,0.2506625877647017,4.0,0.0
8.417329788208008,8.586458206176758,-0.1545348167419433,-0.0,-0.0,-1.0,0.1824141723082619,1.0,0.0
7.757262229919434,9.90162467956543,-0.0015919208526611,-0.8108548102589336,0.5847666451446522,0.0237159736510498,0.1365505320835218,7.0,0.0
8.826892852783203,8.799372673034668,-0.0868933200836181,0.2245850005043277,-0.972853481918488,-0.0558361913775046,0.1790851314912811,11.0,0.0
9.432788848876951,8.43936538696289,-0.1077969074249267,-0.0,-0.0,-1.0,0.1760652141684394,1.0,0.0
7.711922645568848,9.004955291748047,-0.2578465938568115,-0.0,-0.0,-1.0,0.0127306222438803,2.0,0.0
7.909499168395996,8.754318237304688,-0.2748990058898926,-0.0,-0.0,-1.0,0.0215641652591004,2.0,0.0
8.164158821105957,8.675567626953125,-0.2608363628387451,-0.0,-0.0,-1.0,0.067877644955986,1.0,0.0
8.400272369384766,8.454572677612305,-0.2728581428527832,-0.0,-0.0,-1.0,0.0679878513757823,2.0,0.0
8.64412784576416,8.305974960327148,-0.2738113403320312,-0.0,-0.0,-1.0,0.0273267274758249,1.0,0.0
8.922850608825684,8.201135635375977,-0.2662286758422851,-0.0,-0.0,-1.0,0.0252607898028432,2.0,0.0
7.811163902282715,9.994853973388672,-0.1016545295715332,-0.2797601783808576,-0.1656037814028086,-0.9456794542430332,0.1532512936271776,4.0,0.0
8.858859062194824,8.795679092407227,-0.1731050014495849,-0.0,-0.0,-1.0,0.0964847050742228,1.0,0.0
7.891467094421387,8.330013275146484,-0.2400760650634765,-0.0,-0.0,-1.0,0.0249461473073856,1.0,0.0
8.158226013183594,8.176934242248535,-0.2316510677337646,-0.2645541690206764,0.4466427785496687,-0.854705399551922,0.1590774862019181,3.0,0.0
7.730843544006348,10.029096603393556,-0.0392324924468994,-0.7863569109684007,-0.3349370963665464,-0.5190953188478797,0.1060063640982916,3.0,0.0
7.822107315063477,9.928447723388672,-0.0394728183746337,-0.0,-0.0,-1.0,0.1100538220703031,2.0,0.0
8.895257949829102,8.809903144836426,-0.0606014728546142,-0.0,-0.0,-1.0,0.2068234348595985,1.0,0.0
7.971734046936035,8.139314651489258,-0.209730863571167,-0.0,-0.0,-1.0,0.041566822424594,1.0,0.0
8.788249969482422,8.79023265838623,-0.029069185256958,0.9204600836577814,-0.1100184824704339,0.3750322224924319,0.1825205712626605,14.0,0.0
7.735570907592773,9.991633415222168,-0.0222213268280029,-0.9860287839215384,-0.0526660996785592,0.1580301212518033,0.0917790459931377,3.0,0.0
7.836270332336426,9.83783721923828,-0.0248782634735107,-0.7033627926573204,-0.271651070684463,0.656876303196637,0.2138681978425695,3.0,0.0
8.909381866455078,8.778054237365723,-0.0165033340454101,-0.0,-0.0,-1.0,0.1991107364797522,2.0,0.0
8.93238353729248,8.73603630065918,-0.0193617343902587,-0.1893821752425394,-0.0369227628860035,-0.9812089997963062,0.2005842279628761,3.0,0.0
7.879300117492676,9.376148223876951,-0.3368291854858398,-0.0,-0.0,-1.0,0.041282219956743,1.0,0.0
8.100208282470703,9.203325271606444,-0.3229775428771972,-0.0,-0.0,-1.0,0.0179004300366554,1.0,0.0
8.403036117553711,8.922745704650879,-0.3113062381744385,-0.0,-0.0,-1.0,0.0322673563995519,1.0,0.0
8.841042518615723,8.602683067321777,-0.288853645324707,-0.0,-0.0,-1.0,0.0422199092986585,2.0,0.0
8.973796844482422,8.33746337890625,-0.3058123588562011,0.5207700491914724,0.468577325709213,-0.7136062259371858,0.0232197116234179,3.0,0.0
7.71403694152832,10.037818908691406,-0.2917208671569824,-0.0,-0.0,-1.0,0.119851103950851,1.0,0.0
7.911656379699707,9.806045532226562,-0.2843186855316162,-0.0,-0.0,-1.0,0.1417791820317493,2.0,0.0
8.189115524291992,9.240676879882812,-0.3049988746643066,0.4224073464373148,-0.1075884228752508,-0.8999982027420956,0.0207667052603361,3.0,0.0
8.03286075592041,9.77385711669922,-0.2686209678649902,-0.0,-0.0,-1.0,0.1250113594984326,1.0,0.0
8.819022178649902,8.820477485656738,-0.2637534141540527,-0.0,-0.0,-1.0,0.2051166097434922,2.0,0.0
9.485121726989746,8.604277610778809,-0.1998772621154785,0.2778621375948489,-0.0586856690719482,-0.9588266917106548,0.2183316394598018,5.0,0.0
7.951484680175781,9.976194381713867,-0.259810209274292,-0.0,-0.0,-1.0,0.1393635486662075,2.0,0.0
8.248249053955078,9.888594627380373,-0.222224473953247,-0.0,-0.0,-1.0,0.1773996130498797,2.0,0.0
8.412297248840332,9.767141342163086,-0.210024356842041,-0.7163421100443651,0.4422315985204239,0.5397084348490933,0.1596187438494911,4.0,0.0
7.811410903930664,8.16672420501709,-0.1744275093078613,-0.0,-0.0,-1.0,0.0405481730856224,2.0,0.0
8.479190826416016,8.672346115112305,-0.0338912010192871,-0.0,-0.0,-1.0,0.093746844352691,2.0,0.0
8.796480178833008,8.78630256652832,0.0224466323852539,0.7288816732193711,-0.6658552128662025,0.1592744233825191,0.1942130749795155,6.0,1.0
7.762655258178711,9.925542831420898,-0.0575971603393554,0.4776937713830102,-0.5624931035529894,-0.6748408473389877,0.1088118901713162,9.0,0.0
9.001731872558594,8.667447090148926,-0.3130295276641845,-0.0,-0.0,-1.0,0.0318528330623143,2.0,0.0
9.322809219360352,8.449112892150879,-0.2728908061981201,-0.0,-0.0,-1.0,0.0884005234332263,1.0,0.0
9.030985832214355,9.007898330688477,-0.2845163345336914,-0.0,-0.0,-1.0,0.0262874420678591,1.0,0.0
9.397199630737305,8.709524154663086,-0.240450382232666,0.6988571704263539,0.2526676232127316,-0.6691470148806605,0.1060603245198127,4.0,0.0
8.565653800964355,9.682896614074709,-0.3294672966003418,-0.5905336339073116,-0.1011891166737827,-0.8006439844843681,0.0731087996204176,4.0,0.0
8.749794960021973,9.426637649536133,-0.3096075057983398,-0.0,-0.0,-1.0,0.0811335470691419,2.0,0.0
8.950875282287598,9.238516807556152,-0.2839727401733398,-0.0,-0.0,-1.0,0.0592675933647038,1.0,0.0
8.469630241394043,9.98640251159668,-0.3323338031768799,-0.0,-0.0,-1.0,0.1575450970499683,2.0,0.0
8.325809478759766,10.28679656982422,-0.3461983203887939,-0.0,-0.0,-1.0,0.0617576374767048,1.0,0.0
8.482634544372559,10.367562294006348,-0.3124165534973144,-0.0,-0.0,-1.0,0.1428002544829646,1.0,0.0
8.562484741210938,10.586048126220703,0.2181595563888549,-0.0,-0.0,-1.0,0.1064806870498343,1.0,1.0
7.767475128173828,9.200607299804688,-0.2562934160232544,-0.0,-0.0,-1.0,0.016282724672545,1.0,0.0
7.770606994628906,8.968558311462402,-0.2585369348526001,-0.4246001325983493,-0.9051895559873112,0.0186170655302724,0.0139506812473541,3.0,0.0
8.328182220458984,9.693048477172852,-0.2313692569732666,-0.7453122627032394,-0.0891405220149125,-0.6607295955223184,0.177631938193795,3.0,0.0
8.535236358642578,10.369115829467772,-0.21780526638031,-0.0,-0.0,-1.0,0.1064650814314294,1.0,0.0
8.500045776367188,9.54943561553955,-0.2265679836273193,-0.0,-0.0,-1.0,0.0836432623707221,1.0,0.0
8.695648193359375,10.598093032836914,-0.2100772857666015,-0.0,-0.0,-1.0,0.1023849782836337,2.0,0.0
9.973419189453123,9.960341453552246,-0.4558755159378052,-0.0,-0.0,-1.0,0.0209839947095211,1.0,0.0
8.191905975341797,10.285144805908203,-0.2431039810180664,0.849284028992122,0.4186243992021424,-0.3216679195871946,0.112858166326493,3.0,0.0
8.473060607910156,10.561006546020508,-0.2081952095031738,-0.2009625613657427,-0.2628638913053738,-0.9436718834304204,0.1387222353614208,4.0,0.0
8.545085906982422,10.426179885864258,-0.2172200679779052,-0.0,-0.0,-1.0,0.1223376440299574,1.0,0.0
8.979686737060547,10.548433303833008,0.1462209224700927,-0.0,-0.0,-1.0,0.0704199426694193,1.0,1.0
8.533977508544922,10.26280117034912,0.1255919933319091,-0.0,-0.0,-1.0,0.1257513166859596,1.0,1.0
8.636741638183594,10.06185531616211,0.1229884624481201,-0.0,-0.0,-1.0,0.1313984016115761,1.0,1.0
8.31707763671875,9.911394119262695,0.1096642017364502,-0.0,-0.0,-1.0,0.2665529539523469,1.0,1.0
9.867393493652344,10.042624473571776,-0.4789212942123413,-0.0,-0.0,-1.0,0.0197912884568203,1.0,0.0
9.857070922851562,9.91628360748291,-0.4861780405044555,-0.0,-0.0,-1.0,0.0266072919055686,1.0,0.0
9.803848266601562,9.89062213897705,-0.4526034593582153,-0.0,-0.0,-1.0,0.0236758762425063,2.0,0.0
9.152301788330078,10.491132736206056,-0.3711068630218506,0.6298684891833045,-0.4125197846709463,-0.658098103316654,0.0279359175148685,3.0,0.0
10.134923934936523,9.76021957397461,-0.335500955581665,-0.0,-0.0,-1.0,0.0274389682548875,1.0,0.0
9.693933486938477,9.876629829406738,-0.3554228544235229,0.7576344241144625,0.4755531153734892,-0.4470339068295781,0.0227051339257572,3.0,0.0
7.743007659912109,9.904276847839355,-0.0495939254760742,-0.7659298167516676,0.2607947765160371,-0.5876543204577903,0.1502683231552756,9.0,0.0
8.768041610717773,8.725497245788574,-0.0621441602706909,0.2924589420858814,-0.8184637385692525,-0.4945552303244291,0.186418253769437,7.0,0.0
8.473459243774414,10.430079460144045,-0.2867254018783569,-0.0,-0.0,-1.0,0.1472787160726371,2.0,0.0
8.150819778442383,10.22424030303955,-0.3092365264892578,-0.0,-0.0,-1.0,0.1383020512960526,1.0,0.0
9.055837631225586,9.56456184387207,-0.2843466997146606,-0.0,-0.0,-1.0,0.041186200910801,1.0,0.0
8.744731903076172,9.723472595214844,-0.2949706315994262,-0.0,-0.0,-1.0,0.0417669829284532,1.0,0.0
9.445188522338867,9.111141204833984,-0.2791002988815307,-0.1835153631242285,0.1210599731132112,-0.975534004741614,0.0191473411417061,4.0,0.0
9.206939697265623,9.380934715270996,-0.2825286388397217,-0.0,-0.0,-1.0,0.0462169951575063,1.0,0.0
9.593624114990234,8.666543960571289,-0.2857636213302612,-0.1571739039595549,0.872107717720656,0.4633837422765082,0.0929780505167854,5.0,0.0
9.568225860595703,8.287735939025879,-0.2991236448287964,-0.0,-0.0,-1.0,0.0279816918398045,2.0,0.0
7.726541519165039,9.871191024780272,-0.0266369581222534,-0.9243705658090238,0.3408051029193507,0.1714378572253984,0.1414659529394834,7.0,0.0
8.747583389282227,8.77487564086914,-0.0124497413635253,-0.2919168453150654,-0.456249590552971,-0.84060743902344,0.2349954935581823,5.0,0.0
10.195043563842772,9.775259017944336,-0.3519023656845093,-0.0,-0.0,-1.0,0.0267314625697997,2.0,0.0
9.284082412719728,10.138057708740234,-0.3908510208129883,-0.0,-0.0,-1.0,0.0220014276400547,2.0,0.0
9.18329620361328,10.309649467468262,-0.3906230926513672,0.1177804457739588,0.1579757865528844,-0.9803935013331564,0.0255477674998886,4.0,0.0
10.191411972045898,9.505413055419922,-0.3619482517242431,-0.0,-0.0,-1.0,0.0231542439088801,1.0,0.0
9.95799446105957,10.335092544555664,-0.4340217113494873,-0.0,-0.0,-1.0,0.0118656653640381,1.0,0.0
8.332452774047852,10.355812072753906,-0.2632235288619995,-0.0,-0.0,-1.0,0.0734457797574759,1.0,0.0
8.457416534423828,9.790975570678713,-0.2788481712341308,-0.0,-0.0,-1.0,0.1525647391252154,2.0,0.0
8.203981399536133,9.963915824890137,-0.2857972383499145,-0.0,-0.0,-1.0,0.1254307303308963,2.0,0.0
7.933084487915039,10.080339431762695,-0.2959791421890259,-0.0,-0.0,-1.0,0.140555704664372,2.0,0.0
9.432435989379885,8.964574813842773,-0.258989930152893,-0.1671139678531724,0.2188311319625868,-0.9613458573439332,0.0331079253691969,4.0,0.0
9.290929794311523,9.134410858154297,-0.2598049640655517,-0.3267795851195329,0.5469274281421788,-0.7707694149970455,0.0281881413580093,3.0,0.0
8.918258666992188,9.41537857055664,-0.2687643766403198,-0.0,-0.0,-1.0,0.0655571710346793,1.0,0.0
8.491653442382812,9.61590576171875,-0.2839807271957397,-0.0,-0.0,-1.0,0.1030832740325896,1.0,0.0
9.551786422729492,8.684555053710938,-0.2639185190200805,-0.3405057853042734,0.9051188377491132,-0.2545892765338213,0.1023802844813043,3.0,0.0
9.489507675170898,8.25517463684082,-0.2848958969116211,-0.0,-0.0,-1.0,0.0459870346698683,1.0,0.0
10.187503814697266,10.577356338500977,-0.4351447820663452,-0.0,-0.0,-1.0,0.0134720305105373,2.0,0.0
10.117835998535156,10.245348930358888,-0.4466383457183838,-0.0,-0.0,-1.0,0.0076269926788545,1.0,0.0
9.42146110534668,10.383970260620115,-0.4363547563552856,-0.0,-0.0,-1.0,0.0299066467417698,1.0,0.0
9.567153930664062,10.152233123779297,-0.4353393316268921,-0.0,-0.0,-1.0,0.0240095143383265,1.0,0.0
8.207998275756836,10.24264144897461,-0.2559309005737304,-0.2767460177285808,0.1551893786778302,-0.9483290032562331,0.1236716310008514,5.0,0.0
8.412538528442383,9.81524658203125,-0.2602416276931762,-0.0,-0.0,-1.0,0.1542053056691322,2.0,0.0
7.993871688842773,9.941827774047852,-0.2811802625656128,-0.0,-0.0,-1.0,0.1562740962744035,2.0,0.0
8.333587646484375,9.39171028137207,-0.2824238538742065,-0.0,-0.0,-1.0,0.0308464019513886,2.0,0.0
7.981716156005859,9.32354736328125,-0.3069711923599243,-0.0,-0.0,-1.0,0.0232373039267701,1.0,0.0
9.447736740112305,8.751840591430664,-0.2411587238311767,0.3482730858412697,0.1107908403339257,-0.930822887222216,0.1198501501182331,5.0,0.0
8.970443725585938,8.919151306152344,-0.2631014585494995,-0.0,-0.0,-1.0,0.0530670434243142,1.0,0.0
8.551116943359375,9.044065475463867,-0.2835119962692261,-0.0,-0.0,-1.0,0.0530876115288112,1.0,0.0
8.417804718017578,9.15416431427002,-0.2870930433273315,-0.0,-0.0,-1.0,0.0180900517078982,1.0,0.0
9.440801620483398,8.534456253051758,-0.2511076927185058,0.0996284879965849,0.0360990321006497,-0.994369661776198,0.1890233239537908,5.0,0.0
8.929224014282227,8.662110328674316,-0.2766772508621216,-0.0,-0.0,-1.0,0.0690752182821901,2.0,0.0
8.350067138671875,9.792106628417969,-0.1444175243377685,-0.4079053065478176,0.8041270587783501,0.4324267963836313,0.1846291434717249,5.0,0.0
8.217531204223633,9.825742721557615,-0.1502799987792968,-0.0,-0.0,-1.0,0.1660020366500967,1.0,0.0
7.75684928894043,9.936649322509766,-0.1710661649703979,-0.0,-0.0,-1.0,0.1399698401432046,2.0,0.0
8.680505752563477,8.758026123046875,-0.1761513948440551,-0.0,-0.0,-1.0,0.1180226866687209,1.0,0.0
7.824071884155273,8.484790802001953,-0.2369987964630127,-0.0,-0.0,-1.0,0.0118127955828552,1.0,0.0
8.232210159301758,8.170258522033691,-0.2303113937377929,-0.0,-0.0,-1.0,0.0408103681317468,2.0,0.0
8.023309707641602,8.32382869720459,-0.2340376377105713,-0.0,-0.0,-1.0,0.0631841408461083,1.0,0.0
7.740848541259766,9.855091094970703,-0.0350710153579711,-0.6876513204545254,-0.1352330454761233,-0.7133356046689387,0.1441190549124576,6.0,0.0
8.771827697753906,8.741399765014648,-0.0696786642074585,0.4739438741866939,-0.302981575501232,-0.8267885878673572,0.1849196992645459,10.0,0.0
7.74500846862793,9.881511688232422,-0.0516964197158813,-0.9028188349320644,0.3749561240522293,-0.2105375413735963,0.1606343306608969,8.0,0.0
7.757961273193359,9.815069198608398,-0.0560352802276611,-0.3727639377193317,-0.4950941930160581,0.7848113064793067,0.1866286436380327,6.0,0.0
8.76545524597168,8.743307113647461,-0.0922538042068481,0.4261952082778977,-0.8959465656815452,0.1250495737074051,0.1616501194233436,8.0,0.0
8.502988815307617,10.565834045410156,-0.2264392375946045,0.0646657661558354,-0.9974936437560544,-0.0287187979161406,0.1375367291609348,5.0,0.0
8.183111190795898,10.283997535705566,-0.2678174972534179,0.849284028992122,0.4186243992021424,-0.3216679195871946,0.1198402415670002,3.0,0.0
8.49873161315918,9.856078147888184,-0.2772731781005859,-0.6166466913235578,0.7636708714511391,-0.1911901100391097,0.1062126240516141,4.0,0.0
8.25860595703125,9.95348072052002,-0.2862657308578491,-0.0,-0.0,-1.0,0.1349322028816056,1.0,0.0
7.942890167236328,9.99530029296875,-0.304446816444397,-0.0,-0.0,-1.0,0.1432369641790796,2.0,0.0
8.958611488342285,9.526256561279297,-0.2712388038635254,-0.0,-0.0,-1.0,0.0492265841464748,1.0,0.0
8.650033950805664,9.657947540283203,-0.2818005084991455,-0.0,-0.0,-1.0,0.0794059707698807,2.0,0.0
9.182159423828123,9.33662223815918,-0.2710235118865967,-0.0,-0.0,-1.0,0.0459665465669814,2.0,0.0
9.544264793395996,8.989234924316406,-0.2745119333267212,-0.0,-0.0,-1.0,0.0159478772367139,1.0,0.0
9.402026176452637,9.148015975952148,-0.2712384462356567,0.0615114651145428,-0.3507877954770279,-0.9344325883678442,0.0293451404225611,3.0,0.0
9.656726837158203,8.65567398071289,-0.2938148975372314,0.3861069538817306,-0.3614980150505088,-0.8486699036013432,0.0651052035449322,5.0,0.0
9.77183437347412,8.278475761413574,-0.3171650171279907,-0.0,-0.0,-1.0,0.0349811185607841,2.0,0.0
8.342153549194336,9.818717002868652,-0.1411548852920532,-0.5957862667728381,0.0172250898846891,-0.8029582931904674,0.1264414568553754,7.0,0.0
7.829992294311523,9.862180709838867,-0.1739304065704345,0.1738625623257199,0.8998347549415504,0.4000865196689523,0.2158605855427936,4.0,0.0
7.949942588806152,8.8213529586792,-0.2293317317962646,-0.0,-0.0,-1.0,0.0179719791530524,2.0,0.0
8.758049964904785,8.751221656799316,-0.1799081563949585,-0.5443463635521351,-0.570162289492203,0.6153064278297244,0.1444075681573521,8.0,0.0
8.355521202087402,8.551962852478027,-0.2196236848831176,-0.0,-0.0,-1.0,0.2103841057192356,2.0,0.0
7.94342041015625,8.584739685058594,-0.2449091672897339,-0.0,-0.0,-1.0,0.0136854996148198,1.0,0.0
9.508666038513184,8.50787353515625,-0.1469135284423828,-0.0,-0.0,-1.0,0.2169843474345073,2.0,0.0
8.462084770202637,8.145857810974121,-0.2395544052124023,-0.0,-0.0,-1.0,0.0262999102172939,2.0,0.0
8.20857048034668,8.246631622314453,-0.2494418621063232,-0.0,-0.0,-1.0,0.1166370139496506,1.0,0.0
8.894956588745117,10.600603103637695,-0.4220837354660034,-0.0231978014591816,-0.0257162699767859,-0.9994000877856384,0.0378649882578238,3.0,0.0
9.394254684448242,10.181819915771484,-0.4128203392028808,-0.0,-0.0,-1.0,0.0269582803766996,1.0,0.0
9.25474452972412,10.229517936706545,-0.4212511777877807,-0.0,-0.0,-1.0,0.0229693748383175,1.0,0.0
9.566534996032717,9.976099967956545,-0.4162696599960327,-0.0,-0.0,-1.0,0.0289595260286179,2.0,0.0
9.864004135131836,9.772201538085938,-0.4090518951416015,0.501904790343004,0.0427883637281973,-0.863863841910407,0.025835058414477,3.0,0.0
7.751138687133789,9.907021522521973,-0.030773639678955,-0.9266159992207058,0.3756517919559852,0.0163866161384876,0.1502683231552756,11.0,0.0
8.873286247253418,8.719369888305664,-0.061816930770874,-0.0,-0.0,-1.0,0.1659721073801102,1.0,0.0
8.435521125793457,10.409555435180664,-0.2175371646881103,-0.0,-0.0,-1.0,0.12418524414344,1.0,0.0
8.193451881408691,10.067264556884766,-0.267765998840332,-0.0,-0.0,-1.0,0.1564568044159764,2.0,0.0
7.950369834899902,9.82442855834961,-0.3094276189804077,-0.0,-0.0,-1.0,0.1741865277301635,2.0,0.0
8.49233627319336,9.70387840270996,-0.2774029970169067,0.1809335638561493,0.4140253682592097,-0.8921020344714717,0.1106156092430019,4.0,0.0
8.690926551818848,9.384509086608888,-0.2922486066818237,-0.0,-0.0,-1.0,0.0683127747483028,1.0,0.0
9.284661293029783,9.11169147491455,-0.2732686996459961,-0.0,-0.0,-1.0,0.0235583340160591,2.0,0.0
9.074767112731934,9.206390380859377,-0.2799303531646728,-0.0,-0.0,-1.0,0.0411794944357348,2.0,0.0
9.4609956741333,8.931307792663574,-0.2782812118530273,-0.0,-0.0,-1.0,0.0325076890344321,2.0,0.0
9.647387504577637,8.680368423461914,-0.2904669046401977,-0.4269457692506687,-0.0389840530618088,-0.9034365244585968,0.057003085885543,3.0,0.0
9.670058250427246,8.585214614868164,-0.2987871170043945,-0.2191276145679835,0.1415395497451589,-0.965375390400896,0.0467017126361919,4.0,0.0
9.790480613708496,8.245845794677734,-0.3265299797058105,-0.0,-0.0,-1.0,0.0395572609498395,2.0,0.0
8.53367805480957,8.516069412231445,0.1280040740966797,-0.0,-0.0,-1.0,0.047138901647416,1.0,1.0
8.562151908874512,10.568912506103516,-0.2626099586486816,0.0587316362576583,-0.8532826942803404,0.5181305226911277,0.1580894493668635,4.0,0.0
8.554896354675293,10.28443717956543,-0.2846419811248779,-0.0,-0.0,-1.0,0.1207229748694594,1.0,0.0
8.665651321411133,10.062999725341797,-0.2908484935760498,-0.0,-0.0,-1.0,0.0171368702864124,1.0,0.0
8.987410545349121,9.810152053833008,-0.2803394794464111,-0.0,-0.0,-1.0,0.0109966497743411,1.0,0.0
9.21155834197998,9.587823867797852,-0.2779266834259033,-0.0,-0.0,-1.0,0.0271519660531036,1.0,0.0
9.379327774047852,9.46415901184082,-0.2729175090789795,-0.0,-0.0,-1.0,0.0386293616838567,1.0,0.0
8.147019386291504,8.420833587646484,0.0138242244720458,-0.0,-0.0,-1.0,0.0866402459552104,1.0,1.0
9.614933967590332,9.231165885925291,-0.2721729278564453,-0.0,-0.0,-1.0,0.0289669041464361,1.0,0.0
9.720909118652344,8.994014739990234,-0.2849675416946411,-0.7864906046290043,-0.3553274197022155,-0.5051484471302162,0.0321702128330795,3.0,0.0
9.762161254882812,8.759933471679688,-0.3043355941772461,-0.0,-0.0,-1.0,0.0311504731343042,2.0,0.0
9.88571834564209,8.460126876831055,-0.3237234354019165,-0.0,-0.0,-1.0,0.007972802950407,2.0,0.0
7.81885814666748,10.035881042480469,-0.124173879623413,-0.0,-0.0,-1.0,0.1732559460506148,2.0,0.0
9.246606826782228,10.487369537353516,-0.3802330493927002,-0.0,-0.0,-1.0,0.0358814931226895,1.0,0.0
9.262057304382324,10.39061164855957,-0.3824796676635742,-0.0,-0.0,-1.0,0.03470722215172,1.0,0.0
7.717953681945801,8.59280776977539,-0.1995151042938232,-0.0,-0.0,-1.0,0.0153865133003086,1.0,0.0
7.838871002197266,8.385738372802734,-0.1992579698562622,-0.0,-0.0,-1.0,0.0247703310134771,2.0,0.0
9.40089511871338,10.33900260925293,-0.3662183284759521,-0.0,-0.0,-1.0,0.0324963468341107,1.0,0.0
9.429378509521484,10.209602355957031,-0.3687092065811157,-0.0,-0.0,-1.0,0.0270513259486504,2.0,0.0
8.672995567321777,8.80876350402832,-0.0968859195709228,0.0290177178861762,-0.7672116405722605,0.6407372867401263,0.1868233624482146,3.0,0.0
8.150581359863281,8.230337142944336,-0.1788015365600586,0.7890796211814761,-0.0341367826611647,-0.6133416922936535,0.1943516006073499,3.0,0.0
9.679390907287598,9.903515815734863,-0.3514684438705444,0.7576344241144625,0.4755531153734892,-0.4470339068295781,0.0245338270714757,3.0,0.0
9.961938858032228,9.58599853515625,-0.3328962326049804,-0.0,-0.0,-1.0,0.029585221047382,1.0,0.0
10.023035049438477,9.397972106933594,-0.336760401725769,-0.0,-0.0,-1.0,0.0266851536391712,1.0,0.0
10.196064949035645,9.170867919921877,-0.3299309015274048,-0.0,-0.0,-1.0,0.0136258150915323,1.0,0.0
8.694025993347168,10.596781730651855,-0.3909008502960205,-0.7727664445967483,-0.6152104323336021,0.156038924801484,0.1204611406433464,6.0,0.0
8.83574104309082,10.299202919006348,-0.3907583951950073,-0.0,-0.0,-1.0,0.0202018170678169,1.0,0.0
7.804660797119141,8.360001564025879,-0.2289186716079712,-0.0,-0.0,-1.0,0.0247703310134771,2.0,0.0
9.147812843322754,10.088300704956056,-0.3637902736663818,-0.0,-0.0,-1.0,0.0094321157262403,1.0,0.0
9.238712310791016,9.94118881225586,-0.3625667095184326,-0.0,-0.0,-1.0,0.0159870599638497,2.0,0.0
8.076525688171387,8.217352867126465,-0.2164596319198608,-0.0,-0.0,-1.0,0.1016297709246633,1.0,0.0
9.453913688659668,9.700531959533691,-0.3532178401947021,-0.0,-0.0,-1.0,0.0161563883829564,1.0,0.0
9.76046657562256,9.349119186401367,-0.3434371948242187,-0.0,-0.0,-1.0,0.0409154657284834,1.0,0.0
9.926287651062012,8.91475772857666,-0.363499641418457,-0.2443467852005401,-0.5544513400491375,-0.7955365234103817,0.0268951960856715,4.0,0.0
10.04053020477295,8.644709587097168,-0.3766114711761474,-0.0,-0.0,-1.0,0.0101022795512404,1.0,0.0
10.10847282409668,8.476740837097168,-0.386613130569458,-0.0,-0.0,-1.0,0.012547516645521,2.0,0.0
7.772060394287109,10.002806663513184,-0.1097046136856079,0.2437882258297415,0.9338703314954194,-0.2616362071644937,0.170102437218607,3.0,0.0
7.793733596801758,9.873958587646484,-0.1157014369964599,-0.4570906737565524,0.2368652278063583,-0.8572998190954102,0.1516447754900764,3.0,0.0
8.676410675048828,8.797304153442383,-0.1107618808746337,0.2316073309926709,-0.7213358006594721,0.6527118100030134,0.2167570563892809,3.0,0.0
8.800409317016602,10.37912368774414,-0.4285463094711303,-0.0,-0.0,-1.0,0.030390583508042,2.0,0.0
8.900842666625977,10.552199363708496,-0.420974850654602,-0.0,-0.0,-1.0,0.0341267782290344,2.0,0.0
8.901320457458496,10.297111511230469,-0.4093531370162964,-0.0,-0.0,-1.0,0.0189991849590095,2.0,0.0
9.052679061889648,9.962864875793455,-0.3726564645767212,-0.0,-0.0,-1.0,0.0099873503345928,1.0,0.0
9.071553230285645,9.85561180114746,-0.3661593198776245,-0.0,-0.0,-1.0,0.0163979625353633,2.0,0.0
9.137200355529783,9.535099983215332,-0.3471882343292236,-0.0,-0.0,-1.0,0.0364135121896939,1.0,0.0
9.25973129272461,8.42152214050293,-0.3177587985992431,-0.0,-0.0,-1.0,0.0320858942770372,1.0,0.0
7.747739791870117,9.908965110778809,-0.1456334590911865,-0.0,-0.0,-1.0,0.1422132149668099,2.0,0.0
8.142603874206543,8.387863159179688,-0.0607675313949584,-0.0,-0.0,-1.0,0.2007676031546316,2.0,0.0
8.577425003051758,8.735865592956543,-0.014905571937561,-0.0,-0.0,-1.0,0.0845114389430404,1.0,0.0
9.168517112731934,9.740423202514648,-0.3477312326431274,-0.0,-0.0,-1.0,0.0249276170773987,2.0,0.0
9.215764045715332,9.401508331298828,-0.3324455022811889,-0.0,-0.0,-1.0,0.0373898644199449,1.0,0.0
9.375127792358398,8.942538261413574,-0.3018724918365478,-0.0,-0.0,-1.0,0.0272102409755274,2.0,0.0
9.48759651184082,8.638747215270996,-0.2835403680801391,-0.2892242810928973,-0.284223026982822,-0.9140933137043604,0.1561456983348823,6.0,0.0
9.135540008544922,10.618308067321776,-0.4318907260894775,-0.0,-0.0,-1.0,0.0282010944693686,1.0,0.0
9.156341552734377,10.528332710266112,-0.4278682470321655,0.5112197368867206,-0.8591725007213715,-0.0218402065387859,0.0287537541769298,3.0,0.0
7.822345733642578,10.011896133422852,-0.2199194431304931,-0.0,-0.0,-1.0,0.165156450312538,1.0,0.0
8.040083885192871,9.99961280822754,-0.192128300666809,-0.0,-0.0,-1.0,0.2132035903489665,1.0,0.0
7.898447036743164,9.681941032409668,-0.2107355594635009,-0.0,-0.0,-1.0,0.2093492563544757,1.0,0.0
7.856295585632324,8.812589645385742,-0.2260112762451172,-0.0,-0.0,-1.0,0.017699461061702,1.0,0.0
7.912663459777832,8.402006149291992,-0.2279251813888549,-0.0,-0.0,-1.0,0.0246467455265123,2.0,0.0
8.128035545349121,8.207149505615234,-0.2065167427062988,-0.0967085232854849,0.725319373382974,-0.6815858479452684,0.190670010026738,5.0,0.0
8.383084297180176,10.606191635131836,-0.1513124704360962,0.4097425904525943,-0.6571887329452396,0.6326246745575357,0.1115414839475537,3.0,0.0
8.378740310668945,8.701362609863281,-0.1632442474365234,-0.0,-0.0,-1.0,0.2021179144360029,1.0,0.0
8.789457321166992,8.792104721069336,-0.1103568077087402,0.8467492848710633,-0.4935879208218188,0.1984606081547073,0.282151181339966,7.0,0.0
9.290313720703123,10.321828842163086,-0.4053090810775757,-0.0,-0.0,-1.0,0.0330852359065572,1.0,0.0
9.39780330657959,10.082147598266602,-0.3880841732025146,-0.0,-0.0,-1.0,0.0210173063518497,1.0,0.0
9.522506713867188,9.900482177734377,-0.3690001964569092,-0.0,-0.0,-1.0,0.0314349500918418,1.0,0.0
9.70446491241455,9.58443546295166,-0.3436455726623535,-0.0,-0.0,-1.0,0.0257794803960817,1.0,0.0
9.822152137756348,9.314131736755373,-0.3298068046569824,-0.0,-0.0,-1.0,0.0315941077911844,2.0,0.0
9.871773719787598,9.112610816955566,-0.3270429372787475,-0.0,-0.0,-1.0,0.0188987630154965,2.0,0.0
9.879152297973633,8.743213653564453,-0.3375140428543091,-0.0,-0.0,-1.0,0.0161560297509658,1.0,0.0
9.91006851196289,8.34025764465332,-0.3487837314605713,0.7759038263797942,0.0398395791936205,-0.6295919790934993,0.0170125608209469,4.0,0.0
8.39462947845459,8.629785537719727,0.2462213039398193,-0.0,-0.0,-1.0,0.0501994214735106,1.0,1.0
7.850967407226563,10.222288131713867,-0.2611002922058105,-0.0,-0.0,-1.0,0.1115145332352249,1.0,0.0
7.769435882568359,9.321691513061523,-0.2788364887237549,-0.0,-0.0,-1.0,0.0333891975974504,1.0,0.0
8.052826881408691,8.953609466552734,-0.2486470937728881,-0.0,-0.0,-1.0,0.0115992499198925,1.0,0.0
8.18884563446045,8.539839744567871,-0.2414400577545166,-0.0,-0.0,-1.0,0.1601595953918441,2.0,0.0
8.237726211547852,8.329170227050781,-0.2413966655731201,-0.0,-0.0,-1.0,0.0941046103130244,1.0,0.0
8.123936653137207,10.524797439575195,-0.2255134582519531,-0.0,-0.0,-1.0,0.1027189912387026,1.0,0.0
8.095001220703125,10.179641723632812,-0.2289869785308838,-0.0,-0.0,-1.0,0.1374138271458523,2.0,0.0
8.344766616821289,9.830950736999512,-0.197690725326538,-0.2765371504649046,0.9594007953717576,0.0554735815752825,0.2210747059499202,6.0,0.0
8.454900741577148,8.176460266113281,-0.2190642356872558,-0.0,-0.0,-1.0,0.0325038220918219,2.0,0.0
8.74013900756836,8.771838188171387,-0.1643652915954589,-0.2838320865030135,-0.8953609831813961,0.3431735078175317,0.139026321562511,6.0,0.0
9.41347599029541,10.593538284301758,-0.4230790138244629,-0.0,-0.0,-1.0,0.0310714373560911,1.0,0.0
9.46858024597168,10.35555934906006,-0.4141404628753662,-0.0,-0.0,-1.0,0.0277524187883532,1.0,0.0
9.578129768371582,10.003283500671388,-0.3983876705169678,-0.0,-0.0,-1.0,0.0281761738622369,2.0,0.0
9.683993339538574,9.867063522338867,-0.3824460506439209,0.7576344241144625,0.4755531153734892,-0.4470339068295781,0.0243341306334151,3.0,0.0
9.87441062927246,9.611926078796388,-0.3555660247802734,-0.0,-0.0,-1.0,0.0237672897598059,1.0,0.0
10.013497352600098,9.227126121520996,-0.3425800800323486,-0.0,-0.0,-1.0,0.0229312966012079,1.0,0.0
10.069968223571776,8.83887767791748,-0.3469119071960449,-0.0,-0.0,-1.0,0.0112297924902428,1.0,0.0
10.185856819152832,8.470426559448242,-0.3444187641143799,-0.0,-0.0,-1.0,0.0124909154951412,1.0,0.0
8.751421928405762,8.759114265441895,0.2337716817855835,-0.0,-0.0,-1.0,0.1376538135054098,1.0,1.0
9.043011665344238,8.392719268798828,-0.2908277511596679,-0.0,-0.0,-1.0,0.0182633851299413,2.0,0.0
9.124764442443848,8.18140983581543,-0.2808465957641601,-0.0,-0.0,-1.0,0.015253669500945,2.0,0.0
8.6818208694458,10.548480033874512,-0.3712347745895386,-0.0,-0.0,-1.0,0.1288413038954214,2.0,0.0
8.771604537963867,10.175655364990234,-0.3472341299057007,-0.0,-0.0,-1.0,0.012618684944572,2.0,0.0
8.920258522033691,9.79269790649414,-0.316672682762146,-0.0,-0.0,-1.0,0.0133024494476712,2.0,0.0
9.061773300170898,9.441088676452637,-0.2903718948364258,-0.0,-0.0,-1.0,0.0439293015262435,1.0,0.0
9.160598754882812,9.037006378173828,-0.2726831436157226,-0.5817480186790865,-0.5750163416742801,-0.5752612011690732,0.024776238003827,3.0,0.0
9.425283432006836,8.720208168029785,-0.2333441972732544,0.0377620381564569,0.083598880109598,-0.9957837394327604,0.1753897959732467,6.0,0.0
10.20841121673584,10.093430519104004,-0.4733960628509521,-0.0,-0.0,-1.0,0.021089732541572,2.0,0.0
8.136449813842773,8.321910858154297,0.0012530088424682,-0.0,-0.0,-1.0,0.2336555746044795,1.0,1.0
7.754392623901367,10.018994331359863,-0.068387746810913,-0.1083211520708567,0.9090054062202404,-0.4024620472496971,0.1372146071127401,3.0,0.0
7.772292137145996,9.937719345092772,-0.0642046928405761,0.4296790067008804,-0.5961242242178193,-0.6782417419336911,0.1495809009096016,6.0,0.0
9.02782917022705,8.204524993896484,-0.2872318029403686,0.4300319135681288,0.716428672358892,-0.5493655529199193,0.0199522981930969,3.0,0.0
8.99675464630127,8.82794189453125,-0.2869361639022827,-0.3014037687913825,0.2831083485327759,-0.9104973537300342,0.0489666478228193,3.0,0.0
8.97269344329834,8.388952255249023,-0.2927099466323852,-0.0,-0.0,-1.0,0.020992615030445,1.0,0.0
8.770597457885742,9.915777206420898,-0.3304870128631592,0.2152057599128942,0.5192429679096778,-0.8270871907946966,0.015212897278467,4.0,0.0
8.907684326171875,9.572891235351562,-0.3045581579208374,-0.0,-0.0,-1.0,0.0607350410923055,1.0,0.0
9.032929420471191,9.185494422912598,-0.2826858758926391,-0.4363389008137245,0.8996878013498302,-0.0130469819873917,0.0487374373239053,5.0,0.0
9.21360206604004,8.874635696411133,-0.2562075853347778,-0.0,-0.0,-1.0,0.0138932035154753,1.0,0.0
9.467809677124023,8.65005111694336,-0.2210100889205932,-0.6299287896889098,0.7751279062025869,0.0486461606610284,0.1654520331163664,11.0,0.0
8.67251205444336,10.464468002319336,-0.3598054647445678,-0.0,-0.0,-1.0,0.0976909351955555,2.0,0.0
8.756954193115234,10.144401550292969,-0.337844967842102,-0.0,-0.0,-1.0,0.0133025952003257,2.0,0.0
7.728196144104004,9.859543800354004,-0.0456936359405517,-0.629047326232847,-0.1369856221560026,-0.7652021959468224,0.0977285491450562,6.0,0.0
8.334982872009277,8.458917617797852,-0.2644916772842407,-0.0,-0.0,-1.0,0.0781166294584846,2.0,0.0
8.52857780456543,8.199426651000977,-0.2400590181350708,0.3801853580442587,0.6535087569199779,-0.6545115722106554,0.0282025558303295,3.0,0.0
8.292136192321777,9.065040588378906,-0.2749663591384887,-0.0,-0.0,-1.0,0.0175106165560774,1.0,0.0
8.61146354675293,8.766166687011719,-0.2315905094146728,0.0221778857885519,-0.5625968501415978,-0.8264338603861187,0.143388611408831,3.0,0.0
8.311505317687988,9.507271766662598,-0.279765248298645,-0.0,-0.0,-1.0,0.0422335658448914,1.0,0.0
8.319343566894531,9.304726600646973,-0.2750047445297241,-0.0,-0.0,-1.0,0.0247992819698472,2.0,0.0
9.436699867248535,8.539834022521973,-0.1271642446517944,-0.0,-0.0,-1.0,0.2560279003172893,2.0,0.0
8.47205924987793,9.740507125854492,-0.264310359954834,0.1968687901303664,0.4248226480233545,-0.8836109987992626,0.1464920111430077,3.0,0.0
10.20911693572998,9.748068809509276,-0.4116925001144409,-0.0,-0.0,-1.0,0.0264712859251229,1.0,0.0
8.73515510559082,10.311487197875977,-0.3374167680740356,-0.0,-0.0,-1.0,0.0432768291099535,1.0,0.0
8.754119873046875,10.056180000305176,-0.3364765644073486,-0.0,-0.0,-1.0,0.0118963289908523,2.0,0.0
8.963254928588867,9.84017562866211,-0.3249958753585815,-0.0,-0.0,-1.0,0.0118730901745396,1.0,0.0
9.702716827392578,8.483036041259766,-0.2867761850357055,-0.0,-0.0,-1.0,0.0161456018126825,1.0,0.0
9.69942855834961,8.197199821472168,-0.2880411148071289,-0.0,-0.0,-1.0,0.0338672007803032,1.0,0.0
9.19639778137207,9.725797653198242,-0.3121238946914673,-0.0,-0.0,-1.0,0.0237380817270087,2.0,0.0
9.428104400634766,9.420438766479492,-0.2996582984924316,-0.0,-0.0,-1.0,0.0395580481867943,2.0,0.0
9.636445999145508,9.12436294555664,-0.2886288166046142,-0.0961613447745766,0.7908642554476256,-0.6043895475820357,0.0136099116078663,4.0,0.0
9.734575271606444,8.726542472839355,-0.2842077016830444,-0.0,-0.0,-1.0,0.0378831923435269,2.0,0.0
8.029958724975586,8.220062255859375,0.3544690608978271,-0.0,-0.0,-1.0,0.0519489818178345,2.0,1.0
7.722751617431641,10.004071235656738,-0.1320617198944091,-0.9005549136334127,0.0342740794421957,-0.4333891265469248,0.131447449173459,4.0,0.0
8.097261428833008,8.153186798095703,-0.1041127443313598,-0.0,-0.0,-1.0,0.1906700100267381,2.0,0.0
7.845643997192383,9.971308708190918,-0.1249475479125976,0.1408772144545123,0.7828030877727751,-0.6061129731501762,0.2143132111517303,4.0,0.0
10.087142944335938,10.358526229858398,-0.4492229223251343,-0.0,-0.0,-1.0,0.013417861865289,1.0,0.0
10.193977355957031,10.490053176879885,-0.4494816064834595,-0.0,-0.0,-1.0,0.0125347675301954,1.0,0.0
7.754283905029297,9.889756202697754,0.0158677101135253,-0.8662919786584958,-0.4989123054422455,0.0249943831740598,0.1283195981454057,5.0,1.0
7.725923538208008,9.662569999694824,0.0196242332458496,-0.0,-0.0,-1.0,0.1795143716679827,1.0,1.0
7.887910842895508,10.496514320373535,-0.0671029090881347,-0.0,-0.0,-1.0,0.1457506407988819,1.0,0.0
7.775505065917969,10.165727615356444,-0.0625538825988769,-0.0,-0.0,-1.0,0.1700634860302829,1.0,0.0
7.946079254150391,10.355836868286133,-0.0614852905273437,-0.0,-0.0,-1.0,0.1053689631343713,1.0,0.0
8.27995491027832,10.592741012573242,-0.0581104755401611,-0.0,-0.0,-1.0,0.0896126262380589,1.0,0.0
8.099681854248047,10.54208755493164,-0.0630494356155395,-0.0,-0.0,-1.0,0.1195204785643249,1.0,0.0
10.047439575195312,10.31096076965332,-0.4173281192779541,-0.0,-0.0,-1.0,0.0132834922865502,1.0,0.0
8.451709747314453,10.460603713989258,-0.2702617645263672,-0.0,-0.0,-1.0,0.1896578002284089,2.0,0.0
8.23300552368164,10.249679565429688,-0.2757796049118042,-0.522882445987512,0.7579446185782852,-0.3900178237546776,0.1184772769143765,3.0,0.0
8.211963653564453,10.080730438232422,-0.27345871925354,-0.0,-0.0,-1.0,0.1502020007617134,2.0,0.0
7.9497528076171875,9.639122009277344,-0.2768548727035522,-0.0,-0.0,-1.0,0.1417351374349054,1.0,0.0
7.739963531494141,9.484699249267578,-0.2834315299987793,0.4367066588766912,-0.3869005571475557,-0.8121546976849106,0.1158118873542665,3.0,0.0
8.456331253051758,9.66059112548828,-0.2546643018722534,-0.0,-0.0,-1.0,0.1552446011545992,2.0,0.0
8.530387878417969,10.578362464904783,-0.2108054161071777,0.1370517333007424,-0.8762307790279691,0.461991822745057,0.1300402168628315,3.0,0.0
8.12628173828125,10.155431747436523,-0.2165318727493286,-0.0,-0.0,-1.0,0.1564174927270032,2.0,0.0
8.45541763305664,9.82013988494873,-0.1955938339233398,-0.0,-0.0,-1.0,0.0886305738052048,2.0,0.0
8.297666549682617,9.710565567016602,-0.1993104219436645,-0.0,-0.0,-1.0,0.1569559459879615,2.0,0.0
7.838048934936523,9.673755645751951,-0.2168035507202148,-0.0,-0.0,-1.0,0.1434176006772701,2.0,0.0
8.894149780273438,10.582387924194336,-0.3546253442764282,-0.0,-0.0,-1.0,0.0426172076120246,1.0,0.0
8.748908996582031,10.542840957641602,-0.3626542091369629,-0.0,-0.0,-1.0,0.1386706287910698,1.0,0.0
9.415842056274414,10.056427001953123,-0.3202685117721557,-0.0,-0.0,-1.0,0.0210442109911971,1.0,0.0
9.438100814819336,9.869562149047852,-0.3175044059753418,-0.0,-0.0,-1.0,0.0212130686240281,2.0,0.0
9.722475051879885,9.48930549621582,-0.2981345653533935,-0.0,-0.0,-1.0,0.0396462753657758,1.0,0.0
9.734212875366213,8.653797149658203,-0.291689395904541,-0.0,-0.0,-1.0,0.0351319340796513,1.0,0.0
9.641742706298828,8.588933944702148,-0.2967084646224975,-0.1293178829634418,0.26763083173496,-0.9548039710069848,0.0518545139636152,4.0,0.0
7.742799758911133,10.598727226257324,0.0216611623764038,-0.0,-0.0,-1.0,0.1150548937904239,1.0,1.0
7.997278213500977,10.295376777648926,0.0491851568222045,-0.0,-0.0,-1.0,0.069948555510459,1.0,1.0
7.855777740478516,10.158108711242676,0.0669785737991333,-0.0,-0.0,-1.0,0.1137435769857709,1.0,1.0
8.871847152709961,9.212382316589355,0.1476534605026245,-0.0,-0.0,-1.0,0.0989538411947688,1.0,1.0
9.091365814208984,8.925666809082031,-0.2631410360336303,-0.0,-0.0,-1.0,0.0312418901619389,2.0,0.0
8.796880722045898,9.049665451049805,-0.2738353013992309,-0.0,-0.0,-1.0,0.0663136056901942,1.0,0.0
8.83247184753418,8.687347412109375,-0.2377852201461792,0.6729986801903447,-0.5290374478067212,0.5169063312440708,0.1411617842131218,3.0,0.0
