x,y,z,nx,ny,nz,curvature,density,label
39.85874938964844,-8.37099838256836,-0.2190248966217041,0.5146631670715597,-0.8393177849456328,0.1751213303222313,0.2186034355750586,3.0,0.0
40.04021835327149,-9.02281379699707,-0.2889916896820068,-0.0,-0.0,-1.0,0.1902937912193427,1.0,0.0
37.795223236083984,-7.920090198516846,-0.5146247148513794,-0.0,-0.0,-1.0,0.0282211046976912,1.0,0.0
38.18661880493164,-7.831150531768799,-0.5265430212020874,0.9017213116444744,0.3289134076571527,-0.280561305937808,0.1284632892547173,4.0,0.0
38.66713333129883,-7.42651891708374,-0.5060863494873047,0.5332560549679358,0.7969558087724671,-0.2837241947805231,0.0581558945795609,4.0,0.0
38.54271697998047,-7.776350498199463,-0.5418038368225098,-0.0,-0.0,-1.0,0.03036857828687,1.0,0.0
38.95636367797851,-7.441073894500732,-0.5270687341690063,-0.0,-0.0,-1.0,0.0304853334880231,1.0,0.0
38.797637939453125,-7.606176853179932,-0.5370279550552368,0.5691887744387696,0.1028166751133167,-0.8157529468972421,0.0377091996222098,3.0,0.0
39.251068115234375,-6.974897861480713,-0.4893606901168823,-0.0,-0.0,-1.0,0.2211655289669868,2.0,0.0
39.12936782836914,-7.168555736541748,-0.5049328804016113,0.703796964433771,-0.6371271462652528,-0.3142273577295659,0.059453341438478,3.0,0.0
38.72099304199219,-9.33053970336914,-0.1902272701263427,-0.0,-0.0,-1.0,0.154845788681057,1.0,0.0
39.114105224609375,-8.424041748046875,-0.1340981721878051,-0.213672390412233,0.8160206051546657,-0.5370795858516091,0.2464755051277555,3.0,0.0
39.69435119628906,-9.08819580078125,-0.2316662073135376,-0.6797198778717443,-0.7325095170788662,0.0375592201051522,0.1383001060381583,3.0,0.0
39.93402099609375,-8.451639175415039,-0.1915168762207031,-0.0,-0.0,-1.0,0.2622684268988255,1.0,0.0
38.00885009765625,-8.552579879760742,-0.4699172973632812,-0.0,-0.0,-1.0,0.0865966384203692,2.0,0.0
38.39488983154297,-8.450517654418945,-0.4775921106338501,-0.0,-0.0,-1.0,0.0365902078146687,2.0,0.0
38.85664749145508,-8.023477554321289,-0.4504337310791015,-0.0052418028626589,-0.8084076733446769,-0.5885996578152214,0.0925549676266673,3.0,0.0
38.65782165527344,-8.307832717895508,-0.4743986129760742,0.0189827205100054,0.041156254690961,-0.9989723815110464,0.0325827520449094,3.0,0.0
39.26474380493164,-7.604377269744873,-0.4230685234069824,-0.8427253338962153,-0.0951641718561231,-0.529865824529617,0.1560918659055233,3.0,0.0
39.18183135986328,-7.975350856781006,-0.4640984535217285,-0.0,-0.0,-1.0,0.158300313984509,2.0,0.0
39.03411483764648,-8.202495574951172,-0.4833614826202392,-0.0,-0.0,-1.0,0.1862501351941377,1.0,0.0
39.41633987426758,-7.717981815338135,-0.4468612670898437,-0.9674309084160166,-0.2439122448620383,-0.0677071211005313,0.2490514281947454,3.0,0.0
39.45721435546875,-7.811715602874756,-0.4611685276031494,-0.0688938623756394,0.307902525257674,-0.9489202657056668,0.1302179617896421,3.0,0.0
39.54740524291992,-6.893394947052002,-0.3529834747314453,-0.0,-0.0,-1.0,0.1495155906210543,1.0,0.0
39.50849914550781,-7.119139194488525,-0.3784390687942505,-0.0,-0.0,-1.0,0.0767621443478328,1.0,0.0
39.29791641235352,-7.451467990875244,-0.4061354398727417,-0.4640564643996281,-0.870113349373977,-0.1659950514024919,0.128443128114401,3.0,0.0
39.739158630371094,-9.111934661865234,-0.1239717006683349,-0.6281002840398404,0.033595908196673,-0.7774068099402733,0.0985473547386349,4.0,0.0
37.77735900878906,-6.999659061431885,-0.611929178237915,-0.0,-0.0,-1.0,0.0333822755333468,1.0,0.0
37.91775894165039,-8.740482330322266,-0.4352723360061645,-0.0,-0.0,-1.0,0.1274744694631896,1.0,0.0
38.05210494995117,-8.91496467590332,-0.4633060693740845,-0.0,-0.0,-1.0,0.0140917920417962,1.0,0.0
38.138641357421875,-6.9405436515808105,-0.6158431768417358,-0.0,-0.0,-1.0,0.0260105405822602,1.0,0.0
38.43028259277344,-8.733160018920898,-0.455437421798706,-0.0,-0.0,-1.0,0.0347207988667886,2.0,0.0
38.25979995727539,-8.909721374511719,-0.4710862636566162,-0.0,-0.0,-1.0,0.0084440364449731,2.0,0.0
39.49186706542969,-8.566503524780273,-0.4853671789169311,-0.1704208592532317,0.4712512830825586,-0.865377928378366,0.1022787875530848,3.0,0.0
38.868560791015625,-8.352876663208008,-0.4259959459304809,-0.8615570731148845,0.312501850332898,0.4000774966231279,0.0490513434436934,3.0,0.0
38.69266891479492,-8.479951858520508,-0.4342775344848633,-0.6744133235101907,-0.13326622597521,0.7262277756229536,0.0453559020964354,3.0,0.0
39.16170883178711,-8.055137634277344,-0.4017859697341919,-0.5658077430497864,0.702418892173651,-0.4318209094317317,0.2293458000653096,3.0,0.0
39.11876678466797,-8.412984848022461,-0.4461458921432495,-0.0,-0.0,-1.0,0.0998601194689836,2.0,0.0
39.5008544921875,-7.611607074737549,-0.3621885776519775,0.3677294441192445,0.8117464810896236,-0.4536989159854419,0.1664758929387799,5.0,0.0
39.34540557861328,-8.169771194458008,-0.4261597394943237,-0.0,-0.0,-1.0,0.1062083733895639,2.0,0.0
39.64742660522461,-7.509594440460205,-0.3570631742477417,-0.0,-0.0,-1.0,0.1555249431469033,2.0,0.0
39.118595123291016,-8.872747421264648,-0.0341054201126098,-0.0,-0.0,-1.0,0.1385204909804485,2.0,0.0
40.147987365722656,-8.717504501342773,-0.0719091892242431,-0.0,-0.0,-1.0,0.0946545064783959,2.0,0.0
40.20663833618164,-8.637598037719727,-0.0676099061965942,-0.0,-0.0,-1.0,0.0951296353102372,1.0,0.0
37.96502685546875,-7.250855922698975,-0.5918165445327759,-0.0,-0.0,-1.0,0.0429689499292748,2.0,0.0
38.38141632080078,-7.160461902618408,-0.5923112630844116,-0.0,-0.0,-1.0,0.0477952672152178,1.0,0.0
38.74781036376953,-7.123656749725342,-0.6030447483062744,-0.8699544376627514,-0.3428316422109981,0.3544654305990863,0.0678420712643475,3.0,0.0
38.58430099487305,-7.2537055015563965,-0.6183998584747314,-0.0,-0.0,-1.0,0.0756163220494968,1.0,0.0
37.78202819824219,-8.817358016967773,-0.4345822334289551,-0.0,-0.0,-1.0,0.0402090650695054,1.0,0.0
38.15601348876953,-8.825834274291992,-0.4506361484527588,-0.0,-0.0,-1.0,0.0176915090852573,2.0,0.0
38.17919921875,-8.93162727355957,-0.4668139219284057,-0.0,-0.0,-1.0,0.0132193119817257,2.0,0.0
38.3166618347168,-7.051469326019287,-0.5696381330490112,0.5436361531629479,0.1671412778677333,-0.8225105021864055,0.0670588247764421,7.0,0.0
38.602088928222656,-8.398550033569336,-0.4086220264434814,-0.0,-0.0,-1.0,0.0588485343222731,2.0,0.0
38.54636001586914,-8.622858047485352,-0.438477873802185,-0.0,-0.0,-1.0,0.0695826499954228,1.0,0.0
38.9259147644043,-7.025976657867432,-0.5947225093841553,0.0888464747926104,-0.8871294438132938,-0.4528881250777524,0.0269870289196853,5.0,0.0
38.853965759277344,-8.399349212646484,-0.421126127243042,-0.8615570731148845,0.312501850332898,0.4000774966231279,0.0385109407641617,3.0,0.0
39.049530029296875,-8.473213195800781,-0.4421006441116333,-0.0,-0.0,-1.0,0.0767666641728869,2.0,0.0
39.117828369140625,-6.940925121307373,-0.5902470350265503,0.7587827084038671,0.0743517833068869,-0.6470862490784189,0.0595481262065721,4.0,0.0
39.42643737792969,-7.544934749603272,-0.3290975093841553,-0.0,-0.0,-1.0,0.1038129433600296,1.0,0.0
39.29583740234375,-8.222772598266602,-0.419547438621521,-0.0,-0.0,-1.0,0.1727926883093536,2.0,0.0
39.3747444152832,-8.44866943359375,-0.4567896127700805,-0.0,-0.0,-1.0,0.0773821789427109,1.0,0.0
39.54871368408203,-7.6395087242126465,-0.3502061367034912,0.0414460307032338,0.4543791672541519,-0.8898436935239641,0.0764162938097639,4.0,0.0
39.18275833129883,-9.230428695678713,-0.1151238679885864,-0.0,-0.0,-1.0,0.1328886398453384,1.0,0.0
39.57334899902344,-9.203763961791992,-0.1336690187454223,-0.0,-0.0,-1.0,0.1202178534539897,1.0,0.0
39.78509521484375,-9.156171798706056,-0.1407445669174194,-0.3562513004055248,-0.7651813706735281,-0.5362671730896399,0.1644606670912398,4.0,0.0
40.16301345825195,-8.717023849487305,-0.1160820722579956,0.9361964922722412,0.1452886891426689,0.3200426919402413,0.0753504638083846,3.0,0.0
40.17618942260742,-9.327617645263672,-0.1831698417663574,-0.0,-0.0,-1.0,0.2095159956160138,1.0,0.0
37.969749450683594,-6.973952770233154,-0.6226284503936768,-0.0,-0.0,-1.0,0.0262108381957825,1.0,0.0
38.09186553955078,-8.215866088867188,-0.512195348739624,-0.0,-0.0,-1.0,0.0205374887565341,1.0,0.0
38.3705940246582,-6.870646953582764,-0.6085165739059448,-0.0,-0.0,-1.0,0.0585473468734576,1.0,0.0
38.41765975952149,-8.218799591064453,-0.5207351446151733,-0.0,-0.0,-1.0,0.0455734587269704,2.0,0.0
37.94386672973633,-8.628917694091797,-0.1949934959411621,-0.0,-0.0,-1.0,0.1822684440865869,1.0,0.0
38.1414794921875,-8.114171981811523,-0.4952170848846435,-0.9591810953509806,0.1790063812326419,0.2189254252006539,0.0391355855431156,3.0,0.0
38.60527420043945,-8.10512924194336,-0.3228064775466919,-0.0,-0.0,-1.0,0.1372837089314432,1.0,0.0
38.683311462402344,-9.182989120483398,-0.293776273727417,-0.0,-0.0,-1.0,0.1706632145883759,1.0,0.0
39.041385650634766,-7.8611741065979,-0.4787778854370117,0.4990902430391563,-0.3690620395089729,-0.7840294256573496,0.0763490842029535,3.0,0.0
38.88208770751953,-8.129276275634766,-0.3347500562667846,-0.0,-0.0,-1.0,0.2358697885989281,1.0,0.0
39.09841537475586,-8.451318740844727,-0.2058779001235962,-0.0,-0.0,-1.0,0.2144588708256275,2.0,0.0
39.31215286254883,-7.362548351287842,-0.4023447036743164,-0.0,-0.0,-1.0,0.1915851898028232,2.0,0.0
39.247283935546875,-7.756310939788818,-0.4691001176834106,0.4427555731097742,0.6680330606961217,0.5980797039669604,0.1690712461814402,4.0,0.0
39.253326416015625,-7.981616497039795,-0.5089727640151978,-0.0,-0.0,-1.0,0.1036260072744371,1.0,0.0
39.287132263183594,-8.576099395751953,-0.2311805486679077,-0.0,-0.0,-1.0,0.2102952058501248,1.0,0.0
39.48036575317383,-7.190200328826904,-0.3799651861190796,-0.0,-0.0,-1.0,0.1115766388953808,1.0,0.0
39.83695983886719,-8.445064544677734,-0.23834228515625,-0.0,-0.0,-1.0,0.1803040229481226,1.0,0.0
39.70741271972656,-8.659704208374023,-0.2620360851287842,-0.0,-0.0,-1.0,0.1828487559762763,1.0,0.0
39.87017822265625,-9.111085891723633,-0.3334875106811523,-0.0,-0.0,-1.0,0.2388026846745185,2.0,0.0
40.17550277709961,-9.156444549560549,-0.355853796005249,-0.8864330047910105,0.0845684670025548,-0.45506560231028,0.1171516659083116,3.0,0.0
39.717384338378906,-9.147748947143556,0.0706743001937866,-0.0,-0.0,-1.0,0.102914519750646,2.0,1.0
37.768646240234375,-7.242132663726807,-0.5872429609298706,-0.0,-0.0,-1.0,0.0407293602163736,1.0,0.0
37.89236068725586,-8.334962844848633,-0.4989596605300903,-0.1015854532674492,-0.9938035343405086,0.0451102074564154,0.0242516217811119,3.0,0.0
38.21376037597656,-7.0949320793151855,-0.5625360012054443,-0.047878890768623,-0.152729185032564,-0.9871075969001836,0.0414222962276782,3.0,0.0
38.09905624389648,-7.2143168449401855,-0.5872821807861328,0.8596485054945151,0.4811682501443486,-0.1717019570478795,0.0308439240137073,3.0,0.0
38.2977180480957,-8.279019355773926,-0.5004031658172607,-0.0,-0.0,-1.0,0.0385503640383674,1.0,0.0
38.38511276245117,-8.331589698791504,-0.5137158632278442,-0.0,-0.0,-1.0,0.0713211228603873,2.0,0.0
38.35361862182617,-7.05852746963501,-0.5580309629440308,0.5917475116648093,0.1438926811621557,-0.7931770160225726,0.0672326688902152,8.0,0.0
38.554412841796875,-7.209611415863037,-0.6003139019012451,-0.0,-0.0,-1.0,0.1058652609156096,1.0,0.0
38.689674377441406,-8.093890190124512,-0.4790658950805664,0.4590139045473088,0.6631565590345468,0.5912102956154378,0.0503383764200235,3.0,0.0
38.76134490966797,-9.24655055999756,-0.3393349647521972,-0.0,-0.0,-1.0,0.1991165158044387,1.0,0.0
38.95688247680664,-7.087748050689697,-0.5890169143676758,-0.0,-0.0,-1.0,0.0227381894833442,1.0,0.0
39.054168701171875,-7.968416690826416,-0.471310019493103,-0.2650477364199101,0.4563350427455095,-0.8494162855638778,0.0995162341894648,3.0,0.0
39.38953399658203,-9.346259117126465,-0.3870311975479126,-0.0,-0.0,-1.0,0.0413784280329677,1.0,0.0
39.20882797241211,-6.954743385314941,-0.570830225944519,-0.0,-0.0,-1.0,0.0986904676075604,1.0,0.0
39.40740966796875,-7.685912609100342,-0.4347903728485107,-0.9316868153812284,-0.1320677269039038,-0.3384047776778876,0.224558308534546,3.0,0.0
39.43186950683594,-7.824280261993408,-0.4634053707122803,-0.0327950748980109,0.0147581284314636,-0.9993531311341528,0.1240504655332376,4.0,0.0
39.47496795654297,-9.235047340393066,-0.3738514184951782,-0.0,-0.0,-1.0,0.1180452416251437,1.0,0.0
40.04403305053711,-9.086803436279297,-0.3848023414611816,0.8861483918862285,0.4359828323927678,-0.1570350197129006,0.1286950826848117,3.0,0.0
37.94716262817383,-8.549370765686035,-0.195692777633667,-0.0,-0.0,-1.0,0.1048315552725222,2.0,0.0
38.64512634277344,-8.071293830871582,-0.1448026895523071,-0.0,-0.0,-1.0,0.2127858650730846,1.0,0.0
38.91105270385742,-8.835468292236328,-0.2800114154815674,-0.0,-0.0,-1.0,0.0973305481850908,1.0,0.0
39.11556243896485,-8.389749526977539,-0.2182693481445312,0.5672815965656502,-0.2350468049282712,-0.7892683888836153,0.1681179797250971,3.0,0.0
39.673954010009766,-8.699352264404297,-0.2991757392883301,-0.0,-0.0,-1.0,0.1628141756941045,1.0,0.0
39.7298698425293,-9.103567123413086,-0.0056174993515014,-0.1332363998419662,-0.985877446263571,0.101457984929582,0.0982474799077533,5.0,0.0
39.837547302246094,-8.39742374420166,-0.2606598138809204,-0.0,-0.0,-1.0,0.1877314339017539,2.0,0.0
40.12486267089844,-8.748302459716797,-0.1611068248748779,-0.0,-0.0,-1.0,0.0682697374074308,1.0,0.0
39.99495697021485,-9.019429206848145,-0.3707236051559448,-0.1167371338037438,-0.3733348300492629,-0.9203225229577808,0.251582223743737,6.0,0.0
40.14823532104492,-9.34830093383789,-0.0614147186279296,-0.0,-0.0,-1.0,0.2095159956160138,1.0,0.0
40.14653778076172,-8.673900604248047,0.0229327678680419,-0.0,-0.0,-1.0,0.0971683985587594,1.0,1.0
37.77470779418945,-7.322432518005371,-0.612763524055481,-0.0,-0.0,-1.0,0.0494811782430768,1.0,0.0
37.80339050292969,-9.310577392578123,-0.4325606822967529,-0.0,-0.0,-1.0,0.0097726070921583,1.0,0.0
37.99266815185547,-7.273540496826172,-0.5940995216369629,-0.0,-0.0,-1.0,0.0385941937417089,2.0,0.0
38.0227165222168,-7.321878910064697,-0.6054069995880127,-0.0,-0.0,-1.0,0.0319759720938529,1.0,0.0
38.00934982299805,-8.167611122131348,-0.5191916227340698,-0.0,-0.0,-1.0,0.0190432207239795,1.0,0.0
38.05712890625,-9.245166778564451,-0.4181898832321167,-0.0,-0.0,-1.0,0.0480140369324779,2.0,0.0
38.32743453979492,-7.25678300857544,-0.583271861076355,-0.0,-0.0,-1.0,0.0250801040260986,1.0,0.0
38.38280487060547,-7.342641353607178,-0.6042640209197998,-0.0,-0.0,-1.0,0.0495886504974474,1.0,0.0
38.406715393066406,-8.231374740600586,-0.5290275812149048,-0.7897857698712222,0.3597567581007548,0.4968032937790932,0.0458570179541326,3.0,0.0
38.566558837890625,-9.151270866394045,-0.3997935056686401,-0.0,-0.0,-1.0,0.1617589996368164,2.0,0.0
38.77203750610352,-7.244234561920166,-0.5771450996398926,-0.0,-0.0,-1.0,0.0908649841902733,2.0,0.0
38.818206787109375,-7.984146595001221,-0.474583625793457,-0.009900804865482,-0.0846079114812885,-0.9963651315545872,0.1255655040464759,5.0,0.0
38.887176513671875,-8.229147911071777,-0.3794832229614258,0.0739718186978921,-0.2354136417880538,-0.9690761514445664,0.2259541129384305,3.0,0.0
38.8535270690918,-9.11791706085205,-0.3954859972000122,-0.0,-0.0,-1.0,0.0985322751049347,2.0,0.0
39.14900588989258,-7.114651203155518,-0.5470664501190186,-0.0,-0.0,-1.0,0.0495411588456225,2.0,0.0
39.21192169189453,-7.946120262145996,-0.4709208011627197,-0.0,-0.0,-1.0,0.1337554447003248,2.0,0.0
39.06678771972656,-8.282330513000488,-0.3904498815536499,0.4263930458777102,0.2280884107724867,-0.87530831556567,0.1538024165190678,4.0,0.0
39.33992767333984,-9.228199005126951,-0.422972559928894,-0.0,-0.0,-1.0,0.0605896334734173,1.0,0.0
39.20243835449219,-9.30275821685791,-0.4342759847640991,-0.4321492024173187,0.5277785780093622,-0.7312296762608111,0.0357019882095962,4.0,0.0
39.617191314697266,-7.443365573883057,-0.3692965507507324,-0.0,-0.0,-1.0,0.1479380858918868,2.0,0.0
39.58108901977539,-7.719501495361328,-0.4292562007904053,-0.0,-0.0,-1.0,0.1126806835727974,1.0,0.0
39.48844909667969,-8.103583335876465,-0.511682391166687,-0.0,-0.0,-1.0,0.0585739529473866,1.0,0.0
39.587406158447266,-8.630943298339844,-0.3180886507034302,-0.0,-0.0,-1.0,0.1655626707210656,1.0,0.0
39.68880081176758,-9.047605514526367,-0.3979363441467285,-0.0,-0.0,-1.0,0.1737235808649191,2.0,0.0
40.11262512207031,-8.691398620605469,-0.3459845781326294,-0.0,-0.0,-1.0,0.1499509937099874,1.0,0.0
40.0302734375,-9.021968841552734,-0.403691291809082,-0.0949010090874926,-0.9951727473213268,-0.0250000292619409,0.1819243611457529,3.0,0.0
39.94772720336914,-9.30490493774414,-0.4529882669448852,-0.0,-0.0,-1.0,0.2187381811170813,1.0,0.0
38.71915054321289,-8.061873435974121,-0.1992061138153076,-0.0,-0.0,-1.0,0.14387527689629,2.0,0.0
38.85990524291992,-8.08031940460205,-0.2035963535308838,-0.0,-0.0,-1.0,0.1346024546870693,1.0,0.0
39.08302688598633,-8.216440200805664,-0.2313333749771118,-0.4692426185325679,-0.6399172891438468,-0.6085369569775444,0.1596062791537539,4.0,0.0
39.110294342041016,-8.830107688903809,-0.0298104286193847,-0.0,-0.0,-1.0,0.1362850442386588,2.0,0.0
39.7115478515625,-9.10225772857666,-0.0824953317642211,-0.0,-0.0,-1.0,0.1382833720362142,1.0,0.0
40.174930572509766,-8.594437599182129,-0.020890474319458,0.2577187511372165,0.7111874522250361,-0.6540592122353571,0.1087149405721709,3.0,0.0
37.97932434082031,-7.766568183898926,-0.5537905693054199,-0.0,-0.0,-1.0,0.0342714238101425,1.0,0.0
37.80047225952149,-8.562472343444824,-0.4691283702850342,-0.0,-0.0,-1.0,0.0285491954524355,2.0,0.0
38.375694274902344,-7.828636169433594,-0.5634629726409912,-0.0,-0.0,-1.0,0.0418973018919413,2.0,0.0
38.20431137084961,-8.571392059326172,-0.4653041362762451,-0.1866629888416259,0.3766374091019047,-0.9073594605566836,0.0389596689404274,4.0,0.0
38.814979553222656,-7.727719783782959,-0.5369201898574829,-0.0,-0.0,-1.0,0.0530989198659031,1.0,0.0
38.771785736083984,-8.381969451904297,-0.4227030277252197,-0.7252476504035485,-0.5341181186229674,0.4344348983942175,0.0412851724898368,3.0,0.0
38.57553482055664,-8.518041610717773,-0.4521236419677734,-0.5501420626269481,0.5072649777343902,0.6633445208130508,0.0402450350439697,4.0,0.0
38.61888122558594,-9.09349250793457,-0.2748720645904541,0.0217127562386041,0.3786653486973703,-0.9252789362740416,0.1649240563067755,4.0,0.0
39.4405632019043,-7.162773609161377,-0.4023654460906982,-0.0,-0.0,-1.0,0.0848307834947793,1.0,0.0
39.236087799072266,-7.648321628570557,-0.5228774547576904,-0.0,-0.0,-1.0,0.1366026285734875,1.0,0.0
39.1212272644043,-7.927411079406738,-0.4556096792221069,0.9438894511899892,0.1090252130871511,-0.3117470237926297,0.1625098443815927,5.0,0.0
39.035274505615234,-8.431386947631836,-0.4368864297866821,-0.0,-0.0,-1.0,0.0760096508639349,2.0,0.0
39.46609878540039,-8.554569244384766,-0.473793625831604,-0.0,-0.0,-1.0,0.0946687601556509,2.0,0.0
39.21757507324219,-9.061880111694336,-0.2765464782714844,-0.0,-0.0,-1.0,0.1700842571435002,1.0,0.0
39.77131652832031,-8.496155738830566,-0.4707989692687988,-0.0,-0.0,-1.0,0.1184538745677513,2.0,0.0
39.76530075073242,-8.990127563476562,-0.2775136232376098,-0.8118826366262483,0.5672253181323643,-0.1382100677029325,0.1672021902281347,3.0,0.0
39.81207656860352,-9.192509651184082,-0.3165831565856933,-0.0,-0.0,-1.0,0.1560512182673223,1.0,0.0
40.17012405395508,-9.09205436706543,-0.3114532232284546,-0.0,-0.0,-1.0,0.1378109061222246,2.0,0.0
40.06055450439453,-9.257179260253906,-0.3375736474990845,-0.7750858535119701,0.28257352288663,-0.5651496473050833,0.1878481088185848,5.0,0.0
37.89794158935547,-8.577481269836426,-0.1813215017318725,-0.0,-0.0,-1.0,0.1351358673662977,2.0,0.0
39.27885055541992,-7.295078754425049,-0.1881444454193115,-0.0,-0.0,-1.0,0.1890849505014203,1.0,0.0
39.123409271240234,-8.437493324279785,-0.1582375764846801,-0.213672390412233,0.8160206051546657,-0.5370795858516091,0.2066822703711189,3.0,0.0
38.960914611816406,-8.531573295593262,-0.173274278640747,-0.0,-0.0,-1.0,0.1210102672035592,1.0,0.0
39.843055725097656,-7.183852195739746,-0.1826895475387573,-0.0,-0.0,-1.0,0.0559578858527247,2.0,0.0
40.04426193237305,-7.218978404998779,-0.2000399827957153,0.4152123017960354,-0.7088283710059161,-0.5702289758459645,0.0744101950370543,3.0,0.0
39.70359802246094,-9.099260330200195,0.0067430734634399,-0.2446430078772946,0.6279736094092961,-0.7387820683951464,0.0848832807795685,3.0,1.0
38.06813430786133,-7.970816612243652,-0.5308752059936523,-0.0,-0.0,-1.0,0.0381652905617879,1.0,0.0
37.76781463623047,-8.67770767211914,-0.447055459022522,-0.0,-0.0,-1.0,0.0701640855245401,2.0,0.0
38.727970123291016,-7.9449357986450195,-0.533345103263855,-0.465736341025993,0.4441189170027642,-0.7654071127236877,0.0921011313282491,4.0,0.0
38.460323333740234,-8.027446746826172,-0.5499629974365234,-0.0,-0.0,-1.0,0.0517762549832838,2.0,0.0
38.27772903442383,-8.69331169128418,-0.4539080858230591,-0.0,-0.0,-1.0,0.0189163488349371,1.0,0.0
38.190059661865234,-8.8035249710083,-0.4785298109054565,-0.0,-0.0,-1.0,0.0178636251043379,2.0,0.0
39.40516662597656,-7.50424861907959,-0.4414770603179931,-0.7676443577545521,-0.1949838237332435,-0.6104944295322968,0.2261939979997625,4.0,0.0
39.23722076416016,-7.727149963378906,-0.4935756921768188,-0.6745078353037401,0.3028986244201035,0.6732693394461622,0.1671303530358685,6.0,0.0
38.93016815185547,-7.930044174194336,-0.5359002351760864,-0.9141218289817112,-0.3031138613270025,0.2692643103914177,0.067216865015537,3.0,0.0
38.90656661987305,-8.505621910095215,-0.4239851236343384,0.1939969290730373,0.7814699260378216,-0.5930176609584851,0.0532681133017613,4.0,0.0
38.64690399169922,-8.69769287109375,-0.4620853662490845,-0.0,-0.0,-1.0,0.0526569240481288,1.0,0.0
39.615970611572266,-7.521703720092773,-0.459177017211914,-0.0,-0.0,-1.0,0.1614970736676089,1.0,0.0
39.452110290527344,-7.707358360290527,-0.4996697902679443,-0.0,-0.0,-1.0,0.1545931728558855,1.0,0.0
39.232765197753906,-8.274918556213379,-0.3821521997451782,0.9090142981469354,0.3010469975470106,-0.2882077567179015,0.1847051627210373,3.0,0.0
39.10197067260742,-8.495235443115234,-0.4289357662200928,-0.0,-0.0,-1.0,0.1434371765182489,2.0,0.0
39.81754302978515,-8.51500129699707,-0.4700183868408203,-0.0,-0.0,-1.0,0.1361946239866721,2.0,0.0
39.55142974853515,-8.678705215454102,-0.4932368993759155,-0.0,-0.0,-1.0,0.1113139677234086,1.0,0.0
39.974796295166016,-8.401670455932617,-0.4539035558700561,-0.0,-0.0,-1.0,0.1778733715605833,1.0,0.0
39.648197174072266,-7.137846946716309,-0.3572301864624023,-0.5196943668979419,-0.6065436480500626,-0.6016831126304517,0.165014728106196,3.0,0.0
39.2943229675293,-7.199994087219238,-0.1312869787216186,-0.0,-0.0,-1.0,0.158441161236005,1.0,0.0
39.11066818237305,-8.090019226074219,-0.3332298994064331,0.2429506088105427,-0.4920535714250483,-0.8359774425942617,0.2008537139847959,6.0,0.0
38.98715591430664,-8.448710441589355,-0.1511381864547729,-0.0,-0.0,-1.0,0.1924312911340284,1.0,0.0
38.65346145629883,-9.065247535705566,-0.2644898891448974,0.0137787914089075,-0.1488858690833464,-0.98875838448764,0.2038561579162148,7.0,0.0
39.16331100463867,-8.133600234985352,-0.3457149267196655,-0.5861314647332792,0.3114039475417519,-0.7479822775340567,0.2436630565822097,5.0,0.0
39.20185852050781,-8.474679946899414,-0.1644978523254394,-0.0,-0.0,-1.0,0.2111267066112159,1.0,0.0
38.68048477172851,-9.079153060913086,-0.267979621887207,-0.2816522820751754,-0.3705665224748667,-0.885071999569939,0.1602942412853787,4.0,0.0
39.83210372924805,-9.05317211151123,-0.1682169437408447,-0.0,-0.0,-1.0,0.1997335934693713,2.0,0.0
39.750205993652344,-9.097434043884276,-0.0298668146133422,-0.4947117953954176,0.3049704448544762,-0.8137894489743065,0.1234986473696937,5.0,0.0
40.17259216308594,-9.133851051330566,-0.3459854125976562,-0.8864330047910105,0.0845684670025548,-0.45506560231028,0.0965074473833804,3.0,0.0
40.08243942260742,-9.28102970123291,-0.3693763017654419,-0.7441520475944304,0.176322692459964,-0.6443198260062198,0.2078348578413031,3.0,0.0
37.88351058959961,-8.627290725708008,-0.4897899627685547,-0.0,-0.0,-1.0,0.0312779065609922,1.0,0.0
38.747459411621094,-8.375740051269531,-0.4556547403335571,0.3105417830855174,0.898800797291456,-0.3093879890142955,0.0372061141685533,4.0,0.0
38.541561126708984,-8.503959655761719,-0.4798117876052856,-0.0,-0.0,-1.0,0.0366840849804467,2.0,0.0
38.24082565307617,-8.622137069702148,-0.4988045692443847,-0.0,-0.0,-1.0,0.0304318667290177,1.0,0.0
39.33623504638672,-8.181922912597656,-0.4457007646560669,-0.0,-0.0,-1.0,0.1377571016004861,2.0,0.0
39.02036666870117,-8.351314544677734,-0.4671908617019653,-0.0,-0.0,-1.0,0.0805350312877086,2.0,0.0
38.77267074584961,-8.411918640136719,-0.4670668840408325,-0.2671278480960642,-0.5649530905338211,-0.7806860561505183,0.0361939124021433,4.0,0.0
38.57999038696289,-9.189209938049316,-0.4084212779998779,-0.0,-0.0,-1.0,0.1527513447351765,2.0,0.0
39.78143310546875,-8.071537017822266,-0.4587388038635254,-0.0,-0.0,-1.0,0.0496439302780032,1.0,0.0
39.6432991027832,-8.22472095489502,-0.4864869117736816,-0.0,-0.0,-1.0,0.0453644353856104,1.0,0.0
39.38075637817383,-8.417490005493164,-0.5132929086685181,-0.0,-0.0,-1.0,0.035016879302754,1.0,0.0
38.91889190673828,-9.2762451171875,-0.4471848011016845,0.8398852347913216,0.114971777084411,-0.5304472479460884,0.1160736829720537,3.0,0.0
40.00102996826172,-8.212560653686523,-0.5200070142745972,-0.0,-0.0,-1.0,0.1505917011473795,1.0,0.0
39.87418746948242,-8.312700271606445,-0.5326898097991943,-0.0,-0.0,-1.0,0.1321830496230717,1.0,0.0
39.67804718017578,-8.764094352722168,-0.5038647651672363,-0.0,-0.0,-1.0,0.0522425583002241,1.0,0.0
39.47483825683594,-9.096923828125,-0.4426894187927246,-0.3056729141400874,-0.7762002436119606,-0.5514320006835292,0.0370436852448321,3.0,0.0
39.20123291015625,-9.30258846282959,-0.4711824655532837,0.9057403757577084,-0.1580370541605515,-0.393266654109575,0.0716702831350033,4.0,0.0
39.985294342041016,-9.052311897277832,-0.4759339094161987,-0.0,-0.0,-1.0,0.1166484986902179,2.0,0.0
39.808746337890625,-9.324546813964844,-0.522720217704773,-0.0,-0.0,-1.0,0.1225173358073527,1.0,0.0
37.943790435791016,-8.614850997924805,-0.2484432458877563,-0.0,-0.0,-1.0,0.1881160587129221,2.0,0.0
39.3257942199707,-7.300922870635986,-0.2075859308242797,-0.0,-0.0,-1.0,0.2283892876722256,1.0,0.0
39.20728302001953,-7.269535541534424,-0.1883465051651001,-0.0,-0.0,-1.0,0.1590859215700256,1.0,0.0
38.91888427734375,-8.127208709716797,-0.1757200956344604,-0.0,-0.0,-1.0,0.2213817652645443,1.0,0.0
39.95945358276367,-7.065901756286621,-0.2159196138381958,-0.0,-0.0,-1.0,0.0923037370627916,1.0,0.0
39.723087310791016,-7.1331868171691895,-0.2044496536254882,-0.0,-0.0,-1.0,0.1496781213764676,2.0,0.0
39.562782287597656,-7.825099468231201,-0.3707770109176636,-0.0,-0.0,-1.0,0.0925593530826924,1.0,0.0
39.08763122558594,-8.37045669555664,-0.24409019947052,0.434995065339323,-0.4294498709857047,-0.7914240970812046,0.1283206258374995,3.0,0.0
39.71464920043945,-7.904396533966064,-0.4073367118835449,-0.0,-0.0,-1.0,0.046104764547978,2.0,0.0
39.120460510253906,-8.835334777832031,-0.2311375141143798,-0.0,-0.0,-1.0,0.2508819175070473,1.0,0.0
38.80443572998047,-9.30931568145752,-0.1866118907928466,-0.0,-0.0,-1.0,0.1625822801867323,1.0,0.0
40.073238372802734,-8.520880699157715,-0.3626314401626587,-0.0,-0.0,-1.0,0.1615005302666095,1.0,0.0
39.69939422607422,-9.091253280639648,-0.2000304460525512,-0.6797198778717443,-0.7325095170788662,0.0375592201051522,0.160962404749539,3.0,0.0
40.08527374267578,-8.967657089233398,-0.3330155611038208,-0.0,-0.0,-1.0,0.2432214233905745,1.0,0.0
39.73613357543945,-9.11797332763672,0.0486783981323242,-0.0,-0.0,-1.0,0.1029145197506461,2.0,1.0
37.729515075683594,-9.286834716796877,-0.4193379878997803,0.4821084590993965,0.8595744683420871,-0.1694200904238462,0.0088450709596542,3.0,0.0
38.26328659057617,-9.2863130569458,-0.4353382587432861,0.7743383524185424,0.5239236438279633,0.3548297217141866,0.0655637685048629,3.0,0.0
37.99767303466797,-9.332199096679688,-0.4384652376174927,-0.0,-0.0,-1.0,0.0093671303846342,2.0,0.0
39.25830841064453,-8.955007553100586,-0.4108316898345947,-0.0,-0.0,-1.0,0.2474340433259806,1.0,0.0
38.92317581176758,-9.20633316040039,-0.4506632089614868,-0.0,-0.0,-1.0,0.1098052543060713,1.0,0.0
38.554176330566406,-9.33481788635254,-0.4621584415435791,-0.0,-0.0,-1.0,0.0783624270203683,1.0,0.0
40.028709411621094,-8.716375350952148,-0.4277392625808716,-0.0,-0.0,-1.0,0.0384530224194563,1.0,0.0
39.75762939453125,-8.882551193237305,-0.4395613670349121,-0.0,-0.0,-1.0,0.0669321403471996,2.0,0.0
39.4413948059082,-9.073249816894531,-0.4574745893478393,-0.0,-0.0,-1.0,0.0619176564374844,2.0,0.0
39.13742446899414,-9.236007690429688,-0.4738800525665283,-0.0,-0.0,-1.0,0.097292516779106,2.0,0.0
40.14922332763672,-8.939722061157227,-0.4973616600036621,-0.0,-0.0,-1.0,0.1475535546810018,1.0,0.0
40.01763916015625,-9.197364807128906,-0.41783607006073,-0.0,-0.0,-1.0,0.2301805536032389,2.0,0.0
37.97222900390625,-8.638725280761719,-0.2522302865982055,-0.0,-0.0,-1.0,0.1782470121561007,2.0,0.0
38.955787658691406,-8.181238174438477,0.0176959037780761,-0.0,-0.0,-1.0,0.1254958263499715,1.0,1.0
39.10781478881836,-8.320283889770508,-0.2335319519042968,-0.0,-0.0,-1.0,0.1198096506336059,2.0,0.0
39.91715240478515,-8.409360885620117,-0.3383371829986572,-0.0,-0.0,-1.0,0.252787684215836,1.0,0.0
39.2372932434082,-8.951484680175781,-0.1750746965408325,-0.0,-0.0,-1.0,0.2007215167126029,2.0,0.0
39.73162460327149,-9.079177856445312,-0.1245269775390625,-0.4391137589659548,-0.1762134638399272,-0.8809812267286539,0.1819820969958104,4.0,0.0
40.094268798828125,-9.311966896057127,-0.3286176919937134,-0.0,-0.0,-1.0,0.1649541603986854,2.0,0.0
37.96709442138672,-8.69722843170166,-0.236297607421875,-0.0,-0.0,-1.0,0.1822535446045516,1.0,0.0
40.02237701416016,-7.123432159423828,-0.1880017518997192,-0.2959307332071251,0.5468018925219955,-0.7832194401812673,0.0677620682235697,3.0,0.0
39.79029846191406,-7.249737739562988,-0.3554528951644897,-0.0,-0.0,-1.0,0.0524833775940684,2.0,0.0
39.94231033325195,-7.5219573974609375,-0.4473575353622436,-0.0,-0.0,-1.0,0.1013814984240216,1.0,0.0
39.45756530761719,-8.832256317138672,-0.478588342666626,-0.0,-0.0,-1.0,0.0768172077532442,1.0,0.0
40.12028503417969,-9.206550598144531,-0.3943802118301391,-0.0,-0.0,-1.0,0.1833383672399867,1.0,0.0
39.339630126953125,-8.988000869750977,-0.5053966045379639,-0.0,-0.0,-1.0,0.0843389382000199,1.0,0.0
39.21324157714844,-9.066277503967283,-0.5120488405227661,-0.0,-0.0,-1.0,0.1001297639119178,2.0,0.0
39.74879455566406,-8.945687294006348,-0.0579133033752441,-0.0,-0.0,-1.0,0.1083252218537054,1.0,0.0
40.1695556640625,-9.153091430664062,-0.2590566873550415,-0.1673755261614559,-0.1398921353514098,-0.975917836556438,0.1181227533436479,3.0,0.0
39.83615493774414,-9.055774688720703,-0.3313347101211548,-0.0,-0.0,-1.0,0.2436102884115163,1.0,0.0
37.880157470703125,-8.335756301879883,-0.5439208745956421,-0.0,-0.0,-1.0,0.0242516217811119,2.0,0.0
37.826942443847656,-8.406152725219727,-0.544582724571228,-0.0,-0.0,-1.0,0.0285620432282365,1.0,0.0
39.11298751831055,-6.939948081970215,-0.6066218614578247,0.8324820389633892,-0.5476142515131952,0.0842157131597243,0.056038785580467,4.0,0.0
39.037994384765625,-7.024387836456299,-0.5788530111312866,-0.7176497048940114,-0.6896016282616995,-0.0971004395682703,0.0404478770220782,3.0,0.0
39.50141143798828,-6.988203048706055,-0.4678186178207397,-0.0522700854635044,0.6695151859977013,0.7409569851780207,0.1358686714299688,6.0,0.0
39.71046447753906,-7.001443386077881,-0.2633324861526489,-0.0,-0.0,-1.0,0.1290959101401531,2.0,0.0
39.20793533325195,-8.694843292236328,-0.4758622646331787,-0.0,-0.0,-1.0,0.0732956333183454,1.0,0.0
40.20269775390625,-8.581522941589355,-0.0735223293304443,-0.0,-0.0,-1.0,0.0919064078065598,1.0,0.0
39.189430236816406,-7.1017656326293945,-0.5268093347549438,0.4456072689688591,-0.0769101045542369,-0.8919187169577567,0.0688072907110182,5.0,0.0
38.842437744140625,-7.851409435272217,-0.5123698711395264,0.0079918226984033,-0.5910046567308652,-0.8066285554655187,0.0853742544285609,4.0,0.0
38.910343170166016,-7.666764259338379,-0.512505292892456,0.0953633411685809,-0.3887985832216368,-0.9163741020162086,0.0668613718144901,3.0,0.0
39.040435791015625,-7.344531536102295,-0.5156621932983398,-0.0,-0.0,-1.0,0.0300444559035745,1.0,0.0
38.58358001708984,-8.094158172607422,-0.4901367425918579,-0.0,-0.0,-1.0,0.1132743492671656,2.0,0.0
38.34836196899414,-8.278535842895508,-0.4691008329391479,-0.4141353831032415,0.0833597798078826,-0.9063901100366843,0.0660580005362115,3.0,0.0
40.0714225769043,-6.983475685119629,-0.1730004549026489,-0.0,-0.0,-1.0,0.0624310589671037,1.0,0.0
40.139156341552734,-9.183079719543455,-0.2495443820953369,-0.1673755261614559,-0.1398921353514098,-0.975917836556438,0.0843334226525074,3.0,0.0
39.85197448730469,-9.014719009399414,-0.2127770185470581,-0.0,-0.0,-1.0,0.2017795701914649,2.0,0.0
39.95405197143555,-8.302557945251465,-0.1967462301254272,-0.0,-0.0,-1.0,0.2459506633312508,1.0,0.0
39.269554138183594,-8.360760688781738,-0.1258703470230102,-0.0,-0.0,-1.0,0.167305236873415,1.0,0.0
39.320411682128906,-8.817251205444336,-0.1494796276092529,-0.0,-0.0,-1.0,0.1631025290358508,1.0,0.0
38.6898193359375,-7.330476760864258,-0.4653722047805786,0.0213669548295957,0.8749349883295676,-0.4837687664970206,0.1418630923523182,5.0,0.0
38.23953628540039,-8.181507110595703,-0.4486763477325439,-0.0,-0.0,-1.0,0.085759150761313,2.0,0.0
39.5916633605957,-6.901309490203857,-0.4361371994018554,-0.7545235921073825,0.5975517613339527,-0.2713411901648235,0.1754488056764212,3.0,0.0
39.39372253417969,-7.778151035308838,-0.4807802438735962,0.517256970151217,-0.0168558472283283,-0.8556641322646394,0.158268446857055,5.0,0.0
39.37356185913086,-7.377359390258789,-0.4483218193054199,-0.0,-0.0,-1.0,0.1503631405892832,2.0,0.0
39.30803680419922,-7.050111770629883,-0.4179021120071411,-0.0,-0.0,-1.0,0.1869816581153786,2.0,0.0
39.10734558105469,-7.9727373123168945,-0.4686198234558105,-0.0,-0.0,-1.0,0.1237522481988703,2.0,0.0
38.85322570800781,-8.1661376953125,-0.4605181217193603,-0.0,-0.0,-1.0,0.1230892817193589,2.0,0.0
38.808475494384766,-8.027280807495117,-0.4447811841964721,-0.0,-0.0,-1.0,0.0793520419964035,2.0,0.0
40.0511474609375,-7.591647624969482,-0.3816627264022827,-0.0,-0.0,-1.0,0.0581849197153452,1.0,0.0
40.08482360839844,-7.52126932144165,-0.3812445402145386,-0.0,-0.0,-1.0,0.0617314183424221,1.0,0.0
39.72928237915039,-7.396707534790039,-0.3415170907974243,-0.0,-0.0,-1.0,0.1004661598509481,2.0,0.0
39.727928161621094,-7.043536186218262,-0.3236960172653198,-0.0,-0.0,-1.0,0.1210865267422806,1.0,0.0
38.24165344238281,-9.30908203125,-0.1507483720779419,-0.0,-0.0,-1.0,0.1078330777711295,1.0,0.0
37.933448791503906,-8.540872573852539,-0.4586497545242309,-0.0,-0.0,-1.0,0.0633709896749708,2.0,0.0
38.41154479980469,-8.422962188720703,-0.487618088722229,-0.8542967782150983,0.5197038452872474,0.0092156348100482,0.047323949646574,3.0,0.0
38.082733154296875,-8.521175384521484,-0.467828631401062,-0.0,-0.0,-1.0,0.0733086854469434,2.0,0.0
38.67509460449219,-8.170368194580078,-0.5020703077316284,-0.0,-0.0,-1.0,0.0329420735847819,1.0,0.0
39.641876220703125,-7.30661678314209,-0.4489365816116333,-0.0,-0.0,-1.0,0.1769663055706813,1.0,0.0
39.49893951416016,-7.572871208190918,-0.4212666749954223,-0.0,-0.0,-1.0,0.2236213752445688,2.0,0.0
39.3082389831543,-8.027300834655762,-0.379402756690979,-0.6822046632171779,0.1564382679285572,0.7142295610041981,0.1081331749226323,3.0,0.0
39.742584228515625,-7.625008583068848,-0.4446626901626587,-0.0,-0.0,-1.0,0.0971729520322237,2.0,0.0
38.75923156738281,-9.05613613128662,-0.3827884197235107,-0.0,-0.0,-1.0,0.1969701003994045,1.0,0.0
38.88129806518555,-8.454251289367676,-0.4294953346252441,-0.6785451662555285,-0.6518852008528327,-0.338558919924316,0.0482403348593701,3.0,0.0
38.93457794189453,-8.739018440246582,-0.4203745126724243,-0.0,-0.0,-1.0,0.0526993574414447,1.0,0.0
39.268211364746094,-9.285504341125488,-0.4299825429916382,-0.0,-0.0,-1.0,0.0439602734027211,1.0,0.0
39.04434967041016,-7.9796247482299805,-0.4742674827575683,-0.2650477364199101,0.4563350427455095,-0.8494162855638778,0.0946490972461126,3.0,0.0
38.95256805419922,-8.28368091583252,-0.4470548629760742,-0.0,-0.0,-1.0,0.0867943310180632,2.0,0.0
39.313690185546875,-7.304568290710449,-0.5425362586975098,-0.0,-0.0,-1.0,0.1004122925788802,2.0,0.0
39.30583572387695,-7.675848960876465,-0.521428108215332,-0.0,-0.0,-1.0,0.1123351069152243,1.0,0.0
39.35906982421875,-6.891283988952637,-0.5704014301300049,-0.3544082868835803,0.4915974597457237,-0.7954412006929221,0.1325811697703675,3.0,0.0
39.87085723876953,-9.181774139404297,-0.183112621307373,-0.0,-0.0,-1.0,0.1636587749137421,1.0,0.0
38.79783630371094,-9.193809509277344,-0.3663722276687622,-0.0,-0.0,-1.0,0.1184862788924343,2.0,0.0
39.46852111816406,-9.201587677001951,-0.4262523651123047,-0.0,-0.0,-1.0,0.0470632097997493,1.0,0.0
39.58439636230469,-9.07505989074707,-0.4397709369659424,-0.0,-0.0,-1.0,0.0358334051145127,2.0,0.0
39.25251388549805,-8.02362060546875,-0.4360030889511108,-0.6645088928725873,0.5633807297607462,0.4909481486139832,0.1003002530757415,4.0,0.0
39.22317123413086,-8.28858757019043,-0.4266897439956665,0.6538697659371212,0.7118429284218447,-0.2563863772690484,0.2436752739595442,4.0,0.0
39.41983795166016,-7.874687194824219,-0.4549676179885864,-0.0,-0.0,-1.0,0.1021457786404711,1.0,0.0
39.42620849609375,-7.224435806274414,-0.47236168384552,-0.0,-0.0,-1.0,0.075991874233052,1.0,0.0
39.40724182128906,-7.497400283813477,-0.4635192155838012,-0.0,-0.0,-1.0,0.2363551496758417,2.0,0.0
39.462196350097656,-6.897466659545898,-0.4842649698257446,-0.0,-0.0,-1.0,0.1445549334752183,2.0,0.0
39.793270111083984,-9.142148971557615,-0.2089210748672485,-0.0,-0.0,-1.0,0.188454023074726,2.0,0.0
40.15351486206055,-9.329177856445312,-0.2350212335586547,0.6402946014458133,0.6103502422551577,-0.4663640264197251,0.2040356452428012,3.0,0.0
39.88439178466797,-8.357881546020508,-0.2315191030502319,0.5146631670715597,-0.8393177849456328,0.1751213303222313,0.2569459340875449,3.0,0.0
38.64173126220703,-9.04129123687744,-0.2889539003372192,-0.3570676903028201,-0.7620625304603753,-0.5401512419777804,0.2038561579162147,4.0,0.0
39.984710693359375,-9.12644863128662,-0.3939870595932007,-0.0,-0.0,-1.0,0.2118575175330423,1.0,0.0
39.225738525390625,-8.141180992126465,-0.3375368118286133,-0.0,-0.0,-1.0,0.157285513862808,1.0,0.0
40.1253662109375,-8.480818748474121,-0.4072157144546509,-0.0,-0.0,-1.0,0.1262895762558688,1.0,0.0
39.6434326171875,-7.719805717468262,-0.3718971014022827,-0.0,-0.0,-1.0,0.1090000308549329,2.0,0.0
39.57099151611328,-7.125491142272949,-0.368358850479126,-0.922610490233944,-0.2693298846477405,0.276136373094737,0.0942518396181975,3.0,0.0
39.67491912841797,-7.411959648132324,-0.3755031824111938,0.7797141112914544,-0.3749726536708864,-0.501439341946752,0.1950464757265757,4.0,0.0
39.681861877441406,-6.961077690124512,-0.3777569532394409,-0.0,-0.0,-1.0,0.1744104375529266,1.0,0.0
39.77802658081055,-9.057969093322754,-0.1201617717742919,-0.0,-0.0,-1.0,0.1839541187144218,2.0,0.0
39.832763671875,-7.0055341720581055,-0.1613320112228393,-0.0,-0.0,-1.0,0.128368248030588,1.0,0.0
37.83919525146485,-7.581900596618652,-0.5266373157501221,-0.0,-0.0,-1.0,0.0281491061636186,1.0,0.0
38.05992126464844,-7.695158958435059,-0.548764705657959,-0.0,-0.0,-1.0,0.0272720815122402,2.0,0.0
38.297576904296875,-7.411622047424316,-0.5725133419036865,-0.0,-0.0,-1.0,0.0279815530936986,1.0,0.0
38.31844329833984,-7.067780494689941,-0.5747061967849731,0.5373235307343814,0.1893075783854534,-0.821855257381112,0.0632873346166102,7.0,0.0
38.54248809814453,-7.094748497009277,-0.5973044633865356,-0.0,-0.0,-1.0,0.0716368248399125,2.0,0.0
37.97998809814453,-8.551566123962402,-0.482177734375,-0.0,-0.0,-1.0,0.0827543079089256,2.0,0.0
38.20178985595703,-8.344393730163574,-0.5013390779495239,-0.0,-0.0,-1.0,0.0215435486179247,1.0,0.0
38.31523895263672,-8.338711738586426,-0.5119361877441406,-0.0,-0.0,-1.0,0.051780568074574,1.0,0.0
38.361061096191406,-8.009881019592285,-0.5139347314834595,-0.0,-0.0,-1.0,0.0578332967585524,1.0,0.0
38.65117263793945,-7.991316795349121,-0.5411896705627441,-0.0,-0.0,-1.0,0.0657024801385873,1.0,0.0
38.72350311279297,-7.63980770111084,-0.545846700668335,-0.0,-0.0,-1.0,0.0196833664604005,1.0,0.0
38.76130676269531,-7.79856014251709,-0.5504050254821777,-0.0,-0.0,-1.0,0.0688850848130308,1.0,0.0
38.85331726074219,-7.229855537414551,-0.5558648109436035,-0.0,-0.0,-1.0,0.0600937884701463,2.0,0.0
39.13542175292969,-7.044560432434082,-0.5819351673126221,-0.0,-0.0,-1.0,0.0441858111312002,1.0,0.0
38.018768310546875,-8.663211822509766,-0.3975852727890014,-0.7383210407239472,-0.670612220603499,0.0718421213603212,0.2166061065372744,3.0,0.0
38.544464111328125,-9.099504470825195,-0.4504257440567016,-0.0,-0.0,-1.0,0.1334354107472469,1.0,0.0
38.62408828735352,-9.25042724609375,-0.458986759185791,-0.0,-0.0,-1.0,0.081903428790733,1.0,0.0
38.59003448486328,-8.596044540405273,-0.4517441987991333,-0.0,-0.0,-1.0,0.0713921572475087,1.0,0.0
38.76595687866211,-9.02226448059082,-0.4710931777954101,-0.0,-0.0,-1.0,0.1300218757476697,1.0,0.0
38.81146240234375,-8.163955688476562,-0.4707229137420654,0.2423429819144512,0.1784031537193642,-0.9536467867401416,0.0755805814630395,3.0,0.0
38.78880310058594,-8.378080368041992,-0.4696481227874756,-0.315631895484713,0.0783419908144684,-0.9456421305271636,0.035010182444839,3.0,0.0
38.887393951416016,-8.004121780395508,-0.4772915840148926,-0.8534163427700626,-0.5000568136637,-0.1470500901104046,0.099666080304565,5.0,0.0
39.10222244262695,-7.921211242675781,-0.4977457523345947,-0.0,-0.0,-1.0,0.103955050603011,2.0,0.0
39.35832977294922,-7.53050422668457,-0.5211286544799805,-0.9857968124724265,0.1019799075486948,0.1334344145097632,0.1563021123112722,5.0,0.0
39.27989959716797,-7.764362335205078,-0.5143865346908569,-0.0,-0.0,-1.0,0.1742827709903089,2.0,0.0
39.32696533203125,-7.16374397277832,-0.5167850255966187,-0.0,-0.0,-1.0,0.1248264007536089,2.0,0.0
39.52881622314453,-6.954516410827637,-0.536005973815918,-0.0,-0.0,-1.0,0.1196533018429494,1.0,0.0
39.04377746582031,-8.76012134552002,-0.2850657701492309,-0.0,-0.0,-1.0,0.109560594200555,1.0,0.0
40.17582702636719,-9.064322471618652,-0.3591231107711792,-0.0,-0.0,-1.0,0.1544904844769241,2.0,0.0
39.63982009887695,-7.3195295333862305,-0.264146089553833,-0.0,-0.0,-1.0,0.1063400214534442,1.0,0.0
39.68205261230469,-6.9351911544799805,-0.2526947259902954,-0.0,-0.0,-1.0,0.1421124311713075,1.0,0.0
38.762569427490234,-8.929497718811035,-0.1781837940216064,-0.0,-0.0,-1.0,0.09791881324203,1.0,0.0
39.99815368652344,-8.942158699035645,-0.2243508100509643,-0.0,-0.0,-1.0,0.1693766305081379,1.0,0.0
37.77867889404297,-8.522432327270508,-0.4688124656677246,-0.0,-0.0,-1.0,0.0472496539244294,2.0,0.0
38.0778923034668,-8.467020034790039,-0.4837378263473511,-0.0,-0.0,-1.0,0.0499778329186373,2.0,0.0
38.416168212890625,-8.260658264160156,-0.4927946329116821,-0.6086978973459963,0.5319091459983549,0.5886930695785906,0.0667268003180599,3.0,0.0
38.702980041503906,-7.312382221221924,-0.458776593208313,0.9091523815537602,0.070442836688735,-0.4104628532210564,0.1321675340471765,5.0,0.0
38.92815017700195,-7.896331310272217,-0.5048000812530518,-0.993035007945548,-0.0258166912760402,0.1149563893228325,0.0508617867640078,6.0,0.0
38.797821044921875,-8.071174621582031,-0.5061266422271729,-0.0,-0.0,-1.0,0.0818468950136805,1.0,0.0
39.078163146972656,-7.7635817527771,-0.5072555541992188,-0.0,-0.0,-1.0,0.0683525620156569,2.0,0.0
39.39235305786133,-7.137082576751709,-0.4947360754013061,-0.0,-0.0,-1.0,0.1245402385070927,1.0,0.0
39.36748123168945,-7.558192729949951,-0.5150744915008545,0.3146207578791371,-0.1023519605297561,-0.943683132670746,0.1587032483005249,3.0,0.0
39.56703567504883,-6.980936527252197,-0.4983472824096679,-0.0,-0.0,-1.0,0.1480405174879829,1.0,0.0
39.89628219604492,-9.087858200073242,0.1437972784042358,-0.0,-0.0,-1.0,0.1554248909645461,1.0,1.0
37.86973571777344,-8.121764183044434,-0.4972151517868042,-0.0,-0.0,-1.0,0.032750690127718,2.0,0.0
38.14203643798828,-7.919766426086426,-0.5113295316696167,-0.0,-0.0,-1.0,0.1067948252406006,1.0,0.0
38.030494689941406,-8.090476989746094,-0.5092508792877197,-0.8781416666331516,0.4637303547004142,-0.1175643289955712,0.0350568906418019,3.0,0.0
38.64462661743164,-7.423015594482422,-0.5331007242202759,0.5332560549679358,0.7969558087724671,-0.2837241947805231,0.0661426618336633,4.0,0.0
38.59955978393555,-7.825173377990723,-0.5458110570907593,-0.0,-0.0,-1.0,0.0394076568486196,2.0,0.0
39.02561569213867,-7.119966506958008,-0.5533972978591919,-0.6554829922503902,-0.7546313799160033,0.0295554955387972,0.0283184753414095,3.0,0.0
38.82610321044922,-7.224423408508301,-0.5405044555664062,0.1132481886042475,0.982651794654888,-0.146868302364344,0.0782289984678994,3.0,0.0
38.77796173095703,-7.619285583496094,-0.5524091720581055,0.5691887744387696,0.1028166751133167,-0.8157529468972421,0.0417933911427499,3.0,0.0
39.258567810058594,-6.922538757324219,-0.565656304359436,-0.0,-0.0,-1.0,0.1695443365247433,1.0,0.0
37.813846588134766,-7.469130992889404,-0.5223113298416138,-0.1887004769795801,0.6201312006451695,-0.7614653137038218,0.0697601084312717,3.0,0.0
37.83060073852539,-7.709064960479736,-0.5285675525665283,-0.0,-0.0,-1.0,0.0265609126809582,2.0,0.0
38.319366455078125,-7.103684902191162,-0.5740077495574951,-0.0,-0.0,-1.0,0.0591459441245559,2.0,0.0
38.24592208862305,-7.446323871612549,-0.571365237236023,-0.0,-0.0,-1.0,0.0217972296470157,1.0,0.0
38.63806915283203,-6.962356090545654,-0.6085401773452759,-0.5568938038489833,0.6082243836236527,0.5656256627843522,0.0445625546788261,3.0,0.0
37.86866760253906,-8.234979629516602,-0.4919366836547851,-0.0,-0.0,-1.0,0.0279404725023097,1.0,0.0
38.2535400390625,-7.907950401306152,-0.5254197120666504,-0.0,-0.0,-1.0,0.1025309639548175,2.0,0.0
38.08848571777344,-8.093107223510742,-0.512047290802002,-0.0,-0.0,-1.0,0.0342742686241833,1.0,0.0
38.70331573486328,-7.210618019104004,-0.5584121942520142,-0.0,-0.0,-1.0,0.0998512546052229,2.0,0.0
38.613731384277344,-7.48527717590332,-0.5547362565994263,0.2821776999505512,0.902676367123615,-0.3248863214835762,0.0467888614633741,3.0,0.0
38.59226989746094,-7.772800445556641,-0.5589849948883057,-0.0,-0.0,-1.0,0.031058894166669,1.0,0.0
38.972877502441406,-7.012735366821289,-0.5838192701339722,0.2157588147400519,-0.6336094297619086,-0.7429584270864399,0.02711492472169,4.0,0.0
39.7985954284668,-9.07689094543457,-0.0330581665039062,-0.0,-0.0,-1.0,0.1220458699172096,2.0,0.0
38.08610916137695,-7.270219326019287,-0.5757362842559814,-0.0,-0.0,-1.0,0.024554981311444,2.0,0.0
37.95126724243164,-7.43371057510376,-0.5683507919311523,-0.0884876375033594,-0.8606479659528552,-0.501452905775096,0.0332007167762268,3.0,0.0
38.36468124389648,-7.012851238250732,-0.5946176052093506,-0.0,-0.0,-1.0,0.0725547667143398,2.0,0.0
39.14202880859375,-8.471199035644531,-0.1101734638214111,-0.0,-0.0,-1.0,0.1924206075420398,1.0,0.0
39.27110290527344,-8.934978485107422,-0.1314411163330078,-0.0,-0.0,-1.0,0.1883028447980838,1.0,0.0
39.80706405639648,-9.137537002563477,-0.1771690845489502,-0.148241771702262,-0.9480752898101472,-0.2813851843540802,0.1721853459419986,4.0,0.0
39.99284362792969,-9.340829849243164,-0.1963155269622802,-0.0,-0.0,-1.0,0.1726051177068207,1.0,0.0
40.18547058105469,-8.598678588867188,-0.1927990913391113,-0.0,-0.0,-1.0,0.0858314209461863,1.0,0.0
37.74214553833008,-9.081576347351074,-0.4172728061676025,-0.0,-0.0,-1.0,0.0076658532152923,2.0,0.0
38.249786376953125,-8.554322242736816,-0.4690055847167969,-0.1201366808257124,0.3610503036599627,-0.9247755706911972,0.0196716513711266,5.0,0.0
38.094444274902344,-8.653388977050781,-0.452003002166748,0.1445863498118214,-0.9014158664312808,-0.4080983008957978,0.0526558926405301,3.0,0.0
38.65362548828125,-7.417384624481201,-0.5019371509552002,0.5332560549679358,0.7969558087724671,-0.2837241947805231,0.0751423175544337,4.0,0.0
38.69856262207031,-8.067279815673828,-0.5158153772354126,0.4590139045473088,0.6631565590345468,0.5912102956154378,0.0682899156514972,3.0,0.0
38.52747344970703,-8.330864906311035,-0.4989645481109619,-0.2589758841830306,-0.2355692855668954,-0.9367169279505524,0.0661453650418521,3.0,0.0
38.849891662597656,-7.2978739738464355,-0.524407148361206,-0.0,-0.0,-1.0,0.0669655460359466,2.0,0.0
