x,y,z,nx,ny,nz,curvature,density,label
9.826620101928713,-5.690481185913086,0.2014023065567016,-0.0,-0.0,-1.0,0.2091122066863497,1.0,1.0
9.986928939819336,-5.621818542480469,0.2026108503341674,-0.0,-0.0,-1.0,0.1483278201310806,1.0,1.0
9.995664596557615,-4.677486419677734,0.2567529678344726,-0.0,-0.0,-1.0,0.1349351376987367,2.0,1.0
10.105428695678713,-6.031560897827148,0.8728607892990112,-0.0,-0.0,-1.0,0.1171283655706146,2.0,1.0
9.695394515991213,-5.1114397048950195,0.0594414472579956,-0.0,-0.0,-1.0,0.0349446088259113,1.0,1.0
9.876642227172852,-5.1873884201049805,0.0502628087997436,-0.0,-0.0,-1.0,0.1050148207854144,1.0,1.0
8.671943664550781,-5.607569694519043,0.7304551601409912,-0.896465958929078,0.4342455495166258,0.0882019682681315,0.1076401296447559,7.0,1.0
9.522693634033203,-4.909218788146973,0.7332255840301514,0.8970708055447597,0.3856820107863772,-0.2156695537043946,0.1034424605863577,3.0,1.0
9.511255264282228,-4.407191276550293,0.7534761428833008,0.1111502247740034,0.6484181589680795,-0.7531264957848282,0.1701961708263813,4.0,1.0
9.530458450317385,-4.409372329711914,0.0791280269622802,-0.0,-0.0,-1.0,0.1556235769194477,1.0,1.0
8.458403587341309,-5.635822296142578,0.6861791610717773,-0.0,-0.0,-1.0,0.1491504759111361,1.0,1.0
9.951048851013184,-6.85887336730957,0.575080156326294,-0.0,-0.0,-1.0,0.1014605922136267,2.0,1.0
9.177536010742188,-5.701826095581055,0.660096287727356,0.4293641143275258,-0.8883342517983591,-0.1628149698571633,0.1646991546452395,3.0,1.0
10.19032096862793,-6.430421829223633,0.5876463651657104,-0.0,-0.0,-1.0,0.0596620697337499,2.0,1.0
10.027575492858888,-5.747699737548828,0.6280492544174194,-0.0,-0.0,-1.0,0.1733295579436412,1.0,1.0
9.370969772338867,-4.665536880493164,0.7038530111312866,0.1224391731921855,-0.9904511959536048,-0.0633646376308425,0.1782061735985964,3.0,1.0
8.460005760192871,-6.243844032287598,0.4054224491119385,-0.2825954316587548,0.9137571849889584,-0.291869198249245,0.1204243395774651,4.0,1.0
8.462993621826172,-5.680733680725098,0.4397841691970825,-0.0,-0.0,-1.0,0.2142726788087261,1.0,1.0
9.471041679382324,-6.546425819396973,0.3606501221656799,-0.0,-0.0,-1.0,0.0913680490763967,1.0,1.0
9.222116470336914,-5.480463981628418,0.434148907661438,-0.0,-0.0,-1.0,0.1474369502515694,2.0,1.0
9.375511169433594,-5.402100563049316,0.4351915121078491,-0.0,-0.0,-1.0,0.0903461439794146,2.0,1.0
9.81539535522461,-5.689663887023926,0.4055597186088562,-0.0580476384212014,0.2390946012432069,-0.9692596366970374,0.1173966005401084,3.0,1.0
9.910795211791992,-6.177309989929199,0.3718249201774597,-0.0,-0.0,-1.0,0.1825646018013279,1.0,1.0
9.625561714172363,-5.3444414138793945,0.4323762655258178,-0.788976767883354,0.4784562770724243,-0.3854805451256026,0.1652555836173255,3.0,1.0
9.786099433898926,-5.52713680267334,0.4166405200958252,0.1536407036610459,0.6992133101740858,-0.6982086228728033,0.1158357679776362,4.0,1.0
9.474688529968262,-4.409826278686523,0.4941684007644653,-0.0,-0.0,-1.0,0.2050156243890337,1.0,1.0
9.469282150268556,-4.814028739929199,0.4693785905838012,-0.0,-0.0,-1.0,0.1450843629497846,2.0,1.0
8.629770278930664,-4.659084320068359,0.1531119346618652,-0.0,-0.0,-1.0,0.092979775893692,1.0,1.0
8.641889572143555,-5.572861671447754,0.7613933086395264,-0.0,-0.0,-1.0,0.097870223900194,2.0,1.0
9.955504417419434,-6.084843635559082,0.7042772769927979,-0.0,-0.0,-1.0,0.1764485402006761,1.0,1.0
9.41264533996582,-4.475246429443359,0.7924413681030273,-0.0,-0.0,-1.0,0.0985966811054485,2.0,1.0
8.70430850982666,-4.91071891784668,0.2259086370468139,0.1348269207017031,0.8117418796428607,-0.56824010971417,0.2138584971891054,4.0,1.0
9.602513313293455,-5.595819473266602,0.1888611316680908,-0.0,-0.0,-1.0,0.1884948123015083,1.0,1.0
8.208218574523926,-6.246889114379883,0.6893807649612427,-0.1705296154955664,0.5776047617082959,-0.7983059498029793,0.1657233214461906,3.0,1.0
8.569156646728516,-6.239018440246582,0.6887398958206177,-0.0,-0.0,-1.0,0.1089668921954161,1.0,1.0
8.957138061523438,-5.341353416442871,0.1389578580856323,-0.0,-0.0,-1.0,0.0519253371328302,1.0,1.0
8.751938819885254,-4.862174034118652,0.1615815162658691,-0.0,-0.0,-1.0,0.2241078386716395,1.0,1.0
9.108595848083496,-5.365140914916992,0.1410337686538696,-0.0,-0.0,-1.0,0.0949641359317859,2.0,1.0
9.482513427734377,-4.765169143676758,0.1850398778915405,-0.0,-0.0,-1.0,0.1750569390895689,1.0,1.0
8.25057315826416,-6.233218193054199,0.7742185592651367,-0.0,-0.0,-1.0,0.1426884497806128,1.0,1.0
9.53207778930664,-4.906482696533203,0.8175125122070312,0.7335963478385598,-0.6033864315870567,-0.3126678950812908,0.0878700256106648,4.0,1.0
8.30017375946045,-6.090610504150391,0.4379715919494629,-0.1367736649956523,-0.812567419231352,-0.5665925818146198,0.131929345174403,3.0,1.0
8.352148056030273,-5.948697090148926,0.4443633556365967,-0.0,-0.0,-1.0,0.1497034921923986,1.0,1.0
8.559253692626953,-5.608538627624512,0.4613003730773926,-0.5950755502397211,-0.0376636196114908,-0.802786734609295,0.1508517264588487,3.0,1.0
9.401597023010254,-4.677148818969727,0.5131710171699524,-0.0,-0.0,-1.0,0.165753321625981,2.0,1.0
8.824894905090332,-4.4485883712768555,0.0711685419082641,-0.0,-0.0,-1.0,0.0518098139992117,1.0,1.0
9.294279098510742,-4.649620056152344,0.7148938775062561,-0.0,-0.0,-1.0,0.1771475127752425,1.0,1.0
9.728581428527832,-5.8017354011535645,0.3034766316413879,-0.0,-0.0,-1.0,0.1121807844373121,1.0,1.0
9.993480682373049,-5.60409688949585,0.3202881813049316,-0.0,-0.0,-1.0,0.1458903265790536,1.0,1.0
10.197932243347168,-6.336019039154053,0.9407721757888794,-0.0,-0.0,-1.0,0.0370105066596949,1.0,1.0
9.673912048339844,-6.002839088439941,0.2375093102455139,-0.0,-0.0,-1.0,0.084969619732865,1.0,1.0
9.80577278137207,-5.546326637268066,0.2688156366348266,-0.0,-0.0,-1.0,0.0791750908158421,1.0,1.0
9.795018196105955,-5.794853210449219,0.2532678842544555,-0.0,-0.0,-1.0,0.1463298679847822,2.0,1.0
8.587482452392578,-5.727989673614502,0.3270721435546875,-0.0,-0.0,-1.0,0.2051142682540969,1.0,1.0
8.403827667236328,-5.913597583770752,0.3120712041854858,-0.0,-0.0,-1.0,0.2057631480935847,1.0,1.0
9.649112701416016,-5.283911228179932,0.3827292919158935,-0.0,-0.0,-1.0,0.1890186461961754,2.0,1.0
9.749053955078123,-5.447621822357178,0.3774267435073852,0.2387087629518588,-0.94726794123779,-0.2137792646472343,0.1765264605178627,5.0,1.0
9.7726411819458,-5.75488805770874,0.3621747493743896,-0.0,-0.0,-1.0,0.1241740463932621,1.0,1.0
9.837054252624512,-5.566127300262451,0.3740322589874267,0.5052079350576643,-0.8401967762726321,0.1970642522017808,0.1015563846067974,3.0,1.0
9.874999046325684,-5.759121894836426,0.2510418891906738,-0.0,-0.0,-1.0,0.1915334461766155,2.0,1.0
8.24730110168457,-6.283669471740723,0.7851388454437256,0.3828085220868638,-0.0136026394624749,-0.9237275591955264,0.1634931252124669,4.0,1.0
9.974786758422852,-6.859347343444824,0.7790026068687439,-0.1313803894576925,-0.8952824108902705,0.4256860322073651,0.1733272894729452,5.0,1.0
8.616925239562988,-5.581409454345703,0.6361769437789917,-0.6558417757906452,0.3842406848959965,0.6497927832766601,0.2106823776667152,3.0,1.0
9.30276107788086,-5.65638542175293,0.6448404788970947,0.7196536381950919,-0.2435419695299031,-0.6502199244179341,0.1272960508579952,3.0,1.0
9.295867919921877,-5.782510757446289,0.6381245851516724,-0.0,-0.0,-1.0,0.1259177765273468,2.0,1.0
10.188080787658691,-6.394937038421631,0.6192218065261841,-0.0,-0.0,-1.0,0.082363405810946,2.0,1.0
10.009469985961914,-6.847949504852295,0.5903500318527222,-0.0,-0.0,-1.0,0.0658353628092197,1.0,1.0
8.31715202331543,-6.201656818389893,1.21069598197937,-0.0,-0.0,-1.0,0.0901727827318046,2.0,2.0
10.120049476623535,-6.583915710449219,1.1693084239959717,-0.0657329098508934,0.0512775631051927,-0.9965188388006152,0.1676689178847925,4.0,2.0
8.335647583007812,-6.582712173461914,0.4806331396102905,-0.5459173171369803,-0.6781254360877517,-0.4920570858962991,0.057206126667848,3.0,1.0
9.74959945678711,-5.324487686157227,0.5772155523300171,-0.0,-0.0,-1.0,0.1781967516631359,2.0,1.0
9.769732475280762,-5.4035868644714355,0.5755753517150879,-0.0,-0.0,-1.0,0.2059139806728371,1.0,1.0
9.949382781982422,-6.8346266746521,0.5305813550949097,0.2148496555428863,-0.823703840365891,0.524739562906768,0.1462655960961283,4.0,1.0
10.207698822021484,-6.2056379318237305,0.5647280216217041,-0.0,-0.0,-1.0,0.1230929043758054,1.0,1.0
9.574804306030272,-6.711203575134277,1.09134042263031,-0.0,-0.0,-1.0,0.2229506772271854,2.0,2.0
10.042805671691896,-6.738485336303711,1.0927200317382812,-0.5539710985341422,-0.3439255009225655,-0.7581762801644735,0.1338249748560684,4.0,2.0
8.480575561523438,-6.423445701599121,0.4433538913726806,-0.0,-0.0,-1.0,0.1765966172216947,1.0,1.0
8.46129035949707,-6.523201942443848,0.4379842281341553,-0.0,-0.0,-1.0,0.1136522325836143,1.0,1.0
8.881192207336426,-6.684127330780029,0.4609910249710083,-0.0,-0.0,-1.0,0.110519947072155,2.0,1.0
9.099583625793455,-6.733513832092285,0.4741945266723633,-0.0,-0.0,-1.0,0.0855437863675952,1.0,1.0
9.549768447875977,-5.737766265869141,0.546440601348877,-0.0,-0.0,-1.0,0.0997008833347662,2.0,1.0
9.740677833557127,-6.668506622314453,0.5217677354812622,-0.0,-0.0,-1.0,0.1963063445190856,1.0,1.0
9.72092342376709,-5.368863582611084,0.5722695589065552,-0.978694597391794,-0.0494485079766619,0.199278022107297,0.2099163338559311,3.0,1.0
9.70659637451172,-5.572848320007324,0.5638656616210938,-0.0,-0.0,-1.0,0.104138249626134,1.0,1.0
8.402837753295898,-6.173991680145264,1.0482168197631836,-0.0,-0.0,-1.0,0.1019531352685655,1.0,2.0
10.043158531188965,-6.731853485107422,1.0932444334030151,-0.0200406376956244,0.0798709399183326,-0.9966037355926954,0.1338249748560684,3.0,2.0
8.204784393310547,-4.431869029998779,0.1800631284713745,-0.0,-0.0,-1.0,0.0803039482837785,1.0,1.0
8.151651382446289,-4.611658096313477,0.169291615486145,-0.0,-0.0,-1.0,0.0677331489797526,2.0,1.0
8.707569122314453,-4.930337905883789,0.2106486558914184,0.1348269207017031,0.8117418796428607,-0.56824010971417,0.2103660931820881,4.0,1.0
8.607904434204102,-5.4153900146484375,0.1826127767562866,-0.0,-0.0,-1.0,0.113477150172144,1.0,1.0
9.571380615234377,-5.348361968994141,0.2748245000839233,-0.0,-0.0,-1.0,0.1738399133182499,1.0,1.0
9.55457878112793,-4.469573497772217,0.3064165115356445,-0.0,-0.0,-1.0,0.177479235154978,1.0,1.0
9.672856330871582,-5.465289115905762,0.2792232036590576,-0.9670907299821772,0.1081688020461426,-0.2302933569307673,0.1666620344487455,4.0,1.0
9.777623176574709,-5.625306129455566,0.2816954851150512,-0.0,-0.0,-1.0,0.0828576127576996,2.0,1.0
10.193952560424805,-6.107034683227539,0.2966727018356323,-0.0,-0.0,-1.0,0.1724758684229785,1.0,1.0
8.666162490844727,-5.527695178985596,0.7713366746902466,-0.0,-0.0,-1.0,0.0774358020302618,1.0,1.0
10.012611389160156,-4.577345371246338,0.3458808660507202,-0.0,-0.0,-1.0,0.0979793467700592,1.0,1.0
9.380138397216797,-4.642025470733643,0.8412493467330933,-0.0,-0.0,-1.0,0.12444933077846,1.0,1.0
10.002931594848633,-6.850061416625977,0.794690728187561,0.1525688688474622,-0.7467191272415201,0.6474050395774413,0.1804005148771532,5.0,1.0
8.126043319702148,-4.486732006072998,0.1494086980819702,-0.0,-0.0,-1.0,0.0887941402227221,1.0,1.0
8.673423767089844,-4.7812604904174805,0.2092208862304687,-0.0,-0.0,-1.0,0.1521438447041415,1.0,1.0
8.542831420898438,-5.295044898986816,0.2038732767105102,-0.0,-0.0,-1.0,0.1150598405613593,1.0,1.0
8.739810943603516,-4.801144599914551,0.2160588502883911,0.604937649182679,0.7702967502298964,0.2017259457447015,0.2241078386716394,3.0,1.0
9.557171821594238,-6.030577659606934,0.3071513175964355,-0.0,-0.0,-1.0,0.0954334886307899,2.0,1.0
9.717906951904297,-5.423116207122803,0.3197863101959228,-0.1226918884994092,-0.5973024268426506,-0.792575871058619,0.1675537053653415,3.0,1.0
9.873018264770508,-5.621970176696777,0.3362102508544922,-0.0,-0.0,-1.0,0.1927437590523417,1.0,1.0
8.681222915649414,-5.568504333496094,0.8100342750549316,-0.0,-0.0,-1.0,0.0790661619493727,1.0,1.0
9.428914070129396,-4.56984806060791,0.8393365144729614,0.9973981726904786,-0.049655081815966,-0.0522614385904574,0.1217007522951528,3.0,1.0
10.167014122009276,-5.923791885375977,0.9060693979263306,-0.0,-0.0,-1.0,0.1420403235236029,2.0,1.0
9.611410140991213,-5.276754379272461,0.1638405323028564,-0.0,-0.0,-1.0,0.1239965390478354,1.0,1.0
8.269317626953125,-6.284616470336914,0.6405167579650879,-0.0,-0.0,-1.0,0.1797825575508234,2.0,1.0
8.565763473510742,-5.646975040435791,0.6592308282852173,-0.2532011812611265,-0.7793272069312088,0.5731825767979788,0.2020693456355429,4.0,1.0
8.56776237487793,-6.332700252532959,0.6611614227294922,-0.0,-0.0,-1.0,0.1134381265048613,1.0,1.0
8.83336067199707,-5.035871982574463,0.6735494136810303,-0.0,-0.0,-1.0,0.1581016687098524,1.0,1.0
8.777503967285156,-5.216005325317383,0.6711976528167725,0.3709942453754735,-0.2166537547954009,-0.903008538404448,0.0806621831866619,3.0,1.0
9.385496139526367,-4.664026260375977,0.7083097696304321,0.1224391731921855,-0.9904511959536048,-0.0633646376308425,0.173307102495881,3.0,1.0
9.917001724243164,-5.68045711517334,0.7533810138702393,-0.0,-0.0,-1.0,0.12075330785512,1.0,1.0
10.029311180114746,-6.82095193862915,0.7603967189788818,-0.0,-0.0,-1.0,0.1763275053990587,1.0,1.0
7.942283630371094,-4.403101921081543,0.2454032897949218,-0.0,-0.0,-1.0,0.0891347049802802,1.0,1.0
9.34699249267578,-5.94946813583374,0.3734825849533081,-0.0,-0.0,-1.0,0.1850949168681122,2.0,1.0
9.357736587524414,-6.531302452087402,0.371204137802124,-0.0,-0.0,-1.0,0.0885827641127657,1.0,1.0
9.505420684814451,-4.400674343109131,0.384001612663269,-0.0,-0.0,-1.0,0.2206469168684325,1.0,1.0
9.596776962280272,-5.99362850189209,0.3954509496688843,-0.0,-0.0,-1.0,0.1166652068638409,1.0,1.0
9.750715255737305,-5.464086055755615,0.4100663661956787,-0.122099787413032,-0.8886461102670357,-0.4420404196687899,0.1448463540927035,3.0,1.0
9.908376693725586,-6.763063907623291,0.4177542924880981,-0.0,-0.0,-1.0,0.1394165655528564,1.0,1.0
10.098731994628906,-5.77595853805542,0.4405866861343384,-0.0,-0.0,-1.0,0.1434451994355122,2.0,1.0
10.04892349243164,-6.249460220336914,0.4341688156127929,-0.0,-0.0,-1.0,0.178633133501914,1.0,1.0
10.10464096069336,-6.709638595581055,0.4355249404907226,-0.0,-0.0,-1.0,0.1315110614637617,2.0,1.0
8.492368698120117,-6.238613128662109,0.912854790687561,-0.0,-0.0,-1.0,0.1781597820534462,2.0,1.0
9.355167388916016,-4.682438850402832,0.9574767351150512,-0.0,-0.0,-1.0,0.1542698344000622,2.0,1.0
9.594932556152344,-4.916901588439941,0.9713893532752992,-0.0,-0.0,-1.0,0.0932211272245532,2.0,1.0
10.022692680358888,-6.802080154418945,0.9919402599334716,-0.0,-0.0,-1.0,0.0608831587200246,2.0,1.0
8.990318298339844,-6.425278186798096,0.4142260551452636,-0.0,-0.0,-1.0,0.1183476883785488,1.0,1.0
9.559455871582031,-4.469605922698975,0.4487168788909912,-0.0,-0.0,-1.0,0.241275067531951,1.0,1.0
9.443603515625,-4.746055603027344,0.4426419734954834,-0.0,-0.0,-1.0,0.1958197204948598,2.0,1.0
9.73910903930664,-5.4245147705078125,0.473764419555664,-0.6132024882600794,0.6031636277824021,-0.5100748440297942,0.1368304084157248,3.0,1.0
9.826860427856444,-5.5126824378967285,0.4817092418670654,-0.0,-0.0,-1.0,0.1286617676731911,1.0,1.0
10.033731460571287,-6.07712459564209,0.5014755725860596,-0.0,-0.0,-1.0,0.1827875954010411,1.0,1.0
10.033561706542969,-6.803941249847412,0.5009827613830566,0.3436995303173538,-0.9343273422753168,-0.0943559766860219,0.1031101587775585,3.0,1.0
10.196627616882324,-6.189481735229492,0.5153374671936035,-0.0,-0.0,-1.0,0.1656235631445151,1.0,1.0
9.47610855102539,-4.770066738128662,1.0329351425170898,-0.0,-0.0,-1.0,0.0254329835495818,1.0,2.0
9.703262329101562,-6.813172340393066,1.050893783569336,-0.0,-0.0,-1.0,0.0384917825763523,1.0,2.0
8.168577194213867,-4.560015678405762,0.1682958602905273,-0.0,-0.0,-1.0,0.0781735633289364,2.0,1.0
8.19791030883789,-4.500930309295654,0.1699481010437011,-0.0,-0.0,-1.0,0.0773001393649566,1.0,1.0
8.742000579833984,-4.919922828674316,0.2267619371414184,0.1348269207017031,0.8117418796428607,-0.56824010971417,0.1979057158435406,4.0,1.0
9.833932876586914,-5.834414482116699,0.3389593362808227,-0.0,-0.0,-1.0,0.1705774414357601,1.0,1.0
10.149706840515137,-5.751365661621094,0.367316722869873,-0.0,-0.0,-1.0,0.1419930025033629,1.0,1.0
8.272933959960938,-6.308446407318115,0.8227134943008423,-0.0,-0.0,-1.0,0.1464481614809661,2.0,1.0
9.978317260742188,-5.5075273513793945,0.9161697626113892,-0.5125344473306296,0.6725100242522315,0.5338901643407087,0.23094160833692,3.0,1.0
10.056081771850586,-5.6823225021362305,0.9220187664031982,-0.0,-0.0,-1.0,0.0986636770464663,1.0,1.0
9.739971160888672,-4.867544174194336,0.0843440294265747,-0.0,-0.0,-1.0,0.0592036407743538,1.0,1.0
8.424819946289062,-6.341486930847168,0.5709985494613647,-0.0,-0.0,-1.0,0.190225412710336,2.0,1.0
9.62071418762207,-5.709345817565918,0.6588097810745239,-0.0,-0.0,-1.0,0.0891900040686342,1.0,1.0
9.502534866333008,-5.774713516235352,0.6503416299819946,-0.0,-0.0,-1.0,0.0817763249698374,1.0,1.0
10.054803848266602,-6.2197265625,0.691360354423523,-0.0,-0.0,-1.0,0.1426577889934091,1.0,1.0
8.244382858276367,-6.2302565574646,1.1769886016845703,-0.0,-0.0,-1.0,0.0960948116596521,1.0,2.0
8.760650634765625,-4.877072811126709,0.0707697868347168,-0.0,-0.0,-1.0,0.2241078386716395,1.0,1.0
10.02061653137207,-5.7190752029418945,0.2181655168533325,-0.0,-0.0,-1.0,0.1784200644875462,1.0,1.0
8.769649505615234,-4.993578910827637,0.6796067953109741,-0.0,-0.0,-1.0,0.1681057484181055,1.0,1.0
8.56082534790039,-5.499408721923828,0.6742281913757324,-0.0,-0.0,-1.0,0.2039721338182463,1.0,1.0
8.540637969970703,-5.741389274597168,0.6764287948608398,-0.0,-0.0,-1.0,0.141761466883713,1.0,1.0
8.30117416381836,-6.183801651000977,0.6661360263824463,-0.0,-0.0,-1.0,0.1932874439444547,1.0,1.0
9.515313148498535,-4.775950908660889,0.7241553068161011,-0.0,-0.0,-1.0,0.0723336392905575,2.0,1.0
9.318159103393556,-6.5397491455078125,0.7382495403289795,-0.0,-0.0,-1.0,0.1714043081935303,1.0,1.0
9.96978759765625,-6.707093238830566,0.783738374710083,-0.0,-0.0,-1.0,0.2333934069117593,2.0,1.0
9.45128059387207,-4.366501331329346,0.5635193586349487,-0.0,-0.0,-1.0,0.1332034728090344,1.0,1.0
8.392356872558594,-6.1039934158325195,0.5029789209365845,-0.0,-0.0,-1.0,0.2684510072161696,2.0,1.0
8.345897674560547,-6.606136322021484,0.5015429258346558,-0.5459173171369803,-0.6781254360877517,-0.4920570858962991,0.0534753734186964,3.0,1.0
8.802356719970703,-6.766131401062012,0.5392476320266724,-0.0,-0.0,-1.0,0.0538105506150921,1.0,1.0
9.715580940246582,-5.6219868659973145,0.6044645309448242,-0.0,-0.0,-1.0,0.1571478933457517,1.0,1.0
9.44150733947754,-5.828729152679443,0.5850381851196289,-0.0,-0.0,-1.0,0.097130839681665,1.0,1.0
10.184234619140623,-6.211994647979736,0.6480081081390381,-0.0,-0.0,-1.0,0.1106558291823184,1.0,1.0
9.893339157104492,-6.713974475860596,0.6279832124710083,-0.0,-0.0,-1.0,0.0742931854183647,1.0,1.0
8.573844909667969,-6.003973960876465,1.1093802452087402,-0.0,-0.0,-1.0,0.2615994382832808,2.0,2.0
8.387042999267578,-6.139216899871826,1.1003079414367676,-0.0,-0.0,-1.0,0.0586516650388445,1.0,2.0
10.098695755004885,-6.6056108474731445,1.179401397705078,-0.0657329098508934,0.0512775631051927,-0.9965188388006152,0.1712520354913703,4.0,2.0
9.509055137634276,-4.477896690368652,0.4714425802230835,-0.0,-0.0,-1.0,0.206912311212714,2.0,1.0
8.495471954345703,-6.143028736114502,0.4163593053817749,-0.0,-0.0,-1.0,0.1554697166532073,2.0,1.0
8.841633796691895,-6.22422981262207,0.4473358392715454,-0.0,-0.0,-1.0,0.1475880424108412,1.0,1.0
9.5223388671875,-4.823179721832275,0.4808237552642822,-0.0,-0.0,-1.0,0.1116755948424981,2.0,1.0
9.756387710571287,-5.397599697113037,0.5126690864562988,-0.4937432924681131,-0.6120389171372076,-0.6177587919667851,0.1245756406400311,4.0,1.0
9.528704643249512,-5.866231918334961,0.5017329454421997,-0.0,-0.0,-1.0,0.1006014889401269,1.0,1.0
10.184318542480469,-6.072122573852539,0.5611270666122437,-0.0,-0.0,-1.0,0.0895954286092153,1.0,1.0
10.11817741394043,-6.244875431060791,0.5581601858139038,-0.0,-0.0,-1.0,0.1967148899552825,2.0,1.0
9.318982124328612,-4.6447038650512695,1.0384559631347656,0.7355901598976137,-0.583639875933975,-0.3439063998845875,0.1378048471655093,7.0,2.0
9.641778945922852,-4.967413425445557,1.0577692985534668,-0.0,-0.0,-1.0,0.0986616233144376,2.0,2.0
8.489294052124023,-6.177800178527832,1.003469467163086,0.5270582791181617,-0.199375901118313,-0.8261106587293636,0.1842892794946621,3.0,2.0
8.288747787475586,-6.299720764160156,0.9927724599838256,0.8710005492305877,-0.4633243703380561,-0.1633663707464264,0.1179782264642887,4.0,1.0
10.16383457183838,-6.759049892425537,1.0938878059387207,-0.0,-0.0,-1.0,0.0712943499837424,1.0,2.0
10.037670135498049,-4.50324821472168,0.3784675598144531,-0.0,-0.0,-1.0,0.097434188103748,1.0,1.0
9.043622016906738,-6.083317756652832,0.3356416225433349,-0.0,-0.0,-1.0,0.1031129188349501,1.0,1.0
9.859548568725586,-5.698716163635254,0.4006824493408203,-0.0,-0.0,-1.0,0.1428159928008391,2.0,1.0
10.16759967803955,-5.975961208343506,0.4362081289291382,-0.0,-0.0,-1.0,0.1001010471235511,1.0,1.0
9.469038009643556,-4.454699993133545,0.8968030214309692,-0.0,-0.0,-1.0,0.1745968628934525,1.0,1.0
8.6752347946167,-5.508422374725342,0.8666819334030151,-0.6432032430206268,0.1056728137935897,-0.7583685414049647,0.1291527000632608,4.0,1.0
10.03943157196045,-5.550100326538086,0.9471889734268188,-0.0,-0.0,-1.0,0.2477723223425597,1.0,1.0
10.170767784118652,-5.870378494262695,0.9592620134353638,0.539890560866948,-0.8311215655764141,-0.1332483602922837,0.1343406353580612,5.0,1.0
9.407852172851562,-4.67796516418457,0.3383257389068603,-0.0,-0.0,-1.0,0.1757425337757157,1.0,1.0
9.290483474731444,-5.97396993637085,0.3886549472808838,-0.0,-0.0,-1.0,0.2164529251123674,2.0,1.0
9.80510139465332,-5.408631324768066,0.4068108797073364,-0.0,-0.0,-1.0,0.158304169500682,1.0,1.0
9.817607879638672,-5.533215522766113,0.413730263710022,-0.8343862863004795,-0.5367922796132186,-0.1251142429195756,0.1148047690164387,5.0,1.0
9.798969268798828,-5.645686626434326,0.4173916578292846,-0.814551771846631,-0.2306977638472585,0.5322442604081221,0.1564254158757898,5.0,1.0
9.14918041229248,-6.839656352996826,0.4083341360092163,-0.0,-0.0,-1.0,0.1314006527207165,1.0,1.0
10.067203521728516,-6.587099075317383,0.4801706075668335,-0.0,-0.0,-1.0,0.1276858910279837,1.0,1.0
9.574119567871094,-4.8330793380737305,0.9119600057601928,-0.0,-0.0,-1.0,0.1026699867954352,2.0,1.0
9.4462890625,-6.797815322875977,0.957944631576538,-0.0,-0.0,-1.0,0.1119648434982416,1.0,1.0
9.736743927001951,-5.450721740722656,0.3870588541030884,0.5502354633241779,-0.765175872569064,-0.3342855350424219,0.1539531638938039,4.0,1.0
9.340578079223633,-6.051127910614014,0.4006683826446533,-0.0,-0.0,-1.0,0.1955463060766825,2.0,1.0
9.820438385009766,-5.569296836853027,0.4031163454055786,-0.8693333496085741,0.0754818232859781,-0.4884281130440396,0.102269131752159,3.0,1.0
9.232954025268556,-6.787595748901367,0.4432729482650757,-0.0,-0.0,-1.0,0.1160068075520327,1.0,1.0
10.15211009979248,-6.033580780029297,0.4660170078277588,-0.0,-0.0,-1.0,0.1432266899817862,1.0,1.0
10.11845588684082,-6.312261581420898,0.4844748973846435,-0.0,-0.0,-1.0,0.183019613126618,1.0,1.0
9.848042488098145,-6.787866592407227,0.4962348937988281,-0.0,-0.0,-1.0,0.0959403549779452,1.0,1.0
8.265654563903809,-6.270488739013672,0.8964964151382446,0.2497309456956286,0.9488254944750472,0.1932993424617613,0.1081429678806146,3.0,1.0
10.144073486328123,-5.880970001220703,0.9754185676574708,0.539890560866948,-0.8311215655764141,-0.1332483602922837,0.1343406353580612,5.0,1.0
8.58823299407959,-5.641252517700195,0.4413539171218872,0.0852694177285646,0.572668169099253,-0.8153406003019481,0.2435054122887811,3.0,1.0
8.515061378479004,-5.660544395446777,0.4368209838867187,-0.0,-0.0,-1.0,0.2294948808974363,2.0,1.0
8.398760795593262,-6.290294647216797,0.4703401327133178,-0.0,-0.0,-1.0,0.0850847879347131,2.0,1.0
9.357860565185549,-5.904727935791016,0.5218539237976074,-0.0,-0.0,-1.0,0.1543973893285246,1.0,1.0
9.902334213256836,-6.779040336608887,0.6280436515808105,-0.5474194733648029,-0.3193997560891755,-0.7735087045348469,0.09288085656182,3.0,1.0
8.56494140625,-6.14823055267334,1.0429542064666748,-0.0,-0.0,-1.0,0.1718686113937046,2.0,2.0
9.632044792175291,-6.680527687072754,1.125666618347168,-0.0,-0.0,-1.0,0.1093839075132115,1.0,2.0
10.180764198303224,-6.527202606201172,1.1462271213531494,-0.0,-0.0,-1.0,0.1976044527392037,1.0,2.0
8.6928129196167,-5.591549873352051,0.6686371564865112,-0.6023266003354688,0.7930254597643519,-0.0911772268379255,0.2205649191844775,4.0,1.0
8.277726173400879,-6.30482292175293,0.7061667442321777,-0.0,-0.0,-1.0,0.1751839284243841,1.0,1.0
9.382877349853516,-6.595965385437012,0.7931104898452759,-0.0,-0.0,-1.0,0.1724413044435084,1.0,1.0
10.01834774017334,-6.823530197143555,0.8475964069366455,0.489664038393562,-0.6077761554506136,-0.6251697964311618,0.1625078341167727,4.0,1.0
8.030900001525879,-6.678755760192871,0.634428858757019,-0.0,-0.0,-1.0,0.1971892630201605,1.0,1.0
9.104007720947266,-6.232708930969238,0.6282758712768555,-0.0,-0.0,-1.0,0.1713687318445137,1.0,1.0
9.487689018249512,-5.686302185058594,0.5679423809051514,-0.0,-0.0,-1.0,0.1736958158235812,1.0,1.0
9.34438133239746,-6.056775093078613,0.614473819732666,-0.0,-0.0,-1.0,0.1413099071836981,1.0,1.0
9.151473999023438,-6.198162078857422,0.6256809234619141,-0.0,-0.0,-1.0,0.1651699038444266,1.0,1.0
9.646924018859863,-6.068450927734375,0.6293559074401855,-0.0,-0.0,-1.0,0.1306522634019349,1.0,1.0
10.059843063354492,-6.5736284255981445,0.7187705039978027,-0.0,-0.0,-1.0,0.1702798312603447,1.0,1.0
8.111262321472168,-6.639978408813477,1.233047604560852,-0.0,-0.0,-1.0,0.0898441356801259,1.0,2.0
9.92747688293457,-6.319791793823242,0.4295217990875244,-0.0,-0.0,-1.0,0.2292105499122735,1.0,1.0
8.47810173034668,-6.007253646850586,0.4605064392089844,-0.0,-0.0,-1.0,0.2090267010021857,1.0,1.0
9.71528434753418,-5.521324157714844,0.501847505569458,-0.0,-0.0,-1.0,0.1512529746207309,2.0,1.0
9.65794563293457,-5.975770950317383,0.5246927738189697,-0.0,-0.0,-1.0,0.1365224692468213,1.0,1.0
9.370805740356444,-6.012535095214844,0.5121383666992188,-0.0,-0.0,-1.0,0.1633465097302508,1.0,1.0
8.623270034790039,-5.820159912109375,0.8134431838989258,-0.0,-0.0,-1.0,0.1495529997150854,1.0,1.0
9.406381607055664,-4.40473747253418,0.9341630935668944,-0.0,-0.0,-1.0,0.1107886852862051,1.0,1.0
9.576471328735352,-4.839094161987305,0.95784592628479,-0.0,-0.0,-1.0,0.1362109257361958,2.0,1.0
8.408651351928711,-6.171169281005859,0.9320038557052612,-0.0,-0.0,-1.0,0.1766760056979601,2.0,1.0
10.004898071289062,-6.737201690673828,1.041627287864685,-0.0,-0.0,-1.0,0.1142987144040457,2.0,2.0
9.73086166381836,-5.857671737670898,0.4431076049804687,-0.0,-0.0,-1.0,0.1655547619423076,2.0,1.0
9.335195541381836,-6.582418441772461,0.4567673206329345,-0.0,-0.0,-1.0,0.0712244437973495,1.0,1.0
9.332101821899414,-6.092002868652344,0.4032676219940185,-0.0,-0.0,-1.0,0.1235419640841758,2.0,1.0
10.114425659179688,-6.601457595825195,0.4971332550048828,-0.0,-0.0,-1.0,0.0829304027569302,2.0,1.0
10.050901412963867,-6.666053771972656,0.4964826107025146,-0.0,-0.0,-1.0,0.1086220149697496,2.0,1.0
8.25037956237793,-6.23689079284668,1.2981919050216677,-0.0,-0.0,-1.0,0.0921805813484126,1.0,2.0
9.453567504882812,-4.439144134521484,0.3061087131500244,-0.0,-0.0,-1.0,0.2058377553731794,2.0,1.0
9.504354476928713,-4.780834197998047,0.3343815803527832,-0.0,-0.0,-1.0,0.1127783316042993,1.0,1.0
9.798419952392578,-5.945842742919922,0.4386169910430908,-0.0,-0.0,-1.0,0.2745252863258183,1.0,1.0
9.416650772094728,-6.007787704467773,0.414182186126709,-0.0,-0.0,-1.0,0.1301815514967916,1.0,1.0
9.314496994018556,-6.485616683959961,0.4390218257904053,-0.0,-0.0,-1.0,0.0913960679088841,1.0,1.0
10.15226936340332,-6.594425201416016,0.5103707313537598,-0.0,-0.0,-1.0,0.0629224052678625,2.0,1.0
9.323503494262695,-6.755224227905273,0.4578857421875,-0.0,-0.0,-1.0,0.1884100349198426,2.0,1.0
9.92146110534668,-6.862022399902344,0.5112588405609131,0.3505744296645696,-0.7514939810383793,0.5588867199428252,0.1462655960961283,3.0,1.0
8.408073425292969,-6.225866317749023,1.30231511592865,-0.0,-0.0,-1.0,0.0784123790560485,2.0,2.0
9.869956970214844,-5.512308120727539,0.5986847877502441,-0.0,-0.0,-1.0,0.2423666857480986,1.0,1.0
9.627866744995115,-5.776180267333984,0.5975947380065918,-0.0,-0.0,-1.0,0.0597913796513686,1.0,1.0
8.65638542175293,-5.645286560058594,0.5157790184020996,-0.0,-0.0,-1.0,0.1907293075889271,2.0,1.0
9.431516647338867,-5.896856307983398,0.5904386043548584,-0.0,-0.0,-1.0,0.1096820052510171,1.0,1.0
8.417730331420898,-6.340717315673828,0.5390927791595459,-0.1657352767127694,0.9843084233969642,0.0605701715593094,0.2232563029017545,3.0,1.0
8.36105728149414,-6.760782241821289,0.5592563152313232,-0.0,-0.0,-1.0,0.1202089718576584,1.0,1.0
9.755500793457031,-5.7265167236328125,0.6039414405822754,-0.0,-0.0,-1.0,0.1961638571211548,2.0,1.0
10.023900985717772,-6.846673965454102,0.694516658782959,-0.0,-0.0,-1.0,0.1102907584033563,2.0,1.0
9.462118148803713,-4.471979141235352,0.3281176090240478,-0.0,-0.0,-1.0,0.2074385926435462,2.0,1.0
9.660720825195312,-5.74278450012207,0.4893414974212646,-0.0,-0.0,-1.0,0.169495699997958,1.0,1.0
9.46220588684082,-5.814416885375977,0.4975371360778808,-0.0,-0.0,-1.0,0.1626560808811244,1.0,1.0
9.396780014038086,-5.875608444213867,0.5048449039459229,0.4721429794203807,-0.038666342792023,-0.8806735609288697,0.1093569064707255,3.0,1.0
9.456683158874512,-4.938653945922852,0.7455799579620361,-0.0,-0.0,-1.0,0.1017791948662148,2.0,1.0
8.620950698852539,-5.6589813232421875,0.7719194889068604,-0.0,-0.0,-1.0,0.2058341563871469,1.0,1.0
9.287303924560549,-4.676370620727539,1.059816598892212,0.2041451423156232,-0.7388710649362985,-0.642179344318107,0.1699738883748928,4.0,2.0
9.429012298583984,-4.47503662109375,0.1554312705993652,-0.0,-0.0,-1.0,0.221783006273725,2.0,1.0
10.091381072998049,-6.341777801513672,0.3666920661926269,-0.0,-0.0,-1.0,0.1536713430554483,1.0,1.0
8.550261497497559,-6.154550552368164,1.108915090560913,-0.0,-0.0,-1.0,0.1655939973957592,2.0,2.0
9.490310668945312,-4.835453033447266,0.7555832862854004,-0.0,-0.0,-1.0,0.0961308777721468,2.0,1.0
9.87984561920166,-5.701763153076172,0.8416495323181152,-0.9423370723484178,0.2740364710246644,0.1921063627945749,0.0733044917178168,3.0,1.0
10.14537239074707,-5.936664581298828,0.8748428821563721,-0.0,-0.0,-1.0,0.1358174589139676,2.0,1.0
8.665448188781738,-5.632354736328125,0.7600255012512207,-0.907575083602985,0.3973583993340845,0.1356973474379242,0.0966631371255397,5.0,1.0
8.445111274719238,-5.7758941650390625,0.7556698322296143,-0.0,-0.0,-1.0,0.1879128017034764,1.0,1.0
8.225180625915527,-6.325231552124023,0.7787492275238037,0.1230414187487103,0.3134842167675926,-0.9415882619860518,0.1214104617958807,4.0,1.0
10.070635795593262,-5.649572372436523,0.8746891021728516,-0.0,-0.0,-1.0,0.2153739740033423,1.0,1.0
9.564955711364746,-6.831943511962891,0.9156785011291504,-0.0,-0.0,-1.0,0.105543646018866,1.0,1.0
9.966511726379396,-5.560144424438477,0.8060719966888428,-0.0,-0.0,-1.0,0.1413742756667092,1.0,1.0
10.113799095153809,-5.908115386962891,0.8426644802093506,-0.0,-0.0,-1.0,0.1483710403004653,1.0,1.0
9.875046730041504,-5.696014404296875,0.8099091053009033,-0.5884169146399179,-0.7808075384999411,0.2100121958061075,0.1186285213771632,4.0,1.0
9.46022605895996,-4.437665939331055,0.0890378952026367,-0.0,-0.0,-1.0,0.1487840500405613,1.0,1.0
9.993988037109377,-4.662117004394531,0.1618831157684326,-0.0,-0.0,-1.0,0.1579694816660409,1.0,1.0
10.117138862609863,-6.2782135009765625,0.3263907432556152,-0.0,-0.0,-1.0,0.2272285472148136,1.0,1.0
9.451264381408691,-4.7343292236328125,0.9234614372253418,-0.0,-0.0,-1.0,0.083275106171711,2.0,1.0
10.057960510253906,-6.781032562255859,1.1032109260559082,-0.5814060176813477,-0.6134100161040736,-0.5345046255619466,0.077723002088118,7.0,2.0
10.101943016052246,-6.467924118041992,1.086522102355957,-0.0,-0.0,-1.0,0.2207189640197235,1.0,2.0
9.601554870605469,-6.660425186157227,1.0594005584716797,-0.0,-0.0,-1.0,0.1838828018309138,2.0,2.0
9.5142183303833,-4.387983322143555,0.5321049690246582,-0.0,-0.0,-1.0,0.1821956767950244,1.0,1.0
9.995454788208008,-6.74334716796875,0.7730963230133057,-0.3356801721941221,0.0386209558889155,-0.9411839585128674,0.2057290420841831,3.0,1.0
9.810688018798828,-5.711824417114258,0.6702139377593994,-0.1392174647512357,-0.883027290710597,0.448197837309085,0.1012536343814887,4.0,1.0
9.47608757019043,-5.629337310791016,0.6353843212127686,-0.0,-0.0,-1.0,0.1234637061204563,2.0,1.0
9.45933723449707,-4.771991729736328,0.5607731342315674,-0.0,-0.0,-1.0,0.1148905013481973,2.0,1.0
9.34697151184082,-6.655196189880371,0.7105333805084229,0.3850415531694844,0.7122524583550078,-0.5868896300839529,0.1720608004310038,3.0,1.0
9.364686012268066,-5.730918884277344,0.6346642971038818,-0.0,-0.0,-1.0,0.1896663430156577,2.0,1.0
8.724419593811035,-5.3857421875,0.5515704154968262,-0.0,-0.0,-1.0,0.1502520060388698,2.0,1.0
8.110359191894531,-6.652565956115723,0.6021604537963867,-0.0,-0.0,-1.0,0.1487984069062586,2.0,1.0
10.119053840637209,-6.036744117736816,0.7053554058074951,-0.0,-0.0,-1.0,0.1304537453373417,2.0,1.0
9.99394702911377,-6.860620498657227,0.7707321643829346,0.0984157465181978,-0.923724204675608,0.3701998575549169,0.1733272894729452,3.0,1.0
10.013134956359863,-6.122245788574219,0.7042489051818848,-0.0,-0.0,-1.0,0.1673189352916463,2.0,1.0
9.801153182983398,-5.729890823364258,0.6495611667633057,-0.1392174647512357,-0.883027290710597,0.448197837309085,0.1464179696388235,4.0,1.0
9.491011619567873,-4.839067459106445,0.5398502349853516,0.9403125832419236,-0.2857681313501677,-0.1847939958481707,0.1262018177345599,3.0,1.0
9.44110107421875,-5.7207231521606445,0.6176798343658447,-0.0,-0.0,-1.0,0.1502783426227165,1.0,1.0
8.872956275939941,-6.027983665466309,0.5960056781768799,-0.0,-0.0,-1.0,0.2812681601503844,1.0,1.0
8.334634780883789,-6.16961669921875,1.2824854850769043,-0.0,-0.0,-1.0,0.0872715960718024,1.0,2.0
9.469087600708008,-4.868980407714844,0.2076625823974609,0.1742209545635682,0.0274862188680021,-0.9843228976120076,0.1820057587974148,3.0,1.0
9.461127281188965,-4.509382247924805,0.1729366779327392,-0.0,-0.0,-1.0,0.2290465180748096,2.0,1.0
9.452157974243164,-4.386663436889648,0.1602735519409179,-0.0,-0.0,-1.0,0.1906824094605564,1.0,1.0
9.268726348876951,-4.495704650878906,0.1484487056732177,-0.0,-0.0,-1.0,0.2653354038208829,1.0,1.0
9.976763725280762,-6.847176551818848,0.4519002437591553,0.2607777919826021,-0.9371087213303222,-0.2319960939656678,0.119392146449331,4.0,1.0
10.085289001464844,-6.639143943786621,0.4466631412506103,0.0535508345783469,-0.8216053391576466,-0.5675358797323841,0.1513715949772104,3.0,1.0
10.051380157470703,-6.101652145385742,0.3931870460510254,-0.0,-0.0,-1.0,0.1689561684261668,1.0,1.0
9.845322608947754,-5.78333854675293,0.3385505676269531,-0.0,-0.0,-1.0,0.1848593842631141,1.0,1.0
9.592655181884766,-6.044495582580566,0.3312466144561767,-0.0,-0.0,-1.0,0.094370337343374,2.0,1.0
9.507680892944336,-4.837660789489746,0.912346363067627,-0.0,-0.0,-1.0,0.1074058208076216,1.0,1.0
8.688051223754883,-5.475668907165527,0.8707141876220703,-0.8215903579549546,0.3744116373937323,-0.4298897643577868,0.1060158340827994,3.0,1.0
8.238924980163574,-6.307131767272949,0.875126838684082,-0.0,-0.0,-1.0,0.1292155711935402,1.0,1.0
10.091243743896484,-5.900198936462402,0.522702693939209,-0.0,-0.0,-1.0,0.1995000577557734,1.0,1.0
9.956668853759766,-6.856785774230957,0.5956711769104004,-0.0,-0.0,-1.0,0.1014605922136267,2.0,1.0
9.71863842010498,-5.8467607498168945,0.4735791683197021,-0.0,-0.0,-1.0,0.181804787834661,2.0,1.0
9.80413055419922,-5.709270477294922,0.4707872867584228,-0.0,-0.0,-1.0,0.1191322467595079,2.0,1.0
9.418512344360352,-5.93028450012207,0.4454078674316406,-0.0,-0.0,-1.0,0.1363120242345446,1.0,1.0
9.579843521118164,-5.826129913330078,0.4551014900207519,-0.0,-0.0,-1.0,0.1163893170940569,1.0,1.0
9.477872848510742,-4.858194351196289,0.3516387939453125,0.2842506368008153,-0.865819499123977,0.4117744169020661,0.143144301876926,4.0,1.0
9.2916841506958,-4.417243003845215,0.2877004146575928,-0.0,-0.0,-1.0,0.1738497710575196,1.0,1.0
9.205370903015137,-6.818445205688477,0.4998316764831543,-0.0,-0.0,-1.0,0.2001666576902278,1.0,1.0
8.477800369262695,-6.0974836349487305,0.3454058170318603,-0.0,-0.0,-1.0,0.1593123985264644,1.0,1.0
8.598645210266113,-5.616692543029785,0.3171830177307129,-0.0,-0.0,-1.0,0.1577606197097354,2.0,1.0
9.532435417175291,-4.841032028198242,1.025808811187744,-0.0,-0.0,-1.0,0.1368758484213484,1.0,2.0
10.203922271728516,-6.359044075012207,0.6579892635345459,-0.0,-0.0,-1.0,0.0908283381971849,1.0,1.0
10.148856163024902,-5.7734880447387695,0.5933294296264648,-0.0,-0.0,-1.0,0.1468713912560348,1.0,1.0
9.806812286376951,-6.683920860290527,0.6411221027374268,-0.0,-0.0,-1.0,0.1105499596158539,1.0,1.0
9.793063163757324,-5.7988128662109375,0.5534498691558838,-0.0,-0.0,-1.0,0.224448123585334,2.0,1.0
9.73858642578125,-5.396836280822754,0.5071225166320801,-0.6688227180254597,-0.621103866342624,0.4085415022580689,0.1216548131568647,5.0,1.0
9.419950485229492,-5.902032852172852,0.5184271335601807,0.1940617583916801,-0.3084867559592709,-0.9312228279674284,0.1199339570681396,3.0,1.0
9.463167190551758,-4.893826484680176,0.4242191314697265,-0.0,-0.0,-1.0,0.1849428640124776,2.0,1.0
9.243475914001465,-6.782576560974121,0.5803537368774414,-0.0,-0.0,-1.0,0.1422791281732667,1.0,1.0
8.671348571777344,-5.921802520751953,0.4281306266784668,-0.0,-0.0,-1.0,0.2200328428290918,1.0,1.0
8.631187438964844,-5.70455265045166,0.4026021957397461,0.8144889176599565,-0.0894282240496864,-0.5732454934427587,0.265706726205181,4.0,1.0
9.31252670288086,-4.640776634216309,1.0306432247161863,0.7982048763396055,-0.3910049818760004,-0.458240198515826,0.1360226870762929,6.0,2.0
8.495296478271484,-6.155182838439941,1.0586535930633545,0.0542795016853427,-0.9979314236030512,-0.0344471984692262,0.1992440273253226,3.0,2.0
9.40379524230957,-4.738309860229492,0.5952098369598389,-0.0,-0.0,-1.0,0.0951901873858799,1.0,1.0
9.34539031982422,-4.405405044555664,0.5609495639801025,-0.0,-0.0,-1.0,0.1739169345714045,1.0,1.0
9.308246612548828,-5.735865592956543,0.658151388168335,-0.0,-0.0,-1.0,0.1239485296236772,1.0,1.0
8.74721908569336,-5.915794372558594,0.5910360813140869,-0.0,-0.0,-1.0,0.161039691530457,1.0,1.0
8.495026588439941,-5.679206848144531,0.5376195907592773,-0.0,-0.0,-1.0,0.2281759555755678,1.0,1.0
8.113304138183594,-6.682875633239746,0.5508222579956055,-0.916038169087644,-0.3385831634869438,-0.2150244501858576,0.2002135826124331,3.0,1.0
7.99827766418457,-6.697370529174805,0.534574031829834,-0.0,-0.0,-1.0,0.1723323301610574,1.0,1.0
9.905879020690918,-5.782403945922852,0.7457778453826904,-0.0,-0.0,-1.0,0.1419301328486757,2.0,1.0
9.961912155151367,-6.763635635375977,0.8271269798278809,-0.8165837835487285,-0.0653731969281489,-0.5735130945049439,0.1604003682405728,3.0,1.0
9.95200538635254,-6.069062232971191,0.7740790843963623,-0.0,-0.0,-1.0,0.1735552018882367,2.0,1.0
8.280969619750977,-6.226873397827148,1.141723394393921,-0.0,-0.0,-1.0,0.088915087788932,1.0,2.0
9.7113618850708,-5.3327436447143555,0.5064220428466797,-0.8911187010806345,-0.2222023536088681,-0.3956432416142629,0.1556349288456109,3.0,1.0
9.412306785583496,-4.3726959228515625,0.3692362308502197,-0.0,-0.0,-1.0,0.1786658360125758,2.0,1.0
9.401896476745604,-5.846317291259766,0.5063018798828125,-0.0,-0.0,-1.0,0.1302289964650487,2.0,1.0
9.291763305664062,-5.927770614624023,0.4963908195495605,-0.0,-0.0,-1.0,0.2338673885098675,1.0,1.0
8.68192195892334,-5.461259841918945,0.3589982986450195,-0.0,-0.0,-1.0,0.2430423671225996,1.0,1.0
8.73001480102539,-5.957135200500488,0.4100027084350586,-0.0,-0.0,-1.0,0.2076935905756562,2.0,1.0
8.550108909606934,-5.795031547546387,0.3672668933868408,-0.0,-0.0,-1.0,0.1853748866635575,1.0,1.0
8.419356346130371,-6.120057106018066,0.3738677501678467,-0.0,-0.0,-1.0,0.1026632004096955,2.0,1.0
8.335675239562988,-5.902907371520996,0.3420581817626953,-0.0,-0.0,-1.0,0.1981167457356165,2.0,1.0
10.121787071228027,-5.943434715270996,0.626349687576294,-0.0,-0.0,-1.0,0.1395197964372132,2.0,1.0
9.749577522277832,-5.598476409912109,0.5371706485748291,-0.0,-0.0,-1.0,0.1207543792381584,1.0,1.0
9.955113410949709,-6.8380584716796875,0.6815202236175537,-0.0,-0.0,-1.0,0.1028964006337541,1.0,1.0
9.763505935668944,-6.616223335266113,0.6317293643951416,-0.0,-0.0,-1.0,0.1750491047307673,2.0,1.0
9.575765609741213,-5.759875297546387,0.5254285335540771,-0.0,-0.0,-1.0,0.0819032408930464,2.0,1.0
9.140247344970703,-6.465875625610352,0.5193521976470947,-0.0,-0.0,-1.0,0.2307600207640146,1.0,1.0
8.847025871276855,-6.627067565917969,0.4855268001556396,-0.0,-0.0,-1.0,0.1215774871766363,1.0,1.0
9.618124008178713,-4.8709821701049805,1.0089294910430908,-0.612164343014495,-0.3915270175621778,-0.686994477168847,0.1763653560121705,3.0,2.0
9.549505233764648,-4.80218505859375,0.0514438152313232,-0.0,-0.0,-1.0,0.176540380372847,1.0,1.0
9.563511848449709,-4.571422576904297,0.0236904621124267,-0.0,-0.0,-1.0,0.1988319161339007,1.0,1.0
10.120800018310549,-6.760375022888184,0.395486831665039,-0.0,-0.0,-1.0,0.1530783447190298,2.0,1.0
9.843401908874512,-5.667169570922852,0.7157270908355713,-0.0,-0.0,-1.0,0.1390383306268918,1.0,1.0
9.502972602844238,-4.825934410095215,0.5804038047790527,0.8985698918512763,0.264014196548134,-0.3505262521972195,0.1194995916359349,3.0,1.0
9.41335391998291,-4.426819801330566,0.5259532928466797,-0.0,-0.0,-1.0,0.2381906353820977,2.0,1.0
10.038893699645996,-6.820662498474121,0.857940673828125,0.4170581094293995,-0.6320210899004863,-0.6531553224771088,0.1293592397286453,3.0,1.0
9.388265609741213,-5.641449928283691,0.6462180614471436,0.6258129689129741,0.3267587525288041,-0.7082279615958044,0.1394601523318311,3.0,1.0
9.280230522155762,-5.777714729309082,0.6434652805328369,-0.1449373892742523,-0.9086461454064042,0.3916060975373696,0.128466216770199,3.0,1.0
9.318744659423828,-6.624319076538086,0.7294871807098389,0.9981583247679506,0.0519282179328542,0.0313595101804323,0.1436988089323624,5.0,1.0
9.346612930297852,-6.585357666015625,0.7301833629608154,0.7404196231280546,-0.5220412665099059,-0.4233812675918042,0.1809537064827504,3.0,1.0
8.635881423950195,-5.801778793334961,0.5483274459838867,0.5253838128143486,-0.8487164105827162,-0.0604342919231127,0.2317877360550806,4.0,1.0
8.480158805847168,-5.5607099533081055,0.5019447803497314,-0.0,-0.0,-1.0,0.2106189084455516,1.0,1.0
8.302474021911621,-6.295044898986816,0.5416138172149658,-0.8813435881327129,-0.096714827710938,-0.4624713199304349,0.1345386639283431,5.0,1.0
8.100687980651855,-6.589642524719238,0.5353515148162842,-0.0,-0.0,-1.0,0.1103695309177338,1.0,1.0
8.549570083618164,-5.980990409851074,1.0757644176483154,0.5808872002224115,-0.4126711422928149,-0.7016213999989673,0.2615994382832808,3.0,2.0
10.02304744720459,-4.613635063171387,0.156463623046875,-0.0,-0.0,-1.0,0.1056606699310464,2.0,1.0
10.15619945526123,-6.040990829467773,0.3812105655670166,-0.0,-0.0,-1.0,0.1551340907226254,1.0,1.0
9.946030616760254,-5.963321685791016,0.332838773727417,-0.0,-0.0,-1.0,0.1949078185539567,1.0,1.0
9.484932899475098,-5.206775665283203,0.1467537879943847,-0.0,-0.0,-1.0,0.1535957673081081,1.0,1.0
9.364808082580566,-4.887911796569824,0.0812582969665527,-0.0,-0.0,-1.0,0.1339605990901924,1.0,1.0
9.348974227905272,-4.454395294189453,0.0175123214721679,-0.0,-0.0,-1.0,0.1980095440226721,1.0,1.0
9.79532241821289,-6.3163909912109375,0.3521115779876709,-0.0,-0.0,-1.0,0.0991154920873411,1.0,1.0
9.60917854309082,-6.044123649597168,0.2822275161743164,-0.0,-0.0,-1.0,0.0937093536612731,1.0,1.0
9.26266384124756,-4.889164924621582,0.0633127689361572,-0.0,-0.0,-1.0,0.0994486819699699,1.0,1.0
9.894163131713867,-5.739252090454102,0.7584810256958008,-0.0,-0.0,-1.0,0.1500707993038887,2.0,1.0
9.398873329162598,-4.657759666442871,0.5608088970184326,-0.0,-0.0,-1.0,0.1215896560989173,2.0,1.0
10.026359558105469,-6.701465129852295,0.4451727867126465,-0.0,-0.0,-1.0,0.1643873222570178,2.0,1.0
9.313850402832031,-5.666408538818359,0.6608681678771973,0.1685062823775534,-0.779111188009362,-0.603814035542349,0.1162462192908004,3.0,1.0
9.344437599182127,-6.6175456047058105,0.7660677433013916,0.7404196231280546,-0.5220412665099059,-0.4233812675918042,0.1288065912497988,3.0,1.0
9.253623962402344,-5.765412330627441,0.662163257598877,-0.0,-0.0,-1.0,0.1189610616334519,2.0,1.0
8.705156326293945,-6.275052070617676,0.627802848815918,-0.0,-0.0,-1.0,0.1316147773090933,1.0,1.0
8.828413963317871,-5.954367637634277,0.6148326396942139,-0.0,-0.0,-1.0,0.1749339937019088,1.0,1.0
8.536422729492188,-5.63055419921875,0.5344390869140625,-0.0,-0.0,-1.0,0.1992739182406079,1.0,1.0
8.279438972473145,-6.2760419845581055,0.5583527088165283,-0.512463747542464,0.1268960907279141,-0.8492810427724774,0.219274188102323,3.0,1.0
8.096868515014648,-6.6467061042785645,0.5638871192932129,-0.8525748887876067,-0.4699738359785282,0.2285621414504758,0.175439529216683,3.0,1.0
9.983088493347168,-6.06710147857666,0.8085150718688965,-0.0,-0.0,-1.0,0.1349700836146092,2.0,1.0
9.904133796691896,-6.632500648498535,0.8571534156799316,-0.0,-0.0,-1.0,0.1831860008715802,1.0,1.0
9.364041328430176,-4.417442321777344,0.2130537033081054,-0.0,-0.0,-1.0,0.1408001290032575,1.0,1.0
8.775975227355957,-5.600131034851074,0.257439374923706,-0.0,-0.0,-1.0,0.2194744255729262,2.0,1.0
8.740852355957031,-6.160368919372559,0.3185682296752929,-0.0,-0.0,-1.0,0.0769572359711538,1.0,1.0
8.709332466125488,-5.6316447257995605,0.248267650604248,-0.0,-0.0,-1.0,0.1797925788495863,1.0,1.0
10.090243339538574,-6.145562171936035,0.5812292098999023,-0.0,-0.0,-1.0,0.2452007407040683,1.0,1.0
9.956378936767578,-5.857000827789307,0.5180554389953613,-0.0,-0.0,-1.0,0.1743707461757337,1.0,1.0
9.812362670898438,-5.558893203735352,0.4514052867889404,-0.0,-0.0,-1.0,0.117363800284562,2.0,1.0
9.688170433044434,-5.296899795532227,0.3931050300598144,-0.5789687274465002,-0.7599375464143691,0.2954490449953916,0.2153681073071109,4.0,1.0
9.457801818847656,-4.759895324707031,0.7401158809661865,-0.0,-0.0,-1.0,0.0976821984552359,2.0,1.0
9.905362129211426,-6.775681018829346,0.6245136260986328,-0.5474194733648029,-0.3193997560891755,-0.7735087045348469,0.0928808565618201,3.0,1.0
9.787782669067385,-5.841727256774902,0.4839587211608886,-0.0,-0.0,-1.0,0.1801576336487319,1.0,1.0
9.486918449401855,-5.855744361877441,0.4279365539550781,-0.0,-0.0,-1.0,0.1099906552095043,1.0,1.0
9.33358383178711,-5.947477340698242,0.4097943305969238,-0.0,-0.0,-1.0,0.1966545721063344,2.0,1.0
8.79970645904541,-5.100320816040039,0.6708414554595947,0.4830009470268793,0.5387944027148694,-0.6902250913827062,0.1206222812512722,4.0,1.0
9.09958267211914,-6.854455471038818,0.4718563556671142,-0.0,-0.0,-1.0,0.1083694236649154,1.0,1.0
8.931954383850098,-6.403417110443115,0.3856513500213623,-0.0,-0.0,-1.0,0.1137727070313157,1.0,1.0
8.522479057312012,-5.597316741943359,0.675678014755249,-0.7271888670677085,0.2105930427920878,0.6533352293733687,0.2211612410222371,5.0,1.0
7.807977676391602,-4.433086395263672,0.4375944137573242,-0.0,-0.0,-1.0,0.1449823235965419,1.0,1.0
8.173154830932617,-6.269397258758545,0.6805853843688965,-0.1705296154955664,0.5776047617082959,-0.7983059498029793,0.2085615237197616,3.0,1.0
10.024931907653809,-5.738524436950684,0.9385483264923096,-0.0,-0.0,-1.0,0.0899114683792904,1.0,1.0
9.94374656677246,-5.522549629211426,0.9019045829772948,-0.0,-0.0,-1.0,0.1656599990641682,2.0,1.0
10.008225440979004,-6.718777656555176,1.0384337902069092,-0.0,-0.0,-1.0,0.131223051065103,2.0,2.0
9.469956398010254,-6.846163749694824,0.9593832492828368,-0.0,-0.0,-1.0,0.1266946228594527,1.0,1.0
8.521156311035156,-6.2480549812316895,0.7389347553253174,-0.0,-0.0,-1.0,0.1542093063645751,1.0,1.0
10.178956031799316,-4.648288726806641,0.3539698123931885,-0.0,-0.0,-1.0,0.093839838416784,1.0,1.0
10.110912322998049,-6.042323589324951,0.5526504516601562,-0.0,-0.0,-1.0,0.1572904485596204,2.0,1.0
9.812832832336426,-5.626840114593506,0.4317035675048828,-0.94142611217598,0.2445788905610987,0.2321595175846164,0.1481239324452311,4.0,1.0
9.736373901367188,-5.392693042755127,0.3818342685699463,-0.2402685014737282,0.8516504472548037,-0.4657924032122704,0.1637961883069161,3.0,1.0
