x,y,z,nx,ny,nz,curvature,density,label
21.944398880004883,-23.993043899536133,1.014040231704712,-0.0,-0.0,-1.0,0.0959899214443688,2.0,2.0
22.15911102294922,-22.431425094604492,0.8883326053619385,-0.0,-0.0,-1.0,0.2312446599303159,2.0,1.0
22.70895767211914,-23.92028427124023,0.9533131122589112,-0.0,-0.0,-1.0,0.1060378871703968,1.0,1.0
21.56044578552246,-22.206939697265625,0.7661519050598145,-0.0,-0.0,-1.0,0.0253437836787824,1.0,1.0
22.671398162841797,-22.53667449951172,0.7178676128387451,-0.0,-0.0,-1.0,0.1187395380776113,1.0,1.0
21.356460571289062,-23.594593048095703,1.0558099746704102,-0.508985104930979,-0.2544453084808603,-0.8223087911183243,0.1321824098198354,3.0,2.0
21.06332015991211,-23.001848220825195,0.9164605140686036,-0.0,-0.0,-1.0,0.0352023597359562,1.0,1.0
20.420513153076172,-23.22472763061523,1.1014320850372314,0.8811401290854183,-0.4303842052907046,0.1958609423841841,0.1306687081051095,3.0,2.0
21.72372055053711,-23.337398529052734,1.08673357963562,-0.7112162614710933,-0.55840743562122,-0.4270275930920797,0.2328287170257617,4.0,2.0
22.685855865478516,-22.720380783081055,1.3080809116363523,-0.0,-0.0,-1.0,0.1256089662032462,1.0,2.0
22.35951232910156,-24.345600128173828,1.7750321626663208,0.1577759275347892,-0.8730863085293945,-0.4613318269413588,0.1492170342750328,3.0,2.0
20.514665603637695,-23.16947555541992,1.032567024230957,0.1990358852906622,-0.775222980367806,-0.5995115070423742,0.1739674958169916,6.0,2.0
21.641592025756836,-23.273929595947266,1.015188694000244,0.4451696392940035,-0.876003998019668,0.1855828324614221,0.1578301759549305,4.0,2.0
21.992969512939453,-24.126495361328125,1.121302366256714,-0.206585425680186,0.0086092169207222,-0.9783906905119998,0.1746078043152739,4.0,2.0
21.556251525878903,-24.020620346069336,1.0880379676818848,-0.0,-0.0,-1.0,0.0838555234356803,1.0,2.0
21.80431747436523,-24.08077812194824,1.1117377281188965,-0.0,-0.0,-1.0,0.1128942706970505,1.0,2.0
22.088193893432617,-24.15536117553711,1.2533197402954102,-0.0,-0.0,-1.0,0.1500812775791639,1.0,2.0
22.065937042236328,-23.096969604492188,0.9333877563476562,-0.0,-0.0,-1.0,0.1295263366375614,2.0,1.0
21.60094451904297,-24.309919357299805,1.2554702758789062,-0.0,-0.0,-1.0,0.1039936588256403,1.0,2.0
21.868722915649418,-24.205198287963867,1.1391639709472656,-0.2483598512540468,0.5584367180273697,-0.7914959357090141,0.1849240137195084,4.0,2.0
22.17864990234375,-24.207632064819336,1.2038445472717283,-0.0,-0.0,-1.0,0.1797649119426829,2.0,2.0
21.87432289123535,-23.42005729675293,0.8912920951843262,-0.0,-0.0,-1.0,0.1571543504329392,1.0,1.0
21.496686935424805,-22.373504638671875,0.8613119125366211,0.1524438587477178,-0.9829805301721446,0.1025190091280447,0.0547941686835478,4.0,1.0
21.318641662597656,-24.360218048095703,1.0501461029052734,-0.0,-0.0,-1.0,0.051377229111424,1.0,2.0
21.60257339477539,-24.169986724853516,1.0324745178222656,-0.0,-0.0,-1.0,0.1398615876143538,1.0,2.0
22.58796501159668,-24.136131286621097,0.9581665992736816,-0.0,-0.0,-1.0,0.2083157489054,1.0,1.0
21.711719512939453,-23.950645446777344,1.0284531116485596,-0.0,-0.0,-1.0,0.0713799512176375,2.0,2.0
22.617774963378903,-24.014965057373047,0.9581408500671388,-0.9413327667138388,0.1495367526101003,0.3025415375278171,0.1777464431191735,3.0,1.0
20.69647789001465,-24.289756774902344,0.9083881378173828,-0.0,-0.0,-1.0,0.0482047243827507,1.0,1.0
20.7257080078125,-24.065492630004883,0.907681941986084,-0.0,-0.0,-1.0,0.0295158550052265,1.0,1.0
20.77291488647461,-23.444150924682617,0.9099135398864746,-0.0,-0.0,-1.0,0.0330412074607806,1.0,1.0
20.89970016479492,-23.25993537902832,0.895660400390625,-0.0,-0.0,-1.0,0.0468529832690422,1.0,1.0
20.835372924804688,-22.705089569091797,0.9113192558288574,-0.0,-0.0,-1.0,0.0469071665453249,1.0,1.0
21.045188903808594,-22.461435317993164,0.8865902423858643,-0.0,-0.0,-1.0,0.0596967359155033,1.0,1.0
21.666038513183594,-22.515296936035156,0.8034186363220215,-0.0,-0.0,-1.0,0.0501316742944327,1.0,1.0
22.125961303710938,-22.539411544799805,0.7417917251586914,-0.0,-0.0,-1.0,0.1161230385036076,1.0,1.0
22.62450408935547,-22.34483337402344,0.6772239208221436,-0.0,-0.0,-1.0,0.1380416414617397,1.0,1.0
20.845327377319336,-22.476404190063477,0.9128904342651368,-0.0,-0.0,-1.0,0.079630487999577,2.0,1.0
21.50338554382324,-24.305330276489254,1.0757474899291992,-0.0,-0.0,-1.0,0.0744256255756101,2.0,2.0
21.926816940307617,-24.12928581237793,1.0469985008239746,0.0116320194442666,0.4453599195399099,-0.8952760681438173,0.1856543244475241,3.0,2.0
21.710874557495117,-23.26997184753418,0.9207382202148438,-0.0,-0.0,-1.0,0.1801621812494371,1.0,1.0
21.91077423095703,-23.185609817504883,0.9181833267211914,-0.0,-0.0,-1.0,0.0632678777469124,1.0,1.0
20.464946746826172,-23.088930130004883,1.002887487411499,0.930977530118232,0.3151022024446757,-0.184367677290437,0.2151533730434324,4.0,2.0
20.916595458984375,-22.929664611816406,0.9958631992340088,-0.0,-0.0,-1.0,0.059663786803939,1.0,1.0
21.7296085357666,-23.127504348754883,0.9336068630218506,-0.0,-0.0,-1.0,0.0788517193996446,2.0,1.0
21.975067138671875,-23.107669830322266,0.9222197532653807,-0.0,-0.0,-1.0,0.0647059288274507,1.0,1.0
22.391386032104492,-22.94859504699707,0.9143400192260742,-0.0,-0.0,-1.0,0.1228264054616089,1.0,1.0
20.8691349029541,-22.54204559326172,1.0365619659423828,-0.0,-0.0,-1.0,0.116654336106865,1.0,2.0
22.454784393310547,-23.99433135986328,0.9362435340881348,-0.0,-0.0,-1.0,0.0622785211856081,2.0,1.0
21.363672256469727,-24.252094268798828,1.0486280918121338,-0.0,-0.0,-1.0,0.0745528193564844,2.0,2.0
21.68132781982422,-23.947710037231445,1.0299272537231443,-0.0,-0.0,-1.0,0.068775521602497,2.0,2.0
22.049514770507812,-23.859468460083008,0.9919352531433104,-0.0,-0.0,-1.0,0.1407646819578357,1.0,1.0
21.480371475219727,-23.311811447143555,1.090679407119751,-0.0,-0.0,-1.0,0.1493693726708411,2.0,2.0
22.524463653564453,-22.7504940032959,0.8037581443786621,-0.0,-0.0,-1.0,0.2196938041415034,1.0,1.0
22.046451568603516,-22.541183471679688,0.8652031421661377,-0.0,-0.0,-1.0,0.2745924646794406,1.0,1.0
22.20279312133789,-22.447168350219727,0.8628334999084473,-0.0,-0.0,-1.0,0.1588552759993134,1.0,1.0
21.731361389160156,-22.73343849182129,0.8689427375793457,-0.0,-0.0,-1.0,0.0373549216030776,1.0,1.0
20.718921661376953,-22.73567771911621,0.9448590278625488,-0.0,-0.0,-1.0,0.067802850569628,2.0,1.0
20.984451293945312,-22.502628326416016,0.9516994953155518,-0.0,-0.0,-1.0,0.0572591248295637,1.0,1.0
21.35291290283203,-22.4049015045166,0.9347305297851562,-0.0,-0.0,-1.0,0.0390088935173075,1.0,1.0
21.802244186401367,-22.51104164123535,0.8879029750823975,-0.0,-0.0,-1.0,0.1380082277776882,2.0,1.0
22.115543365478516,-22.484952926635746,0.8657846450805664,-0.0,-0.0,-1.0,0.219303539851323,1.0,1.0
20.99087142944336,-22.37154960632324,0.9659953117370604,-0.0,-0.0,-1.0,0.1045092896114995,1.0,1.0
20.52379989624023,-24.3466739654541,0.8854517936706543,-0.0,-0.0,-1.0,0.0679490903760188,1.0,1.0
20.508424758911133,-23.93381690979004,0.9170100688934326,-0.0,-0.0,-1.0,0.0739941427239946,1.0,1.0
20.30229949951172,-23.760330200195312,0.9595866203308104,-0.0,-0.0,-1.0,0.1621171874660844,1.0,1.0
22.004549026489254,-22.39935302734375,0.7895121574401855,-0.0,-0.0,-1.0,0.1834869305711367,2.0,1.0
22.217153549194336,-22.300716400146484,0.7614355087280273,-0.0,-0.0,-1.0,0.1586720687455882,1.0,1.0
20.855552673339844,-23.062347412109375,0.9254214763641356,-0.0,-0.0,-1.0,0.0847584782202345,1.0,1.0
21.522464752197266,-22.460756301879883,0.8621087074279785,-0.0,-0.0,-1.0,0.0452520862837237,1.0,1.0
21.784988403320312,-22.39097595214844,0.8250741958618164,-0.0,-0.0,-1.0,0.1270578414904569,2.0,1.0
20.269346237182617,-23.05740737915039,1.0139307975769043,-0.0,-0.0,-1.0,0.1697389122951756,2.0,2.0
20.943103790283203,-22.42942237854004,0.954521894454956,-0.0,-0.0,-1.0,0.1000854496651207,1.0,1.0
21.153942108154297,-22.338956832885746,0.9278006553649902,-0.0,-0.0,-1.0,0.1284500316452918,1.0,1.0
22.33618927001953,-22.371496200561523,0.793665885925293,-0.0,-0.0,-1.0,0.1452874159619109,1.0,1.0
21.76772689819336,-22.43722915649414,0.8321940898895264,-0.0,-0.0,-1.0,0.1262652466576302,2.0,1.0
21.994449615478516,-22.35935401916504,0.822547197341919,-0.0,-0.0,-1.0,0.2328430011674984,1.0,1.0
21.823352813720703,-22.33782958984375,0.8384771347045898,-0.0,-0.0,-1.0,0.2141921532356272,1.0,1.0
21.504196166992188,-22.370145797729492,0.8600559234619141,0.1524438587477178,-0.9829805301721446,0.1025190091280447,0.0547941686835478,4.0,1.0
20.793376922607425,-22.44385528564453,0.906121015548706,-0.0,-0.0,-1.0,0.0752960977159036,1.0,1.0
21.009838104248047,-22.25237464904785,0.9107394218444824,-0.0,-0.0,-1.0,0.1866238458322839,1.0,1.0
20.317214965820312,-22.547605514526367,0.9295153617858888,-0.0,-0.0,-1.0,0.2142777963739578,1.0,1.0
20.552135467529297,-22.496021270751953,0.9181456565856934,-0.0,-0.0,-1.0,0.1938122277503251,1.0,1.0
22.04253387451172,-22.29996109008789,0.7322821617126465,-0.0,-0.0,-1.0,0.1315768804120289,1.0,1.0
21.574644088745117,-22.03407859802246,0.7906064987182617,-0.0,-0.0,-1.0,0.0204944109097515,1.0,1.0
21.165298461914062,-21.864051818847656,0.8337805271148682,-0.0,-0.0,-1.0,0.0592493428424195,1.0,1.0
22.66503143310547,-24.145112991333008,0.9965641498565674,-0.0,-0.0,-1.0,0.1526823498498118,2.0,1.0
22.326087951660156,-23.93527603149414,1.0009803771972656,0.3550003643397837,0.1799773865079822,-0.91737826531065,0.0845463301484893,4.0,2.0
22.102012634277344,-23.839574813842773,0.996645450592041,-0.0,-0.0,-1.0,0.1187229464148497,1.0,1.0
21.49276351928711,-23.41787338256836,1.0122065544128418,-0.0,-0.0,-1.0,0.071812382400365,1.0,2.0
21.604413986206055,-23.28210830688477,1.0453267097473145,0.0519443468455406,-0.9781381336347514,-0.2013642876984777,0.1934000979724818,3.0,2.0
21.229228973388672,-23.447664260864254,0.983145236968994,-0.0,-0.0,-1.0,0.0973277614535141,1.0,1.0
20.841644287109375,-23.21505355834961,0.9871063232421876,-0.0,-0.0,-1.0,0.0573089384449778,1.0,1.0
20.64426040649414,-23.148286819458008,0.9804196357727052,-0.0,-0.0,-1.0,0.0948692861383536,2.0,1.0
20.32761001586914,-22.91594123840332,0.99084210395813,-0.0,-0.0,-1.0,0.0735791636692863,1.0,1.0
20.260639190673828,-22.507658004760746,1.0536158084869385,0.6651115937357491,0.7464223095535952,0.0219158316969456,0.1116577963125059,3.0,2.0
21.236406326293945,-24.36144638061523,1.1276421546936035,-0.0,-0.0,-1.0,0.0569276829775061,1.0,2.0
21.914989471435547,-24.231239318847656,1.024827241897583,-0.0,-0.0,-1.0,0.1396424656450852,2.0,2.0
22.092226028442383,-24.11414337158203,1.0230900049209597,-0.2889905467570133,-0.9152930942277996,-0.2805762205604437,0.072879376893938,3.0,2.0
22.38015937805176,-24.063220977783203,1.017496109008789,0.1390879515666838,0.9725131123504868,0.1867425715667241,0.1168777434263506,3.0,2.0
21.311426162719727,-23.57341766357422,1.0070054531097412,-0.0,-0.0,-1.0,0.1211082504504356,2.0,2.0
21.20731735229492,-24.233558654785156,1.000598430633545,-0.0,-0.0,-1.0,0.0725620306003907,1.0,2.0
21.631134033203125,-23.26884078979492,0.9930509328842164,0.7359564867307934,0.087155986856318,-0.671395474808975,0.132355059851054,4.0,1.0
21.48696517944336,-23.54842758178711,0.996576189994812,-0.0,-0.0,-1.0,0.0838111595856603,1.0,1.0
21.833215713500977,-23.460914611816406,0.9767173528671264,-0.0,-0.0,-1.0,0.1690297084904504,1.0,1.0
20.826984405517575,-22.021554946899418,0.7986412048339844,-0.0,-0.0,-1.0,0.1156415094505723,1.0,1.0
20.990989685058594,-22.05708885192871,0.7865673303604126,-0.0,-0.0,-1.0,0.0803899154141107,1.0,1.0
21.178701400756836,-22.2382869720459,0.7688562870025635,-0.0,-0.0,-1.0,0.0803357417694476,1.0,1.0
21.58382797241211,-24.323575973510746,1.0697283744812012,-0.1344854509702817,-0.9683263599075602,-0.2103751985988229,0.116321933504771,3.0,2.0
21.975252151489254,-24.127225875854492,1.0486525297164917,-0.1783995311154073,0.2428493737371975,-0.9535186358814672,0.173816756644252,5.0,2.0
22.222972869873047,-24.128103256225582,1.0325372219085691,0.8553388275323874,-0.0606730313543447,-0.5145039099771693,0.110907485657833,3.0,2.0
20.32800674438477,-22.703781127929688,0.9077341556549072,-0.0,-0.0,-1.0,0.1733637095242284,1.0,1.0
20.52549743652344,-22.40906524658203,0.9023408889770508,-0.0,-0.0,-1.0,0.173352783432504,1.0,1.0
20.860069274902344,-22.224624633789062,0.8832120895385742,-0.0,-0.0,-1.0,0.2320722022715149,1.0,1.0
21.505348205566406,-22.374298095703125,0.8299553394317627,0.4236809988567382,-0.8949777611931871,0.1396754029075516,0.0507909115808935,3.0,1.0
21.426477432250977,-24.359657287597656,1.1555025577545166,-0.0,-0.0,-1.0,0.0598495338800201,1.0,2.0
21.71678924560547,-24.22024154663086,1.1509294509887695,-0.7616106975423496,-0.6480129744660862,0.0053226227248512,0.1366549728174392,3.0,2.0
22.636821746826172,-23.76362419128418,0.8618124723434448,-0.0,-0.0,-1.0,0.0842059373715362,1.0,1.0
22.524253845214844,-23.641908645629883,0.8654874563217163,-0.0,-0.0,-1.0,0.0769223537111029,1.0,1.0
21.827543258666992,-24.14072036743164,1.0218980312347412,-0.0,-0.0,-1.0,0.1173335557776026,2.0,2.0
22.160968780517575,-24.03305435180664,1.0175151824951172,-0.0,-0.0,-1.0,0.1097206195502143,2.0,2.0
20.45575904846191,-23.055137634277344,1.0609796047210691,-0.0,-0.0,-1.0,0.1893775900759259,2.0,2.0
22.15875244140625,-23.933021545410156,1.0218617916107178,-0.0,-0.0,-1.0,0.0926848073857519,1.0,2.0
20.492780685424805,-23.01559829711914,1.0588037967681885,-0.0,-0.0,-1.0,0.18780141088747,1.0,2.0
22.28876495361328,-24.02364730834961,1.0419403314590454,0.9661973130841182,0.2223673372651152,-0.1304435491185859,0.114325324664907,5.0,2.0
22.696176528930664,-22.767074584960938,0.8088829517364502,-0.0,-0.0,-1.0,0.1575308772839973,1.0,1.0
20.311918258666992,-24.09326171875,1.0376359224319458,-0.0,-0.0,-1.0,0.0796745625829866,1.0,2.0
20.714317321777344,-23.106441497802734,1.041057825088501,-0.0,-0.0,-1.0,0.0921384787398021,2.0,2.0
21.904211044311523,-24.236164093017575,1.0547175407409668,-0.0,-0.0,-1.0,0.1689873445215038,2.0,2.0
22.277414321899418,-24.15879821777344,1.0585620403289795,-0.0,-0.0,-1.0,0.1662895015872274,2.0,2.0
20.719436645507812,-23.08799743652344,1.0611175298690796,-0.0,-0.0,-1.0,0.0921384787398022,2.0,2.0
20.27940559387207,-23.989971160888672,1.057836890220642,-0.0,-0.0,-1.0,0.0848148159721719,2.0,2.0
20.430051803588867,-24.216472625732425,1.0600807666778564,-0.0,-0.0,-1.0,0.1432663006230815,1.0,2.0
22.028470993041992,-24.17906188964844,1.0784763097763062,-0.891970061491921,-0.0424093171314783,-0.4501009433699732,0.1498697420856448,3.0,2.0
22.321880340576172,-24.331737518310547,1.0820636749267578,-0.0,-0.0,-1.0,0.1525945423691148,2.0,2.0
21.279157638549805,-22.38874053955078,0.8844031095504761,-0.0,-0.0,-1.0,0.0627365572727841,2.0,1.0
22.178308486938477,-23.04949951171875,0.8801894187927246,-0.8366513645520965,0.2690668003851932,-0.4770928118548732,0.1690222279918715,3.0,1.0
22.358631134033203,-23.07787322998047,0.8804512023925781,-0.0,-0.0,-1.0,0.0657031199796828,1.0,1.0
20.247446060180664,-23.025943756103516,0.96910160779953,-0.0,-0.0,-1.0,0.1328721019673718,2.0,1.0
20.245698928833008,-24.199451446533203,1.3279922008514404,-0.9733800509568938,0.130401048901076,0.1884856568671853,0.097418739978009,3.0,2.0
20.368820190429688,-24.191326141357425,1.3200161457061768,-0.0,-0.0,-1.0,0.1099389195305114,1.0,2.0
21.78787612915039,-24.347965240478516,1.2280466556549072,-0.5325798397404177,0.4694732567612642,-0.704239714506391,0.1084332740764453,4.0,2.0
22.215675354003903,-24.203842163085938,1.1997381448745728,-0.0,-0.0,-1.0,0.2130568337818489,2.0,2.0
22.031890869140625,-24.280582427978516,1.2119406461715698,-0.0,-0.0,-1.0,0.2089117621341577,2.0,2.0
22.467437744140625,-24.33340072631836,1.1834739446640017,-0.0,-0.0,-1.0,0.1098152854422452,1.0,2.0
21.753576278686523,-23.28944206237793,1.1074373722076416,0.1063781806023667,0.5947480595709922,-0.7968427877117731,0.1533393696533219,3.0,2.0
22.064395904541016,-24.244897842407227,1.0863826274871826,-0.0,-0.0,-1.0,0.124726197339009,1.0,2.0
22.31192398071289,-24.23432350158691,1.0712552070617676,-0.0,-0.0,-1.0,0.1437530561715881,2.0,2.0
20.57672119140625,-22.947572708129883,0.8781092166900635,-0.0,-0.0,-1.0,0.0529226238732659,1.0,1.0
20.760318756103516,-22.92058753967285,0.8706134557723999,-0.0,-0.0,-1.0,0.0672641000136144,1.0,1.0
21.088607788085938,-22.420976638793945,0.8621218204498291,-0.0,-0.0,-1.0,0.0945228973027127,1.0,1.0
20.46748924255371,-22.706714630126953,0.9366666078567504,-0.0,-0.0,-1.0,0.1276598394210293,1.0,1.0
20.70308303833008,-22.758228302001953,0.9167876243591307,-0.0,-0.0,-1.0,0.064389070198145,2.0,1.0
21.044109344482425,-22.220233917236328,0.8930946588516235,-0.0,-0.0,-1.0,0.1687519667865666,2.0,1.0
20.46392059326172,-23.125816345214844,0.9748919010162354,0.9881303301402664,-0.1093654806804188,0.1078779045607993,0.1712475828263452,3.0,1.0
21.554264068603516,-24.296443939208984,1.2154356241226196,-0.0,-0.0,-1.0,0.0897092103402183,1.0,2.0
21.69111442565918,-24.24429702758789,1.2141872644424438,-0.9293778916685592,-0.3574432317795161,0.0921470050122044,0.110483972784105,4.0,2.0
21.939191818237305,-24.23257064819336,1.211500883102417,-0.0,-0.0,-1.0,0.0999943668240882,2.0,2.0
22.057470321655273,-23.962787628173828,0.976879358291626,-0.0,-0.0,-1.0,0.1168367245256393,1.0,1.0
22.695594787597656,-24.166358947753903,0.9748740196228028,-0.6242588163690987,-0.7712911566616725,-0.1241405729040723,0.1526823498498118,3.0,1.0
20.442955017089844,-23.054004669189453,0.9820457696914672,-0.1222407991479699,-0.5642286248969897,-0.8165189807166259,0.1682542811565995,3.0,1.0
21.864513397216797,-24.16083335876465,1.0672656297683716,-0.0,-0.0,-1.0,0.1577633540646637,1.0,2.0
22.093088150024418,-24.051267623901367,1.0672744512557983,0.2750212055225495,-0.8274915175286917,-0.4895111080772186,0.1221020883792876,3.0,2.0
20.463361740112305,-23.149248123168945,1.0762839317321775,0.9597877915723864,0.262598636043496,-0.0992438990401752,0.2096924464388869,4.0,2.0
20.349136352539062,-23.103307723999023,1.076627492904663,-0.0,-0.0,-1.0,0.2104683093698671,2.0,2.0
21.856971740722656,-23.09495735168457,1.4046409130096436,-0.0,-0.0,-1.0,0.097998219516473,2.0,2.0
22.302677154541016,-24.33073616027832,1.4890387058258057,-0.0,-0.0,-1.0,0.0439415393177974,1.0,2.0
21.685773849487305,-24.270769119262695,1.17636239528656,-0.9293778916685592,-0.3574432317795161,0.0921470050122044,0.1512789782975676,4.0,2.0
22.00880241394043,-24.171592712402344,1.1678298711776731,-0.0,-0.0,-1.0,0.1730614784223549,2.0,2.0
20.277280807495117,-24.359041213989254,1.2495955228805542,-0.0,-0.0,-1.0,0.1072077828821759,1.0,2.0
20.299924850463867,-24.333255767822266,1.2121483087539673,-0.6472410697424303,-0.3116882077611115,0.6956503854533117,0.1072077828821759,3.0,2.0
21.849475860595703,-24.330638885498047,1.2057011127471924,-0.1284084180198838,-0.7085922070325698,-0.6938359765206347,0.1154835121864691,3.0,2.0
20.25145721435547,-24.175342559814453,1.1568052768707275,-0.0,-0.0,-1.0,0.0576936048285897,1.0,2.0
20.2825927734375,-24.30058860778809,1.1539011001586914,-0.8302029897612567,0.4723304754000385,-0.2960859973045739,0.111966931217118,3.0,2.0
21.95514488220215,-22.36795425415039,1.163258671760559,-0.0,-0.0,-1.0,0.1284180320712135,1.0,2.0
22.69367218017578,-22.179105758666992,1.154592752456665,-0.0,-0.0,-1.0,0.1248087133505858,1.0,2.0
21.83333396911621,-24.23468017578125,1.1291680335998535,-0.3558619906775579,0.3234906486861075,-0.8767645315611523,0.1565013392711821,5.0,2.0
22.191083908081055,-24.132436752319336,1.125054121017456,-0.0,-0.0,-1.0,0.1270537107059002,1.0,2.0
21.707096099853516,-24.281274795532227,1.1924251317977903,-0.905038692375384,-0.4126845341747224,0.1029390137724602,0.1338291213576125,5.0,2.0
22.05441093444824,-24.296865463256836,1.1842927932739258,0.0322629581491493,-0.8495064196016575,0.5265908702085892,0.196873058084585,3.0,2.0
20.423885345458984,-23.10299491882324,1.1619374752044678,-0.0330976966085431,-0.2120157730274288,-0.9767056130005553,0.25159092704824,4.0,2.0
20.270122528076172,-24.326379776000977,1.1477234363555908,-0.0,-0.0,-1.0,0.0993802061987641,2.0,2.0
22.660663604736328,-22.84126853942871,1.1492948532104492,-0.0,-0.0,-1.0,0.1015842612207398,1.0,2.0
21.81939697265625,-24.265132904052734,1.137115478515625,-0.0,-0.0,-1.0,0.1519923324069678,2.0,2.0
22.151233673095703,-24.205272674560547,1.135338306427002,-0.4494470107854134,-0.428709546061583,-0.7837126447950982,0.1731173878035055,3.0,2.0
21.51810836791992,-22.28491973876953,0.8469675779342651,-0.0,-0.0,-1.0,0.0467926635939296,1.0,1.0
22.580278396606445,-22.75298309326172,0.8473110198974609,-0.0,-0.0,-1.0,0.1320034801487586,1.0,1.0
22.706815719604492,-22.679105758666992,0.9710943102836608,-0.0,-0.0,-1.0,0.1681133221500529,1.0,1.0
20.60517120361328,-23.318923950195312,0.957250475883484,-0.0,-0.0,-1.0,0.0492383388289759,2.0,1.0
22.7017879486084,-22.891681671142575,0.9684199690818788,-0.0,-0.0,-1.0,0.1639991916263968,2.0,1.0
21.960590362548828,-23.389570236206055,0.9603350162506104,-0.0,-0.0,-1.0,0.1078309753647742,2.0,1.0
21.382509231567383,-23.424890518188477,0.958322525024414,-0.0,-0.0,-1.0,0.0808427258815251,1.0,1.0
22.342754364013672,-23.750988006591797,0.9567482471466064,-0.0,-0.0,-1.0,0.0720375113239452,1.0,1.0
21.897647857666016,-23.619916915893555,0.9573073983192444,-0.0,-0.0,-1.0,0.0329060201246673,1.0,1.0
22.418651580810547,-23.94791603088379,0.9544233083724976,-0.7433093711978419,-0.1411930395370315,-0.6538774382678788,0.0830088757313574,3.0,1.0
22.163394927978516,-23.84824562072754,0.9551013112068176,-0.0,-0.0,-1.0,0.0819622791669915,1.0,1.0
21.984575271606445,-23.43704414367676,1.3678584098815918,-0.0,-0.0,-1.0,0.0945705240408345,1.0,2.0
22.495529174804688,-22.81736183166504,0.80461585521698,-0.0,-0.0,-1.0,0.2113121272689047,1.0,1.0
21.663597106933594,-23.049833297729492,1.538166046142578,-0.0,-0.0,-1.0,0.1165435961136954,2.0,2.0
22.47207260131836,-24.268205642700195,1.511411190032959,-0.0,-0.0,-1.0,0.0836050190948984,1.0,2.0
21.51524353027344,-23.02513885498047,1.2332864999771118,-0.0,-0.0,-1.0,0.1057778019341953,1.0,2.0
22.63589096069336,-22.992427825927734,1.2132682800292969,-0.0,-0.0,-1.0,0.0849938806204913,1.0,2.0
20.227636337280273,-24.289241790771484,1.2399053573608398,-0.9022744131368986,-0.3335912883909778,-0.2731624712659337,0.1039128042521188,5.0,2.0
20.62433624267578,-22.12497901916504,0.8149212598800659,-0.0,-0.0,-1.0,0.1171418594651688,1.0,1.0
21.699249267578125,-23.352399826049805,0.8337829113006592,-0.0,-0.0,-1.0,0.1945544830517898,1.0,1.0
21.57970809936523,-23.277496337890625,0.8323491811752319,-0.0,-0.0,-1.0,0.142141683453358,1.0,1.0
20.779701232910156,-23.56797790527344,0.813389778137207,-0.0,-0.0,-1.0,0.0460176482406642,1.0,1.0
21.873878479003903,-23.878454208374023,0.831008791923523,-0.0,-0.0,-1.0,0.0740233014908716,1.0,1.0
20.832515716552734,-23.006500244140625,0.8066893815994263,-0.0,-0.0,-1.0,0.0839415316223358,1.0,1.0
20.301116943359375,-24.092857360839844,0.7561068534851074,-0.0,-0.0,-1.0,0.1180680690616372,1.0,1.0
22.08855438232422,-22.99768829345703,0.699109673500061,-0.0,-0.0,-1.0,0.1086331892506907,1.0,1.0
22.09845733642578,-23.113460540771484,0.6876881122589111,-0.0,-0.0,-1.0,0.1179630165658961,1.0,1.0
22.211830139160156,-23.4833984375,1.3292063474655151,-0.0,-0.0,-1.0,0.1077986057486923,1.0,2.0
20.26273536682129,-22.510578155517575,1.08945631980896,-0.6392136110526223,0.7625631311725375,0.0995159807337584,0.1270644215991866,3.0,2.0
21.80398178100586,-23.275548934936523,1.080723762512207,-0.0,-0.0,-1.0,0.1704868895924615,2.0,2.0
22.6563777923584,-22.706707000732425,1.1556872129440308,-0.0,-0.0,-1.0,0.1330835941908924,1.0,2.0
21.841991424560547,-24.210424423217773,1.142422795295715,-0.2483598512540468,0.5584367180273697,-0.7914959357090141,0.1416728870619089,4.0,2.0
21.627552032470703,-24.237398147583008,1.1276514530181885,-0.0,-0.0,-1.0,0.1253464417778309,2.0,2.0
20.884267807006836,-23.01873207092285,1.0292596817016602,-0.0,-0.0,-1.0,0.1012115627495156,1.0,2.0
20.73887634277344,-22.940927505493164,1.0223568677902222,-0.0,-0.0,-1.0,0.109353573810939,1.0,2.0
20.577167510986328,-23.06846618652344,1.0479791164398191,-0.0,-0.0,-1.0,0.1973166488629288,1.0,2.0
21.79721450805664,-23.258647918701172,1.0026785135269165,-0.0,-0.0,-1.0,0.2036493367195738,1.0,2.0
21.586606979370117,-23.565845489501953,1.011155605316162,-0.0,-0.0,-1.0,0.0576142461514278,1.0,2.0
21.522375106811523,-24.30815887451172,1.0150914192199707,-0.0,-0.0,-1.0,0.0755619336470062,2.0,2.0
22.3053035736084,-23.97057342529297,0.9852518439292908,0.3550003643397837,0.1799773865079822,-0.91737826531065,0.0770517154878182,4.0,1.0
22.677974700927734,-22.79920196533203,1.1153385639190674,-0.0,-0.0,-1.0,0.0731406395262444,1.0,2.0
20.98611640930176,-24.255401611328125,1.007962703704834,-0.0,-0.0,-1.0,0.0393840428609813,1.0,2.0
21.87550926208496,-24.262964248657227,1.1109051704406738,0.5040553268953868,0.2407659870644566,-0.8294335216889069,0.1550393596167257,3.0,2.0
22.144758224487305,-24.26546287536621,1.094692349433899,-0.0,-0.0,-1.0,0.1287204031177999,1.0,2.0
20.988378524780273,-24.130718231201172,0.9843661785125732,-0.0,-0.0,-1.0,0.0338586228802322,2.0,1.0
21.11704444885254,-24.184398651123047,0.975600004196167,-0.0,-0.0,-1.0,0.0623601670670496,1.0,1.0
20.418209075927734,-23.093486785888672,1.0249555110931396,-0.0552063867717567,-0.0042915511984506,-0.99846574174977,0.1789790496158549,4.0,2.0
21.196460723876953,-23.663787841796875,0.971441924571991,-0.0,-0.0,-1.0,0.1755340996039609,2.0,1.0
21.304931640625,-23.505565643310547,0.9644997715950012,-0.0,-0.0,-1.0,0.1058036632045223,2.0,1.0
21.2220401763916,-23.34307098388672,1.2322016954421997,-0.0,-0.0,-1.0,0.1242665230882281,1.0,2.0
21.526670455932617,-23.53384780883789,1.2319560050964355,-0.0,-0.0,-1.0,0.0992522264517919,1.0,2.0
21.678016662597656,-22.755512237548828,1.232190728187561,-0.0,-0.0,-1.0,0.0702679848172258,1.0,2.0
20.305925369262695,-22.657798767089844,0.8354340195655823,-0.0,-0.0,-1.0,0.1711026629722563,1.0,1.0
20.60103988647461,-22.74905776977539,0.8348567485809326,-0.0,-0.0,-1.0,0.0638957083290399,1.0,1.0
20.787593841552734,-21.91172218322754,0.8464395999908447,-0.0,-0.0,-1.0,0.1264611991337497,2.0,1.0
22.0838565826416,-23.28919982910156,1.3182928562164309,-0.0,-0.0,-1.0,0.2548193519499596,1.0,2.0
20.24323272705078,-24.336353302001953,1.2194052934646606,-0.4321649409385503,-0.5082795936631417,-0.7449062481206682,0.1072077828821759,4.0,2.0
21.706222534179688,-23.344934463500977,1.1371405124664309,-0.8535682167487707,-0.5074975407447946,-0.1177605430282533,0.1988741348686656,3.0,2.0
21.52313995361328,-24.35257911682129,1.1380374431610107,-0.0,-0.0,-1.0,0.0844268316294657,2.0,2.0
21.80303001403809,-23.26898765563965,1.1317646503448486,-0.0,-0.0,-1.0,0.1521383175483503,2.0,2.0
21.97152328491211,-24.211124420166016,1.110856533050537,-0.0,-0.0,-1.0,0.1640434249491454,2.0,2.0
20.36544418334961,-22.49286842346191,1.4993913173675537,0.4987366270403596,-0.2791094703456497,-0.8205849623358792,0.1457084707396286,4.0,2.0
22.639686584472656,-23.04837989807129,1.3315644264221191,-0.0,-0.0,-1.0,0.0808996494478863,1.0,2.0
20.409324645996097,-22.47685813903809,0.8541203141212463,-0.0,-0.0,-1.0,0.2175828873780716,1.0,1.0
22.466856002807617,-24.096038818359375,1.5096850395202637,-0.0546918470548434,0.8070035388400344,-0.5880085800100121,0.1269181472261785,5.0,2.0
20.302892684936523,-22.496150970458984,0.8751706480979919,-0.0,-0.0,-1.0,0.2195721117536579,2.0,1.0
20.82340431213379,-22.157377243041992,0.8690232634544373,-0.0,-0.0,-1.0,0.2087649845857213,2.0,1.0
22.383514404296875,-24.223628997802734,1.4514987468719482,-0.0,-0.0,-1.0,0.0511302238113872,1.0,2.0
21.52869033813477,-24.33664894104004,1.064324140548706,-0.0,-0.0,-1.0,0.0844881982281018,2.0,2.0
21.651254653930664,-23.24616050720215,1.107927918434143,-0.0,-0.0,-1.0,0.1390999721828863,1.0,2.0
21.72512435913086,-24.277406692504883,1.0517748594284058,-0.0,-0.0,-1.0,0.1660814302542418,2.0,2.0
21.77769660949707,-23.310562133789062,1.0948938131332395,-0.4666192163723356,-0.0076310207002509,-0.8844253922378869,0.1473210038743104,3.0,2.0
22.125747680664062,-24.125995635986328,1.0272274017333984,-0.2928237566496321,-0.7433396461039513,-0.6014153457234435,0.0583621213731635,4.0,2.0
22.653696060180664,-24.35521125793457,0.972863793373108,-0.0,-0.0,-1.0,0.1951263674350589,1.0,1.0
22.70071029663086,-22.83275604248047,1.0442332029342651,-0.0,-0.0,-1.0,0.0962301143537732,2.0,2.0
22.04183006286621,-23.365623474121097,1.3213109970092771,-0.0,-0.0,-1.0,0.0885667042691799,1.0,2.0
22.651302337646484,-22.812877655029297,1.3141844272613523,-0.0,-0.0,-1.0,0.147365702437074,1.0,2.0
20.373668670654297,-23.139358520507812,1.105704426765442,-0.4621763944851585,-0.5209064113963017,-0.7176694858686172,0.2248457465753217,4.0,2.0
20.21934509277344,-24.314624786376953,1.0531468391418457,-0.0,-0.0,-1.0,0.11772566352685,2.0,2.0
20.471120834350582,-23.15369033813477,1.1032538414001465,0.940255410308168,-0.1651852312895927,-0.2977139612951034,0.2228761271221819,3.0,2.0
21.236469268798828,-24.274011611938477,1.0349308252334597,-0.0,-0.0,-1.0,0.0649920172504522,2.0,2.0
21.56188583374023,-24.294763565063477,1.0269412994384766,-0.0,-0.0,-1.0,0.1011022974676852,2.0,2.0
21.91873359680176,-23.43463134765625,1.0604665279388428,-0.0,-0.0,-1.0,0.1640491898025519,2.0,2.0
21.971145629882812,-24.117542266845703,1.0263323783874512,0.8477224615433503,-0.3722658237849738,-0.3778687399568501,0.1487643157942342,4.0,2.0
21.946529388427734,-22.45323371887207,1.107074499130249,-0.0,-0.0,-1.0,0.1871981927375456,2.0,2.0
22.219314575195312,-24.08983039855957,1.021942138671875,-0.0,-0.0,-1.0,0.111137779306261,2.0,2.0
22.362680435180664,-24.322736740112305,1.6920782327651978,-0.0,-0.0,-1.0,0.0935960986682074,1.0,2.0
20.493349075317383,-22.569799423217773,1.1846249103546145,-0.9055241583298664,-0.3039889793239783,-0.2960011809614162,0.1463138256830381,3.0,2.0
21.65671157836914,-23.339336395263672,1.1197890043258667,-0.0,-0.0,-1.0,0.1559755491196885,2.0,2.0
21.5989933013916,-24.326236724853516,1.072280764579773,-0.1344854509702817,-0.9683263599075602,-0.2103751985988229,0.1238239623114695,3.0,2.0
21.75520896911621,-22.513717651367188,1.158198356628418,-0.0,-0.0,-1.0,0.1511044739379478,2.0,2.0
21.715991973876953,-23.35679054260254,1.1174229383468628,-0.7208410624802782,-0.59857290578105,-0.3494261568731424,0.1793120681044624,4.0,2.0
22.03318977355957,-24.172632217407227,1.0685192346572876,-0.0,-0.0,-1.0,0.1464745509736855,2.0,2.0
21.884796142578125,-24.315507888793945,1.0653181076049805,-0.0,-0.0,-1.0,0.0878556301767813,1.0,2.0
22.67087745666504,-22.29850196838379,1.144964337348938,-0.0,-0.0,-1.0,0.1070470131849819,1.0,2.0
22.67229461669922,-24.247055053710938,1.0470792055130005,-0.0,-0.0,-1.0,0.2167642006533883,1.0,2.0
20.229042053222656,-22.3153076171875,1.1598454713821411,-0.0,-0.0,-1.0,0.0845463337711897,1.0,2.0
20.265869140625,-23.209182739257812,1.11436927318573,-0.0,-0.0,-1.0,0.1863145711971486,1.0,2.0
21.756113052368164,-22.50925636291504,1.130198955535889,-0.0,-0.0,-1.0,0.1648773801082514,2.0,2.0
21.46434783935547,-23.309185028076172,1.0932365655899048,-0.0,-0.0,-1.0,0.1493693726708411,2.0,2.0
21.21055030822754,-23.655872344970703,1.079104781150818,-0.0,-0.0,-1.0,0.117500360290577,1.0,2.0
21.16279983520508,-24.14140510559082,1.0547399520874023,-0.0,-0.0,-1.0,0.0632287992843453,1.0,2.0
21.898117065429688,-22.194162368774418,1.1443367004394531,-0.0,-0.0,-1.0,0.1940210603552883,1.0,2.0
21.58720970153809,-23.519739151000977,1.0804381370544434,-0.0,-0.0,-1.0,0.1134607241604843,1.0,2.0
21.639911651611328,-23.92052459716797,1.0587750673294067,-0.0,-0.0,-1.0,0.0633656884132563,1.0,2.0
21.73214340209961,-24.136503219604492,1.046034336090088,-0.0,-0.0,-1.0,0.0882135994273708,1.0,2.0
22.126876831054688,-22.830888748168945,1.10754132270813,-0.0,-0.0,-1.0,0.1113127666174185,1.0,2.0
22.061450958251953,-24.04862594604492,1.0450341701507568,0.3713000732792294,-0.9109044630985428,-0.1799703161357297,0.1093385525311485,4.0,2.0
21.988754272460938,-24.105897903442383,1.043278455734253,0.7358014794416297,-0.5612841866074118,-0.3788881691422486,0.1305298728190158,3.0,2.0
22.533464431762695,-24.31626892089844,1.0223965644836426,-0.0,-0.0,-1.0,0.1507929166777707,1.0,2.0
20.425352096557617,-23.125473022460938,1.0388052463531494,0.7211783966636829,-0.1332983091726838,-0.6798038547679051,0.2323536028166552,3.0,2.0
20.229007720947266,-24.36014938354492,0.9636816382408142,-0.0,-0.0,-1.0,0.109841209824452,1.0,1.0
21.393632888793945,-23.533641815185547,0.98110830783844,-0.0,-0.0,-1.0,0.1032674079944613,2.0,1.0
21.215633392333984,-23.64619827270508,0.9795121550559998,-0.0,-0.0,-1.0,0.1241615800713586,2.0,1.0
21.001293182373047,-24.062583923339844,0.958876132965088,-0.0,-0.0,-1.0,0.0321296830260774,2.0,1.0
21.634471893310547,-23.28697204589844,0.989464282989502,0.7359564867307934,0.087155986856318,-0.671395474808975,0.1770888435086131,4.0,1.0
21.66061210632324,-23.496021270751953,0.9745761156082152,-0.0,-0.0,-1.0,0.1363750692563047,1.0,1.0
21.999298095703125,-23.82851219177246,0.9405661225318908,-0.6563180419843749,0.5548496755844209,-0.5112616407179976,0.1396088149908919,4.0,1.0
22.00957679748535,-23.91634750366211,0.9343207478523254,-0.0,-0.0,-1.0,0.1277188353912813,2.0,1.0
22.267379760742188,-23.806678771972656,0.93244469165802,-0.0,-0.0,-1.0,0.0806362505462433,2.0,1.0
22.496797561645508,-24.065872192382812,0.9065547585487366,-0.0,-0.0,-1.0,0.0646285622713352,1.0,1.0
20.51919937133789,-21.891937255859375,1.1166856288909912,-0.0,-0.0,-1.0,0.1552012214658188,2.0,2.0
22.01056671142578,-22.409791946411133,1.0352377891540527,-0.0,-0.0,-1.0,0.2154529318603517,2.0,2.0
22.663330078125,-22.766590118408203,0.9880881905555724,-0.0,-0.0,-1.0,0.1962381709635706,2.0,1.0
22.68640899658203,-22.906179428100582,0.9778194427490234,-0.0722467350540069,-0.4875008770841748,-0.8701283262348125,0.1801640990115088,3.0,1.0
21.26308250427246,-24.329029083251953,1.0493879318237305,-0.0,-0.0,-1.0,0.0477149127313153,2.0,2.0
21.721654891967773,-24.2814998626709,1.0492944717407229,-0.0,-0.0,-1.0,0.1774173727987652,2.0,2.0
21.988637924194336,-24.207244873046875,1.0515460968017578,-0.0,-0.0,-1.0,0.1567315774892342,1.0,2.0
20.425884246826172,-23.20863342285156,1.1126339435577393,0.9513884421973052,0.304939393419718,0.0432665967485272,0.1621415645863689,4.0,2.0
21.928131103515625,-22.459369659423828,1.147935152053833,-0.7954160333522532,-0.4337529867501871,-0.4232867590315802,0.1756741001640354,3.0,2.0
21.698684692382812,-23.324085235595703,1.10192608833313,-0.2237040958086409,-0.8674979957202793,-0.4443013672494565,0.199473785630989,5.0,2.0
22.274492263793945,-22.739959716796875,1.130312442779541,-0.0,-0.0,-1.0,0.1244354304926421,1.0,2.0
21.93828773498535,-23.40906524658203,1.0958143472671509,-0.0,-0.0,-1.0,0.1051464617876611,2.0,2.0
22.136335372924805,-24.153812408447266,1.0533697605133057,-0.0,-0.0,-1.0,0.0770642520146028,2.0,2.0
20.47240447998047,-21.974584579467773,1.0978062152862549,-0.0,-0.0,-1.0,0.1474175880872953,1.0,2.0
20.218990325927734,-22.38630485534668,1.0724279880523682,-0.0,-0.0,-1.0,0.1094430954182018,1.0,2.0
20.347152709960938,-22.422290802001953,1.0673518180847168,-0.0,-0.0,-1.0,0.2401985867849453,1.0,2.0
20.368330001831055,-22.62388610839844,1.052125096321106,-0.0,-0.0,-1.0,0.1973549550686027,1.0,2.0
20.32406997680664,-23.15966033935547,1.0135459899902344,0.3531873227911368,-0.6202996415771894,0.7003478204998137,0.1504409370872201,3.0,2.0
20.52436256408691,-23.159448623657227,1.009458303451538,0.9352579354229884,-0.2488676578416107,-0.2517091240077723,0.2092790838586263,5.0,2.0
20.392757415771484,-23.17852020263672,1.01076078414917,0.6193508640297605,-0.5400167586010183,-0.5699003488818363,0.2237081626166341,6.0,2.0
20.72109603881836,-23.624446868896484,0.970741868019104,-0.0,-0.0,-1.0,0.0458764524907778,2.0,1.0
20.40784072875977,-23.962182998657227,0.9524540901184082,-0.0,-0.0,-1.0,0.0866691167260065,1.0,1.0
20.39326286315918,-24.297283172607425,0.9278743863105774,-0.0,-0.0,-1.0,0.1453176379990474,2.0,1.0
21.94113540649414,-22.420413970947266,1.0320355892181396,-0.0,-0.0,-1.0,0.2169358150900574,1.0,2.0
21.608064651489254,-23.29203224182129,0.9748168587684632,0.432324538899736,0.2509175369111342,-0.8661038521653046,0.1586251443274604,3.0,1.0
21.339937210083008,-23.56206512451172,0.9611025452613832,-0.3639633603351439,0.92469251446297,0.1116889700449454,0.1100047113980377,3.0,1.0
21.07946014404297,-23.87932586669922,0.9435537457466124,-0.0,-0.0,-1.0,0.0400519265340731,1.0,1.0
20.924537658691406,-24.06149673461914,0.93355131149292,-0.0,-0.0,-1.0,0.0312676737216601,1.0,1.0
21.821300506591797,-23.388673782348633,0.962127447128296,-0.0,-0.0,-1.0,0.1770699205819891,1.0,1.0
22.659603118896484,-22.802520751953125,0.983783483505249,-0.0,-0.0,-1.0,0.1606378967986297,2.0,1.0
22.04798889160156,-23.445941925048828,0.9518773555755616,-0.0,-0.0,-1.0,0.1080575435108169,1.0,1.0
22.13880729675293,-23.808773040771484,0.9219387769699096,-0.0,-0.0,-1.0,0.0387605001653527,2.0,1.0
22.438608169555664,-23.81718063354492,0.9129476547241212,-0.0,-0.0,-1.0,0.0885059919967528,1.0,1.0
22.574951171875,-23.963218688964844,0.897976279258728,-0.0,-0.0,-1.0,0.0892226150398917,1.0,1.0
20.5610294342041,-21.929218292236328,1.113373041152954,-0.0,-0.0,-1.0,0.1477517717614222,1.0,2.0
20.261608123779297,-22.585750579833984,1.0680631399154663,-0.0,-0.0,-1.0,0.1191043266524953,1.0,2.0
20.392202377319336,-23.165088653564453,1.0232877731323242,0.8231463343222971,-0.4391055243085396,-0.3600228476270465,0.2322775917285579,5.0,2.0
21.90288352966309,-22.33008575439453,1.0630426406860352,-0.0,-0.0,-1.0,0.2936609555242204,1.0,2.0
20.537281036376953,-23.159229278564453,1.0218111276626587,0.8472749337839601,-0.2150840964806508,-0.4856583346576977,0.1834529911491192,5.0,2.0
20.40934944152832,-23.696697235107425,0.9832528233528136,-0.0,-0.0,-1.0,0.1372180275803544,1.0,1.0
20.72569465637207,-23.60042953491211,0.98600172996521,-0.0,-0.0,-1.0,0.0463733617747845,2.0,1.0
20.463077545166016,-23.830997467041016,0.9724293947219848,-0.0,-0.0,-1.0,0.1177758723136805,1.0,1.0
20.433393478393555,-24.31781005859375,0.9362515807151794,-0.0,-0.0,-1.0,0.1216188325431386,2.0,1.0
21.715282440185547,-23.364818572998047,0.9875221848487854,-0.0,-0.0,-1.0,0.2285034069937532,2.0,1.0
21.36952209472656,-23.55262756347656,0.979376256465912,-0.5416376783858041,0.6379045517810015,0.5474544804546916,0.1039405020668681,3.0,1.0
21.05558967590332,-23.950824737548828,0.9544051289558412,-0.0,-0.0,-1.0,0.0377289499442095,2.0,1.0
20.871612548828125,-24.183753967285156,0.9397283792495728,-0.0,-0.0,-1.0,0.0346574469141513,1.0,1.0
22.695457458496097,-22.682571411132812,1.020191669464111,-0.0,-0.0,-1.0,0.1293340620651287,1.0,2.0
22.69684600830078,-22.94697952270508,0.9998116493225098,-0.0,-0.0,-1.0,0.1924670031969872,2.0,1.0
21.99903106689453,-23.77473258972168,0.9508144855499268,-0.0,-0.0,-1.0,0.1084328567588283,1.0,1.0
22.44377326965332,-23.72350692749023,0.945582389831543,-0.0,-0.0,-1.0,0.1021150316931453,2.0,1.0
22.27098274230957,-23.8157958984375,0.942140817642212,0.5279122419989156,0.7078096616790749,0.4693763389663268,0.0806362505462433,3.0,1.0
22.60484313964844,-24.01797103881836,0.9193903207778932,-0.9413327667138388,0.1495367526101003,0.3025415375278171,0.1323954865631531,3.0,1.0
20.384687423706055,-22.44715881347656,1.495800495147705,0.7670910365715745,-0.3644143060668153,-0.5279901089465489,0.1848122768235817,3.0,2.0
21.78700256347656,-23.071367263793945,1.434870719909668,-0.0,-0.0,-1.0,0.1188507696928865,2.0,2.0
22.378202438354492,-24.21333694458008,1.3710490465164185,0.929621637427106,-0.3212096248250825,-0.1806321902294168,0.0919193365214283,3.0,2.0
21.02118492126465,-21.88169860839844,0.775470495223999,-0.0,-0.0,-1.0,0.0555418921342799,1.0,1.0
20.306882858276367,-22.33024024963379,1.1085610389709473,-0.0,-0.0,-1.0,0.1389524246136246,1.0,2.0
20.38393211364746,-23.19171905517578,1.0457550287246704,0.3769388724116233,-0.7995269767144371,-0.4676255980706423,0.2001689433757955,4.0,2.0
20.471050262451172,-23.18259048461914,1.0458977222442627,0.3920183086327886,-0.5686479570009108,0.7231605262287054,0.1270866508677376,3.0,2.0
22.085975646972656,-22.365394592285156,1.091130018234253,-0.0,-0.0,-1.0,0.1224619714202513,1.0,2.0
20.288150787353516,-24.16557884216309,0.9754359722137452,-0.0,-0.0,-1.0,0.1242965164068984,1.0,1.0
22.271211624145508,-22.787782669067383,1.0572824478149414,-0.0,-0.0,-1.0,0.1857763446905902,2.0,2.0
21.660146713256836,-23.34680557250977,1.0234167575836182,0.0865196916078992,0.6962269427404009,-0.7125885118119911,0.1989330598611988,3.0,2.0
21.41983985900879,-23.61371612548828,1.0062952041625977,-0.6008181543718591,0.1884103534752347,-0.7768649072268164,0.1098820607545372,3.0,2.0
21.191999435424805,-23.774686813354492,0.9967401027679444,-0.0,-0.0,-1.0,0.0713540631611112,2.0,1.0
20.970603942871097,-24.16963768005371,0.9697388410568236,-0.0,-0.0,-1.0,0.0319976621868925,2.0,1.0
22.666065216064453,-22.66425323486328,1.060716152191162,-0.0,-0.0,-1.0,0.1678825688822027,1.0,2.0
22.678253173828125,-22.906240463256836,1.0424445867538452,-0.0,-0.0,-1.0,0.1621665580758299,1.0,2.0
21.789209365844727,-23.666728973388672,0.9981606006622314,-0.1908375201090306,0.947148621120354,-0.2578575777991558,0.0408245425154656,3.0,1.0
22.29548454284668,-23.938108444213867,0.9711835384368896,0.6989322538925931,-0.0957367058104458,-0.7087511464746875,0.0753927846524091,3.0,1.0
22.064828872680664,-24.018951416015625,0.9684137105941772,-0.8588387745309146,-0.4893686725092596,-0.151374574247996,0.095491378851707,3.0,1.0
22.693988800048828,-24.160797119140625,0.9483940601348876,-0.0,-0.0,-1.0,0.1407991709208704,2.0,1.0
20.343994140625,-22.484128952026367,1.48435640335083,0.5065899375084661,-0.1995986278701174,-0.838765177488631,0.1457084707396286,3.0,2.0
22.274921417236328,-24.323535919189453,1.378076434135437,-0.0,-0.0,-1.0,0.0844091232782142,2.0,2.0
20.291574478149418,-22.3843994140625,0.8589613437652588,-0.0,-0.0,-1.0,0.235203967159701,1.0,1.0
21.149049758911133,-22.07442092895508,0.8653392791748047,-0.0,-0.0,-1.0,0.0893588862804561,2.0,1.0
20.79985618591309,-22.20616149902344,0.862698495388031,-0.0,-0.0,-1.0,0.1827235107706087,2.0,1.0
20.446937561035156,-22.404396057128903,0.8517876863479614,-0.0,-0.0,-1.0,0.2069218829310089,1.0,1.0
21.27768898010254,-22.09676742553711,0.8578347563743591,-0.0,-0.0,-1.0,0.0619880774837011,1.0,1.0
21.095684051513672,-22.16699981689453,0.8566352128982544,-0.0,-0.0,-1.0,0.1175860123175997,2.0,1.0
21.823884963989254,-22.457210540771484,0.7933318614959717,-0.0,-0.0,-1.0,0.1514974249222088,2.0,1.0
21.85103225708008,-22.510639190673828,0.7858947515487671,-0.0,-0.0,-1.0,0.1343296845967513,1.0,1.0
20.416812896728516,-22.453060150146484,1.1970789432525637,-0.0,-0.0,-1.0,0.2029740657538902,2.0,2.0
20.238033294677734,-22.69544982910156,1.1849722862243652,-0.0,-0.0,-1.0,0.2276871230392798,2.0,2.0
20.417390823364254,-23.215473175048828,1.135814547538757,0.8811401290854183,-0.4303842052907046,0.1958609423841841,0.1212463111300945,3.0,2.0
22.04096221923828,-22.180824279785156,1.145854949951172,-0.0,-0.0,-1.0,0.2455174377968332,1.0,2.0
21.913217544555664,-22.417245864868164,1.1327944993972778,-0.0,-0.0,-1.0,0.1363088748054285,2.0,2.0
21.94942283630371,-22.53987693786621,1.1209948062896729,-0.0,-0.0,-1.0,0.1203730891185341,1.0,2.0
21.640268325805664,-23.28631591796875,1.0750144720077517,-0.0,-0.0,-1.0,0.1143368328249057,2.0,2.0
21.35426902770996,-23.69324111938477,1.0554022789001465,-0.6723626082678397,0.3820016565214547,-0.6340372681618422,0.2053550080963756,3.0,2.0
21.71423721313477,-23.42831039428711,1.0598485469818115,-0.0,-0.0,-1.0,0.1942524062754399,1.0,2.0
21.414587020874023,-23.678272247314453,1.0537840127944946,-0.0,-0.0,-1.0,0.1378082044223853,2.0,2.0
21.429370880126953,-24.090984344482425,1.0194271802902222,-0.0,-0.0,-1.0,0.0702037616385402,1.0,2.0
22.663549423217773,-22.82555389404297,1.061104655265808,-0.0,-0.0,-1.0,0.0962301143537732,2.0,2.0
22.621034622192383,-22.98922538757324,1.0499073266983032,-0.0,-0.0,-1.0,0.1820152685432308,2.0,2.0
22.00732421875,-24.042388916015625,0.9951457977294922,-0.0,-0.0,-1.0,0.0714429493505561,1.0,1.0
22.344642639160156,-23.95879364013672,0.9848087430000304,-0.1023166234501787,0.4676740289086414,-0.8779591740224105,0.0995540654332566,4.0,1.0
22.141294479370117,-24.080793380737305,0.98524272441864,-0.0,-0.0,-1.0,0.0614869064431021,1.0,1.0
22.674400329589844,-22.95363426208496,1.4037587642669678,-0.0,-0.0,-1.0,0.0821049028013752,1.0,2.0
22.387250900268555,-24.181825637817383,1.361581802368164,0.929621637427106,-0.3212096248250825,-0.1806321902294168,0.0933119047187848,3.0,2.0
22.298656463623047,-24.34844398498535,1.358529806137085,-0.0,-0.0,-1.0,0.0883398385965181,2.0,2.0
20.260448455810547,-21.970794677734375,0.8147823810577393,-0.0,-0.0,-1.0,0.1446716486433878,1.0,1.0
20.892505645751953,-21.913726806640625,0.8147034645080566,-0.0,-0.0,-1.0,0.08816271944459,1.0,1.0
21.388992309570312,-21.895671844482425,0.8052854537963867,-0.0,-0.0,-1.0,0.0242517595776632,2.0,1.0
21.12305450439453,-21.979238510131836,0.798842191696167,-0.0,-0.0,-1.0,0.0618729149998037,1.0,1.0
20.851709365844727,-22.16071319580078,1.0751421451568604,-0.0,-0.0,-1.0,0.1960323843580265,2.0,2.0
20.42979431152344,-22.319259643554688,1.0654058456420898,-0.0,-0.0,-1.0,0.2069639976987721,1.0,2.0
20.283126831054688,-23.0317325592041,0.9782997369766236,0.0174158101187759,-0.8143730139041147,-0.5800804114798528,0.1328721019673718,3.0,1.0
20.899192810058594,-22.289775848388672,1.057301044464111,-0.0,-0.0,-1.0,0.156593241689221,1.0,2.0
20.54443359375,-23.18610382080078,0.9522192478179932,-0.0,-0.0,-1.0,0.158663199247445,1.0,1.0
21.132410049438477,-23.19158935546875,0.9339874982833862,-0.0,-0.0,-1.0,0.0225541594351667,1.0,1.0
20.926929473876953,-23.232526779174805,0.9354071617126464,-0.0,-0.0,-1.0,0.0487648682767411,1.0,1.0
20.21574592590332,-24.266334533691406,1.1976914405822754,-0.0,-0.0,-1.0,0.0690380611502734,2.0,2.0
21.96717643737793,-22.32992172241211,1.01360821723938,-0.0,-0.0,-1.0,0.2472549249199565,2.0,2.0
21.916101455688477,-22.479942321777344,0.9962655305862428,-0.0,-0.0,-1.0,0.1992656571338845,1.0,1.0
21.612871170043945,-23.09475326538086,1.090675950050354,-0.0,-0.0,-1.0,0.2361828844515782,1.0,2.0
21.488704681396484,-23.243064880371097,0.9143998622894288,-0.0,-0.0,-1.0,0.1109115222287089,2.0,1.0
22.146364212036133,-22.868324279785156,0.935314416885376,-0.0,-0.0,-1.0,0.1738043726418133,2.0,1.0
22.02127265930176,-23.13367080688477,0.906368851661682,-0.0,-0.0,-1.0,0.142121358246745,1.0,1.0
21.80310821533203,-23.390544891357425,1.2185101509094238,-0.0,-0.0,-1.0,0.1097787001934308,1.0,2.0
22.581815719604492,-23.03050422668457,0.8924399614334106,-0.0,-0.0,-1.0,0.2209617012127076,1.0,1.0
22.365249633789062,-23.321876525878903,0.8655005693435669,-0.0,-0.0,-1.0,0.0483362893373307,1.0,1.0
22.021398544311523,-24.22010612487793,1.1295857429504397,-0.5611249438793977,-0.3504762883960915,-0.7498701011698238,0.1373004008996803,3.0,2.0
21.779951095581055,-24.327699661254883,1.1305537223815918,-0.0,-0.0,-1.0,0.1437260052125166,1.0,2.0
22.225021362304688,-24.31796646118164,1.110396385192871,-0.0,-0.0,-1.0,0.1297751850995928,2.0,2.0
20.38542938232422,-22.427576065063477,1.3627262115478516,-0.0,-0.0,-1.0,0.1965202355078074,1.0,2.0
22.18780517578125,-22.618656158447266,1.2738378047943115,-0.0,-0.0,-1.0,0.0803929221556447,2.0,2.0
22.565223693847656,-22.991485595703125,1.219361662864685,-0.0,-0.0,-1.0,0.1353271837741523,1.0,2.0
22.43270492553711,-24.14324188232422,1.4758998155593872,-0.0,-0.0,-1.0,0.1419126687572744,1.0,2.0
20.73484992980957,-22.75153160095215,0.8514502048492432,-0.0,-0.0,-1.0,0.0582126873221322,1.0,1.0
20.50394821166992,-22.78241920471191,0.8507916927337646,-0.0,-0.0,-1.0,0.0607614382299713,1.0,1.0
21.423696517944336,-21.864723205566406,0.731774091720581,-0.0,-0.0,-1.0,0.0230977532536654,1.0,1.0
21.1170654296875,-22.51291275024414,0.883084774017334,-0.0,-0.0,-1.0,0.0303129499192948,2.0,1.0
20.963184356689453,-22.662097930908203,0.8611911535263062,-0.0,-0.0,-1.0,0.0369053768737227,1.0,1.0
21.461090087890625,-22.700279235839844,0.8387682437896729,-0.0,-0.0,-1.0,0.0273790580503717,1.0,1.0
