x,y,z,nx,ny,nz,curvature,density,label
19.883304595947266,22.746103286743164,-1.4747322797775269,-0.0,-0.0,-1.0,0.1536406656070836,1.0,0.0
19.546186447143555,22.127058029174805,-1.442172646522522,0.228493634116615,-0.9697221642007668,-0.0861950313299049,0.202775696951287,4.0,0.0
18.641637802124023,22.944597244262695,-1.5424939393997192,-0.0,-0.0,-1.0,0.1457359744355818,1.0,0.0
19.428293228149418,22.12689781188965,-1.4471803903579712,0.4060125471012552,-0.2554744012539479,-0.8774318445898166,0.2034917382041003,4.0,0.0
18.486404418945312,22.347841262817383,-1.504501461982727,-0.0,-0.0,-1.0,0.0217470113544489,1.0,0.0
19.907958984375,22.84451484680176,-1.3342818021774292,0.6484549276011841,-0.6580798019876782,-0.3826711134716091,0.1149592154071487,4.0,0.0
18.383899688720703,21.79024124145508,-1.0460128784179688,0.7269249125741777,0.5424613020371118,-0.4210889541073538,0.0699123208484076,3.0,0.0
20.046342849731445,22.78046607971191,-1.2266151905059814,-0.0,-0.0,-1.0,0.1062702758217736,1.0,0.0
19.97296714782715,22.84119033813477,-1.2023764848709106,0.1801673111442201,-0.8734488603051447,0.452356970131671,0.1673264283216486,6.0,0.0
20.152023315429688,22.73642921447754,-1.2595298290252686,-0.7069137343139272,-0.633667590117785,0.3142266021085059,0.2332084897753203,6.0,0.0
19.935882568359375,22.841856002807617,-1.2827179431915283,0.1987063844700548,-0.9800324036350612,0.0072291490594246,0.1557808778329901,5.0,0.0
19.977642059326172,22.60312271118164,-1.4256938695907593,-0.0,-0.0,-1.0,0.0734153915214295,2.0,0.0
19.674339294433594,22.289600372314453,-1.4145885705947876,-0.0,-0.0,-1.0,0.0906792321537808,2.0,0.0
19.53352928161621,22.697948455810547,-1.466358304023743,-0.0,-0.0,-1.0,0.105509075975108,1.0,0.0
19.17483901977539,22.647348403930664,-1.486648440361023,-0.0,-0.0,-1.0,0.1247784983804507,2.0,0.0
18.888656616210938,22.5288028717041,-1.4952436685562134,-0.0,-0.0,-1.0,0.0985553266776375,1.0,0.0
20.094446182250977,22.80265235900879,-1.3652822971343994,-0.0,-0.0,-1.0,0.1009280084571618,2.0,0.0
19.919641494750977,22.857341766357425,-1.384462594985962,-0.3984117240385331,-0.4114074431114753,-0.8197633889733805,0.1590042003369532,3.0,0.0
19.69160842895508,22.829923629760746,-1.3993637561798096,0.4037955723646388,-0.9084348053531268,-0.1081449960087842,0.223022677250038,5.0,0.0
19.03032112121582,22.668542861938477,-1.435313701629639,0.2554605907211626,-0.5926357293790431,-0.7638866269622503,0.1571559527943297,3.0,0.0
19.03519821166992,23.094297409057617,-1.478736162185669,-0.0,-0.0,-1.0,0.0822223685473479,1.0,0.0
18.729515075683594,23.034225463867188,-1.497290849685669,-0.4908592684572888,0.8254002821239631,-0.278875514951129,0.1731863507489183,4.0,0.0
18.28322982788086,22.70277976989746,-1.5002062320709229,-0.0,-0.0,-1.0,0.0987203135746539,2.0,0.0
18.26737594604492,21.001937866210938,-1.3293468952178955,-0.0,-0.0,-1.0,0.0529497183040108,1.0,0.0
18.014556884765625,21.09994125366211,-1.3610341548919678,-0.1171146077282083,-0.5345292021069749,-0.8369962369996348,0.02169669644577,3.0,0.0
20.197490692138672,20.64913749694824,-1.4652502536773682,-0.0,-0.0,-1.0,0.0273994737683622,1.0,0.0
20.07998275756836,22.78846549987793,-1.4629340171813965,-0.0,-0.0,-1.0,0.1193444414539856,2.0,0.0
19.87705993652344,22.82980155944824,-1.4885308742523191,-0.0,-0.0,-1.0,0.1814144657859544,1.0,0.0
19.512126922607425,22.246978759765625,-1.4606454372406006,-0.0,-0.0,-1.0,0.1978730612714283,1.0,0.0
19.54015350341797,22.828399658203125,-1.5236384868621826,-0.5576704758667925,0.5784277089179422,0.5953360613153261,0.1545954205114138,3.0,0.0
19.091358184814453,22.6118221282959,-1.5479257106781006,0.1319460120829957,0.877942640555165,-0.4602249121792711,0.1345915600603169,3.0,0.0
19.122190475463867,22.717723846435547,-1.5564019680023191,-0.0,-0.0,-1.0,0.1067890470794624,1.0,0.0
18.86248016357422,23.01267433166504,-1.6183149814605713,-0.0,-0.0,-1.0,0.0959601943565255,1.0,0.0
18.72230529785156,22.903152465820312,-1.621859788894653,-0.0,-0.0,-1.0,0.0995946988675768,1.0,0.0
18.791099548339844,23.007286071777344,-1.6257047653198242,-0.0,-0.0,-1.0,0.1226876711987335,1.0,0.0
18.293325424194336,21.63676643371582,-1.533461093902588,-0.0,-0.0,-1.0,0.124918115715096,1.0,0.0
18.23805046081543,21.60198974609375,-1.5364577770233154,-0.0,-0.0,-1.0,0.1033360049018437,1.0,0.0
18.472639083862305,20.944740295410156,-1.4372196197509766,-0.0,-0.0,-1.0,0.0924681771592615,2.0,0.0
18.234336853027344,21.00963020324707,-1.4736268520355225,-0.0,-0.0,-1.0,0.0527472086830164,1.0,0.0
20.193248748779297,20.920339584350582,-1.4848741292953491,-0.0,-0.0,-1.0,0.0134157284771516,1.0,0.0
20.027935028076172,22.900293350219727,-1.1370235681533811,0.903523508321635,-0.4121300871954792,-0.1174481210510016,0.1437859474591263,3.0,0.0
18.324281692504883,21.7581729888916,-1.1629172563552856,0.6723621454279948,0.690315233410507,-0.2671966016192222,0.2119962319002029,8.0,0.0
17.71186065673828,21.879650115966797,-1.2342454195022583,-0.0,-0.0,-1.0,0.0551322013073512,1.0,0.0
19.973690032958984,21.802263259887695,-1.5126115083694458,-0.0,-0.0,-1.0,0.0668961333678629,1.0,0.0
19.759201049804688,21.724655151367188,-1.508034348487854,-0.0,-0.0,-1.0,0.037323201740329,1.0,0.0
19.6142578125,21.46836853027344,-1.4706937074661257,-0.1927711226890318,-0.8926894355821773,-0.4073633094145622,0.0367474586122433,4.0,0.0
19.385826110839844,21.278703689575195,-1.4486273527145386,-0.0,-0.0,-1.0,0.0199749665383768,1.0,0.0
19.341001510620117,21.39332389831543,-1.4699803590774536,-0.0,-0.0,-1.0,0.0445298466369488,2.0,0.0
20.13285255432129,20.641284942626953,-1.45457923412323,-0.0,-0.0,-1.0,0.0270332848684397,1.0,0.0
20.033132553100582,22.8290958404541,-1.289122223854065,0.8487408187606305,-0.069411966222591,0.5242337279445575,0.1341506609335651,3.0,0.0
19.97318649291992,22.896892547607425,-1.3018559217453003,0.7575029420031751,-0.304005736548166,-0.5777281410857024,0.2542884245183309,5.0,0.0
18.31308364868164,21.779605865478516,-1.2072635889053345,0.28907409252631,-0.6971199091372033,-0.6560945063896112,0.2445092294986928,8.0,0.0
19.902711868286133,20.717945098876953,-1.4231188297271729,-0.0,-0.0,-1.0,0.0243091546912708,2.0,0.0
20.093517303466797,20.98775100708008,-1.464524507522583,-0.0,-0.0,-1.0,0.0115544688887294,1.0,0.0
19.96034240722656,22.856931686401367,-1.300976037979126,0.701587000878817,-0.7031493892533895,-0.1155708293231992,0.1819454627837446,6.0,0.0
18.324121475219727,21.75498962402344,-1.2032873630523682,0.988205931919016,-0.14996269790673,-0.0309875032328158,0.2175261207488556,9.0,0.0
20.034290313720703,22.190732955932617,-1.4973689317703247,-0.0,-0.0,-1.0,0.0621265957792106,2.0,0.0
19.53235244750977,21.823280334472656,-1.4648326635360718,-0.0,-0.0,-1.0,0.1621673898004414,2.0,0.0
19.686594009399418,22.109466552734375,-1.5078243017196655,0.3931235837843332,0.3353251886369902,-0.8561605373632503,0.2115325601199887,3.0,0.0
18.95874786376953,21.02975082397461,-1.3630787134170532,-0.0,-0.0,-1.0,0.0527784911323653,1.0,0.0
19.19497299194336,21.86552047729492,-1.5004841089248655,-0.0,-0.0,-1.0,0.0644979730562904,2.0,0.0
19.21398544311523,21.95097923278809,-1.5151270627975464,-0.0,-0.0,-1.0,0.0831687416093363,1.0,0.0
18.53543281555176,20.689685821533203,-1.3391586542129517,-0.0,-0.0,-1.0,0.0529779753043966,1.0,0.0
18.619321823120117,20.96486473083496,-1.382121443748474,-0.0,-0.0,-1.0,0.0372672074751793,1.0,0.0
18.72392463684082,21.46373748779297,-1.465293526649475,-0.0,-0.0,-1.0,0.0852125669661121,1.0,0.0
18.898113250732425,21.74035263061523,-1.5019553899765017,-0.0,-0.0,-1.0,0.0774962005575867,1.0,0.0
20.062911987304688,22.999380111694336,-1.144288182258606,-0.0,-0.0,-1.0,0.1018469751076151,2.0,0.0
19.86934471130371,22.29825210571289,-1.5096487998962402,-0.0,-0.0,-1.0,0.0565983882374254,1.0,0.0
20.12888526916504,23.099586486816406,-1.1568949222564695,-0.0,-0.0,-1.0,0.1268624474055497,2.0,0.0
19.685935974121097,22.17415428161621,-1.5073487758636477,-0.282898070758436,-0.7005489025544223,-0.6551335105846359,0.2230571134732583,3.0,0.0
20.021671295166016,22.88544654846191,-1.1331121921539309,0.903523508321635,-0.4121300871954792,-0.1174481210510016,0.1437859474591263,3.0,0.0
20.07826042175293,22.98516082763672,-1.1435222625732422,0.1018102543301278,0.0563961961598597,-0.9932039776259118,0.1155139510869632,3.0,0.0
19.51615333557129,21.883296966552734,-1.4729719161987305,-0.1683800726839776,0.8492428432652277,-0.5004345554472939,0.1180023517490644,4.0,0.0
19.631324768066406,22.133148193359375,-1.5060336589813232,0.4032023404632202,0.2618718062923812,-0.876841507750487,0.2199252832123055,3.0,0.0
18.84893035888672,21.152381896972656,-1.422274112701416,-0.0,-0.0,-1.0,0.0848478146861446,1.0,0.0
18.89986801147461,21.610698699951172,-1.4989774227142334,-0.0,-0.0,-1.0,0.026281817307768,1.0,0.0
19.10134506225586,21.873214721679688,-1.5218145847320557,-0.0,-0.0,-1.0,0.0557129871487517,2.0,0.0
18.67987060546875,21.02704620361328,-1.4219965934753418,-0.0,-0.0,-1.0,0.0184712167737429,1.0,0.0
18.29457092285156,21.79003143310547,-1.1446046829223633,0.3537206626718974,0.6892306828135111,-0.632331209626233,0.1610964118622523,4.0,0.0
20.002666473388672,21.741588592529297,-1.5329813957214355,-0.0,-0.0,-1.0,0.0654261846667046,2.0,0.0
20.19219398498535,21.923572540283203,-1.5395803451538086,-0.0,-0.0,-1.0,0.1546006168235949,1.0,0.0
19.62028694152832,20.893333435058594,-1.4280829429626465,0.4999663511676844,-0.3552560242232524,-0.7898270728160436,0.0370857364221515,3.0,0.0
19.75106430053711,21.32604598999023,-1.4910485744476318,-0.0,-0.0,-1.0,0.0266152115013198,1.0,0.0
19.812877655029297,21.562471389770508,-1.527937650680542,-0.0,-0.0,-1.0,0.0285560635187851,2.0,0.0
18.762516021728516,22.981494903564453,-1.5223183631896973,-0.2187946784271318,-0.8174932111757873,-0.5327604887503083,0.1523403143751525,3.0,0.0
18.288665771484375,22.55660629272461,-1.5249090194702148,-0.0,-0.0,-1.0,0.0988622763821134,1.0,0.0
18.449098587036133,22.925273895263672,-1.560603380203247,-0.0,-0.0,-1.0,0.0354726362978162,1.0,0.0
19.968469619750977,22.86138916015625,-1.3272206783294678,0.9822739949304856,-0.1764335008507704,0.0633168118341858,0.1754989819533605,4.0,0.0
19.723121643066406,22.88050079345703,-1.364881992340088,-0.5588303869962103,-0.5951026529081737,0.5775477738432723,0.174320832913256,4.0,0.0
19.054975509643555,22.986242294311523,-1.4794771671295166,-0.0,-0.0,-1.0,0.0734864451472103,1.0,0.0
18.767993927001953,21.37760353088379,-1.257516860961914,-0.0,-0.0,-1.0,0.133963545457033,2.0,0.0
18.30640411376953,21.7419376373291,-1.3904025554656982,-0.0,-0.0,-1.0,0.1617048049034158,2.0,0.0
18.25110626220703,22.064247131347656,-1.4510340690612793,-0.0,-0.0,-1.0,0.0659230652065025,2.0,0.0
18.376737594604492,22.406417846679688,-1.4866206645965576,-0.0,-0.0,-1.0,0.0330040043374994,1.0,0.0
17.93627166748047,21.171295166015625,-1.3618085384368896,-0.0,-0.0,-1.0,0.0295799923128097,1.0,0.0
17.969684600830078,21.59992218017578,-1.4230782985687256,-0.0,-0.0,-1.0,0.031520795995579,1.0,0.0
18.018585205078125,21.968528747558594,-1.473386526107788,-0.0,-0.0,-1.0,0.0916263742852982,1.0,0.0
18.337738037109375,21.84021759033203,-0.9687895774841307,0.9635074770221004,0.0134630305063809,0.2673426425621079,0.0619711380376866,3.0,0.0
20.063343048095703,22.788410186767575,-1.3086519241333008,-0.0,-0.0,-1.0,0.0777000071506314,1.0,0.0
19.773681640625,21.67726707458496,-1.53420090675354,-0.0,-0.0,-1.0,0.0301479680267534,1.0,0.0
19.93358612060547,21.85329818725586,-1.5390520095825195,-0.0,-0.0,-1.0,0.0279430435180556,1.0,0.0
19.692089080810547,22.83490562438965,-1.3802075386047363,0.6313618277443178,-0.7583661674269192,-0.1620586269519781,0.2071092064063016,4.0,0.0
19.560203552246097,21.019493103027344,-1.4450569152832031,-0.0,-0.0,-1.0,0.0264916135438708,1.0,0.0
19.663543701171875,21.42417335510254,-1.5049676895141602,0.4468504549182068,-0.8829484474062987,-0.1439677400051771,0.0410354236886982,3.0,0.0
19.49392890930176,20.84884262084961,-1.425343036651611,-0.0,-0.0,-1.0,0.0319225005646764,1.0,0.0
18.810077667236328,22.5963134765625,-1.4966788291931152,-0.0,-0.0,-1.0,0.092105065274046,2.0,0.0
18.9631404876709,22.902183532714844,-1.5213046073913574,-0.0,-0.0,-1.0,0.0690622266099452,1.0,0.0
18.78315544128418,21.356813430786133,-1.2941482067108154,-0.0,-0.0,-1.0,0.1321624554595697,2.0,0.0
18.477365493774418,22.1632137298584,-1.4867730140686035,-0.0,-0.0,-1.0,0.0367627301582164,2.0,0.0
18.613666534423828,22.327857971191406,-1.4881525039672852,-0.0,-0.0,-1.0,0.0314789860064036,1.0,0.0
18.30649185180664,20.88391494750977,-1.3148512840270996,-0.0,-0.0,-1.0,0.06259519539372,1.0,0.0
18.295007705688477,21.124589920043945,-1.3548917770385742,-0.0,-0.0,-1.0,0.0513980022405268,1.0,0.0
18.264368057250977,21.580142974853516,-1.4336278438568115,-0.985311639365246,-0.0087245870123738,-0.1705428242783457,0.1244536577103478,3.0,0.0
18.349693298339844,21.981229782104492,-1.4816527366638184,-0.0,-0.0,-1.0,0.0404446045132932,2.0,0.0
17.978113174438477,20.644935607910156,-1.3471531867980957,-0.0,-0.0,-1.0,0.0174301861836002,1.0,0.0
18.0406436920166,20.983484268188477,-1.3855998516082764,-0.9885496559404598,-0.0859075803530839,-0.1240542839964701,0.0213867478204598,3.0,0.0
18.15110969543457,21.38758087158203,-1.4257736206054688,-0.0,-0.0,-1.0,0.0338182445394528,1.0,0.0
20.1251220703125,22.53375244140625,-1.4483424425125122,0.3773134368743486,-0.711917419600605,0.5922906026802075,0.0868082899847177,4.0,0.0
19.770885467529297,22.42443466186523,-1.4791840314865112,-0.0,-0.0,-1.0,0.0881956834207326,1.0,0.0
19.568138122558594,22.117462158203125,-1.4424670934677124,0.228493634116615,-0.9697221642007668,-0.0861950313299049,0.2050948643735433,4.0,0.0
19.440235137939453,22.161170959472656,-1.4747146368026731,0.2160335144889882,-0.6561512855438302,-0.7230456493864792,0.1811631498147545,3.0,0.0
19.32719039916992,21.929447174072266,-1.44236958026886,-0.0,-0.0,-1.0,0.0661413718138303,1.0,0.0
19.083589553833008,22.003440856933594,-1.5030947923660278,-0.0,-0.0,-1.0,0.0765505446608761,2.0,0.0
18.740802764892575,21.624019622802734,-1.485415816307068,-0.0,-0.0,-1.0,0.0753546011581437,1.0,0.0
18.846656799316406,21.86265754699707,-1.5162824392318726,-0.0,-0.0,-1.0,0.0706491000506701,1.0,0.0
18.16576385498047,22.59244155883789,-1.4006601572036743,0.1133923203481852,-0.4173750639532109,-0.9016319857215072,0.1055522827283419,3.0,0.0
18.544544219970703,21.0507869720459,-1.405152440071106,-0.0,-0.0,-1.0,0.0376865059298157,1.0,0.0
18.611534118652344,21.386905670166016,-1.460835576057434,-0.0,-0.0,-1.0,0.0750136777579446,1.0,0.0
18.071706771850582,22.561302185058594,-1.4109946489334106,-0.0,-0.0,-1.0,0.0974133405454384,1.0,0.0
18.468416213989254,20.813352584838867,-1.3728493452072144,0.4627294003806666,-0.3399267139694514,-0.818737644885881,0.0782333857705174,3.0,0.0
20.14792823791504,22.786556243896484,-1.134719729423523,-0.0,-0.0,-1.0,0.1291202122682384,2.0,0.0
19.94291114807129,22.84888458251953,-1.17546284198761,-0.2139824137318775,-0.4113301437843461,-0.886013001839041,0.2045193147601643,5.0,0.0
18.54771423339844,21.73613548278809,-1.1782881021499634,-0.0,-0.0,-1.0,0.078914342497435,1.0,0.0
18.269859313964844,21.761215209960938,-1.2315317392349243,0.3584507430840521,-0.3393252395858514,-0.8696961806070529,0.1990537436584688,5.0,0.0
17.722774505615234,21.669435501098633,-1.3147436380386353,-0.0,-0.0,-1.0,0.0708256366652506,1.0,0.0
18.355695724487305,21.802757263183594,-0.8554188013076782,-0.0,-0.0,-1.0,0.0798217135472942,2.0,0.0
19.925437927246097,22.82442855834961,-1.429066777229309,-0.2438821157523502,-0.3554886775133627,-0.9023022297301264,0.1254212860860697,3.0,0.0
19.686368942260746,22.78565788269043,-1.4588185548782349,-0.0,-0.0,-1.0,0.20457628548916,1.0,0.0
19.402099609375,22.892654418945312,-1.5333608388900757,-0.0,-0.0,-1.0,0.0945956008727485,2.0,0.0
19.178730010986328,22.847766876220703,-1.5617531538009644,-0.0,-0.0,-1.0,0.0764221181673115,2.0,0.0
18.860639572143555,22.573883056640625,-1.554810643196106,-0.0,-0.0,-1.0,0.1110528004783852,1.0,0.0
18.558629989624023,22.22060203552246,-1.5315121412277222,-0.0,-0.0,-1.0,0.0283560489353659,1.0,0.0
18.466394424438477,22.243228912353516,-1.5547984838485718,-0.0,-0.0,-1.0,0.0283500171250417,1.0,0.0
18.228416442871097,21.614023208618164,-1.464558243751526,-0.0,-0.0,-1.0,0.1033360049018438,1.0,0.0
18.340343475341797,21.98230743408203,-1.5218526124954224,0.782684098342919,-0.5901333162014822,-0.1978592209379506,0.0283457515335113,3.0,0.0
18.158493041992188,21.599910736083984,-1.476493239402771,-0.0,-0.0,-1.0,0.0788378566065701,2.0,0.0
20.127635955810547,22.766376495361328,-1.3822392225265503,-0.0,-0.0,-1.0,0.1096807608753716,2.0,0.0
18.337646484375,21.655664443969727,-1.450473666191101,-0.0,-0.0,-1.0,0.1860633635514152,2.0,0.0
18.33365249633789,21.775123596191406,-1.1400319337844849,0.6472087510167857,0.6544834860534744,-0.390860843639503,0.1565316590784911,7.0,0.0
18.07921028137207,21.085962295532227,-1.385405421257019,-0.2804173341296443,0.8525078612477368,-0.4411308935343713,0.0413436587339863,4.0,0.0
18.111499786376953,21.348148345947266,-1.4331682920455933,-0.0,-0.0,-1.0,0.0132932974256762,1.0,0.0
17.873802185058594,20.92951202392578,-1.4003123044967651,-0.7280191066203204,0.08650050345978,-0.6800778215005655,0.0343759904877161,6.0,0.0
18.40559196472168,21.814544677734375,-0.9836357831954956,-0.7180291974743694,0.5842433641705013,-0.378277362522591,0.0611974063822243,3.0,0.0
17.795066833496094,21.94442367553711,-1.1470950841903689,-0.0,-0.0,-1.0,0.211963758963812,1.0,0.0
17.990507125854492,21.48038101196289,-1.3504465818405151,-0.0,-0.0,-1.0,0.0422857771409684,2.0,0.0
18.207958221435547,21.657176971435547,-1.4403694868087769,-0.0,-0.0,-1.0,0.1586006097805831,1.0,0.0
18.417526245117188,21.57781410217285,-1.4714685678482056,-0.0,-0.0,-1.0,0.1147362318716697,1.0,0.0
18.41695976257324,20.980945587158203,-1.3395670652389526,0.2799850892957282,0.4857106407024639,-0.8280661346054825,0.0876701755342181,3.0,0.0
18.70206069946289,21.122236251831055,-1.4394320249557495,-0.0,-0.0,-1.0,0.0391232265439639,2.0,0.0
19.177490234375,22.675575256347656,-1.5137041807174685,-0.0,-0.0,-1.0,0.1208670563637685,2.0,0.0
19.27863311767578,22.507701873779297,-1.503573298454285,-0.0,-0.0,-1.0,0.0730116656446183,1.0,0.0
19.35658073425293,22.311050415039062,-1.483437418937683,-0.0,-0.0,-1.0,0.1631301521344094,2.0,0.0
19.42758560180664,22.081806182861328,-1.456252932548523,0.0640241176628491,0.1958789798440565,-0.9785358131477586,0.1507007554364721,3.0,0.0
19.817138671875,22.952484130859375,-1.3089345693588257,-0.0,-0.0,-1.0,0.1754281005246707,2.0,0.0
19.97250747680664,22.909564971923828,-1.3328408002853394,0.6282319015698221,-0.2393425374335999,0.7402971211782544,0.218768495842974,4.0,0.0
19.14591407775879,21.95111083984375,-1.4782261848449707,-0.0,-0.0,-1.0,0.0879506894737078,2.0,0.0
19.452144622802734,21.734392166137695,-1.4828238487243652,0.3825991693322115,0.5487514447303582,-0.74329652732449,0.1359547699200939,5.0,0.0
19.52616500854492,21.484832763671875,-1.4387447834014893,-0.0,-0.0,-1.0,0.0489708519091351,1.0,0.0
18.123367309570312,20.71527099609375,-1.426380276679993,-0.0,-0.0,-1.0,0.0237333926689792,1.0,0.0
17.877653121948242,20.99930191040039,-1.3893827199935913,-0.0,-0.0,-1.0,0.0468376827144602,2.0,0.0
18.059005737304688,21.029865264892575,-1.406702160835266,-0.8361382154390529,0.2028129144483493,-0.5096467466935919,0.0251030710369271,5.0,0.0
17.796680450439453,20.917144775390625,-1.3640235662460327,-0.8680140978687859,0.2822103240401716,-0.4085448064853832,0.0618554915975094,5.0,0.0
18.13391876220703,20.96211624145508,-1.3930433988571167,-0.0,-0.0,-1.0,0.0501826645009812,1.0,0.0
18.3016300201416,20.90205764770508,-1.3867043256759644,-0.0,-0.0,-1.0,0.0736981725331331,2.0,0.0
17.921762466430664,22.38095474243164,-1.4878623485565186,-0.0,-0.0,-1.0,0.0227498211058255,1.0,0.0
18.37224769592285,22.265134811401367,-1.4780800342559814,-0.0,-0.0,-1.0,0.0261347192366811,1.0,0.0
18.522375106811523,22.08433532714844,-1.4426181316375732,-0.0,-0.0,-1.0,0.0318317251565346,2.0,0.0
18.566856384277344,22.06700897216797,-1.440546989440918,-0.0,-0.0,-1.0,0.0839393778208057,2.0,0.0
18.504262924194336,22.246227264404297,-1.4793486595153809,-0.0,-0.0,-1.0,0.0292293734466247,2.0,0.0
18.82852554321289,22.166128158569336,-1.4757602214813232,-0.0,-0.0,-1.0,0.0925768943086934,1.0,0.0
18.86847686767578,22.08426856994629,-1.512442111968994,-0.0,-0.0,-1.0,0.0759647604008464,2.0,0.0
19.064001083374023,21.97254943847656,-1.4936068058013916,-0.0,-0.0,-1.0,0.0776946775828682,2.0,0.0
19.416391372680664,21.80048370361328,-1.4672362804412842,-0.0,-0.0,-1.0,0.0836390513646666,2.0,0.0
19.83157730102539,21.965621948242188,-1.5214614868164062,-0.0,-0.0,-1.0,0.0333230835871823,1.0,0.0
20.02973747253418,22.054443359375,-1.5505142211914062,-0.0,-0.0,-1.0,0.0940066922180322,2.0,0.0
19.973604202270508,22.877336502075195,-1.2432856559753418,0.5460567165549284,-0.8259468833753754,0.1401206913619628,0.2035860496282549,5.0,0.0
19.845056533813477,22.81946563720703,-1.3410123586654663,-0.3981323874594961,-0.9046938387177348,0.1517223129337647,0.1143925327734993,3.0,0.0
20.103214263916016,22.6190185546875,-1.3252383470535278,-0.0,-0.0,-1.0,0.1127440330271088,1.0,0.0
19.950223922729492,22.395057678222656,-1.5433437824249268,-0.0,-0.0,-1.0,0.118894766407699,2.0,0.0
18.52324676513672,20.84841537475586,-1.383612871170044,-0.3457961633545525,-0.5391033642676556,-0.7679795414231859,0.0762962828412811,5.0,0.0
18.41154670715332,20.814220428466797,-1.3800687789916992,-0.0,-0.0,-1.0,0.065528273933841,1.0,0.0
19.563793182373047,22.55763053894043,-1.4345128536224363,-0.0,-0.0,-1.0,0.0788451879681833,1.0,0.0
19.455413818359375,22.371580123901367,-1.4185521602630615,-0.0,-0.0,-1.0,0.1267878505556693,2.0,0.0
19.933727264404297,21.76014518737793,-1.551624774932861,-0.0,-0.0,-1.0,0.0682753788687203,1.0,0.0
20.083524703979492,22.73581886291504,-1.3869366645812988,-0.0,-0.0,-1.0,0.1987041524968977,2.0,0.0
19.90677261352539,22.827289581298828,-1.160632848739624,0.1871188255732222,-0.7493445901667453,-0.6351922782149755,0.1567243953454195,3.0,0.0
20.11236572265625,22.77664375305176,-1.318389892578125,-0.0,-0.0,-1.0,0.0918093590769888,1.0,0.0
18.172279357910156,22.63300132751465,-1.4186162948608398,-0.1735655631578484,0.0548370523631792,-0.983294408086315,0.1615204291076078,5.0,0.0
17.710594177246094,21.439481735229492,-1.3163237571716309,-0.0,-0.0,-1.0,0.0692717463086256,1.0,0.0
20.011009216308594,22.623388290405273,-1.459571361541748,-0.0,-0.0,-1.0,0.0750647677939398,2.0,0.0
19.815881729125977,22.442049026489254,-1.443802833557129,-0.0,-0.0,-1.0,0.1015717040846597,2.0,0.0
18.846044540405273,23.001420974731445,-1.5498876571655271,-0.0,-0.0,-1.0,0.1458147291430312,2.0,0.0
18.588871002197266,22.42280006408691,-1.4876790046691897,-0.0,-0.0,-1.0,0.0391529774019611,2.0,0.0
20.13926696777344,22.82312774658203,-1.1330199241638184,0.0045850005399128,-0.593791561704467,-0.8046058407808255,0.1990172508466932,4.0,0.0
20.066804885864254,22.78504943847656,-1.3902490139007568,0.3128966678756808,-0.9474972859168872,-0.0659133401704729,0.0645302330471851,4.0,0.0
19.84898376464844,22.82210350036621,-1.399081468582153,0.2558679024729516,-0.962528653475868,-0.0898343348727235,0.083690216352937,4.0,0.0
18.42200469970703,21.773801803588867,-1.27353835105896,0.5180287854960848,0.8444969297420262,0.1359084730756064,0.0904967512504522,3.0,0.0
19.998958587646484,22.86557388305664,-1.1807851791381836,-0.0445109673226752,-0.8065123973210442,0.58953924954617,0.247543432348218,5.0,0.0
19.993324279785156,22.82045555114746,-1.361426591873169,-0.0,-0.0,-1.0,0.0949936088080611,1.0,0.0
19.833824157714844,22.82051467895508,-1.364231824874878,0.6568540415100257,-0.7505470717906306,0.0722624465296871,0.0770641012965833,4.0,0.0
20.159351348876953,22.765792846679688,-1.1909101009368896,-0.6477677180964688,-0.7137748019895714,-0.2663128150067925,0.1749399527240595,4.0,0.0
20.02761459350586,22.856613159179688,-1.2059857845306396,0.7514551105819733,-0.1809063635277868,0.6344983092297305,0.1968049951124879,4.0,0.0
19.843156814575195,21.794322967529297,-1.548022985458374,-0.0,-0.0,-1.0,0.0297506980887201,1.0,0.0
19.547466278076172,21.538299560546875,-1.500633955001831,-0.0,-0.0,-1.0,0.0520741287206823,1.0,0.0
19.257503509521484,21.814273834228516,-1.5523979663848877,-0.0,-0.0,-1.0,0.0513599935275325,1.0,0.0
19.10961151123047,21.768695831298828,-1.5444996356964111,-0.0,-0.0,-1.0,0.0425338944957258,2.0,0.0
19.264867782592773,20.828861236572266,-1.3695666790008545,-0.0,-0.0,-1.0,0.0615337598726019,1.0,0.0
19.183744430541992,20.853981018066406,-1.3743607997894287,0.2048977302028727,0.4408698377470771,-0.8738711039521658,0.0942393061159472,4.0,0.0
19.09149932861328,20.836936950683594,-1.3714163303375244,0.5588457042761401,-0.0368002575684545,-0.8284547180474019,0.0825960239382073,3.0,0.0
18.477323532104492,20.823577880859375,-1.3720605373382568,0.4627294003806666,-0.3399267139694514,-0.818737644885881,0.0756517084083196,3.0,0.0
18.314788818359375,21.22406005859375,-1.4482228755950928,-0.0,-0.0,-1.0,0.025042665249202,2.0,0.0
18.042686462402344,20.991485595703125,-1.407418966293335,-0.818947902009119,0.0886103324611033,-0.5669854872710545,0.0247483336623553,4.0,0.0
19.993927001953125,21.73712158203125,-1.5536384582519531,-0.0,-0.0,-1.0,0.0654261846667046,2.0,0.0
19.599159240722656,21.486230850219727,-1.5043916702270508,0.0585365046547427,-0.8625956164218298,-0.5024960498876074,0.0367474586122433,4.0,0.0
19.451580047607425,21.435379028320312,-1.4940009117126465,-0.0,-0.0,-1.0,0.048342911866137,2.0,0.0
19.20815658569336,21.653406143188477,-1.532416820526123,-0.0,-0.0,-1.0,0.0742778904024995,2.0,0.0
19.14250946044922,20.833900451660156,-1.382155418395996,-0.2419756931689325,0.2469350570616333,-0.9383340777726144,0.093042929332398,4.0,0.0
18.55009651184082,20.834692001342773,-1.3800435066223145,0.3635239065497646,0.5081558232736915,-0.7807868010153828,0.0635380229204335,3.0,0.0
18.243722915649418,20.944046020507812,-1.4001679420471191,-0.0,-0.0,-1.0,0.0509032827864164,1.0,0.0
18.060243606567383,21.053756713867188,-1.420771598815918,-0.8336531964698277,0.171063249415256,-0.5251282821512594,0.0376246752961479,4.0,0.0
17.9122314453125,20.93467712402344,-1.3991971015930176,0.1223779531582664,0.2996920360388571,-0.9461544906175082,0.0278336880415527,5.0,0.0
20.10354232788086,22.760873794555664,-1.2362055778503418,-0.0,-0.0,-1.0,0.1632366122831863,2.0,0.0
19.995838165283203,22.831165313720703,-1.24540376663208,-0.5399651945608702,-0.7452309819327586,-0.3912395330617524,0.1705180729538263,7.0,0.0
18.420196533203125,21.711278915405273,-1.0465455055236816,-0.0,-0.0,-1.0,0.0604908695089525,1.0,0.0
20.088966369628903,22.2876033782959,-1.517805099487305,0.6627664103120183,0.5904513189200312,-0.4605517618549696,0.164098509624246,3.0,0.0
19.653820037841797,22.16681671142578,-1.4856343269348145,0.0803567661433376,0.041301444117226,-0.9959101268933942,0.1522024316184937,5.0,0.0
19.50711441040039,22.590818405151367,-1.5569262504577637,-0.0,-0.0,-1.0,0.0580585586326265,2.0,0.0
19.10840606689453,22.54513359069824,-1.5407686233520508,-0.0,-0.0,-1.0,0.1133583490654939,1.0,0.0
18.711462020874023,22.36615753173828,-1.501884937286377,0.2073841961674498,0.648728158680065,-0.7322182538803259,0.0544900350708001,4.0,0.0
18.481918334960938,22.605884552001953,-1.5412192344665527,-0.0,-0.0,-1.0,0.0438000359603767,1.0,0.0
18.47285842895508,22.171201705932617,-1.463289737701416,-0.0,-0.0,-1.0,0.0347982398321792,2.0,0.0
18.270586013793945,22.465192794799805,-1.5131592750549316,-0.0,-0.0,-1.0,0.0529760571963892,1.0,0.0
18.928192138671875,21.303258895874023,-1.3170511722564695,-0.0,-0.0,-1.0,0.121870583900411,1.0,0.0
17.75862693786621,21.512012481689453,-1.3357677459716797,-0.0,-0.0,-1.0,0.0883629764346915,2.0,0.0
20.188201904296875,22.755661010742188,-1.2122857570648191,-0.8292707463866236,-0.5140532755751704,0.2192242209652257,0.2112922891642639,5.0,0.0
19.96769142150879,22.85344696044922,-1.2219810485839844,0.8845157802230891,0.4312456458892923,0.17792983852594,0.2103886844107702,6.0,0.0
18.402259826660156,21.792306900024418,-1.0116567611694336,0.7799113449429099,0.4417884368949218,-0.4433523103078213,0.0545578034691614,3.0,0.0
20.19739151000977,22.03157615661621,-1.5278687477111816,-0.0,-0.0,-1.0,0.1736788984924831,1.0,0.0
19.984764099121097,22.1196346282959,-1.5337486267089844,-0.0,-0.0,-1.0,0.0454762058368028,2.0,0.0
19.55651473999023,21.896718978881836,-1.4731087684631348,0.1826073583917227,-0.9020468043202948,-0.3911088281754076,0.1487586154120944,4.0,0.0
19.37259864807129,22.312461853027344,-1.5420050621032717,-0.0,-0.0,-1.0,0.1788220823099769,2.0,0.0
19.080699920654297,22.304218292236328,-1.5284652709960938,-0.0,-0.0,-1.0,0.0561597357528704,1.0,0.0
18.90569305419922,22.375490188598633,-1.5349478721618652,-0.0,-0.0,-1.0,0.0564650345475417,2.0,0.0
18.96659469604492,21.377805709838867,-1.3515510559082031,-0.0,-0.0,-1.0,0.1252821506361906,1.0,0.0
18.470020294189453,22.415454864501953,-1.5266242027282717,-0.0,-0.0,-1.0,0.0263798630592909,1.0,0.0
18.359352111816406,21.704933166503903,-1.388906478881836,-0.707040462397526,0.6512056484750025,-0.2757262916860553,0.1754145792262344,4.0,0.0
17.809694290161133,21.479312896728516,-1.3275389671325684,-0.5748335956426526,-0.7268111739431341,-0.3759146907902683,0.0784610010023657,3.0,0.0
19.992494583129883,21.494163513183594,-1.5469398498535156,-0.0,-0.0,-1.0,0.0159082875706628,1.0,0.0
19.315961837768555,21.718488693237305,-1.5436387062072754,-0.0,-0.0,-1.0,0.0327985683680599,2.0,0.0
18.788169860839844,21.949756622314453,-1.5550823211669922,-0.0,-0.0,-1.0,0.0695415297516735,1.0,0.0
19.695873260498047,21.44245719909668,-1.516756534576416,0.4468504549182068,-0.8829484474062987,-0.1439677400051771,0.039583961396146,3.0,0.0
19.599987030029297,21.405773162841797,-1.5033807754516602,-0.0,-0.0,-1.0,0.0343718374707286,1.0,0.0
19.105365753173828,20.827295303344727,-1.3616342544555664,0.087057849069401,0.9462351670371056,0.311544442379687,0.0819775815334149,4.0,0.0
18.933744430541992,21.504785537719727,-1.4789280891418457,-0.0,-0.0,-1.0,0.0618424800542931,2.0,0.0
18.501300811767575,21.749588012695312,-1.4998931884765625,-0.0,-0.0,-1.0,0.2040541800908038,2.0,0.0
18.491256713867188,20.898351669311523,-1.336174726486206,-0.0,-0.0,-1.0,0.0951322681916783,1.0,0.0
18.267488479614254,21.56441879272461,-1.4508516788482666,-0.985311639365246,-0.0087245870123738,-0.1705428242783457,0.1033360049018438,3.0,0.0
17.784976959228516,21.18427467346191,-1.3508074283599854,-0.0,-0.0,-1.0,0.0720289550196062,1.0,0.0
19.92181968688965,21.68446350097656,-1.5525774955749512,-0.0,-0.0,-1.0,0.0331169027869075,1.0,0.0
19.47888565063477,21.680936813354492,-1.5306549072265625,-0.0,-0.0,-1.0,0.1140073891562418,1.0,0.0
19.34011459350586,21.79401969909668,-1.5473670959472656,-0.0,-0.0,-1.0,0.0526052289350667,1.0,0.0
19.13130760192871,21.798263549804688,-1.5391082763671875,-0.7726258109023204,0.6030941793356174,-0.1983097758029843,0.0558157539687925,3.0,0.0
18.67486000061035,21.860105514526367,-1.5330266952514648,-0.0,-0.0,-1.0,0.0780567907118675,1.0,0.0
18.45687484741211,20.959932327270508,-1.3383965492248535,-0.0605062579247242,-0.1697247261245808,-0.9836323043159384,0.0855388501431118,3.0,0.0
18.36251449584961,21.60705184936523,-1.4685359001159668,-0.0,-0.0,-1.0,0.1519505499773809,1.0,0.0
17.915264129638672,21.09686851501465,-1.345931053161621,-0.0,-0.0,-1.0,0.0292173335806097,1.0,0.0
20.00972366333008,22.878849029541016,-1.2731847763061523,0.0168722118181765,-0.8629228791360285,-0.5050538913145308,0.1881328811663454,6.0,0.0
18.64771270751953,20.660423278808594,-1.3971524238586426,-0.0,-0.0,-1.0,0.0236100932118449,1.0,0.0
18.46835708618164,20.766265869140625,-1.4106543064117432,-0.0,-0.0,-1.0,0.0679427258116243,1.0,0.0
18.297496795654297,20.89546585083008,-1.4306652545928955,-0.0,-0.0,-1.0,0.068030388955453,2.0,0.0
20.01034164428711,22.8800106048584,-1.2575278282165527,0.3547967954347832,-0.5270740577844847,0.7722125170960428,0.1925770189334554,5.0,0.0
18.339500427246097,20.66779899597168,-1.380642652511597,-0.0,-0.0,-1.0,0.0343629843774791,2.0,0.0
18.23523330688477,20.845802307128903,-1.4156720638275146,-0.0,-0.0,-1.0,0.0459169101798618,1.0,0.0
17.87584114074707,20.92650604248047,-1.4152791500091553,0.1223779531582664,0.2996920360388571,-0.9461544906175082,0.0343759904877161,5.0,0.0
20.016868591308594,22.819501876831055,-1.2640609741210938,0.7540561468628829,-0.119362499572188,0.6458729914419565,0.1403083594714033,4.0,0.0
19.133106231689453,20.738943099975582,-1.4213340282440186,-0.0,-0.0,-1.0,0.0905899238224461,1.0,0.0
18.949926376342773,20.970722198486328,-1.4553320407867432,-0.0,-0.0,-1.0,0.0399029876023126,1.0,0.0
18.43671417236328,20.90621757507324,-1.3947248458862305,-0.0,-0.0,-1.0,0.1109844065253748,2.0,0.0
18.477096557617188,21.398778915405273,-1.50917649269104,-0.0,-0.0,-1.0,0.0307268916142367,2.0,0.0
18.0369930267334,21.02954864501953,-1.3884084224700928,-0.8933484290862267,0.1436829932238325,-0.425774331902959,0.0253200723690341,6.0,0.0
18.057697296142575,21.062271118164062,-1.3976202011108398,-0.7499619863457272,0.4687137739947966,-0.4667594852854373,0.0376246752961481,6.0,0.0
17.741344451904297,20.986223220825195,-1.3543803691864014,-0.0,-0.0,-1.0,0.0659463071718987,2.0,0.0
18.37391662597656,21.794334411621097,-0.9547255039215088,0.1430176312428814,0.8684501235505581,0.4747002633859559,0.0543486674790721,5.0,0.0
20.11037826538086,21.95305633544922,-1.554114580154419,-0.0,-0.0,-1.0,0.1150826204507707,1.0,0.0
19.8974609375,22.0775203704834,-1.548802614212036,-0.0,-0.0,-1.0,0.0278993940391202,2.0,0.0
19.55197525024414,21.88437843322754,-1.4677085876464844,0.1435065182566455,-0.4405747093853946,-0.8861714307445427,0.143443935310534,3.0,0.0
19.49393844604492,22.246368408203125,-1.528743028640747,-0.0,-0.0,-1.0,0.2210497313075461,2.0,0.0
19.23497772216797,22.52299690246582,-1.5498220920562744,-0.0,-0.0,-1.0,0.0539301944902902,2.0,0.0
18.78940200805664,22.6079158782959,-1.51330304145813,-0.0,-0.0,-1.0,0.0786630576443341,2.0,0.0
18.69372177124023,22.91010093688965,-1.5622055530548096,-0.0,-0.0,-1.0,0.1391364434710692,1.0,0.0
18.35503196716309,21.74822425842285,-1.2935426235198977,-0.0,-0.0,-1.0,0.1280476177988829,1.0,0.0
18.276695251464844,22.58962631225586,-1.4514384269714355,0.888712679451296,-0.2134851667422773,-0.4057263325981197,0.134582363798271,3.0,0.0
17.968225479125977,22.770462036132812,-1.4547646045684814,-0.0,-0.0,-1.0,0.0376772069109041,2.0,0.0
17.754066467285156,21.915693283081055,-1.2584807872772217,-0.0,-0.0,-1.0,0.0615193384215031,1.0,0.0
20.11574363708496,22.6981258392334,-1.4353957176208496,0.5790433542594664,0.357793579645581,-0.7325930304421052,0.1552116738757089,3.0,0.0
19.82117080688477,22.82138442993164,-1.4299123287200928,0.3374299925774434,-0.6834692632337724,-0.6473104095593324,0.0919021616582388,4.0,0.0
19.626556396484375,22.872543334960938,-1.420600414276123,-0.92144661612576,0.0063937858741579,0.3884523820657839,0.204184085290775,3.0,0.0
18.33232688903809,20.72732925415039,-1.4008440971374512,-0.0,-0.0,-1.0,0.0305950999825378,1.0,0.0
18.13261604309082,20.900333404541016,-1.4169607162475586,-0.0,-0.0,-1.0,0.0443966512678268,2.0,0.0
17.80315399169922,20.93954086303711,-1.386145830154419,-0.9616998401612792,-0.2638006153233387,-0.0744489945452466,0.0644022361791337,4.0,0.0
18.991565704345703,20.929031372070312,-1.4644904136657717,-0.0,-0.0,-1.0,0.0528127838845111,1.0,0.0
18.89458465576172,21.016836166381836,-1.4709925651550293,-0.0,-0.0,-1.0,0.0314616397111512,1.0,0.0
18.52079200744629,21.41440200805664,-1.5130553245544434,-0.0,-0.0,-1.0,0.0292511280189341,2.0,0.0
20.055593490600582,22.79445457458496,-1.4159114360809326,-0.3306440080863345,-0.9235924854835798,-0.1940398430087687,0.0904754421653826,3.0,0.0
19.83376121520996,22.805633544921875,-1.3930792808532717,0.2558679024729516,-0.962528653475868,-0.0898343348727235,0.0856773700067993,4.0,0.0
19.858325958251953,23.104496002197266,-1.4587445259094238,-0.0,-0.0,-1.0,0.1599997663971944,1.0,0.0
18.917339324951172,20.713455200195312,-1.404066562652588,-0.0,-0.0,-1.0,0.0518784122270857,1.0,0.0
18.77745056152344,21.004928588867188,-1.4515910148620603,-0.0,-0.0,-1.0,0.0172369780654267,1.0,0.0
18.512516021728516,20.860815048217773,-1.3805389404296875,0.3472675874357542,0.5253416577205229,-0.7768020116992512,0.0874058563037634,4.0,0.0
18.372947692871097,21.01034927368164,-1.3965423107147217,-0.0,-0.0,-1.0,0.1015481655203362,2.0,0.0
18.273618698120117,21.28329086303711,-1.4483463764190674,-0.0,-0.0,-1.0,0.0250449929344599,1.0,0.0
18.038787841796875,21.121204376220703,-1.3780038356781006,-0.1171146077282083,-0.5345292021069749,-0.8369962369996348,0.0232818516806321,3.0,0.0
17.73117446899414,21.06722640991211,-1.3245725631713867,-0.0,-0.0,-1.0,0.0883731754212813,1.0,0.0
20.196531295776367,22.44472885131836,-1.4683237075805664,-0.0,-0.0,-1.0,0.0646909584182661,1.0,0.0
19.9139461517334,22.52324676513672,-1.4441189765930176,-0.0,-0.0,-1.0,0.0958514735795717,2.0,0.0
19.77403259277344,22.783611297607425,-1.479108810424805,-0.0,-0.0,-1.0,0.1996323375851114,1.0,0.0
19.542579650878903,22.951274871826172,-1.4829754829406738,-0.0,-0.0,-1.0,0.1435914175342944,1.0,0.0
19.07587432861328,22.606590270996097,-1.346843719482422,-0.0,-0.0,-1.0,0.1495918108900768,2.0,0.0
18.77149200439453,23.00558090209961,-1.3940982818603516,-0.0,-0.0,-1.0,0.1748453432605338,1.0,0.0
18.37914276123047,21.77374839782715,-1.0754714012145996,-0.0,-0.0,-1.0,0.0722876833057509,2.0,0.0
20.026765823364254,22.77897071838379,-1.363983154296875,-0.0,-0.0,-1.0,0.135923213240342,2.0,0.0
19.84177017211914,22.96292495727539,-1.3684585094451904,-0.0,-0.0,-1.0,0.1972617571682393,2.0,0.0
18.40461540222168,21.78074836730957,-0.9253213405609132,-0.0,-0.0,-1.0,0.0611974063822242,2.0,0.0
20.126239776611328,22.549793243408203,-1.4238462448120115,0.9412222865588532,-0.2872447967707832,-0.1777386677485672,0.1220344124467765,6.0,0.0
19.934505462646484,22.826587677001953,-1.432368278503418,-0.2438821157523502,-0.3554886775133627,-0.9023022297301264,0.1086796189485008,3.0,0.0
19.793201446533203,23.11111068725586,-1.453242301940918,-0.0,-0.0,-1.0,0.1199026291015217,1.0,0.0
19.737730026245117,22.847213745117188,-1.3996295928955078,-0.0938976730636361,0.325446448006487,-0.9408867288219104,0.1625644516173019,4.0,0.0
20.070804595947266,22.32427978515625,-1.496920108795166,-0.0,-0.0,-1.0,0.1570331029873619,2.0,0.0
19.817323684692383,22.608936309814453,-1.48753023147583,-0.0,-0.0,-1.0,0.0705631277741993,1.0,0.0
19.56362533569336,22.850128173828125,-1.4736647605895996,0.9686796507578608,0.1548330967924852,0.1941299728153222,0.1767087996479609,3.0,0.0
19.415830612182617,23.016666412353516,-1.4704875946044922,-0.0,-0.0,-1.0,0.0720468934883679,2.0,0.0
20.158523559570312,22.116016387939453,-1.4852147102355957,-0.0,-0.0,-1.0,0.2084272623447126,1.0,0.0
19.5616397857666,22.31471061706543,-1.392578363418579,0.2866685780438411,-0.9576167208391916,0.0281308075162458,0.1861251424190274,4.0,0.0
19.120166778564453,22.857810974121097,-1.3881573677062988,-0.0,-0.0,-1.0,0.1099105872870165,1.0,0.0
20.116939544677734,20.84491920471191,-1.5011756420135498,-0.0,-0.0,-1.0,0.0165780344731621,1.0,0.0
19.897523880004883,21.245887756347656,-1.5072872638702393,-0.0,-0.0,-1.0,0.018306841223144,1.0,0.0
19.814693450927734,21.62544631958008,-1.543792486190796,-0.0,-0.0,-1.0,0.0264561907136901,1.0,0.0
19.443004608154297,21.88929748535156,-1.502610445022583,-0.0,-0.0,-1.0,0.0720811753056129,2.0,0.0
19.33950424194336,22.202207565307617,-1.529113531112671,-0.0,-0.0,-1.0,0.1994143344734948,2.0,0.0
19.102745056152344,22.61143684387207,-1.545396089553833,0.1319460120829957,0.877942640555165,-0.4602249121792711,0.1345915600603169,3.0,0.0
18.896554946899418,22.862884521484375,-1.5447700023651123,-0.0,-0.0,-1.0,0.0964113256121527,1.0,0.0
18.650257110595703,23.12430953979492,-1.5396206378936768,-0.0,-0.0,-1.0,0.1578552560422043,1.0,0.0
19.804641723632812,20.92970848083496,-1.4424333572387695,-0.0,-0.0,-1.0,0.0279300827095784,1.0,0.0
20.140979766845703,22.814361572265625,-1.1859209537506104,0.3010691558340184,-0.5888364579215968,0.7500859878892151,0.1898219134234147,3.0,0.0
19.95201873779297,22.899883270263672,-1.163987398147583,0.6778277081846986,0.6090249263317076,-0.4118716269952781,0.2141081995127548,5.0,0.0
19.87073135375977,22.95319175720215,-1.1570582389831543,-0.0,-0.0,-1.0,0.229648611837325,2.0,0.0
18.539142608642575,21.828449249267575,-1.2998013496398926,-0.0,-0.0,-1.0,0.0716791164059575,1.0,0.0
18.27942657470703,21.78462028503418,-1.237882375717163,0.5627557412026871,-0.4383903012400475,-0.7007994859601958,0.1903794642058979,5.0,0.0
18.261253356933594,21.835248947143555,-1.2422282695770264,-0.0,-0.0,-1.0,0.179622517197482,1.0,0.0
20.120988845825195,22.73571395874023,-1.4128921031951904,0.3898084623031309,-0.606834135538512,0.6926771936927735,0.1417723125116559,4.0,0.0
20.137529373168945,22.539382934570312,-1.4000251293182373,0.9860717001074224,-0.1603611748121758,-0.0441236428699706,0.1059676404706339,5.0,0.0
19.89181900024414,22.85557556152344,-1.3700542449951172,-0.0753409314873268,-0.9617467426362204,-0.2633760563742309,0.1522655063490511,3.0,0.0
19.870471954345703,23.03703498840332,-1.3815810680389404,-0.0,-0.0,-1.0,0.1411349550451473,1.0,0.0
20.11152076721191,22.790447235107425,-1.2610266208648682,-0.0,-0.0,-1.0,0.1638753831709264,2.0,0.0
19.98107147216797,23.133224487304688,-1.2626569271087646,-0.0,-0.0,-1.0,0.1327476067037279,2.0,0.0
19.887876510620117,22.9517879486084,-1.2249224185943604,-0.0,-0.0,-1.0,0.2125331988566757,1.0,0.0
20.188697814941406,22.073579788208008,-1.469616413116455,-0.0,-0.0,-1.0,0.1630330576512533,1.0,0.0
20.084548950195312,22.28617286682129,-1.456712007522583,0.747031677736984,-0.1453874011056783,0.6486957499916302,0.0838540215264071,3.0,0.0
19.981719970703125,22.600875854492188,-1.4512276649475098,0.6303432028581312,-0.7580586223776485,0.1673755407741945,0.0744496810162208,3.0,0.0
19.980663299560547,23.1301326751709,-1.4880857467651367,-0.0,-0.0,-1.0,0.1463433179806383,1.0,0.0
19.739986419677734,22.816356658935547,-1.4069924354553225,-0.3770730951885191,0.1887849452153939,-0.90673928190245,0.1523989147385892,3.0,0.0
19.725780487060547,21.033740997314453,-1.446923017501831,-0.0,-0.0,-1.0,0.0242351663062639,2.0,0.0
19.877464294433594,21.299205780029297,-1.4920456409454346,-0.0,-0.0,-1.0,0.0184390350263967,2.0,0.0
19.978605270385746,21.61281967163086,-1.5270211696624756,-0.0,-0.0,-1.0,0.0674408229135672,1.0,0.0
19.88533592224121,22.02578353881836,-1.5180881023406982,-0.0,-0.0,-1.0,0.0296792381986821,1.0,0.0
19.64187240600586,20.912878036499023,-1.4232101440429688,-0.0,-0.0,-1.0,0.0347724672671152,2.0,0.0
19.558393478393555,21.84916305541992,-1.4282963275909424,-0.0,-0.0,-1.0,0.1437882141612186,1.0,0.0
19.46064186096191,22.208194732666016,-1.4174134731292725,-0.0,-0.0,-1.0,0.1463386359074185,2.0,0.0
19.72597312927246,22.47416305541992,-1.4967873096466064,-0.0,-0.0,-1.0,0.0811756110520925,1.0,0.0
19.638973236083984,22.896991729736328,-1.4960439205169678,-0.0,-0.0,-1.0,0.2058137845513338,1.0,0.0
19.454879760742188,22.290407180786133,-1.419461011886597,-0.0,-0.0,-1.0,0.1398683482615231,1.0,0.0
19.4838924407959,22.97052764892578,-1.4603478908538818,-0.0,-0.0,-1.0,0.1064870259080421,1.0,0.0
19.05743408203125,22.64465713500977,-1.3346736431121826,-0.0,-0.0,-1.0,0.1200848947449052,2.0,0.0
19.276779174804688,21.49432945251465,-1.5066392421722412,-0.0,-0.0,-1.0,0.0489425124481781,1.0,0.0
18.908960342407227,20.80277442932129,-1.3988003730773926,-0.0,-0.0,-1.0,0.0454593259071878,1.0,0.0
19.11544609069824,21.16878890991211,-1.4578840732574463,-0.0,-0.0,-1.0,0.0454747728552263,1.0,0.0
19.3039608001709,21.70858383178711,-1.5187766551971436,-0.0,-0.0,-1.0,0.0779525955101812,2.0,0.0
19.27588653564453,21.95652198791504,-1.518019437789917,-0.0,-0.0,-1.0,0.0829480306916216,1.0,0.0
19.28590965270996,22.381467819213867,-1.5345218181610107,-0.0,-0.0,-1.0,0.0773288777291959,2.0,0.0
19.229900360107425,22.62675094604492,-1.528705358505249,-0.0,-0.0,-1.0,0.0746417358615728,1.0,0.0
19.1695556640625,22.870275497436523,-1.5229122638702393,-0.0,-0.0,-1.0,0.0699484457050748,2.0,0.0
19.976741790771484,22.98786735534668,-1.1494672298431396,-0.0,-0.0,-1.0,0.1861664528497933,2.0,0.0
18.345104217529297,21.789480209350582,-1.264164686203003,-0.6443412002110757,0.0256096519531461,-0.764309206694116,0.1950239347046979,4.0,0.0
18.97698974609375,20.710155487060547,-1.4032995700836182,-0.0,-0.0,-1.0,0.0839641174090451,1.0,0.0
19.185142517089844,21.078283309936523,-1.458538055419922,-0.0,-0.0,-1.0,0.0492457366578616,1.0,0.0
19.33354949951172,21.369125366210938,-1.4998531341552734,-0.0,-0.0,-1.0,0.0395902141482517,2.0,0.0
19.416717529296875,21.62381935119629,-1.5246963500976562,-0.0,-0.0,-1.0,0.0853506237095427,2.0,0.0
19.376811981201172,21.899654388427734,-1.5175628662109375,-0.0,-0.0,-1.0,0.0600105836928075,1.0,0.0
19.37999725341797,22.273378372192383,-1.5254735946655271,-0.953932197654157,-0.2504525627664836,-0.1651873968631114,0.1822958647387329,3.0,0.0
19.462322235107425,22.527353286743164,-1.554222583770752,-0.0,-0.0,-1.0,0.0770392500109831,1.0,0.0
19.39059066772461,22.484169006347656,-1.5333256721496582,-0.0,-0.0,-1.0,0.0950709520892563,1.0,0.0
19.377227783203125,22.784650802612305,-1.538304328918457,-0.0,-0.0,-1.0,0.0871316955090344,1.0,0.0
20.06961250305176,22.941665649414062,-1.1468784809112549,0.8316774981197177,-0.2051712968960302,0.5159624773676168,0.1708908188121623,3.0,0.0
20.16195297241211,23.100522994995117,-1.1752281188964844,-0.0,-0.0,-1.0,0.1357187035081157,2.0,0.0
18.71562385559082,21.818553924560547,-1.3355381488800049,-0.0,-0.0,-1.0,0.1815595998034667,1.0,0.0
18.294273376464844,21.75374984741211,-1.2198927402496338,0.4248322871681368,0.9026054472427428,-0.0694329488587223,0.1990537436584688,9.0,0.0
18.328229904174805,21.797319412231445,-1.2295751571655271,-0.7651844546367443,-0.3556699608780028,-0.5366485156145573,0.2464007059147008,7.0,0.0
20.15694808959961,22.773866653442383,-1.2274963855743408,-0.4157516157342975,-0.7928660673932735,0.4455490917852336,0.2008351255244377,4.0,0.0
19.9306640625,22.94625663757324,-1.1736550331115725,-0.0,-0.0,-1.0,0.2446890221552817,2.0,0.0
19.955150604248047,22.957054138183594,-1.1922006607055664,0.6479004496236594,-0.5305924769090083,0.5465314545614218,0.2095242591379499,3.0,0.0
19.9902286529541,23.13136863708496,-1.204465627670288,-0.0,-0.0,-1.0,0.0892072809739413,1.0,0.0
18.663557052612305,23.092140197753903,-1.491743087768555,-0.2656631525334877,0.2032301255435852,-0.9424015096854986,0.1639812836363034,3.0,0.0
17.81904411315918,23.0273494720459,-1.5520238876342771,-0.0,-0.0,-1.0,0.0448564584090473,1.0,0.0
17.940664291381836,22.93602180480957,-1.5614376068115234,-0.0,-0.0,-1.0,0.0337850167428034,1.0,0.0
18.15220069885254,22.376218795776367,-1.5053510665893557,-0.0,-0.0,-1.0,0.0388099850702099,2.0,0.0
17.791839599609375,20.885276794433594,-1.3749151229858398,-0.6375643056998805,0.3340996289374453,-0.6941823924886674,0.0712439699647836,3.0,0.0
19.266456604003903,22.94676971435547,-1.515729904174805,-0.0,-0.0,-1.0,0.1050859682847968,2.0,0.0
19.655502319335938,22.551774978637695,-1.5155696868896484,-0.0,-0.0,-1.0,0.054573269465065,2.0,0.0
19.35797882080078,22.73747444152832,-1.493450164794922,-0.0,-0.0,-1.0,0.04954599191583,1.0,0.0
19.997066497802734,22.037601470947266,-1.4863624572753906,-0.0,-0.0,-1.0,0.0430268982790808,1.0,0.0
19.61499786376953,22.016433715820312,-1.4080305099487305,-0.0,-0.0,-1.0,0.0849361784657305,1.0,0.0
18.71575927734375,22.689756393432617,-1.5087523460388184,-0.0,-0.0,-1.0,0.054329762996905,1.0,0.0
18.50769805908203,23.09322738647461,-1.5463099479675293,-0.0,-0.0,-1.0,0.1165030760171935,1.0,0.0
19.141639709472656,22.038558959960938,-1.468696117401123,-0.0,-0.0,-1.0,0.0823097893362038,1.0,0.0
18.976478576660156,22.283811569213867,-1.4824566841125488,-0.0,-0.0,-1.0,0.0557547527051337,1.0,0.0
18.608213424682617,22.509614944458008,-1.4529614448547363,-0.0,-0.0,-1.0,0.0505649242948953,2.0,0.0
