x,y,z,nx,ny,nz,curvature,density,label
24.022212982177734,-9.83578109741211,0.0985693931579589,-0.8194933175375287,-0.5348695028172985,-0.2057797790535093,0.2458378354825679,6.0,1.0
25.125747680664062,-10.48258113861084,0.0792236328125,-0.9936716738571216,-0.0397228853383946,-0.1050652033471549,0.08425417106157,4.0,1.0
24.08670425415039,-11.831926345825195,0.4335858821868896,-0.0,-0.0,-1.0,0.1353735204987466,2.0,1.0
24.01331901550293,-9.926668167114258,0.2579729557037353,-0.0,-0.0,-1.0,0.1688889793779223,1.0,1.0
23.811485290527344,-9.9051513671875,0.0765631198883056,0.0137672981176728,-0.3843118591903979,-0.923100675109795,0.1342542171690772,3.0,1.0
22.720600128173828,-9.86631965637207,0.049332857131958,-0.9743598649886396,-0.0906703270178317,-0.205916840733825,0.0781790563418648,3.0,1.0
23.085073471069336,-11.584305763244627,0.1404218673706054,-0.0,-0.0,-1.0,0.1735709660542398,1.0,1.0
23.199880599975582,-11.290275573730469,0.3678607940673828,0.0523207995234837,0.7141709011805691,-0.6980132218261752,0.171121347451693,5.0,1.0
23.24835777282715,-11.467449188232422,0.2175521850585937,0.2315506738902439,0.7197591877811478,0.6544700123195838,0.1819320211060904,3.0,1.0
23.97959899902344,-9.672819137573242,0.3232834339141845,-0.0,-0.0,-1.0,0.1451694367775299,1.0,1.0
24.494300842285156,-10.587536811828612,0.0328080654144287,0.8064031524910957,-0.1780439885229317,-0.5639275607764427,0.0740859346577003,5.0,1.0
22.98239517211914,-9.687455177307127,0.4172065258026123,-0.0,-0.0,-1.0,0.2301020133311174,2.0,1.0
24.082767486572266,-10.05513858795166,0.286670446395874,-0.0,-0.0,-1.0,0.1859735204838987,2.0,1.0
22.815271377563477,-11.455379486083984,0.2439231872558593,0.9151045736051716,-0.3279217602525673,-0.2346293641464232,0.2187516436633483,3.0,1.0
23.689008712768555,-11.801406860351562,0.2898821830749511,-0.0,-0.0,-1.0,0.0810004264926724,1.0,1.0
23.112329483032227,-11.190282821655272,0.230421781539917,-0.0,-0.0,-1.0,0.1258364810014793,1.0,1.0
23.984638214111328,-11.854503631591797,0.4365260601043701,-0.0,-0.0,-1.0,0.107222124229427,1.0,1.0
24.014602661132812,-11.793502807617188,0.4717011451721191,-0.0,-0.0,-1.0,0.1228489932675041,1.0,1.0
24.525466918945312,-11.699258804321287,0.4798166751861572,0.1740577961627463,-0.9088271643615888,0.3791267188071051,0.2210781376966756,6.0,1.0
24.678241729736328,-11.458704948425291,0.4399838447570801,-0.0,-0.0,-1.0,0.1096481551250981,1.0,1.0
24.053068161010746,-11.48503303527832,0.3655939102172851,-0.0,-0.0,-1.0,0.1374594460748578,1.0,1.0
22.990156173706055,-9.608980178833008,0.1323761940002441,-0.0,-0.0,-1.0,0.2084796041598239,2.0,1.0
24.089672088623047,-11.57561492919922,0.2901482582092285,-0.0,-0.0,-1.0,0.2044894447863319,1.0,1.0
22.887704849243164,-11.21025562286377,0.1496381759643554,0.7713086864900055,-0.6035745706557685,-0.201942189259123,0.2343152736825688,3.0,1.0
23.50431251525879,-10.528594017028809,0.1559076309204101,-0.0,-0.0,-1.0,0.1611594154201042,2.0,1.0
24.59620475769043,-11.619114875793455,0.4907150268554687,-0.0,-0.0,-1.0,0.1861557917519405,1.0,1.0
25.11054801940918,-10.332258224487305,0.0709919929504394,-0.0,-0.0,-1.0,0.0730781158803019,2.0,1.0
23.524147033691406,-10.5743408203125,0.1822485923767089,-0.0,-0.0,-1.0,0.1595617268224556,1.0,1.0
24.678199768066406,-11.249926567077637,0.2012290954589843,-0.0,-0.0,-1.0,0.0970888318377956,1.0,1.0
24.681930541992188,-11.308491706848145,0.1831936836242675,-0.0,-0.0,-1.0,0.1366274278986608,1.0,1.0
24.51129913330078,-11.795910835266112,0.5423736572265625,-0.0,-0.0,-1.0,0.2138727259692974,1.0,1.0
24.70228576660156,-11.204140663146973,0.088963508605957,-0.4991373744167276,-0.7213434685398808,-0.4801306924736533,0.0492419039469004,3.0,1.0
23.68374252319336,-11.064051628112791,0.2040882110595703,-0.0,-0.0,-1.0,0.1299908330428827,1.0,1.0
24.119388580322266,-11.669883728027344,0.3535952568054199,-0.3025843845103408,-0.8409220962739893,-0.4486565704953599,0.2234428025088663,5.0,1.0
24.956459045410156,-10.956865310668944,0.0458302497863769,-0.0,-0.0,-1.0,0.06759066077907,2.0,1.0
24.833026885986328,-11.312992095947266,0.5099344253540039,-0.0,-0.0,-1.0,0.0803726209024898,1.0,1.0
23.92882919311523,-10.677088737487791,0.185248851776123,-0.0,-0.0,-1.0,0.0521280722591562,1.0,1.0
23.566606521606445,-11.515000343322754,0.143625259399414,-0.0,-0.0,-1.0,0.0775419396285782,2.0,1.0
24.26590347290039,-11.19211196899414,0.253995418548584,-0.0,-0.0,-1.0,0.1077954078971636,1.0,1.0
25.03512191772461,-10.410650253295898,-0.0073895454406738,-0.3663992353204484,-0.8479744386121332,-0.3830025480555292,0.0918376464240309,3.0,0.0
23.598041534423828,-10.808257102966309,0.3081798553466797,-0.0,-0.0,-1.0,0.1661460848637378,1.0,1.0
24.653257369995117,-10.739601135253906,-0.1035785675048828,-0.0,-0.0,-1.0,0.0784859632024724,1.0,0.0
23.415307998657227,-11.136199951171877,0.0668323040008544,-0.0,-0.0,-1.0,0.1172708131636348,1.0,1.0
23.13235664367676,-11.38247299194336,0.1518442630767822,-0.0,-0.0,-1.0,0.1936042390902515,2.0,1.0
23.341596603393555,-10.687426567077637,0.139420747756958,0.9234449399653498,-0.2680507840781255,-0.2745873631606056,0.0582150170200739,3.0,1.0
24.21454811096191,-10.789410591125488,0.0324602127075195,-0.0,-0.0,-1.0,0.0491912736192705,1.0,1.0
23.650354385375977,-10.23485279083252,0.1095101833343505,-0.0,-0.0,-1.0,0.2134366486689184,1.0,1.0
24.294612884521484,-10.421760559082031,0.0285661220550537,-0.0,-0.0,-1.0,0.1531759392217644,1.0,1.0
24.74886703491211,-10.110983848571776,-0.0221502780914306,-0.0,-0.0,-1.0,0.0136445842268028,2.0,0.0
23.8612060546875,-9.835485458374023,0.0897958278656005,-0.715966492181972,0.4056431302593338,0.5681950659289918,0.1704447218698578,3.0,1.0
23.91360092163086,-9.465827941894531,0.0883815288543701,-0.0,-0.0,-1.0,0.1492532437573255,1.0,1.0
24.230714797973633,-11.85787868499756,0.3542680740356445,-0.0,-0.0,-1.0,0.1118795136627205,1.0,1.0
24.41615295410156,-11.709097862243652,0.3336198329925537,-0.0,-0.0,-1.0,0.2293904150137457,1.0,1.0
22.998424530029297,-11.340764999389648,0.5471489429473877,-0.0,-0.0,-1.0,0.118361206249868,2.0,1.0
23.230443954467773,-11.18217658996582,0.5204219818115234,-0.0,-0.0,-1.0,0.155322499049354,2.0,1.0
23.04472923278809,-11.59853744506836,0.0825576782226562,-0.0,-0.0,-1.0,0.1472032097219782,1.0,1.0
23.03687286376953,-11.316203117370604,0.1087808609008789,-0.0,-0.0,-1.0,0.1075388296208545,1.0,1.0
23.620336532592773,-11.2723970413208,0.0224270820617675,-0.0,-0.0,-1.0,0.0733579593294299,1.0,1.0
23.797943115234375,-11.22495937347412,-0.001199722290039,-0.0,-0.0,-1.0,0.0879164594081267,1.0,0.0
23.19550132751465,-11.17559051513672,0.0965619087219238,-0.0,-0.0,-1.0,0.1426586671953458,1.0,1.0
24.029449462890625,-10.952163696289062,-0.0150904655456542,-0.0,-0.0,-1.0,0.056780941275415,1.0,0.0
23.2363338470459,-10.647576332092283,0.1344685554504394,-0.0,-0.0,-1.0,0.0578737571771063,2.0,1.0
23.607709884643555,-10.480839729309082,0.0892624855041503,-0.0,-0.0,-1.0,0.1422032075436495,1.0,1.0
24.29770278930664,-10.510459899902344,-0.0228571891784667,-0.0,-0.0,-1.0,0.0600763037259475,1.0,0.0
24.657447814941406,-10.549445152282717,-0.0833792686462402,-0.0,-0.0,-1.0,0.0865554948662654,1.0,0.0
23.569381713867188,-10.326141357421877,0.107461929321289,-0.0,-0.0,-1.0,0.2005920666048133,2.0,1.0
25.0863037109375,-10.105230331420898,-0.1203212738037109,-0.0,-0.0,-1.0,0.0393805567868229,1.0,0.0
23.916349411010746,-9.92031478881836,0.0825309753417968,-0.0,-0.0,-1.0,0.181584904492445,2.0,1.0
24.163482666015625,-9.858813285827637,0.0470337867736816,-0.0,-0.0,-1.0,0.1155890207651901,1.0,1.0
22.849388122558594,-10.619297981262209,0.197418212890625,-0.0,-0.0,-1.0,0.1850962075868292,1.0,1.0
22.79142189025879,-10.038673400878906,0.0200672149658203,-0.0,-0.0,-1.0,0.0447899824177126,2.0,1.0
22.820655822753903,-9.544466972351074,0.0308713912963867,-0.0,-0.0,-1.0,0.1647383182341391,1.0,1.0
22.9656925201416,-9.372762680053713,0.0054945945739746,-0.0,-0.0,-1.0,0.0806528198706527,1.0,1.0
24.447607040405273,-11.815533638000488,0.4621279239654541,-0.0,-0.0,-1.0,0.2309966831595548,2.0,1.0
22.784093856811523,-9.377045631408691,0.0358476638793945,-0.0,-0.0,-1.0,0.1754473109788558,2.0,1.0
24.31431770324707,-11.794862747192385,0.3951225280761719,0.1958106137403946,0.8067749992500692,-0.5574695544437025,0.1264898547371506,3.0,1.0
24.391704559326172,-11.705488204956056,0.3846099376678467,-0.0,-0.0,-1.0,0.1942883416556328,1.0,1.0
23.317384719848633,-11.270297050476074,0.5977656841278076,-0.0,-0.0,-1.0,0.1479215347205783,1.0,1.0
22.74294662475586,-10.86842918395996,0.0538148880004882,-0.0,-0.0,-1.0,0.0209451931883839,1.0,1.0
22.91105079650879,-10.490803718566896,0.0514302253723144,-0.0,-0.0,-1.0,0.0925960876121228,1.0,1.0
23.02889633178711,-10.408073425292969,0.0330758094787597,-0.0,-0.0,-1.0,0.0405349872944175,1.0,1.0
23.09062767028809,-10.21044921875,0.036168098449707,-0.0,-0.0,-1.0,0.0377861811506415,1.0,1.0
23.483871459960938,-9.930642127990724,-0.0276112556457519,-0.0,-0.0,-1.0,0.0507146773736267,1.0,0.0
23.55290985107422,-9.694631576538086,-0.025092601776123,-0.0,-0.0,-1.0,0.0427353496062127,2.0,0.0
24.301382064819336,-11.770444869995115,0.4259166717529297,-0.8370752636274087,0.1991589354804841,-0.5095495279571791,0.1333314670224054,3.0,1.0
22.74463653564453,-10.626172065734863,0.0752711296081543,-0.0,-0.0,-1.0,0.1387986408207801,1.0,1.0
22.78167724609375,-9.873791694641112,0.130892276763916,-0.0,-0.0,-1.0,0.1085972251924936,1.0,1.0
23.21795082092285,-11.15280532836914,0.6662321090698242,-0.0,-0.0,-1.0,0.1655582594072169,2.0,1.0
23.618003845214844,-11.702315330505373,0.1947555541992187,-0.0,-0.0,-1.0,0.0644068633731052,2.0,1.0
23.9305419921875,-11.483968734741213,0.1560893058776855,-0.0,-0.0,-1.0,0.0511818057091972,2.0,1.0
23.177749633789062,-11.46555995941162,0.3023924827575683,-0.0,-0.0,-1.0,0.1233210325825711,2.0,1.0
23.425350189208984,-11.347681999206545,0.2666859626770019,-0.0,-0.0,-1.0,0.1776931924224359,1.0,1.0
24.14271545410156,-11.286401748657228,0.1333813667297363,-0.8129343684195953,0.1164540410201385,-0.5705928223981737,0.1492227932178806,5.0,1.0
24.380691528320312,-11.1190767288208,0.1018576622009277,0.078291810991377,0.4250058510651948,-0.9017984358447512,0.0777546266553426,4.0,1.0
24.66099548339844,-10.949033737182615,0.0612087249755859,-0.0,-0.0,-1.0,0.0667984323094583,1.0,1.0
23.248313903808594,-11.144768714904783,0.320472240447998,0.0680619893077033,0.4733712647504928,0.8782295891849676,0.2175182258232601,8.0,1.0
24.78039169311523,-10.72448444366455,0.0563945770263671,-0.0,-0.0,-1.0,0.0489563756986107,1.0,1.0
25.075519561767575,-10.484562873840332,0.0161528587341308,0.7102280814295884,-0.1201828707497363,-0.6936369006383662,0.1191332698613515,4.0,1.0
22.767135620117188,-11.42282485961914,0.3845667839050293,-0.0,-0.0,-1.0,0.1542849286018674,2.0,1.0
23.881515502929688,-9.803215026855469,0.3134331703186035,-0.7281833350505006,-0.2379671418086999,0.6427446382305563,0.106969503457133,3.0,1.0
22.729747772216797,-11.200942039489746,0.1515865325927734,-0.0,-0.0,-1.0,0.1715889028143503,2.0,1.0
22.930679321289062,-10.935976028442385,0.1396656036376953,-0.0,-0.0,-1.0,0.0208430684381496,2.0,1.0
22.931249618530273,-10.740008354187012,0.1602993011474609,-0.0,-0.0,-1.0,0.054451173304134,1.0,1.0
23.267826080322266,-10.52418041229248,0.1127433776855468,-0.0,-0.0,-1.0,0.0630958481883509,1.0,1.0
23.436832427978516,-10.31860637664795,0.0977473258972168,-0.0,-0.0,-1.0,0.0832319397320345,2.0,1.0
23.697309494018555,-10.049480438232422,0.0682687759399414,-0.0,-0.0,-1.0,0.1516559487653343,1.0,1.0
23.19180679321289,-10.284400939941406,0.1526060104370117,-0.0,-0.0,-1.0,0.0481219006722752,1.0,1.0
23.735336303710938,-9.805203437805176,0.0824990272521972,-0.0,-0.0,-1.0,0.2052081178956065,2.0,1.0
23.978769302368164,-9.549344062805176,0.0525755882263183,-0.6433158910580845,-0.6265477315672207,-0.4399802318060583,0.128263428254484,3.0,1.0
22.814594268798828,-9.712958335876465,0.2875418663024902,-0.0,-0.0,-1.0,0.2172533639992614,1.0,1.0
23.275238037109375,-11.196006774902344,0.7582962512969971,-0.0,-0.0,-1.0,0.1469053333421392,1.0,1.0
23.52057456970215,-11.583253860473633,0.2185978889465332,-0.0,-0.0,-1.0,0.1022380381884229,2.0,1.0
23.83658790588379,-11.293048858642578,0.1496515274047851,-0.0,-0.0,-1.0,0.0864925905348937,2.0,1.0
23.079551696777344,-11.361224174499512,0.3325452804565429,-0.0,-0.0,-1.0,0.2554124623253687,2.0,1.0
23.31277847290039,-11.315347671508787,0.2772302627563476,-0.8605773710869368,0.3748925947861191,-0.3447638768021199,0.2137957175481924,3.0,1.0
23.73085594177246,-11.225683212280272,0.1773362159729004,-0.0,-0.0,-1.0,0.1473098981703945,1.0,1.0
24.012128829956055,-10.714604377746582,0.1199088096618652,-0.0,-0.0,-1.0,0.0609451677711976,2.0,1.0
24.078872680664062,-10.469905853271484,0.1080527305603027,-0.0,-0.0,-1.0,0.0685671248089935,2.0,1.0
23.226131439208984,-11.132613182067873,0.3037042617797851,-0.2401503503807868,0.6507052839286083,0.720354386867585,0.1988043321555289,5.0,1.0
23.900548934936523,-10.179717063903809,0.1579518318176269,-0.0,-0.0,-1.0,0.1407911782182403,1.0,1.0
24.277328491210938,-9.971229553222656,0.0657100677490234,-0.0,-0.0,-1.0,0.077573822294233,1.0,1.0
23.21111488342285,-10.529122352600098,0.3231558799743652,-0.0,-0.0,-1.0,0.1460108717383823,1.0,1.0
23.78177261352539,-9.942001342773438,0.1917195320129394,-0.0,-0.0,-1.0,0.2252774262673308,2.0,1.0
23.881410598754883,-9.403634071350098,0.1731748580932617,-0.0,-0.0,-1.0,0.1781318597007506,1.0,1.0
22.9303035736084,-9.853053092956545,0.4075627326965332,-0.0,-0.0,-1.0,0.1911490962790616,1.0,1.0
24.614282608032227,-11.007160186767578,0.0751047134399414,-0.0,-0.0,-1.0,0.053131597150398,2.0,1.0
24.877002716064453,-10.71015739440918,0.0592565536499023,-0.0,-0.0,-1.0,0.0401237825046781,2.0,1.0
25.132352828979492,-10.379302978515623,0.0466504096984863,0.5397827874806713,-0.2230608291360261,-0.8117132553092535,0.0831907495459229,3.0,1.0
23.8919734954834,-11.440185546875,0.1555714607238769,0.1541700123077981,-0.4756950636740777,-0.8659941187451148,0.0409839076249421,3.0,1.0
24.159770965576172,-11.290538787841797,0.1252703666687011,-0.2583294119641074,-0.964701456564035,-0.0511567651196593,0.15827501693457,3.0,1.0
24.392818450927734,-11.111639022827148,0.1037774085998535,0.078291810991377,0.4250058510651948,-0.9017984358447512,0.0785023093891685,4.0,1.0
23.48265838623047,-11.848787307739258,0.1778945922851562,-0.0,-0.0,-1.0,0.0543472916666638,1.0,1.0
23.604101181030273,-11.52666473388672,0.1960601806640625,-0.6567377616564678,-0.0303042963627968,-0.7535098951151261,0.0595930366979967,3.0,1.0
23.205337524414062,-11.039396286010742,0.32470703125,-0.0,-0.0,-1.0,0.25635145018181,1.0,1.0
24.716289520263672,-11.23378562927246,0.1189436912536621,-0.0,-0.0,-1.0,0.0784962417566824,2.0,1.0
24.863723754882812,-11.044285774230955,0.1202130317687988,0.1914785453582481,0.9539934785507698,-0.2307214978065353,0.0561845042975857,4.0,1.0
24.19291114807129,-11.506048202514648,0.1636538505554199,-0.0,-0.0,-1.0,0.0568771712179673,1.0,1.0
24.483360290527344,-11.32190990447998,0.1436147689819336,-0.0,-0.0,-1.0,0.0623414328933428,2.0,1.0
23.630699157714844,-11.729101181030272,0.21771240234375,-0.0,-0.0,-1.0,0.0647956784195143,2.0,1.0
23.84166717529297,-11.577068328857422,0.2072043418884277,-0.0,-0.0,-1.0,0.0523359765067092,1.0,1.0
22.76919937133789,-11.421655654907228,0.3874034881591797,-0.0,-0.0,-1.0,0.1604647509242337,2.0,1.0
23.242258071899418,-11.197151184082031,0.3492655754089355,-0.1394902982844212,0.7389961089272075,0.6591109221329668,0.1702785359718737,8.0,1.0
24.89366149902344,-9.42013168334961,-0.0387625694274902,-0.0,-0.0,-1.0,0.0242818744500442,1.0,0.0
24.608585357666016,-9.413116455078123,-0.0260748863220214,-0.0,-0.0,-1.0,0.0392840623677357,1.0,0.0
24.84729766845703,-11.556188583374023,0.146977424621582,0.5967818830132857,0.2845942170361114,-0.7502383059646577,0.0563759598636499,3.0,1.0
24.39834976196289,-11.444376945495604,0.1796011924743652,-0.0,-0.0,-1.0,0.1085864852138862,2.0,1.0
24.076980590820312,-11.484748840332031,0.1692304611206054,-0.0,-0.0,-1.0,0.0637531887003759,1.0,1.0
23.647499084472656,-11.424538612365724,0.1867427825927734,-0.0,-0.0,-1.0,0.0671627608583191,1.0,1.0
23.18906021118164,-11.31096076965332,0.2187724113464355,-0.0,-0.0,-1.0,0.2465943237979458,1.0,1.0
23.35443878173828,-11.279544830322266,0.2275385856628418,-0.0,-0.0,-1.0,0.1562968173605665,1.0,1.0
22.87466812133789,-11.393142700195312,0.1953692436218261,-0.0,-0.0,-1.0,0.1013424255688418,1.0,1.0
25.075359344482425,-10.261245727539062,-0.0074644088745117,0.2485470782607473,0.807426118974226,-0.5350583260601267,0.0527018056017056,3.0,0.0
24.47722053527832,-10.609243392944336,0.0246634483337402,-0.0,-0.0,-1.0,0.0734817289265338,2.0,1.0
24.74409866333008,-10.410964965820312,0.0174775123596191,-0.0,-0.0,-1.0,0.0320468612728659,2.0,1.0
24.196401596069336,-10.684562683105469,0.0519380569458007,-0.0,-0.0,-1.0,0.0291186669885835,1.0,1.0
23.885814666748047,-10.856672286987305,0.0672621726989746,-0.0,-0.0,-1.0,0.0694384364265527,1.0,1.0
23.48644638061523,-10.97175407409668,0.1024169921875,-0.0,-0.0,-1.0,0.0690765862150979,1.0,1.0
23.96314811706543,-9.762422561645508,0.2290773391723632,-0.0,-0.0,-1.0,0.1617528460134004,2.0,1.0
23.27872657775879,-10.940128326416016,0.1351079940795898,-0.0,-0.0,-1.0,0.1260071721819292,2.0,1.0
23.41670036315918,-10.632776260375977,0.1670517921447754,0.4030377644567268,0.9151833400125042,-0.0001207695370576,0.1511917963004813,5.0,1.0
23.74612045288086,-10.108682632446287,0.2057385444641113,-0.0,-0.0,-1.0,0.1580294842682447,1.0,1.0
22.89291763305664,-11.201030731201172,0.1419763565063476,0.7713086864900055,-0.6035745706557685,-0.201942189259123,0.1861707865805307,3.0,1.0
25.056228637695312,-11.15110206604004,0.0724024772644043,0.8819482078410665,-0.4116079924858505,-0.229665450618282,0.0259733977719361,3.0,1.0
24.664691925048828,-11.191471099853516,0.1090109348297119,-0.3932972692759306,0.23814753940993,-0.888033224295742,0.0502985203974862,3.0,1.0
24.82245826721191,-11.032140731811523,0.1107585430145263,-0.1028415887677556,0.9925773779490252,-0.0649134531785324,0.0567042382057254,4.0,1.0
24.25530242919922,-11.417367935180664,0.1248848438262939,-0.0,-0.0,-1.0,0.0250128600977504,1.0,1.0
24.33177947998047,-11.286852836608888,0.1324386596679687,0.0060440106707376,0.5891038674348391,-0.808034716647947,0.08272627438038,3.0,1.0
23.90880584716797,-11.437948226928713,0.1573390960693359,0.1541700123077981,-0.4756950636740777,-0.8659941187451148,0.0386568916799371,3.0,1.0
23.587339401245117,-11.470174789428713,0.1853196620941162,-0.0,-0.0,-1.0,0.0591438032433249,2.0,1.0
23.11358642578125,-11.377440452575684,0.2427825927734375,0.0250966344994993,0.7247265144204497,-0.6885794349476205,0.2254927983911394,3.0,1.0
22.876548767089844,-11.438250541687012,0.2579085826873779,-0.0,-0.0,-1.0,0.1631005464598342,1.0,1.0
23.23949432373047,-11.096257209777832,0.2649900913238525,0.8766919759397197,0.4473733722175831,-0.176828292853767,0.2017071479040451,5.0,1.0
22.744281768798828,-11.4479398727417,0.2691819667816162,-0.0,-0.0,-1.0,0.2674637145019524,2.0,1.0
23.219058990478516,-11.40264892578125,0.2581427097320556,0.429527772463658,0.9020578887555964,-0.0423964387207728,0.2497783597704644,3.0,1.0
23.785079956054688,-11.761341094970703,0.2027430534362793,-0.0,-0.0,-1.0,0.0904393036578937,2.0,1.0
24.062713623046875,-11.65583038330078,0.1844956874847412,0.0164658612633455,0.5589622543867123,-0.8290295975318255,0.2520064182983878,3.0,1.0
24.643760681152344,-11.461261749267578,0.1451578140258789,-0.985466528985846,0.1500604350598389,-0.0796089572739192,0.1184510939102743,4.0,1.0
22.885791778564453,-11.449466705322266,0.1770844459533691,-0.0,-0.0,-1.0,0.2026626247146843,2.0,1.0
23.26681137084961,-11.169849395751951,0.1574058532714843,-0.0,-0.0,-1.0,0.2693902536762183,1.0,1.0
23.157474517822266,-11.344718933105469,0.159529447555542,-0.0,-0.0,-1.0,0.2126645614508714,2.0,1.0
23.55537796020508,-11.822071075439451,0.1100101470947265,-0.0,-0.0,-1.0,0.0573337391461893,1.0,1.0
23.64116668701172,-11.536834716796877,0.1138415336608886,-0.0,-0.0,-1.0,0.0609728069450237,1.0,1.0
24.485267639160156,-11.33710479736328,0.0534353256225585,-0.0,-0.0,-1.0,0.0595533412035926,1.0,1.0
24.973648071289062,-10.915729522705078,0.0293593406677246,-0.0,-0.0,-1.0,0.0594039916667293,2.0,1.0
23.967247009277344,-11.684722900390623,0.3219015598297119,-0.0,-0.0,-1.0,0.0827355362351648,2.0,1.0
24.34132194519043,-11.68146514892578,0.2922403812408447,-0.0,-0.0,-1.0,0.1604807607369992,2.0,1.0
22.873315811157227,-11.420248031616213,0.1462295055389404,-0.0,-0.0,-1.0,0.1226117016404197,2.0,1.0
23.222665786743164,-11.149442672729492,0.1325092315673828,-0.0,-0.0,-1.0,0.2261451813955113,1.0,1.0
23.41605758666992,-10.75827980041504,0.1356682777404785,-0.0,-0.0,-1.0,0.1011141057182337,1.0,1.0
25.094017028808594,-10.516496658325195,0.018928050994873,-0.0,-0.0,-1.0,0.1486567379611884,2.0,1.0
22.971967697143555,-9.768796920776367,0.1276359558105468,-0.9977073032722156,0.0289538287070606,-0.0611703588389433,0.1831090144835594,4.0,1.0
22.878189086914062,-10.480646133422852,0.0954358577728271,-0.0,-0.0,-1.0,0.1565651206090807,1.0,1.0
24.808555603027344,-9.986822128295898,-0.0280120372772216,-0.0,-0.0,-1.0,0.0273894898054045,1.0,0.0
24.242225646972656,-11.741357803344728,0.3502306938171386,0.1921330649826257,-0.3115828284612586,-0.9305917613800714,0.1762019303773965,3.0,1.0
24.571937561035156,-11.671113967895508,0.3255200386047363,-0.0,-0.0,-1.0,0.2394024600052768,2.0,1.0
24.125038146972656,-11.84454345703125,0.4108177423477173,-0.0,-0.0,-1.0,0.1390281656537472,2.0,1.0
24.60895538330078,-11.657649993896484,0.3833191394805908,0.1670380422203818,-0.4984761036019867,-0.8506584899881757,0.1622075296288476,4.0,1.0
22.98093605041504,-11.379850387573242,0.2816598415374756,-0.0,-0.0,-1.0,0.1887325114520206,1.0,1.0
23.491470336914062,-11.133909225463867,0.2404680252075195,-0.0,-0.0,-1.0,0.1862341146558361,2.0,1.0
23.311277389526367,-11.344738006591797,0.2490184307098388,-0.0,-0.0,-1.0,0.1390537912745618,2.0,1.0
23.627307891845703,-11.013671875,0.2320446968078613,-0.0,-0.0,-1.0,0.2073028917143537,1.0,1.0
23.825454711914062,-11.192377090454102,0.2023403644561767,-0.0,-0.0,-1.0,0.1334135330279129,1.0,1.0
24.12277030944824,-11.276449203491213,0.1666097640991211,-0.4724050598356409,-0.8811628701516382,-0.0196330259463983,0.1394068919014555,3.0,1.0
24.403751373291016,-11.010269165039062,0.1494021415710449,-0.0,-0.0,-1.0,0.0891346286769662,1.0,1.0
24.839088439941406,-10.936019897460938,0.1058394908905029,0.6518445512610553,-0.1818289018090191,-0.7362315746137215,0.082801982552766,3.0,1.0
25.178266525268555,-10.511463165283203,0.0890829563140869,-0.0,-0.0,-1.0,0.0932248565230575,1.0,1.0
23.657560348510746,-10.969974517822266,0.4179941415786743,-0.0,-0.0,-1.0,0.1498498923814977,1.0,1.0
24.449947357177734,-11.57144546508789,0.317838191986084,-0.0,-0.0,-1.0,0.1840477111113073,2.0,1.0
24.988628387451172,-11.765619277954102,0.247760534286499,-0.0,-0.0,-1.0,0.0612882383726815,1.0,1.0
24.299789428710938,-9.69015121459961,-0.0179157257080078,-0.0904348754948469,-0.050768083278392,-0.9946075281308048,0.0787822158703716,3.0,0.0
22.749794006347656,-10.376405715942385,0.0896515846252441,-0.0,-0.0,-1.0,0.1044568657746749,1.0,1.0
23.586565017700195,-10.224931716918944,0.0548810958862304,-0.0,-0.0,-1.0,0.0770865000570693,1.0,1.0
22.710670471191406,-9.785104751586914,0.1387412548065185,-0.0,-0.0,-1.0,0.204614504685311,1.0,1.0
24.412519454956055,-10.094293594360352,0.0149531364440917,-0.0,-0.0,-1.0,0.0240070444155315,1.0,1.0
24.595020294189453,-10.044404983520508,0.0072298049926757,0.3823424063752813,0.4831303312497121,-0.7876543450738419,0.0282569014795658,3.0,1.0
23.9003849029541,-9.708179473876951,0.0770971775054931,-0.0,-0.0,-1.0,0.2172827294892843,2.0,1.0
24.78975486755371,-10.080005645751951,-0.0081992149353027,-0.0,-0.0,-1.0,0.0217181812314397,1.0,0.0
25.121116638183594,-9.959613800048828,-0.0208544731140136,-0.0,-0.0,-1.0,0.0266153271528161,2.0,0.0
24.59746551513672,-9.953332901000977,-0.0296101570129394,-0.4872737198747656,-0.8575498086572465,0.1648412799978463,0.0248657430759599,3.0,0.0
23.777881622314453,-9.504524230957031,0.0436100959777832,-0.0,-0.0,-1.0,0.1693576690317235,1.0,1.0
24.772918701171875,-9.850849151611328,-0.028698444366455,-0.0,-0.0,-1.0,0.0239643454638309,1.0,0.0
25.059635162353516,-9.821935653686523,-0.0395841598510742,-0.0,-0.0,-1.0,0.0397714446500712,1.0,0.0
24.442808151245117,-11.674461364746094,0.444131851196289,-0.3559119140759595,-0.0687489325278778,-0.9319872819384736,0.202286958652163,3.0,1.0
24.01969337463379,-10.817510604858398,0.0264837741851806,-0.0,-0.0,-1.0,0.0584235486391752,1.0,1.0
23.17469596862793,-10.387735366821287,0.0832295417785644,-0.0,-0.0,-1.0,0.0546194386271973,2.0,1.0
24.331523895263672,-10.603517532348633,0.0375397205352783,-0.0,-0.0,-1.0,0.0218025204289156,2.0,1.0
24.803571701049805,-10.606042861938477,0.0242483615875244,-0.1758859950256572,-0.072328554495499,-0.9817498138316226,0.031547498783846,3.0,1.0
25.207324981689453,-10.46774673461914,0.024416446685791,-0.0,-0.0,-1.0,0.1132236995451287,2.0,1.0
23.712739944458008,-10.214181900024414,0.0872523784637451,0.9383349567173532,0.2893838706917513,0.1891678735560112,0.1319392597578643,4.0,1.0
23.993846893310547,-9.811744689941406,0.116429328918457,-0.7672596537409974,-0.1976817223900364,-0.6101102854190821,0.2112568430561822,4.0,1.0
25.200763702392575,-11.414859771728516,0.0797610282897949,-0.0,-0.0,-1.0,0.0339736366883747,1.0,1.0
24.898937225341797,-11.254695892333984,0.095261812210083,-0.0860415006451259,-0.9629600120521384,-0.2555481859753265,0.0399870350845334,3.0,1.0
24.98681640625,-11.293451309204102,0.0914719104766845,-0.0,-0.0,-1.0,0.0481686186998869,1.0,1.0
23.968042373657227,-11.035259246826172,0.1167118549346923,-0.0,-0.0,-1.0,0.0571177598043627,1.0,1.0
24.35122299194336,-11.089162826538086,0.1115186214447021,-0.490116372589067,-0.5931814155125598,-0.6386875211013996,0.0844889699630368,4.0,1.0
24.685680389404297,-11.022563934326172,0.115664005279541,-0.0,-0.0,-1.0,0.0404857270502615,1.0,1.0
22.783891677856445,-10.647167205810549,0.1454184055328369,-0.0,-0.0,-1.0,0.1548052019147108,2.0,1.0
23.19670295715332,-10.633539199829102,0.1484737396240234,0.1034972097354053,0.8335816429553453,-0.5426140176081456,0.0848320219697594,3.0,1.0
23.472375869750977,-10.584251403808594,0.1533510684967041,-0.0,-0.0,-1.0,0.1822141037502467,2.0,1.0
23.68792724609375,-10.180902481079102,0.1866359710693359,-0.0,-0.0,-1.0,0.228485566724753,2.0,1.0
24.38309097290039,-9.965240478515623,0.0321663618087768,-0.1543277930125397,-0.8672613875257561,-0.4733292913086811,0.0283070758839785,3.0,1.0
24.652971267700195,-10.04787826538086,0.0271955728530883,-0.0,-0.0,-1.0,0.0334362247046234,1.0,1.0
25.10574722290039,-10.143001556396484,0.0207319259643554,-0.0,-0.0,-1.0,0.0470867599577846,1.0,1.0
23.23545265197754,-9.599668502807615,0.050139307975769,-0.0,-0.0,-1.0,0.0512593547450738,1.0,1.0
23.395967483520508,-9.506303787231444,0.0567736625671386,-0.0,-0.0,-1.0,0.0433716074482388,1.0,1.0
24.058082580566406,-9.730037689208984,0.0459779500961303,-0.0,-0.0,-1.0,0.12370356669038,2.0,1.0
24.221145629882812,-9.853952407836914,0.0387616157531738,-0.1539593637693214,-0.6895962481544218,-0.7076394059399822,0.0897061667869622,3.0,1.0
24.53267478942871,-9.920366287231444,0.03504478931427,-0.0,-0.0,-1.0,0.021847036021925,1.0,1.0
24.418014526367188,-11.780965805053713,0.4958759546279907,-0.0,-0.0,-1.0,0.196467891132772,2.0,1.0
24.975727081298828,-10.072317123413086,0.0226900577545166,-0.0,-0.0,-1.0,0.0341685212404711,1.0,1.0
23.332202911376953,-9.668155670166016,0.0630123615264892,-0.0,-0.0,-1.0,0.051206491161953,1.0,1.0
24.18408203125,-9.738113403320312,0.0508739948272705,-0.0,-0.0,-1.0,0.1369776641632225,1.0,1.0
24.509136199951172,-9.976308822631836,0.0344724655151367,-0.0,-0.0,-1.0,0.025702936277793,1.0,1.0
24.993314743041992,-9.997274398803713,0.0263254642486572,-0.0,-0.0,-1.0,0.0297675626652235,1.0,1.0
24.43539047241211,-9.907230377197266,-0.0253388881683349,-0.0,-0.0,-1.0,0.0220948245829854,2.0,0.0
24.86203384399414,-9.957536697387695,-0.0321730375289917,-0.0,-0.0,-1.0,0.0249610611670662,2.0,0.0
23.26672744750977,-9.48992919921875,0.0040957927703857,-0.0,-0.0,-1.0,0.044033342743623,1.0,1.0
24.257495880126953,-9.709117889404297,-0.0131020545959472,-0.0,-0.0,-1.0,0.0977072649932132,2.0,0.0
24.349498748779297,-9.875986099243164,-0.0229122638702392,-0.0,-0.0,-1.0,0.0288475227788023,1.0,0.0
24.955326080322266,-9.875749588012695,-0.028594970703125,-0.0,-0.0,-1.0,0.0224217833513371,1.0,0.0
24.197370529174805,-9.455354690551758,0.0011100769042968,-0.0,-0.0,-1.0,0.0787462066968044,2.0,1.0
24.368927001953125,-10.30544090270996,0.0172592401504516,-0.0,-0.0,-1.0,0.2363708036613006,1.0,1.0
24.76456642150879,-10.402032852172852,0.0126959085464477,-0.1580065091628357,-0.1595847159291945,-0.9744571111670194,0.0159468734748172,3.0,1.0
25.204002380371097,-10.33127212524414,0.0155786275863647,-0.0,-0.0,-1.0,0.0682629046180312,1.0,1.0
23.28192138671875,-9.885160446166992,0.033385157585144,-0.0,-0.0,-1.0,0.0357027511374523,1.0,1.0
23.47183609008789,-9.929264068603516,0.0323380231857299,-0.0,-0.0,-1.0,0.074332617273926,1.0,1.0
24.079267501831055,-10.067514419555664,0.0280796289443969,-0.0,-0.0,-1.0,0.1363010998881454,2.0,1.0
24.25171661376953,-9.920066833496094,0.0354188680648803,-0.0,-0.0,-1.0,0.0754866064094152,2.0,1.0
24.797752380371097,-10.131237030029297,0.025797963142395,-0.0,-0.0,-1.0,0.0176374298521044,1.0,1.0
25.083147048950195,-10.245445251464844,0.0199967622756958,0.953107041175566,0.0492101931542702,-0.2986056344935199,0.0447323208763735,3.0,1.0
23.095420837402344,-9.577682495117188,0.0462204217910766,-0.0,-0.0,-1.0,0.0735702934069481,2.0,1.0
24.02904510498047,-9.79789924621582,0.0406044721603393,-0.1630601149333709,-0.2878204528183365,-0.9437005806172648,0.1233191378555098,3.0,1.0
25.102659225463867,-9.500118255615234,-0.0411007404327392,-0.0,-0.0,-1.0,0.0265210222325957,2.0,0.0
24.518367767333984,-9.937564849853516,-0.0518962144851684,-0.0,-0.0,-1.0,0.0223027094049798,2.0,0.0
24.964401245117188,-10.053701400756836,-0.0498348474502563,-0.0,-0.0,-1.0,0.0360956327511661,2.0,0.0
24.215579986572266,-9.48594093322754,-0.0389527082443237,-0.0,-0.0,-1.0,0.0834795689916381,1.0,0.0
23.87010955810547,-10.517818450927734,0.0204236507415771,-0.0,-0.0,-1.0,0.0535337508444313,1.0,1.0
24.03516960144043,-10.69053840637207,0.0158812999725341,-0.0,-0.0,-1.0,0.0459133741961219,2.0,1.0
24.407739639282227,-10.756185531616213,0.0175673961639404,-0.0,-0.0,-1.0,0.0189878196734497,1.0,1.0
23.100915908813477,-9.848295211791992,0.0341715812683105,-0.0,-0.0,-1.0,0.0892472340627913,1.0,1.0
23.29967880249023,-9.954389572143556,0.033409833908081,-0.1333902791540786,-0.1372604565228298,-0.9815124046604512,0.0363276074924276,4.0,1.0
25.105642318725582,-10.910282135009766,0.0182738304138183,-0.0,-0.0,-1.0,0.0339690232325734,2.0,1.0
24.594682693481445,-10.612117767333984,0.0251743793487548,-0.2911562967085537,-0.6150532243988235,-0.7327602213845748,0.0990290965919983,3.0,1.0
25.06036376953125,-10.77456283569336,0.0233449935913085,-0.0,-0.0,-1.0,0.0415990838183409,2.0,1.0
23.90821647644043,-10.077638626098633,0.0374760627746582,-0.0,-0.0,-1.0,0.1594939278859275,1.0,1.0
24.449548721313477,-10.290693283081056,0.0361044406890869,-0.9645085005813148,-0.0141156071870867,-0.2636742345018262,0.1720358369255264,3.0,1.0
25.11859703063965,-10.386333465576172,0.0394349098205566,-0.1430493566371384,-0.2091205142636486,-0.967370400663473,0.0914843362232288,4.0,1.0
23.105785369873047,-9.655353546142578,0.0410854816436767,-0.0,-0.0,-1.0,0.0613009596513741,2.0,1.0
23.82800674438477,-9.815406799316406,0.0461089611053466,-0.0,-0.0,-1.0,0.1560547729908222,2.0,1.0
23.070022583007812,-9.516387939453123,0.0453977584838867,-0.0,-0.0,-1.0,0.0703305280912101,2.0,1.0
24.802501678466797,-10.40245246887207,0.0066134929656982,-0.0,-0.0,-1.0,0.0120652586451106,2.0,1.0
24.25074005126953,-10.209331512451172,0.005441665649414,-0.0,-0.0,-1.0,0.0809296979328228,1.0,1.0
24.59855079650879,-10.301939010620115,0.0073966979980468,-0.0,-0.0,-1.0,0.0764878457178949,2.0,1.0
25.146032333374023,-10.308536529541016,0.0148968696594238,-0.1165334809492861,0.1203832586547314,-0.985863996123964,0.0543324463332227,3.0,1.0
23.93155860900879,-9.68246841430664,0.0188703536987304,-0.0,-0.0,-1.0,0.1276561434304282,2.0,1.0
24.18671607971191,-9.825157165527344,0.0181913375854492,0.3082890861287449,-0.280699862720325,-0.9089364259631662,0.1000098282139994,3.0,1.0
23.17241859436035,-9.364009857177734,0.0155262947082519,-0.0,-0.0,-1.0,0.0413075420455748,1.0,1.0
25.080785751342773,-10.214494705200195,0.0175604820251464,-0.0,-0.0,-1.0,0.0488226457030445,2.0,1.0
23.64621925354004,-11.296669006347656,0.3288165926933288,-0.0,-0.0,-1.0,0.1357134451764015,1.0,1.0
23.843902587890625,-11.359243392944336,0.3287514448165893,-0.0,-0.0,-1.0,0.114587373595402,1.0,1.0
24.340913772583008,-11.441518783569336,0.3304849863052368,-0.0,-0.0,-1.0,0.1790248384825593,1.0,1.0
24.96942710876465,-9.5093412399292,-0.0278272628784179,-0.0,-0.0,-1.0,0.0270672210586534,1.0,0.0
24.240507125854492,-9.549004554748535,-0.0561212301254272,-0.0,-0.0,-1.0,0.0726164631076894,1.0,0.0
24.45582389831543,-9.7289400100708,-0.0517529249191284,-0.0,-0.0,-1.0,0.0403074115417303,2.0,0.0
25.049177169799805,-10.40005588531494,-0.044291615486145,-0.0,-0.0,-1.0,0.1306108015166517,2.0,0.0
25.124998092651367,-10.63963222503662,-0.0468759536743164,-0.0,-0.0,-1.0,0.0549868004352632,1.0,0.0
25.078500747680664,-9.60595417022705,0.1161558628082275,-0.0,-0.0,-1.0,0.0258468904834101,1.0,1.0
24.558082580566406,-9.5763578414917,0.1430026292800903,-0.0,-0.0,-1.0,0.0578184338937242,1.0,1.0
23.910242080688477,-9.493247032165527,0.1810805797576904,-0.0,-0.0,-1.0,0.2118649264746621,2.0,1.0
23.1618595123291,-9.549939155578612,0.2082258462905883,-0.0,-0.0,-1.0,0.0928890342835718,1.0,1.0
23.3701229095459,-11.136512756347656,0.4752810597419739,-0.0,-0.0,-1.0,0.0832820986945886,2.0,1.0
23.364107131958008,-11.312881469726562,0.4726871252059936,-0.0,-0.0,-1.0,0.1202064348269392,1.0,1.0
23.32214736938477,-11.16365909576416,0.3228503465652466,-0.6123088165079725,0.7889912924193364,-0.0507016145016207,0.2241592220140657,6.0,1.0
24.104900360107425,-11.77072811126709,0.3298534750938415,-0.0,-0.0,-1.0,0.1992210986421217,2.0,1.0
23.338396072387695,-11.317564964294434,0.3201602697372436,-0.0,-0.0,-1.0,0.2455410521040283,2.0,1.0
23.41338348388672,-11.020970344543455,0.8620412945747375,-0.0,-0.0,-1.0,0.1460469817380111,2.0,1.0
23.97573471069336,-11.681007385253906,0.3378967046737671,0.2298289535429472,-0.1086706400196433,-0.9671449447270424,0.1364513973696341,4.0,1.0
24.346702575683594,-11.692060470581056,0.3251006603240967,-0.0,-0.0,-1.0,0.1626893987647285,2.0,1.0
24.096111297607425,-11.629460334777832,0.2029386758804321,-0.0,-0.0,-1.0,0.1811243258954634,2.0,1.0
24.645816802978516,-11.481450080871582,0.1376134157180786,-0.8994689397058955,0.0696082218942271,-0.4314050555441794,0.1154683568517824,3.0,1.0
23.43606758117676,-11.1029691696167,0.2952011823654175,-0.0,-0.0,-1.0,0.1663383577135551,1.0,1.0
23.308372497558594,-11.29866886138916,0.3063645362854004,0.6060920045063515,0.7263429227455299,-0.3241580488757819,0.1881575338463221,3.0,1.0
24.01366424560547,-11.644577026367188,0.2399048805236816,-0.790744909615835,0.0637965730477384,-0.6088123563003709,0.1673851696672738,3.0,1.0
24.580881118774418,-11.589384078979492,0.1991820335388183,-0.0,-0.0,-1.0,0.1733370059056234,2.0,1.0
24.646018981933594,-11.507566452026367,0.1968575716018676,0.2418255615202081,0.9023469544204102,-0.3567777622605511,0.1499997970287307,4.0,1.0
23.359935760498047,-11.10856819152832,0.3053042888641357,-0.0,-0.0,-1.0,0.2458684771518111,2.0,1.0
23.275251388549805,-11.339162826538086,0.3040230274200439,-0.0,-0.0,-1.0,0.1590214586547923,1.0,1.0
22.97644424438477,-11.507423400878906,0.2533594369888305,-0.0,-0.0,-1.0,0.1512542950366174,1.0,1.0
23.256214141845703,-11.421310424804688,0.2375140190124511,-0.090100117483021,0.6524176141318011,-0.7524847012399081,0.2101070124470913,3.0,1.0
23.93671417236328,-11.600811004638672,0.1840198040008545,-0.3782586365474042,-0.8212071755509674,-0.4272460400061084,0.1125267736974989,3.0,1.0
24.285804748535156,-11.845382690429688,0.1507025957107544,-0.0,-0.0,-1.0,0.1557268162354554,1.0,1.0
22.786598205566406,-11.337182998657228,0.1121196746826171,-0.0,-0.0,-1.0,0.0739742433534609,1.0,1.0
22.756410598754883,-9.727598190307615,0.1867126226425171,-0.0,-0.0,-1.0,0.2225742637030375,2.0,1.0
23.081951141357425,-11.172502517700195,0.1037988662719726,-0.0,-0.0,-1.0,0.0660073212426117,1.0,1.0
24.95684051513672,-10.756875991821287,0.0140632390975952,-0.0,-0.0,-1.0,0.0656976469884245,2.0,1.0
25.174636840820312,-10.50592803955078,0.0115386247634887,-0.0,-0.0,-1.0,0.1373580116707456,1.0,1.0
24.664594650268555,-10.556233406066896,0.0003550052642822,-0.0,-0.0,-1.0,0.0722435080806525,2.0,1.0
24.76850128173828,-10.250468254089355,0.013338565826416,-0.0,-0.0,-1.0,0.0105056314204231,2.0,1.0
24.931442260742188,-10.386935234069824,-0.0020393133163452,-0.0,-0.0,-1.0,0.0758766145973418,2.0,0.0
24.63556480407715,-10.48012924194336,0.0373837947845459,-0.0,-0.0,-1.0,0.0460896091041243,1.0,1.0
25.069608688354492,-10.431720733642578,0.0414416790008544,-0.5802170479639795,0.5832337817212374,-0.5684949719312465,0.1058395201468037,3.0,1.0
24.329713821411133,-11.823143005371094,0.1105057001113891,-0.0,-0.0,-1.0,0.1919993992155959,1.0,1.0
22.932939529418945,-11.316709518432615,0.1268720626831054,-0.0,-0.0,-1.0,0.0838727690601926,1.0,1.0
23.78626823425293,-11.51401710510254,0.1242451667785644,-0.0,-0.0,-1.0,0.0503584442163329,1.0,1.0
24.162519454956055,-11.593530654907228,0.1221468448638916,-0.0,-0.0,-1.0,0.0828371869790883,2.0,1.0
24.579071044921875,-11.444026947021484,0.1315894126892089,-0.0,-0.0,-1.0,0.0993763236806113,2.0,1.0
24.897687911987305,-11.723770141601562,0.1169784069061279,0.1124946950752792,-0.3911660525881983,-0.9134188868654334,0.0607066149296744,4.0,1.0
23.124755859375,-11.266794204711914,0.1316982507705688,-0.0,-0.0,-1.0,0.1782417361245551,1.0,1.0
23.394725799560547,-11.19510269165039,0.1381523609161377,-0.0,-0.0,-1.0,0.2022392717367252,1.0,1.0
23.74448585510254,-11.299968719482422,0.1354449987411499,0.4702928001856577,0.8479042975501891,-0.2447100003870972,0.1168975953545386,4.0,1.0
24.652097702026367,-11.432493209838867,0.1324172019958496,-0.6037880080838308,0.2661038899425953,-0.7514178338658051,0.1525457705423413,5.0,1.0
23.693988800048828,-10.173711776733398,0.1952248811721801,-0.0,-0.0,-1.0,0.2194874557145226,2.0,1.0
25.031578063964844,-11.616620063781738,-0.0183520317077636,-0.0,-0.0,-1.0,0.0504691152109132,1.0,0.0
24.684404373168945,-11.063694953918455,-0.0455267429351806,-0.0,-0.0,-1.0,0.058151970844075,1.0,0.0
24.941993713378903,-11.392510414123535,-0.0215818881988525,-0.0,-0.0,-1.0,0.0625942122752044,1.0,0.0
24.61487197875977,-10.91404628753662,-0.049342393875122,-0.0,-0.0,-1.0,0.0667280389825319,1.0,0.0
24.848217010498047,-10.920186042785645,-0.0142521858215332,-0.0,-0.0,-1.0,0.0805133342856154,1.0,0.0
24.263362884521484,-10.364901542663574,-0.0784454345703125,-0.0,-0.0,-1.0,0.0713563741033476,1.0,0.0
24.482152938842773,-10.417923927307127,-0.0471621751785278,-0.0,-0.0,-1.0,0.0840610236935672,2.0,0.0
24.182390213012695,-10.041945457458496,-0.076434850692749,-0.0,-0.0,-1.0,0.0409165036226167,1.0,0.0
22.818771362304688,-11.549775123596191,0.3007440567016601,-0.0,-0.0,-1.0,0.1605028688163286,2.0,1.0
23.14027404785156,-11.268099784851074,0.3117403388023376,-0.5547392318609279,0.5399960498880011,-0.6329839261305953,0.1126871446394132,3.0,1.0
24.08378219604492,-11.70386028289795,0.2837619185447693,-0.0,-0.0,-1.0,0.1990988169105626,2.0,1.0
24.49261474609375,-11.70274257659912,0.2793390154838562,-0.0,-0.0,-1.0,0.2142737086905538,1.0,1.0
23.28629493713379,-11.169880867004396,0.3152965903282165,0.3125619057934107,0.8882227787191941,-0.3366977137005015,0.2583164141762624,8.0,1.0
24.48306655883789,-11.70373821258545,0.4680379629135132,0.2500036393950469,-0.7471914354096414,-0.6157947215913034,0.2370020929424641,3.0,1.0
23.240055084228516,-11.083697319030762,0.4828031063079834,-0.0,-0.0,-1.0,0.1051734710902912,1.0,1.0
24.221481323242188,-11.719342231750488,0.4506332874298095,-0.0,-0.0,-1.0,0.2324188716142933,1.0,1.0
24.162368774414062,-11.65337085723877,0.4529279470443725,-0.0,-0.0,-1.0,0.1680049878237178,1.0,1.0
24.558189392089844,-11.690459251403809,0.4523730278015136,0.6489142993310678,-0.5648595177113684,0.5097489160111569,0.2491370595987031,4.0,1.0
23.850730895996097,-11.617671012878418,0.2752120494842529,-0.0,-0.0,-1.0,0.0769122356681002,1.0,1.0
24.20224380493164,-11.692591667175291,0.2781955003738403,-0.0,-0.0,-1.0,0.1535523635188433,1.0,1.0
23.0742130279541,-11.328335762023926,0.2716295719146728,-0.0,-0.0,-1.0,0.2793593740557256,1.0,1.0
24.620073318481445,-11.7763032913208,0.2813503742218017,-0.0,-0.0,-1.0,0.1705620875780321,2.0,1.0
23.220977783203125,-11.19724941253662,0.2796313762664795,0.8215347206640727,0.5236082622735535,-0.2256437245355457,0.2350653094718064,4.0,1.0
23.293670654296875,-11.229722023010254,0.2798465490341186,-0.0,-0.0,-1.0,0.2216304883771621,2.0,1.0
24.60744285583496,-11.511727333068848,0.2918866872787475,-0.0,-0.0,-1.0,0.1653440376603102,2.0,1.0
24.11520004272461,-11.662261962890623,0.3250459432601928,-0.0382714362474295,-0.917214979280413,-0.3965500963953866,0.2036087543285231,4.0,1.0
24.517223358154297,-11.693262100219728,0.3297568559646606,-0.0,-0.0,-1.0,0.2958444200411146,2.0,1.0
24.73434829711914,-11.849943161010742,0.3267958164215088,-0.0,-0.0,-1.0,0.0996022145924232,1.0,1.0
23.204063415527344,-11.160690307617188,0.3277127742767334,-0.1629690328942615,0.7508448053443612,0.6400571635447089,0.2702675242687656,4.0,1.0
24.74209976196289,-10.596973419189451,0.0313400030136108,0.4913409822471881,0.6807979364573493,-0.5432294256387287,0.0558226933225145,3.0,1.0
25.207786560058594,-10.690725326538086,0.0355995893478393,-0.0,-0.0,-1.0,0.0276452107737775,1.0,1.0
23.929935455322266,-10.364629745483398,0.0253549814224243,-0.0,-0.0,-1.0,0.0412798412598712,1.0,1.0
24.16744804382324,-10.420146942138672,0.0279872417449951,-0.0,-0.0,-1.0,0.0909949495207517,1.0,1.0
24.58135986328125,-10.47486686706543,0.0342025756835937,0.1140280471092637,0.6769873891076945,-0.7271077495540766,0.0774419624966461,3.0,1.0
25.02228546142578,-10.448476791381836,0.0444955825805664,-0.0,-0.0,-1.0,0.0803056057262733,2.0,1.0
24.00399398803711,-9.82630729675293,0.0535972118377685,-0.7055540748766052,0.6378155438207197,0.3088442641295086,0.1421494077056879,4.0,1.0
23.757953643798828,-11.273435592651367,0.142247200012207,0.3682016370333993,0.0511020536516538,-0.9283405272843088,0.0954654387331711,3.0,1.0
23.91433334350586,-11.32667350769043,0.1447477340698242,-0.0,-0.0,-1.0,0.0916193666636665,2.0,1.0
24.866411209106445,-11.557323455810549,0.1617509126663208,0.5967818830132857,0.2845942170361114,-0.7502383059646577,0.051765514604251,3.0,1.0
24.941131591796875,-11.682928085327148,0.1585772037506103,-0.0,-0.0,-1.0,0.0642707417065155,1.0,1.0
23.60594940185547,-11.127410888671877,0.1432983875274658,-0.0,-0.0,-1.0,0.1407236156979464,1.0,1.0
24.15985107421875,-11.22739601135254,0.1556804180145263,-0.7710205216661197,-0.3612453839474618,0.5244321955661723,0.1431577545960191,3.0,1.0
24.41900634765625,-11.271778106689451,0.1611783504486084,-0.0,-0.0,-1.0,0.0658878474365538,2.0,1.0
24.739696502685547,-11.36431884765625,0.1661963462829589,-0.7966318414287971,0.4372492591135123,-0.4173617071874807,0.1516222755022634,5.0,1.0
22.804948806762695,-10.619829177856444,0.1368796825408935,-0.0,-0.0,-1.0,0.1548052019147107,2.0,1.0
23.18377685546875,-10.39846420288086,0.1573991775512695,-0.0,-0.0,-1.0,0.189919927790858,2.0,1.0
23.54205894470215,-10.512849807739258,0.164588451385498,-0.3692179364939025,0.9263414058856968,-0.0746305240025496,0.1690896181379112,3.0,1.0
23.06267738342285,-9.766660690307615,0.1763173341751098,-0.3155796053767918,0.7301293068288818,-0.6060698870425794,0.2447602570626992,3.0,1.0
23.86291122436523,-10.137210845947266,0.1886966228485107,-0.0,-0.0,-1.0,0.1388698341437686,2.0,1.0
23.681217193603516,-9.976123809814451,0.1889915466308593,0.2249265806466127,0.7673652183891679,-0.6004653653002536,0.2229542727326776,3.0,1.0
24.05333709716797,-10.748476028442385,0.0702602863311767,-0.0,-0.0,-1.0,0.0593764292457764,1.0,1.0
24.136390686035156,-10.77197265625,0.0709998607635498,0.5877623170230097,0.4862363405036713,-0.6466140114947557,0.0616909768444161,3.0,1.0
24.600826263427734,-10.95541000366211,0.0723893642425537,-0.0,-0.0,-1.0,0.0631267452105884,2.0,1.0
25.1749210357666,-11.282167434692385,0.0685387849807739,-0.0,-0.0,-1.0,0.0353543284369975,1.0,1.0
23.335268020629883,-10.050642013549805,0.0857710838317871,-0.0,-0.0,-1.0,0.0435444977245894,2.0,1.0
23.912364959716797,-10.51430320739746,0.0779666900634765,-0.0,-0.0,-1.0,0.0502430514609477,1.0,1.0
24.44778823852539,-10.738683700561523,0.0793421268463134,-0.6603447595877628,0.2694176270591449,-0.7009699998678969,0.0367378315170392,3.0,1.0
24.69276237487793,-10.90199089050293,0.0768414735794067,-0.0,-0.0,-1.0,0.0759169531852532,2.0,1.0
25.080669403076172,-10.943002700805664,0.0828866958618164,-0.0,-0.0,-1.0,0.0262258098766104,1.0,1.0
23.04797744750977,-9.744857788085938,0.092552900314331,-0.0,-0.0,-1.0,0.180486471803019,2.0,1.0
23.789722442626953,-10.101930618286133,0.0942041873931884,-0.0,-0.0,-1.0,0.2472574729739322,1.0,1.0
24.03281021118164,-9.879278182983398,0.110065221786499,-0.0,-0.0,-1.0,0.2431747309421299,2.0,1.0
23.30510902404785,-9.381914138793944,-0.0096732378005981,-0.0,-0.0,-1.0,0.0385871967380502,1.0,0.0
24.450634002685547,-10.184350967407228,-0.0072730779647827,-0.0,-0.0,-1.0,0.0954069242935703,2.0,0.0
24.724578857421875,-10.350992202758787,-0.0062123537063598,-0.0,-0.0,-1.0,0.0094488838842928,1.0,0.0
24.251480102539062,-9.907068252563477,-0.0010925531387329,-0.1391118794223315,-0.9879813185136536,-0.0673854529673137,0.0760244397212066,4.0,0.0
24.369552612304688,-9.94582748413086,0.0010108947753906,-0.1543277930125397,-0.8672613875257561,-0.4733292913086811,0.03893466424124,3.0,1.0
24.972349166870117,-10.400794982910156,-0.0007040500640869,0.1400005095209152,0.3796459663872522,-0.914477335716842,0.1030246041823391,4.0,0.0
23.995210647583008,-9.37755012512207,0.0142419338226318,-0.0,-0.0,-1.0,0.1350421430677191,2.0,1.0
24.05757522583008,-9.697181701660156,0.0019810199737548,-0.7514716667527482,-0.5168465872269632,0.4100730902408591,0.0905680941491164,3.0,1.0
24.55831527709961,-10.021114349365234,0.0036984682083129,-0.0,-0.0,-1.0,0.0278909937664118,2.0,1.0
24.849266052246097,-10.226276397705078,0.0035326480865478,0.219873922622187,-0.0424302872584126,-0.9746051143277984,0.0108079070401235,3.0,1.0
23.980716705322266,-10.16191577911377,0.0341289043426513,-0.0,-0.0,-1.0,0.2201077932644318,2.0,1.0
24.052555084228516,-10.408976554870604,0.0238659381866455,-0.0,-0.0,-1.0,0.043774484007217,2.0,1.0
24.24917984008789,-10.473540306091309,0.0254032611846923,-0.0,-0.0,-1.0,0.0726434971657773,1.0,1.0
24.556415557861328,-10.472357749938965,0.0326268672943115,0.1140280471092637,0.6769873891076945,-0.7271077495540766,0.0795727514733004,3.0,1.0
24.777170181274418,-10.623162269592283,0.0302395820617675,-0.1335197510837832,-0.1375616939456182,-0.9814526256673506,0.0605936390183037,3.0,1.0
25.196805953979492,-10.93131160736084,0.0241506099700927,0.2901312934257815,0.9466691898468228,-0.140147342357403,0.0294137842262944,3.0,1.0
24.0072078704834,-9.585549354553224,0.0625518560409545,0.1575355545236182,-0.1453997026473145,-0.9767504673820272,0.1175181695984077,3.0,1.0
24.02377700805664,-9.829720497131348,0.0512199401855468,0.0136217230063676,-0.8682995189505519,-0.4958531980864676,0.1335016390788038,5.0,1.0
25.138641357421875,-10.486042976379396,0.0451492071151733,0.2556306797638167,-0.792471070008031,-0.5537531568883516,0.1157978975456197,5.0,1.0
24.252178192138672,-9.475058555603027,-0.0044280290603637,-0.0,-0.0,-1.0,0.0713468287602302,1.0,0.0
