x,y,z,nx,ny,nz,curvature,density,label
2.844482898712158,33.10973358154297,-1.81919264793396,-0.0,-0.0,-1.0,0.1881644161927122,1.0,0.0
2.954097270965576,31.755041122436523,-1.536323308944702,-0.0,-0.0,-1.0,0.0370778412580509,1.0,0.0
5.046830654144287,31.340999603271484,-1.813382148742676,-0.0,-0.0,-1.0,0.0194723238595194,1.0,0.0
4.651244163513184,31.278179168701172,-1.8273916244506836,-0.0,-0.0,-1.0,0.0896574729396723,1.0,0.0
4.13254976272583,31.000492095947266,-1.8008294105529783,-0.0,-0.0,-1.0,0.1391824406522638,1.0,0.0
3.9882168769836426,30.92404556274414,-1.7943882942199707,-0.0,-0.0,-1.0,0.1419956367377292,1.0,0.0
3.5929269790649414,33.02615737915039,-1.603804588317871,-0.0,-0.0,-1.0,0.0625342960051089,1.0,0.0
3.01907730102539,32.85536193847656,-1.6121115684509275,-0.0,-0.0,-1.0,0.1267370202666499,1.0,0.0
2.7817368507385254,32.6637077331543,-1.5913591384887695,-0.0,-0.0,-1.0,0.1503936520569006,1.0,0.0
4.793533802032471,32.69648742675781,-1.922379970550537,-0.0254181373904545,-0.6825181763954463,-0.7304264899231371,0.0866547292629794,3.0,0.0
4.85250997543335,33.11445617675781,-2.015536308288574,-0.0,-0.0,-1.0,0.0176119569919855,1.0,0.0
4.6461076736450195,32.5219841003418,-1.8919739723205569,-0.0188551865437819,-0.970038745799185,-0.2422174923260985,0.0407725492492646,4.0,0.0
4.418824195861816,31.443613052368164,-1.659807205200195,-0.7957971533254418,-0.5288258181945462,0.2950426151761676,0.1348728812654213,5.0,0.0
4.42271614074707,32.30766296386719,-1.8581976890563965,-0.0,-0.0,-1.0,0.019569312172863,1.0,0.0
4.101163864135742,31.117826461791992,-1.6100828647613523,0.8570969905721806,-0.3818372147303635,-0.3458107722426665,0.1279816943613975,4.0,0.0
4.352983474731445,31.263526916503903,-1.6235227584838867,-0.2463849985816443,0.4394858518314573,-0.863797787976967,0.1366563127967869,4.0,0.0
4.390261173248291,31.867033004760746,-1.759178638458252,-0.0,-0.0,-1.0,0.0654642417536554,2.0,0.0
4.354767799377441,32.21845245361328,-1.842599391937256,-0.0,-0.0,-1.0,0.0236570826907718,1.0,0.0
3.919572353363037,31.12630271911621,-1.626845359802246,-0.5294211584586564,0.5517984711094117,-0.6443847331040748,0.1918943566754886,4.0,0.0
3.6915111541748047,31.268945693969727,-1.6783807277679443,-0.0,-0.0,-1.0,0.1271923360200665,2.0,0.0
3.403395175933838,31.395278930664062,-1.7319889068603516,-0.0,-0.0,-1.0,0.0557908357685111,1.0,0.0
3.139732360839844,31.44668197631836,-1.7671666145324707,-0.0,-0.0,-1.0,0.0261784658703666,1.0,0.0
3.502441883087158,32.512229919433594,-1.3262548446655271,-0.0,-0.0,-1.0,0.0550407451244513,1.0,0.0
2.9072632789611816,32.529144287109375,-1.3736457824707031,-0.0,-0.0,-1.0,0.1692702611602503,1.0,0.0
4.714478015899658,32.736732482910156,-1.912475347518921,-0.0,-0.0,-1.0,0.0868577737541468,1.0,0.0
4.623742580413818,32.524314880371094,-1.8676726818084717,-0.2928429686460675,-0.9391734627748464,-0.1794330029121245,0.0547171251461131,3.0,0.0
4.186993598937988,31.214298248291016,-1.5871505737304688,-0.0,-0.0,-1.0,0.1451483964417751,2.0,0.0
4.367843151092529,31.406494140625,-1.6165211200714111,-0.0,-0.0,-1.0,0.140888479560122,2.0,0.0
4.405553340911865,31.771934509277344,-1.702211618423462,-0.0,-0.0,-1.0,0.0924910512553396,2.0,0.0
4.360486030578613,32.31159591674805,-1.8385465145111084,-0.0,-0.0,-1.0,0.0179941255233803,1.0,0.0
4.463109016418457,32.56627655029297,-1.8919498920440672,-0.0,-0.0,-1.0,0.0510604073574311,1.0,0.0
4.04755973815918,31.175487518310547,-1.591707706451416,-0.0,-0.0,-1.0,0.0914267327765746,2.0,0.0
3.877070426940918,31.22601318359375,-1.6213328838348389,-0.2103058508518899,-0.167385215872591,-0.9631996878138762,0.1597029702245029,3.0,0.0
3.559464931488037,31.392074584960938,-1.694709539413452,-0.0,-0.0,-1.0,0.0889360463172916,1.0,0.0
3.22924280166626,31.49556350708008,-1.7555959224700928,-0.0,-0.0,-1.0,0.0293554568288857,1.0,0.0
3.5520706176757812,32.5717658996582,-1.362592697143555,-0.0,-0.0,-1.0,0.0526147339798436,1.0,0.0
2.84938383102417,32.625797271728516,-1.4392037391662598,-0.0,-0.0,-1.0,0.1709020597620406,1.0,0.0
4.162026405334473,32.955562591552734,-1.7857513427734375,-0.0,-0.0,-1.0,0.0925842368044685,1.0,0.0
4.014100551605225,32.889015197753906,-1.7858867645263672,-0.0,-0.0,-1.0,0.0590223037392759,1.0,0.0
3.456979274749756,31.74130630493164,-1.5776584148406982,-0.0,-0.0,-1.0,0.0273555337530605,1.0,0.0
3.1649951934814453,31.9777889251709,-1.6704425811767578,-0.0,-0.0,-1.0,0.0450616317462001,1.0,0.0
4.194751739501953,31.674577713012695,-1.4733314514160156,-0.0,-0.0,-1.0,0.0734546320050907,1.0,0.0
3.8120503425598145,31.39101791381836,-1.450882911682129,-0.0,-0.0,-1.0,0.0738091947689969,1.0,0.0
4.02770471572876,31.545215606689453,-1.4618151187896729,-0.0,-0.0,-1.0,0.0280312133027911,2.0,0.0
3.6105031967163086,31.498804092407227,-1.5012311935424805,-0.0,-0.0,-1.0,0.0649377393384291,1.0,0.0
4.687196254730225,32.758079528808594,-1.74812650680542,-0.0,-0.0,-1.0,0.0860805303935791,1.0,0.0
4.238361835479736,31.641582489013672,-1.51212477684021,-0.0,-0.0,-1.0,0.0855613990659869,1.0,0.0
4.27134895324707,31.6893367767334,-1.5201842784881592,-0.0,-0.0,-1.0,0.1223517170942911,1.0,0.0
4.232524394989014,32.82879638671875,-1.8209471702575684,-0.0,-0.0,-1.0,0.0341837688354271,1.0,0.0
4.331449031829834,32.930747985839844,-1.8355169296264648,-0.0,-0.0,-1.0,0.0203938706364858,1.0,0.0
4.02583122253418,31.40678977966309,-1.480194330215454,-0.0,-0.0,-1.0,0.0497920818990064,2.0,0.0
4.120983600616455,32.606101989746094,-1.7769474983215332,-0.0,-0.0,-1.0,0.035271000199493,1.0,0.0
3.494030475616455,31.74123191833496,-1.6388835906982422,-0.0,-0.0,-1.0,0.0255826498225292,1.0,0.0
3.2135543823242188,31.882373809814453,-1.7148799896240234,-0.0,-0.0,-1.0,0.0479148832263576,1.0,0.0
2.8515191078186035,31.814353942871097,-1.7516469955444336,-0.0,-0.0,-1.0,0.0307995820485225,2.0,0.0
2.882970809936523,32.59050750732422,-1.3796725273132324,-0.0,-0.0,-1.0,0.1715856894139585,1.0,0.0
3.452450752258301,32.50974655151367,-1.3728652000427246,-0.0,-0.0,-1.0,0.0732146610756626,1.0,0.0
4.4177398681640625,31.401941299438477,-1.896778225898743,-0.0,-0.0,-1.0,0.1019170910116241,1.0,0.0
2.802593231201172,32.83856201171875,-1.700737237930298,-0.0,-0.0,-1.0,0.1531114079728453,1.0,0.0
3.601217269897461,32.693389892578125,-1.6323137283325195,-0.0249954688475186,0.4603706255644546,-0.887374843938279,0.1944474164349019,3.0,0.0
3.052593231201172,32.848670959472656,-1.6802444458007812,-0.047228313269718,-0.481705048936375,-0.8750598449562761,0.1327068780143045,3.0,0.0
4.298948287963867,31.754926681518555,-1.5588510036468506,-0.0,-0.0,-1.0,0.1082120913688165,2.0,0.0
4.215373992919922,31.937829971313477,-1.5687766075134275,-0.0,-0.0,-1.0,0.0742242993611799,1.0,0.0
4.373542785644531,31.57114028930664,-1.5496952533721924,-0.0,-0.0,-1.0,0.0811906812059966,1.0,0.0
4.172098159790039,31.13574981689453,-1.5597918033599854,-0.409629367775993,-0.2790603821310098,-0.8685212053717141,0.2654560499350734,6.0,0.0
3.768878936767578,32.719017028808594,-1.666238784790039,0.7494044903240736,-0.1197147332966768,-0.6511998867581448,0.0800206571946892,3.0,0.0
3.075723648071289,32.826316833496094,-1.730014085769653,-0.0,-0.0,-1.0,0.1416646609124764,1.0,0.0
2.822307586669922,32.82460021972656,-1.752748966217041,-0.0,-0.0,-1.0,0.1460973654063852,1.0,0.0
4.251010894775391,31.833696365356445,-1.6093337535858154,-0.0,-0.0,-1.0,0.0636105414822959,2.0,0.0
4.3154449462890625,31.196977615356445,-1.5944828987121582,-0.0,-0.0,-1.0,0.1897862760594223,2.0,0.0
4.248159408569336,31.106285095214844,-1.599376201629639,-0.0,-0.0,-1.0,0.2366389283384989,2.0,0.0
3.7716331481933594,32.81818771362305,-1.6356414556503296,-0.0,-0.0,-1.0,0.0956903399264197,1.0,0.0
3.0764122009277344,32.88649368286133,-1.7023507356643677,-0.047228313269718,-0.481705048936375,-0.8750598449562761,0.1102222563156089,3.0,0.0
2.8906097412109375,32.85768127441406,-1.7195097208023071,-0.0,-0.0,-1.0,0.1143232252774905,2.0,0.0
4.1723785400390625,31.999717712402344,-1.5850847959518433,-0.0,-0.0,-1.0,0.079693635380372,2.0,0.0
4.249895095825195,31.82793426513672,-1.5751961469650269,-0.0,-0.0,-1.0,0.0651189934772893,2.0,0.0
4.366748809814453,31.385112762451172,-1.557798981666565,-0.0,-0.0,-1.0,0.1296541558764033,1.0,0.0
4.349161148071289,31.645288467407227,-1.5631152391433716,0.8772608996521487,-0.3362572833362039,-0.3425556208046488,0.0736985100141645,6.0,0.0
4.20654296875,31.161788940429688,-1.5701266527175903,0.1535502425936299,-0.5180842510236751,-0.8414339141255689,0.2823341737776476,4.0,0.0
3.063587188720703,32.91863250732422,-1.641699194908142,-0.0,-0.0,-1.0,0.111645354342574,1.0,0.0
4.330659866333008,31.6746768951416,-1.495059609413147,-0.0,-0.0,-1.0,0.0710074869688501,1.0,0.0
4.263500213623047,31.46868896484375,-1.4976223707199097,-0.0,-0.0,-1.0,0.1113769827306842,1.0,0.0
4.088590621948242,31.263092041015625,-1.5108152627944946,-0.0,-0.0,-1.0,0.102722252630699,1.0,0.0
4.370723724365234,33.014225006103516,-1.9045398235321045,-0.0,-0.0,-1.0,0.0184645350382167,1.0,0.0
4.651823043823242,32.40705108642578,-1.8500266075134275,-0.0,-0.0,-1.0,0.0283937805291075,1.0,0.0
4.584575653076172,32.211673736572266,-1.8497560024261477,-0.0,-0.0,-1.0,0.0183336690608461,1.0,0.0
4.689353942871094,33.04424285888672,-1.9467785358428955,-0.0,-0.0,-1.0,0.0342343529385106,1.0,0.0
5.1425933837890625,31.162338256835938,-1.818373441696167,-0.0,-0.0,-1.0,0.0247287150610916,2.0,0.0
4.966194152832031,31.17999267578125,-1.841268539428711,-0.0,-0.0,-1.0,0.030346549357478,2.0,0.0
4.498874664306641,32.977230072021484,-1.8934674263000488,-0.0,-0.0,-1.0,0.0337611281901312,1.0,0.0
4.474180221557617,32.70635986328125,-1.879836082458496,-0.4482826809810961,-0.537521801247007,-0.714221920075668,0.0806153257621419,3.0,0.0
4.634466171264648,32.304588317871094,-1.8386907577514648,-0.0,-0.0,-1.0,0.0107958392962337,2.0,0.0
4.833150863647461,31.526304244995117,-1.7721281051635742,-0.0,-0.0,-1.0,0.1357241594024349,2.0,0.0
4.30970573425293,30.940101623535156,-1.7993030548095703,-0.0,-0.0,-1.0,0.0615956251329154,1.0,0.0
4.257543563842773,30.77019500732422,-1.7964839935302734,-0.0,-0.0,-1.0,0.0799898626153072,2.0,0.0
4.488985061645508,30.80814552307129,-1.8327876329421997,-0.0,-0.0,-1.0,0.0573644656139573,1.0,0.0
5.076269149780273,31.163307189941406,-1.8675663471221924,-0.0,-0.0,-1.0,0.0246260667018507,2.0,0.0
2.755605697631836,31.48242950439453,-1.7820438146591189,-0.0,-0.0,-1.0,0.046268143143343,2.0,0.0
4.093191146850586,32.988807678222656,-1.8877049684524536,-0.0,-0.0,-1.0,0.0556756536728969,1.0,0.0
4.075014114379883,32.52937316894531,-1.8337441682815552,-0.0,-0.0,-1.0,0.0297761393184543,2.0,0.0
3.9868221282958984,32.299293518066406,-1.810832381248474,-0.0,-0.0,-1.0,0.033563816450395,1.0,0.0
4.07798957824707,31.9948787689209,-1.7704991102218628,-0.0,-0.0,-1.0,0.0873244151395629,1.0,0.0
4.064849853515625,31.87796974182129,-1.757466197013855,-0.0,-0.0,-1.0,0.0944073168219075,1.0,0.0
3.750856399536133,30.89497947692871,-1.6609002351760864,-0.0,-0.0,-1.0,0.1036999336693869,1.0,0.0
4.25007438659668,31.28347396850586,-1.6788095235824585,-0.926022521774764,-0.3123157414810587,0.2119933177933755,0.1325111295610754,3.0,0.0
4.159397125244141,31.051427841186523,-1.6568118333816528,-0.0,-0.0,-1.0,0.1643975593295086,2.0,0.0
4.0584869384765625,30.878089904785156,-1.6423105001449585,-0.0,-0.0,-1.0,0.1348819639652227,1.0,0.0
2.8043766021728516,31.04193878173828,-1.5847797393798828,-0.0,-0.0,-1.0,0.0627891762853102,1.0,0.0
4.125123977661133,33.007137298583984,-1.779813289642334,-0.0,-0.0,-1.0,0.0883287260189966,1.0,0.0
4.146274566650391,32.611061096191406,-1.729783535003662,-0.0,-0.0,-1.0,0.0468399911690284,1.0,0.0
2.942291259765625,31.15230178833008,-1.5923335552215576,-0.0,-0.0,-1.0,0.0617815281823338,1.0,0.0
4.170133590698242,32.36345672607422,-1.6984496116638184,-0.0,-0.0,-1.0,0.0366474924379762,1.0,0.0
4.110958099365234,32.15338897705078,-1.6741433143615725,-0.0,-0.0,-1.0,0.0557687664273867,2.0,0.0
4.122042655944824,31.789337158203125,-1.6292672157287598,-0.0,-0.0,-1.0,0.1141753328453175,1.0,0.0
3.4956283569335938,30.924373626708984,-1.546098709106445,-0.0,-0.0,-1.0,0.1466092821329094,1.0,0.0
3.355253219604492,30.82237243652344,-1.539229154586792,-0.0,-0.0,-1.0,0.1210066118990588,1.0,0.0
4.165018081665039,31.53050994873047,-1.5965585708618164,-0.0,-0.0,-1.0,0.0965304346899233,1.0,0.0
4.180991172790527,31.110794067382812,-1.5454869270324707,-0.797677354388418,-0.3120644283496482,-0.5160684362123898,0.2980632682115693,4.0,0.0
3.941556930541992,30.847248077392575,-1.5218477249145508,-0.0,-0.0,-1.0,0.1790680418970442,1.0,0.0
2.763513565063477,31.08150863647461,-1.4555078744888306,-0.0,-0.0,-1.0,0.0617235479208833,1.0,0.0
3.0530834197998047,30.879871368408203,-1.431299090385437,-0.0,-0.0,-1.0,0.0785623124722657,1.0,0.0
3.349313735961914,30.734703063964844,-1.4163669347763062,-0.0,-0.0,-1.0,0.1059334290326154,1.0,0.0
4.2837066650390625,31.08612823486328,-1.501311421394348,-0.0,-0.0,-1.0,0.26472565831282,1.0,0.0
4.1912689208984375,30.99329376220703,-1.4832454919815063,-0.0,-0.0,-1.0,0.2232814920789694,2.0,0.0
4.883270263671875,31.509136199951172,-1.590840220451355,-0.0,-0.0,-1.0,0.1500875642610998,1.0,0.0
4.392559051513672,31.261459350585938,-1.702443242073059,-0.0,-0.0,-1.0,0.1790709521959361,1.0,0.0
4.3946533203125,31.62244033813477,-1.7363048791885376,-0.0,-0.0,-1.0,0.0805649854900704,1.0,0.0
4.185331344604492,32.13642120361328,-1.7915226221084597,-0.0,-0.0,-1.0,0.0620746072776645,1.0,0.0
4.164165496826172,32.54029846191406,-1.830333352088928,-0.0,-0.0,-1.0,0.0295570729643648,1.0,0.0
4.188592910766602,32.79107666015625,-1.8532801866531372,-0.0,-0.0,-1.0,0.0378187345096733,1.0,0.0
3.402568817138672,32.3758544921875,-1.3004366159439087,-0.0,-0.0,-1.0,0.0856053054258152,1.0,0.0
4.2220001220703125,31.56507110595703,-1.524848699569702,-0.0,-0.0,-1.0,0.0834625562809062,1.0,0.0
3.8074703216552734,31.145591735839844,-1.5032904148101809,-0.0,-0.0,-1.0,0.1645035246619551,1.0,0.0
3.999073028564453,31.336349487304688,-1.5129106044769287,-0.0,-0.0,-1.0,0.0928486970389379,2.0,0.0
3.7358264923095703,32.68866729736328,-1.642636775970459,-0.0,-0.0,-1.0,0.0937892835971734,1.0,0.0
3.8139781951904297,32.85915756225586,-1.654996633529663,-0.0817699547959744,-0.9537086287129636,-0.2894020145249561,0.1010954160510063,3.0,0.0
3.593740463256836,32.59083938598633,-1.639132022857666,-0.0,-0.0,-1.0,0.1457284518674402,1.0,0.0
3.752635955810547,32.66217041015625,-1.7163411378860474,-0.0,-0.0,-1.0,0.0772925659981983,2.0,0.0
3.889921188354492,32.835872650146484,-1.7242876291275024,-0.0,-0.0,-1.0,0.0926623371936955,2.0,0.0
4.298826217651367,31.384090423583984,-1.5811032056808472,-0.0,-0.0,-1.0,0.1772818492755176,2.0,0.0
4.3355865478515625,31.649654388427734,-1.601650357246399,0.948083501752612,-0.2569451705798327,-0.1873949119378793,0.094240850461155,5.0,0.0
4.121089935302734,31.191539764404297,-1.573896050453186,-0.0,-0.0,-1.0,0.1538801052841192,2.0,0.0
4.2049560546875,31.94217300415039,-1.6328874826431274,-0.0,-0.0,-1.0,0.0888300560759533,1.0,0.0
2.7730655670166016,32.45694351196289,-1.401231288909912,-0.0,-0.0,-1.0,0.118969343938792,1.0,0.0
4.656309127807617,32.53701400756836,-1.917287826538086,0.1412992877282832,-0.8751862245618255,-0.4626916723096471,0.0439730963169608,3.0,0.0
4.113882064819336,32.714149475097656,-1.7733570337295532,-0.0,-0.0,-1.0,0.0554950714198964,1.0,0.0
3.0947704315185547,31.342714309692383,-1.7940021753311155,-0.0,-0.0,-1.0,0.0336517059995264,2.0,0.0
4.606014251708984,31.60614776611328,-1.6578518152236938,-0.0,-0.0,-1.0,0.2064336117878736,1.0,0.0
4.504297256469727,31.948619842529297,-1.6869255304336548,-0.0,-0.0,-1.0,0.0677332334731402,1.0,0.0
4.501916885375977,31.264863967895508,-1.6492840051651,-0.0,-0.0,-1.0,0.1258131034754308,2.0,0.0
4.169506072998047,31.007856369018555,-1.668371319770813,-0.0,-0.0,-1.0,0.1396200238638812,2.0,0.0
4.174659729003906,31.183181762695312,-1.6773046255111694,-0.0,-0.0,-1.0,0.1486084015378179,2.0,0.0
5.206695556640625,31.464187622070312,-1.8633908033370972,-0.0,-0.0,-1.0,0.0116942566065148,2.0,0.0
3.8871116638183594,32.82202911376953,-1.685489058494568,-0.0,-0.0,-1.0,0.0953740039568019,2.0,0.0
3.9496936798095703,33.008949279785156,-1.685552954673767,-0.0,-0.0,-1.0,0.0842858161989791,1.0,0.0
4.324607849121094,31.524311065673828,-1.5837332010269165,-0.0,-0.0,-1.0,0.0763616376718753,1.0,0.0
3.739473342895508,32.71031188964844,-1.6984785795211792,0.741437953687877,-0.3198187382360978,-0.5899031577337118,0.0835034431779341,3.0,0.0
4.1946868896484375,31.180747985839844,-1.5864959955215454,-0.7727848334589619,-0.4935293804614041,-0.3990392860323237,0.2130443300050477,6.0,0.0
4.175149917602539,31.270282745361328,-1.5921448469161987,-0.0,-0.0,-1.0,0.1115740845017015,1.0,0.0
3.215784072875977,32.9261589050293,-1.7686947584152222,-0.0,-0.0,-1.0,0.0684968725430102,2.0,0.0
4.02979850769043,30.872447967529297,-1.5951780080795288,-0.0,-0.0,-1.0,0.2008739514875255,1.0,0.0
3.905904769897461,31.190990447998047,-1.6215423345565796,-0.2427897176171283,-0.1942056038069927,-0.950440601231532,0.0848026015842598,3.0,0.0
3.214441299438477,31.298683166503903,-1.7087992429733276,-0.0,-0.0,-1.0,0.0443358574501949,1.0,0.0
2.79058837890625,31.512853622436523,-1.7676419019699097,0.6445037692825011,-0.4476483880474813,-0.6198595099368405,0.0462681431433431,3.0,0.0
2.7856616973876953,31.967788696289062,-1.7843631505966189,-0.0,-0.0,-1.0,0.0231604822019331,1.0,0.0
3.848033905029297,31.365293502807617,-1.4804997444152832,-0.0,-0.0,-1.0,0.0882037714554464,1.0,0.0
2.7351608276367188,32.85868835449219,-1.6669437885284424,-0.0,-0.0,-1.0,0.1841749467612916,1.0,0.0
2.8189144134521484,32.546356201171875,-1.5079426765441897,-0.0,-0.0,-1.0,0.1484872508558589,2.0,0.0
3.723094940185547,32.686607360839844,-1.7062127590179443,-0.0436604597611867,0.3370224552517147,-0.940483720704164,0.0772925659981983,3.0,0.0
3.8798999786376953,32.92511749267578,-1.7034854888916016,-0.0,-0.0,-1.0,0.090810650741178,1.0,0.0
3.552877426147461,32.67405319213867,-1.7253928184509275,-0.0,-0.0,-1.0,0.1492988091556624,2.0,0.0
2.732349395751953,31.73948097229004,-1.7660322189331057,-0.0,-0.0,-1.0,0.0295031790912963,1.0,0.0
3.8622074127197266,32.72426223754883,-1.6923878192901611,-0.0,-0.0,-1.0,0.1086621531406346,2.0,0.0
4.341087341308594,31.66002655029297,-1.5677802562713623,0.8772608996521487,-0.3362572833362039,-0.3425556208046488,0.093492168331678,6.0,0.0
4.280170440673828,31.37025451660156,-1.5569508075714111,-0.0,-0.0,-1.0,0.1440426935068439,2.0,0.0
4.153478622436523,31.181560516357425,-1.5605452060699463,-0.2998791275701849,-0.5625136844077042,-0.77048741956103,0.1667353152589244,5.0,0.0
3.892955780029297,31.145336151123047,-1.5897974967956543,-0.6254907231311175,-0.7786704700065636,-0.0493320830359817,0.1843569731616106,3.0,0.0
4.095312118530273,30.80057716369629,-1.5446710586547852,-0.0,-0.0,-1.0,0.1768206630160961,1.0,0.0
2.8540077209472656,31.352611541748047,-1.7285494804382324,-0.0,-0.0,-1.0,0.0641586201354433,1.0,0.0
2.847433090209961,31.552520751953125,-1.7410030364990234,-0.0,-0.0,-1.0,0.0408631721356082,1.0,0.0
3.896993637084961,32.98535919189453,-1.7728512287139893,-0.0,-0.0,-1.0,0.0976615647914159,1.0,0.0
3.856382369995117,32.670127868652344,-1.7688381671905518,-0.0,-0.0,-1.0,0.0706408411498126,2.0,0.0
4.21939754486084,31.92462921142578,-1.6869635581970217,-0.0,-0.0,-1.0,0.1030072471369561,1.0,0.0
4.126224517822266,32.1461296081543,-1.7088375091552734,-0.0,-0.0,-1.0,0.0557687664273867,2.0,0.0
4.376442909240723,31.381635665893555,-1.6453773975372314,-0.0,-0.0,-1.0,0.1554877906259785,2.0,0.0
4.3284912109375,31.65103530883789,-1.6610510349273682,-0.0,-0.0,-1.0,0.0820768721065632,1.0,0.0
4.212669372558594,31.14995574951172,-1.665724754333496,0.6863830433380504,-0.6093106212146878,-0.3970124490402879,0.2009416958854805,3.0,0.0
3.89069938659668,31.082050323486328,-1.7170662879943848,-0.0,-0.0,-1.0,0.074293753148982,1.0,0.0
3.6952133178710938,31.049654006958008,-1.7486741542816162,-0.0,-0.0,-1.0,0.0700824924084607,1.0,0.0
4.69256591796875,32.73684310913086,-1.8675148487091064,-0.0,-0.0,-1.0,0.0869883840116463,1.0,0.0
4.518884658813477,32.52653503417969,-1.886650562286377,-0.0,-0.0,-1.0,0.036853271676974,1.0,0.0
4.459789276123047,32.256778717041016,-1.8839576244354248,-0.0,-0.0,-1.0,0.011354537943445,1.0,0.0
4.774028778076172,31.54086685180664,-1.7972781658172607,-0.0,-0.0,-1.0,0.0600530012288979,1.0,0.0
4.737048149108887,31.251195907592773,-1.791184902191162,-0.0,-0.0,-1.0,0.0478855524092627,1.0,0.0
4.43386173248291,31.24907684326172,-1.8446769714355469,-0.0,-0.0,-1.0,0.1170916156423714,1.0,0.0
4.358979225158691,30.884033203125,-1.8436048030853271,-0.0,-0.0,-1.0,0.0665409348049231,1.0,0.0
4.359219551086426,31.009071350097656,-1.8483574390411377,-0.0,-0.0,-1.0,0.0926774436420874,1.0,0.0
3.397089958190918,32.50801467895508,-1.3346107006072998,-0.0,-0.0,-1.0,0.1156687431475181,1.0,0.0
4.090761184692383,33.12556838989258,-1.572507381439209,-0.0,-0.0,-1.0,0.1009430645959306,1.0,0.0
3.786985397338867,33.03387451171875,-1.609372854232788,-0.0,-0.0,-1.0,0.0937427922389612,2.0,0.0
3.647383689880371,32.808319091796875,-1.615546703338623,-0.0,-0.0,-1.0,0.0892352574762281,1.0,0.0
3.1425323486328125,32.92104721069336,-1.6947507858276367,-0.0,-0.0,-1.0,0.0882834990710301,1.0,0.0
3.0250167846679688,32.93227767944336,-1.712428092956543,-0.0,-0.0,-1.0,0.1489110673993678,1.0,0.0
4.123203277587891,31.71888732910156,-1.4833872318267822,-0.0,-0.0,-1.0,0.052349239261114,1.0,0.0
4.038243293762207,31.927656173706055,-1.5076091289520264,-0.0,-0.0,-1.0,0.0677099134333922,1.0,0.0
4.0121002197265625,31.49541282653809,-1.487415075302124,-0.0,-0.0,-1.0,0.0297397929780631,1.0,0.0
3.832913398742676,31.23693466186523,-1.5003042221069336,0.0516055766362477,0.8739847715686604,-0.4832054258036811,0.1396818034047651,3.0,0.0
3.362368583679199,31.242786407470703,-1.5716326236724854,-0.0,-0.0,-1.0,0.0735270700308115,1.0,0.0
4.880192756652832,32.74009704589844,-1.9612761735916135,-0.0,-0.0,-1.0,0.0573711216312497,2.0,0.0
4.909045219421387,32.475582122802734,-1.9300428628921509,-0.0,-0.0,-1.0,0.0211023706906601,1.0,0.0
5.019365310668945,31.949161529541016,-1.8608931303024292,-0.0,-0.0,-1.0,0.0064462777154234,1.0,0.0
4.915104866027832,32.1494255065918,-1.896350979804993,-0.0,-0.0,-1.0,0.0142555402593322,1.0,0.0
5.122206687927246,31.708728790283203,-1.821755528450012,0.2594534547610775,-0.7419033783789988,-0.6182744390336461,0.0719593603687519,4.0,0.0
4.498915672302246,31.13487243652344,-1.8639358282089231,-0.0,-0.0,-1.0,0.0878489894908951,1.0,0.0
4.441204071044922,30.942630767822266,-1.855899453163147,-0.0,-0.0,-1.0,0.0748214186408368,1.0,0.0
2.986551284790039,32.95720291137695,-1.5529855489730835,-0.0,-0.0,-1.0,0.1271422051403376,1.0,0.0
2.7141246795654297,33.030418395996094,-1.5934964418411257,-0.0,-0.0,-1.0,0.2326795460481137,1.0,0.0
3.5435075759887695,32.507545471191406,-1.449980854988098,-0.0,-0.0,-1.0,0.0768056662128603,1.0,0.0
5.066164970397949,31.54892921447754,-1.8146404027938845,-0.0,-0.0,-1.0,0.0771403122275748,2.0,0.0
4.997214317321777,31.446849822998047,-1.8153289556503296,-0.0,-0.0,-1.0,0.1018079133350404,1.0,0.0
4.96903133392334,31.34283447265625,-1.809752106666565,-0.0,-0.0,-1.0,0.0176155377649477,1.0,0.0
4.40839958190918,30.849504470825195,-1.8529447317123413,-0.0,-0.0,-1.0,0.0639134374320238,1.0,0.0
4.266441345214844,33.06497573852539,-1.9190975427627563,-0.0,-0.0,-1.0,0.0674791258886025,1.0,0.0
4.396265983581543,32.80641174316406,-1.8716243505477903,-0.0,-0.0,-1.0,0.0428493640086361,2.0,0.0
4.35252571105957,32.55824661254883,-1.845549702644348,-0.0,-0.0,-1.0,0.0380248501573156,2.0,0.0
4.317537307739258,32.25933074951172,-1.8125056028366089,-0.0,-0.0,-1.0,0.0176370785532527,1.0,0.0
4.317014694213867,32.06748962402344,-1.7889970541000366,-0.0,-0.0,-1.0,0.053795324271784,1.0,0.0
4.4121551513671875,31.829063415527344,-1.7485612630844116,-0.0,-0.0,-1.0,0.0647825839123269,2.0,0.0
4.398287773132324,31.70673370361328,-1.7353695631027222,-0.0,-0.0,-1.0,0.0815598398967087,1.0,0.0
4.334482192993164,31.24015235900879,-1.6873499155044556,0.3968996421075029,-0.7312043154942099,-0.5548071044043862,0.1093029675130896,3.0,0.0
4.05449104309082,31.056875228881836,-1.700626254081726,0.8301067536892454,0.4237950052201134,-0.3623818028405768,0.1158292830545244,3.0,0.0
3.144974708557129,30.966562271118164,-1.807280421257019,-0.0,-0.0,-1.0,0.0580782947979375,1.0,0.0
3.517250061035156,30.865882873535156,-1.7475467920303345,-0.0,-0.0,-1.0,0.1117323071577904,1.0,0.0
4.278753280639648,32.92384719848633,-1.848142385482788,-0.0,-0.0,-1.0,0.0289939775975016,1.0,0.0
4.689485549926758,32.67073059082031,-1.7716500759124756,-0.0,-0.0,-1.0,0.0854126748616394,1.0,0.0
4.2267866134643555,32.62704086303711,-1.8129208087921145,-0.0,-0.0,-1.0,0.0341721095988827,1.0,0.0
4.256984710693359,32.14311981201172,-1.7445600032806396,-0.0,-0.0,-1.0,0.0629468760470781,1.0,0.0
4.410073280334473,31.751258850097656,-1.6758911609649658,-0.0,-0.0,-1.0,0.0919991605309856,2.0,0.0
3.060810089111328,31.326187133789062,-1.780341863632202,-0.0,-0.0,-1.0,0.0399808174705156,2.0,0.0
4.468503952026367,31.58661842346191,-1.647761583328247,-0.0,-0.0,-1.0,0.1234882639421653,1.0,0.0
4.340372085571289,31.280120849609375,-1.6222445964813232,-0.2463849985816443,0.4394858518314573,-0.863797787976967,0.1152585471458211,4.0,0.0
4.025716781616211,31.164560317993164,-1.6437828540802002,-0.0,-0.0,-1.0,0.0668376162736412,2.0,0.0
3.600566864013672,31.16832733154297,-1.6949121952056885,-0.0,-0.0,-1.0,0.0726376806022616,1.0,0.0
3.843729019165039,30.804462432861328,-1.620962381362915,-0.0,-0.0,-1.0,0.1400203452908714,1.0,0.0
2.7319135665893555,33.107383728027344,-1.5642783641815186,-0.0,-0.0,-1.0,0.2491593301191479,1.0,0.0
2.8816747665405273,32.5981559753418,-1.4854729175567627,-0.0,-0.0,-1.0,0.1715856894139584,2.0,0.0
3.5496692657470703,32.59765625,-1.4434826374053955,-0.0,-0.0,-1.0,0.0654789139880911,1.0,0.0
3.0215072631835938,33.073646545410156,-1.6273093223571775,-0.0,-0.0,-1.0,0.1736755123869661,1.0,0.0
2.858767509460449,33.08027267456055,-1.6346418857574463,-0.0,-0.0,-1.0,0.2168740492969399,2.0,0.0
3.1342926025390625,33.02670669555664,-1.6155803203582764,-0.0,-0.0,-1.0,0.0947940654021475,1.0,0.0
2.879033088684082,32.731258392333984,-1.5786559581756592,-0.0,-0.0,-1.0,0.1032116572312869,1.0,0.0
4.282752990722656,33.134666442871094,-1.5977556705474854,-0.0,-0.0,-1.0,0.0875452933393339,1.0,0.0
3.6532039642333984,30.978439331054688,-1.772141456604004,-0.0,-0.0,-1.0,0.087455631964765,1.0,0.0
3.8270130157470703,31.004486083984375,-1.7674262523651123,-0.9324761293362904,0.1245835582125733,-0.3390681424744948,0.0900700122315515,4.0,0.0
5.134593963623047,32.129302978515625,-1.9225232601165771,-0.0,-0.0,-1.0,0.0096082584706161,1.0,0.0
4.970955848693848,31.552032470703125,-1.8175048828125,-0.0,-0.0,-1.0,0.1163786603595911,1.0,0.0
4.589363098144531,31.387765884399418,-1.8015565872192385,-0.4110949037029959,-0.5799518711560885,0.7033184252470401,0.1221577363189618,3.0,0.0
4.3818254470825195,31.17647171020508,-1.7713806629180908,-0.0,-0.0,-1.0,0.1038231583442972,1.0,0.0
5.173443794250488,31.6635799407959,-1.831681966781616,-0.0,-0.0,-1.0,0.0707046560196705,2.0,0.0
2.9723587036132812,32.65026092529297,-1.4222581386566162,-0.0,-0.0,-1.0,0.1287781474728137,1.0,0.0
3.586920738220215,30.861522674560547,-1.7303084135055542,-0.0,-0.0,-1.0,0.0927938247510278,2.0,0.0
3.825876235961914,31.042924880981445,-1.745766520500183,-0.9324761293362904,0.1245835582125733,-0.3390681424744948,0.0917720780478191,4.0,0.0
3.736124038696289,30.96625518798828,-1.738446831703186,-0.0,-0.0,-1.0,0.0906285136288405,1.0,0.0
4.969249725341797,32.4404182434082,-1.9251788854599,-0.0,-0.0,-1.0,0.0178971237443247,1.0,0.0
4.854069709777832,32.258888244628906,-1.898638606071472,-0.0,-0.0,-1.0,0.0132473866668223,1.0,0.0
4.544541358947754,31.39741897583008,-1.7658604383468628,0.1930188465959677,-0.8342389977882065,-0.516516233460374,0.0768449655654541,4.0,0.0
4.329372406005859,31.058176040649418,-1.7200106382369995,-0.0,-0.0,-1.0,0.0839699221146483,2.0,0.0
4.8706159591674805,31.618152618408203,-1.7874375581741333,0.531249042112409,-0.7435542331444737,0.4060807279686902,0.1468213140770756,3.0,0.0
3.529438018798828,32.409324645996094,-1.3058477640151978,-0.0,-0.0,-1.0,0.0768056662128603,1.0,0.0
3.5695009231567383,30.936552047729492,-1.7311431169509888,-0.0,-0.0,-1.0,0.0892259795942565,1.0,0.0
4.506239891052246,32.223655700683594,-1.873374104499817,-0.0,-0.0,-1.0,0.0178713858215102,1.0,0.0
4.517004013061523,32.005271911621094,-1.838903307914734,-0.0,-0.0,-1.0,0.0216985720765626,1.0,0.0
4.647239685058594,32.168907165527344,-1.857798218727112,-0.0,-0.0,-1.0,0.0195974995304099,1.0,0.0
4.577205657958984,31.69176864624023,-1.7872554063796997,-0.0,-0.0,-1.0,0.1065263309215252,1.0,0.0
3.7440710067749023,31.023427963256836,-1.7331396341323853,-0.0,-0.0,-1.0,0.0880208567055304,1.0,0.0
3.62984848022461,30.95623016357422,-1.73025381565094,-0.0,-0.0,-1.0,0.0775357751517828,1.0,0.0
3.821969985961914,31.020694732666016,-1.7279566526412964,-0.9324761293362904,0.1245835582125733,-0.3390681424744948,0.0802650233498279,4.0,0.0
4.4656782150268555,31.362266540527344,-1.742495894432068,-0.0,-0.0,-1.0,0.1727060880080357,1.0,0.0
4.334752082824707,31.088769912719727,-1.7080377340316772,-0.0,-0.0,-1.0,0.0945613721590878,2.0,0.0
3.684244155883789,31.18400764465332,-1.687826156616211,-0.0,-0.0,-1.0,0.1005006254361439,1.0,0.0
4.177762985229492,31.09670066833496,-1.7090721130371094,-0.0,-0.0,-1.0,0.1177982167512157,2.0,0.0
3.99267578125,31.148313522338867,-1.7255187034606934,-0.0,-0.0,-1.0,0.119638120877856,1.0,0.0
4.324680328369141,31.567148208618164,-1.6519742012023926,-0.0,-0.0,-1.0,0.1627401846173451,1.0,0.0
4.176756858825684,31.18907356262207,-1.630453109741211,-0.6504441558598714,-0.7494689728011276,0.1233639287480826,0.179799335284076,3.0,0.0
3.937559127807617,31.12736701965332,-1.642200946807861,-0.0,-0.0,-1.0,0.1604404663822167,2.0,0.0
4.345108985900879,30.638307571411133,-1.892756462097168,-0.0,-0.0,-1.0,0.0836902645763639,1.0,0.0
4.222464561462402,31.63734436035156,-1.4425463676452637,-0.0,-0.0,-1.0,0.0559765278835717,1.0,0.0
4.091152191162109,31.288963317871097,-1.4187111854553225,-0.0,-0.0,-1.0,0.0865360764121656,1.0,0.0
3.8973264694213863,31.157470703125,-1.4188427925109863,-0.0,-0.0,-1.0,0.1024901075827008,1.0,0.0
5.041642189025879,31.143085479736328,-1.890353441238403,-0.0,-0.0,-1.0,0.0277006015052299,2.0,0.0
4.9461870193481445,31.504817962646484,-1.82003116607666,-0.0,-0.0,-1.0,0.1104871622979366,2.0,0.0
5.202220916748047,31.537254333496097,-1.8759591579437256,-0.0,-0.0,-1.0,0.0083904520169142,1.0,0.0
4.933494567871094,31.204681396484375,-1.8556911945343015,-0.0,-0.0,-1.0,0.0316786342151156,2.0,0.0
4.724316596984863,31.24371337890625,-1.8750231266021729,-0.0,-0.0,-1.0,0.0234118729755489,1.0,0.0
4.776182174682617,32.628318786621094,-1.8999226093292236,-0.0,-0.0,-1.0,0.0744027627310361,1.0,0.0
4.64523983001709,32.317626953125,-1.8734028339385984,-0.0,-0.0,-1.0,0.0109685277510161,2.0,0.0
4.577877044677734,31.473217010498047,-1.7802226543426514,-0.0,-0.0,-1.0,0.07869235265056,1.0,0.0
4.075623512268066,31.079383850097656,-1.7727468013763428,0.0810914540454997,0.1976641311411452,-0.9769099586661008,0.0871201252379544,5.0,0.0
4.297664642333984,32.83041763305664,-1.843639850616455,-0.0,-0.0,-1.0,0.0353968585920021,1.0,0.0
4.446444511413574,31.432008743286133,-1.6678476333618164,-0.8548234245199062,-0.4802563143279192,0.1965471583112389,0.1175359784750465,5.0,0.0
4.203104019165039,31.099294662475582,-1.6473169326782229,0.8321431436326544,0.0325928446768483,-0.5536022895373849,0.1411989172711904,4.0,0.0
3.9013242721557617,31.04828834533691,-1.664595127105713,-0.0,-0.0,-1.0,0.1536902316542781,1.0,0.0
3.206623077392578,31.900768280029297,-1.842512369155884,-0.0,-0.0,-1.0,0.048572028277737,1.0,0.0
4.345248222351074,31.23326873779297,-1.6705758571624756,0.3968996421075029,-0.7312043154942099,-0.5548071044043862,0.1093029675130896,3.0,0.0
4.414068222045898,31.463802337646484,-1.6919047832489014,-0.9866479598682718,-0.1532300221962571,0.0551938727171012,0.1249880694164569,4.0,0.0
4.18460750579834,31.121562957763672,-1.6706645488739014,0.8874379506222605,-0.2841929224565782,-0.3628887799601296,0.1214159487502932,5.0,0.0
3.930501937866211,31.13970184326172,-1.6936895847320557,-0.0,-0.0,-1.0,0.1593814261297465,2.0,0.0
4.384981155395508,32.796016693115234,-1.8359365463256836,-0.0,-0.0,-1.0,0.0430372670918375,2.0,0.0
4.493463516235352,31.29537582397461,-1.653949737548828,-0.687267174343029,-0.2921101466263242,-0.6650830724868108,0.1360303801803187,3.0,0.0
4.29140567779541,32.65492248535156,-1.826761245727539,-0.0,-0.0,-1.0,0.0525901322555891,1.0,0.0
4.308558464050293,31.057044982910156,-1.6407766342163086,-0.0,-0.0,-1.0,0.1822562581919805,2.0,0.0
4.059207916259766,31.07986068725586,-1.662940502166748,0.854697149621296,0.3887264949493794,-0.344070479049863,0.1181309747840748,3.0,0.0
3.2422895431518555,32.79351043701172,-1.7152338027954102,-0.0,-0.0,-1.0,0.0867964513638628,2.0,0.0
2.999239921569824,32.81963348388672,-1.7360725402832031,-0.0,-0.0,-1.0,0.141804349452436,2.0,0.0
2.9282798767089844,33.08736038208008,-1.771308422088623,-0.0,-0.0,-1.0,0.1696956561139241,1.0,0.0
4.183712005615234,31.6036319732666,-1.5134434700012207,-0.0,-0.0,-1.0,0.0546691263240693,2.0,0.0
3.873748779296875,31.2377872467041,-1.494400978088379,-0.0314781261572371,0.2551743167463691,-0.9663825307023366,0.1701801306824227,4.0,0.0
3.6912403106689458,31.504159927368164,-1.537600040435791,-0.0,-0.0,-1.0,0.0616437966454005,1.0,0.0
4.146334171295166,31.238590240478516,-1.5369606018066406,-0.0,-0.0,-1.0,0.1596847061983367,1.0,0.0
3.896329879760742,31.168136596679688,-1.543622970581055,-0.5006886446176991,0.7901594522504305,-0.3534952915813599,0.16824982833331,3.0,0.0
3.6233062744140625,31.639253616333008,-1.6204543113708496,-0.0,-0.0,-1.0,0.0448390231552132,2.0,0.0
3.057692527770996,32.8118896484375,-1.8047709465026855,-0.3735938848996128,-0.9192931948935296,0.1238048100360476,0.1150240620123851,3.0,0.0
3.213252067565918,32.90864562988281,-1.787613868713379,-0.0,-0.0,-1.0,0.0684968725430103,2.0,0.0
3.066587448120117,32.81135559082031,-1.7818951606750488,-0.3735938848996128,-0.9192931948935296,0.1238048100360476,0.1416646609124764,3.0,0.0
2.908456802368164,32.80832290649414,-1.7894883155822754,-0.0,-0.0,-1.0,0.1112788746579951,1.0,0.0
4.193999767303467,31.352428436279297,-1.5306940078735352,-0.0,-0.0,-1.0,0.1047583127093999,1.0,0.0
4.336238384246826,31.651086807250977,-1.5643305778503418,0.8772608996521487,-0.3362572833362039,-0.3425556208046488,0.0713770980839247,6.0,0.0
3.921778678894043,31.19378662109375,-1.5223336219787598,-0.2621056466625177,0.7569193262932413,-0.5986432689602453,0.1408659197360314,3.0,0.0
3.614142417907715,31.666454315185547,-1.6009092330932615,-0.0,-0.0,-1.0,0.0401917471567351,2.0,0.0
5.115303993225098,30.73377990722656,-1.8705463409423828,-0.0,-0.0,-1.0,0.0207459401609581,1.0,0.0
2.8067383766174316,32.557411193847656,-1.5048410892486572,-0.0,-0.0,-1.0,0.1484872508558589,2.0,0.0
4.700381755828857,32.367149353027344,-1.8688781261444092,-0.0,-0.0,-1.0,0.0184289395564218,1.0,0.0
4.7881693840026855,32.68290710449219,-1.909503698348999,-0.0254181373904545,-0.6825181763954463,-0.7304264899231371,0.0792284533177938,3.0,0.0
4.498464107513428,31.439794540405273,-1.7455003261566162,-0.0,-0.0,-1.0,0.1553785282067999,1.0,0.0
4.505521774291992,31.884347915649418,-1.8119380474090576,-0.0,-0.0,-1.0,0.0428250274305789,1.0,0.0
4.5509257316589355,32.396461486816406,-1.8854763507843015,-0.0,-0.0,-1.0,0.0248177641757988,1.0,0.0
4.211637496948242,31.039033889770508,-1.7091658115386963,-0.3630853048444492,-0.5376673665392144,-0.7609749433225772,0.0983164319817151,4.0,0.0
4.015596389770508,31.084922790527344,-1.7326939105987549,-0.0,-0.0,-1.0,0.1055221570764823,1.0,0.0
3.3583521842956543,32.8801383972168,-1.7399342060089111,-0.0,-0.0,-1.0,0.0467437571764962,1.0,0.0
3.066507339477539,32.90327072143555,-1.7626502513885498,-0.0,-0.0,-1.0,0.1529093767689203,1.0,0.0
2.821561813354492,32.743125915527344,-1.7551357746124268,-0.0,-0.0,-1.0,0.1067912525604198,1.0,0.0
4.093923568725586,31.654769897460938,-1.5086705684661863,-0.0,-0.0,-1.0,0.0542546250250233,1.0,0.0
3.8162574768066406,31.468141555786133,-1.49834942817688,-0.0,-0.0,-1.0,0.0587742753325505,1.0,0.0
4.357906818389893,32.608211517333984,-1.895125150680542,-0.0,-0.0,-1.0,0.0381913911139888,2.0,0.0
4.5009613037109375,33.042449951171875,-1.9573404788970947,-0.0,-0.0,-1.0,0.0174530940725996,1.0,0.0
4.192837715148926,31.09223747253418,-1.6569116115570068,0.7202371933899473,-0.1184306594085358,-0.6835441201340487,0.1316072886860409,3.0,0.0
4.417990207672119,31.432348251342773,-1.697089910507202,-0.7957971533254418,-0.5288258181945462,0.2950426151761676,0.0915930144836761,5.0,0.0
3.89346981048584,31.125492095947266,-1.6840541362762451,-0.0,-0.0,-1.0,0.1655902980785981,2.0,0.0
3.48708438873291,31.389074325561523,-1.7575819492340088,-0.0,-0.0,-1.0,0.0657926936789304,1.0,0.0
3.235311985015869,31.534536361694336,-1.8006479740142822,-0.0,-0.0,-1.0,0.0314307450670368,1.0,0.0
5.120403289794922,31.702817916870117,-1.80342435836792,0.6585316947767026,-0.7327531084739091,-0.1714902008755829,0.0719593603687518,3.0,0.0
5.18650484085083,31.79983901977539,-1.8167572021484375,-0.0,-0.0,-1.0,0.0446039837646596,1.0,0.0
5.088658809661865,32.93104553222656,-2.0284504890441895,-0.0,-0.0,-1.0,0.0181071520089085,1.0,0.0
4.89796781539917,31.56989097595215,-1.794003963470459,-0.0,-0.0,-1.0,0.1640908408306833,2.0,0.0
4.6020660400390625,31.400766372680664,-1.7834115028381348,-0.0,-0.0,-1.0,0.1139375009814479,2.0,0.0
4.056741237640381,31.090686798095703,-1.766102313995361,0.4103109900542392,-0.4574041557758583,-0.7889400038784218,0.0833672238176047,4.0,0.0
4.227818012237549,31.031042098999023,-1.7429842948913574,-0.0,-0.0,-1.0,0.0883195419945109,2.0,0.0
5.072271347045898,32.680091857910156,-2.0133461952209473,-0.0,-0.0,-1.0,0.0168373748276732,1.0,0.0
5.144962310791016,33.028953552246094,-2.0753936767578125,-0.0,-0.0,-1.0,0.0192228996271208,1.0,0.0
5.146198272705078,31.73168182373047,-1.8277015686035156,0.6585316947767026,-0.7327531084739091,-0.1714902008755829,0.0616865062733384,3.0,0.0
4.64514684677124,31.46446228027344,-1.809696674346924,-0.0,-0.0,-1.0,0.0645226944160855,2.0,0.0
4.857657432556152,31.59128189086914,-1.8196864128112793,0.531249042112409,-0.7435542331444737,0.4060807279686902,0.1055791803790672,3.0,0.0
4.543039321899414,31.41618537902832,-1.8074655532836912,0.1930188465959677,-0.8342389977882065,-0.516516233460374,0.1364188965293738,4.0,0.0
4.10929012298584,31.05818748474121,-1.7700443267822266,-0.4646985486009913,-0.8525185360134472,-0.2393060899384321,0.0984793275458051,4.0,0.0
3.4588494300842285,30.86003875732422,-1.780961990356445,-0.0,-0.0,-1.0,0.1049695270993975,1.0,0.0
5.1104230880737305,30.875476837158203,-1.8532729148864744,-0.0,-0.0,-1.0,0.0228554758593114,1.0,0.0
3.6156082153320312,32.975624084472656,-1.5987820625305176,-0.0,-0.0,-1.0,0.0456802817231654,1.0,0.0
4.184377193450928,32.84679412841797,-1.8223118782043457,-0.0,-0.0,-1.0,0.0341753016263269,1.0,0.0
2.9896321296691895,31.985414505004883,-1.7512798309326172,-0.0,-0.0,-1.0,0.0343083159670467,1.0,0.0
4.211792945861816,31.49925422668457,-1.5570111274719238,-0.0,-0.0,-1.0,0.0946149197621777,1.0,0.0
3.9820234775543217,31.180234909057617,-1.5127949714660645,-0.0,-0.0,-1.0,0.1435748341892383,2.0,0.0
3.7191452980041504,31.16818618774414,-1.5315685272216797,-0.0,-0.0,-1.0,0.1372090810579611,1.0,0.0
3.4734044075012207,31.32307243347168,-1.582050323486328,-0.0,-0.0,-1.0,0.0894862540859969,1.0,0.0
3.389636516571045,31.67695426940918,-1.657522678375244,-0.0,-0.0,-1.0,0.0357739160871138,1.0,0.0
3.122870445251465,31.892595291137695,-1.7218523025512695,-0.0,-0.0,-1.0,0.0448986451431605,1.0,0.0
5.197836875915527,32.45783615112305,-1.98783278465271,-0.0,-0.0,-1.0,0.0117979388576674,1.0,0.0
5.076078414916992,32.093109130859375,-1.9123623371124268,-0.0,-0.0,-1.0,0.0097350416516878,1.0,0.0
4.867505073547363,31.601619720458984,-1.8136403560638428,0.6805814856634654,0.4404052274093076,-0.5855357179905135,0.1520890633345531,4.0,0.0
4.680903434753418,31.48995590209961,-1.7989380359649658,-0.0,-0.0,-1.0,0.026096653153776,2.0,0.0
4.5576982498168945,31.42295837402344,-1.7910454273223877,-0.460016686356331,-0.7812114588210753,-0.4220110245957902,0.1276097087897612,5.0,0.0
4.119566917419434,31.043933868408203,-1.7334926128387451,-0.0,-0.0,-1.0,0.1599139527067392,2.0,0.0
2.734699249267578,33.00762176513672,-1.501173734664917,-0.0,-0.0,-1.0,0.2178694187686957,1.0,0.0
3.959401845932007,31.041969299316406,-1.743347406387329,-0.0,-0.0,-1.0,0.1219232553215411,2.0,0.0
3.5642499923706055,30.85152053833008,-1.7295873165130615,-0.0,-0.0,-1.0,0.0953970650484627,2.0,0.0
3.473053455352783,32.41898727416992,-1.3445136547088623,-0.0,-0.0,-1.0,0.0727128374894144,1.0,0.0
4.754764556884766,32.9783935546875,-1.9690537452697752,-0.0,-0.0,-1.0,0.0345576490182601,1.0,0.0
4.542428016662598,32.703765869140625,-1.915985107421875,-0.0,-0.0,-1.0,0.0703292590622081,1.0,0.0
4.589561462402344,32.90916442871094,-1.9603066444396973,-0.0,-0.0,-1.0,0.0306568958374552,1.0,0.0
4.312396049499512,31.276287078857425,-1.6040525436401367,-0.4885144650588717,-0.3083996133615808,-0.8162372791698941,0.1219492651784284,3.0,0.0
4.112624168395996,31.115386962890625,-1.577775001525879,0.8741071124090937,-0.350278874492948,-0.3365136938072351,0.2053136675750469,3.0,0.0
3.849877119064331,31.19936752319336,-1.610764980316162,-0.0574732307909193,-0.201072467361153,-0.9778888948197294,0.1031555992386194,4.0,0.0
3.530395984649658,31.57952880859375,-1.7141199111938477,-0.0,-0.0,-1.0,0.0436528833338169,1.0,0.0
3.33201265335083,31.781463623046875,-1.7711224555969238,-0.0,-0.0,-1.0,0.0297303881143136,2.0,0.0
5.088362216949463,31.60315704345703,-1.8235623836517336,-0.0,-0.0,-1.0,0.0746851326015466,1.0,0.0
4.852320194244385,31.53497314453125,-1.8139760494232176,-0.0,-0.0,-1.0,0.1003035699686344,2.0,0.0
4.649082183837891,31.41758728027344,-1.7915418148040771,-0.0,-0.0,-1.0,0.0646072947179758,1.0,0.0
4.527393341064453,31.42034149169922,-1.7966854572296145,0.1930188465959677,-0.8342389977882065,-0.516516233460374,0.1364188965293738,4.0,0.0
4.505138397216797,31.316722869873047,-1.7716963291168213,-0.0,-0.0,-1.0,0.1821310701177431,2.0,0.0
4.466457366943359,31.389244079589844,-1.791224718093872,-0.0,-0.0,-1.0,0.1391745638287636,1.0,0.0
4.168944358825684,31.035083770751953,-1.7149875164031982,-0.0,-0.0,-1.0,0.1016284257405258,2.0,0.0
3.810623168945313,31.027061462402344,-1.729196310043335,-0.9324761293362904,0.1245835582125733,-0.3390681424744948,0.0925477277279037,4.0,0.0
3.462919235229492,31.19786834716797,-1.788801908493042,-0.0,-0.0,-1.0,0.0384167781466678,1.0,0.0
2.86529541015625,32.48759841918945,-1.457923173904419,-0.0,-0.0,-1.0,0.1681300626031914,1.0,0.0
4.345414161682129,30.828014373779297,-1.8404791355133057,-0.0,-0.0,-1.0,0.0552862431053776,2.0,0.0
3.625407695770264,32.68065643310547,-1.7574241161346436,-0.0,-0.0,-1.0,0.1288483678088523,1.0,0.0
4.267905235290527,30.779754638671875,-1.8333508968353271,-0.9634958515593668,0.1185020629305578,-0.2400687507967102,0.0468940877285311,3.0,0.0
3.337533473968506,32.74563217163086,-1.797208547592163,-0.0,-0.0,-1.0,0.0439602083985026,1.0,0.0
3.1119632720947266,32.813011169433594,-1.832947015762329,-0.0,-0.0,-1.0,0.1112345480292872,2.0,0.0
2.9307427406311035,32.483707427978516,-1.77099871635437,-0.0,-0.0,-1.0,0.1399664437228325,1.0,0.0
2.7273037433624268,32.312660217285156,-1.7493245601654053,-0.0,-0.0,-1.0,0.1157759628340803,1.0,0.0
4.00048828125,31.77035903930664,-1.5093271732330322,-0.0,-0.0,-1.0,0.0551105933941399,1.0,0.0
4.099510669708252,31.931346893310547,-1.540158987045288,-0.0,-0.0,-1.0,0.0702977955024871,1.0,0.0
3.888412952423096,31.745330810546875,-1.512242555618286,-0.0,-0.0,-1.0,0.0401233144696959,1.0,0.0
4.585266590118408,32.853660583496094,-1.9435558319091797,-0.0,-0.0,-1.0,0.0387460175796751,1.0,0.0
4.649145126342773,32.71331787109375,-1.9018158912658691,-0.0,-0.0,-1.0,0.0902716504245467,1.0,0.0
4.309789180755615,31.447837829589844,-1.577329158782959,-0.0,-0.0,-1.0,0.1377666084210171,1.0,0.0
3.9604923725128174,31.198888778686523,-1.5328326225280762,-0.0717002152882253,-0.7673003105556023,-0.6372670653257537,0.153712842263045,3.0,0.0
3.650767326354981,31.42792510986328,-1.617213249206543,-0.0,-0.0,-1.0,0.0595389523469583,1.0,0.0
3.3059725761413574,31.789306640625,-1.7417874336242676,-0.0,-0.0,-1.0,0.0297303881143137,2.0,0.0
2.9270823001861572,31.763050079345703,-1.7660512924194336,-0.0,-0.0,-1.0,0.0350507747584662,1.0,0.0
2.8065502643585205,31.82320976257324,-1.7929091453552246,-0.0,-0.0,-1.0,0.027380695879127,1.0,0.0
4.047609806060791,31.15981674194336,-1.5161213874816897,-0.0,-0.0,-1.0,0.0857283226742667,1.0,0.0
4.133613586425781,33.10152816772461,-1.8254494667053225,-0.0,-0.0,-1.0,0.0766608473829813,2.0,0.0
3.861729145050049,32.699867248535156,-1.735393524169922,-0.8851199112071961,0.4089307094333166,-0.2221225284993169,0.0922973066804274,3.0,0.0
4.030651092529297,32.99651336669922,-1.804333209991455,-0.0,-0.0,-1.0,0.0641844946939787,1.0,0.0
3.678518295288086,32.64917755126953,-1.7371134757995603,-0.0,-0.0,-1.0,0.1278059478081199,1.0,0.0
3.4580283164978027,32.74340057373047,-1.7834243774414062,-0.0,-0.0,-1.0,0.0676567560336539,1.0,0.0
3.1539711952209473,32.6654052734375,-1.7905945777893066,-0.0,-0.0,-1.0,0.0816927736324775,1.0,0.0
2.8219282627105713,32.338462829589844,-1.733102321624756,-0.0,-0.0,-1.0,0.1477235718832756,1.0,0.0
3.0135223865509033,32.89501190185547,-1.5700304508209229,-0.0,-0.0,-1.0,0.1227593697533375,1.0,0.0
2.880216598510742,32.533485412597656,-1.4747750759124756,-0.0,-0.0,-1.0,0.1681300626031914,1.0,0.0
2.880977153778076,32.459293365478516,-1.2725090980529783,-0.0,-0.0,-1.0,0.1681300626031914,1.0,0.0
3.533746242523194,32.53709411621094,-1.2699737548828125,-0.0,-0.0,-1.0,0.061270262906182,1.0,0.0
5.075885772705078,30.93889617919922,-1.8011984825134275,-0.0,-0.0,-1.0,0.0235056001234985,1.0,0.0
4.853757858276367,30.695005416870117,-1.7780537605285645,-0.0,-0.0,-1.0,0.0148492294968601,1.0,0.0
2.8008766174316406,31.50334930419922,-1.7500808238983154,-0.0,-0.0,-1.0,0.0462681431433431,2.0,0.0
4.813053131103516,33.00605773925781,-2.0075299739837646,-0.0,-0.0,-1.0,0.0176119569919854,1.0,0.0
2.9151439666748047,31.483379364013672,-1.7420547008514404,-0.0,-0.0,-1.0,0.0433220564609312,1.0,0.0
4.632464408874512,32.52989196777344,-1.9110982418060305,-0.0188551865437819,-0.970038745799185,-0.2422174923260985,0.040488566464016,4.0,0.0
4.402895927429199,32.25189971923828,-1.8583028316497805,-0.0,-0.0,-1.0,0.0175768721268829,1.0,0.0
4.243717193603516,32.0301628112793,-1.8158328533172607,-0.0,-0.0,-1.0,0.0609758456471386,1.0,0.0
3.0699424743652344,31.46038818359375,-1.7321012020111084,-0.0,-0.0,-1.0,0.0457776444280378,1.0,0.0
3.365983009338379,31.23823928833008,-1.6761367321014404,-0.0,-0.0,-1.0,0.0398476597089972,1.0,0.0
4.275692939758301,31.70075225830078,-1.7456300258636477,-0.0,-0.0,-1.0,0.1646514724354451,1.0,0.0
4.246718406677246,31.304096221923828,-1.6630876064300537,-0.926022521774764,-0.3123157414810587,0.2119933177933755,0.1365302805985659,3.0,0.0
3.8851022720336914,31.035140991210938,-1.6174442768096924,-0.0,-0.0,-1.0,0.1197415612880984,1.0,0.0
4.042630195617676,30.98712921142578,-1.6025636196136477,-0.0,-0.0,-1.0,0.2338716026729697,1.0,0.0
2.8052196502685547,33.13473129272461,-1.7958319187164309,-0.0,-0.0,-1.0,0.2003462762106337,1.0,0.0
2.911409378051758,32.855648040771484,-1.7371070384979248,-0.0,-0.0,-1.0,0.1198551820783495,2.0,0.0
3.782102584838867,32.753822326660156,-1.6574194431304932,-0.0,-0.0,-1.0,0.1105993235896432,2.0,0.0
3.6245241165161137,32.659385681152344,-1.6506116390228271,-0.0,-0.0,-1.0,0.1734485334631031,2.0,0.0
3.087308883666992,32.79815673828125,-1.8173720836639404,-0.6379957687977937,0.1947759898346877,-0.7449991360934788,0.1112345480292872,5.0,0.0
4.09976863861084,33.056610107421875,-1.8395788669586184,-0.0,-0.0,-1.0,0.0897840932686726,1.0,0.0
