x,y,z,nx,ny,nz,curvature,density,label
44.913780212402344,-3.421056747436523,-0.6344852447509766,-0.0,-0.0,-1.0,0.2217072594087712,2.0,0.0
44.921653747558594,-2.615785598754883,-0.6637639999389648,-0.7206288533031876,-0.5161112489252319,-0.4629505745970843,0.2016129440325742,6.0,0.0
44.882774353027344,-2.878507614135742,-0.6506578922271729,0.3758336239602731,0.7702100143379886,-0.515291782308202,0.1613044079988539,3.0,0.0
42.72365951538086,-2.939983367919922,-0.941913604736328,-0.0,-0.0,-1.0,0.1716255751344742,1.0,0.0
42.849578857421875,-2.762885093688965,-0.9583070278167723,-0.5696673946166804,-0.4972130257642008,-0.6544144455320738,0.1208188223695454,3.0,0.0
42.82187271118164,-2.14632797241211,-0.9639897346496582,-0.0,-0.0,-1.0,0.0933112424870032,1.0,0.0
43.039756774902344,-2.4719629287719727,-0.9837262630462646,-0.0,-0.0,-1.0,0.0596667216002721,1.0,0.0
42.72096252441406,-2.7089242935180664,-0.9452226161956788,-0.0,-0.0,-1.0,0.1730488351003862,1.0,0.0
43.317596435546875,-3.987004280090332,-0.5723347663879395,-0.0,-0.0,-1.0,0.0870928931292603,1.0,0.0
43.931617736816406,-4.1556901931762695,-0.6291007995605469,-0.0495690071016605,-0.5673360390804524,-0.821993146136547,0.061103586085058,3.0,0.0
43.98607635498047,-3.883397102355957,-0.6354855298995972,-0.0742880552651717,-0.9964198157787302,-0.0403588350723825,0.0402493920032784,3.0,0.0
44.29658126831055,-3.7612476348876953,-0.6655397415161133,0.722418781258887,0.6914101836144613,-0.0079411887423376,0.0737687976773911,7.0,0.0
44.38092041015625,-3.470560073852539,-0.6753509044647217,0.5235412042789006,-0.8496167339782771,-0.0636868335394719,0.0135067524463965,3.0,0.0
43.04817962646485,-2.852602958679199,-0.5525099039077759,-0.0,-0.0,-1.0,0.1534977748139327,1.0,0.0
43.69888687133789,-2.930408477783203,-0.6139645576477051,-0.0,-0.0,-1.0,0.168344249806918,2.0,0.0
44.49584197998047,-3.138547897338867,-0.6887490749359131,-0.038120980429276,0.2491834348862615,-0.9677057438237076,0.0389195105537817,7.0,0.0
44.69191360473633,-2.954660415649414,-0.7091258764266968,0.799721633626214,0.2917422559382204,-0.5247206540725242,0.0931736722688938,3.0,0.0
43.359981536865234,-2.615671157836914,-0.5838040113449097,-0.0,-0.0,-1.0,0.2195558304493547,1.0,0.0
43.55571746826172,-2.4522600173950195,-0.6038261651992798,-0.0,-0.0,-1.0,0.1473585648115083,1.0,0.0
44.82612991333008,-2.6701488494873047,-0.7246869802474976,0.3101070995344431,-0.1477978253230484,-0.93914290161195,0.2159113731324742,4.0,0.0
44.15286636352539,-2.042867660522461,-0.6653356552124023,-0.0,-0.0,-1.0,0.1175829132030203,1.0,0.0
44.93244171142578,-2.254018783569336,-0.7392333745956421,-0.0,-0.0,-1.0,0.1169802912827323,2.0,0.0
45.03950500488281,-1.9683914184570312,-0.7529293298721313,-0.0,-0.0,-1.0,0.0917051029179911,2.0,0.0
43.04102325439453,-4.124277114868164,-0.6252716779708862,-0.0,-0.0,-1.0,0.0662570863524718,1.0,0.0
43.49341583251953,-4.116786956787109,-0.6679960489273071,-0.0,-0.0,-1.0,0.0301580449779807,1.0,0.0
43.74956512451172,-4.209951400756836,-0.6931915283203125,-0.0,-0.0,-1.0,0.1119046297978565,2.0,0.0
43.94501495361328,-3.84368896484375,-0.7082921266555786,-0.0,-0.0,-1.0,0.0337814801722975,2.0,0.0
44.27237319946289,-3.4311676025390625,-0.736824631690979,-0.0,-0.0,-1.0,0.0190579255993827,2.0,0.0
43.602264404296875,-2.913235664367676,-0.6676613092422485,-0.0,-0.0,-1.0,0.1995105191088763,1.0,0.0
44.44853973388672,-3.04263973236084,-0.7518254518508911,-0.0,-0.0,-1.0,0.0495730304116639,1.0,0.0
44.62583541870117,-2.9128971099853516,-0.7688215970993042,-0.1479547159175083,0.4179249543438648,-0.896352684256843,0.0661581248356126,4.0,0.0
44.754638671875,-2.7505111694335938,-0.781110405921936,-0.0,-0.0,-1.0,0.1384770615854563,2.0,0.0
44.86328125,-2.255213737487793,-0.790967583656311,-0.0,-0.0,-1.0,0.0897530263862926,2.0,0.0
44.95610809326172,-1.9643430709838867,-0.8002601861953735,-0.0,-0.0,-1.0,0.0459158646366145,1.0,0.0
43.037574768066406,-2.904995918273926,-0.6125290393829346,-0.0,-0.0,-1.0,0.1774878782071525,1.0,0.0
44.03362274169922,-2.0121612548828125,-0.7065814733505249,-0.0,-0.0,-1.0,0.2222814370496176,1.0,0.0
44.019901275634766,-4.185542106628418,-0.6646358966827393,-0.0,-0.0,-1.0,0.0801473072137192,1.0,0.0
44.3393440246582,-3.7554931640625,-0.6954174041748047,-0.0,-0.0,-1.0,0.080556060157888,1.0,0.0
43.726043701171875,-4.357732772827148,-0.6358861923217773,-0.0,-0.0,-1.0,0.0820231465244298,2.0,0.0
43.93262481689453,-4.117854118347168,-0.655275821685791,0.2208033676091982,-0.4845712313778373,-0.8464257761749722,0.0560498600340555,5.0,0.0
44.282569885253906,-3.78874397277832,-0.6896004676818848,0.8273936418559478,0.3125930230397019,-0.4665890733431847,0.0909303332041205,5.0,0.0
44.43421173095703,-3.36029052734375,-0.7039607763290405,-0.0,-0.0,-1.0,0.0271311775472662,2.0,0.0
44.591552734375,-3.036007881164551,-0.7200424671173096,0.84816087047024,0.4231771726666693,-0.3186600356759672,0.0635032313949784,4.0,0.0
44.80174255371094,-2.891359329223633,-0.7424638271331787,0.6624603230279046,-0.6909552761918828,-0.2893564008560434,0.1443280323996006,5.0,0.0
44.90496826171875,-2.680063247680664,-0.7536964416503906,-0.2180752364308644,-0.9759163530246122,-0.0055193436894766,0.1579644847003467,3.0,0.0
44.98773956298828,-2.310732841491699,-0.7633814811706543,-0.0073349891226093,-0.5688552987898097,-0.8224049166762852,0.0870098555916849,4.0,0.0
45.19285583496094,-2.161290168762207,-0.7863054275512695,-0.0,-0.0,-1.0,0.055547029160108,1.0,0.0
43.98120880126953,-1.8887920379638672,-0.6547098159790039,-0.2412277221692905,-0.8472491354812536,-0.4732632338173794,0.2445689080889922,4.0,0.0
45.11376190185547,-1.9320974349975584,-0.7785391807556152,-0.0,-0.0,-1.0,0.0797396932976267,2.0,0.0
42.734771728515625,-3.016371726989746,-0.90312659740448,-0.0,-0.0,-1.0,0.1787986810925655,1.0,0.0
42.990577697753906,-2.8691492080688477,-0.9067474603652954,-0.0,-0.0,-1.0,0.1557243026018149,1.0,0.0
43.100975036621094,-2.6052751541137695,-0.8918412923812866,0.5734461450383126,-0.2933499845135239,-0.7649217641867784,0.0845562000727736,3.0,0.0
43.13289260864258,-2.2896928787231445,-0.8679341077804565,-0.0,-0.0,-1.0,0.0713439232128852,1.0,0.0
43.54068756103515,-2.1294593811035156,-0.8848270177841187,-0.0,-0.0,-1.0,0.0412666240954908,2.0,0.0
43.76173782348633,-1.989767074584961,-0.8908413648605347,-0.0,-0.0,-1.0,0.1224837781286296,1.0,0.0
44.13280487060547,-1.868967056274414,-0.9105290174484252,0.1716509725526058,-0.9794158388465688,0.1062099724047446,0.1537758070651418,3.0,0.0
45.16268157958984,-3.5557336807250977,-0.3225439786911011,-0.0,-0.0,-1.0,0.1458736209841411,1.0,0.0
43.10365676879883,-1.938918113708496,-0.8379148244857788,-0.0,-0.0,-1.0,0.1997278004079472,2.0,0.0
43.05400848388672,-2.857071876525879,-0.8784782886505127,-0.1766559094265954,0.3339572293610899,-0.925886201766787,0.1798203078041263,3.0,0.0
42.73688888549805,-3.0274715423583984,-0.8458905220031738,-0.0,-0.0,-1.0,0.166152271286401,2.0,0.0
42.89633560180664,-2.8969125747680664,-0.8608987331390381,0.85137927374874,0.2251960007336741,-0.4737510881091746,0.2326218524182167,3.0,0.0
43.134071350097656,-2.5708436965942383,-0.8802342414855957,0.5033970890929487,-0.2005534894330223,-0.8404580111873431,0.143492570327851,3.0,0.0
43.25389099121094,-2.4932594299316406,-0.8925848007202148,-0.0,-0.0,-1.0,0.1101071268277404,2.0,0.0
43.103397369384766,-2.0851078033447266,-0.8641414642333984,-0.0,-0.0,-1.0,0.1974381732467252,2.0,0.0
43.46392822265625,-2.0534448623657227,-0.9072368144989014,-0.0,-0.0,-1.0,0.0798516558949813,1.0,0.0
44.8972053527832,-4.269436836242676,-0.362668514251709,0.6101314276295132,0.2920406278088127,-0.7365133486419694,0.1865457342482357,3.0,0.0
45.13005065917969,-3.481903076171875,-0.3813211917877197,-0.0,-0.0,-1.0,0.2251221598857866,1.0,0.0
42.894775390625,-2.688091278076172,-0.9816170930862428,-0.0,-0.0,-1.0,0.0865803259152729,1.0,0.0
42.78577423095703,-2.3054418563842773,-0.9517430067062378,-0.0,-0.0,-1.0,0.0858824090106541,2.0,0.0
42.91972351074219,-2.367177963256836,-0.9708067178726196,-0.0,-0.0,-1.0,0.0729801804318075,2.0,0.0
42.971717834472656,-1.9640350341796875,-0.960422158241272,-0.9907951898042662,-0.1007543669317923,0.0904071313829938,0.1639666372332379,3.0,0.0
44.55184173583984,-4.261874198913574,-0.5139907598495483,-0.0,-0.0,-1.0,0.15910572363106,2.0,0.0
44.681884765625,-4.088800430297852,-0.5228967666625977,-0.526229178323497,-0.020783348942551,-0.8500887625934772,0.0626214792148303,4.0,0.0
44.93076705932617,-3.825106620788574,-0.5417418479919434,-0.0186733244420907,-0.5475863991268841,-0.8365407595840941,0.1070030494040298,3.0,0.0
44.88608169555664,-3.4581565856933594,-0.530673623085022,0.8206883605356832,-0.2310492972181941,-0.522577111186695,0.1781866276780109,6.0,0.0
45.18672180175781,-3.4735260009765625,-0.5602632761001587,-0.0,-0.0,-1.0,0.1597846952150819,2.0,0.0
42.879127502441406,-4.329730987548828,-0.6231522560119629,0.0751793362515474,-0.8199803605435853,-0.5674330583633531,0.118586819475692,4.0,0.0
43.17716979980469,-4.136686325073242,-0.6456125974655151,-0.0,-0.0,-1.0,0.053171466403654,2.0,0.0
43.6141242980957,-4.197446823120117,-0.693500280380249,0.3615080381662879,-0.8065208311597513,-0.4677991954316997,0.0347295165257312,3.0,0.0
43.67476272583008,-3.873445510864258,-0.6871273517608643,-0.0,-0.0,-1.0,0.0259903399347636,2.0,0.0
44.01611328125,-3.792735099792481,-0.7204028367996216,0.7956566379055285,-0.5605508653298847,-0.2295936452404292,0.0780923417784156,3.0,0.0
43.84282684326172,-3.392012596130371,-0.6868891716003418,-0.0708045166567704,0.9818841634467556,0.175756109405808,0.0891460209449248,5.0,0.0
43.99998092651367,-3.4825239181518555,-0.7072101831436157,-0.0,-0.0,-1.0,0.084320860999719,2.0,0.0
44.25634765625,-3.2366743087768555,-0.7263845205307007,-0.048867956364298,0.127421356363022,-0.9906440939022374,0.0281585098876855,3.0,0.0
44.39500045776367,-3.0478286743164062,-0.7351747751235962,-0.0,-0.0,-1.0,0.0423355535304964,2.0,0.0
43.540340423583984,-2.8345251083374023,-0.6338880062103271,-0.0,-0.0,-1.0,0.1919723189699545,2.0,0.0
44.621315002441406,-2.897343635559082,-0.755428671836853,-0.3544820523742022,0.5488507564730934,-0.7570371996563219,0.0654140134977254,3.0,0.0
44.716007232666016,-2.412496566772461,-0.7508491277694702,-0.0,-0.0,-1.0,0.1651270381665888,1.0,0.0
44.978553771972656,-2.2854080200195312,-0.7770642042160034,-0.6825173880421889,-0.3654480083939451,-0.6329437322392628,0.0893026399642865,4.0,0.0
43.955543518066406,-1.978409767150879,-0.6512852907180786,-0.0,-0.0,-1.0,0.231288447538476,2.0,0.0
44.99909973144531,-2.08990478515625,-0.7738546133041382,-0.0,-0.0,-1.0,0.0696324219201412,1.0,0.0
42.878074645996094,-4.345671653747559,-0.611661434173584,-0.1808033892004307,-0.5672349677777031,-0.8034641409446137,0.1094884431562329,3.0,0.0
43.06551361083984,-4.2732133865356445,-0.6276276111602783,-0.0,-0.0,-1.0,0.0914257444966421,1.0,0.0
43.188133239746094,-4.127199172973633,-0.6335970163345337,0.3683766682524378,0.5361852880898479,-0.759476113596234,0.0526332509482178,3.0,0.0
43.68085479736328,-4.159419059753418,-0.6874105930328369,-0.0,-0.0,-1.0,0.0627226846341759,2.0,0.0
43.76761245727539,-3.869162559509278,-0.6837543249130249,-0.7965756531631734,0.1089274985964526,-0.5946444558197644,0.0301190535433989,3.0,0.0
44.05613708496094,-3.73945426940918,-0.7096152305603027,0.8138536801820474,-0.3141884780411416,0.4888024013037667,0.0736290685184745,3.0,0.0
43.88164138793945,-3.3877267837524414,-0.6753783226013184,-0.0708045166567704,0.9818841634467556,0.175756109405808,0.0892660199208966,5.0,0.0
44.2740592956543,-3.414658546447754,-0.7201278209686279,-0.1118595053003421,0.7122552946591164,-0.6929501037621815,0.0189106062152767,3.0,0.0
44.41548538208008,-3.208693504333496,-0.7276256084442139,-0.0,-0.0,-1.0,0.0394941770577295,2.0,0.0
44.574371337890625,-3.0075502395629883,-0.7378044128417969,0.5810550563830928,0.4384058067960223,-0.6856933498431859,0.0594235766325376,7.0,0.0
43.46662521362305,-2.43479061126709,-0.5896856784820557,-0.0,-0.0,-1.0,0.2190516733126805,1.0,0.0
44.77326202392578,-2.673518180847168,-0.7480614185333252,0.6797261535726933,-0.7186162361091738,-0.1468436629533434,0.2304298059749488,4.0,0.0
44.90978240966797,-2.6285009384155273,-0.7622091770172119,0.3409452917724474,-0.2671230753197491,-0.9013332184325172,0.2379584242829552,4.0,0.0
44.7825927734375,-2.338550567626953,-0.7369629144668579,-0.0,-0.0,-1.0,0.100784612074424,2.0,0.0
45.09186172485352,-2.198145866394043,-0.7684941291809082,-0.0,-0.0,-1.0,0.1042719520677107,1.0,0.0
43.991947174072266,-1.909383773803711,-0.6293635368347168,-0.2412277221692905,-0.8472491354812536,-0.4732632338173794,0.1929409320398319,4.0,0.0
45.193885803222656,-1.8729677200317385,-0.7698636054992676,-0.0,-0.0,-1.0,0.0784406911807129,1.0,0.0
42.88669967651367,-3.010690689086914,-0.9489645957946776,-0.0,-0.0,-1.0,0.2740941363561269,1.0,0.0
42.998443603515625,-2.7511157989501953,-0.941270112991333,-0.0,-0.0,-1.0,0.0582890174052219,1.0,0.0
42.99382781982422,-2.324625015258789,-0.9072952270507812,-0.0,-0.0,-1.0,0.0662001922612198,1.0,0.0
43.1370849609375,-1.988180160522461,-0.8989486694335938,-0.0,-0.0,-1.0,0.185029039045362,2.0,0.0
43.460792541503906,-1.8886804580688477,-0.9315152168273926,-0.0,-0.0,-1.0,0.1413362892381905,1.0,0.0
44.23162460327149,-4.291524887084961,-0.5641821622848511,-0.0,-0.0,-1.0,0.0983387732423238,1.0,0.0
44.43723678588867,-4.1197662353515625,-0.5748978853225708,-0.0,-0.0,-1.0,0.1508820729980473,2.0,0.0
44.71628189086914,-3.941469192504883,-0.5927748680114746,-0.0,-0.0,-1.0,0.1255774509869277,1.0,0.0
44.8968620300293,-3.7176551818847656,-0.5995399951934814,0.6858917306659758,0.7221439175474728,0.0897813797689789,0.1064858028871302,3.0,0.0
45.02442169189453,-3.3504323959350586,-0.5946856737136841,0.9354405776984756,-0.2941788084971393,-0.1959840662562789,0.110111685420412,4.0,0.0
45.10368728637695,-3.058561325073242,-0.5892057418823242,-0.0,-0.0,-1.0,0.1454317815514475,2.0,0.0
42.79436111450195,-2.986750602722168,-0.8587136268615723,-0.0917685555570298,0.1453492152053548,-0.9851152916538064,0.2432975250751991,4.0,0.0
43.06235122680664,-2.851996421813965,-0.8782393932342529,0.0715834647578042,0.3196313656569229,-0.9448341641058278,0.1847798636197534,4.0,0.0
43.23918533325195,-2.6840381622314453,-0.8853306770324707,-0.0,-0.0,-1.0,0.1290586800486241,1.0,0.0
43.24098587036133,-2.3392133712768555,-0.8577735424041748,-0.0,-0.0,-1.0,0.1208542865933415,1.0,0.0
43.6771354675293,-2.157454490661621,-0.8968000411987305,-0.0,-0.0,-1.0,0.052741334296022,1.0,0.0
43.85878372192383,-2.0417890548706055,-0.9105753898620604,-0.0,-0.0,-1.0,0.1353567425560755,2.0,0.0
44.06667709350586,-1.862685203552246,-0.9236364364624025,-0.0,-0.0,-1.0,0.1526129607164122,2.0,0.0
44.4913330078125,-4.250235557556152,-0.5346057415008545,-0.406738148352433,-0.0663397034338904,-0.9111328785765213,0.263563514596915,3.0,0.0
44.71891403198242,-3.9970312118530273,-0.5435276031494141,-0.0,-0.0,-1.0,0.0743679947885574,1.0,0.0
45.029991149902344,-3.630509376525879,-0.5558208227157593,0.9043806346503916,-0.0916699323709547,-0.4167640713502779,0.0606331761498699,7.0,0.0
43.21417236328125,-2.016974449157715,-0.8290615081787109,0.4740388073762622,0.5109718190741503,-0.7170739217217045,0.2185146116455141,3.0,0.0
42.96754837036133,-1.8767805099487305,-0.788104772567749,-0.0,-0.0,-1.0,0.2142964976744787,1.0,0.0
43.94231414794922,-4.334207534790039,-0.5773926973342896,-0.0,-0.0,-1.0,0.0868228677070531,1.0,0.0
44.27001953125,-4.242330551147461,-0.5994681119918823,-0.0,-0.0,-1.0,0.0882748308580966,1.0,0.0
44.42514419555664,-4.049365997314453,-0.5995455980300903,0.366896216973949,-0.8608132297093081,-0.3526864748294651,0.1096104916894282,4.0,0.0
44.626258850097656,-3.891016960144043,-0.606620192527771,-0.0,-0.0,-1.0,0.099954396575301,2.0,0.0
44.84026718139648,-3.689639091491699,-0.6124807596206665,-0.0,-0.0,-1.0,0.1574783507209175,1.0,0.0
42.84306335449219,-2.973341941833496,-0.9142597913742064,-0.0,-0.0,-1.0,0.2300086981279254,2.0,0.0
44.978973388671875,-3.256734848022461,-0.596105694770813,0.5391791053152472,-0.2831165535008296,-0.793177728838412,0.0803439579688164,3.0,0.0
43.01213073730469,-2.647976875305176,-0.8988324403762817,-0.0,-0.0,-1.0,0.1171690757014961,1.0,0.0
43.07917785644531,-2.192244529724121,-0.860106348991394,-0.0,-0.0,-1.0,0.1141435604815395,2.0,0.0
43.406517028808594,-2.121753692626953,-0.8899811506271362,-0.0,-0.0,-1.0,0.0671996234070235,2.0,0.0
43.60974884033203,-2.030496597290039,-0.904373288154602,-0.0,-0.0,-1.0,0.0544421895027399,2.0,0.0
43.801116943359375,-1.8647146224975584,-0.9109436273574828,-0.0,-0.0,-1.0,0.141373133573615,2.0,0.0
42.813724517822266,-3.957212448120117,-0.7108457088470459,-0.0,-0.0,-1.0,0.0886891684455274,1.0,0.0
43.06874084472656,-3.870784759521485,-0.7251284122467041,-0.0,-0.0,-1.0,0.0791979972732154,1.0,0.0
43.37168884277344,-3.86502456665039,-0.7524280548095703,-0.0,-0.0,-1.0,0.1015724755020831,1.0,0.0
43.61128616333008,-3.58758544921875,-0.7479360103607178,0.4315319079563917,0.1183140679640653,-0.8943053134904828,0.0178229906278692,6.0,0.0
43.74962615966797,-3.5040674209594727,-0.753288745880127,-0.0,-0.0,-1.0,0.0469824531364242,2.0,0.0
44.35454177856445,-3.02349853515625,-0.769284725189209,0.5914534635655462,0.4734328178660569,-0.6527205890760028,0.09730690514729,3.0,0.0
44.4869384765625,-2.940013885498047,-0.7755968570709229,-0.2964622909122987,-0.3239407200501781,-0.8984278045343457,0.0592897481690647,7.0,0.0
44.68688201904297,-2.7648534774780273,-0.7812011241912842,0.3095477133673602,0.9488963061340344,0.0614492746435907,0.172121339498342,3.0,0.0
42.75779342651367,-3.964649200439453,-0.7066594362258911,-0.0,-0.0,-1.0,0.0671700612390146,1.0,0.0
43.00152587890625,-3.7501516342163086,-0.706756591796875,-0.6246942949278877,-0.0192455682984332,-0.7806322091647383,0.1105312847841959,3.0,0.0
43.26655578613281,-3.683159828186035,-0.7245361804962158,-0.0,-0.0,-1.0,0.0376529323080704,1.0,0.0
42.97284698486328,-3.5911245346069336,-0.6881629228591919,-0.0,-0.0,-1.0,0.1017582956679053,1.0,0.0
43.6266975402832,-2.966475486755371,-0.689537525177002,0.079422680632257,0.99680882898401,-0.0080122569050802,0.1986142985131918,3.0,0.0
43.89722442626953,-3.03389835357666,-0.7231624126434326,-0.0,-0.0,-1.0,0.0250203621729085,1.0,0.0
44.23217010498047,-3.035390853881836,-0.7576353549957275,-0.1708048639773236,0.5322401037369673,-0.829184038929688,0.0972599203432498,4.0,0.0
42.902305603027344,-2.7562074661254883,-0.5986315011978149,-0.0,-0.0,-1.0,0.1175892735467898,2.0,0.0
43.30766296386719,-2.653092384338379,-0.6278557777404785,-0.0,-0.0,-1.0,0.2746846639953968,1.0,0.0
43.54121398925781,-2.833014488220215,-0.6682597398757935,0.9907202894080452,0.0860655722025619,-0.1051951778204895,0.139839412392398,4.0,0.0
44.347938537597656,-2.9263381958007812,-0.7596566677093506,-0.3306324986649647,0.4111867384826882,-0.8494749065879059,0.0427897728533357,5.0,0.0
43.32655334472656,-2.0988903045654297,-0.577035665512085,-0.0,-0.0,-1.0,0.1144118065037375,1.0,0.0
44.801456451416016,-2.392849922180176,-0.7608530521392822,-0.0,-0.0,-1.0,0.1105780916072033,1.0,0.0
43.31998825073242,-1.869032859802246,-0.5548110008239746,-0.0,-0.0,-1.0,0.1879149384581695,2.0,0.0
43.946510314941406,-1.895559310913086,-0.6232144832611084,-0.0879645101910097,-0.6115902139597782,-0.7862694545354592,0.219811421451186,5.0,0.0
45.06782913208008,-2.0604114532470703,-0.7621631622314453,-0.0,-0.0,-1.0,0.0813486277065514,1.0,0.0
42.769805908203125,-3.0023717880249023,-0.9641472101211548,-0.0,-0.0,-1.0,0.168359699984628,1.0,0.0
42.941707611083984,-2.8178672790527344,-0.951137900352478,-0.0,-0.0,-1.0,0.1197256341287115,1.0,0.0
43.06394958496094,-2.4926204681396484,-0.9148625135421752,-0.0,-0.0,-1.0,0.0865233263484261,2.0,0.0
42.906211853027344,-1.884150505065918,-0.8160461187362671,-0.0,-0.0,-1.0,0.2147299776086375,1.0,0.0
43.15243148803711,-2.124370574951172,-0.8705736398696899,-0.5180240634245102,0.4619357300766418,-0.7199072516593503,0.2141028140272455,4.0,0.0
43.54673767089844,-2.117009162902832,-0.903852105140686,-0.0,-0.0,-1.0,0.0798652731804031,2.0,0.0
43.77079391479492,-2.036273956298828,-0.9128357172012328,-0.0,-0.0,-1.0,0.0472072577077826,2.0,0.0
43.99354553222656,-1.9094343185424805,-0.9163211584091188,-0.0,-0.0,-1.0,0.15169233146076,1.0,0.0
43.15017318725586,-4.285526275634766,-0.6411277055740356,0.0352364943873998,-0.3959041604630127,-0.9176155432376696,0.0713749889705624,4.0,0.0
43.5621452331543,-4.325689315795898,-0.6707404851913452,-0.4053088414664309,0.4745067439105668,-0.781388567239457,0.0332692419412313,3.0,0.0
43.80242156982422,-4.291953086853027,-0.6820365190505981,0.0240132314969331,0.6550388846856194,-0.7552134958161794,0.1345786779654441,3.0,0.0
43.28229904174805,-3.97609806060791,-0.6142817735671997,-0.0,-0.0,-1.0,0.1074353049294053,2.0,0.0
43.80484771728515,-4.182709693908691,-0.6700918674468994,-0.0,-0.0,-1.0,0.1032328216594477,2.0,0.0
44.0501708984375,-4.076208114624023,-0.6743987798690796,-0.5888450600847276,0.7723545138003489,-0.2381806042188153,0.0647945042891658,5.0,0.0
44.30967330932617,-3.808527946472168,-0.6626261472702026,0.8739453109466405,0.43265669286594,-0.221422175024742,0.119960862000333,6.0,0.0
44.479454040527344,-3.728931427001953,-0.6657787561416626,0.9886718787039824,0.1409438437310052,-0.0516018330514319,0.0639159011041225,4.0,0.0
44.72345733642578,-3.4984426498413086,-0.6585100889205933,-0.0,-0.0,-1.0,0.1278965241486964,2.0,0.0
44.93773651123047,-3.0919504165649414,-0.6314890384674072,0.5560373165385885,-0.380267280660405,-0.7390665043659512,0.0899837926314381,4.0,0.0
45.08582305908203,-2.9122886657714844,-0.623995304107666,-0.0,-0.0,-1.0,0.1054316005375071,2.0,0.0
42.92094421386719,-2.912891387939453,-0.8242700099945068,-0.0,-0.0,-1.0,0.1540157642924665,2.0,0.0
43.1622428894043,-2.6640329360961914,-0.8050003051757812,-0.669177010011328,0.0858845722042366,-0.7381232752932224,0.1642176261784866,3.0,0.0
43.35068893432617,-2.6361331939697266,-0.8143374919891357,-0.0,-0.0,-1.0,0.1377422176613946,2.0,0.0
43.44553756713867,-2.2855072021484375,-0.771817684173584,-0.0,-0.0,-1.0,0.2449880937153445,1.0,0.0
43.51075744628906,-2.403836250305176,-0.7932748794555664,-0.0,-0.0,-1.0,0.2591347261117976,2.0,0.0
43.94464492797851,-2.541783332824707,-0.8454201221466064,-0.0,-0.0,-1.0,0.0215648433105043,2.0,0.0
43.5706787109375,-1.9692516326904297,-0.7372443675994873,-0.0,-0.0,-1.0,0.1499847377647491,1.0,0.0
44.12434768676758,-2.30770492553711,-0.8274149894714355,0.5362926493589751,-0.7059866935098245,-0.4625721379748206,0.1045232539250885,3.0,0.0
44.49005889892578,-1.9779157638549805,-0.8131060600280762,-0.1262752780826907,0.2457865411811556,-0.9610637493524264,0.0448230753371846,4.0,0.0
44.6342658996582,-2.0661659240722656,-0.8372008800506592,-0.0,-0.0,-1.0,0.0481147465247575,1.0,0.0
44.0191650390625,-4.279241561889648,-0.5620807409286499,-0.0,-0.0,-1.0,0.0803532367284768,1.0,0.0
44.24995422363281,-4.206779479980469,-0.5666201114654541,0.3332209221922518,-0.5451566172284534,-0.7692646356783693,0.0800240698815581,4.0,0.0
44.52555084228515,-3.9277029037475586,-0.5517090559005737,-0.0,-0.0,-1.0,0.1490993545126288,2.0,0.0
44.8493537902832,-3.78159236907959,-0.5550537109375,0.9385245283689996,-0.0194784700214084,-0.3446625869678524,0.1436541964407569,3.0,0.0
45.05058288574219,-3.3709421157836914,-0.5238834619522095,0.3314527297888049,0.8349992663124652,-0.4392212576517599,0.2034495924864905,4.0,0.0
45.138885498046875,-3.508448600769043,-0.543897271156311,-0.0,-0.0,-1.0,0.1666374494989816,2.0,0.0
42.756839752197266,-3.0267629623413086,-0.8536036014556885,-0.0,-0.0,-1.0,0.1558956069156988,2.0,0.0
43.107643127441406,-2.808208465576172,-0.8473653793334961,-0.8783422872808965,0.3250079256675099,-0.3505491044453909,0.1774245553683831,5.0,0.0
43.9407958984375,-2.4450464248657227,-0.86313796043396,-0.0,-0.0,-1.0,0.0301687275361814,1.0,0.0
44.129844665527344,-2.2613630294799805,-0.8538148403167725,-0.0,-0.0,-1.0,0.1149558974834187,2.0,0.0
44.55093765258789,-1.9404220581054688,-0.8482489585876465,0.7988421284645306,0.5490988676212102,0.2456454505325974,0.0474771671871098,3.0,0.0
42.85694885253906,-2.8267202377319336,-0.8310256004333496,-0.0,-0.0,-1.0,0.251543550061151,2.0,0.0
43.92291259765625,-4.255331993103027,-0.6119529008865356,-0.2035646866191212,0.6675704549502426,-0.7161781245187437,0.1080711344236522,4.0,0.0
43.192726135253906,-2.6612415313720703,-0.8323113918304443,0.0565425296722731,-0.8974456821369733,-0.4374862168708437,0.116691767885188,4.0,0.0
44.256744384765625,-4.077661514282227,-0.6126576662063599,-0.0,-0.0,-1.0,0.0511305508719027,2.0,0.0
44.37594985961914,-4.096879005432129,-0.6226295232772827,-0.0,-0.0,-1.0,0.1057658631020397,1.0,0.0
43.247032165527344,-2.3467884063720703,-0.7906110286712646,-0.0,-0.0,-1.0,0.2528429553226614,1.0,0.0
43.41481018066406,-2.444055557250977,-0.8185064792633057,-0.0,-0.0,-1.0,0.1702049856717988,2.0,0.0
44.54684066772461,-3.837632179260254,-0.6046333312988281,-0.1560367212576275,0.8576651994188546,0.4899621896891494,0.1536597465306231,6.0,0.0
44.66355895996094,-3.841373443603515,-0.6130208969116211,-0.0,-0.0,-1.0,0.1104107512530354,2.0,0.0
43.625022888183594,-2.3569889068603516,-0.8233773708343506,-0.0,-0.0,-1.0,0.0547461868227572,2.0,0.0
44.9661865234375,-3.4314441680908203,-0.5886709690093994,-0.0,-0.0,-1.0,0.1690107435688249,1.0,0.0
44.924808502197266,-3.616196632385254,-0.6061056852340698,0.5475415306219711,-0.4266908325262845,-0.7198147023242686,0.1368748454387307,4.0,0.0
45.09786605834961,-3.156213760375977,-0.5681841373443604,0.7110563152475171,0.6219306743899042,-0.3280261465181431,0.1335380504717588,3.0,0.0
42.83500671386719,-3.623412132263184,-0.779798150062561,-0.0,-0.0,-1.0,0.127299787003578,1.0,0.0
42.903785705566406,-3.7092819213867183,-0.7968882322311401,-0.0,-0.0,-1.0,0.0831553405269591,1.0,0.0
43.12789535522461,-3.50826644897461,-0.7809551954269409,-0.0,-0.0,-1.0,0.0611200923800916,2.0,0.0
43.15993881225586,-3.5791187286376953,-0.7935079336166382,-0.0,-0.0,-1.0,0.0692241335087129,1.0,0.0
42.92827224731445,-2.085780143737793,-0.970594048500061,0.4606840298794987,0.7925114335913017,-0.39961963445387,0.1369953465121642,3.0,0.0
43.55126953125,-3.259420394897461,-0.7729545831680298,-0.0,-0.0,-1.0,0.0248711248706708,1.0,0.0
43.5546875,-3.388391494750977,-0.7917996644973755,-0.0,-0.0,-1.0,0.0153440608495998,1.0,0.0
44.036102294921875,-3.027200698852539,-0.77466881275177,-0.0,-0.0,-1.0,0.0302219602259208,1.0,0.0
44.22337341308594,-2.9294166564941406,-0.775286078453064,-0.0,-0.0,-1.0,0.1272167640201473,2.0,0.0
44.35836410522461,-2.960944175720215,-0.7901703119277954,-0.4623462762340684,0.5039839457494218,-0.7295451345045999,0.0993318090929939,3.0,0.0
44.76394271850586,-2.673884391784668,-0.7834745645523071,0.959823781578552,-0.1248552436538193,-0.2512955957600405,0.1341567367521964,3.0,0.0
44.46811294555664,-2.88204574584961,-0.7878895998001099,0.9998221089533236,-0.0140364116478465,-0.0125987934414569,0.0604804287684183,5.0,0.0
44.85768508911133,-2.572629928588867,-0.7776485681533813,-0.0,-0.0,-1.0,0.2265616180549419,1.0,0.0
43.09614181518555,-4.348038673400879,-0.4218827486038208,-0.0,-0.0,-1.0,0.1256997274515114,1.0,0.0
42.880409240722656,-2.5493974685668945,-0.6237552165985107,-0.0,-0.0,-1.0,0.19043003909193,1.0,0.0
43.00111389160156,-3.2395715713500977,-0.7331501245498657,-0.0,-0.0,-1.0,0.1361387126453762,2.0,0.0
43.275169372558594,-2.4976205825805664,-0.6432933807373047,-0.0,-0.0,-1.0,0.1143160761124031,1.0,0.0
43.24787521362305,-3.1486730575561523,-0.7359780073165894,-0.0,-0.0,-1.0,0.0278515742921448,1.0,0.0
43.3833122253418,-1.9718875885009768,-0.5758986473083496,-0.0,-0.0,-1.0,0.1927860878295483,1.0,0.0
43.48384094238281,-2.6681175231933594,-0.6827296018600464,-0.0,-0.0,-1.0,0.1536043103141949,2.0,0.0
43.717323303222656,-2.8677845001220703,-0.7283066511154175,-0.0,-0.0,-1.0,0.1628402331251339,1.0,0.0
44.479591369628906,-4.296113014221191,-0.4863650798797607,0.920743176749947,0.1195576970123129,-0.3713999993989338,0.1795879408553675,5.0,0.0
43.92392349243164,-1.9251041412353516,-0.611382007598877,-0.0,-0.0,-1.0,0.2198114214511859,2.0,0.0
44.8111457824707,-3.999722480773926,-0.4724956750869751,-0.3263487492161654,0.1823435536246153,-0.9274951872309593,0.0947929022377151,3.0,0.0
44.827674865722656,-4.156581878662109,-0.4908241033554077,-0.0,-0.0,-1.0,0.1132089239844981,2.0,0.0
45.02885437011719,-3.432415008544922,-0.423973798751831,-0.0,-0.0,-1.0,0.1846824315121573,1.0,0.0
45.10410690307617,-3.765298843383789,-0.4647120237350464,-0.0,-0.0,-1.0,0.0972767156590826,1.0,0.0
43.004886627197266,-2.8695406913757324,-0.7975375652313232,-0.0,-0.0,-1.0,0.2324739307062585,1.0,0.0
42.87063980102539,-3.1098599433898926,-0.8162829875946045,-0.8738939622495057,-0.4035908144193452,-0.2709682587687891,0.1319351602072745,3.0,0.0
43.2187614440918,-1.9135375022888184,-0.6880695819854736,0.9418562713188032,-0.2919507793975319,-0.1663475475822055,0.200217791646177,5.0,0.0
43.349002838134766,-2.430511951446533,-0.7778201103210449,-0.0,-0.0,-1.0,0.2415022207985372,1.0,0.0
43.26145553588867,-2.663217067718506,-0.7998483180999756,-0.0,-0.0,-1.0,0.1962837996676649,1.0,0.0
43.68094253540039,-2.36287260055542,-0.8116018772125244,-0.0,-0.0,-1.0,0.048473829403437,1.0,0.0
43.85968780517578,-2.5150370597839355,-0.8564350605010986,-0.0,-0.0,-1.0,0.0211882219645791,2.0,0.0
44.08713150024414,-4.004878520965576,-0.6255736351013184,-0.0,-0.0,-1.0,0.0393431336902859,2.0,0.0
43.96915054321289,-4.157820224761963,-0.6298940181732178,-0.0582509823872321,-0.8081896219839725,-0.5860344341148614,0.0618163140249043,3.0,0.0
44.05378341674805,-2.20593786239624,-0.8402824401855469,-0.0,-0.0,-1.0,0.15277616355828,2.0,0.0
44.3824577331543,-3.792236804962158,-0.6348836421966553,-0.0,-0.0,-1.0,0.0848368970753721,2.0,0.0
44.21730422973633,-4.002603054046631,-0.6396031379699707,-0.0,-0.0,-1.0,0.0555802097239463,2.0,0.0
44.38774108886719,-1.982572078704834,-0.8566012382507324,-0.0,-0.0,-1.0,0.0742001758347278,2.0,0.0
44.57398223876953,-3.653651714324951,-0.6414331197738647,0.3142861520533807,0.1369624490906251,-0.9393963498793132,0.093455471615959,3.0,0.0
43.11420822143555,-4.350186824798584,-0.5625946521759033,-0.0,-0.0,-1.0,0.1159666385587559,2.0,0.0
44.7904052734375,-3.2736659049987793,-0.6257383823394775,0.6009522055314096,-0.767503614607468,0.2231471447977888,0.1521828300400216,3.0,0.0
44.68085479736328,-3.522489070892334,-0.6395614147186279,-0.0,-0.0,-1.0,0.1012465522939136,1.0,0.0
45.01012420654297,-2.9456801414489746,-0.6172995567321777,-0.2450282390598544,-0.9685044553269414,0.0442750728411767,0.1142951916077541,5.0,0.0
44.84881210327149,-3.073554515838623,-0.6114201545715332,-0.0,-0.0,-1.0,0.0926176358987447,2.0,0.0
42.71981430053711,-2.1400790214538574,-0.946600079536438,-0.0,-0.0,-1.0,0.0679085547854602,1.0,0.0
42.75802230834961,-2.4069533348083496,-0.9982510805130004,-0.0,-0.0,-1.0,0.0439586047645135,1.0,0.0
42.77789688110352,-3.2667651176452637,-0.7559255361557007,-0.0,-0.0,-1.0,0.1165758440721293,1.0,0.0
42.86973190307617,-3.584651470184326,-0.8135758638381958,-0.0,-0.0,-1.0,0.1236900992758741,1.0,0.0
43.157440185546875,-2.0073657035827637,-0.8107260465621948,-0.0,-0.0,-1.0,0.2410880057796424,1.0,0.0
42.97718048095703,-2.2262625694274902,-1.0017224550247192,-0.0,-0.0,-1.0,0.0780181414130691,1.0,0.0
43.0068359375,-2.9746527671813965,-0.7448312044143677,-0.0,-0.0,-1.0,0.2813424032912395,2.0,0.0
43.27962875366211,-3.251368999481201,-0.8207796812057495,-0.0,-0.0,-1.0,0.0174005894738729,1.0,0.0
43.09461975097656,-3.460033893585205,-0.8252331018447876,-0.0,-0.0,-1.0,0.0903671069023479,1.0,0.0
43.34587860107422,-2.460324764251709,-0.7204294204711914,-0.0,-0.0,-1.0,0.2329099869599024,1.0,0.0
43.52345657348633,-2.7848620414733887,-0.7900885343551636,-0.0,-0.0,-1.0,0.1238738613182447,1.0,0.0
43.41873550415039,-3.0122313499450684,-0.8065913915634155,0.6793783858151472,0.2203648729967755,-0.6999173748638617,0.040903437817424,3.0,0.0
44.07646942138672,-2.2824511528015137,-0.8038054704666138,-0.0,-0.0,-1.0,0.1479278454313347,1.0,0.0
43.96453857421875,-2.645756244659424,-0.8351470232009888,0.7131508678701642,0.2713714509915154,-0.6463539086621131,0.0195060546238245,3.0,0.0
44.242156982421875,-2.29276704788208,-0.8304091691970825,-0.1099899116098247,-0.981944862828704,0.1539042095213154,0.1003503357620517,4.0,0.0
44.14916229248047,-2.5111842155456543,-0.8447240591049194,-0.0,-0.0,-1.0,0.0400978074349677,2.0,0.0
44.53834533691406,-2.0545945167541504,-0.8456836938858032,-0.504071807487419,-0.8137872981248221,0.2892435760860877,0.0800244342217006,3.0,0.0
43.304080963134766,-1.9293580055236816,-0.6424407958984375,-0.0385383076132543,0.8978051869311663,0.4387033680812119,0.1805030046783496,3.0,0.0
43.765567779541016,-3.6455817222595215,-0.5235934257507324,-0.0,-0.0,-1.0,0.0635114229785831,1.0,0.0
43.82950973510742,-4.351220607757568,-0.6079108715057373,0.2070344981633127,-0.8895612517767483,-0.407206944817558,0.0968814788990011,3.0,0.0
44.19649887084961,-4.181766986846924,-0.6333557367324829,-0.0,-0.0,-1.0,0.0541693688107793,2.0,0.0
44.52170944213867,-3.882903575897217,-0.6416269540786743,-0.0,-0.0,-1.0,0.1875156931978567,1.0,0.0
44.960426330566406,-3.10731840133667,-0.6181113719940186,0.0491671178110945,-0.9037762523830862,-0.4251718242717103,0.1383751607913118,4.0,0.0
44.89773941040039,-3.3989386558532715,-0.6394003629684448,0.7612519153319036,0.4478785489244204,-0.4689353119747579,0.2312285638255359,3.0,0.0
44.78520584106445,-3.684656620025635,-0.6541762351989746,-0.0,-0.0,-1.0,0.1242522305156868,1.0,0.0
42.787261962890625,-4.2499260902404785,-0.7000349760055542,-0.0,-0.0,-1.0,0.1753783776002904,2.0,0.0
42.94496154785156,-2.048170566558838,-0.737152099609375,-0.0,-0.0,-1.0,0.1769776142441513,1.0,0.0
42.89740753173828,-2.9398436546325684,-0.8793795108795166,-0.3984867818513974,0.3542350901012626,-0.846005783449893,0.227263420641575,3.0,0.0
43.11316680908203,-3.935424327850342,-0.6958149671554565,0.9520056497787022,-0.2914895754415176,0.0933759615658911,0.0454747202730757,3.0,0.0
43.006591796875,-4.084496021270752,-0.7034915685653687,-0.0,-0.0,-1.0,0.0642254177745462,2.0,0.0
43.246883392333984,-2.190279960632324,-0.8092284202575684,0.9163706830653648,0.1623604372978085,-0.3659287630383557,0.102609901145496,3.0,0.0
43.19226837158203,-2.6338276863098145,-0.8733108043670654,0.2145596410542533,-0.6895428890781974,-0.691733159934062,0.1267489172014189,5.0,0.0
43.12087631225586,-2.83552885055542,-0.8957648277282715,0.3984156913501822,0.871148560106897,0.2869932457561268,0.1395856901610712,4.0,0.0
43.44761657714844,-3.877211093902588,-0.7311811447143555,-0.0,-0.0,-1.0,0.0585162026318366,2.0,0.0
43.62782287597656,-2.2096753120422363,-0.8754165172576904,-0.0,-0.0,-1.0,0.03879316058869,1.0,0.0
43.9047966003418,-3.2489218711853027,-0.7079068422317505,-0.4244976688029542,0.437399712815802,-0.7927693361940227,0.0557318133816641,3.0,0.0
43.81678771972656,-3.638512134552002,-0.7481808662414551,-0.0,-0.0,-1.0,0.0257203373278295,2.0,0.0
43.952369689941406,-2.027522087097168,-0.9025599956512452,-0.0,-0.0,-1.0,0.1488874620124196,1.0,0.0
44.311187744140625,-3.028357982635498,-0.7374846935272217,-0.0,-0.0,-1.0,0.0449950700897884,1.0,0.0
44.16719436645508,-3.2222142219543457,-0.7419121265411377,-0.0,-0.0,-1.0,0.0738756553826677,2.0,0.0
44.512939453125,-2.958627223968506,-0.7584445476531982,0.2816814000527544,-0.4141741907588211,-0.8655144877895434,0.0990342893783481,6.0,0.0
44.38707733154297,-3.0373005867004395,-0.7498140335083008,0.0073877365908639,-0.8099327520668499,-0.5864762215789165,0.0429963431526893,3.0,0.0
44.8469352722168,-2.4134206771850586,-0.7415566444396973,-0.0,-0.0,-1.0,0.1244829554976359,1.0,0.0
44.84366989135742,-2.6731390953063965,-0.7728748321533203,-0.1998174063163027,-0.1499944029607892,-0.9682844020294152,0.176293574953614,4.0,0.0
44.05294418334961,-1.9446682929992676,-0.5610858201980591,-0.0,-0.0,-1.0,0.1862334438135067,1.0,0.0
44.8164176940918,-3.5560479164123535,-0.4759961366653442,-0.0,-0.0,-1.0,0.124844982187459,1.0,0.0
44.72771453857422,-4.060540676116943,-0.5161581039428711,-0.0,-0.0,-1.0,0.0662890054900447,2.0,0.0
44.636383056640625,-4.232565402984619,-0.5226666927337646,0.6627112060493272,0.5835638707093503,-0.4693261831385152,0.1352658975629781,4.0,0.0
45.05060577392578,-3.5684123039245605,-0.5069063901901245,-0.0,-0.0,-1.0,0.0742166712504626,2.0,0.0
44.942291259765625,-3.890827655792236,-0.5254157781600952,-0.0,-0.0,-1.0,0.0921851819659007,2.0,0.0
42.82778549194336,-2.937605381011963,-0.9887746572494508,-0.0,-0.0,-1.0,0.2424589689698791,1.0,0.0
42.72819519042969,-3.7459521293640137,-0.7976306676864624,-0.0,-0.0,-1.0,0.0682652042325944,1.0,0.0
43.00040054321289,-2.529577255249023,-0.9353967905044556,0.7366294414229307,0.6536029446478367,-0.1737246579407137,0.1040253907108137,3.0,0.0
42.85943984985352,-2.7420473098754883,-0.7978814840316772,-0.0,-0.0,-1.0,0.2358954291973053,2.0,0.0
43.06725311279297,-3.272637844085694,-0.7621885538101196,-0.0,-0.0,-1.0,0.1305806806646597,2.0,0.0
43.0300178527832,-3.6897244453430176,-0.8296114206314087,-0.0,-0.0,-1.0,0.0965642260190135,1.0,0.0
43.19430160522461,-2.1151108741760254,-0.8886498212814331,-0.0,-0.0,-1.0,0.2269263487204297,2.0,0.0
43.18494415283203,-2.5252866744995117,-0.807613730430603,0.755816533990968,-0.4804897826176676,-0.4448268604141458,0.1497664083698068,4.0,0.0
43.41783142089844,-2.887679100036621,-0.7494360208511353,-0.0,-0.0,-1.0,0.0767098425845012,1.0,0.0
43.405670166015625,-3.290618896484375,-0.8155854940414429,-0.0,-0.0,-1.0,0.0115953579416309,1.0,0.0
43.36565399169922,-3.4429640769958496,-0.8354967832565308,-0.0,-0.0,-1.0,0.0103315389733389,1.0,0.0
43.61500549316406,-2.0318470001220703,-0.9515506029129028,-0.0,-0.0,-1.0,0.0544421895027399,2.0,0.0
43.53797149658203,-2.4755964279174805,-0.7004703283309937,-0.0,-0.0,-1.0,0.2274306901364708,1.0,0.0
43.70894241333008,-2.8419084548950195,-0.7877095937728882,-0.0,-0.0,-1.0,0.106803482011402,1.0,0.0
44.0051155090332,-4.125342845916748,-0.673642635345459,-0.4289808543437824,0.2620404670623105,-0.8644710638466999,0.0863955172530517,3.0,0.0
43.866249084472656,-4.3043694496154785,-0.6808285713195801,-0.0,-0.0,-1.0,0.1249628939607791,2.0,0.0
43.92707824707031,-1.959859848022461,-0.8381146192550659,-0.0,-0.0,-1.0,0.1778036968593976,1.0,0.0
44.15069961547851,-2.3534626960754395,-0.7827280759811401,-0.0,-0.0,-1.0,0.1057979498974373,2.0,0.0
44.132781982421875,-2.7241926193237305,-0.837948203086853,-0.0,-0.0,-1.0,0.0519865630477024,1.0,0.0
44.27001190185547,-3.939441204071045,-0.6833702325820923,-0.0,-0.0,-1.0,0.0612500861251841,2.0,0.0
44.37174606323242,-2.270125389099121,-0.8080886602401733,0.8208365928604897,-0.5565417106495116,-0.1284079909059323,0.055693151668151,3.0,0.0
44.6298942565918,-3.5282201766967773,-0.6780062913894653,-0.0,-0.0,-1.0,0.0174082915722618,2.0,0.0
44.47408676147461,-3.732614040374756,-0.6831740140914917,0.9886718787039824,0.1409438437310052,-0.0516018330514319,0.0691114709599635,4.0,0.0
44.84797668457031,-1.8668861389160156,-0.8340796232223511,-0.0,-0.0,-1.0,0.0269967916345522,2.0,0.0
44.73450469970703,-2.1216416358947754,-0.850136399269104,-0.0,-0.0,-1.0,0.0388390986175004,1.0,0.0
44.82758712768555,-3.240917205810547,-0.6689985990524292,0.9758403376795276,-0.1468094875311295,0.1618104129169466,0.0611254324488505,3.0,0.0
44.795616149902344,-3.2823596000671387,-0.6696732044219971,-0.0,-0.0,-1.0,0.1054025467521725,2.0,0.0
43.11935043334961,-4.3430962562561035,-0.5938769578933716,0.3686733668125818,-0.9177935459684982,-0.1474277978593105,0.1311108154268811,3.0,0.0
43.30457305908203,-1.979935646057129,-0.582513689994812,-0.4934405144827737,0.4727574161450208,-0.7300800532454365,0.1592138800089586,3.0,0.0
44.71432876586914,-3.267453670501709,-0.6559805870056152,-0.0526847237863465,-0.0977320002178391,-0.993817274962041,0.0963478409413563,3.0,0.0
45.00724411010742,-2.8089070320129395,-0.6412210464477539,0.9572692903714832,-0.1909478473243255,-0.2171967433316683,0.0675901063144666,3.0,0.0
44.92529296875,-2.999329090118408,-0.6528321504592896,-0.0,-0.0,-1.0,0.0863561425473699,2.0,0.0
45.16350173950195,-3.568350315093994,-0.3813420534133911,-0.0,-0.0,-1.0,0.1474510727985255,1.0,0.0
45.15632629394531,-4.221923351287842,-0.4473896026611328,-0.0,-0.0,-1.0,0.1084776366615781,1.0,0.0
45.1529541015625,-2.8633084297180176,-0.6699517965316772,-0.0,-0.0,-1.0,0.1087404249073755,2.0,0.0
42.80562210083008,-3.028961658477783,-0.8685815334320068,-0.0917685555570298,0.1453492152053548,-0.9851152916538064,0.1633712028354215,4.0,0.0
43.1663818359375,-2.630782127380371,-0.8624582290649414,-0.0,-0.0,-1.0,0.1190413023768803,2.0,0.0
43.054229736328125,-2.893121242523194,-0.8915231227874756,-0.1766559094265954,0.3339572293610899,-0.925886201766787,0.1543881353490898,3.0,0.0
43.435691833496094,-2.4485836029052734,-0.8865671157836914,-0.0,-0.0,-1.0,0.0669585496628861,1.0,0.0
43.30427932739258,-2.677493095397949,-0.9014310836791992,-0.0,-0.0,-1.0,0.1273449950220828,1.0,0.0
43.82048797607422,-2.112013339996338,-0.9133028984069824,-0.0,-0.0,-1.0,0.0598919384833135,2.0,0.0
43.63837432861328,-2.2559165954589844,-0.8963966369628906,-0.0,-0.0,-1.0,0.0380676592689826,2.0,0.0
44.10913848876953,-1.8765873908996584,-0.942551612854004,-0.0778616885170408,-0.9783619834883178,0.1916908623958882,0.1495584681257483,4.0,0.0
42.851707458496094,-2.7537403106689453,-0.5455549955368042,-0.0,-0.0,-1.0,0.1013396438806379,2.0,0.0
42.944828033447266,-3.8424978256225586,-0.7568786144256592,0.7016854123619796,-0.0835536609001553,-0.7075707511115624,0.0998991482920901,4.0,0.0
42.807899475097656,-3.98154878616333,-0.759584903717041,-0.0,-0.0,-1.0,0.0898633909560205,2.0,0.0
43.19684600830078,-2.377379894256592,-0.8195500373840332,-0.0,-0.0,-1.0,0.1435364335689183,2.0,0.0
42.966922760009766,-2.7782888412475586,-0.5710161924362183,-0.0,-0.0,-1.0,0.1171726262497558,2.0,0.0
43.162357330322266,-3.690602779388428,-0.7672820091247559,-0.0,-0.0,-1.0,0.0525220301162372,2.0,0.0
43.296287536621094,-2.0744175910949707,-0.6526156663894653,0.5696073847018217,0.3042822909675141,-0.7635179858370801,0.1276642670980012,3.0,0.0
43.31399154663086,-2.34275484085083,-0.8390681743621826,-0.0,-0.0,-1.0,0.2030577242491775,2.0,0.0
43.55304718017578,-2.950035572052002,-0.7112042903900146,-0.0,-0.0,-1.0,0.1335021909600703,1.0,0.0
43.615943908691406,-3.2611842155456543,-0.7756462097167969,-0.0,-0.0,-1.0,0.0315076445928052,1.0,0.0
43.496368408203125,-3.512176990509033,-0.7961704730987549,-0.0,-0.0,-1.0,0.0162120899738498,2.0,0.0
43.80868911743164,-2.1004719734191895,-0.7665286064147949,-0.0,-0.0,-1.0,0.1491481756164022,1.0,0.0
43.95768356323242,-2.915503978729248,-0.7854599952697754,-0.6145209335503654,-0.6346991536149176,-0.4685306891003988,0.0191569685908694,4.0,0.0
43.84711456298828,-3.012683868408203,-0.77915358543396,-0.0,-0.0,-1.0,0.0256322409187183,1.0,0.0
44.04119873046875,-4.075422763824463,-0.6584888696670532,-0.5888450600847276,0.7723545138003489,-0.2381806042188153,0.0801989783942829,5.0,0.0
43.93011474609375,-4.277620315551758,-0.6693938970565796,-0.0,-0.0,-1.0,0.1003119359765155,1.0,0.0
44.307403564453125,-2.3475565910339355,-0.7706360816955566,-0.0,-0.0,-1.0,0.0851137811403599,1.0,0.0
44.28417205810547,-2.771963119506836,-0.8298912048339844,-0.0,-0.0,-1.0,0.0899660697633905,1.0,0.0
44.14897537231445,-2.9702882766723633,-0.8328325748443604,-0.0,-0.0,-1.0,0.1024849238384496,1.0,0.0
44.507808685302734,-3.5896859169006348,-0.6708797216415405,-0.0,-0.0,-1.0,0.0369057961564947,2.0,0.0
44.34577560424805,-3.8697428703308105,-0.6808986663818359,0.9511170587757312,-0.2427143815200781,0.1909609109454807,0.1032898299862828,3.0,0.0
44.59568786621094,-2.2681527137756348,-0.8218951225280762,-0.0,-0.0,-1.0,0.0513162350829748,1.0,0.0
44.75312423706055,-2.808727741241455,-0.6153045892715454,-0.0,-0.0,-1.0,0.1203709845168205,1.0,0.0
44.79393005371094,-3.0882959365844727,-0.6576361656188965,-0.2047215486857676,0.0778971334989863,-0.9757156983959728,0.0701224481229,5.0,0.0
44.67761993408203,-3.4244608879089355,-0.6793696880340576,-0.0,-0.0,-1.0,0.0867156334870387,2.0,0.0
44.97071838378906,-1.8636770248413088,-0.8495151996612549,-0.0,-0.0,-1.0,0.042949805169823,1.0,0.0
44.80631637573242,-2.072209358215332,-0.8410944938659668,0.1383130947023052,0.087097340365007,-0.9865513373034438,0.0569794892105692,3.0,0.0
45.13656997680664,-2.753210067749023,-0.681486964225769,-0.1350666124671729,-0.8762619365176164,-0.4625170578552094,0.0649719490542634,3.0,0.0
45.02033233642578,-2.8967432975769043,-0.6763501167297363,-0.0,-0.0,-1.0,0.0893230808831512,1.0,0.0
44.9666633605957,-3.999361991882324,-0.4558054208755493,-0.0,-0.0,-1.0,0.0959006157394671,1.0,0.0
44.81916809082031,-4.1867570877075195,-0.4535760879516601,-0.0,-0.0,-1.0,0.1473100010857361,2.0,0.0
42.838623046875,-4.1915130615234375,-0.7449716329574585,-0.0,-0.0,-1.0,0.1110445931526984,1.0,0.0
43.42884063720703,-3.80078649520874,-0.7790082693099976,-0.0,-0.0,-1.0,0.0532759838324448,1.0,0.0
43.31631851196289,-3.8865737915039062,-0.7734953165054321,-0.0,-0.0,-1.0,0.1100115963895223,1.0,0.0
43.601558685302734,-3.6205801963806152,-0.7802268266677856,0.2857468819557944,0.6259244757975646,-0.7256495504374583,0.0191108679727858,3.0,0.0
43.9154167175293,-3.358673095703125,-0.798871636390686,-0.0,-0.0,-1.0,0.1233870929130096,1.0,0.0
43.86896133422851,-3.443911075592041,-0.8040891885757446,-0.0,-0.0,-1.0,0.0905092862154068,1.0,0.0
44.42869186401367,-2.8167243003845215,-0.824691891670227,-0.111181586411714,-0.9733810883511868,0.2004193395938467,0.0745980793320204,3.0,0.0
44.27434539794922,-2.963719367980957,-0.8120373487472534,-0.0,-0.0,-1.0,0.1245600756691599,2.0,0.0
44.56900405883789,-2.614063262939453,-0.8267182111740112,-0.0,-0.0,-1.0,0.0235908736261438,1.0,0.0
43.00074768066406,-3.827672004699707,-0.7003782987594604,0.8543589986684654,-0.3604919367150683,-0.3743210720192444,0.0747756358342175,7.0,0.0
42.89339065551758,-4.036509037017822,-0.7231601476669312,-0.0,-0.0,-1.0,0.067520295590652,1.0,0.0
43.08158493041992,-2.827651023864746,-0.5223472118377686,-0.0,-0.0,-1.0,0.1605797837231339,1.0,0.0
43.22881317138672,-3.7916431427001953,-0.7379778623580933,-0.0,-0.0,-1.0,0.0384119112840787,1.0,0.0
43.18626403808594,-3.8964977264404297,-0.7498990297317505,-0.0,-0.0,-1.0,0.0612094934437807,1.0,0.0
43.743858337402344,-3.36255407333374,-0.7622495889663696,-0.0,-0.0,-1.0,0.0760657658704136,2.0,0.0
43.587127685546875,-3.565711498260498,-0.76695716381073,0.3453137335782859,-0.4432472627339597,-0.827218404945802,0.0167964483004459,4.0,0.0
43.823211669921875,-4.1603240966796875,-0.6291705369949341,-0.0,-0.0,-1.0,0.1026496322831454,2.0,0.0
44.01081848144531,-1.8993067741394043,-0.5821539163589478,-0.0,-0.0,-1.0,0.1929409320398319,1.0,0.0
44.05507278442383,-2.157830238342285,-0.6315810680389404,-0.0,-0.0,-1.0,0.0783942704609023,1.0,0.0
43.947120666503906,-3.1227502822875977,-0.7645879983901978,-0.0,-0.0,-1.0,0.0245038097552421,1.0,0.0
44.13149642944336,-4.058622360229492,-0.6695533990859985,0.3772488528496155,-0.1405441465882715,-0.9153855176281868,0.0543335173160032,3.0,0.0
44.06452941894531,-1.868844985961914,-0.5910398960113525,-0.0,-0.0,-1.0,0.2011451424946017,1.0,0.0
44.45608139038086,-2.358016014099121,-0.7603317499160767,-0.0,-0.0,-1.0,0.0777487106836302,1.0,0.0
44.42900466918945,-2.735471725463867,-0.8119415044784546,-0.0,-0.0,-1.0,0.0325958545355311,2.0,0.0
44.1976203918457,-2.9988913536071777,-0.8000763654708862,-0.0,-0.0,-1.0,0.1352110633720912,2.0,0.0
44.53271484375,-3.60025405883789,-0.6772782802581787,-0.0,-0.0,-1.0,0.0219905011272519,2.0,0.0
44.35436248779297,-3.8329577445983887,-0.676912784576416,-0.0,-0.0,-1.0,0.1403774473380847,2.0,0.0
44.76350402832031,-2.0310792922973633,-0.7912591695785522,-0.0,-0.0,-1.0,0.0581411820989136,1.0,0.0
44.74204635620117,-2.220163345336914,-0.8122116327285767,-0.0,-0.0,-1.0,0.0504491476704697,2.0,0.0
44.74737930297851,-2.6988186836242676,-0.7366889715194702,0.4131751200239612,-0.3107327864050505,-0.8559973455835821,0.2170188226873116,4.0,0.0
44.82718276977539,-3.09749174118042,-0.6673568487167358,-0.3000902419172348,0.2515050624816098,-0.9201581658889828,0.1328499953006393,4.0,0.0
