x,y,z,nx,ny,nz,curvature,density,label
23.36935806274414,12.55224323272705,-0.9750100374221802,-0.0,-0.0,-1.0,0.202209029641802,1.0,0.0
24.340662002563477,12.466659545898438,-1.1360262632369995,-0.0,-0.0,-1.0,0.0409680398559187,2.0,0.0
24.014720916748047,12.45905876159668,-1.0885521173477173,-0.0,-0.0,-1.0,0.0713398037152606,2.0,0.0
23.556001663208008,12.447895050048828,-1.023737549781799,0.184688361968473,0.0671614858197803,-0.980499639865248,0.1096288660300055,5.0,0.0
25.035322189331055,11.733161926269531,-0.9982250928878784,-0.0,-0.0,-1.0,0.1403768141304422,1.0,0.0
24.707622528076172,11.759861946105955,-0.9529370069503784,-0.0,-0.0,-1.0,0.122893560217647,2.0,0.0
25.1292667388916,11.677753448486328,-1.0197652578353882,0.595170954299565,0.3066255442764735,-0.7428003168788377,0.1029205567679559,3.0,0.0
24.763771057128903,11.671011924743652,-0.9758144617080688,-0.0,-0.0,-1.0,0.1635703322719937,2.0,0.0
24.506168365478516,11.583935737609863,-0.9602943658828736,-0.0,-0.0,-1.0,0.0435164587855345,1.0,0.0
23.853595733642575,12.209781646728516,-0.7682725191116333,-0.2579911670846073,0.1377626016097558,-0.9562750772157734,0.1772246840697948,5.0,0.0
24.116907119750977,11.95293140411377,-0.667892575263977,-0.0,-0.0,-1.0,0.1228791843898269,1.0,0.0
22.85457992553711,10.70596981048584,-0.5843626260757446,0.9697943490781878,-0.2171450398831009,0.1111168400836712,0.1617971551813493,7.0,0.0
24.268470764160156,13.135608673095703,-1.2087610960006714,-0.0,-0.0,-1.0,0.0572557909322435,2.0,0.0
24.975597381591797,12.467683792114258,-1.1360580921173096,-0.0,-0.0,-1.0,0.0232438135382062,1.0,0.0
24.555992126464844,12.526481628417969,-1.0603795051574707,-0.0,-0.0,-1.0,0.1341450298110246,1.0,0.0
22.870059967041016,11.525562286376951,-0.9481098651885986,-0.0498825618890163,0.6520507674873198,-0.7565325681281577,0.0227332597114892,3.0,0.0
22.715103149414062,11.466424942016602,-0.9345197677612304,-0.0,-0.0,-1.0,0.0200950634489469,2.0,0.0
23.222745895385746,11.061147689819336,-0.6779084205627441,0.6982038174046924,0.2774367857135812,-0.6599547403378746,0.0834959563084616,3.0,0.0
23.032394409179688,10.898505210876465,-0.6770315170288086,-0.0,-0.0,-1.0,0.2516414115347386,2.0,0.0
23.844402313232425,10.841601371765137,-0.7822482585906982,-0.0,-0.0,-1.0,0.0820380488318266,2.0,0.0
22.82760238647461,11.243898391723633,-0.2302608489990234,-0.0,-0.0,-1.0,0.1268659875508959,1.0,0.0
24.42593765258789,12.484214782714844,-1.110828161239624,-0.0,-0.0,-1.0,0.064716369644076,2.0,0.0
22.835445404052734,11.511842727661133,-0.9576523303985596,-0.0,-0.0,-1.0,0.0227077330233501,2.0,0.0
25.00667953491211,12.577459335327148,-1.201573133468628,0.950046162565834,-0.2727468297766474,-0.1517282302036145,0.0220907838079744,3.0,0.0
24.797134399414062,12.473093032836914,-1.176868200302124,-0.0,-0.0,-1.0,0.0339001404268697,2.0,0.0
22.826566696166992,11.447919845581056,-0.9643304347991944,0.8212073885942607,0.500189165031592,0.2746438131529521,0.0281036850462296,3.0,0.0
23.871685028076172,11.41462516784668,-0.7291635274887085,-0.0,-0.0,-1.0,0.1360973994740582,1.0,0.0
23.159055709838867,11.043259620666504,-0.669527530670166,-0.0,-0.0,-1.0,0.1771867821223338,2.0,0.0
22.965362548828125,10.88182258605957,-0.6602635383605957,0.6898826039741626,0.7170322206106129,-0.0996332642245663,0.1958381862270654,4.0,0.0
23.90385055541992,10.785635948181152,-0.7994801998138428,-0.0,-0.0,-1.0,0.0753820537974136,2.0,0.0
23.636415481567383,10.855592727661133,-0.7551729679107666,-0.0,-0.0,-1.0,0.0868239874213747,1.0,0.0
24.710857391357425,10.882863998413086,-0.901348114013672,-0.8387810248938167,0.5130399654741437,-0.1823084915860131,0.079090864826668,4.0,0.0
24.420196533203125,10.782341003417969,-0.8713634014129639,-0.0,-0.0,-1.0,0.0290998192125923,2.0,0.0
24.110103607177734,10.721324920654297,-0.8347744941711426,-0.0,-0.0,-1.0,0.0909617484905738,1.0,0.0
23.005142211914062,11.64716625213623,-0.9508923292160034,-0.0,-0.0,-1.0,0.0119485520183327,1.0,0.0
22.96418571472168,11.434456825256348,-0.936303973197937,-0.0,-0.0,-1.0,0.0456488106457176,2.0,0.0
23.131916046142575,12.209924697875977,-0.9969767332077026,-0.0197463983661609,0.6397671998119703,-0.7683150459260287,0.0450974939249043,3.0,0.0
23.055309295654297,11.8094482421875,-0.967105746269226,-0.0,-0.0,-1.0,0.0187579103375724,2.0,0.0
22.95272445678711,11.59154224395752,-0.9368118047714232,-0.0,-0.0,-1.0,0.0164287742299743,2.0,0.0
22.804611206054688,11.239046096801758,-0.7192486524581909,-0.0,-0.0,-1.0,0.1692958147328721,2.0,0.0
23.034927368164062,10.920008659362791,-0.5844422578811646,0.6940679853631734,0.2637736618669941,0.6698455695152298,0.1916721313085894,4.0,0.0
23.07726669311523,12.166078567504885,-0.9822937250137328,-0.5954148766147561,0.8030516547301653,-0.024272711858763,0.0625414353913197,3.0,0.0
23.050552368164062,11.951515197753906,-0.969589352607727,-0.0,-0.0,-1.0,0.053592372808702,2.0,0.0
23.40290069580078,11.171079635620115,-0.6678242683410645,-0.8862254816849885,0.1901363504960547,-0.4224364612959579,0.2382091330693994,6.0,0.0
23.746177673339844,11.27750301361084,-0.7425938844680786,-0.0,-0.0,-1.0,0.1473420071879621,1.0,0.0
24.066612243652344,11.84375,-0.8286246061325073,-0.8195463565090083,-0.5275338949953094,-0.223722504822128,0.1330495906491682,5.0,0.0
24.26846694946289,11.161563873291016,-0.8481422662734985,-0.0,-0.0,-1.0,0.0873900528615393,1.0,0.0
24.455825805664062,11.550196647644045,-0.9000948667526245,-0.0,-0.0,-1.0,0.0585518246592624,1.0,0.0
24.443382263183594,11.293378829956056,-0.8889428377151489,-0.0,-0.0,-1.0,0.0765601705137028,1.0,0.0
25.04704475402832,11.82138729095459,-1.0341185331344604,0.7824903891473314,0.4117642874992785,0.4670749002379268,0.0830250501510432,3.0,0.0
22.820457458496097,11.37237548828125,-0.2091161012649536,-0.0,-0.0,-1.0,0.1952974660789669,2.0,0.0
24.042015075683594,10.782220840454102,-0.3982628583908081,-0.0,-0.0,-1.0,0.150717584333825,2.0,0.0
25.06139755249023,10.960780143737791,-0.5825819969177246,-0.0,-0.0,-1.0,0.1010920893657809,1.0,0.0
22.81795310974121,11.946212768554688,-0.9827718734741212,-0.0,-0.0,-1.0,0.029873033380658,2.0,0.0
22.775531768798828,11.625019073486328,-0.9623191356658936,-0.0,-0.0,-1.0,0.0210256081022774,2.0,0.0
23.212383270263672,11.022289276123049,-0.7052072286605835,0.2643487726937523,0.5062034071443429,-0.8209006255149067,0.1015917237630057,3.0,0.0
22.866539001464844,12.492321968078612,-1.015730381011963,0.7576803465204692,-0.2481116946560743,-0.6036232926846948,0.0250870053115862,4.0,0.0
22.85728454589844,12.167143821716309,-1.000598430633545,-0.0,-0.0,-1.0,0.0380852136163835,2.0,0.0
23.49770736694336,11.311363220214844,-0.7783594131469727,0.3460805910500203,-0.2283927948956585,-0.9099807447073912,0.0928469050606834,4.0,0.0
23.3935604095459,11.181818962097168,-0.75067138671875,-0.3702686391354191,-0.86458985352104,-0.3396844418887497,0.1627222280249416,5.0,0.0
23.085918426513672,13.034231185913086,-1.099085569381714,0.2669791709833763,-0.1282846937070158,-0.955125729745318,0.0497752462760602,3.0,0.0
23.009889602661133,12.778294563293455,-1.0662357807159424,-0.0,-0.0,-1.0,0.0300874584843175,2.0,0.0
23.932315826416016,11.607000350952148,-0.8872034549713135,-0.8228725485332837,0.5288699223657919,-0.2077916602925635,0.1812382843363727,3.0,0.0
23.93365478515625,11.378547668457031,-0.878997802734375,-0.0,-0.0,-1.0,0.146281912067326,1.0,0.0
23.920215606689453,12.173867225646973,-0.9080605506896972,-0.0,-0.0,-1.0,0.243158614671463,1.0,0.0
24.015792846679688,11.863449096679688,-0.9163813591003418,-0.0,-0.0,-1.0,0.1662205729604828,2.0,0.0
24.645301818847656,12.676628112792969,-1.0981194972991943,0.076844977430792,-0.4233008538233102,-0.9027243414221852,0.2270229136505223,3.0,0.0
24.80902862548828,12.344836235046388,-1.118889331817627,-0.0,-0.0,-1.0,0.0120160873687815,2.0,0.0
24.979286193847656,12.731130599975586,-1.177661418914795,-0.0,-0.0,-1.0,0.0210955076194038,2.0,0.0
25.084716796875,13.000120162963867,-1.2163844108581543,-0.0,-0.0,-1.0,0.078018673312838,1.0,0.0
22.787425994873047,11.237726211547852,-0.4494169950485229,-0.0,-0.0,-1.0,0.2275661661268413,2.0,0.0
22.891021728515625,10.81270694732666,-0.6277036666870117,-0.0,-0.0,-1.0,0.1778312781245864,1.0,0.0
23.06407928466797,11.225536346435549,-0.5078086853027344,-0.0,-0.0,-1.0,0.1602582638826908,1.0,0.0
23.110933303833008,10.914266586303713,-0.6793972253799438,-0.0,-0.0,-1.0,0.1930692773515937,2.0,0.0
24.225364685058594,10.767000198364258,-0.5345973968505859,-0.0,-0.0,-1.0,0.1023522968076044,1.0,0.0
24.22544288635254,11.848257064819336,-0.5824471712112427,-0.0,-0.0,-1.0,0.2203171201919145,2.0,0.0
24.816844940185547,11.603216171264648,-0.6838692426681519,-0.0,-0.0,-1.0,0.1806490075227842,1.0,0.0
25.019744873046875,10.895218849182127,-0.6906002759933472,-0.0,-0.0,-1.0,0.1547561988031692,1.0,0.0
25.019567489624023,10.931425094604492,-0.2808775901794433,-0.0,-0.0,-1.0,0.125753795955078,1.0,0.0
23.05514144897461,12.810184478759766,-1.065293788909912,-0.0,-0.0,-1.0,0.0319177213641572,2.0,0.0
23.29349708557129,13.080642700195312,-1.1256392002105713,0.8991920628047635,-0.2061619517802327,-0.3859415549368574,0.0192444227396127,3.0,0.0
24.5947265625,12.320703506469728,-1.1144158840179443,-0.0,-0.0,-1.0,0.0746560060634071,1.0,0.0
24.613849639892575,12.700096130371094,-1.1118013858795166,-0.7494173305797212,-0.4877701342610756,-0.4477208513680116,0.2247141144413911,4.0,0.0
24.713680267333984,12.546913146972656,-1.1379261016845703,-0.0,-0.0,-1.0,0.0479582456778788,2.0,0.0
25.005512237548828,12.898548126220703,-1.2014572620391846,-0.0,-0.0,-1.0,0.0754041633022282,2.0,0.0
22.75457000732422,10.75840187072754,-0.7551782131195068,0.6646980711247454,-0.7019494079661608,-0.2558192778095503,0.115950125571474,3.0,0.0
22.77640914916992,11.12306308746338,-0.7390227317810059,0.8041887192893814,-0.4311185844986023,-0.4091665551674843,0.1741768919836074,5.0,0.0
22.97367477416992,11.03362274169922,-0.7886595726013184,0.0082601441733159,0.6531863149388857,-0.7571521696427975,0.2693107319445263,3.0,0.0
22.710346221923828,12.136602401733398,-0.9924054145812988,0.1219950808692101,0.2081578256031924,-0.9704573766445724,0.0257917882002915,3.0,0.0
23.27495765686035,11.299456596374512,-0.8437378406524658,-0.0,-0.0,-1.0,0.1051724523814753,2.0,0.0
22.77682876586914,12.416690826416016,-1.0003881454467771,0.8126798354222458,0.5788767619042345,-0.0667321483644863,0.0181905203395799,3.0,0.0
23.518272399902344,11.604729652404783,-0.8862988948822021,-0.5355928898522528,-0.5632428689038331,-0.629204042396973,0.0539102339299776,5.0,0.0
22.934246063232425,12.643217086791992,-1.036259412765503,-0.0,-0.0,-1.0,0.0155567613192579,2.0,0.0
23.736980438232425,12.029942512512209,-0.9219515323638916,-0.0,-0.0,-1.0,0.1158833934038438,1.0,0.0
23.66338348388672,11.808900833129885,-0.9120481014251708,0.7298967866478803,-0.1859163667810455,-0.657788556759719,0.1120984264647774,5.0,0.0
24.941707611083984,10.822978973388672,-0.8492341041564941,0.9440393768101176,-0.1313213452727903,0.3025629840342495,0.1144766692874633,3.0,0.0
23.78345489501953,12.25717067718506,-0.9262480735778807,-0.0,-0.0,-1.0,0.1722897532037542,2.0,0.0
24.791202545166016,11.563217163085938,-0.7958180904388428,0.6245866590187049,0.7195081198597548,-0.3036438223177483,0.1304162222782483,7.0,0.0
25.04358291625977,11.023871421813965,-0.8618338108062744,-0.0,-0.0,-1.0,0.1056006491780896,2.0,0.0
25.04840850830078,11.426637649536133,-0.850039005279541,-0.0,-0.0,-1.0,0.1626062455948281,1.0,0.0
24.572559356689453,12.612778663635254,-1.1034977436065674,-0.9036510160528424,-0.1054735661843709,-0.4150785082644201,0.2578852147647401,4.0,0.0
22.75573348999023,11.164223670959473,-0.4142376184463501,-0.6015391196319296,-0.3136513249595308,-0.7346928160146755,0.15907022271991,7.0,0.0
22.975749969482425,11.060969352722168,-0.4608103036880493,-0.0,-0.0,-1.0,0.1236376767051921,2.0,0.0
23.252185821533203,10.67988109588623,-0.530850887298584,-0.0,-0.0,-1.0,0.0613466289189205,2.0,0.0
23.48043632507324,10.931516647338867,-0.5631777048110962,0.1755418264483653,-0.5826283413429397,-0.7935548393344637,0.0900057519955222,5.0,0.0
24.001155853271484,10.877357482910156,-0.3060227632522583,0.5449060498509963,-0.3363059622577399,-0.7680987544487228,0.2302022787733447,7.0,0.0
24.128570556640625,11.81543254852295,-0.6590847969055176,0.999629636569509,-0.0009388625342818,-0.0271975776320744,0.1316486967849736,7.0,0.0
24.01633071899414,11.53573513031006,-0.6450340747833252,0.7630560621265828,0.2046656995041664,-0.6130720981241462,0.1759595442087334,4.0,0.0
24.348602294921875,11.91543960571289,-0.337084412574768,-0.2006579858389128,0.5460572153218928,-0.813362090531622,0.0709667550484245,5.0,0.0
25.00200653076172,10.888433456420898,-0.4644417762756347,-0.1670237671748646,0.4483381347172854,-0.8781207081927528,0.1323614914008356,3.0,0.0
24.458026885986328,12.109823226928713,-0.3516914844512939,0.0411082703215414,-0.4213459451672822,-0.9059678275757154,0.1012642735098098,7.0,0.0
22.76457405090332,10.948262214660645,-0.8537487983703613,-0.0,-0.0,-1.0,0.1130176751733546,1.0,0.0
23.088180541992188,11.268943786621094,-0.9444122314453124,-0.0,-0.0,-1.0,0.0614427112728832,1.0,0.0
23.38207244873047,11.093066215515137,-0.7175596952438354,-0.0,-0.0,-1.0,0.2057355418343892,1.0,0.0
23.23476219177246,11.652128219604492,-0.9911134243011476,-0.0,-0.0,-1.0,0.0586823614208621,1.0,0.0
23.504669189453125,11.203642845153809,-0.7489352226257324,0.1059950008186606,-0.1951374935016865,-0.9750314961227312,0.1244232725714136,4.0,0.0
23.307281494140625,12.109183311462402,-1.023712396621704,-0.0,-0.0,-1.0,0.0898830419258572,2.0,0.0
23.30526351928711,11.896356582641602,-1.0165138244628906,-0.0,-0.0,-1.0,0.0328347213173878,1.0,0.0
23.980985641479492,11.746099472045898,-0.878450870513916,-0.0,-0.0,-1.0,0.1576036203221078,2.0,0.0
24.320173263549805,11.383218765258787,-0.951547384262085,-0.0,-0.0,-1.0,0.0754602971719618,2.0,0.0
24.3245849609375,11.168937683105469,-0.9478216171264648,-0.0,-0.0,-1.0,0.0815443286922601,1.0,0.0
23.4814453125,12.489498138427734,-1.0880937576293943,-0.0,-0.0,-1.0,0.1284515751904933,1.0,0.0
23.906137466430664,12.034552574157717,-0.8698530197143555,0.2766691182296002,0.8305313882845362,-0.4833961233731776,0.1983438345334221,6.0,0.0
24.09775733947754,11.883578300476074,-0.9117484092712402,-0.0,-0.0,-1.0,0.1575045737610443,1.0,0.0
24.360557556152344,11.5374755859375,-0.9654836654663086,0.2084034501784799,-0.9772054732156572,0.0404656035549892,0.0871830998346207,4.0,0.0
23.71944808959961,13.042447090148926,-1.1849877834320068,-0.0,-0.0,-1.0,0.0390931556235587,2.0,0.0
23.663650512695312,12.83956527709961,-1.1574482917785645,-0.0,-0.0,-1.0,0.0410488067043877,1.0,0.0
24.960126876831055,11.994121551513672,-1.1284387111663818,-0.0,-0.0,-1.0,0.0239447850047561,1.0,0.0
24.64944839477539,12.640660285949709,-1.0809006690979004,-0.0556389646272598,-0.6303676237446778,-0.7743003064378153,0.2114144836510662,4.0,0.0
25.05872344970703,12.190223693847656,-1.1610121726989746,-0.0,-0.0,-1.0,0.0203840355091395,2.0,0.0
25.1715087890625,12.559491157531738,-1.206390380859375,-0.0,-0.0,-1.0,0.014820096811847,2.0,0.0
22.772703170776367,11.179658889770508,-0.431432843208313,-0.4735844031601964,-0.0941428747120102,-0.8757025363811386,0.1991966327406785,5.0,0.0
22.995525360107425,10.808663368225098,-0.6217629909515381,-0.0,-0.0,-1.0,0.1656559043510934,1.0,0.0
22.9959774017334,11.28610134124756,-0.339605450630188,-0.0,-0.0,-1.0,0.1167982648239785,1.0,0.0
23.219470977783203,10.963191032409668,-0.6766633987426758,-0.0,-0.0,-1.0,0.1564905516204412,1.0,0.0
25.03396797180176,10.856914520263672,-0.7510905265808105,-0.0,-0.0,-1.0,0.1835131933629619,2.0,0.0
25.026281356811523,10.822973251342772,-0.7486609220504761,-0.0,-0.0,-1.0,0.1286526774552774,2.0,0.0
24.22418785095215,11.788955688476562,-0.6111770868301392,0.1987808776979232,-0.5972413675739995,0.7770385521452471,0.1801451346193514,4.0,0.0
24.812713623046875,11.561466217041016,-0.7261793613433838,0.1074658139455077,0.9831019973758356,0.1481943372355108,0.1721994922921344,6.0,0.0
24.14999008178711,10.695039749145508,-0.236299991607666,-0.0,-0.0,-1.0,0.2666515254770079,1.0,0.0
24.447288513183594,11.951703071594238,-0.3332597017288208,-0.0,-0.0,-1.0,0.1034567761077035,2.0,0.0
24.46650505065918,12.030108451843262,-0.3401690721511841,-0.0145724461633332,-0.121630716848191,-0.9924684440987592,0.1204439205637111,4.0,0.0
24.458904266357425,11.99871063232422,-0.3374075889587402,-0.0569377645152115,-0.0737851194046815,-0.9956474512227952,0.1123852735945105,3.0,0.0
22.869155883789062,11.047980308532717,-0.8403929471969604,-0.0,-0.0,-1.0,0.1847802705079644,1.0,0.0
23.096744537353516,10.91814422607422,-0.7814649343490601,-0.0,-0.0,-1.0,0.1600985551319399,1.0,0.0
22.879959106445312,11.494743347167969,-0.9753252267837524,-0.0,-0.0,-1.0,0.0236331686512069,2.0,0.0
23.10345458984375,11.335594177246094,-0.9114006757736206,-0.0,-0.0,-1.0,0.0789495547568676,1.0,0.0
23.293071746826172,11.2053861618042,-0.837363600730896,-0.4604853403074779,-0.7634473721178372,0.452881177979693,0.1290470261083528,3.0,0.0
22.97457504272461,11.90000057220459,-1.011111617088318,-0.0,-0.0,-1.0,0.0347027495519016,2.0,0.0
23.48993873596191,11.546221733093262,-0.8972049951553345,-0.0,-0.0,-1.0,0.0604585021054932,2.0,0.0
23.46447372436523,11.437612533569336,-0.8887227773666382,-0.0,-0.0,-1.0,0.0944655718411682,1.0,0.0
24.433368682861328,10.938034057617188,-0.8572691679000854,-0.0,-0.0,-1.0,0.0893252624882278,2.0,0.0
23.04383850097656,12.389083862304688,-1.048021674156189,-0.0,-0.0,-1.0,0.0372562019680523,1.0,0.0
23.014083862304688,12.160293579101562,-1.0301657915115356,-0.0,-0.0,-1.0,0.0568423323511057,2.0,0.0
23.681095123291016,11.89291286468506,-0.959922194480896,-0.0,-0.0,-1.0,0.0680945056842665,2.0,0.0
23.632797241210938,11.672202110290527,-0.9410594701766968,-0.0,-0.0,-1.0,0.0701083803845776,2.0,0.0
24.52314186096191,11.112499237060549,-0.8816908597946167,-0.0,-0.0,-1.0,0.0859593193641812,1.0,0.0
24.860904693603516,11.060103416442873,-0.9675976037979126,0.9484534233260822,0.236080094268678,0.2114291675032754,0.0740563603796986,3.0,0.0
23.146177291870117,12.777042388916016,-1.1000293493270874,-0.6389512558757267,0.512570247659322,-0.5735965775955196,0.0339075872757689,3.0,0.0
23.347890853881836,12.425763130187988,-0.8777145147323608,-0.6619558409476523,0.706617632385331,-0.2500119721882049,0.1969762888871825,5.0,0.0
23.738027572631836,12.246659278869627,-0.986934781074524,-0.9790694597837551,-0.0760387190248073,0.1887885222353623,0.1147951705018313,3.0,0.0
24.76898193359375,11.449198722839355,-0.949593424797058,-0.0,-0.0,-1.0,0.1499217251367217,2.0,0.0
24.922195434570312,11.26175308227539,-0.9857946634292604,-0.0,-0.0,-1.0,0.1154280508949073,2.0,0.0
23.27773666381836,13.079415321350098,-1.1617032289505005,-0.0,-0.0,-1.0,0.0192444227396127,2.0,0.0
23.965044021606445,12.76730251312256,-1.076236605644226,-0.8842804651404808,-0.4612579925781043,0.0727263587274394,0.1459868391569515,4.0,0.0
24.20534896850586,12.576364517211914,-1.1385961771011353,-0.0,-0.0,-1.0,0.0504623453323357,2.0,0.0
25.189769744873047,11.846136093139648,-1.0672446489334106,-0.0,-0.0,-1.0,0.094224251051466,1.0,0.0
24.30982780456543,12.947341918945312,-1.188059687614441,-0.0,-0.0,-1.0,0.0526827207495254,2.0,0.0
22.79691505432129,10.685125350952148,-0.6982954740524292,0.6836229076906251,0.6663741709961256,0.2976662297101253,0.1754909232717232,5.0,0.0
22.725452423095703,11.19232940673828,-0.4227973222732544,-0.333436851468262,0.0368962110652158,-0.9420501768440804,0.1616964315823328,6.0,0.0
22.82455825805664,11.01796054840088,-0.574792742729187,-0.0,-0.0,-1.0,0.1657300659375327,2.0,0.0
23.292083740234375,10.702957153320312,-0.5675193071365356,0.2154952031887769,0.8965211991410327,-0.3870549791610392,0.0642863165030919,4.0,0.0
23.39044189453125,10.9926118850708,-0.5916752815246582,-0.0,-0.0,-1.0,0.0805484899063108,2.0,0.0
24.007226943969727,11.657745361328123,-0.7574355602264404,-0.0,-0.0,-1.0,0.1711538753574222,2.0,0.0
23.88612365722656,12.075149536132812,-0.7369097471237183,-0.0,-0.0,-1.0,0.1555324578830025,2.0,0.0
24.13871955871582,11.846081733703612,-0.647814154624939,0.9169267600519452,-0.3841434268627815,0.108070089750874,0.1292861313277962,5.0,0.0
24.57921981811523,11.50711441040039,-0.5913441181182861,-0.0,-0.0,-1.0,0.0908105236025608,1.0,0.0
22.773509979248047,11.31401538848877,-0.1902954578399658,-0.0,-0.0,-1.0,0.1942122958799846,1.0,0.0
24.980321884155273,10.866863250732422,-0.3447847366333008,0.7589936739025026,0.6438807316326344,-0.0966757798427565,0.173163561935865,5.0,0.0
23.144756317138672,10.96786117553711,-0.7767256498336792,-0.0,-0.0,-1.0,0.1458327601516345,2.0,0.0
23.135467529296875,11.217155456542969,-0.7727922201156616,-0.0,-0.0,-1.0,0.11314779137606,2.0,0.0
23.386974334716797,11.321019172668455,-0.8595713376998901,-0.0,-0.0,-1.0,0.1048943926419692,1.0,0.0
23.53662109375,11.625347137451172,-0.9157029390335084,-0.5322758585509646,-0.5002803389423662,-0.6829363022065414,0.06569245508005,3.0,0.0
23.500812530517575,11.51274585723877,-0.9013127088546752,0.3359994844312587,0.2214731516545629,-0.9154528876780736,0.0566216945169078,3.0,0.0
24.131027221679688,11.208182334899902,-0.8461970090866089,-0.0,-0.0,-1.0,0.069948175175464,1.0,0.0
24.344797134399418,11.084282875061035,-0.9101842641830444,-0.0,-0.0,-1.0,0.1115997308350822,1.0,0.0
23.37156867980957,12.441414833068848,-0.891013503074646,-0.490179843534514,0.8712882531462743,-0.0240935867357481,0.1484960688173413,5.0,0.0
23.680660247802734,11.984367370605469,-0.976059079170227,-0.7282612585704171,0.081043704058684,-0.6804906004478538,0.0445462806850175,3.0,0.0
24.075517654418945,11.800093650817873,-0.8409885168075562,0.6677644957355294,-0.7443687121014597,-0.0024080447438285,0.1921613001538387,5.0,0.0
24.358592987060547,11.470945358276367,-0.9194415807724,0.6844762552291039,-0.38533498077648,-0.6188773776908737,0.0902590304226132,3.0,0.0
24.34689712524414,11.275672912597656,-0.912699818611145,-0.638333599617319,-0.7621630118006599,0.1078784456809787,0.112100311566795,3.0,0.0
23.745830535888672,12.333821296691896,-1.013741135597229,-0.0,-0.0,-1.0,0.1063217699204819,2.0,0.0
24.66230583190918,11.64449977874756,-1.015880465507507,-0.0,-0.0,-1.0,0.1130046364038504,2.0,0.0
23.90099716186523,12.752042770385742,-1.0917972326278689,-0.8972693200898826,-0.313037655956188,-0.311312051130205,0.1646941960504601,3.0,0.0
23.98162078857422,12.687508583068848,-1.11534321308136,-0.6646010117863754,-0.2797097622298246,-0.6928693556839276,0.117862111797543,3.0,0.0
24.889633178710938,11.9505615234375,-1.0944794416427612,-0.0,-0.0,-1.0,0.0176721510836465,1.0,0.0
24.127201080322266,13.121101379394531,-1.196355938911438,-0.0,-0.0,-1.0,0.0394410759025972,1.0,0.0
24.096633911132812,12.938724517822266,-1.1717480421066284,-0.0,-0.0,-1.0,0.0942908762242069,1.0,0.0
24.56878662109375,12.682015419006348,-1.0301560163497925,-0.1095856898372354,0.3974322887714667,-0.9110645160606196,0.1882375231964803,5.0,0.0
25.083194732666016,12.426725387573242,-1.1734193563461304,-0.0,-0.0,-1.0,0.015960756858788,1.0,0.0
25.155542373657227,12.80798625946045,-1.21613872051239,-0.0,-0.0,-1.0,0.0120321254591094,1.0,0.0
22.83171844482422,10.802034378051758,-0.6724351644515991,-0.0,-0.0,-1.0,0.1453721664287769,1.0,0.0
22.87608337402344,11.077753067016602,-0.5743048191070557,-0.0,-0.0,-1.0,0.168718568758245,1.0,0.0
23.20503807067871,10.82731819152832,-0.565231442451477,0.266280816484905,0.8822211738686128,-0.3883044258697289,0.077112702719006,3.0,0.0
23.364910125732425,11.075233459472656,-0.612633228302002,-0.5107759878194111,-0.3437396933002024,-0.7880043867371468,0.1493938496460268,6.0,0.0
24.142269134521484,10.70281219482422,-0.5842118263244629,-0.0,-0.0,-1.0,0.0960548193650906,2.0,0.0
23.883106231689453,11.209325790405272,-0.7707961797714233,-0.0,-0.0,-1.0,0.1401315237727106,1.0,0.0
23.886274337768555,12.046998977661133,-0.6654443740844727,-0.0,-0.0,-1.0,0.1689327234346845,1.0,0.0
24.06011199951172,11.831180572509766,-0.7058289051055908,-0.7263043067946653,-0.6553332881384091,0.2074134407149681,0.1157250358632006,7.0,0.0
24.95958709716797,10.855020523071287,-0.8015042543411255,0.653233495205777,-0.4702575960766246,-0.593417049024949,0.1565575182211387,3.0,0.0
23.91531753540039,12.135327339172363,-0.8039110898971558,-0.0912986333759458,0.9755477519614688,-0.1999278449506461,0.1114981861301299,3.0,0.0
24.78965759277344,11.555213928222656,-0.7666248083114624,-0.0030072543566971,0.9993359999598032,0.0363113701968743,0.1332813474071623,8.0,0.0
24.030101776123047,10.89205837249756,-0.3001357316970825,0.0662503145270503,-0.0595481141687366,-0.996024556888039,0.2302022787733448,4.0,0.0
24.975086212158203,10.897941589355469,-0.2317825555801391,0.2179525067985508,0.8997538726281477,-0.3780736349851429,0.1095524368750401,3.0,0.0
24.297821044921875,11.85955810546875,-0.381058931350708,0.2849562011783556,0.5646477104522097,-0.7745791931694772,0.1129361344388203,6.0,0.0
24.233078002929688,10.751049995422363,-0.8029478788375854,-0.0,-0.0,-1.0,0.0995861708042741,2.0,0.0
24.46060562133789,11.01509952545166,-0.879759669303894,0.421758746179117,-0.6065833030952921,-0.6739260021897242,0.0991359584539609,4.0,0.0
24.436771392822266,10.85080337524414,-0.8715144395828247,-0.0,-0.0,-1.0,0.0231930630004688,1.0,0.0
24.019712448120117,11.981908798217772,-0.7546578645706177,-0.0,-0.0,-1.0,0.153994118673726,1.0,0.0
24.13787841796875,11.775622367858888,-0.7858899831771851,-0.8304278296688473,0.2914002571998799,-0.4748426158374287,0.2307947920502525,6.0,0.0
24.62417984008789,11.386783599853516,-0.9399899244308472,0.801554985820098,-0.1570009510278933,-0.5769404701381935,0.0878346262578409,3.0,0.0
24.782691955566406,11.185771942138672,-0.9904273748397828,-0.0,-0.0,-1.0,0.0907434579569104,1.0,0.0
25.18844985961914,10.94503116607666,-0.8562003374099731,-0.0,-0.0,-1.0,0.1238562366800801,2.0,0.0
24.809232711791992,11.643672943115234,-1.009194016456604,-0.0,-0.0,-1.0,0.1278656094611463,2.0,0.0
25.1567440032959,11.416110038757324,-0.8522380590438843,-0.0,-0.0,-1.0,0.2638680303695513,2.0,0.0
25.13101577758789,12.073594093322754,-1.134703516960144,-0.4264094011803344,0.4299332060727608,-0.7958218776215101,0.0346399001825348,3.0,0.0
24.62724876403809,12.667047500610352,-1.0000673532485962,-0.0,-0.0,-1.0,0.229172240666491,2.0,0.0
22.85664176940918,11.227272033691406,-0.3367742300033569,0.6269100532612804,-0.7778855413646762,-0.0433343934505082,0.1866041082088144,3.0,0.0
24.00700569152832,11.604484558105469,-0.7356493473052979,-0.0,-0.0,-1.0,0.1505526876214267,2.0,0.0
23.88902473449707,11.925461769104004,-0.707854151725769,-0.0,-0.0,-1.0,0.2451198609000531,2.0,0.0
24.273929595947266,11.875092506408691,-0.4832274913787842,-0.0,-0.0,-1.0,0.1779585385419231,2.0,0.0
24.98484992980957,10.859770774841309,-0.5372503995895386,-0.1347911882684086,0.6847781430247664,0.7161775131912083,0.1254154008820037,3.0,0.0
24.775678634643555,11.53903102874756,-0.7402123212814331,-0.3192618774618967,0.9346330144095404,-0.1566300800460769,0.1379103406002805,6.0,0.0
23.864748001098633,10.68766975402832,-0.2429723739624023,-0.2120885392789901,-0.4407650071247513,-0.8722067759429651,0.2497006101998847,3.0,0.0
25.01404190063477,10.8602876663208,-0.2912381887435913,0.5141160994060218,0.8541432166513726,-0.0782560015588832,0.155264876320398,5.0,0.0
24.774105072021484,11.536447525024414,-0.7895528078079224,0.5791452767465418,0.7535467630813781,-0.3110595188573222,0.1563288048522565,10.0,0.0
24.17979621887207,10.70826530456543,-0.5425479412078857,-0.0,-0.0,-1.0,0.0991488998767467,1.0,0.0
24.993982315063477,10.840015411376951,-0.5949912071228027,-0.0,-0.0,-1.0,0.1142233027000258,1.0,0.0
23.924633026123047,12.039814949035645,-0.5448909997940063,-0.0,-0.0,-1.0,0.1296900463043372,1.0,0.0
24.249691009521484,11.799934387207031,-0.5266581773757935,-0.0,-0.0,-1.0,0.1190929791646573,2.0,0.0
24.988800048828125,10.845064163208008,-0.3663320541381836,0.7589936739025026,0.6438807316326344,-0.0966757798427565,0.1606059445942032,5.0,0.0
25.008136749267575,10.83869743347168,-0.2948143482208252,-0.3925041072808753,0.2105968049491637,-0.8953153140167138,0.1691722472665201,4.0,0.0
25.024234771728516,10.837695121765137,-0.5005309581756592,0.3059397756969321,0.9520120473010016,-0.0085974089274803,0.1157886924702738,3.0,0.0
24.330093383789062,11.833207130432127,-0.3812556266784668,-0.3339780475941688,-0.2011174187653199,-0.920874827321478,0.1051581038665237,5.0,0.0
24.239662170410156,10.801700592041016,-0.8827235698699951,-0.0,-0.0,-1.0,0.0473137175993956,1.0,0.0
24.12633514404297,10.75748062133789,-0.8791754245758057,-0.0,-0.0,-1.0,0.0547093199905587,1.0,0.0
24.169219970703125,11.783931732177734,-0.5984945297241211,-0.3411645762791226,-0.4920579696924489,-0.8009280157132923,0.2570415125215844,11.0,0.0
24.169368743896484,11.815109252929688,-0.7147982120513916,-0.2600462230054158,-0.9282806565329688,-0.265840148599376,0.181326668009828,4.0,0.0
24.108518600463867,11.78264045715332,-0.6152572631835938,0.4808992370712711,-0.7208024956126253,-0.4991790120817186,0.16725941924819,8.0,0.0
24.051382064819336,11.722496032714844,-0.667466402053833,-0.0418276694199025,-0.9062725514028666,0.420619196714365,0.2116932453795312,4.0,0.0
23.400514602661133,10.701797485351562,-0.5662844181060791,0.6781449195735669,0.6978163795911806,-0.2305900440843395,0.1209010509523331,3.0,0.0
24.46927833557129,11.342901229858398,-0.917283296585083,-0.0,-0.0,-1.0,0.0731669663609889,1.0,0.0
24.79373359680176,10.949003219604492,-0.8848955631256104,-0.0,-0.0,-1.0,0.0727757589561156,2.0,0.0
24.67255592346191,10.832609176635742,-0.8681509494781494,-0.0,-0.0,-1.0,0.0498761457649314,1.0,0.0
23.380199432373047,10.707263946533203,-0.6094868183135986,-0.0,-0.0,-1.0,0.1209010509523331,2.0,0.0
24.63686180114746,11.458707809448242,-0.8718481063842773,-0.0,-0.0,-1.0,0.1559565155726904,1.0,0.0
24.279821395874023,11.873231887817385,-0.645719051361084,-0.0,-0.0,-1.0,0.1687405732037569,2.0,0.0
24.29206085205078,12.013023376464844,-0.3445370197296142,-0.0,-0.0,-1.0,0.1619360775756602,2.0,0.0
23.90493392944336,10.860614776611328,-0.381784439086914,0.4963947138365194,0.0293366170616577,-0.8676010897725626,0.1970660555711581,4.0,0.0
23.37063980102539,10.784589767456056,-0.5188388824462891,-0.0,-0.0,-1.0,0.1610084509767151,1.0,0.0
23.81676864624023,10.653873443603516,-0.4940624237060547,-0.0,-0.0,-1.0,0.0976043255251992,2.0,0.0
24.143247604370117,11.779773712158203,-0.6747303009033203,-0.4019658576563282,-0.8021293819936228,0.4416015215339968,0.14332522682373,10.0,0.0
23.325672149658203,10.741424560546877,-0.5620534420013428,-0.0,-0.0,-1.0,0.0630482549726332,1.0,0.0
22.80953788757324,10.657743453979492,-0.5665569305419922,0.8546193254075569,0.1390282028848479,-0.5002968793052202,0.1258373581401019,4.0,0.0
24.791738510131836,11.584466934204102,-0.8897323608398438,-0.1681048245413088,0.7723529127678341,0.6125453012675707,0.2356777836201985,4.0,0.0
24.245765686035156,11.868865966796877,-0.6454253196716309,-0.0,-0.0,-1.0,0.2121033001830473,2.0,0.0
22.792388916015625,11.136083602905272,-0.578366756439209,-0.0,-0.0,-1.0,0.111159331637705,2.0,0.0
22.838823318481445,11.084827423095703,-0.7042996883392334,-0.0,-0.0,-1.0,0.1532567131638958,1.0,0.0
24.775693893432617,11.539098739624023,-0.9167366027832032,0.06927290612488,0.9650701801048828,0.2526673939180581,0.235931839439246,5.0,0.0
24.19561767578125,11.77903938293457,-0.730947732925415,-0.0,-0.0,-1.0,0.266486718752094,2.0,0.0
23.54863166809082,10.874692916870115,-0.5972087383270264,-0.0,-0.0,-1.0,0.2007373988970152,2.0,0.0
23.372020721435547,10.655187606811523,-0.5652110576629639,-0.0,-0.0,-1.0,0.1194306980759431,1.0,0.0
24.95214080810547,10.913986206054688,-0.8522095680236816,-0.4577137796883237,-0.1398275953796245,-0.8780355001102065,0.2091617652664582,8.0,0.0
24.98663330078125,11.030258178710938,-0.8718008995056152,0.535919540433968,-0.8392381703339646,0.0920301017903591,0.1461451069152823,3.0,0.0
24.918691635131836,11.421600341796877,-0.9394121170043944,-0.5997910223941182,0.735047450823294,-0.3161581479158735,0.1094859799279065,3.0,0.0
24.763885498046875,11.567394256591797,-0.8734986782073975,-0.262819264373722,0.6128283429505008,-0.7452298010349553,0.2499041650833643,11.0,0.0
22.84045791625977,12.47125244140625,-1.045569658279419,0.3910202062181813,0.5553840526477615,-0.7339289832086201,0.0222487058715213,3.0,0.0
22.758695602416992,10.815452575683594,-0.7550904750823975,-0.2362790137857678,-0.6098404406380314,-0.7564832216294273,0.1192193367337586,5.0,0.0
22.72690200805664,11.03498649597168,-0.7940957546234131,-0.0,-0.0,-1.0,0.0745410356132695,2.0,0.0
24.951656341552734,10.958621978759766,-0.279735803604126,-0.7148560194077207,0.5847244184920708,0.3835077912320139,0.107331379198242,3.0,0.0
22.85347366333008,11.225791931152344,-0.3560376167297363,0.6269100532612804,-0.7778855413646762,-0.0433343934505082,0.174847189030258,3.0,0.0
22.7239990234375,11.34465789794922,-0.3785831928253174,-0.0,-0.0,-1.0,0.1426412004966805,2.0,0.0
23.981849670410156,10.920601844787598,-0.4115726947784424,-0.0,-0.0,-1.0,0.1950518917890655,2.0,0.0
24.207530975341797,11.764808654785156,-0.6256775856018066,0.1987808776979232,-0.5972413675739995,0.7770385521452471,0.2036103815491591,4.0,0.0
22.728286743164062,11.303156852722168,-0.2662243843078613,0.5942812311421689,-0.277625795949306,0.7548203334142919,0.191691210307316,4.0,0.0
23.907855987548828,10.790349960327148,-0.2874953746795654,-0.0,-0.0,-1.0,0.1032707469332539,1.0,0.0
22.90645217895508,11.311010360717772,-0.3379180431365967,0.8046402058891501,-0.5821855734503752,-0.1166794632012157,0.1381208837021353,3.0,0.0
22.71997833251953,11.240453720092772,-0.3191015720367431,0.7753548503319703,0.43043306237996,-0.4621171224666947,0.184659319909333,3.0,0.0
25.19256591796875,10.858365058898926,-0.9804637432098388,-0.0,-0.0,-1.0,0.0733947900884804,1.0,0.0
22.782133102416992,11.80810260772705,-0.993201494216919,-0.0,-0.0,-1.0,0.0245292798517307,2.0,0.0
22.748382568359375,10.760497093200684,-0.7770042419433594,0.6646980711247454,-0.7019494079661608,-0.2558192778095503,0.1374830547311001,3.0,0.0
24.81751251220703,11.5386381149292,-0.8664557933807373,-0.6408458361657486,-0.086216130201155,-0.7628128165953687,0.1377972716967753,6.0,0.0
23.979616165161133,12.82411289215088,-1.050569772720337,-0.4009872052106342,0.8370871726341746,-0.3721482589891935,0.1978529017121581,7.0,0.0
24.145496368408203,11.752034187316896,-0.8535821437835693,-0.0,-0.0,-1.0,0.1914465122735047,2.0,0.0
23.3712158203125,12.440829277038574,-0.9334728717803956,0.0263438895062382,0.9987077330915024,0.0434610555430394,0.1699603542427404,5.0,0.0
22.976150512695312,10.645362854003906,-0.5519962310791016,-0.2160728197564138,0.720831659086966,-0.6585698564468655,0.103010887395965,3.0,0.0
22.808666229248047,11.104683876037598,-0.6306424140930176,-0.0,-0.0,-1.0,0.1810245189908614,1.0,0.0
24.178516387939453,11.817283630371094,-0.6346399784088135,0.6750568692183199,-0.0792047432862685,-0.7335017600265976,0.211953764272259,9.0,0.0
23.91958236694336,10.702902793884276,-0.4126565456390381,-0.4918210909914757,0.6256473205665992,-0.6055389704418614,0.1633573879229645,5.0,0.0
24.508073806762695,12.80625057220459,-0.9240508079528807,-0.0,-0.0,-1.0,0.1932594844674738,1.0,0.0
24.137374877929688,11.786646842956545,-0.7112319469451904,0.4881517661942039,-0.7287805582212689,-0.4801944930131695,0.1980860483797225,13.0,0.0
24.15804672241211,11.892080307006836,-0.5396194458007812,-0.1465667087675903,-0.7891571074716284,-0.5964471976697091,0.2403773844129205,5.0,0.0
23.94133758544922,10.844752311706545,-0.3699202537536621,0.5377006518452819,0.6087406782378062,-0.5833633478919757,0.1844234883046261,6.0,0.0
24.145183563232425,11.717841148376465,-0.7411849498748779,0.930357811907567,0.1324561891641668,-0.3418913566831867,0.251718362926138,3.0,0.0
24.149858474731445,11.805542945861816,-0.7548098564147949,0.1033256163921837,-0.9904970310201576,0.0907714081494153,0.2298679215862197,6.0,0.0
24.00541305541992,11.512791633605955,-0.692976713180542,-0.7704256463910479,0.4404181515355407,-0.4609513804957668,0.2246453556932326,9.0,0.0
23.22489547729492,11.965688705444336,-1.0224123001098633,-0.0,-0.0,-1.0,0.037476501285793,1.0,0.0
23.031787872314453,12.313090324401855,-1.0495617389678955,-0.0,-0.0,-1.0,0.0499075050142971,2.0,0.0
22.89773178100586,12.687955856323242,-1.0923595428466797,-0.0,-0.0,-1.0,0.0101903690788511,1.0,0.0
22.720600128173828,13.037841796875,-1.126880168914795,-0.0,-0.0,-1.0,0.0238331049496931,2.0,0.0
23.00503921508789,11.184263229370115,-0.8655679225921631,0.8701219418456689,0.2421297100045295,0.4292563451503596,0.1353638492640157,4.0,0.0
22.754566192626953,11.080002784729004,-0.8099765777587891,0.8274484930830086,0.5300428900168705,-0.1854279537643189,0.1529620493163649,3.0,0.0
25.015674591064453,10.871654510498049,-0.5428116321563721,-0.1347911882684086,0.6847781430247664,0.7161775131912083,0.1254928451228296,3.0,0.0
23.957109451293945,10.80862522125244,-0.3864724636077881,-0.3430938008543268,0.2633168126805472,-0.9016378984798108,0.2083529029363502,3.0,0.0
22.763507843017575,10.858335494995115,-0.7774553298950195,-0.1073881035313289,-0.4502476405525992,-0.8864225050148273,0.1059281597084235,3.0,0.0
22.728458404541016,11.266471862792969,-0.2806391716003418,0.929844928364404,0.1502753188831049,-0.3358656542869145,0.2126003212459011,4.0,0.0
24.934078216552734,11.576171875,-0.9483754634857178,-0.4489032285840972,0.4142973826775067,0.7917345325760028,0.152897021308001,5.0,0.0
24.569355010986328,12.668956756591797,-1.0446281433105469,-0.1095856898372354,0.3974322887714667,-0.9110645160606196,0.2168547273133673,5.0,0.0
24.95136451721191,10.868858337402344,-0.8594520092010498,0.5406574804415729,-0.0532881722016816,-0.8395533690873821,0.1710043881684002,5.0,0.0
23.994091033935547,11.745428085327148,-0.8257484436035156,-0.0,-0.0,-1.0,0.2377104968369352,1.0,0.0
23.87895393371582,11.874269485473633,-0.8265204429626465,-0.0,-0.0,-1.0,0.2477885781467485,2.0,0.0
24.962324142456055,10.888647079467772,-0.2612590789794922,0.5771736905004663,0.4929866759869102,-0.6510258583907779,0.1196588587936926,6.0,0.0
24.411285400390625,11.987478256225586,-0.3155069351196289,0.66576779372322,0.2222412587767107,-0.7122935263908123,0.1125903659450592,5.0,0.0
23.16429901123047,10.83670425415039,-0.5718433856964111,-0.0,-0.0,-1.0,0.0887715994705444,2.0,0.0
23.82049560546875,12.95689582824707,-1.1715242862701416,-0.0,-0.0,-1.0,0.051849216654603,1.0,0.0
23.66806411743164,12.295693397521973,-1.049093246459961,-0.0,-0.0,-1.0,0.1102322695497454,1.0,0.0
23.662357330322266,12.63486099243164,-1.0975515842437744,-0.241166704865032,0.7757277281503875,-0.5831681680640509,0.0825647495869089,4.0,0.0
23.696638107299805,13.076982498168944,-1.1691503524780271,-0.0,-0.0,-1.0,0.0346698298612093,2.0,0.0
23.53869247436523,11.743928909301758,-0.9489059448242188,-0.0,-0.0,-1.0,0.046303610453767,2.0,0.0
23.57476234436035,12.111448287963867,-1.0069208145141602,-0.7896699418440449,0.4997213523524173,-0.3559493685218357,0.0708613826302249,4.0,0.0
23.41567611694336,12.461605072021484,-1.030769109725952,0.4624511063044194,-0.3825440408567827,-0.7998743845647156,0.1879874973462107,4.0,0.0
23.26919174194336,11.289586067199709,-0.8396131992340088,-0.0,-0.0,-1.0,0.1083787670183904,2.0,0.0
22.77606201171875,11.097103118896484,-0.727623462677002,0.7383203255631198,-0.4257490137420952,-0.5230878264287956,0.1828025764006415,5.0,0.0
22.82550621032715,10.651268005371094,-0.6761946678161621,0.7843958336247671,0.3127411532013707,-0.5356455425805237,0.1461315069806601,3.0,0.0
22.773880004882812,10.955381393432615,-0.7078428268432617,0.793813245298817,0.5172221070098909,0.3199090864736563,0.1262802605088084,3.0,0.0
23.989967346191406,10.876806259155272,-0.339017391204834,0.4579441689751707,0.7738233080139172,-0.4375895634907654,0.2302022787733448,8.0,0.0
24.984439849853516,11.376462936401367,-0.8980019092559814,-0.0,-0.0,-1.0,0.1578943678847679,1.0,0.0
24.934810638427734,10.842814445495604,-0.8191053867340088,0.891729304796222,-0.0159418198663006,-0.4522882989277934,0.1735972103143923,5.0,0.0
24.50589370727539,12.700994491577148,-1.0138847827911377,-0.4921423744450833,-0.5589391306321362,0.6673701607981487,0.215604991313777,11.0,0.0
24.10331916809082,11.742387771606444,-0.8094782829284668,-0.0,-0.0,-1.0,0.2589925133482154,2.0,0.0
24.014705657958984,11.629010200500488,-0.7792525291442871,-0.9791383905203732,-0.1675119326282794,-0.1150120195297504,0.2003153221818588,3.0,0.0
23.882789611816406,12.126517295837402,-0.8320455551147461,0.5472885944963372,0.8104668789678827,-0.2088507419912196,0.2533710782274719,6.0,0.0
23.485843658447266,10.882569313049316,-0.5901374816894531,-0.0,-0.0,-1.0,0.2091292214465757,2.0,0.0
23.39698600769043,11.04437255859375,-0.5986735820770264,0.0596396992101406,-0.6505166585532732,-0.7571467382369206,0.0785833303361983,8.0,0.0
24.90701675415039,10.920158386230469,-0.2282700538635254,0.0412701256807255,0.5949710743460166,-0.8026868613711353,0.1263121699217555,5.0,0.0
24.19560813903809,12.70860195159912,-1.1517980098724363,-0.0,-0.0,-1.0,0.0827276299077323,2.0,0.0
23.912044525146484,12.70333194732666,-1.103327751159668,-0.0,-0.0,-1.0,0.08441083440255,2.0,0.0
23.932653427124023,13.049880981445312,-1.1632678508758545,-0.0,-0.0,-1.0,0.1156704144930619,1.0,0.0
23.67819595336914,12.181893348693848,-0.9810163974761964,-0.5973563408540372,0.7322847077390652,0.3269931327306241,0.23250198380754,4.0,0.0
23.603668212890625,12.577199935913086,-1.0312879085540771,-0.6362499807185606,0.71346061004172,0.2935301005936663,0.0862705560236249,3.0,0.0
23.506893157958984,11.376863479614258,-0.8287103176116943,0.062653159950674,-0.9486584259563322,-0.3100351148019354,0.1132245342829919,3.0,0.0
23.71593856811523,11.868043899536133,-0.9388217926025392,-0.0,-0.0,-1.0,0.1209125569156006,2.0,0.0
23.325927734375,11.208836555480955,-0.7723262310028076,-0.177674550178556,-0.981861513404402,0.0661794735100325,0.1689856469723127,3.0,0.0
22.80921745300293,10.789291381835938,-0.6205439567565918,0.85887053749514,-0.487423862523104,-0.1573511298525299,0.215276116239654,8.0,0.0
22.761049270629883,11.135988235473633,-0.6631081104278564,0.591827773507411,0.6523435701109203,-0.4734846914528485,0.133722546396192,4.0,0.0
24.174894332885746,11.853767395019531,-0.4334738254547119,0.3458437966209329,-0.3708995622765214,-0.8618732987173369,0.1509373840439186,3.0,0.0
23.818622589111328,10.69080638885498,-0.2333414554595947,-0.1877048389156624,-0.0513926642984688,-0.980880057654324,0.2441031184924634,4.0,0.0
24.296213150024418,12.712443351745604,-1.151073694229126,-0.0,-0.0,-1.0,0.0377420331669301,2.0,0.0
24.259689331054688,12.928508758544922,-1.1759512424468994,-0.0,-0.0,-1.0,0.0651444414108494,1.0,0.0
23.832416534423828,11.97597312927246,-0.96271014213562,-0.0,-0.0,-1.0,0.2306816723025949,2.0,0.0
23.945114135742188,12.854816436767578,-1.1081578731536863,-0.8939430492566738,-0.0544931892012312,-0.4448553888808802,0.2343761284939659,3.0,0.0
23.817726135253903,11.79306983947754,-0.93534255027771,-0.0,-0.0,-1.0,0.1555250892531859,1.0,0.0
23.731426239013672,12.065847396850586,-0.9564216136932372,-0.0,-0.0,-1.0,0.0736964552652412,1.0,0.0
23.582122802734375,12.40168285369873,-0.9764373302459716,-0.0,-0.0,-1.0,0.160099639618145,2.0,0.0
23.282135009765625,11.21762466430664,-0.7595148086547852,-0.1359309721789739,-0.5866170561117547,0.7983753504970311,0.1690517426052022,4.0,0.0
22.864505767822266,10.702383041381836,-0.6158542633056641,-0.1322196551995233,0.9793077168262307,-0.1532134411320174,0.1591502006558895,3.0,0.0
23.92106819152832,10.731321334838867,-0.2698283195495605,-0.0,-0.0,-1.0,0.1478718316317958,1.0,0.0
24.70416831970215,11.614306449890137,-0.7304306030273438,-0.0,-0.0,-1.0,0.1651676628860947,2.0,0.0
23.130538940429688,11.54334831237793,-0.9710483551025392,-0.0,-0.0,-1.0,0.0434531835609945,2.0,0.0
23.121826171875,11.885571479797363,-1.009734869003296,-0.0,-0.0,-1.0,0.0362465894611794,1.0,0.0
23.04770278930664,12.272375106811523,-1.0416765213012695,-0.0,-0.0,-1.0,0.0562950889933996,2.0,0.0
23.03992080688477,12.684539794921877,-1.093806266784668,-0.0,-0.0,-1.0,0.0186089186730864,1.0,0.0
22.9749698638916,13.035987854003906,-1.128695726394653,-0.0,-0.0,-1.0,0.0269517400314621,1.0,0.0
22.79973030090332,11.277339935302734,-0.8692772388458252,-0.0,-0.0,-1.0,0.1095240741342655,1.0,0.0
24.13912582397461,11.834415435791016,-0.6497790813446045,0.6271941888969604,0.3030007293586728,-0.7175081932786526,0.1292861313277962,8.0,0.0
23.78759765625,12.058239936828612,-0.6099762916564941,-0.0,-0.0,-1.0,0.1360380735491391,1.0,0.0
22.75371551513672,11.33053970336914,-0.3474249839782715,-0.2080671447492591,-0.9658668128613548,-0.1543028291669972,0.1616110996079581,5.0,0.0
24.61269760131836,12.837495803833008,-1.2411468029022217,-0.0,-0.0,-1.0,0.0521332173867901,1.0,0.0
23.936325073242188,12.859652519226074,-1.0910885334014893,-0.8378166971828946,0.2280969374268335,-0.496019121665733,0.2460193787036084,3.0,0.0
23.695575714111328,11.982460021972656,-0.9922487735748292,-0.0,-0.0,-1.0,0.0727058679387572,2.0,0.0
23.730642318725582,12.27471923828125,-1.0139334201812744,0.1975506272341492,0.7061861002711293,0.679908038975308,0.1491043861710924,3.0,0.0
23.679834365844727,11.817404747009276,-0.9815685749053956,-0.0,-0.0,-1.0,0.0918084417588501,1.0,0.0
23.461854934692383,11.497732162475586,-0.919243574142456,-0.0,-0.0,-1.0,0.0555536028309512,2.0,0.0
23.64126968383789,11.75232219696045,-0.9700968265533448,-0.0,-0.0,-1.0,0.0748147114261527,1.0,0.0
23.313562393188477,12.464683532714844,-0.929856538772583,-0.3700340135832317,0.4445408860756209,-0.8157562316026684,0.1941365195405654,5.0,0.0
23.103736877441406,11.05218505859375,-0.8217513561248779,-0.0,-0.0,-1.0,0.1469189982449193,1.0,0.0
23.282039642333984,11.194284439086914,-0.8672957420349121,-0.0,-0.0,-1.0,0.0972629075792562,2.0,0.0
22.794692993164062,10.88892936706543,-0.7456486225128174,-0.0,-0.0,-1.0,0.1518348587566328,2.0,0.0
22.7205867767334,11.199130058288574,-0.7386088371276855,0.7594069200041038,-0.3825089812437143,-0.5262965030453617,0.0950155398927313,6.0,0.0
23.96957015991211,10.856751441955566,-0.4641177654266357,-0.0,-0.0,-1.0,0.1652250143717478,1.0,0.0
24.318126678466797,12.601417541503906,-1.1522903442382812,-0.0,-0.0,-1.0,0.0347295780324392,2.0,0.0
24.323139190673828,12.826640129089355,-1.1736583709716797,-0.0,-0.0,-1.0,0.0504495432349235,1.0,0.0
24.030048370361328,12.790031433105469,-1.1057853698730469,-0.0,-0.0,-1.0,0.1153954243453476,1.0,0.0
23.670623779296875,12.025038719177246,-0.9604742527008056,-0.868875329435985,-0.3900377633540073,0.304837998050295,0.0534213648192286,4.0,0.0
23.67510223388672,12.263277053833008,-0.9811434745788574,-0.6170653636514835,-0.0227777660703249,-0.7865821701224277,0.2315545249121927,5.0,0.0
23.64204788208008,11.701170921325684,-0.9289555549621582,-0.0,-0.0,-1.0,0.072047179722934,2.0,0.0
23.63731384277344,11.832460403442385,-0.9379079341888428,0.6153208150122024,-0.1651586779351112,-0.7707807118211023,0.0963960156432345,3.0,0.0
23.27741813659668,11.22891902923584,-0.8136093616485596,-0.8828029782875377,-0.1322370748555154,-0.450746333939956,0.1237922672702976,3.0,0.0
23.42932891845703,11.480921745300291,-0.865307092666626,-0.4393177779702524,0.2214780450075125,-0.8706017261290782,0.096638337147878,3.0,0.0
23.304901123046875,12.465144157409668,-0.9168243408203124,-0.3700340135832317,0.4445408860756209,-0.8157562316026684,0.1966329197343058,5.0,0.0
23.091304779052734,11.051385879516602,-0.7600138187408447,0.4571955360707435,0.8815431068054211,-0.1177029848424903,0.2409552818286361,4.0,0.0
22.723865509033203,11.029197692871094,-0.6761343479156494,0.7949170742556939,0.1883427816876404,0.5767441734798278,0.1253405427452683,4.0,0.0
23.921720504760746,10.789016723632812,-0.378732681274414,-0.3851196783137008,0.3595717032318584,-0.849935893824053,0.1304230371078836,3.0,0.0
22.724910736083984,11.346908569335938,-0.1854279041290283,-0.0,-0.0,-1.0,0.1870249104483663,1.0,0.0
23.989477157592773,12.64034366607666,-1.1038386821746826,-0.0,-0.0,-1.0,0.1291961946372312,2.0,0.0
