x,y,z,nx,ny,nz,curvature,density,label
23.08877944946289,-4.616830825805664,0.7741727828979492,-0.0,-0.0,-1.0,0.2206184285530019,2.0,1.0
23.010631561279297,-4.789813995361328,0.7911463975906372,0.6976630303698907,-0.7065241757806877,-0.1187008217853646,0.202932276370838,5.0,1.0
23.01314353942871,-5.222139358520508,0.8077332973480225,-0.4366190845556063,0.1397732383147056,-0.8887222383021846,0.1764382582565474,3.0,1.0
23.400806427001953,-4.757211685180664,0.7389214038848877,0.1209820031307945,0.8615159389929468,-0.493106116144955,0.210963830911136,3.0,1.0
23.836013793945312,-4.468095779418945,0.6705613732337952,-0.6404430702950257,0.6469037353664557,0.4139423038057442,0.2097428665409721,4.0,1.0
23.685543060302734,-4.740196228027344,0.7010071873664856,0.7069235840753151,0.1257175254838366,-0.6960274061158309,0.1907912253138163,3.0,1.0
22.83988380432129,-5.20613956451416,0.4987843036651611,-0.0,-0.0,-1.0,0.2065093736322796,2.0,1.0
23.062931060791016,-4.898959159851074,0.4649794697761535,-0.0,-0.0,-1.0,0.2782247085510527,1.0,1.0
23.416454315185547,-4.833260536193848,0.4187163114547729,-0.0,-0.0,-1.0,0.1766365596966755,2.0,1.0
23.793230056762695,-4.618618965148926,0.3663100004196167,-0.0,-0.0,-1.0,0.2251208843272119,2.0,1.0
22.839527130126953,-4.637470245361328,0.0050534009933471,0.7257130543748701,-0.6854525889896931,-0.059121154904345,0.1603944029259388,3.0,1.0
22.96031951904297,-4.3969573974609375,0.0075311660766601,-0.0,-0.0,-1.0,0.1669648076048126,2.0,1.0
22.85638427734375,-5.507999420166016,0.7057348489761353,0.4117716230709775,-0.894938275678774,-0.1718418259871429,0.1225571699713842,4.0,1.0
22.940685272216797,-5.155313491821289,0.7052202820777893,-0.0,-0.0,-1.0,0.1739272463152525,2.0,1.0
22.999670028686523,-4.708223342895508,0.7067757844924927,0.2835684887511477,-0.2953606447674387,-0.9123327253310346,0.1798193415435585,3.0,1.0
23.251941680908203,-4.795049667358398,0.6939838528633118,0.2209452623607327,0.1245348859434102,-0.9673025655002722,0.2431447062548066,6.0,1.0
23.39733123779297,-4.765398025512695,0.6873549222946167,0.2106270944457038,0.9666732452660992,-0.145530285411898,0.1297338793723728,5.0,1.0
23.570302963256836,-4.883573532104492,0.677987813949585,-0.0,-0.0,-1.0,0.1076355928995369,2.0,1.0
23.86551284790039,-5.077106475830078,0.6620661020278931,-0.0,-0.0,-1.0,0.1653419815576417,2.0,1.0
23.731285095214844,-4.473161697387695,0.6741762161254883,-0.0,-0.0,-1.0,0.2205432102374289,2.0,1.0
22.84980583190918,-4.863285064697266,0.182977557182312,-0.0,-0.0,-1.0,0.1287097077923089,1.0,1.0
23.00547218322754,-4.714263916015625,0.1727621555328369,-0.0,-0.0,-1.0,0.1284183082456895,2.0,1.0
23.433414459228516,-4.444454193115234,0.140978455543518,-0.0,-0.0,-1.0,0.15984673670694,1.0,1.0
22.891822814941406,-5.21588134765625,0.8678390383720398,-0.4490193762363326,0.0095034918224827,-0.8934714787879436,0.2462601902033253,5.0,1.0
22.97345542907715,-4.779869079589844,0.8569812774658203,0.0944274664846628,0.8948639855227094,-0.4362360610812685,0.2487818239383073,4.0,1.0
23.355897903442383,-4.828619003295898,0.8299829959869385,0.4291785465826011,0.9009739511755114,-0.0636530789234384,0.2195223193307044,7.0,1.0
23.640443801879883,-4.794828414916992,0.8088504672050476,-0.4388745678527516,0.7709830678915338,-0.4614913029696429,0.272948042459702,3.0,1.0
23.716899871826172,-4.710720062255859,0.8022029399871826,-0.2834333924068629,0.9132700210257668,0.2925805543168113,0.1959054090854124,3.0,1.0
24.21001434326172,-4.721681594848633,0.7658764719963074,-0.0,-0.0,-1.0,0.2081391491881824,1.0,1.0
22.77096939086914,-5.287707328796387,0.5738338232040405,0.5186827198868874,-0.8545509719729081,0.0266621902869651,0.1592017375848625,4.0,1.0
23.10175895690918,-4.893063545227051,0.5501290559768677,-0.0,-0.0,-1.0,0.257425628109125,1.0,1.0
23.336101531982425,-4.812975883483887,0.5317109823226929,-0.1109389120962228,-0.7254209671681187,-0.6793062477084821,0.1862693328654833,5.0,1.0
23.571796417236328,-4.822516441345215,0.5123835802078247,-0.2134126014022023,0.5568806150471214,0.8027073203524961,0.2764141086355824,4.0,1.0
23.8404541015625,-4.428011894226074,0.4927043914794922,-0.0,-0.0,-1.0,0.2273888726298205,1.0,1.0
22.842784881591797,-5.1519927978515625,0.442649245262146,0.0462331079342607,-0.9941081811151208,-0.0980378700846047,0.1773978891571268,3.0,1.0
23.079856872558594,-4.844020843505859,0.4278559684753418,-0.5094971701148082,0.6440802131217835,-0.5705903195025304,0.2206957253230134,5.0,1.0
23.328784942626953,-4.846403121948242,0.4060972929000854,0.2962303000354843,-0.9523927829083518,-0.0720804856044416,0.246553193777753,5.0,1.0
23.57861328125,-4.718040466308594,0.3864334225654602,-0.0,-0.0,-1.0,0.1580834492431225,2.0,1.0
23.920276641845703,-4.490062713623047,0.3600801229476928,-0.0,-0.0,-1.0,0.2769718903011452,2.0,1.0
24.076391220092773,-4.544076919555664,0.3451307415962219,0.9480232925522522,0.1082039495757453,-0.299238603917671,0.1935218410846737,3.0,1.0
22.754600524902344,-4.924160957336426,0.3129865527153015,0.0466944254849706,-0.3156373753665378,-0.9477302769777656,0.1090400939801367,6.0,1.0
23.006895065307617,-4.728095054626465,0.2995096445083618,0.574164604710362,-0.6976200954223589,-0.4285571247344896,0.210167014448059,3.0,1.0
23.325727462768555,-4.771624565124512,0.2720009088516235,-0.0,-0.0,-1.0,0.1744487224573952,1.0,1.0
23.526166915893555,-4.662710189819336,0.2592750787734985,-0.1323791733987876,0.3096191074555783,-0.9416006386726088,0.1345726540109422,4.0,1.0
22.795242309570312,-5.1606645584106445,0.9005743265151978,-0.6448564532396955,-0.6834743950276193,-0.3420861091256847,0.2407847451248817,4.0,1.0
22.925283432006836,-5.181683540344238,0.8913625478744507,0.6652034454980437,0.5610030909133005,-0.4927270117248033,0.246295322403968,6.0,1.0
22.92123031616211,-4.726443290710449,0.8923895359039307,0.3172247096651254,-0.782107533483351,-0.5363546304885096,0.1678955499941004,4.0,1.0
23.332473754882812,-4.771904945373535,0.8631426692008972,-0.0,-0.0,-1.0,0.230272982079042,2.0,1.0
23.586565017700195,-4.694626808166504,0.8451496362686157,0.973108698667466,-0.1904399734323011,0.1295842471013189,0.2335730025323557,8.0,1.0
24.219266891479492,-4.537862777709961,0.7999805212020874,-0.0,-0.0,-1.0,0.1735700945251034,1.0,1.0
22.779563903808594,-4.824145317077637,0.601162850856781,-0.0,-0.0,-1.0,0.2029297867125996,1.0,1.0
22.983686447143555,-5.178728103637695,0.576741099357605,0.6096690702714312,-0.4152719041419059,-0.6751687717783785,0.194530902495282,5.0,1.0
23.304691314697266,-5.497252464294434,0.5433263778686523,-0.3862950092416012,-0.9060592952364324,-0.172721508072072,0.1558848105467158,3.0,1.0
23.690963745117188,-5.37325382232666,0.5135051012039185,-0.0,-0.0,-1.0,0.1197239993582294,1.0,1.0
23.315120697021484,-4.841519355773926,0.5562779903411865,-0.4464551588459008,-0.7389961533742405,-0.50454184805421,0.205555411425037,9.0,1.0
23.4715518951416,-5.039826393127441,0.538986325263977,-0.0,-0.0,-1.0,0.2447939914035642,2.0,1.0
23.70942115783691,-4.650583267211914,0.5269215703010559,-0.0,-0.0,-1.0,0.1692682721064667,2.0,1.0
22.879562377929688,-4.8091278076171875,0.2984039783477783,-0.0,-0.0,-1.0,0.2792332626738935,1.0,1.0
23.22227668762207,-4.683666229248047,0.2768498659133911,-0.5404970318257221,-0.7979198346412157,-0.2668087256326513,0.2091541481575683,3.0,1.0
23.435585021972656,-4.526998519897461,0.2669435739517212,-0.0,-0.0,-1.0,0.1168510709691714,2.0,1.0
23.64652442932129,-4.511358261108398,0.2499552965164184,0.6609341078107628,0.0274753542656083,-0.7499408043574975,0.2665253482774886,3.0,1.0
22.729585647583008,-5.183307647705078,0.8359369039535522,-0.7853509755397282,-0.1623847713066484,-0.5973734437238437,0.2103118600502658,4.0,1.0
22.912609100341797,-5.070046424865723,0.8244665861129761,0.9651486585396528,-0.2092956042781767,0.1571095698833836,0.261190231521152,3.0,1.0
23.40953254699707,-4.848609924316406,0.7913060188293457,0.9616979092668824,0.0775560667528348,-0.2629109884001372,0.2950871988718166,5.0,1.0
24.281768798828125,-4.610433578491211,0.728595495223999,-0.1177861661820264,-0.1095015375515313,-0.9869831975925378,0.1933306400305052,5.0,1.0
22.903656005859375,-4.771888732910156,0.8296846747398376,0.6812459629350568,-0.6824967141493481,-0.2647681498217454,0.2134032168018922,6.0,1.0
23.28066062927246,-4.764781951904297,0.8021265268325806,-0.2202594311485686,0.0518758668184852,-0.9740609208011272,0.1630823689971535,5.0,1.0
23.62126350402832,-4.707169532775879,0.77757728099823,0.478562004772493,0.6145816984223188,-0.6271106310312963,0.1652461104769328,8.0,1.0
23.706562042236328,-4.520664215087891,0.7738882303237915,-0.0,-0.0,-1.0,0.2031185895578114,1.0,1.0
22.93381118774414,-4.764848709106445,0.3087853193283081,0.2820199306034178,0.7658867156787046,-0.5778254905153722,0.1747046513975162,6.0,1.0
23.27184295654297,-4.679662704467773,0.2895443439483642,-0.0,-0.0,-1.0,0.2401458919855136,1.0,1.0
23.487281799316406,-4.715964317321777,0.2718105316162109,0.3556562271102335,-0.5430262463480136,-0.7606780816448577,0.2376798661296505,5.0,1.0
23.67285919189453,-4.423320770263672,0.2743403911590576,-0.0,-0.0,-1.0,0.1548844282560935,1.0,1.0
25.05624771118164,-5.416206359863281,0.1117353439331054,-0.0,-0.0,-1.0,0.2080787486353097,2.0,1.0
22.75520133972168,-5.17387580871582,0.8149600028991699,0.3426156419853436,-0.9394670139241272,-0.0040313292416384,0.1908706515646273,3.0,1.0
22.90802764892578,-4.747201919555664,0.8144866824150085,-0.0,-0.0,-1.0,0.2202769617786733,2.0,1.0
23.28327178955078,-4.733254432678223,0.7902988195419312,0.2920740129402281,-0.404300569326283,-0.8667374577156769,0.2293898451306234,6.0,1.0
23.47984313964844,-4.768101692199707,0.7764944434165955,0.9079236117978166,-0.3418781349394372,-0.2424748564085351,0.2559308725313701,5.0,1.0
23.84528160095215,-4.513401985168457,0.7573416233062744,-0.2782495024575351,-0.4360203076497062,-0.8558408179674475,0.1495954424858843,3.0,1.0
22.90323257446289,-4.583054542541504,-0.0196641683578491,-0.0,-0.0,-1.0,0.1838472518587683,1.0,0.0
23.005462646484375,-4.448551177978516,-0.014763593673706,-0.0,-0.0,-1.0,0.1802328452378024,1.0,0.0
23.259321212768555,-4.416936874389648,-0.0303245782852172,-0.0,-0.0,-1.0,0.126167626649379,1.0,0.0
22.750829696655273,-5.333490371704102,0.4178795218467712,-0.1035415584961889,0.7510177296366481,-0.6521131155218357,0.1941039798806958,4.0,1.0
23.451759338378903,-5.066145896911621,0.385136067867279,-0.9402305710634792,0.1313920721438411,-0.3141696939798474,0.2278502497745724,3.0,1.0
23.04137802124023,-4.842127799987793,0.4256888031959533,-0.3910954844709616,-0.5274438832001119,-0.7542196444678503,0.2071356399431648,5.0,1.0
23.38728141784668,-4.913313865661621,0.3980638980865478,-0.928882441849048,-0.1673836606876939,-0.3303938851724353,0.2247164572387389,3.0,1.0
23.425067901611328,-4.655548095703125,0.4095714688301086,-0.0,-0.0,-1.0,0.2647413445389031,1.0,1.0
23.6241455078125,-4.742694854736328,0.3906744718551636,-0.0,-0.0,-1.0,0.2084417689279107,1.0,1.0
23.922473907470703,-4.447360038757324,0.3852168917655945,-0.0,-0.0,-1.0,0.238185219763683,2.0,1.0
24.275562286376953,-4.486681938171387,0.3567146062850952,-0.0,-0.0,-1.0,0.1619299552900787,2.0,1.0
22.850345611572266,-5.033266067504883,0.9105730056762696,-0.0590439904813549,-0.9396422064781446,-0.3370257126584284,0.2183696950213746,4.0,1.0
23.367084503173828,-4.725262641906738,0.8836386203765869,0.6483915944122827,0.7282070975928362,0.2220422556877758,0.2237979666353291,5.0,1.0
23.537059783935547,-4.793898582458496,0.8710649609565735,-0.0,-0.0,-1.0,0.164014715419676,1.0,1.0
22.75052833557129,-4.830201148986816,0.1237735748291015,-0.5903615900509225,-0.3341645862780336,-0.7347157424951352,0.1362112807141391,4.0,1.0
23.071718215942383,-4.621167182922363,0.1361486911773681,-0.0,-0.0,-1.0,0.1727332335329978,1.0,1.0
25.003520965576172,-5.555668830871582,0.0019121170043945,-0.0,-0.0,-1.0,0.1902588134994237,1.0,1.0
22.86160469055176,-4.828479766845703,0.5663429498672485,-0.0,-0.0,-1.0,0.2524988120121899,2.0,1.0
22.92525291442871,-5.177646636962891,0.5463588237762451,-0.2102575627216532,0.1241266315962225,-0.9697341577189728,0.2209644056063675,5.0,1.0
23.406824111938477,-5.213146209716797,0.5349929332733154,-0.0,-0.0,-1.0,0.208488943564624,2.0,1.0
23.102235794067383,-4.797232627868652,0.5634714365005493,-0.0,-0.0,-1.0,0.1971299353111922,2.0,1.0
23.295703887939453,-4.923185348510742,0.5528373718261719,-0.0,-0.0,-1.0,0.2158365727067606,2.0,1.0
23.505035400390625,-5.289568901062012,0.5288402438163757,-0.0,-0.0,-1.0,0.2509656406292399,1.0,1.0
23.64341163635254,-4.708075523376465,0.557111918926239,-0.4282618920282995,0.7929022417423418,-0.4334717832527394,0.2050739909655994,3.0,1.0
23.89230155944824,-4.769070625305176,0.5483130216598511,-0.0,-0.0,-1.0,0.1743850654832315,1.0,1.0
23.965667724609375,-4.408571243286133,0.5658856630325317,-0.7134772966559586,0.4491150620999833,0.5378157752906036,0.2032211341912069,3.0,1.0
24.222843170166016,-4.57381534576416,0.5510128736495972,-0.0,-0.0,-1.0,0.1857316017057233,2.0,1.0
22.87407493591309,-4.646170616149902,0.04058837890625,-0.0,-0.0,-1.0,0.2343536570045744,2.0,1.0
23.1122989654541,-4.654706001281738,0.0405807495117187,-0.0,-0.0,-1.0,0.1511075194153915,1.0,1.0
24.72008514404297,-6.819426536560059,-0.1920844316482544,-0.0,-0.0,-1.0,0.0246092718943493,1.0,0.0
22.72361183166504,-5.015656471252441,0.4151403903961181,-0.0,-0.0,-1.0,0.1039533231641451,1.0,1.0
22.73556327819824,-5.345583915710449,0.3920395970344543,-0.0,-0.0,-1.0,0.1813860872090134,2.0,1.0
23.0275936126709,-4.951394081115723,0.420552134513855,-0.0,-0.0,-1.0,0.2075369385144082,1.0,1.0
23.234189987182617,-5.160703659057617,0.4062085151672363,-0.0,-0.0,-1.0,0.1846484320359663,2.0,1.0
23.531614303588867,-4.60483455657959,0.4454626441001892,-0.0,-0.0,-1.0,0.1818625094051756,2.0,1.0
23.579824447631836,-4.925205230712891,0.4229135513305664,-0.0,-0.0,-1.0,0.1384768962057681,2.0,1.0
23.80858039855957,-4.463808059692383,0.4551704525947571,0.2970800646036501,0.75386759718586,0.5860265191339968,0.247492951388667,3.0,1.0
23.989261627197266,-4.802399635314941,0.4310895800590515,-0.0,-0.0,-1.0,0.2355484391535689,2.0,1.0
22.76445770263672,-5.111954689025879,0.8240519762039185,-0.0,-0.0,-1.0,0.2310864067772021,2.0,1.0
23.137365341186523,-4.9632720947265625,0.8297680616378784,-0.0,-0.0,-1.0,0.2582289451068745,2.0,1.0
23.258892059326172,-5.04931640625,0.8268430233001709,-0.0,-0.0,-1.0,0.1456561487833643,1.0,1.0
23.446748733520508,-4.930047035217285,0.8311759233474731,-0.0,-0.0,-1.0,0.1876474923650804,2.0,1.0
22.915058135986328,-4.677613735198975,-0.0337041616439819,-0.0,-0.0,-1.0,0.1680192562331643,1.0,0.0
22.819499969482425,-4.800239086151123,-0.0490956306457519,-0.0,-0.0,-1.0,0.1407678461551669,1.0,0.0
23.10181427001953,-4.524612903594971,-0.0141410827636718,-0.0,-0.0,-1.0,0.2001396980659426,2.0,0.0
24.982494354248047,-6.198919773101807,-0.2186863422393798,-0.0,-0.0,-1.0,0.0300881316183344,2.0,0.0
25.01481056213379,-6.232445240020752,-0.2230643033981323,-0.0,-0.0,-1.0,0.0315926998179493,2.0,0.0
25.150859832763672,-6.188761234283447,-0.2197540998458862,-0.3042288377173123,-0.4107196253761962,-0.8595081172577781,0.0327189021857698,3.0,0.0
22.9189395904541,-4.9871697425842285,0.313977837562561,-0.0,-0.0,-1.0,0.2392690004564305,1.0,1.0
23.12380599975586,-5.180683612823486,0.2989581227302551,-0.0,-0.0,-1.0,0.2287267065748955,1.0,1.0
23.27020835876465,-4.92439603805542,0.3208436965942383,-0.0,-0.0,-1.0,0.2454667682800115,2.0,1.0
23.47237205505371,-5.145068645477295,0.3030284643173218,-0.0,-0.0,-1.0,0.1454627134870106,1.0,1.0
23.58814239501953,-4.522209644317627,0.3551992774009704,-0.0,-0.0,-1.0,0.2620820890449857,1.0,1.0
23.67481231689453,-4.777818202972412,0.3339578509330749,-0.0,-0.0,-1.0,0.1697646235213191,2.0,1.0
23.512561798095703,-4.99207067489624,0.3158685564994812,-0.0,-0.0,-1.0,0.1801662934866867,1.0,1.0
23.996976852416992,-4.634265422821045,0.3456581830978393,0.9282545484871184,0.1334680277824326,0.3471739891939542,0.2259286631534674,4.0,1.0
24.48792266845703,-4.4202961921691895,0.361566960811615,-0.0,-0.0,-1.0,0.1504033919607383,1.0,1.0
22.980506896972656,-4.923330783843994,0.6993913054466248,-0.0,-0.0,-1.0,0.208056584487975,2.0,1.0
22.83304977416992,-5.401611804962158,0.6757395267486572,-0.0,-0.0,-1.0,0.1977198828313973,1.0,1.0
23.126811981201172,-4.631419658660889,0.7139744758605957,-0.0,-0.0,-1.0,0.2198925851700742,2.0,1.0
23.345043182373047,-4.86085844039917,0.7033720016479492,0.0348887968551587,0.6898634443881909,-0.7230983335279239,0.2400165566999299,5.0,1.0
23.696102142333984,-4.755310535430908,0.7090016007423401,-0.9834397755333534,-0.03642051837333,-0.17753803463012,0.2388407536196166,4.0,1.0
23.582176208496097,-5.0415825843811035,0.6950570344924927,-0.0,-0.0,-1.0,0.1426391809514991,2.0,1.0
23.915565490722656,-4.616076946258545,0.7158085703849792,-0.0,-0.0,-1.0,0.1932454766260506,1.0,1.0
24.321664810180664,-4.672972202301025,0.7125234007835388,0.1085276121094315,0.4598424270845868,-0.8813436898638246,0.1918784683889247,3.0,1.0
24.90580940246582,-6.040261268615723,-0.2412182092666626,0.2853350627204497,0.8100880623493849,-0.5121925743520067,0.020139963729115,3.0,0.0
25.08604431152344,-5.528500556945801,-0.185633897781372,-0.0,-0.0,-1.0,0.129705947759705,1.0,0.0
25.032470703125,-5.991138458251953,-0.2423549890518188,-0.0,-0.0,-1.0,0.0217690323616416,1.0,0.0
22.78168296813965,-4.77760124206543,0.1922307014465332,0.4111202215962807,0.8340890340971034,-0.3677983776385994,0.1671521026210696,4.0,1.0
22.73573303222656,-5.199321746826172,0.3224043250083923,0.8750691180667733,-0.3826422782083024,-0.2963763241782301,0.1943285258392312,3.0,1.0
22.996671676635746,-4.710471153259277,0.1927003860473632,-0.0,-0.0,-1.0,0.1350478325937283,2.0,1.0
23.109420776367188,-4.998824119567871,0.3273419737815857,-0.0,-0.0,-1.0,0.2248461922813502,1.0,1.0
23.402145385742188,-4.422430992126465,0.207842469215393,-0.92381558049224,-0.0844010134785997,-0.3734183206051504,0.1170816727710759,3.0,1.0
23.522415161132812,-4.771349906921387,0.3320305943489074,-0.398746469890013,-0.5159463994064296,-0.7581560299105944,0.230584497641266,5.0,1.0
23.449310302734375,-4.987473487854004,0.3146265745162964,-0.0,-0.0,-1.0,0.1875871619454231,2.0,1.0
23.93559837341309,-4.617534637451172,0.3282578587532043,-0.0,-0.0,-1.0,0.2783406254210695,1.0,1.0
24.232046127319336,-4.5299577713012695,0.322353184223175,-0.0,-0.0,-1.0,0.2365394121149196,2.0,1.0
24.24746322631836,-5.205278396606445,0.2574087381362915,-0.0,-0.0,-1.0,0.1515892847015854,1.0,1.0
22.737031936645508,-4.736516952514648,0.7018569707870483,-0.0,-0.0,-1.0,0.1725837139753851,2.0,1.0
22.74501037597656,-5.149785995483398,0.6767916679382324,-0.0,-0.0,-1.0,0.1243651686443521,1.0,1.0
22.759464263916016,-5.398504257202148,0.6613834500312805,-0.0,-0.0,-1.0,0.197240733656565,2.0,1.0
23.079139709472656,-4.738910675048828,0.6880422234535217,0.9186818428455013,-0.3189717399739369,0.2329821897141346,0.2278752718805944,5.0,1.0
23.480815887451172,-4.766087532043457,0.6695594191551208,-0.4134531454474886,-0.53010123563149,-0.7403034354246539,0.1846079171892171,4.0,1.0
23.42011070251465,-4.899982452392578,0.6641699075698853,-0.1005654964383256,0.9561390359069796,-0.2751085693703205,0.2203599684096872,4.0,1.0
23.79244041442871,-4.601934432983398,0.6657835841178894,-0.0,-0.0,-1.0,0.2896602821267012,2.0,1.0
24.198299407958984,-4.710261344909668,0.6406816244125366,-0.0,-0.0,-1.0,0.1957273278710383,2.0,1.0
22.787687301635746,-4.736802577972412,-0.1574088335037231,-0.0,-0.0,-1.0,0.2012409652445914,1.0,0.0
22.84491920471191,-4.3919291496276855,0.0455485582351684,-0.0,-0.0,-1.0,0.1395709053696824,2.0,1.0
22.82340431213379,-4.654597759246826,0.0057225227355957,0.0230106958677232,-0.060645689632286,-0.9978940866668704,0.202378412426719,3.0,1.0
23.171411514282227,-4.550075054168701,0.1469291448593139,-0.0,-0.0,-1.0,0.1926274028946871,1.0,1.0
24.96078109741211,-6.070399761199951,-0.2109286785125732,0.2211420309833651,0.7464858875960281,-0.6275786976567339,0.0251814550781354,3.0,0.0
25.113454818725582,-5.958446025848389,-0.2092763185501098,-0.0,-0.0,-1.0,0.0205753540346843,1.0,0.0
22.901700973510746,-4.842555522918701,0.4214451313018799,-0.0,-0.0,-1.0,0.2446484798671958,2.0,1.0
22.814231872558594,-5.170853137969971,0.3913410902023315,0.5686180280067122,-0.17511528751597,-0.803746337039216,0.1785816168879442,6.0,1.0
23.206205368041992,-4.832606792449951,0.4035931825637817,0.9539417059704112,0.1486138888887289,0.2605938096725052,0.2346965410746315,4.0,1.0
23.339183807373047,-5.002542018890381,0.3765017390251159,-0.5479815880244946,-0.8139531258456585,-0.1928639108600543,0.2567556429147893,4.0,1.0
23.66741180419922,-4.646483898162842,0.392508864402771,0.0306811946243301,-0.7621931838492055,-0.6466221576703313,0.23620072317872,4.0,1.0
23.484312057495117,-4.921817302703857,0.3755082488059997,-0.0,-0.0,-1.0,0.185882368014202,1.0,1.0
23.8413028717041,-5.7810444831848145,0.2570319175720215,0.989419886716656,-0.0518937288076912,0.1354818389306599,0.0820269507164642,3.0,1.0
23.991533279418945,-4.6175618171691895,0.3717468976974487,0.6942584802157303,0.6631436895520252,-0.2797241670929986,0.2104913658150573,3.0,1.0
24.24193000793457,-5.267134189605713,0.2820644378662109,-0.0,-0.0,-1.0,0.1589635702850748,1.0,1.0
24.286556243896484,-4.454060077667236,0.3664512038230896,-0.0,-0.0,-1.0,0.2151067568546666,2.0,1.0
22.9261531829834,-4.736814975738525,0.7258520126342773,0.2916275797098491,0.8424249057423165,0.4530713331668919,0.1916107724170319,4.0,1.0
22.95997428894043,-5.051438808441162,0.7009254693984985,-0.0,-0.0,-1.0,0.246282967423796,1.0,1.0
22.749645233154297,-5.386348247528076,0.6899546980857849,-0.6675295716199275,-0.7393792232134947,-0.0878785257791984,0.1345155661558306,4.0,1.0
23.249692916870117,-4.719031810760498,0.706055760383606,0.3543864919368449,0.7374764969152623,-0.574924891468694,0.2362389449766242,6.0,1.0
23.387104034423828,-4.900028705596924,0.6836328506469727,0.3009824553966289,0.953543277717894,-0.0128366297146704,0.2078468710970223,6.0,1.0
23.644256591796875,-4.697131633758545,0.8262287378311157,0.4144779057095915,0.909412494546728,0.0343071485391653,0.2478567633504051,5.0,1.0
23.505142211914062,-4.900777339935303,0.6754287481307983,-0.0,-0.0,-1.0,0.1811552222602284,1.0,1.0
24.115785598754883,-4.57776403427124,0.6544676423072815,-0.0,-0.0,-1.0,0.218366884013497,1.0,1.0
22.776527404785156,-4.649167537689209,0.0043115615844726,-0.0361168043853057,-0.5316521057215031,-0.8461924219247565,0.1387503717360312,3.0,1.0
23.21305274963379,-4.453310489654541,0.0231629610061645,-0.0,-0.0,-1.0,0.1598030002313482,1.0,1.0
24.747303009033203,-6.552402496337891,-0.148966908454895,0.4185379105804704,-0.140052047768553,-0.8973357461523357,0.0398880313277654,7.0,0.0
24.961071014404297,-5.439807415008545,-0.1412410736083984,-0.8484251872430125,0.1637855592805901,-0.5033378509736811,0.139646311967416,3.0,0.0
24.964210510253903,-6.531266212463379,-0.1637872457504272,-0.0,-0.0,-1.0,0.0435751683415806,1.0,0.0
22.942235946655273,-4.759040832519531,0.3667094111442566,-0.1196412791412814,-0.9276818198910246,-0.3536840473771959,0.0980349441173483,6.0,1.0
22.790115356445312,-4.999659538269043,0.3425447940826416,-0.0,-0.0,-1.0,0.1509371013370873,2.0,1.0
22.96041679382324,-5.281242847442627,0.4337007403373718,-0.0,-0.0,-1.0,0.2858004977891585,1.0,1.0
23.261125564575195,-4.671346187591553,0.3638314008712768,0.5368152544570545,-0.7188608739799477,-0.44166551421069,0.2035841455333772,3.0,1.0
23.352306365966797,-4.9457268714904785,0.4516553878784179,0.0045143122686069,0.4193959974588002,-0.9077921669084172,0.190474544494121,4.0,1.0
23.582935333251953,-4.631773948669434,0.3508052825927734,-0.0,-0.0,-1.0,0.2238247306871734,1.0,1.0
23.840486526489254,-5.7447509765625,0.3296226263046264,-0.0,-0.0,-1.0,0.07082847764369,2.0,1.0
24.11079788208008,-4.5121169090271,0.4549505710601806,-0.0,-0.0,-1.0,0.1812638331661736,1.0,1.0
24.163230895996097,-5.014279842376709,0.3930044174194336,0.2651146433854587,-0.9641593771653136,-0.0105319175269906,0.1451128362902629,4.0,1.0
22.97449493408203,-4.703866004943848,0.7525975704193115,0.32792625121253,0.6119852614136694,0.7196793824878821,0.1819561677549662,5.0,1.0
22.844955444335938,-5.3130784034729,0.9844448566436768,-0.0,-0.0,-1.0,0.1077811810317319,2.0,1.0
23.34201431274414,-4.765336990356445,0.727139413356781,0.070425860051921,0.9667163085136096,-0.2459670243950742,0.1753369674799329,5.0,1.0
23.4204044342041,-4.980082035064697,0.7052340507507324,-0.0,-0.0,-1.0,0.2270156994636785,2.0,1.0
23.677337646484375,-4.689236164093018,0.7131377458572388,0.6357870535860651,0.3455736200609171,0.6901838129153299,0.1948081357000825,5.0,1.0
24.132543563842773,-4.551285743713379,0.6945614218711853,-0.0,-0.0,-1.0,0.2372188235289541,1.0,1.0
23.558914184570312,-4.772917747497559,0.9660906791687012,-0.0,-0.0,-1.0,0.1879160845847976,2.0,1.0
24.57190704345703,-6.440849304199219,-0.0981042385101318,-0.0,-0.0,-1.0,0.0615868052389718,1.0,0.0
24.538806915283203,-6.788384914398193,-0.1562294960021972,-0.0189472352779528,0.2423144189562557,-0.970012744576696,0.0382946663612147,3.0,0.0
24.84020614624023,-5.730646133422852,-0.2497951984405517,-0.0,-0.0,-1.0,0.0454617355267062,1.0,0.0
24.84280586242676,-6.6216044425964355,-0.1497373580932617,-0.0,-0.0,-1.0,0.0396010522702492,1.0,0.0
24.658132553100582,-6.762513637542725,-0.1602773666381836,-0.0,-0.0,-1.0,0.0253991638363127,2.0,0.0
25.01586151123047,-5.655400276184082,-0.2490309476852417,-0.1856631193478767,-0.0352292132581335,-0.981981725210418,0.0995264752109893,4.0,0.0
25.20688819885254,-6.568387508392334,-0.1699428558349609,-0.0,-0.0,-1.0,0.026322907783511,2.0,0.0
22.814477920532227,-4.719250679016113,0.1809934377670288,-0.0,-0.0,-1.0,0.2098967733907074,2.0,1.0
22.76093864440918,-5.067817687988281,0.3494793772697449,-0.0,-0.0,-1.0,0.1577768804245599,2.0,1.0
23.051862716674805,-4.640876770019531,0.1894954442977905,-0.0,-0.0,-1.0,0.1759697294567324,2.0,1.0
23.333608627319336,-5.247084617614746,0.4154192805290222,-0.0,-0.0,-1.0,0.152888824108301,1.0,1.0
23.497819900512695,-4.655855655670166,0.2762165665626526,-0.6774606449007573,0.4652314510540808,-0.569742724008622,0.168924749479709,5.0,1.0
23.435482025146484,-4.859079360961914,0.2440389394760131,-0.0,-0.0,-1.0,0.24946823628695,2.0,1.0
23.975873947143555,-4.506165981292725,0.2776917219161987,-0.0,-0.0,-1.0,0.2666882485522646,1.0,1.0
23.824920654296875,-4.795812606811523,0.2358304262161255,-0.0,-0.0,-1.0,0.1100454264366224,2.0,1.0
23.929841995239254,-5.866981029510498,0.2984331846237182,-0.0,-0.0,-1.0,0.0783373028687748,1.0,1.0
24.2391300201416,-4.409257888793945,0.278306782245636,-0.0,-0.0,-1.0,0.1173181824648915,1.0,1.0
25.04158592224121,-5.4747796058654785,0.0330827236175537,-0.0,-0.0,-1.0,0.1987132150915149,2.0,1.0
25.02009391784668,-5.493699073791504,0.0316085815429687,-0.0,-0.0,-1.0,0.2144930613749747,2.0,1.0
22.848159790039062,-4.756087303161621,0.7199601531028748,-0.0,-0.0,-1.0,0.1795048612443065,1.0,1.0
22.73752212524414,-5.085156440734863,0.5785236954689026,-0.0,-0.0,-1.0,0.156967623271841,1.0,1.0
23.12015724182129,-4.706544876098633,0.6062015891075134,-0.0,-0.0,-1.0,0.2445821771630318,2.0,1.0
23.18878173828125,-4.95022439956665,0.5743110179901123,-0.0752818469417202,0.1351489185618551,-0.9879612408048224,0.2286896470938095,3.0,1.0
23.038654327392575,-5.4245734214782715,0.6437137722969055,-0.0,-0.0,-1.0,0.1205639755507451,1.0,1.0
23.60184097290039,-4.69011116027832,0.5847947597503662,-0.0,-0.0,-1.0,0.1551963965108771,2.0,1.0
23.47076988220215,-4.9233527183532715,0.5628785490989685,-0.0,-0.0,-1.0,0.2478080274722484,2.0,1.0
23.913867950439453,-4.5471601486206055,0.5844864845275879,-0.4067935526744221,0.8594404642734197,-0.3096467243036993,0.2366851187938416,4.0,1.0
23.898096084594727,-5.133147716522217,0.6282037496566772,-0.0,-0.0,-1.0,0.1355099840314728,2.0,1.0
24.224565505981445,-4.54685640335083,0.5687146186828613,-0.0,-0.0,-1.0,0.1991775981161103,2.0,1.0
22.815343856811523,-5.043827056884766,0.9186092615127563,-0.0,-0.0,-1.0,0.2406788380159711,2.0,1.0
22.914405822753903,-5.274827003479004,0.8981805443763733,-0.0,-0.0,-1.0,0.2282706830884983,2.0,1.0
23.341299057006836,-4.698302268981934,0.9141241312026978,0.8190444471635514,0.5542860585062,0.1480984770894483,0.2322428232913232,4.0,1.0
23.300819396972656,-4.835872650146484,0.9070901274681092,-0.0,-0.0,-1.0,0.2506780004720065,2.0,1.0
23.578760147094727,-4.741188049316406,0.8980692625045776,-0.205221418190909,0.978412237742633,-0.0243651913837248,0.2601931637131439,4.0,1.0
24.741689682006836,-5.880475997924805,-0.2381836175918579,-0.0,-0.0,-1.0,0.0296269457893416,2.0,0.0
24.72188186645508,-5.899997711181641,-0.2413111925125122,-0.9554098152866012,0.0178428780418342,-0.294743475851811,0.0356759630052557,4.0,0.0
24.940767288208008,-5.855920791625977,-0.2521445751190185,-0.0,-0.0,-1.0,0.0257145649249542,1.0,0.0
24.881183624267575,-5.884178638458252,-0.2530591487884521,-0.0,-0.0,-1.0,0.0278119101861782,1.0,0.0
22.736696243286133,-4.82981538772583,0.1232364177703857,-0.5903615900509225,-0.3341645862780336,-0.7347157424951352,0.1066340647351912,4.0,1.0
22.96379280090332,-4.667625904083252,0.1626187562942505,-0.0,-0.0,-1.0,0.2319179988323071,2.0,1.0
22.902881622314453,-5.441236972808838,0.1834696531295776,-0.0,-0.0,-1.0,0.2385095713504864,1.0,1.0
23.31892204284668,-4.527037620544434,0.1930702924728393,-0.8477186620239958,-0.4858311389561904,-0.2129346718521366,0.190530697750296,4.0,1.0
23.426868438720703,-5.096735000610352,0.2422448396682739,-0.6577189369576599,-0.3236911119733576,-0.680168996644758,0.2618182680324232,3.0,1.0
23.380847930908203,-5.245965480804443,0.2118574380874633,-0.0,-0.0,-1.0,0.1529378807216936,1.0,1.0
23.557823181152344,-4.490781784057617,0.1959757804870605,-0.0,-0.0,-1.0,0.1769399210530436,2.0,1.0
24.11878776550293,-5.152288436889648,0.1939365863800048,0.6524717808837586,-0.74565248769062,-0.1352144324810281,0.1772541672969743,3.0,1.0
24.400157928466797,-6.694213390350342,-0.1641339063644409,-0.0,-0.0,-1.0,0.0470935119476887,2.0,0.0
24.312440872192383,-6.769880294799805,-0.1739542484283447,-0.0,-0.0,-1.0,0.0771784805294762,2.0,0.0
24.59103012084961,-4.7966389656066895,0.052821397781372,-0.0,-0.0,-1.0,0.190360679498292,1.0,1.0
24.782838821411133,-5.83545446395874,-0.2307319641113281,-0.4005940761245239,0.5545868431851078,-0.7293543854258476,0.0224135039652216,3.0,0.0
24.698673248291016,-6.549052715301514,-0.1579655408859253,0.3580637155976836,-0.0240410568083248,-0.93338759535357,0.0400662138655975,5.0,0.0
25.048385620117188,-5.605406284332275,-0.0955238342285156,-0.0,-0.0,-1.0,0.1566438650863589,1.0,0.0
25.078998565673828,-6.482113838195801,-0.1802554130554199,-0.0,-0.0,-1.0,0.0341068360031742,2.0,0.0
22.735862731933594,-4.7672247886657715,0.6954157948493958,-0.0,-0.0,-1.0,0.1902791147188943,2.0,1.0
22.73449325561523,-4.940222263336182,0.4821251630783081,-0.0,-0.0,-1.0,0.1131132012545814,1.0,1.0
22.963733673095703,-4.786325454711914,0.5037763714790344,-0.0,-0.0,-1.0,0.190655281032142,2.0,1.0
23.003297805786133,-5.069681644439697,0.4563100337982178,-0.0,-0.0,-1.0,0.2453396336650786,2.0,1.0
23.344528198242188,-4.766019821166992,0.406420886516571,-0.0,-0.0,-1.0,0.2346819075308263,2.0,1.0
23.33486557006836,-4.906586170196533,0.4712594151496887,0.0900084740399812,-0.0107096825092347,-0.995883415516869,0.1573898776002209,5.0,1.0
23.72185516357422,-4.623414516448975,0.4182159900665283,0.9380374160933952,-0.2948387942508021,0.1820875926952732,0.1951618857650998,4.0,1.0
23.709407806396484,-4.95487642288208,0.6290491819381714,-0.0,-0.0,-1.0,0.1154930412617862,2.0,1.0
23.956140518188477,-5.337428092956543,0.55848628282547,-0.0,-0.0,-1.0,0.2141681091859892,1.0,1.0
23.836694717407227,-5.788468360900879,0.2878415584564209,0.989419886716656,-0.0518937288076912,0.1354818389306599,0.1695398094032047,3.0,1.0
24.114036560058594,-4.542222499847412,0.4128869175910949,0.7487223093238529,-0.2304204142862045,-0.6215475333399132,0.193140615129231,3.0,1.0
24.118896484375,-4.866184234619141,0.2560582160949707,0.2334068247952434,-0.8136379689598516,0.532460805699246,0.1980658797343924,3.0,1.0
24.427001953125,-4.392518043518066,0.3371654152870178,-0.0,-0.0,-1.0,0.1211633885516201,1.0,1.0
22.710939407348633,-5.080816268920898,0.8453619480133057,-0.0,-0.0,-1.0,0.1510738104559294,2.0,1.0
22.981916427612305,-4.719297885894775,0.7852370142936707,0.4584250924792935,0.8879254139867572,-0.0378799918399864,0.2637504959789308,7.0,1.0
22.965009689331055,-5.158908367156982,0.8266968131065369,-0.0,-0.0,-1.0,0.2272559560128565,2.0,1.0
22.92227554321289,-5.437874794006348,0.7988231182098389,-0.0,-0.0,-1.0,0.2056403438101336,1.0,1.0
23.400306701660156,-4.743651866912842,0.7624894380569458,0.1209820031307945,0.8615159389929468,-0.493106116144955,0.2411131155845764,3.0,1.0
23.399662017822266,-4.859981060028076,0.7488546371459961,0.8400932668376673,-0.4650749867889864,0.2791926927361108,0.2018444400490641,4.0,1.0
23.757104873657227,-4.642818927764893,0.6714543700218201,0.0477582312304911,0.895098100314893,0.4433041192707376,0.2153805492159155,5.0,1.0
23.611507415771484,-4.796616554260254,0.8333814144134521,-0.1989230996759368,0.8504158678434094,-0.4870548758974264,0.2685668284422683,4.0,1.0
24.174415588378903,-4.525420188903809,0.6621833443641663,-0.0,-0.0,-1.0,0.1434046351164257,1.0,1.0
22.833641052246097,-5.17134428024292,0.6514676809310913,-0.0,-0.0,-1.0,0.2116411690980834,2.0,1.0
23.002187728881836,-5.1889801025390625,0.6563951969146729,-0.0,-0.0,-1.0,0.1524170688000593,2.0,1.0
23.661420822143555,-5.391798973083496,0.625464677810669,-0.0,-0.0,-1.0,0.2101670045981798,1.0,1.0
23.90618896484375,-5.301094055175781,0.6508400440216064,-0.0,-0.0,-1.0,0.1222915762676204,1.0,1.0
23.926025390625,-5.662027835845947,0.5553162097930908,-0.1435317996097586,-0.7420542223654323,-0.6547932143588674,0.0612365778630994,4.0,1.0
23.99332618713379,-5.975941181182861,0.4715161323547363,-0.0,-0.0,-1.0,0.0860126948148389,2.0,1.0
22.7991886138916,-4.743013381958008,0.8323617577552795,-0.0,-0.0,-1.0,0.2064705127143327,1.0,1.0
22.793970108032227,-5.109634876251221,0.8346296548843384,-0.0,-0.0,-1.0,0.2973968776316308,2.0,1.0
22.84218406677246,-5.367691516876221,0.8690193295478821,-0.0,-0.0,-1.0,0.1932026947589102,1.0,1.0
23.02400779724121,-4.744784832000732,0.7670801877975464,-0.0,-0.0,-1.0,0.2346308878273485,2.0,1.0
23.225610733032227,-4.916689872741699,0.8148230314254761,-0.0,-0.0,-1.0,0.2644446906739681,1.0,1.0
23.4365234375,-4.637493133544922,0.8875018954277039,0.2641037048276085,0.9644847072280543,-0.0042991417219657,0.1753350273083231,3.0,1.0
23.47909927368164,-4.82649564743042,0.8432120084762573,0.6499396739564627,0.3730183044527237,-0.6621448215916079,0.2154730515525003,3.0,1.0
23.587095260620117,-5.134690761566162,0.6912307739257812,-0.0,-0.0,-1.0,0.2150712837539095,2.0,1.0
22.738346099853516,-5.095299243927002,0.9201083779335022,-0.0,-0.0,-1.0,0.1618670546306737,2.0,1.0
22.850906372070312,-5.205741882324219,0.90406596660614,-0.3274388570971274,0.3869081997335745,-0.8620242687081676,0.2057439526706649,6.0,1.0
22.92104721069336,-5.578263759613037,0.8205680847167969,-0.0,-0.0,-1.0,0.2055299286875867,2.0,1.0
22.7197208404541,-5.227607727050781,0.910070538520813,-0.2667555178396939,-0.9233309213168372,-0.2762272677385003,0.1726904671499329,3.0,1.0
22.83456039428711,-4.908417701721191,0.8840624690055847,-0.0,-0.0,-1.0,0.1223506937982692,2.0,1.0
22.80195045471191,-5.2127227783203125,0.9239797592163086,-0.0,-0.0,-1.0,0.1013401485624143,2.0,1.0
23.360048294067383,-4.788548469543457,0.9552204608917236,0.4337484116744101,-0.0171468303822718,-0.9008708573251598,0.2357398701436988,4.0,1.0
22.891332626342773,-4.805158615112305,0.8399378061294556,0.9406987514652192,-0.3135761558509122,0.1294444030213055,0.1541298792781347,5.0,1.0
22.95893287658691,-4.776620864868164,0.842612624168396,0.0944274664846628,0.8948639855227094,-0.4362360610812685,0.2247204821878236,4.0,1.0
22.898292541503903,-5.0378828048706055,0.8837969899177551,0.7066725908351685,-0.6459548988264682,-0.2887145961748346,0.1411147835698498,4.0,1.0
22.723203659057617,-5.355600357055664,0.992000162601471,-0.0,-0.0,-1.0,0.2161082967320712,1.0,1.0
23.35106086730957,-4.706769943237305,0.871794581413269,0.8450880631114134,0.4235032186171176,-0.3262992329251505,0.1938197681799178,6.0,1.0
23.318843841552734,-4.9494428634643555,0.9172337651252748,0.6569105855811075,0.0391524045157568,-0.7529512412979481,0.2849051188373488,3.0,1.0
23.619884490966797,-4.732235908508301,0.9027352333068848,0.0920746648723945,-0.5535798596652745,-0.8276905188907331,0.2018048839198567,5.0,1.0
23.05643081665039,-4.644221782684326,0.7080206871032715,0.0328615321630888,0.549441968069335,-0.834885407363184,0.2716378613005037,4.0,1.0
22.93777656555176,-5.241574764251709,0.6396048069000244,-0.0,-0.0,-1.0,0.2149937010277535,1.0,1.0
23.604700088500977,-4.71558952331543,0.5816136598587036,-0.5404056210289008,0.044265148934548,-0.8402394666701689,0.2015730208762815,3.0,1.0
23.3441219329834,-4.917356967926025,0.6074776649475098,-0.0,-0.0,-1.0,0.2351305949574906,2.0,1.0
23.136795043945312,-5.039939880371094,0.6160436868667603,-0.0,-0.0,-1.0,0.2117196977992768,1.0,1.0
23.60641098022461,-5.012953281402588,0.6541445255279541,-0.0,-0.0,-1.0,0.1937767372482581,2.0,1.0
22.88685607910156,-4.807163715362549,0.8190300464630127,0.9547856083633108,-0.2972951677209829,0.0001590976276706,0.2322696017580021,4.0,1.0
22.804962158203125,-5.175107002258301,0.8784611821174622,-0.5757999031327914,-0.5127879893696211,-0.6367911349182945,0.1955584986705629,5.0,1.0
23.4661922454834,-4.693515300750732,0.8420084714889526,0.2845846613421874,-0.9081476418436268,-0.3070495581215062,0.2419532182934838,7.0,1.0
23.325199127197266,-4.83949613571167,0.8595452308654785,0.6276652833872794,-0.7784833227169435,9.100524093782316e-05,0.2819148607898655,4.0,1.0
23.25695037841797,-5.456607818603516,0.7252026796340942,-0.0,-0.0,-1.0,0.1439429512767707,2.0,1.0
22.9291934967041,-5.612886428833008,0.7207237482070923,-0.0,-0.0,-1.0,0.1037016198606694,1.0,1.0
23.283031463623047,-5.6099419593811035,0.763177752494812,-0.0,-0.0,-1.0,0.1442331854580532,1.0,1.0
22.976016998291016,-4.7841010093688965,0.6069929599761963,-0.5969634061109199,-0.3421882858350263,-0.72563204780504,0.1881906327199854,3.0,1.0
22.817548751831055,-5.058872222900391,0.6539244651794434,-0.0,-0.0,-1.0,0.1760050268867186,1.0,1.0
23.23984718322754,-4.972692012786865,0.5526896715164185,0.8328048761766518,-0.5473301429121579,0.0828598387407814,0.2083751882878711,3.0,1.0
22.992778778076172,-5.244504928588867,0.7035936117172241,-0.0,-0.0,-1.0,0.1924653610804375,1.0,1.0
22.778888702392575,-5.4832329750061035,0.7421817779541016,-0.0,-0.0,-1.0,0.2002892617927197,1.0,1.0
23.31807327270508,-5.510026931762695,0.6793850660324097,-0.0,-0.0,-1.0,0.2298507844590636,1.0,1.0
22.84786033630371,-4.833887100219727,0.931920051574707,-0.2922656606464953,-0.9222556278929372,-0.25303229127262,0.1275715649425522,3.0,1.0
23.474090576171875,-4.537246227264404,0.2705861330032348,0.1638669809859101,0.2794432443074354,-0.9460756236969108,0.1435534129151159,3.0,1.0
23.21641540527344,-4.688231945037842,0.3023778200149536,0.5548731012749977,-0.687016043669153,-0.4691745914077727,0.2079024838962972,5.0,1.0
22.92435836791992,-4.930388927459717,0.3519915342330932,-0.0,-0.0,-1.0,0.2383229858471591,2.0,1.0
22.740398406982425,-5.313853740692139,0.4336963891983032,-0.1144577617076073,0.5855854366404173,-0.8024893252745091,0.1473064114220588,3.0,1.0
24.0670166015625,-4.3927459716796875,0.2333546876907348,-0.0,-0.0,-1.0,0.159793942746554,1.0,1.0
23.698373794555664,-4.67236852645874,0.303554892539978,-0.0,-0.0,-1.0,0.2477573586869633,2.0,1.0
23.39613914489746,-4.955998420715332,0.3691890239715576,-0.0,-0.0,-1.0,0.2006471557621568,2.0,1.0
23.23058319091797,-5.030876159667969,0.3840149641036987,-0.0,-0.0,-1.0,0.2078385588885831,1.0,1.0
22.829261779785156,-5.3700995445251465,0.4507424831390381,-0.0,-0.0,-1.0,0.1305281174037014,1.0,1.0
23.675546646118164,-4.424952507019043,0.7402999401092529,-0.0,-0.0,-1.0,0.1941065968912676,1.0,1.0
23.115169525146484,-4.728465557098389,0.6714992523193359,0.5633090816283531,-0.6392380011479657,-0.5235051637217871,0.1498892953998177,5.0,1.0
22.934253692626953,-4.989706993103027,0.7158901691436768,0.4199953391237714,-0.7104011065729803,0.5647425810882278,0.2284478009932186,5.0,1.0
23.91142845153809,-4.4337382316589355,0.739078164100647,-0.0,-0.0,-1.0,0.2118073498120481,2.0,1.0
23.698375701904297,-4.656867980957031,0.6601494550704956,-0.9523595958389044,0.2140325383791893,0.2172585389081843,0.2451357843754497,3.0,1.0
23.443876266479492,-4.927816867828369,0.7119429111480713,0.7665602364324052,0.6405188306656242,-0.0460546575650793,0.1701076022084546,4.0,1.0
23.275487899780273,-5.359471321105957,0.5729353427886963,-0.0,-0.0,-1.0,0.2140750097162606,1.0,1.0
22.95027732849121,-5.500670433044434,0.7011178731918335,-0.0,-0.0,-1.0,0.1069548929236418,2.0,1.0
23.978097915649418,-4.952862739562988,0.5989177227020264,-0.0,-0.0,-1.0,0.1330363002137358,1.0,1.0
23.86467933654785,-5.21818733215332,0.6538927555084229,0.6372609561077784,0.7704471575206627,-0.0175969113463472,0.1387608613184113,3.0,1.0
23.36789894104004,-5.552252769470215,0.6153019666671753,-0.0,-0.0,-1.0,0.2187736188728773,2.0,1.0
23.95313835144043,-5.607786178588867,0.5269660949707031,-0.5379286025314235,0.6956520591815842,-0.4761313171122142,0.0625006327073388,5.0,1.0
23.90827751159668,-5.640066623687744,0.5349737405776978,0.0634289332403713,-0.7744992187627893,-0.6293867893146611,0.1006225490769791,5.0,1.0
22.97610664367676,-5.209939956665039,0.8670083284378052,-0.0,-0.0,-1.0,0.1618795966853831,2.0,1.0
23.58045768737793,-4.700882911682129,1.0208266973495483,-0.0,-0.0,-1.0,0.1994269818904564,1.0,2.0
22.986225128173828,-4.805031776428223,0.3571765422821045,-0.2857166379104694,0.1177685809178371,-0.951050242715776,0.1768494785896356,4.0,1.0
22.931716918945312,-4.869117259979248,0.3700529336929321,-0.431482528330384,-0.8588250892749947,-0.2761200713048883,0.2749754232304298,3.0,1.0
23.53799819946289,-4.838295936584473,0.0992602109909057,-0.0,-0.0,-1.0,0.103646276472414,2.0,1.0
23.269065856933594,-4.9975104331970215,0.2694417238235473,-0.0,-0.0,-1.0,0.288404005266243,1.0,1.0
23.021562576293945,-5.124907493591309,0.1694705486297607,-0.0,-0.0,-1.0,0.2415350189435258,2.0,1.0
22.7320499420166,-5.417412281036377,0.235809326171875,-0.0,-0.0,-1.0,0.177815069840248,1.0,1.0
23.71149444580078,-4.898210525512695,0.1112574338912963,-0.0,-0.0,-1.0,0.0884690147875815,2.0,1.0
23.468448638916016,-5.124216079711914,0.1694828271865844,-0.0,-0.0,-1.0,0.1590446108389205,2.0,1.0
23.32106590270996,-5.21565580368042,0.192717432975769,-0.0,-0.0,-1.0,0.095155176581424,1.0,1.0
23.111347198486328,-4.610716819763184,0.5854746103286743,-0.6694002823551567,-0.3451513550658899,-0.6578554583485774,0.2176291808335856,4.0,1.0
23.547536849975582,-4.714179039001465,0.5993711948394775,-0.936536812277137,-0.2720223264180468,0.2211394428406932,0.226749976412924,3.0,1.0
23.320966720581055,-4.879087924957275,0.6300418376922607,0.7014495551233421,-0.6705028570763637,-0.2416494160342603,0.1661153343733782,4.0,1.0
22.912757873535156,-5.171804428100586,0.5572035312652588,-0.0189327312995421,0.6368224850300082,-0.7707779668917271,0.1946073603143303,7.0,1.0
22.742753982543945,-5.388823509216309,0.5947200059890747,0.7556325942918771,-0.6515171422371262,-0.0674151007927392,0.1020364200315806,6.0,1.0
23.45813369750977,-5.093218803405762,0.5405807495117188,-0.0,-0.0,-1.0,0.2688083709380698,2.0,1.0
23.26069068908691,-5.428862571716309,0.4861288070678711,0.4737951674780496,0.5511520254236151,-0.6868402901300228,0.1913296956351304,3.0,1.0
23.065723419189453,-5.526834964752197,0.7413184642791748,-0.0,-0.0,-1.0,0.1418051756996955,2.0,1.0
22.900177001953125,-4.715404987335205,0.8652406334877014,0.3172247096651254,-0.782107533483351,-0.5363546304885096,0.2204585775043427,4.0,1.0
22.805635452270508,-4.9307708740234375,0.8940074443817139,0.4815375391091485,-0.7910104042596532,-0.3773912277487189,0.1299837912997531,3.0,1.0
23.34902572631836,-4.825129508972168,0.8772211074829102,0.0190403405592886,-0.7990005949390534,-0.6010287137220857,0.1878712500402517,6.0,1.0
22.863502502441406,-5.173073768615723,0.9265607595443726,0.858642564667072,-0.1162099376573797,-0.4992275999297524,0.2076663120368043,4.0,1.0
22.920671463012695,-6.8457183837890625,-0.1642947196960449,-0.0,-0.0,-1.0,0.1818789773330399,1.0,0.0
22.993932723999023,-6.824176788330078,-0.1729905605316162,-0.0,-0.0,-1.0,0.0874918754193709,1.0,0.0
23.295211791992188,-5.770009994506836,-0.0485167503356933,-0.0,-0.0,-1.0,0.1665469816831906,2.0,0.0
23.55791473388672,-5.511592864990234,-0.1204228401184082,-0.0,-0.0,-1.0,0.1710946859790247,2.0,0.0
23.740442276000977,-5.645086288452148,-0.097966194152832,0.4096143831562255,0.5545593547189264,-0.724347968317212,0.1454286482832968,3.0,0.0
23.875892639160156,-5.261669158935547,-0.1938507556915283,-0.0,-0.0,-1.0,0.1406742996301926,2.0,0.0
23.988798141479492,-5.378684043884277,-0.1724064350128173,-0.0,-0.0,-1.0,0.0976400774198277,1.0,0.0
23.020740509033203,-4.939807891845703,0.2143301963806152,-0.4001470338310595,-0.3289342617373872,-0.8553856456426455,0.1626199610657156,3.0,1.0
23.210329055786133,-5.109010696411133,0.2402091026306152,-0.0,-0.0,-1.0,0.1529300266855171,2.0,1.0
23.579740524291992,-4.877287864685059,0.1793627738952636,-0.0,-0.0,-1.0,0.1926794971345968,2.0,1.0
23.8399715423584,-4.887420654296875,0.1698098182678222,-0.0590478419805782,-0.3606093127841676,-0.9308460000938752,0.1330517451857926,3.0,1.0
23.46343994140625,-4.961940765380859,0.6399917602539062,-0.0,-0.0,-1.0,0.2400675824040915,1.0,1.0
23.571311950683594,-5.259495735168457,0.6833693981170654,-0.0,-0.0,-1.0,0.1502096760029635,2.0,1.0
23.580602645874023,-4.760719299316406,0.6029739379882812,-0.0,-0.0,-1.0,0.2198339932656638,1.0,1.0
23.82923889160156,-5.1887054443359375,0.661247730255127,-0.0,-0.0,-1.0,0.1002352623661132,2.0,1.0
23.805131912231445,-4.692319869995117,0.582711935043335,-0.0,-0.0,-1.0,0.2187917119252963,2.0,1.0
23.226884841918945,-5.077510833740234,0.279275894165039,-0.0,-0.0,-1.0,0.1882581124538516,2.0,1.0
23.155006408691406,-4.856191635131836,0.6826776266098022,-0.0,-0.0,-1.0,0.2095022334362515,1.0,1.0
23.36497688293457,-5.061725616455078,0.7103815078735352,0.4980513008170274,0.6257555224533752,-0.6003123585880691,0.160779425098804,3.0,1.0
22.92607879638672,-4.511845588684082,0.6926393508911133,-0.0,-0.0,-1.0,0.1614933361581033,1.0,1.0
23.059066772460938,-4.924067497253418,0.1903483867645263,-0.0,-0.0,-1.0,0.1888252557823653,2.0,1.0
23.37883186340332,-5.2115678787231445,0.251453161239624,-0.0,-0.0,-1.0,0.1762018402954392,1.0,1.0
23.277122497558594,-4.868073463439941,0.6849701404571533,-0.079573345134797,0.2614956922271985,-0.9619189600432444,0.2497546460430418,3.0,1.0
23.421178817749023,-4.892413139343262,0.6905667781829834,0.7103475472532316,0.6814715740551209,-0.1760762785447089,0.2346490966159222,7.0,1.0
22.942506790161133,-4.672933578491211,0.6513221263885498,-0.0,-0.0,-1.0,0.1661375457357237,1.0,1.0
23.11496925354004,-4.689970016479492,0.6564335823059082,0.6750810560285223,-0.2905666449631047,-0.6781125220981399,0.2122787638137707,4.0,1.0
23.40058708190918,-4.785001754760742,0.6744318008422852,0.7999348964392178,0.4171987135050692,-0.4313344351063256,0.2295217543186,3.0,1.0
23.269386291503903,-5.255119323730469,0.7417128086090088,-0.0,-0.0,-1.0,0.1434690688958868,1.0,1.0
23.043899536132812,-6.5081586837768555,-0.16306734085083,-0.0,-0.0,-1.0,0.1016691850335785,1.0,0.0
23.34844207763672,-6.521477699279785,-0.1422250270843505,-0.0,-0.0,-1.0,0.1186479498044896,1.0,0.0
23.432188034057617,-6.343750953674316,-0.1743066310882568,-0.0,-0.0,-1.0,0.0845953534646406,1.0,0.0
24.116451263427734,-6.79287052154541,-0.1096587181091308,-0.0,-0.0,-1.0,0.0714254522201235,1.0,0.0
24.253517150878903,-6.565229415893555,-0.1396853923797607,-0.0,-0.0,-1.0,0.0737511891679925,1.0,0.0
24.47453498840332,-6.473836898803711,-0.1378135681152343,-0.0,-0.0,-1.0,0.0544568454549897,1.0,0.0
24.83060836791992,-6.509006500244141,-0.1014914512634277,-0.0,-0.0,-1.0,0.0416561763688929,1.0,0.0
