x,y,z,nx,ny,nz,curvature,density,label
16.93963050842285,31.672279357910156,-1.8520801067352295,-0.0,-0.0,-1.0,0.0921536804428585,1.0,0.0
15.855045318603516,32.70366287231445,-1.9778425693511963,-0.0,-0.0,-1.0,0.2029155545301251,1.0,0.0
16.131515502929688,33.10458755493164,-1.440647840499878,0.1365622616874431,-0.1944736619545032,-0.9713551067909284,0.2181987489996364,4.0,0.0
16.20328140258789,32.44823455810547,-1.3159759044647217,-0.0,-0.0,-1.0,0.1097525145638936,2.0,0.0
16.08172607421875,32.3276252746582,-1.2820930480957031,-0.0,-0.0,-1.0,0.0690683390952184,1.0,0.0
16.01431655883789,31.95248031616211,-1.457261323928833,-0.0,-0.0,-1.0,0.1578785714904507,2.0,0.0
16.028043746948242,31.96896743774414,-1.4227263927459717,0.0741147562501951,0.8881794119657632,-0.4534802477133101,0.1572769047410407,3.0,0.0
16.01812171936035,32.29082489013672,-1.2516326904296875,-0.0,-0.0,-1.0,0.0537093857055614,2.0,0.0
16.10657501220703,33.06317901611328,-1.4409940242767334,0.5294844359673433,-0.4744783751136378,-0.7032186741105974,0.2181987489996363,5.0,0.0
15.809551239013672,31.53221893310547,-1.9714140892028809,-0.0,-0.0,-1.0,0.0627664827032353,1.0,0.0
16.060508728027344,31.74732208251953,-2.0381131172180176,-0.0,-0.0,-1.0,0.1150838174917151,1.0,0.0
16.14936065673828,31.724414825439453,-2.032043933868408,-0.0,-0.0,-1.0,0.1114912417298466,1.0,0.0
15.795022010803224,31.991012573242188,-1.5267934799194336,-0.0,-0.0,-1.0,0.1379937891558351,1.0,0.0
15.551275253295898,32.546913146972656,-1.6700687408447266,-0.0,-0.0,-1.0,0.0837616714149626,1.0,0.0
15.73379898071289,30.736480712890625,-1.394261121749878,-0.0,-0.0,-1.0,0.1622337837466205,1.0,0.0
17.152530670166016,30.94650650024414,-1.942074418067932,-0.0,-0.0,-1.0,0.0223448787834563,1.0,0.0
15.923832893371582,32.14769744873047,-1.5443129539489746,-0.0,-0.0,-1.0,0.2231014201361877,2.0,0.0
16.118820190429688,32.15550231933594,-1.5372960567474363,-0.0,-0.0,-1.0,0.1373938081846296,1.0,0.0
16.127269744873047,32.917457580566406,-1.9026525020599363,-0.0,-0.0,-1.0,0.0885791649144148,1.0,0.0
15.59870147705078,32.27886962890625,-1.9672729969024656,-0.0,-0.0,-1.0,0.0416280933394781,2.0,0.0
15.981060028076172,31.896297454833984,-1.9236879348754885,-0.0,-0.0,-1.0,0.2290308513675624,1.0,0.0
15.658058166503906,31.11508560180664,-1.9105942249298096,-0.0,-0.0,-1.0,0.0825108879175504,1.0,0.0
16.11568832397461,31.988391876220703,-1.8012369871139526,-0.0,-0.0,-1.0,0.0971314112807573,1.0,0.0
15.554218292236328,31.51260757446289,-1.8472743034362793,-0.0,-0.0,-1.0,0.1637137667012747,1.0,0.0
15.53769302368164,31.3675537109375,-1.8456673622131348,-0.0,-0.0,-1.0,0.1433690002542329,1.0,0.0
15.825080871582031,30.65847396850586,-1.6220972537994385,-0.0,-0.0,-1.0,0.1833285200045777,1.0,0.0
17.066831588745117,32.84587097167969,-2.0828776359558105,-0.0,-0.0,-1.0,0.0241053651711996,1.0,0.0
17.183555603027344,32.40333557128906,-2.0535993576049805,-0.0,-0.0,-1.0,0.0618637767664897,1.0,0.0
17.124568939208984,32.35588836669922,-2.0870232582092285,-0.0,-0.0,-1.0,0.0681785559317187,1.0,0.0
17.2462215423584,32.1196174621582,-2.0686631202697754,-0.0,-0.0,-1.0,0.0448725512840368,1.0,0.0
15.841363906860352,32.415714263916016,-2.000263214111328,-0.0,-0.0,-1.0,0.0866837847022099,1.0,0.0
15.948867797851562,32.05348587036133,-1.9829331636428833,-0.0,-0.0,-1.0,0.2066084753337386,1.0,0.0
15.631113052368164,31.97787094116211,-2.0161561965942383,-0.0,-0.0,-1.0,0.099835813233684,2.0,0.0
16.85152244567871,30.81842803955078,-1.8665343523025513,-0.0,-0.0,-1.0,0.0614978561700687,2.0,0.0
16.80999755859375,30.980316162109375,-1.8734036684036257,-0.0,-0.0,-1.0,0.0600373822609077,2.0,0.0
17.137086868286133,32.25154113769531,-2.0834646224975586,-0.0,-0.0,-1.0,0.0615271004000101,1.0,0.0
17.510860443115234,31.305795669555664,-2.0083751678466797,-0.0,-0.0,-1.0,0.0175750112795474,1.0,0.0
16.096696853637695,33.068050384521484,-1.9901412725448608,-0.0,-0.0,-1.0,0.0821809428643283,1.0,0.0
15.929277420043944,32.437198638916016,-1.985150456428528,-0.0,-0.0,-1.0,0.0874709332035965,1.0,0.0
15.914743423461914,32.11284255981445,-1.9755319356918335,-0.0,-0.0,-1.0,0.1838307689227117,1.0,0.0
15.595333099365234,32.00586700439453,-2.005253791809082,-0.0,-0.0,-1.0,0.0843204768569245,2.0,0.0
16.846405029296875,30.92825698852539,-1.8384326696395872,-0.0,-0.0,-1.0,0.0600373822609077,1.0,0.0
16.9361515045166,32.184112548828125,-1.9563137292861936,-0.0,-0.0,-1.0,0.0637457595311114,1.0,0.0
16.66388702392578,32.07352828979492,-1.9795812368392944,-0.0,-0.0,-1.0,0.0259770037418973,1.0,0.0
17.260169982910156,31.175533294677734,-1.8771802186965945,-0.0,-0.0,-1.0,0.0199103703487015,1.0,0.0
17.21506118774414,31.397939682006836,-1.8917232751846311,-0.0,-0.0,-1.0,0.0212668693674967,1.0,0.0
17.207990646362305,30.905982971191406,-1.8709996938705444,-0.0,-0.0,-1.0,0.0223448787834564,1.0,0.0
17.08563232421875,30.99828338623047,-1.8879011869430544,-0.0,-0.0,-1.0,0.0282634896816219,1.0,0.0
15.901317596435549,32.962646484375,-2.0942840576171875,-0.0,-0.0,-1.0,0.1179348438182946,1.0,0.0
15.615657806396484,32.85454559326172,-2.123511791229248,-0.0,-0.0,-1.0,0.1147739527217737,1.0,0.0
16.13548469543457,32.18766784667969,-2.0392708778381348,-0.0,-0.0,-1.0,0.1819078786127178,2.0,0.0
16.72325325012207,31.860187530517575,-1.9590672254562376,-0.7265556894198857,-0.2424901316492159,-0.6428960773129206,0.0401012614930272,3.0,0.0
17.118988037109375,31.311187744140625,-1.893551468849182,-0.0,-0.0,-1.0,0.0218975652079018,1.0,0.0
17.111783981323242,30.950571060180664,-1.8820968866348269,-0.0,-0.0,-1.0,0.0233110889634314,1.0,0.0
16.152761459350586,32.33372497558594,-1.3759418725967407,-0.0,-0.0,-1.0,0.1325849190730879,2.0,0.0
15.995920181274414,31.95353126525879,-1.3820725679397583,-0.0,-0.0,-1.0,0.1565270973540932,1.0,0.0
17.15984344482422,32.481327056884766,-2.0561516284942627,-0.0,-0.0,-1.0,0.0571353274859082,1.0,0.0
17.142202377319336,32.1329460144043,-2.038044691085815,-0.0,-0.0,-1.0,0.051984823069217,1.0,0.0
16.998470306396484,31.890405654907227,-2.0412347316741943,-0.0,-0.0,-1.0,0.0557507330416385,1.0,0.0
17.342947006225586,31.30512046813965,-1.9674556255340576,-0.0,-0.0,-1.0,0.0190876114766387,1.0,0.0
17.501665115356445,30.83155059814453,-1.9223871231079104,-0.0,-0.0,-1.0,0.0170181653662985,1.0,0.0
17.28923225402832,30.999990463256836,-1.957059383392334,-0.0,-0.0,-1.0,0.0161489679952542,1.0,0.0
16.028114318847656,32.29709243774414,-1.207484483718872,-0.0,-0.0,-1.0,0.0585290782415383,2.0,0.0
15.956432342529297,32.44416046142578,-1.8376531600952148,-0.0,-0.0,-1.0,0.1263368648755344,1.0,0.0
16.004587173461914,32.093746185302734,-1.8149080276489256,-0.0,-0.0,-1.0,0.1579703040448548,1.0,0.0
15.65049934387207,31.160303115844727,-1.8116610050201416,-0.0,-0.0,-1.0,0.1128603630629502,2.0,0.0
15.82746696472168,32.87580108642578,-1.608346462249756,-0.0,-0.0,-1.0,0.0480841202570916,1.0,0.0
16.1041202545166,32.5113525390625,-1.5606396198272705,-0.0,-0.0,-1.0,0.1119773960325442,1.0,0.0
15.963741302490234,32.1595458984375,-1.554476022720337,-0.0,-0.0,-1.0,0.2126366717699944,2.0,0.0
15.479408264160156,31.18657493591309,-1.550407648086548,-0.0,-0.0,-1.0,0.103428577157009,1.0,0.0
16.004457473754883,30.875558853149418,-1.480966329574585,-0.0,-0.0,-1.0,0.1635390846853631,1.0,0.0
15.581140518188477,32.86748123168945,-1.5674054622650146,0.6490105772348512,0.4013559854104292,-0.646296095928568,0.1049299638099872,6.0,0.0
16.050186157226562,32.25640106201172,-1.4845242500305176,-0.0,-0.0,-1.0,0.1023433242217066,1.0,0.0
15.767810821533203,30.672016143798828,-1.4296517372131348,-0.0,-0.0,-1.0,0.1562047152423926,2.0,0.0
16.131044387817383,33.07318878173828,-1.6832077503204346,-0.0,-0.0,-1.0,0.088082767137051,1.0,0.0
15.534784317016602,32.827903747558594,-1.7461249828338623,-0.0,-0.0,-1.0,0.0782343019368089,1.0,0.0
15.95537567138672,32.197242736816406,-1.662006378173828,-0.0,-0.0,-1.0,0.1644400074553399,2.0,0.0
15.942026138305664,31.31917381286621,-1.6225688457489014,-0.0,-0.0,-1.0,0.1246446951913351,1.0,0.0
15.468050003051758,31.094181060791016,-1.6745469570159912,-0.0,-0.0,-1.0,0.0720191672140212,1.0,0.0
15.891435623168944,30.842121124267575,-1.607811689376831,-0.0,-0.0,-1.0,0.2083402992403504,1.0,0.0
15.464773178100586,30.93746566772461,-1.668179988861084,-0.0,-0.0,-1.0,0.129598816076445,1.0,0.0
16.030136108398438,33.015167236328125,-2.2089858055114746,-0.0,-0.0,-1.0,0.0997691091150392,1.0,0.0
17.048675537109375,32.22753143310547,-2.010519504547119,-0.5625781435935081,-0.7014918991441667,-0.4375099402139255,0.0768244729147212,4.0,0.0
16.826679229736328,32.18143081665039,-2.035022735595703,-0.0,-0.0,-1.0,0.0531147660431432,1.0,0.0
16.5731201171875,32.21876907348633,-2.070925235748291,-0.0,-0.0,-1.0,0.0192067918539172,1.0,0.0
16.630165100097656,31.910381317138672,-2.0374832153320312,-0.0,-0.0,-1.0,0.026480397120243,1.0,0.0
16.967845916748047,31.40047264099121,-1.9506281614303589,-0.0,-0.0,-1.0,0.0217332272357373,2.0,0.0
17.08612632751465,30.81670379638672,-1.886813044548035,-0.0,-0.0,-1.0,0.0552244614614959,1.0,0.0
17.034828186035156,31.072311401367188,-1.9145809412002563,-0.0,-0.0,-1.0,0.023353166714951,1.0,0.0
15.455608367919922,31.233097076416016,-1.3413671255111694,-0.0,-0.0,-1.0,0.1205817639935205,1.0,0.0
15.456916809082031,31.12698554992676,-1.3355313539505005,0.0890089616729896,0.1399928631601803,-0.9861437030200572,0.1795150265357373,3.0,0.0
16.13503646850586,33.01738357543945,-1.7997145652770996,-0.0,-0.0,-1.0,0.064935275688296,2.0,0.0
16.008588790893555,32.27386474609375,-1.7494492530822754,-0.0,-0.0,-1.0,0.1858688932989153,1.0,0.0
15.939112663269045,32.088008880615234,-1.7413873672485352,-0.0,-0.0,-1.0,0.1808319060200242,1.0,0.0
16.006576538085938,31.274723052978516,-1.665942907333374,-0.0,-0.0,-1.0,0.0981994850787702,1.0,0.0
15.845967292785645,31.01332092285156,-1.6629323959350586,-0.0,-0.0,-1.0,0.1033186039885159,1.0,0.0
15.440119743347168,31.196266174316406,-1.7244722843170166,-0.0,-0.0,-1.0,0.0702232386483512,1.0,0.0
15.394279479980469,30.722476959228516,-1.6920335292816162,-0.0,-0.0,-1.0,0.0979247564682189,1.0,0.0
16.302196502685547,33.006591796875,-1.995074152946472,-0.0,-0.0,-1.0,0.0871212416335253,1.0,0.0
16.025070190429688,32.53406524658203,-1.9846502542495728,-0.0,-0.0,-1.0,0.162902969921361,1.0,0.0
15.44859504699707,32.625465393066406,-2.0662407875061035,-0.0,-0.0,-1.0,0.157463103368609,1.0,0.0
16.17432403564453,32.146751403808594,-1.929677128791809,-0.0,-0.0,-1.0,0.1791186944641253,1.0,0.0
15.631062507629396,32.30791091918945,-2.013817310333252,-0.0,-0.0,-1.0,0.0457160920375198,1.0,0.0
16.156173706054688,32.357933044433594,-1.2023180723190308,-0.0,-0.0,-1.0,0.0922728799361456,1.0,0.0
16.168193817138672,32.97926330566406,-1.7621735334396362,-0.0,-0.0,-1.0,0.0641127842169435,1.0,0.0
15.745795249938965,32.593994140625,-1.770914912223816,-0.0,-0.0,-1.0,0.1273737667722069,1.0,0.0
15.985251426696776,32.191070556640625,-1.7043527364730835,-0.0,-0.0,-1.0,0.235975026690352,1.0,0.0
16.16147232055664,32.198150634765625,-1.6851204633712769,-0.0,-0.0,-1.0,0.1872215389208385,1.0,0.0
15.991888999938965,32.07284927368164,-1.6920686960220337,-0.0,-0.0,-1.0,0.2336750456638927,2.0,0.0
16.12345314025879,31.278995513916016,-1.6004782915115356,-0.0,-0.0,-1.0,0.1639891989743083,1.0,0.0
16.12720489501953,31.171710968017575,-1.5898464918136597,-0.0,-0.0,-1.0,0.1488682269790931,1.0,0.0
15.522807121276855,31.029693603515625,-1.6482242345809937,-0.0,-0.0,-1.0,0.1086602349688056,1.0,0.0
15.45259952545166,31.20746612548828,-1.673012375831604,-0.0,-0.0,-1.0,0.0776664308239153,2.0,0.0
15.97036361694336,30.837024688720703,-1.5769087076187134,-0.0,-0.0,-1.0,0.2250712293673887,1.0,0.0
17.053680419921875,32.200584411621094,-1.9985365867614744,-0.2044433515053781,-0.4291917996796405,-0.8797711720174739,0.0768244729147212,3.0,0.0
16.71253204345703,32.2332763671875,-2.043127059936523,-0.0,-0.0,-1.0,0.0235622682919949,1.0,0.0
16.47907066345215,32.216793060302734,-2.069106101989746,-0.0,-0.0,-1.0,0.0375505222473761,1.0,0.0
16.324827194213867,31.86370277404785,-2.0435543060302734,-0.0,-0.0,-1.0,0.0455250954322572,1.0,0.0
16.859329223632812,31.69188117980957,-1.9564781188964844,-0.0,-0.0,-1.0,0.0348775671840798,1.0,0.0
16.86058807373047,31.359554290771484,-1.914379596710205,-0.0,-0.0,-1.0,0.0221523727525846,2.0,0.0
16.834808349609375,30.978973388671875,-1.8700721263885496,-0.0,-0.0,-1.0,0.0600373822609077,2.0,0.0
16.10573387145996,33.012779235839844,-1.4971907138824463,-0.0,-0.0,-1.0,0.2181987489996363,2.0,0.0
16.159727096557617,32.6409912109375,-1.4552435874938965,-0.0,-0.0,-1.0,0.1283025929336614,2.0,0.0
16.17889404296875,32.263511657714844,-1.416515827178955,-0.6782934967726825,-0.7326458474821811,0.0561069906785572,0.1041683681365564,3.0,0.0
15.98261833190918,32.1922607421875,-1.4296438694000244,-0.7769967153316788,0.5951513319951802,-0.2051121556323382,0.1856691484845565,4.0,0.0
16.02461051940918,31.90967559814453,-1.3982841968536377,-0.0,-0.0,-1.0,0.1462716585789821,2.0,0.0
15.392827987670898,31.21639060974121,-1.4011242389678955,-0.3725490354377029,0.7008693991683873,-0.6082674588565306,0.136894971107489,3.0,0.0
15.7363920211792,30.81188201904297,-1.3269023895263672,-0.0,-0.0,-1.0,0.199179351771055,2.0,0.0
16.308841705322266,32.98966979980469,-2.25531005859375,-0.0,-0.0,-1.0,0.0676814005810092,1.0,0.0
16.64510726928711,32.583736419677734,-2.1580071449279785,-0.0,-0.0,-1.0,0.0168985864020997,1.0,0.0
17.07231903076172,32.20512771606445,-2.0541043281555176,-0.0,-0.0,-1.0,0.0768244729147211,2.0,0.0
16.741043090820312,32.196128845214844,-2.091719627380371,-0.0,-0.0,-1.0,0.0262747415092832,1.0,0.0
16.701702117919922,31.865142822265625,-2.04993200302124,-0.0,-0.0,-1.0,0.0374161800124085,1.0,0.0
17.000919342041016,31.578563690185547,-1.9736188650131223,-0.0,-0.0,-1.0,0.0352941743427123,1.0,0.0
16.095703125,33.056968688964844,-1.5944355726242063,0.1658536335096344,-0.3511124126557973,-0.9215273441036228,0.1260224268898948,3.0,0.0
15.974993705749512,32.5232048034668,-1.5481916666030884,-0.0,-0.0,-1.0,0.1566980245818252,1.0,0.0
15.67821216583252,32.604618072509766,-1.5878156423568726,-0.0,-0.0,-1.0,0.1018808485534368,1.0,0.0
16.171794891357422,32.23410415649414,-1.4963539838790894,-0.0,-0.0,-1.0,0.1093707823219779,2.0,0.0
16.967226028442383,31.19141387939453,-1.9236739873886108,-0.0,-0.0,-1.0,0.0175670792666013,1.0,0.0
16.909255981445312,30.958202362060547,-1.898670554161072,-0.0,-0.0,-1.0,0.0614978561700686,1.0,0.0
15.505701065063477,31.20034408569336,-1.4596840143203735,-0.0,-0.0,-1.0,0.1512978521000502,2.0,0.0
16.04041290283203,32.12107849121094,-1.9995501041412351,-0.0,-0.0,-1.0,0.2236495895415916,2.0,0.0
15.881928443908691,32.07871627807617,-2.0125269889831543,-0.0,-0.0,-1.0,0.194144795696044,1.0,0.0
16.14746856689453,33.08887481689453,-1.4457271099090576,-0.1896469589938455,0.1223694327936807,-0.9741969784710584,0.2181987489996363,3.0,0.0
16.131519317626953,32.99249267578125,-1.4364721775054932,-0.0,-0.0,-1.0,0.2225967417914678,1.0,0.0
15.48125457763672,32.87062072753906,-1.4861929416656494,-0.0,-0.0,-1.0,0.1049299638099872,2.0,0.0
16.097084045410156,32.29977798461914,-1.3633787631988523,-0.0,-0.0,-1.0,0.0820180173817922,1.0,0.0
15.427898406982422,31.066802978515625,-1.301999568939209,-0.0,-0.0,-1.0,0.1821109472355268,1.0,0.0
15.867502212524414,30.74732208251953,-1.2216873168945312,-0.0,-0.0,-1.0,0.2037065404320066,1.0,0.0
16.095796585083008,32.732139587402344,-2.1780591011047363,-0.0,-0.0,-1.0,0.1392372758737693,1.0,0.0
16.723833084106445,32.60350036621094,-2.101195812225342,-0.7950062595034809,-0.37271994363351,-0.4785863464079568,0.0170592216090722,3.0,0.0
17.01986312866211,32.130859375,-1.9970996379852295,-0.0,-0.0,-1.0,0.0926150685411918,2.0,0.0
16.73246955871582,31.89678192138672,-1.983285665512085,-0.7265556894198857,-0.2424901316492159,-0.6428960773129206,0.04279508976409,3.0,0.0
16.064231872558594,31.498546600341797,-1.9812779426574707,-0.0,-0.0,-1.0,0.0773243070721074,1.0,0.0
16.86301040649414,31.380638122558594,-1.886631965637207,-0.0,-0.0,-1.0,0.0230996221474274,2.0,0.0
16.127666473388672,32.949241638183594,-1.5438294410705566,-0.0,-0.0,-1.0,0.1959130726187229,1.0,0.0
15.739428520202637,32.72686767578125,-1.543961763381958,-0.0,-0.0,-1.0,0.0953705974931044,1.0,0.0
15.99358367919922,32.12675476074219,-1.445992946624756,-0.0,-0.0,-1.0,0.1897296483088339,1.0,0.0
15.407325744628906,31.148780822753903,-1.3701322078704834,-0.0,-0.0,-1.0,0.1398015092149522,1.0,0.0
15.87338924407959,30.67320251464844,-1.2701077461242676,-0.0,-0.0,-1.0,0.1821695054331835,1.0,0.0
15.38096046447754,30.798866271972656,-1.329120635986328,-0.0,-0.0,-1.0,0.0824861541206711,1.0,0.0
17.357925415039062,31.870018005371097,-2.1326329708099365,-0.0,-0.0,-1.0,0.039236909414216,1.0,0.0
17.271530151367188,31.937442779541016,-2.1514158248901367,-0.0,-0.0,-1.0,0.0402029294492455,2.0,0.0
17.464773178100586,31.75562286376953,-2.103633403778076,-0.0,-0.0,-1.0,0.0204694373273676,1.0,0.0
17.359695434570312,31.167484283447266,-2.0010740756988525,-0.0,-0.0,-1.0,0.0195414334062497,1.0,0.0
16.16245460510254,33.040016174316406,-1.7719812393188477,-0.2114626321141686,0.8491719195237325,-0.4839324398216419,0.0677953763899729,3.0,0.0
15.980932235717772,32.22407150268555,-1.6614997386932373,-0.0,-0.0,-1.0,0.1326467132083874,2.0,0.0
15.974370956420898,32.07733154296875,-1.640092372894287,-0.0,-0.0,-1.0,0.1991079298927776,1.0,0.0
15.91192626953125,31.390483856201172,-1.5429162979125977,-0.0,-0.0,-1.0,0.2039449917778662,1.0,0.0
16.18593978881836,33.072509765625,-2.1227545738220215,-0.0,-0.0,-1.0,0.0821809428643283,1.0,0.0
15.743268966674805,32.45878601074219,-2.0209994316101074,-0.0,-0.0,-1.0,0.1135327158016208,1.0,0.0
15.571504592895508,32.30537414550781,-1.998296856880188,-0.0,-0.0,-1.0,0.0563205143725111,2.0,0.0
16.085491180419922,32.10823440551758,-1.9475263357162476,-0.0,-0.0,-1.0,0.2246740448038657,1.0,0.0
16.226829528808594,31.092235565185547,-1.7580033540725708,-0.0,-0.0,-1.0,0.0803498798539439,1.0,0.0
16.183008193969727,32.89302444458008,-1.4252179861068726,-0.0,-0.0,-1.0,0.0981854460698253,1.0,0.0
16.22683334350586,32.34054946899414,-1.3414708375930786,-0.0,-0.0,-1.0,0.1258931173083237,2.0,0.0
16.130403518676758,32.256690979003906,-1.8744757175445557,-0.0,-0.0,-1.0,0.1399403744696794,1.0,0.0
15.96578598022461,32.09187316894531,-1.852830171585083,-0.0,-0.0,-1.0,0.1470877708362554,1.0,0.0
16.024951934814453,31.26592445373535,-1.71285080909729,-0.0,-0.0,-1.0,0.083279306577793,1.0,0.0
16.027132034301758,30.6429443359375,-1.609490156173706,-0.0,-0.0,-1.0,0.2264333378577026,1.0,0.0
17.06740951538086,32.156898498535156,-2.1794791221618652,-0.0,-0.0,-1.0,0.088691212028142,1.0,0.0
17.629236221313477,32.27040100097656,-2.204521894454956,-0.0,-0.0,-1.0,0.0251091248171378,1.0,0.0
17.250938415527344,31.90525245666504,-2.1321935653686523,-0.0,-0.0,-1.0,0.0377717363433296,2.0,0.0
17.5118408203125,31.43647003173828,-2.0440728664398193,-0.0,-0.0,-1.0,0.0165875493792698,1.0,0.0
17.14499282836914,31.25954246520996,-2.0091030597686768,-0.0,-0.0,-1.0,0.0205693167933091,1.0,0.0
17.665359497070312,31.30054473876953,-2.0191359519958496,-0.0,-0.0,-1.0,0.015245291369504,1.0,0.0
15.46261215209961,32.734130859375,-1.5939691066741943,-0.0,-0.0,-1.0,0.0819386424119227,1.0,0.0
15.939390182495115,32.779808044433594,-1.600106716156006,-0.0,-0.0,-1.0,0.1417933344408848,1.0,0.0
16.01373291015625,32.26876449584961,-1.522144794464111,-0.0,-0.0,-1.0,0.1252634875029894,1.0,0.0
15.578792572021484,32.44929885864258,-1.8274123668670657,-0.0,-0.0,-1.0,0.1358542379763733,1.0,0.0
15.996793746948242,31.043052673339844,-1.6510002613067627,-0.0,-0.0,-1.0,0.1146039805794418,1.0,0.0
15.84528636932373,31.90863800048828,-1.756871461868286,-0.0,-0.0,-1.0,0.1034665099065198,1.0,0.0
15.997587203979492,32.01342010498047,-1.765547513961792,-0.0,-0.0,-1.0,0.1358576933769591,1.0,0.0
16.237451553344727,33.1082763671875,-1.8671798706054688,-0.0,-0.0,-1.0,0.0746052942723801,1.0,0.0
17.24063491821289,31.7918643951416,-1.581274151802063,-0.0,-0.0,-1.0,0.0939944545300625,1.0,0.0
16.788288116455078,31.012346267700195,-1.493810772895813,-0.0,-0.0,-1.0,0.0538477973681234,1.0,0.0
16.063039779663086,32.203590393066406,-1.5355697870254517,-0.0,-0.0,-1.0,0.1717334450723885,1.0,0.0
15.470026016235352,32.83763885498047,-1.614540457725525,-0.0,-0.0,-1.0,0.1197941962079711,1.0,0.0
15.89146614074707,32.24308776855469,-1.557321548461914,-0.0,-0.0,-1.0,0.1820349016927324,1.0,0.0
15.562292098999023,32.810062408447266,-1.6192998886108398,-0.0,-0.0,-1.0,0.1295986634736766,2.0,0.0
16.057586669921875,32.21888732910156,-1.9197273254394531,-0.0,-0.0,-1.0,0.1801241850732584,1.0,0.0
16.096412658691406,32.26258087158203,-1.5173722505569458,-0.0,-0.0,-1.0,0.1431265301442726,1.0,0.0
16.052650451660156,33.00006866455078,-1.578377366065979,-0.2093956147902534,0.3543546543184659,-0.9113650506078516,0.1966102166924511,3.0,0.0
15.90539264678955,32.19208526611328,-1.526210904121399,-0.0,-0.0,-1.0,0.2157407117468628,1.0,0.0
15.552740097045898,32.854774475097656,-1.6045225858688354,0.5838460281869224,0.5323836961837201,-0.6129367140318124,0.1295986634736767,4.0,0.0
16.175655364990234,32.19117736816406,-1.4935728311538696,-0.0,-0.0,-1.0,0.1102383575739378,2.0,0.0
16.089778900146484,33.017066955566406,-1.5802987813949585,0.1381067148155007,-0.3670865224184703,-0.9198771767913276,0.1966102166924511,4.0,0.0
15.835248947143556,30.718475341796875,-1.3478752374649048,-0.0,-0.0,-1.0,0.2037065404320067,1.0,0.0
16.02984046936035,32.033180236816406,-1.4797240495681765,-0.0,-0.0,-1.0,0.1126071958301722,1.0,0.0
15.428834915161133,31.229747772216797,-1.4077869653701782,-0.6286792448699218,0.1898874849463844,-0.754125420689769,0.136894971107489,4.0,0.0
15.635997772216797,32.82558059692383,-1.5681287050247192,-0.0,-0.0,-1.0,0.0794152659290865,2.0,0.0
17.672470092773438,32.67774200439453,-2.091090679168701,-0.0,-0.0,-1.0,0.0344262541168429,2.0,0.0
17.104345321655273,32.58649444580078,-2.122865915298462,-0.0,-0.0,-1.0,0.0339796792149579,1.0,0.0
17.140838623046875,32.722572326660156,-2.137317419052124,-0.0,-0.0,-1.0,0.0246178449684519,1.0,0.0
17.16231918334961,31.753145217895508,-2.0127720832824707,-0.0,-0.0,-1.0,0.0320957833843292,1.0,0.0
16.129817962646484,32.363609313964844,-1.3475658893585205,-0.0,-0.0,-1.0,0.1035967508181428,2.0,0.0
15.91795253753662,32.238189697265625,-1.350179672241211,-0.0,-0.0,-1.0,0.1178833353126742,1.0,0.0
15.738113403320312,30.890850067138672,-1.2381393909454346,-0.7606639115504304,-0.5457200078131946,-0.351539594835583,0.1384064451160195,3.0,0.0
16.13115692138672,32.95579147338867,-1.9737865924835205,-0.0,-0.0,-1.0,0.0981842148074367,1.0,0.0
16.00133514404297,33.06531524658203,-1.9993464946746824,-0.0,-0.0,-1.0,0.0803055993235156,1.0,0.0
15.475879669189451,32.66367721557617,-2.010791063308716,-0.0,-0.0,-1.0,0.1790459462133211,1.0,0.0
15.99884796142578,32.287166595458984,-1.9142873287200928,-0.0,-0.0,-1.0,0.170948964538931,1.0,0.0
16.9625244140625,32.05974578857422,-2.0260767936706543,-0.0,-0.0,-1.0,0.0871268621167412,1.0,0.0
17.046764373779297,32.233219146728516,-2.036412239074707,-0.7629779713022543,-0.6408826678924385,-0.0844631357609169,0.0768244729147212,3.0,0.0
16.552825927734375,32.558448791503906,-2.137962818145752,-0.0,-0.0,-1.0,0.0109336624991444,1.0,0.0
16.053449630737305,32.20381546020508,-1.4082415103912354,-0.0,-0.0,-1.0,0.0844819201010177,1.0,0.0
16.04541015625,32.57701873779297,-1.4414827823638916,-0.0,-0.0,-1.0,0.162936175022475,2.0,0.0
15.966558456420898,32.93408203125,-1.4814729690551758,-0.0,-0.0,-1.0,0.1892579161983471,1.0,0.0
15.9287748336792,31.800180435180664,-1.3878235816955566,-0.0,-0.0,-1.0,0.1507311744215439,1.0,0.0
15.849271774291992,32.1190185546875,-1.424455642700195,-0.0,-0.0,-1.0,0.2086886837075447,1.0,0.0
15.845287322998049,32.300045013427734,-1.4405112266540527,-0.0,-0.0,-1.0,0.1946294539611721,1.0,0.0
15.34043312072754,31.129819869995117,-1.3998517990112305,-0.0,-0.0,-1.0,0.1398015092149522,1.0,0.0
16.637958526611328,32.52556228637695,-2.1385507583618164,-0.0,-0.0,-1.0,0.0215228588553145,1.0,0.0
17.682186126708984,32.65071487426758,-2.0611791610717773,0.4259502143789105,-0.5981389936114838,-0.6788196809109192,0.0329134340656394,3.0,0.0
17.05419158935547,32.531097412109375,-2.1003313064575195,-0.0,-0.0,-1.0,0.0411685771506642,1.0,0.0
16.99838638305664,32.201778411865234,-2.058072566986084,-0.0,-0.0,-1.0,0.0716905284197297,2.0,0.0
16.974441528320312,31.376022338867188,-1.9420310258865356,-0.0,-0.0,-1.0,0.0217332272357373,2.0,0.0
16.03811264038086,32.61536407470703,-1.4749289751052856,-0.0,-0.0,-1.0,0.1334537588296724,1.0,0.0
15.902013778686523,31.895933151245117,-1.4083954095840454,-0.0,-0.0,-1.0,0.1458127240198837,1.0,0.0
15.96548843383789,32.173492431640625,-1.4330326318740845,-0.7769967153316788,0.5951513319951802,-0.2051121556323382,0.2119977397846772,4.0,0.0
15.239434242248535,31.06496810913086,-1.3786510229110718,-0.0,-0.0,-1.0,0.112290880771898,1.0,0.0
15.482294082641602,31.041812896728516,-1.354092001914978,-0.0,-0.0,-1.0,0.1683669677754066,2.0,0.0
17.66228675842285,32.7805290222168,-2.213989734649658,-0.0,-0.0,-1.0,0.034870413967813,1.0,0.0
17.565839767456055,33.05968475341797,-2.267273426055908,-0.0,-0.0,-1.0,0.0347614788398135,1.0,0.0
17.381567001342773,32.10683059692383,-2.13406753540039,-0.0,-0.0,-1.0,0.0261366377040799,1.0,0.0
17.330339431762695,31.27237319946289,-2.008166790008545,-0.0,-0.0,-1.0,0.019566514045477,1.0,0.0
17.27529525756836,31.077617645263672,-1.9832686185836792,-0.0,-0.0,-1.0,0.0208812077030773,1.0,0.0
16.191524505615234,32.96628952026367,-1.6782819032669067,-0.0,-0.0,-1.0,0.1065859428339355,1.0,0.0
15.752534866333008,32.683990478515625,-1.683482050895691,-0.0,-0.0,-1.0,0.1635758670913184,1.0,0.0
16.16289520263672,32.51350402832031,-1.6256543397903442,-0.0,-0.0,-1.0,0.0730274507842283,1.0,0.0
16.032732009887695,32.144588470458984,-1.5926591157913208,-0.0,-0.0,-1.0,0.2605001813036942,2.0,0.0
15.745574951171877,30.797409057617188,-1.4580868482589722,-0.0,-0.0,-1.0,0.1945758012864216,1.0,0.0
17.574310302734375,31.93501663208008,-2.0776658058166504,-0.0,-0.0,-1.0,0.0250720566314785,1.0,0.0
17.44270133972168,31.34638023376465,-1.9969590902328491,-0.0,-0.0,-1.0,0.0176191814701416,1.0,0.0
17.349246978759766,31.93833923339844,-2.105070114135742,-0.0,-0.0,-1.0,0.0377717363433296,1.0,0.0
17.37421226501465,31.119962692260746,-1.9684959650039673,-0.0,-0.0,-1.0,0.0179287779076355,1.0,0.0
16.276203155517578,33.065086364746094,-1.7443724870681765,-0.0,-0.0,-1.0,0.0674167370319155,1.0,0.0
16.134904861450195,32.132328033447266,-1.6416741609573364,-0.0,-0.0,-1.0,0.2164374196854541,2.0,0.0
15.695236206054688,32.5968132019043,-1.7517098188400269,-0.0,-0.0,-1.0,0.1229059981820792,1.0,0.0
15.555831909179688,31.026012420654297,-1.5732673406600952,-0.0,-0.0,-1.0,0.1078554825548771,1.0,0.0
16.701290130615234,32.637901306152344,-2.0905396938323975,-0.0,-0.0,-1.0,0.0165367295423946,2.0,0.0
16.09969139099121,33.035125732421875,-2.2270333766937256,-0.0,-0.0,-1.0,0.1054398233588211,1.0,0.0
16.094619750976562,32.880577087402344,-2.2022557258605957,-0.0,-0.0,-1.0,0.1868320824410679,1.0,0.0
16.029640197753906,31.945880889892575,-2.057627439498902,-0.0,-0.0,-1.0,0.1500908371026166,1.0,0.0
16.192731857299805,33.06624221801758,-1.5829315185546875,-0.0,-0.0,-1.0,0.1203495208640867,1.0,0.0
16.144018173217773,33.02136993408203,-1.5821864604949951,-0.0,-0.0,-1.0,0.1177282774640589,1.0,0.0
16.194955825805664,32.560691833496094,-1.516432523727417,-0.0,-0.0,-1.0,0.1075951106178321,2.0,0.0
16.064599990844727,31.95134735107422,-1.4512622356414795,-0.0,-0.0,-1.0,0.1053835902010073,2.0,0.0
16.02511215209961,32.196556091308594,-1.487377405166626,-0.0,-0.0,-1.0,0.1881939431058805,1.0,0.0
15.738353729248049,30.882884979248047,-1.3513362407684326,-0.0,-0.0,-1.0,0.2137372714246983,1.0,0.0
15.378774642944336,31.508846282958984,-1.47247314453125,-0.0,-0.0,-1.0,0.0795665711261756,1.0,0.0
15.475976943969728,31.17612075805664,-1.419081211090088,-0.0,-0.0,-1.0,0.1484781409516103,1.0,0.0
17.542768478393555,31.558032989501953,-2.0915117263793945,-0.0,-0.0,-1.0,0.0163994854068758,1.0,0.0
16.170799255371094,33.00046920776367,-1.936708927154541,-0.0,-0.0,-1.0,0.0562715201682665,1.0,0.0
17.495342254638672,31.105100631713867,-2.0077600479125977,-0.0,-0.0,-1.0,0.0179287779076355,1.0,0.0
17.457809448242188,30.657604217529297,-1.9240672588348389,-0.0,-0.0,-1.0,0.0175001427183319,1.0,0.0
16.03786277770996,32.13567352294922,-1.8148670196533203,-0.0,-0.0,-1.0,0.1733572028381587,1.0,0.0
16.063671112060547,31.281673431396484,-1.676771640777588,-0.0,-0.0,-1.0,0.0732785221940967,1.0,0.0
15.973694801330566,30.702363967895508,-1.5977108478546145,-0.0,-0.0,-1.0,0.2301877410059792,1.0,0.0
15.873042106628418,30.928192138671875,-1.6459736824035645,-0.0,-0.0,-1.0,0.1603054223615853,1.0,0.0
15.688760757446287,30.655193328857425,-1.6279945373535156,-0.0,-0.0,-1.0,0.2028695970120645,1.0,0.0
15.446642875671388,30.99205780029297,-1.7122793197631836,-0.0,-0.0,-1.0,0.1080351769699,1.0,0.0
17.040754318237305,32.15544128417969,-2.019397258758545,0.3404153858369344,-0.7738210867420943,-0.5341519360619926,0.078548818188919,3.0,0.0
16.75218391418457,32.584312438964844,-2.133347511291504,-0.0,-0.0,-1.0,0.0177477937001846,2.0,0.0
16.696321487426758,32.65165328979492,-2.152257919311523,-0.0,-0.0,-1.0,0.015681085524681,1.0,0.0
16.742141723632812,31.889240264892575,-1.9913718700408936,-0.7265556894198857,-0.2424901316492159,-0.6428960773129206,0.04279508976409,3.0,0.0
16.363828659057617,32.39873123168945,-2.1312811374664307,-0.0,-0.0,-1.0,0.0312279440119911,1.0,0.0
16.825523376464844,31.44888687133789,-1.893362522125244,-0.0,-0.0,-1.0,0.0248009623655172,1.0,0.0
16.096416473388672,31.962566375732425,-2.068901777267456,-0.0,-0.0,-1.0,0.1691777881853035,1.0,0.0
16.096378326416016,33.01239013671875,-1.7020573616027832,-0.0,-0.0,-1.0,0.1034488482679154,1.0,0.0
16.12641143798828,32.404151916503906,-1.596656084060669,-0.0,-0.0,-1.0,0.1004690152608627,1.0,0.0
15.844364166259766,32.72400665283203,-1.6752443313598633,-0.0,-0.0,-1.0,0.1192322111960853,1.0,0.0
16.03069496154785,32.141883850097656,-1.5609469413757324,-0.0,-0.0,-1.0,0.2267293928363295,2.0,0.0
16.882823944091797,30.942468643188477,-1.784348726272583,-0.0,-0.0,-1.0,0.0600373822609077,1.0,0.0
15.74317741394043,30.808822631835938,-1.3660242557525637,-0.0,-0.0,-1.0,0.201556709589147,2.0,0.0
15.437236785888672,31.03551483154297,-1.433582782745361,-0.0,-0.0,-1.0,0.1286447605998325,1.0,0.0
16.115528106689453,33.04927444458008,-1.8434462547302248,-0.0,-0.0,-1.0,0.0616609000922199,1.0,0.0
16.049362182617188,32.559085845947266,-1.760835886001587,-0.0,-0.0,-1.0,0.0777404871245241,1.0,0.0
15.627622604370115,32.712310791015625,-1.8395318984985352,-0.0,-0.0,-1.0,0.205786765619819,1.0,0.0
16.102336883544922,32.20659255981445,-1.6899447441101074,-0.0,-0.0,-1.0,0.2089238848035555,1.0,0.0
15.97520351409912,32.11063766479492,-1.6875615119934082,-0.0,-0.0,-1.0,0.2326499757936108,2.0,0.0
15.551167488098145,32.61474609375,-1.8313138484954832,-0.0,-0.0,-1.0,0.1925300172610511,1.0,0.0
15.24692153930664,31.6904296875,-1.705193042755127,-0.0,-0.0,-1.0,0.0546407612756455,1.0,0.0
16.02344512939453,32.37327194213867,-1.2051644325256348,-0.0,-0.0,-1.0,0.1342618601603749,1.0,0.0
16.010541915893555,30.941200256347656,-1.4708900451660156,-0.0,-0.0,-1.0,0.1820894035392486,1.0,0.0
15.731473922729492,30.69432830810547,-1.4629642963409424,-0.0,-0.0,-1.0,0.172087568531477,1.0,0.0
16.09217643737793,32.92039489746094,-1.4544169902801514,-0.0,-0.0,-1.0,0.2225967417914678,2.0,0.0
16.159269332885742,32.626312255859375,-1.39685320854187,-0.0,-0.0,-1.0,0.1377247939938282,2.0,0.0
15.434110641479492,32.91859436035156,-1.5149033069610596,-0.0,-0.0,-1.0,0.1261436209439334,1.0,0.0
15.25853157043457,31.512432098388672,-1.2915942668914795,-0.0,-0.0,-1.0,0.0829877247791244,1.0,0.0
16.095373153686523,33.11469650268555,-1.456071376800537,-0.2831237684907484,-0.958434629347958,0.0352702846917854,0.2181987489996363,3.0,0.0
15.990070343017578,32.27180480957031,-1.3009040355682373,-0.0,-0.0,-1.0,0.1029892661441106,1.0,0.0
15.51171875,32.92557144165039,-1.5188833475112915,-0.0,-0.0,-1.0,0.1471901805641866,2.0,0.0
16.225814819335938,32.39406967163086,-1.401117205619812,-0.0,-0.0,-1.0,0.1231582981686428,2.0,0.0
16.967992782592773,32.882469177246094,-2.229248046875,-0.0,-0.0,-1.0,0.0234693096635529,1.0,0.0
16.229543685913086,32.95738983154297,-2.2339859008789062,-0.0,-0.0,-1.0,0.2087462391714184,1.0,0.0
17.556970596313477,32.75886535644531,-2.217529296875,-0.0,-0.0,-1.0,0.0361037413849169,1.0,0.0
17.191715240478516,32.61030197143555,-2.169215679168701,-0.0,-0.0,-1.0,0.0264600781395662,1.0,0.0
16.708038330078125,32.59810256958008,-2.1541500091552734,-0.0,-0.0,-1.0,0.0165367295423946,1.0,0.0
16.41676139831543,32.44363784790039,-2.111268997192383,-0.0,-0.0,-1.0,0.0313237263358318,1.0,0.0
16.089345932006836,33.114044189453125,-1.738744616508484,-0.0,-0.0,-1.0,0.0790177061213932,1.0,0.0
15.651654243469238,32.745460510253906,-1.6601582765579224,-0.0,-0.0,-1.0,0.1232740517939646,1.0,0.0
17.01279640197754,32.09519577026367,-2.0389065742492676,-0.0,-0.0,-1.0,0.0934451217277856,1.0,0.0
16.408357620239258,31.98524475097656,-1.999414324760437,-0.0,-0.0,-1.0,0.0541998340814641,1.0,0.0
16.04073143005371,32.09080505371094,-2.02096176147461,-0.0,-0.0,-1.0,0.2524344782501962,2.0,0.0
17.05674171447754,32.04938888549805,-2.0289740562438965,-0.0,-0.0,-1.0,0.079571607825461,1.0,0.0
16.624149322509766,31.588191986083984,-1.9064189195632937,-0.0,-0.0,-1.0,0.0301498213695942,1.0,0.0
16.576995849609375,31.5238037109375,-1.8898297548294067,-0.0,-0.0,-1.0,0.0226911457278208,1.0,0.0
15.983698844909668,31.17498207092285,-1.7973653078079224,-0.0,-0.0,-1.0,0.085404592208303,1.0,0.0
15.612293243408203,31.184473037719727,-1.7987960577011108,-0.0,-0.0,-1.0,0.1805563018021659,2.0,0.0
15.753443717956545,30.882381439208984,-1.7251967191696167,-0.0,-0.0,-1.0,0.1067310026711039,1.0,0.0
16.888277053833008,30.75794219970703,-1.71033775806427,-0.0,-0.0,-1.0,0.055674612200279,1.0,0.0
15.951454162597656,32.25897216796875,-1.5606626272201538,-0.0,-0.0,-1.0,0.1704399318030181,1.0,0.0
16.00349235534668,32.0676383972168,-1.5214046239852903,-0.0,-0.0,-1.0,0.1667246669136406,1.0,0.0
15.472578048706056,31.151615142822266,-1.330621361732483,-0.0,-0.0,-1.0,0.1795150265357373,2.0,0.0
15.761701583862305,30.881526947021484,-1.2747067213058472,-0.0,-0.0,-1.0,0.1812826350451504,2.0,0.0
16.190059661865234,32.984825134277344,-1.604144811630249,-0.0,-0.0,-1.0,0.105232479763437,1.0,0.0
15.605025291442873,32.869972229003906,-1.5400350093841553,0.7496214133170772,0.0573633760229258,-0.6593763567097021,0.0725184748858755,3.0,0.0
16.123991012573242,32.46922302246094,-1.502025127410889,-0.0,-0.0,-1.0,0.125123174738197,1.0,0.0
16.274188995361328,32.23286819458008,-1.4693820476531982,-0.0,-0.0,-1.0,0.111964999398601,1.0,0.0
15.89825439453125,32.700504302978516,-1.7613918781280518,-0.0,-0.0,-1.0,0.2159499450653262,1.0,0.0
16.12710952758789,32.0609130859375,-1.6697447299957275,-0.0,-0.0,-1.0,0.170255417749978,1.0,0.0
15.513708114624023,31.213703155517575,-1.4298579692840576,-0.0,-0.0,-1.0,0.1368949711074889,2.0,0.0
15.429058074951172,31.249984741210938,-1.4264285564422607,-0.9981236724047656,-0.0351663035220001,-0.0501245018112091,0.136894971107489,3.0,0.0
15.77265453338623,30.684423446655273,-1.5499491691589355,-0.0,-0.0,-1.0,0.1955355582206761,2.0,0.0
16.223289489746094,32.449012756347656,-1.4515626430511477,-0.0,-0.0,-1.0,0.0983494363345159,2.0,0.0
15.757034301757812,30.863710403442383,-1.4046599864959717,-0.0,-0.0,-1.0,0.230560106448037,1.0,0.0
16.188186645507812,32.45649719238281,-1.4182841777801514,-0.6948822576397059,-0.082928629625134,-0.7143258992967022,0.0978659158298465,3.0,0.0
16.089458465576172,32.03772735595703,-1.5918235778808594,-0.0,-0.0,-1.0,0.2029787034171162,1.0,0.0
16.1904296875,32.41272735595703,-1.4153847694396973,0.3536586176631204,-0.0437696600768058,-0.934349933916288,0.1352273255969614,3.0,0.0
16.13203239440918,32.9138298034668,-1.4828839302062988,-0.0,-0.0,-1.0,0.2225967417914678,2.0,0.0
15.988941192626951,30.64913558959961,-1.4035334587097168,-0.0,-0.0,-1.0,0.1654155510611201,2.0,0.0
16.00936508178711,32.0138053894043,-1.537268877029419,-0.0,-0.0,-1.0,0.1266390417868073,1.0,0.0
16.165361404418945,32.248146057128906,-1.599550724029541,-0.0,-0.0,-1.0,0.1995258426338364,1.0,0.0
15.555471420288086,32.857460021972656,-1.5666041374206543,0.1613044473635128,0.847100428326374,-0.5063612737858469,0.1049299638099873,4.0,0.0
15.73518180847168,30.87347412109375,-1.204822063446045,-0.0,-0.0,-1.0,0.1410550230654284,2.0,0.0
16.02073860168457,33.07921600341797,-1.4458985328674316,-0.0,-0.0,-1.0,0.2181987489996363,1.0,0.0
16.05832290649414,32.390140533447266,-1.329252004623413,-0.0,-0.0,-1.0,0.1655505803907538,1.0,0.0
16.085124969482422,32.97675704956055,-1.7771847248077393,-0.0,-0.0,-1.0,0.0679900589663199,1.0,0.0
15.33712100982666,31.218914031982425,-1.3855078220367432,-0.0,-0.0,-1.0,0.1112950461299645,2.0,0.0
16.206838607788086,33.03935241699219,-1.7925403118133545,-0.0,-0.0,-1.0,0.064769147347249,2.0,0.0
15.47670841217041,31.08871841430664,-1.3391773700714111,0.4628139111979528,0.3181963476912661,-0.8273780078764437,0.181855406362195,3.0,0.0
15.496431350708008,31.313793182373047,-1.3870930671691897,-0.0,-0.0,-1.0,0.1233758408859658,1.0,0.0
16.17167091369629,32.58681869506836,-1.5142250061035156,-0.0,-0.0,-1.0,0.1322564834227398,2.0,0.0
16.068382263183594,33.053184509277344,-1.5979108810424805,0.1658536335096344,-0.3511124126557973,-0.9215273441036228,0.1679840012066511,3.0,0.0
15.47561264038086,32.87347412109375,-1.5148863792419434,-0.0,-0.0,-1.0,0.1261436209439334,2.0,0.0
15.975303649902344,32.172576904296875,-1.416104793548584,-0.7769967153316788,0.5951513319951802,-0.2051121556323382,0.2018970278097157,4.0,0.0
15.758705139160156,30.961471557617188,-1.1614456176757812,-0.0,-0.0,-1.0,0.104671827077833,1.0,0.0
16.018354415893555,31.87034797668457,-1.4150025844573977,-0.6576388366715789,0.3809075391872,-0.6499389256627148,0.1578785714904507,3.0,0.0
15.5589599609375,32.88410949707031,-1.5587170124053955,-0.1458891264891705,0.2982652198384146,-0.9432678418174602,0.1049299638099872,3.0,0.0
16.10415267944336,32.171051025390625,-1.60207200050354,-0.0,-0.0,-1.0,0.2430249497552064,2.0,0.0
15.727282524108888,32.72887420654297,-1.6804721355438232,-0.0,-0.0,-1.0,0.1247053283108456,1.0,0.0
15.813438415527344,30.73318862915039,-1.2594549655914309,-0.0,-0.0,-1.0,0.2037065404320066,1.0,0.0
16.409719467163086,32.24494171142578,-2.100560188293457,-0.0,-0.0,-1.0,0.0360145754712207,1.0,0.0
16.133901596069336,32.142250061035156,-2.033614158630371,-0.0,-0.0,-1.0,0.1693197004345344,2.0,0.0
15.895403861999512,32.319480895996094,-2.039412021636963,-0.0,-0.0,-1.0,0.1078075048716563,1.0,0.0
15.548394203186035,32.794837951660156,-2.1038103103637695,-0.0,-0.0,-1.0,0.1602759864164634,1.0,0.0
15.355765342712402,33.015777587890625,-2.131166934967041,-0.0,-0.0,-1.0,0.2110119853001856,1.0,0.0
15.289024353027344,32.355186462402344,-1.9580645561218264,-0.0,-0.0,-1.0,0.1502189011188699,1.0,0.0
15.528576850891112,32.91050338745117,-1.497938632965088,-0.0,-0.0,-1.0,0.1014544421957693,2.0,0.0
16.989501953125,31.877235412597656,-2.111600399017334,-0.0,-0.0,-1.0,0.0579352374479688,1.0,0.0
16.67320442199707,32.019527435302734,-2.0839428901672363,-0.0,-0.0,-1.0,0.0308375296937405,1.0,0.0
16.565349578857422,32.39506149291992,-2.146646499633789,-0.0,-0.0,-1.0,0.0226121401627304,1.0,0.0
15.771140098571776,32.967620849609375,-2.1380834579467773,-0.0,-0.0,-1.0,0.0843316334486211,2.0,0.0
16.787250518798828,30.844436645507812,-1.8570570945739744,-0.0,-0.0,-1.0,0.0600373822609076,1.0,0.0
15.989013671875,32.09431457519531,-1.9759821891784668,-0.0,-0.0,-1.0,0.2293491898208998,1.0,0.0
15.626788139343262,32.754215240478516,-2.063629150390625,-0.0,-0.0,-1.0,0.1236237704480438,1.0,0.0
15.457581520080566,31.162288665771484,-1.673233985900879,-0.0,-0.0,-1.0,0.0776664308239153,2.0,0.0
15.543177604675291,32.483360290527344,-1.9863433837890625,-0.0,-0.0,-1.0,0.1529825868510366,2.0,0.0
15.425671577453612,33.03369140625,-2.095459461212158,-0.0,-0.0,-1.0,0.2134728387038643,1.0,0.0
16.16364288330078,32.27592086791992,-1.438851833343506,-0.0,-0.0,-1.0,0.1040583609911543,2.0,0.0
16.038795471191406,33.01343536376953,-1.5699968338012695,-0.6087001678460275,-0.764337715084153,0.2127720916007399,0.1966102166924511,3.0,0.0
17.52320098876953,31.746477127075195,-2.130894422531128,-0.0,-0.0,-1.0,0.0188784108585555,1.0,0.0
16.969985961914062,32.54518127441406,-2.1803696155548096,-0.0,-0.0,-1.0,0.0345306304304087,1.0,0.0
17.132808685302734,31.22686004638672,-1.945465326309204,-0.0,-0.0,-1.0,0.0205693167933091,1.0,0.0
17.305801391601562,31.538549423217773,-2.043607473373413,-0.0,-0.0,-1.0,0.0208113470220534,1.0,0.0
16.70931625366211,30.648408889770508,-1.742530107498169,-0.0,-0.0,-1.0,0.0280817327156188,1.0,0.0
16.926345825195312,32.30835723876953,-2.121582269668579,-0.0,-0.0,-1.0,0.0549253216495651,1.0,0.0
16.799495697021484,32.35316467285156,-2.1051909923553467,-0.0,-0.0,-1.0,0.0236566932368573,1.0,0.0
15.517915725708008,32.540313720703125,-1.8917882442474363,-0.0,-0.0,-1.0,0.2185743932094847,2.0,0.0
15.46351146697998,32.7714958190918,-1.9334056377410889,-0.0,-0.0,-1.0,0.116977603268377,1.0,0.0
15.408804893493652,32.93815231323242,-1.960965871810913,-0.0,-0.0,-1.0,0.1480744308075581,2.0,0.0
15.821782112121582,30.979236602783203,-1.6192944049835205,-0.0,-0.0,-1.0,0.1222373186435742,1.0,0.0
16.077049255371094,32.250160217285156,-1.3556478023529053,-0.0,-0.0,-1.0,0.0767325433295446,1.0,0.0
16.058622360229492,33.08749771118164,-1.516932249069214,-0.0,-0.0,-1.0,0.1908636822289311,1.0,0.0
15.614770889282228,31.06810760498047,-1.594559907913208,-0.0,-0.0,-1.0,0.1081126821067021,1.0,0.0
17.189577102661133,31.41563606262207,-2.048266649246216,-0.0,-0.0,-1.0,0.020839743183876,1.0,0.0
17.058629989624023,31.83922958374023,-2.1018588542938232,-0.0,-0.0,-1.0,0.048800885061586,1.0,0.0
16.810222625732422,32.210060119628906,-2.1211302280426025,-0.0,-0.0,-1.0,0.050316815356775,1.0,0.0
16.814525604248047,32.39492416381836,-2.160756349563598,-0.0,-0.0,-1.0,0.0229427810355852,1.0,0.0
15.97471809387207,32.3987922668457,-1.9745151996612549,-0.0,-0.0,-1.0,0.1239937568981958,1.0,0.0
16.88047218322754,30.82317352294922,-1.8614113330841064,-0.0,-0.0,-1.0,0.0614978561700686,2.0,0.0
15.716802597045898,30.738874435424805,-1.5709125995635986,-0.0,-0.0,-1.0,0.187845229214076,1.0,0.0
15.650704383850098,30.838951110839844,-1.575411081314087,-0.0,-0.0,-1.0,0.1995646369631364,1.0,0.0
15.517059326171877,32.507999420166016,-1.89862322807312,-0.0,-0.0,-1.0,0.1813325571911861,2.0,0.0
15.396594047546388,32.93349075317383,-1.9689323902130127,-0.0,-0.0,-1.0,0.1480744308075582,2.0,0.0
16.070148468017578,32.556156158447266,-1.464247465133667,-0.0,-0.0,-1.0,0.162936175022475,2.0,0.0
16.013805389404297,33.03904724121094,-1.5494835376739502,-0.0,-0.0,-1.0,0.190863682228931,2.0,0.0
17.659194946289062,32.3142204284668,-2.1930336952209473,-0.0,-0.0,-1.0,0.0284004968392726,1.0,0.0
17.680526733398438,32.53572082519531,-2.242637634277344,-0.0,-0.0,-1.0,0.0304793610951719,1.0,0.0
17.450456619262695,32.77526092529297,-2.2363109588623047,-0.0,-0.0,-1.0,0.0361037413849169,1.0,0.0
16.81204605102539,30.8922119140625,-1.7110257148742676,-0.0,-0.0,-1.0,0.0600373822609076,1.0,0.0
16.850116729736328,31.581804275512695,-1.851518630981445,-0.0,-0.0,-1.0,0.031247847790132,1.0,0.0
16.041336059570312,32.366729736328125,-1.8178176879882812,-0.0,-0.0,-1.0,0.1173313638813494,1.0,0.0
15.90075969696045,32.62316131591797,-1.8402981758117676,-0.0,-0.0,-1.0,0.1079523103579027,1.0,0.0
16.056785583496094,33.00716781616211,-1.9603233337402344,-0.0,-0.0,-1.0,0.0803055993235155,1.0,0.0
15.673345565795898,30.782032012939453,-1.407660722732544,-0.0,-0.0,-1.0,0.1489316483299209,1.0,0.0
15.430815696716309,31.209125518798828,-1.4327619075775146,-0.6286792448699218,0.1898874849463844,-0.754125420689769,0.1368949711074889,4.0,0.0
16.0720157623291,33.04861068725586,-1.465759038925171,0.1643163570634403,-0.9446926066506404,0.28382391326493,0.2181987489996363,4.0,0.0
16.124248504638672,32.42170715332031,-1.3390567302703855,-0.0,-0.0,-1.0,0.180411503537944,2.0,0.0
16.174922943115234,32.66898727416992,-1.4038832187652588,-0.0,-0.0,-1.0,0.1022695549572755,2.0,0.0
15.975335121154783,30.64146614074707,-1.38889741897583,-0.0,-0.0,-1.0,0.1654155510611201,2.0,0.0
15.818281173706056,32.030765533447266,-1.986248016357422,-0.0,-0.0,-1.0,0.1938862896616999,1.0,0.0
15.795894622802734,33.007049560546875,-2.1442317962646484,-0.0,-0.0,-1.0,0.104447943313381,2.0,0.0
15.669113159179688,32.1918830871582,-2.0068368911743164,-0.0,-0.0,-1.0,0.0501087986963242,2.0,0.0
15.750410079956056,32.90992736816406,-2.130141258239746,-0.0,-0.0,-1.0,0.0854028329249286,1.0,0.0
15.451505661010742,31.34754180908203,-1.826852798461914,-0.0,-0.0,-1.0,0.0898010975059214,1.0,0.0
15.726537704467772,31.94128036499023,-1.989680290222168,-0.0,-0.0,-1.0,0.1260329761553081,2.0,0.0
15.762714385986328,31.93029403686523,-1.9874606132507324,-0.0,-0.0,-1.0,0.1476345774398176,2.0,0.0
15.65512466430664,32.176265716552734,-1.9883217811584473,-0.0,-0.0,-1.0,0.0778411498964791,2.0,0.0
15.531490325927734,32.4447021484375,-1.9877533912658691,-0.0,-0.0,-1.0,0.1529825868510367,2.0,0.0
15.706050872802734,32.78577423095703,-2.090270519256592,-0.0,-0.0,-1.0,0.1444813677296109,1.0,0.0
15.260135650634766,32.44200897216797,-1.9034810066223145,-0.0,-0.0,-1.0,0.1613513332402352,1.0,0.0
15.688251495361328,31.554691314697266,-1.9120993614196775,-0.0,-0.0,-1.0,0.0659688891778634,1.0,0.0
16.251079559326172,31.928300857543945,-2.0396766662597656,-0.0,-0.0,-1.0,0.1286227477974246,1.0,0.0
16.037887573242188,32.203514099121094,-2.007596015930176,-0.0,-0.0,-1.0,0.2039247292715076,1.0,0.0
15.62327766418457,32.78733825683594,-1.955714225769043,-0.0,-0.0,-1.0,0.2007951128221058,1.0,0.0
15.421314239501951,31.12120819091797,-1.6552963256835938,-0.0,-0.0,-1.0,0.0835019405793694,1.0,0.0
16.001163482666016,31.839014053344727,-1.415971755981445,-0.0,-0.0,-1.0,0.1578785714904507,2.0,0.0
17.177989959716797,32.48054122924805,-2.278757095336914,-0.0,-0.0,-1.0,0.0429658793718267,1.0,0.0
15.75511360168457,31.985910415649418,-2.165341377258301,-0.0,-0.0,-1.0,0.0823225311531324,1.0,0.0
16.143861770629883,32.21163558959961,-2.219675064086914,-0.0,-0.0,-1.0,0.0716820573167786,1.0,0.0
15.53677463531494,31.13445472717285,-1.9447946548461912,-0.0,-0.0,-1.0,0.1455351769633496,1.0,0.0
15.496129035949709,31.72418785095215,-2.1000404357910156,-0.0,-0.0,-1.0,0.0522758081703572,1.0,0.0
15.357934951782228,31.744779586791992,-2.107311248779297,-0.0,-0.0,-1.0,0.0678038221138782,1.0,0.0
15.70506763458252,32.03528594970703,-1.9600915908813477,-0.0,-0.0,-1.0,0.154371386510562,1.0,0.0
16.184659957885742,32.866458892822266,-2.1655988693237305,-0.0,-0.0,-1.0,0.2087462391714184,1.0,0.0
15.948275566101074,32.611839294433594,-1.3123698234558103,-0.0,-0.0,-1.0,0.0932298788780236,1.0,0.0
0.0,0.0,0.0,0.0,0.0,0.0,0.0,0.0,0.0
0.0,0.0,0.0,0.0,0.0,0.0,0.0,0.0,0.0
0.0,0.0,0.0,0.0,0.0,0.0,0.0,0.0,0.0
0.0,0.0,0.0,0.0,0.0,0.0,0.0,0.0,0.0
0.0,0.0,0.0,0.0,0.0,0.0,0.0,0.0,0.0
0.0,0.0,0.0,0.0,0.0,0.0,0.0,0.0,0.0
0.0,0.0,0.0,0.0,0.0,0.0,0.0,0.0,0.0
0.0,0.0,0.0,0.0,0.0,0.0,0.0,0.0,0.0
0.0,0.0,0.0,0.0,0.0,0.0,0.0,0.0,0.0
0.0,0.0,0.0,0.0,0.0,0.0,0.0,0.0,0.0
0.0,0.0,0.0,0.0,0.0,0.0,0.0,0.0,0.0
0.0,0.0,0.0,0.0,0.0,0.0,0.0,0.0,0.0
0.0,0.0,0.0,0.0,0.0,0.0,0.0,0.0,0.0
0.0,0.0,0.0,0.0,0.0,0.0,0.0,0.0,0.0
0.0,0.0,0.0,0.0,0.0,0.0,0.0,0.0,0.0
0.0,0.0,0.0,0.0,0.0,0.0,0.0,0.0,0.0
0.0,0.0,0.0,0.0,0.0,0.0,0.0,0.0,0.0
0.0,0.0,0.0,0.0,0.0,0.0,0.0,0.0,0.0
0.0,0.0,0.0,0.0,0.0,0.0,0.0,0.0,0.0
0.0,0.0,0.0,0.0,0.0,0.0,0.0,0.0,0.0
0.0,0.0,0.0,0.0,0.0,0.0,0.0,0.0,0.0
0.0,0.0,0.0,0.0,0.0,0.0,0.0,0.0,0.0
0.0,0.0,0.0,0.0,0.0,0.0,0.0,0.0,0.0
0.0,0.0,0.0,0.0,0.0,0.0,0.0,0.0,0.0
0.0,0.0,0.0,0.0,0.0,0.0,0.0,0.0,0.0
0.0,0.0,0.0,0.0,0.0,0.0,0.0,0.0,0.0
0.0,0.0,0.0,0.0,0.0,0.0,0.0,0.0,0.0
0.0,0.0,0.0,0.0,0.0,0.0,0.0,0.0,0.0
0.0,0.0,0.0,0.0,0.0,0.0,0.0,0.0,0.0
0.0,0.0,0.0,0.0,0.0,0.0,0.0,0.0,0.0
0.0,0.0,0.0,0.0,0.0,0.0,0.0,0.0,0.0
