x,y,z,nx,ny,nz,curvature,density,label
36.95884704589844,4.339601516723633,-1.0696990489959717,-0.7310583882637427,-0.6147670477772924,-0.2959984964766056,0.1630235108866322,5.0,0.0
36.26148223876953,4.8350324630737305,-0.9857239723205566,-0.5434572960928393,-0.5423709519791388,-0.640693310229397,0.1676871368871245,4.0,0.0
36.44367218017578,4.8792314529418945,-0.972191572189331,-0.1546275374749261,-0.5387012797531918,-0.8281855201865783,0.152657431183242,3.0,0.0
36.6473274230957,5.083335876464844,-0.9273970127105712,-0.036476407458292,0.1433147224370671,-0.9890047330684132,0.105832843325052,5.0,0.0
37.295169830322266,3.59490966796875,-1.162682294845581,-0.0,-0.0,-1.0,0.010017300770352,1.0,0.0
37.590484619140625,3.486732482910156,-1.179922103881836,-0.0,-0.0,-1.0,0.0096849903702755,2.0,0.0
35.3199577331543,4.096108436584473,-1.1406161785125732,-0.0,-0.0,-1.0,0.0963553375449066,1.0,0.0
35.584197998046875,3.9756479263305664,-1.1484243869781494,-0.0,-0.0,-1.0,0.0415517322037455,2.0,0.0
36.05265426635742,3.886082649230957,-1.1433932781219482,-0.0,-0.0,-1.0,0.0362214130605064,1.0,0.0
36.27098083496094,3.875802993774414,-1.1365973949432373,-0.0,-0.0,-1.0,0.0439661171821834,2.0,0.0
36.54198455810547,4.334939002990723,-1.0413105487823486,0.6680557547305168,0.131925218991556,-0.7323231835504523,0.1753845758759534,3.0,0.0
36.83440017700195,4.361568450927734,-1.0272095203399658,0.749891161802926,0.0678823143690829,-0.6580693252581785,0.1958081179535086,5.0,0.0
37.14857482910156,4.229854583740234,-1.0442297458648682,-0.9404742143182442,-0.0130240051980829,0.3396154111507333,0.2432327853417545,4.0,0.0
36.1989860534668,4.9312849044799805,-0.9443974494934082,-0.1948774260035164,-0.6021907957164561,-0.7742021921879485,0.1660273831613664,3.0,0.0
36.3784065246582,4.868752479553223,-0.9482343196868896,0.8910336979127794,0.4305519779172039,-0.1438191346638574,0.2022013756844894,3.0,0.0
37.604698181152344,3.720672607421875,-1.2060585021972656,-0.0,-0.0,-1.0,0.0103418111185981,2.0,0.0
36.336795806884766,4.177356719970703,-1.1722679138183594,0.0306697069898091,-0.8036072340620123,-0.594369230728141,0.1093987884800709,3.0,0.0
37.42920684814453,3.82376480102539,-1.1914868354797363,-0.0,-0.0,-1.0,0.0160651112211825,2.0,0.0
35.22904968261719,4.574917793273926,-1.1736924648284912,-0.0,-0.0,-1.0,0.0310478351604963,1.0,0.0
35.54074478149414,4.4545745849609375,-1.1720592975616455,-0.0,-0.0,-1.0,0.0270941406654428,2.0,0.0
35.80255126953125,4.335516929626465,-1.175417423248291,-0.0,-0.0,-1.0,0.031105326827061,1.0,0.0
36.3664665222168,4.313444137573242,-1.1457626819610596,-0.0,-0.0,-1.0,0.1154373316229624,1.0,0.0
36.72331619262695,4.371816635131836,-1.11637544631958,0.0784837214532034,-0.6150070606745266,-0.7846060290281581,0.2327061755875144,4.0,0.0
37.11271286010742,4.276371002197266,-1.116935968399048,-0.0,-0.0,-1.0,0.1779432248502198,1.0,0.0
37.38840866088867,4.224596977233887,-1.1161823272705078,-0.2310285802932088,-0.7395634607273035,-0.6321959210915222,0.1776357644239682,8.0,0.0
36.28559875488281,4.852217674255371,-1.0518088340759275,0.4365057741365633,0.1283991901619323,-0.8904921993544916,0.277573155650096,10.0,0.0
36.56829452514648,5.04813289642334,-0.9994778633117676,-0.0,-0.0,-1.0,0.1318917076946895,1.0,0.0
36.33119583129883,4.199292182922363,-1.2022143602371216,-0.0,-0.0,-1.0,0.0796224532469138,2.0,0.0
36.39125442504883,4.171023368835449,-1.2036219835281372,-0.6142082640521761,0.6934897683385536,-0.3765901612891019,0.110394634003159,3.0,0.0
37.45178985595703,3.9366703033447266,-1.193712592124939,-0.0,-0.0,-1.0,0.0241298233638941,1.0,0.0
37.60202407836914,3.823009490966797,-1.2092300653457642,-0.0,-0.0,-1.0,0.0149879448561934,1.0,0.0
35.38707733154297,4.621405601501465,-1.1953448057174685,-0.0,-0.0,-1.0,0.0303047450804175,1.0,0.0
35.73247528076172,4.485722541809082,-1.1922515630722046,-0.0,-0.0,-1.0,0.0324180380128896,1.0,0.0
36.25487518310547,4.254273414611816,-1.1971791982650757,-0.0,-0.0,-1.0,0.0343768930975794,2.0,0.0
36.61918640136719,4.337612152099609,-1.1606136560440063,-0.0,-0.0,-1.0,0.1482406475889948,1.0,0.0
36.972137451171875,4.304960250854492,-1.1476134061813354,-0.0,-0.0,-1.0,0.0929492575171025,1.0,0.0
37.298065185546875,4.249111175537109,-1.1421934366226196,-0.1845417194522072,0.8547945888133078,-0.4850469716605916,0.1624849165873322,3.0,0.0
35.378761291503906,4.763051986694336,-1.172491431236267,-0.4376535224521046,-0.0574770626934785,-0.8973047317101337,0.0404296778090867,3.0,0.0
35.62117004394531,4.663233757019043,-1.170153260231018,-0.0,-0.0,-1.0,0.0272619453776277,2.0,0.0
36.26172637939453,4.820091247558594,-1.097427248954773,-0.0952046070934671,-0.9421378390544426,0.321422424559961,0.2537267542753498,6.0,0.0
36.44846725463867,4.902497291564941,-1.0706881284713743,-0.1528456446674888,-0.9633998381221952,-0.220224796088697,0.1934877007607043,4.0,0.0
36.37704849243164,4.284468650817871,-1.220395803451538,-0.0,-0.0,-1.0,0.1032067232685053,1.0,0.0
35.305782318115234,4.747269630432129,-1.230135440826416,-0.0,-0.0,-1.0,0.0376606467959916,1.0,0.0
35.54473876953125,4.64420223236084,-1.2258384227752686,-0.0,-0.0,-1.0,0.0273454297200055,1.0,0.0
35.81127166748047,4.525679588317871,-1.2228620052337646,-0.0,-0.0,-1.0,0.023432251752901,2.0,0.0
36.212615966796875,4.3250322341918945,-1.2252953052520752,-0.9539379093623356,0.0622001196380762,-0.293485281059247,0.0306163718429004,3.0,0.0
35.43212127685547,4.764433860778809,-1.2162883281707764,-0.802686431602011,0.0802061426876057,-0.590983474555089,0.0441298733237619,3.0,0.0
37.65771484375,3.8180160522460938,-1.2274305820465088,-0.0,-0.0,-1.0,0.0102780746547817,1.0,0.0
37.464820861816406,3.9918251037597656,-1.2056748867034912,-0.0,-0.0,-1.0,0.0387193220685749,1.0,0.0
36.72288131713867,4.37803840637207,-1.1811060905456543,-0.3796371105284836,0.0310154096723399,-0.9246154382620057,0.1780090592034584,4.0,0.0
37.10942840576172,4.324280738830566,-1.166388750076294,-0.206350989613667,0.9517327632811567,-0.2272091907971028,0.0914003879070219,3.0,0.0
37.34965133666992,4.294266700744629,-1.15783953666687,-0.0,-0.0,-1.0,0.1032882167919021,1.0,0.0
36.274169921875,4.8808135986328125,-1.128376007080078,-0.4160868398225533,-0.5226256007177232,-0.7441332025927346,0.1795298986047957,5.0,0.0
35.30317306518555,3.2225379943847656,-1.0157756805419922,-0.0,-0.0,-1.0,0.0382664580847228,2.0,0.0
35.22026062011719,3.292928695678711,-1.0128729343414309,-0.0,-0.0,-1.0,0.0398012882595308,1.0,0.0
37.681922912597656,4.198046684265137,-1.234736442565918,-0.0,-0.0,-1.0,0.0517791372974094,1.0,0.0
36.394432067871094,4.6351423263549805,-1.2651817798614502,0.8836141742719273,0.2109472901387133,-0.4180038657822118,0.0908215242795951,3.0,0.0
36.74614334106445,4.607627868652344,-1.2388420104980469,-0.1412978693978623,-0.5925799638712981,-0.793022003806903,0.0298062011875998,4.0,0.0
37.13745880126953,4.477133750915527,-1.2280678749084473,-0.0,-0.0,-1.0,0.040479446963265,2.0,0.0
37.4643440246582,4.364906311035156,-1.2219009399414062,-0.0,-0.0,-1.0,0.0493994791252509,2.0,0.0
35.66591262817383,5.140460968017578,-1.258747100830078,-0.0,-0.0,-1.0,0.0148867512040338,2.0,0.0
35.925376892089844,5.025958061218262,-1.249551773071289,-0.0,-0.0,-1.0,0.0470578089863697,1.0,0.0
36.34674072265625,5.051701545715332,-1.2047624588012695,-0.0,-0.0,-1.0,0.1577404359350861,1.0,0.0
35.47576141357422,5.323643684387207,-1.2521767616271973,-0.0,-0.0,-1.0,0.043432300288513,2.0,0.0
35.211883544921875,4.179173469543457,-0.9041728973388672,-0.0,-0.0,-1.0,0.0719149683037599,2.0,0.0
36.070030212402344,3.508474349975586,-1.075093388557434,-0.0,-0.0,-1.0,0.0598908907002625,1.0,0.0
35.401397705078125,3.886868476867676,-1.0870777368545532,-0.0,-0.0,-1.0,0.0630433588170285,1.0,0.0
35.6890869140625,3.7723073959350586,-1.0749293565750122,-0.0,-0.0,-1.0,0.1480872901398663,1.0,0.0
35.27207946777344,4.114598274230957,-1.0720397233963013,-0.0,-0.0,-1.0,0.0925918689473362,1.0,0.0
37.1856803894043,5.135963439941406,-1.2736631631851196,-0.0,-0.0,-1.0,0.0140716469858246,2.0,0.0
37.444190979003906,5.029709815979004,-1.263694405555725,-0.0,-0.0,-1.0,0.0185984756414536,2.0,0.0
36.434776306152344,5.544465065002441,-1.2961424589157104,-0.0,-0.0,-1.0,0.027722127351121,2.0,0.0
36.612674713134766,5.43770694732666,-1.2911735773086548,-0.0,-0.0,-1.0,0.0276129303225011,1.0,0.0
36.96427917480469,5.255606651306152,-1.2789956331253052,-0.0,-0.0,-1.0,0.0295567216704707,1.0,0.0
35.97802734375,3.612865447998047,-1.0696531534194946,-0.0,-0.0,-1.0,0.0752827713796558,1.0,0.0
36.26534652709961,3.454477310180664,-1.0659795999526978,0.8615203900254882,-0.1754020429835698,-0.4764627381942059,0.0500324082062314,4.0,0.0
36.79399871826172,3.5636463165283203,-1.0101314783096311,-0.6946603765120024,0.5717590063262927,-0.4365072736953803,0.0635970686643223,3.0,0.0
36.850101470947266,3.424093246459961,-1.0243405103683472,0.5976967374370625,0.5867858794443628,-0.5462974846562968,0.1118438491192329,4.0,0.0
35.86318588256836,3.72784423828125,-1.0651921033859253,-0.0,-0.0,-1.0,0.0936145784196289,1.0,0.0
36.72742462158203,3.653544425964355,-1.003498673439026,-0.2373778921781797,0.7052077761505805,-0.6680821272581667,0.0831835104431125,4.0,0.0
36.36444854736328,4.802943229675293,-0.8887444734573364,-0.0,-0.0,-1.0,0.1674822455850367,1.0,0.0
37.372657775878906,3.1491289138793945,-1.1263959407806396,-0.0,-0.0,-1.0,0.0671639906710573,2.0,0.0
37.11796569824219,3.49356746673584,-1.104921579360962,-0.0,-0.0,-1.0,0.0217762466271612,2.0,0.0
37.16628646850586,3.3311729431152344,-1.1210055351257324,-0.0,-0.0,-1.0,0.0260790575861552,1.0,0.0
36.124027252197266,4.061596870422363,-1.13236665725708,-0.0,-0.0,-1.0,0.0288431094763811,2.0,0.0
35.66814041137695,4.370767593383789,-1.1457200050354004,-0.0,-0.0,-1.0,0.0254246034287535,1.0,0.0
36.11785888671875,4.154870986938477,-1.122359275817871,-0.0,-0.0,-1.0,0.0534598717251304,2.0,0.0
35.496131896972656,4.6877593994140625,-1.1304302215576172,-0.0,-0.0,-1.0,0.0395692376706709,1.0,0.0
35.62635803222656,4.643866539001465,-1.1206364631652832,-0.0,-0.0,-1.0,0.0254474669600257,1.0,0.0
35.51103210449219,4.927029609680176,-1.1034986972808838,-0.0,-0.0,-1.0,0.0323296579287903,1.0,0.0
37.58295822143555,5.599898338317871,-1.308032751083374,-0.0,-0.0,-1.0,0.0135867860750421,1.0,0.0
37.107666015625,3.617697715759278,-1.0903925895690918,-0.0,-0.0,-1.0,0.0470537797220043,2.0,0.0
37.10556411743164,3.748641014099121,-1.0743834972381592,-0.0,-0.0,-1.0,0.067477192080516,1.0,0.0
37.18305206298828,3.98343563079834,-1.0383646488189695,-0.0,-0.0,-1.0,0.0751130382849525,1.0,0.0
36.99903106689453,4.373421669006348,-1.008742094039917,-0.0,-0.0,-1.0,0.1527108844707933,2.0,0.0
37.203861236572266,4.22865104675293,-1.006488800048828,-0.5593174596702617,-0.6018407316635378,0.570045360492218,0.1721753586975114,3.0,0.0
36.277931213378906,4.781815528869629,-1.0348525047302246,0.6014212751149732,-0.0341197638288632,-0.7982031643355858,0.1726319963349709,8.0,0.0
36.31351089477539,5.015375137329102,-1.0052094459533691,-0.0,-0.0,-1.0,0.1839510088034024,1.0,0.0
36.527591705322266,4.947683334350586,-0.9899039268493652,0.0659144274324766,-0.9563901149740832,0.2845579663901689,0.079066434396347,3.0,0.0
37.26579666137695,5.038717269897461,-1.2463833093643188,-0.0,-0.0,-1.0,0.0186920498922655,2.0,0.0
37.58250427246094,4.882991790771484,-1.2341116666793823,-0.0,-0.0,-1.0,0.0156909487537878,2.0,0.0
36.452674865722656,5.487762451171875,-1.2786356210708618,-0.0,-0.0,-1.0,0.0320041501316464,1.0,0.0
36.83278274536133,5.271203994750977,-1.263114333152771,-0.0,-0.0,-1.0,0.0303335190620469,1.0,0.0
37.087257385253906,5.155165672302246,-1.2502185106277466,-0.0,-0.0,-1.0,0.0155399328683709,1.0,0.0
35.72974395751953,3.241183280944824,-1.016414999961853,-0.0,-0.0,-1.0,0.0542380725397827,2.0,0.0
35.5330924987793,3.430124282836914,-1.0127283334732056,-0.0,-0.0,-1.0,0.0625393831904674,1.0,0.0
35.580745697021484,3.784499168395996,-0.9724501371383668,-0.0,-0.0,-1.0,0.0978184919496317,1.0,0.0
35.69343566894531,3.728777885437012,-0.9687505960464478,-0.0,-0.0,-1.0,0.1171022385253942,1.0,0.0
36.69072723388672,5.138185501098633,-1.198659896850586,-0.0,-0.0,-1.0,0.1305482088302217,1.0,0.0
36.99470138549805,4.967959403991699,-1.1838431358337402,-0.0,-0.0,-1.0,0.0262560518472183,1.0,0.0
37.36155319213867,4.792682647705078,-1.1642286777496338,-0.0,-0.0,-1.0,0.0134396201739725,1.0,0.0
37.63738250732422,4.571378707885742,-1.1612656116485596,-0.0,-0.0,-1.0,0.0151553927084135,1.0,0.0
36.29433059692383,5.4289751052856445,-1.2128183841705322,-0.0,-0.0,-1.0,0.0421184719761674,1.0,0.0
36.53214645385742,5.29200553894043,-1.1999177932739258,-0.0,-0.0,-1.0,0.0882676415452988,1.0,0.0
36.43830871582031,4.5000457763671875,-1.191905498504639,0.6021939686129888,-0.3792575560196302,-0.7025141495857259,0.0739921938443533,3.0,0.0
35.494693756103516,5.403176307678223,-1.191136360168457,-0.0,-0.0,-1.0,0.0910114098133498,1.0,0.0
35.7985725402832,5.112950325012207,-1.189246654510498,-0.0,-0.0,-1.0,0.0163476514415082,1.0,0.0
36.133575439453125,4.931973457336426,-1.174206256866455,0.9701900197563136,-0.0801382943115757,-0.228712000887744,0.186951411163852,3.0,0.0
36.43825149536133,4.6743011474609375,-1.172329664230347,-0.0,-0.0,-1.0,0.1722205538061742,2.0,0.0
36.77252578735352,4.479447364807129,-1.1619462966918943,-0.0,-0.0,-1.0,0.1754560638348123,1.0,0.0
37.44382095336914,3.856527328491211,-1.1745898723602295,0.4743957306104476,0.227042767024679,-0.8505294073224964,0.0177243194337746,3.0,0.0
36.94077682495117,4.397856712341309,-1.1554372310638428,-0.0,-0.0,-1.0,0.1737704574801597,2.0,0.0
37.180816650390625,4.236952781677246,-1.1521482467651367,-0.0,-0.0,-1.0,0.1171535885320206,1.0,0.0
37.49037170410156,3.964646339416504,-1.157196283340454,-0.0,-0.0,-1.0,0.0274435865679641,1.0,0.0
37.67622756958008,3.762928962707519,-1.1659159660339355,-0.0,-0.0,-1.0,0.0099035001522119,1.0,0.0
35.89031219482422,5.379412651062012,-1.252848982810974,-0.0,-0.0,-1.0,0.0174262907373997,1.0,0.0
36.20189666748047,5.13050651550293,-1.2267509698867798,-0.0,-0.0,-1.0,0.1120161370563214,2.0,0.0
36.4453125,4.820626258850098,-1.2158247232437134,-0.0,-0.0,-1.0,0.1586272865625098,1.0,0.0
36.778541564941406,4.54787540435791,-1.1920870542526243,-0.0,-0.0,-1.0,0.1439556981090251,1.0,0.0
37.09890365600586,4.321518898010254,-1.1683989763259888,-0.206350989613667,0.9517327632811567,-0.2272091907971028,0.0903801456993894,3.0,0.0
37.36151123046875,3.9452896118164062,-1.1659127473831177,-0.0,-0.0,-1.0,0.0694319163837929,1.0,0.0
37.57505798339844,3.674560546875,-1.1627076864242554,-0.0,-0.0,-1.0,0.0109786629500676,1.0,0.0
37.312381744384766,4.200797080993652,-1.150985836982727,-0.1132194321161778,-0.7708800884069825,-0.6268374984706425,0.1924409385012515,3.0,0.0
35.96551513671875,5.556873321533203,-1.2765942811965942,-0.0,-0.0,-1.0,0.0178517251758448,1.0,0.0
36.112945556640625,5.469744682312012,-1.262327790260315,-0.0,-0.0,-1.0,0.0130500310783925,2.0,0.0
36.383506774902344,5.194639205932617,-1.2449613809585571,-0.0,-0.0,-1.0,0.1552963333572445,1.0,0.0
36.66912460327149,4.883908271789551,-1.2299712896347046,-0.0,-0.0,-1.0,0.078385279776898,1.0,0.0
36.84303283691406,4.734848976135254,-1.218567967414856,-0.0,-0.0,-1.0,0.0867640731866674,1.0,0.0
36.97689437866211,4.754901885986328,-1.199473261833191,-0.0,-0.0,-1.0,0.0312178534943934,2.0,0.0
37.112693786621094,4.639586448669434,-1.1910980939865112,-0.0,-0.0,-1.0,0.061308998446949,2.0,0.0
37.345794677734375,4.386186599731445,-1.182169795036316,-0.0,-0.0,-1.0,0.0641116087628221,2.0,0.0
37.617042541503906,4.068764686584473,-1.1754637956619265,-0.8098631045879788,0.0475042534871258,-0.5846923103032496,0.0309453583220996,3.0,0.0
36.19013977050781,4.665595054626465,-0.6970134973526001,-0.0,-0.0,-1.0,0.1718077998785912,1.0,0.0
35.31353759765625,3.825393676757813,-1.023694634437561,-0.0,-0.0,-1.0,0.0684533924054221,1.0,0.0
35.47895050048828,3.591207504272461,-1.021640419960022,-0.3462779806199185,0.7307815424462386,-0.5882600592915415,0.1008987975290005,4.0,0.0
35.774166107177734,3.179623603820801,-1.0194274187088013,-0.0,-0.0,-1.0,0.0409851807633255,2.0,0.0
35.83610916137695,3.560147285461426,-0.9855128526687622,-0.0,-0.0,-1.0,0.0668182973850574,1.0,0.0
37.126224517822266,5.522799491882324,-1.282889723777771,-0.0,-0.0,-1.0,0.0308285709425896,1.0,0.0
37.30652618408203,5.372450828552246,-1.2696996927261353,-0.0,-0.0,-1.0,0.0104037199692773,1.0,0.0
37.61037826538086,5.079257965087891,-1.252198576927185,-0.0,-0.0,-1.0,0.0177382871230658,2.0,0.0
36.231170654296875,4.946080207824707,-0.8494027853012085,-0.0,-0.0,-1.0,0.1693216509592825,2.0,0.0
36.53020095825195,4.849104881286621,-0.8225041627883911,-0.0,-0.0,-1.0,0.1552710195488343,2.0,0.0
35.23368835449219,5.444226264953613,-1.2243586778640747,-0.0,-0.0,-1.0,0.1241363906475665,1.0,0.0
35.452816009521484,5.280560493469238,-1.2090965509414673,-0.0,-0.0,-1.0,0.0373337619564906,2.0,0.0
35.660797119140625,4.979447364807129,-1.2064090967178345,-0.0,-0.0,-1.0,0.0228161172663328,2.0,0.0
35.874977111816406,4.82124137878418,-1.1925803422927856,-0.0,-0.0,-1.0,0.0362214993056082,1.0,0.0
36.13341522216797,4.451929092407227,-1.1915570497512815,-0.0,-0.0,-1.0,0.0780437526326601,1.0,0.0
36.20268630981445,4.317661285400391,-1.1945823431015017,-0.8164583207683731,0.5582550288348528,0.1474690924522365,0.0287236255951918,4.0,0.0
36.40446472167969,4.8658294677734375,-1.1241978406906128,-0.0,-0.0,-1.0,0.1489461172499653,1.0,0.0
36.318336486816406,4.281403541564941,-1.1838325262069702,-0.0,-0.0,-1.0,0.1092759455345607,2.0,0.0
36.87051010131836,4.341179847717285,-1.1128689050674438,-0.8067847076534038,0.1311616441298195,-0.5761033402140407,0.1066936814080856,3.0,0.0
37.21043395996094,4.203566551208496,-1.0851444005966189,-0.3795946680886976,0.891431476095147,0.2475031542939589,0.1594583139453919,4.0,0.0
37.18355941772461,3.750388145446778,-1.129881739616394,-0.0,-0.0,-1.0,0.0312578044898784,2.0,0.0
37.374141693115234,3.427539825439453,-1.138785481452942,-0.0,-0.0,-1.0,0.0121799451824018,1.0,0.0
37.51832962036133,3.1384878158569336,-1.1507099866867063,-0.0,-0.0,-1.0,0.0182798455353637,1.0,0.0
35.70582580566406,5.441681861877441,-1.2385962009429932,-0.0,-0.0,-1.0,0.0598836722918759,2.0,0.0
35.810794830322266,5.1668925285339355,-1.2380616664886477,-0.0,-0.0,-1.0,0.0155264762727552,1.0,0.0
36.01769256591797,5.0055365562438965,-1.2176249027252195,-0.0,-0.0,-1.0,0.1455817774330471,1.0,0.0
36.49321365356445,4.94106912612915,-1.154371976852417,-0.0,-0.0,-1.0,0.1865476837679809,2.0,0.0
36.28886795043945,4.485652923583984,-1.2100932598114014,-0.3672252055862319,-0.8924016243875291,0.2622307937154764,0.0380619280271897,3.0,0.0
36.67869186401367,4.365874290466309,-1.1636393070220947,-0.268341025455018,-0.4460354822846615,-0.8538415793347377,0.2300921611649339,5.0,0.0
37.14183807373047,4.319498062133789,-1.1033105850219729,-0.0,-0.0,-1.0,0.1757039246366857,1.0,0.0
37.14564895629883,3.8417701721191406,-1.13494873046875,-0.0,-0.0,-1.0,0.0647427313421664,1.0,0.0
37.395206451416016,4.194779396057129,-1.077251672744751,-0.7967843302890723,0.3402576323673042,0.4993590638224072,0.1552378064474282,8.0,0.0
37.23701477050781,3.763849258422851,-1.1281335353851318,-0.0,-0.0,-1.0,0.0281278764164845,1.0,0.0
37.2993278503418,3.532345771789551,-1.1363368034362793,-0.0,-0.0,-1.0,0.0486232701863263,1.0,0.0
37.41449737548828,3.198826789855957,-1.1455957889556885,0.361704697214932,-0.5193724893739871,-0.7742234362857547,0.0180809649503355,3.0,0.0
35.529415130615234,5.468111515045166,-1.2289063930511477,-0.0,-0.0,-1.0,0.0787713345145906,1.0,0.0
35.803741455078125,5.043320655822754,-1.2104675769805908,-0.0,-0.0,-1.0,0.0129005811343618,1.0,0.0
36.32398223876953,5.005390167236328,-1.1379210948944092,-0.4248420175253796,-0.708837262571048,-0.5630799191373708,0.1549414635464931,4.0,0.0
36.125267028808594,4.518383026123047,-1.193281173706055,-0.0,-0.0,-1.0,0.0421806799550461,1.0,0.0
36.50141906738281,5.029988765716553,-1.1112992763519287,0.4520645767626866,0.2002941762668908,-0.8692064549863516,0.2231037991655635,4.0,0.0
36.27825164794922,4.330085277557373,-1.182705640792847,0.0123444074328385,0.2652066232973636,-0.964112577744084,0.0628139870571935,3.0,0.0
37.0030632019043,4.406653881072998,-1.077021837234497,-0.0,-0.0,-1.0,0.1313053839609639,2.0,0.0
36.766021728515625,4.371477127075195,-1.1121160984039309,0.0732323753515822,-0.6171355488947038,-0.7834415954560987,0.1359504551214509,3.0,0.0
37.248348236083984,4.290096282958984,-1.0504415035247805,-0.0,-0.0,-1.0,0.1891555893075023,1.0,0.0
37.12018585205078,3.918642997741699,-1.0919649600982666,-0.0,-0.0,-1.0,0.0642428586815865,1.0,0.0
37.1495361328125,3.7373123168945312,-1.1000268459320068,-0.0,-0.0,-1.0,0.0503823775223142,2.0,0.0
37.15729522705078,3.5084781646728516,-1.114511489868164,-0.4028907963647351,0.6451685251499156,-0.6491814695140891,0.0176325243527043,3.0,0.0
37.217559814453125,3.2082014083862305,-1.1274917125701904,-0.0,-0.0,-1.0,0.0213385703023382,1.0,0.0
35.28765106201172,5.276491165161133,-1.1742804050445557,-0.356430647611254,-0.3579881574792245,-0.8630189294262625,0.1759251102781245,3.0,0.0
35.48747634887695,4.876607418060303,-1.1717286109924316,-0.0,-0.0,-1.0,0.0417090587849286,1.0,0.0
35.88527297973633,4.581128120422363,-1.1374173164367676,-0.0,-0.0,-1.0,0.0126103150849827,1.0,0.0
35.893226623535156,4.3916015625,-1.149233102798462,-0.0,-0.0,-1.0,0.0579957716609272,1.0,0.0
36.43938064575195,4.900518894195557,-1.0415277481079102,-0.3060837739340729,-0.9386228378924464,-0.1590593962047056,0.1963485500713657,3.0,0.0
35.92485427856445,4.228237152099609,-1.1564462184906006,-0.0,-0.0,-1.0,0.0588053408844385,2.0,0.0
36.81169891357422,4.464695930480957,-1.0223679542541504,-0.0,-0.0,-1.0,0.2414545123066621,1.0,0.0
36.655494689941406,4.403943061828613,-1.047283172607422,-0.0,-0.0,-1.0,0.2280082118429854,2.0,0.0
37.133304595947266,4.330709457397461,-0.9900457859039308,-0.0,-0.0,-1.0,0.129192193624233,2.0,0.0
36.838897705078125,3.8261404037475586,-1.0664353370666504,-0.0,-0.0,-1.0,0.1078977431463546,1.0,0.0
37.06772232055664,3.700296401977539,-1.0468604564666748,-0.0,-0.0,-1.0,0.0662278011044717,1.0,0.0
37.02777862548828,3.3942298889160156,-1.076433181762695,-0.0,-0.0,-1.0,0.0375097708482567,1.0,0.0
37.027984619140625,3.19424819946289,-1.0927002429962158,-0.0,-0.0,-1.0,0.0354608588120282,1.0,0.0
35.37578582763672,5.359870433807373,-1.1985479593276978,-0.0,-0.0,-1.0,0.1241363906475665,1.0,0.0
35.29906463623047,5.330327033996582,-1.211487889289856,-0.0,-0.0,-1.0,0.1116271713269375,2.0,0.0
35.5199089050293,4.99317741394043,-1.2041343450546265,-0.0,-0.0,-1.0,0.0269859798028156,2.0,0.0
36.4161262512207,4.977787971496582,-1.0806065797805786,0.6428477913479385,0.0328643245062151,-0.7652886078688401,0.191896378779796,3.0,0.0
35.70125961303711,4.765784740447998,-1.1955043077468872,-0.0,-0.0,-1.0,0.0323231828085414,1.0,0.0
36.398834228515625,4.818612098693848,-1.0951253175735474,-0.0,-0.0,-1.0,0.2362691441020892,1.0,0.0
36.01499557495117,4.37540864944458,-1.1823292970657349,-0.0,-0.0,-1.0,0.0473402762270447,2.0,0.0
36.765625,4.42802095413208,-1.076069712638855,-0.0,-0.0,-1.0,0.1782844491125344,1.0,0.0
36.44453430175781,4.292309761047363,-1.1305071115493774,-0.0,-0.0,-1.0,0.2139316039517001,2.0,0.0
37.01137161254883,4.135307788848877,-1.0675841569900513,-0.0,-0.0,-1.0,0.1457971285207036,1.0,0.0
37.08411407470703,3.8415608406066895,-1.083044171333313,-0.0,-0.0,-1.0,0.0676175790372888,1.0,0.0
37.089691162109375,3.5942983627319336,-1.104244828224182,-0.0,-0.0,-1.0,0.047841146483926,2.0,0.0
37.163352966308594,3.2261791229248047,-1.128203272819519,-0.0,-0.0,-1.0,0.025460362518527,1.0,0.0
37.17504119873047,4.22572135925293,-1.037859559059143,0.2143409720556013,0.9345033427867886,-0.2841855908004094,0.2682375690185578,3.0,0.0
35.35233688354492,4.951735973358154,-1.1902180910110474,-0.0,-0.0,-1.0,0.0670614115633493,1.0,0.0
37.66404342651367,5.430820465087891,-1.308820366859436,0.8229675367975415,0.4682270257466348,0.3216953306124417,0.0143033096572243,3.0,0.0
37.57918548583984,5.485316276550293,-1.3201740980148315,-0.0,-0.0,-1.0,0.0146345800763225,2.0,0.0
35.72747802734375,4.640314102172852,-1.1515151262283323,-0.0,-0.0,-1.0,0.0226023128955064,2.0,0.0
37.69287109375,5.286545753479004,-1.3144291639328003,-0.0,-0.0,-1.0,0.013547296267474,1.0,0.0
35.74048614501953,4.326817035675049,-1.1679960489273071,0.0255328284894507,0.6632481313018553,-0.7479638968519305,0.0291357398547437,4.0,0.0
35.87489318847656,4.042497634887695,-1.1657651662826538,-0.0,-0.0,-1.0,0.0455191101774905,2.0,0.0
36.75316619873047,3.753695011138916,-1.0585402250289917,0.5390339680432995,0.825613427051438,-0.1667478646576156,0.0984811235488335,3.0,0.0
36.495235443115234,3.7302842140197754,-1.096835970878601,0.0902985858897948,-0.4807147440974429,-0.8722152831690315,0.0445127697777802,3.0,0.0
36.90704345703125,3.4415669441223145,-1.0587722063064575,-0.0,-0.0,-1.0,0.1133366156554963,2.0,0.0
36.77695083618164,3.2690858840942383,-1.0894404649734497,-0.0,-0.0,-1.0,0.066798264210287,2.0,0.0
36.379150390625,4.926146507263184,-1.0387688875198364,-0.0434767559191998,-0.9799312066984008,0.1945368906746441,0.2598116527715592,3.0,0.0
36.64725875854492,4.528300762176514,-1.0231257677078247,-0.0,-0.0,-1.0,0.1554159380267892,1.0,0.0
37.04256439208984,4.32836389541626,-0.9786356687545776,0.1814727924339845,-0.9763289224612074,-0.1176837319766389,0.1675897589289624,5.0,0.0
36.68489074707031,4.370633602142334,-1.0275441408157349,0.207779879014333,-0.3564394198313471,-0.910921764954094,0.2016227450388315,3.0,0.0
36.899444580078125,3.8234400749206543,-1.033069729804993,-0.0,-0.0,-1.0,0.0919949012745023,1.0,0.0
36.9758186340332,3.575054168701172,-1.0395740270614624,-0.0,-0.0,-1.0,0.0690817096274277,2.0,0.0
35.283470153808594,5.306105136871338,-1.184837818145752,-0.6479634240164043,-0.3352916946467589,-0.6839026836018721,0.1759251102781245,3.0,0.0
37.65348052978515,5.203016757965088,-1.296339750289917,-0.0,-0.0,-1.0,0.0142245553391502,2.0,0.0
37.496734619140625,5.380484104156494,-1.3115365505218506,-0.0,-0.0,-1.0,0.0152029528396105,2.0,0.0
35.31357192993164,5.040558338165283,-1.194309949874878,-0.0,-0.0,-1.0,0.0598341846648302,2.0,0.0
35.41670227050781,4.785760879516602,-1.1924514770507812,-0.6316449902713918,0.0219761155876937,-0.7749462282047254,0.0439311205843418,4.0,0.0
35.77475357055664,4.279467582702637,-1.1678810119628906,-0.0,-0.0,-1.0,0.0461616070868676,2.0,0.0
36.21083450317383,5.012984752655029,-1.056544065475464,0.4182411572760782,-0.7856734215767502,-0.4558416490276519,0.2251385844365019,3.0,0.0
36.319671630859375,4.869687080383301,-1.048281192779541,-0.0449481606938339,-0.3107624840303246,-0.9494242157063112,0.2432070212819398,9.0,0.0
35.69226837158203,4.680734634399414,-1.1559805870056152,-0.0,-0.0,-1.0,0.0289837615136543,1.0,0.0
37.01040267944336,4.3352203369140625,-0.9778380393981934,-0.354591551359864,-0.3981373190995867,-0.8460209848723605,0.1743701854572787,4.0,0.0
36.68421936035156,4.437252998352051,-1.0200073719024658,-0.0,-0.0,-1.0,0.2112309389267615,2.0,0.0
36.48020935058594,4.38632869720459,-1.0540573596954346,-0.0,-0.0,-1.0,0.1670364690555563,1.0,0.0
36.543731689453125,3.809671401977539,-1.0835044384002686,-0.0,-0.0,-1.0,0.0402341822485247,2.0,0.0
36.83967971801758,3.688225746154785,-1.0485808849334717,-0.0,-0.0,-1.0,0.1480628197044926,2.0,0.0
36.8360595703125,3.180912971496582,-1.0868523120880127,-0.0,-0.0,-1.0,0.0931556434424544,2.0,0.0
36.68533706665039,5.582094192504883,-1.170103669166565,-0.0,-0.0,-1.0,0.0274393392054355,1.0,0.0
36.035850524902344,5.2454447746276855,-1.3063994646072388,-0.0,-0.0,-1.0,0.0187008234428933,1.0,0.0
35.85107421875,5.457785606384277,-1.3238762617111206,-0.0,-0.0,-1.0,0.0156179902066565,1.0,0.0
36.66371154785156,4.61559534072876,-1.2466000318527222,0.2519288681210676,0.1664294018134625,-0.9533273832316213,0.0569889332384116,3.0,0.0
36.41967010498047,4.787179946899414,-1.2743638753890991,-0.0,-0.0,-1.0,0.0839081172770739,1.0,0.0
36.188209533691406,4.998241424560547,-1.2977715730667114,-0.0,-0.0,-1.0,0.1150942317937417,1.0,0.0
37.04515838623047,4.150563716888428,-1.222565531730652,-0.0,-0.0,-1.0,0.1372708100925,1.0,0.0
36.76464080810547,4.319649696350098,-1.2543376684188845,-0.0,-0.0,-1.0,0.1809156230388552,1.0,0.0
37.537391662597656,3.844277858734131,-1.170981764793396,-0.0,-0.0,-1.0,0.0197244493707205,1.0,0.0
37.18959045410156,4.017500400543213,-1.2109259366989136,-0.0,-0.0,-1.0,0.1393657537048785,1.0,0.0
37.594932556152344,3.465292453765869,-1.1982887983322144,-0.0,-0.0,-1.0,0.01052942775193,2.0,0.0
35.32461929321289,3.5839834213256836,-1.003107666969299,-0.0,-0.0,-1.0,0.0489748254852329,1.0,0.0
35.35373306274414,3.289747714996338,-1.0189210176467896,-0.0,-0.0,-1.0,0.0405401398460936,2.0,0.0
36.521820068359375,4.271331787109375,-0.7961863279342651,-0.0,-0.0,-1.0,0.1173315860680613,1.0,0.0
37.58634567260742,4.484834671020508,-1.1474332809448242,-0.0,-0.0,-1.0,0.0260054891742576,1.0,0.0
37.1953010559082,4.638331413269043,-1.1569983959197998,-0.0,-0.0,-1.0,0.0537500934275562,1.0,0.0
36.77909469604492,4.7692790031433105,-1.1760177612304688,-0.0,-0.0,-1.0,0.093927647251438,1.0,0.0
36.40265655517578,4.910919189453125,-1.190377712249756,-0.0,-0.0,-1.0,0.2409043047760106,2.0,0.0
36.0756950378418,5.068387985229492,-1.1978466510772705,-0.0,-0.0,-1.0,0.1631649524114971,1.0,0.0
35.74992370605469,5.262322902679443,-1.1999859809875488,-0.0,-0.0,-1.0,0.0591006537516492,2.0,0.0
35.36327362060547,5.438777923583984,-1.214399814605713,-0.0853343381961826,-0.9901856815904804,0.1106813746653647,0.1241363906475665,3.0,0.0
35.52130889892578,3.6093649864196777,-1.0131158828735352,-0.2266872735925063,0.7937850598701207,-0.56437413009296,0.1074786457844901,3.0,0.0
35.26716613769531,3.749685287475586,-1.007894515991211,-0.0,-0.0,-1.0,0.0480052491515867,1.0,0.0
36.47581481933594,4.769959926605225,-0.7307021617889404,-0.0,-0.0,-1.0,0.1464505625933135,1.0,0.0
36.822662353515625,3.4679975509643555,-0.9426491260528564,-0.0,-0.0,-1.0,0.0687982381495239,1.0,0.0
36.46681213378906,3.5343456268310547,-0.9556162357330322,-0.0,-0.0,-1.0,0.1021807371295451,1.0,0.0
36.07862091064453,3.560840606689453,-0.9794132709503174,-0.0,-0.0,-1.0,0.0535978786714512,1.0,0.0
36.19441986083984,3.402461051940918,-1.000269889831543,-0.0,-0.0,-1.0,0.0326677203241841,2.0,0.0
36.00230407714844,3.509449005126953,-0.9947116374969482,-0.0,-0.0,-1.0,0.0581443207671669,1.0,0.0
35.75714111328125,3.580918312072754,-1.0000710487365725,0.1985684488058696,-0.9794682145775055,-0.034822230990901,0.0904920894756488,6.0,0.0
37.48783493041992,5.422816753387451,-1.323347568511963,0.8393703971737114,0.0249669174143893,-0.5429861778933871,0.0111499876877792,3.0,0.0
37.335784912109375,5.523200511932373,-1.3376171588897705,-0.0,-0.0,-1.0,0.0164915338829699,2.0,0.0
37.616546630859375,5.257843494415283,-1.3223626613616943,-0.0,-0.0,-1.0,0.0121639129944089,2.0,0.0
37.17356491088867,5.575092792510986,-1.3600516319274902,-0.0,-0.0,-1.0,0.0248011751638364,2.0,0.0
36.41551971435547,4.742219924926758,-1.123361587524414,-0.0,-0.0,-1.0,0.1831887897521408,1.0,0.0
36.71017074584961,4.155130863189697,-1.1477711200714111,-0.0,-0.0,-1.0,0.1710891000462988,1.0,0.0
36.29658508300781,4.494760036468506,-1.1682937145233154,-0.0,-0.0,-1.0,0.1206227379565596,2.0,0.0
35.81813430786133,4.699972629547119,-1.2160120010375977,-0.0,-0.0,-1.0,0.0199360626389931,1.0,0.0
35.548057556152344,5.014968395233154,-1.222966194152832,-0.0,-0.0,-1.0,0.0255638849047289,2.0,0.0
35.2442741394043,5.320334434509277,-1.237887620925903,-0.0,-0.0,-1.0,0.0354879357770278,1.0,0.0
36.353885650634766,4.139630317687988,-1.2004847526550293,-0.0,-0.0,-1.0,0.0634209806657322,2.0,0.0
36.1827278137207,4.282395839691162,-1.20878005027771,-0.8843557639232094,0.4125808382869562,0.2183848316486958,0.0194300474637105,3.0,0.0
35.60930633544922,5.22269868850708,-1.2119815349578855,-0.0,-0.0,-1.0,0.063408956580229,1.0,0.0
35.363155364990234,5.490688323974609,-1.2260327339172363,-0.0,-0.0,-1.0,0.1184398447104805,1.0,0.0
37.410552978515625,5.040022373199463,-1.3139303922653198,-0.0,-0.0,-1.0,0.0134541727405348,1.0,0.0
37.05992889404297,5.203361988067627,-1.3265188932418823,-0.0,-0.0,-1.0,0.0223663118641693,1.0,0.0
36.69905853271485,5.37197208404541,-1.3419948816299438,-0.0,-0.0,-1.0,0.0373438976701033,2.0,0.0
36.364620208740234,5.585517406463623,-1.347812533378601,-0.0,-0.0,-1.0,0.0249233999373645,2.0,0.0
36.60100555419922,4.327701568603516,-1.1103745698928833,-0.3038974648638963,-0.9526909775248266,-0.0051217372138087,0.1642861543826998,3.0,0.0
36.366119384765625,4.171159744262695,-1.1623762845993042,-0.172642414962917,-0.9796922943787018,-0.1019686466065279,0.1325036012359711,3.0,0.0
35.97925567626953,4.302206993103027,-1.179334282875061,-0.148858145954103,-0.3627062796875477,-0.9199377191192488,0.0489454026536692,3.0,0.0
35.51618194580078,4.47462272644043,-1.1994401216506958,-0.0,-0.0,-1.0,0.0216820488470189,2.0,0.0
36.05340194702149,4.101250648498535,-1.2070168256759644,-0.0,-0.0,-1.0,0.0206483793976326,1.0,0.0
35.84883499145508,4.220895767211914,-1.2074302434921265,-0.0,-0.0,-1.0,0.0294331614212215,2.0,0.0
35.41848373413086,4.441803932189941,-1.2158960103988647,-0.0,-0.0,-1.0,0.0202458733736373,1.0,0.0
35.26689529418945,4.541735649108887,-1.215682864189148,-0.0,-0.0,-1.0,0.0270523925717846,1.0,0.0
37.07961654663086,4.296072959899902,-1.0684260129928589,-0.0,-0.0,-1.0,0.103229231357941,2.0,0.0
36.84856796264648,4.322613716125488,-1.0863677263259888,-0.6946976570610868,-0.0962174978913985,-0.7128375399579874,0.1588529061655993,4.0,0.0
36.48698806762695,4.8736090660095215,-1.025755524635315,-0.0,-0.0,-1.0,0.119887017225712,2.0,0.0
36.23077774047851,4.909176349639893,-1.0472108125686646,-0.4299436895658624,-0.8255191713349569,-0.3656043237722159,0.1862571534915217,9.0,0.0
36.74665069580078,4.344438552856445,-1.0926278829574585,-0.1577394601550187,-0.9269514593719236,-0.3404104209307709,0.1068452171790906,7.0,0.0
37.15959930419922,5.286005020141602,-1.2800853252410889,-0.3353529837452652,-0.0375712752301122,-0.9413430700710188,0.014637109145007,3.0,0.0
36.914188385009766,5.470170974731445,-1.292875051498413,-0.0,-0.0,-1.0,0.0219374979804492,2.0,0.0
37.594783782958984,4.978710174560547,-1.258436918258667,-0.0,-0.0,-1.0,0.0158006913405913,2.0,0.0
37.313453674316406,5.146093368530273,-1.2770702838897705,-0.0,-0.0,-1.0,0.0168769223349208,2.0,0.0
36.19023132324219,4.8458709716796875,-1.092153787612915,-0.8938189894870224,-0.2287246302108208,-0.3857105878340923,0.1949343531163626,3.0,0.0
35.36418914794922,5.041321754455566,-1.1931395530700684,-0.0,-0.0,-1.0,0.0624911698128818,2.0,0.0
37.21308517456055,4.191164016723633,-1.0370163917541504,-0.7923042405759128,-0.6043002457142039,0.0841142282564552,0.1753660549922225,5.0,0.0
36.983375549316406,4.312063217163086,-1.0515382289886477,-0.6977457466572183,-0.6851205145074063,-0.2091907111295034,0.1855839187206945,4.0,0.0
36.61732482910156,4.322452545166016,-1.102308750152588,-0.5290923670353634,-0.8156339719341528,-0.2340993186060863,0.1817875065888397,4.0,0.0
36.04769134521485,4.356178283691406,-1.1809158325195312,-0.0,-0.0,-1.0,0.0499744945940325,2.0,0.0
35.71504592895508,4.637847900390625,-1.1922922134399414,-0.0,-0.0,-1.0,0.0245586185240816,2.0,0.0
35.4940185546875,4.8136701583862305,-1.202789306640625,-0.0,-0.0,-1.0,0.0451218085288538,1.0,0.0
37.10272979736328,3.692618370056152,-1.126359224319458,-0.0,-0.0,-1.0,0.0517831098832766,1.0,0.0
36.1796875,4.258058547973633,-1.1751129627227783,-0.8497143197690682,0.4607407494888917,0.2563270109446214,0.0259542948236397,3.0,0.0
37.18771743774414,3.497629165649414,-1.1441738605499268,-0.0,-0.0,-1.0,0.0149104616401128,2.0,0.0
36.46509552001953,5.417097091674805,-1.2897979021072388,-0.0,-0.0,-1.0,0.0327798140277477,1.0,0.0
36.26259994506836,5.558887958526611,-1.299470067024231,-0.0,-0.0,-1.0,0.0096164715301316,1.0,0.0
37.2288703918457,4.949801445007324,-1.2511833906173706,-0.0,-0.0,-1.0,0.0186043795217054,1.0,0.0
36.95506286621094,5.107325553894043,-1.265304684638977,-0.0,-0.0,-1.0,0.0319906352744156,1.0,0.0
36.63136291503906,5.2758660316467285,-1.2873576879501345,-0.0,-0.0,-1.0,0.0331021040658513,1.0,0.0
36.39421081542969,4.893957138061523,-0.9918287992477416,0.7614892189111221,-0.3296926897943938,0.5580653185589179,0.2204481239798935,3.0,0.0
36.19782257080078,4.893887519836426,-1.019656777381897,-0.5972825759655566,-0.1368142924611152,-0.790275505014747,0.148259558893872,3.0,0.0
36.50056838989258,4.284824371337891,-1.0722023248672483,-0.9078718813151748,-0.3486904571659794,-0.2327737360584861,0.2223084024339095,6.0,0.0
35.72230529785156,4.343494415283203,-1.171207070350647,0.0255328284894507,0.6632481313018553,-0.7479638968519305,0.0272066146261859,4.0,0.0
35.580711364746094,4.676824569702148,-1.1413065195083618,-0.0,-0.0,-1.0,0.0363519858100431,2.0,0.0
35.228965759277344,4.802860260009766,-1.1742900609970093,-0.0,-0.0,-1.0,0.037425030016746,1.0,0.0
36.150272369384766,4.143607139587402,-1.1422821283340454,-0.5583455221715364,-0.6075718355152839,-0.5648953377038828,0.0519697956987361,3.0,0.0
35.932411193847656,4.244746208190918,-1.15680992603302,-0.0,-0.0,-1.0,0.0598756337015632,2.0,0.0
35.253013610839844,5.347113609313965,-1.1868282556533811,-0.0,-0.0,-1.0,0.1718000606140884,1.0,0.0
35.60580825805664,4.965455055236816,-1.1911214590072632,-0.0,-0.0,-1.0,0.0242873287957061,1.0,0.0
35.405296325683594,5.1733808517456055,-1.1894370317459106,-0.0,-0.0,-1.0,0.0851289462142584,2.0,0.0
37.523807525634766,4.614527702331543,-1.2181057929992676,-0.0,-0.0,-1.0,0.0152253272942586,1.0,0.0
37.206817626953125,4.563340187072754,-1.2064454555511477,-0.0,-0.0,-1.0,0.0515537905789388,1.0,0.0
37.5740966796875,4.287019729614258,-1.1469978094100952,-0.0,-0.0,-1.0,0.0601830909435298,1.0,0.0
36.90667724609375,4.442956924438477,-1.0820156335830688,-0.0,-0.0,-1.0,0.2153649284274406,1.0,0.0
36.48899841308594,4.887101173400879,-0.9857732057571412,0.6765988382374719,-0.5417893941139459,0.4986765129032514,0.1545873016180622,5.0,0.0
37.40252685546875,4.23044490814209,-1.1456621885299685,-0.3322418840869941,-0.8609019897261495,-0.3853090896201143,0.1462552812175291,6.0,0.0
37.055660247802734,4.315540313720703,-1.1113914251327517,-0.0,-0.0,-1.0,0.1157150592883107,1.0,0.0
37.62329864501953,4.754242897033691,-1.2258516550064087,-0.0,-0.0,-1.0,0.014650547545535,1.0,0.0
37.30963897705078,4.687063217163086,-1.2109254598617554,0.7953844481601542,0.4113774215825852,0.4451204293638193,0.0494519058190195,3.0,0.0
37.13745880126953,4.62232780456543,-1.2074624300003052,-0.0,-0.0,-1.0,0.057418837310478,2.0,0.0
36.981842041015625,4.555063247680664,-1.205969214439392,-0.0,-0.0,-1.0,0.062730361212339,2.0,0.0
36.396575927734375,5.348443984985352,-1.2699525356292725,-0.0,-0.0,-1.0,0.0570342184832313,1.0,0.0
36.13445281982422,5.318047523498535,-1.2516601085662842,-0.0,-0.0,-1.0,0.020084864307203,1.0,0.0
35.71071243286133,5.252837181091309,-1.2258005142211914,-0.0,-0.0,-1.0,0.0630149759516205,2.0,0.0
35.46712875366211,5.264507293701172,-1.2037019729614258,-0.7546690509819459,-0.6536004185912531,0.0572810292099244,0.0364789656598456,3.0,0.0
36.441436767578125,4.971797943115234,-0.8114619255065918,-0.0,-0.0,-1.0,0.1839199090498823,2.0,0.0
37.051414489746094,4.327401161193848,-0.9349532127380372,0.2920860797020442,-0.9563895660401734,0.0021725592695067,0.1124215514210917,4.0,0.0
36.9266357421875,4.318660736083984,-0.9277575016021729,-0.9939656080366376,0.1034086939236482,-0.0365925137338594,0.1220038222726045,3.0,0.0
36.7664794921875,3.662322998046875,-1.002631664276123,-0.1898482995170434,0.6633961317883564,-0.7237839425538068,0.0825781398691101,5.0,0.0
37.65565490722656,5.533342361450195,-1.3151932954788208,-0.0,-0.0,-1.0,0.0146345800763225,2.0,0.0
37.421653747558594,5.4992876052856445,-1.2986496686935425,-0.0,-0.0,-1.0,0.0150226115890854,1.0,0.0
37.23182678222656,5.465479850769043,-1.2862790822982788,-0.4088396062926513,-0.3691957313391699,-0.8345925282959378,0.0212848632447669,3.0,0.0
37.008522033691406,5.375494003295898,-1.27924644947052,-0.5074287958890825,0.8075243801606685,-0.3006998379591906,0.0255999845057095,5.0,0.0
36.78731155395508,5.234421730041504,-1.2800387144088743,-0.0,-0.0,-1.0,0.03820144511838,2.0,0.0
36.981483459472656,4.35173225402832,-0.9270236492156982,-0.0,-0.0,-1.0,0.1398651196589578,1.0,0.0
36.94118118286133,3.7316665649414062,-0.9995286464691162,-0.0,-0.0,-1.0,0.1206319781670199,2.0,0.0
36.84112548828125,3.713438034057617,-0.9956715106964112,-0.0,-0.0,-1.0,0.1480628197044927,2.0,0.0
37.26361083984375,3.14510440826416,-1.052788257598877,-0.0,-0.0,-1.0,0.0641216061621764,1.0,0.0
36.828834533691406,4.387126922607422,-0.8921308517456055,-0.0,-0.0,-1.0,0.1081816744595128,1.0,0.0
37.025054931640625,3.758909225463867,-0.9714038372039796,-0.0,-0.0,-1.0,0.0791222585013214,1.0,0.0
36.890628814697266,3.760906219482422,-0.9611001014709472,-0.0,-0.0,-1.0,0.1180094780611519,1.0,0.0
36.300052642822266,4.65902042388916,-0.7484012842178345,-0.0,-0.0,-1.0,0.1227201097763784,1.0,0.0
37.33224105834961,5.233842849731445,-1.2998778820037842,-0.795459052808608,-0.452964969219552,-0.4025762436666662,0.0157866721076357,3.0,0.0
37.19261932373047,5.142399787902832,-1.281022071838379,-0.0,-0.0,-1.0,0.0142214029685938,2.0,0.0
37.48910903930664,5.458003520965576,-1.3197600841522217,-0.0,-0.0,-1.0,0.0113184600420645,2.0,0.0
36.469017028808594,3.4446921348571777,-1.0621095895767212,0.8222735607765572,0.1360470143991035,-0.5525915318939765,0.0908595698450824,3.0,0.0
36.53214645385742,4.0249457359313965,-1.0728942155838013,0.7859484332159048,0.4897740014954529,-0.3773678414817518,0.1472059555488111,3.0,0.0
36.56452178955078,3.714240550994873,-1.076567769050598,0.4370605682951021,-0.4845756699708183,-0.7577364183632034,0.0778411056053955,5.0,0.0
36.306671142578125,4.818169116973877,-1.044094204902649,-0.7635723099312496,-0.0867016724111909,-0.6398751030532118,0.1829503263423496,7.0,0.0
36.65036392211914,4.292047500610352,-1.0915018320083618,-0.0,-0.0,-1.0,0.2415466460517061,2.0,0.0
36.268314361572266,4.991090297698975,-1.0397077798843384,-0.072658535726363,-0.8700919116715623,0.4875046691364371,0.1746212759543579,4.0,0.0
36.52566146850586,4.958880424499512,-1.077579140663147,0.7074506886172186,-0.6931905295214255,-0.1378419854646215,0.162605426978171,5.0,0.0
37.627464294433594,4.702570915222168,-1.2388283014297483,-0.0,-0.0,-1.0,0.0161514059571048,1.0,0.0
37.693328857421875,4.881180286407471,-1.250273823738098,0.7434479232316119,0.5986379009820954,-0.2981909605443366,0.0137900256282957,3.0,0.0
36.80904769897461,4.3060102462768555,-0.9803798198699952,0.0505740403154035,-0.6636110824414722,0.7463662624389138,0.1743521990022992,6.0,0.0
36.3038330078125,4.793989181518555,-0.9112541675567628,-0.6411648968682183,-0.4489375644329335,-0.6223846385194551,0.2266258784705508,5.0,0.0
36.25724029541016,4.979043483734131,-0.907433032989502,-0.0,-0.0,-1.0,0.1541633595806916,2.0,0.0
36.947227478027344,3.7359681129455566,-0.9980072975158693,-0.0,-0.0,-1.0,0.1133913592126664,2.0,0.0
36.568817138671875,4.245577335357666,-0.952298641204834,-0.0,-0.0,-1.0,0.1155087607300732,1.0,0.0
37.065711975097656,3.864657878875733,-1.0235354900360107,-0.0,-0.0,-1.0,0.0699303131731147,1.0,0.0
36.84123611450195,4.392553329467773,-1.006164789199829,0.3282416122056353,0.3453677232525545,-0.8791920039172287,0.2449944498582018,5.0,0.0
36.98976516723633,4.423694133758545,-1.033616065979004,-0.0,-0.0,-1.0,0.1926736456058519,2.0,0.0
37.440338134765625,4.314169406890869,-1.1080207824707031,-0.0,-0.0,-1.0,0.0553785253317418,1.0,0.0
36.34961700439453,4.805956840515137,-0.9380228519439696,0.7557802584570645,-0.5788754290856707,0.3061036401734768,0.2061418016230288,4.0,0.0
36.27867126464844,5.022832870483398,-0.9355347156524658,-0.0,-0.0,-1.0,0.213064571805898,1.0,0.0
36.51411437988281,4.95151948928833,-0.9738888740539552,0.6275605274401792,-0.6531091481179103,0.4238115442548747,0.115273070781763,4.0,0.0
37.677886962890625,4.644858360290527,-1.1999067068099976,-0.0,-0.0,-1.0,0.0128593999162927,1.0,0.0
35.750244140625,5.608875274658203,-1.334908127784729,-0.0,-0.0,-1.0,0.0109558578293664,1.0,0.0
35.718894958496094,3.4343113899230957,-0.8863245248794556,-0.0,-0.0,-1.0,0.0710624759300714,1.0,0.0
36.595699310302734,3.4999589920043945,-1.0282045602798462,-0.0,-0.0,-1.0,0.0691887359133355,2.0,0.0
36.59505844116211,3.873385429382324,-1.0228499174118042,-0.0,-0.0,-1.0,0.0680481117540469,2.0,0.0
36.657203674316406,4.231082916259766,-1.0294638872146606,-0.0,-0.0,-1.0,0.2024388274182983,2.0,0.0
36.985992431640625,4.308415412902832,-1.083983063697815,-0.7884499606521439,-0.5833911843718981,-0.1949394407111782,0.1628799141835625,4.0,0.0
36.388389587402344,4.796891689300537,-0.9805158376693726,-0.0,-0.0,-1.0,0.2338569411471314,1.0,0.0
37.56925582885742,4.545001029968262,-1.181573510169983,-0.0,-0.0,-1.0,0.0209388376472831,1.0,0.0
35.449710845947266,3.9955458641052246,-1.1470071077346802,-0.0,-0.0,-1.0,0.0556874673168569,2.0,0.0
36.05625915527344,4.716119289398193,-1.2407134771347046,-0.0,-0.0,-1.0,0.1318220162484256,1.0,0.0
36.22292709350586,5.234864234924316,-1.2608453035354614,-0.0,-0.0,-1.0,0.0997070506358189,1.0,0.0
36.35792541503906,5.251133441925049,-1.288846135139465,-0.0,-0.0,-1.0,0.1185396880522587,1.0,0.0
36.521942138671875,5.489215850830078,-1.3189460039138794,-0.0,-0.0,-1.0,0.0297797900888539,1.0,0.0
36.98997497558594,4.25887393951416,-0.958114743232727,-0.6319136180139392,-0.6682508106606448,-0.3925888860117212,0.1187371520405471,9.0,0.0
36.83696365356445,4.391372203826904,-1.209998607635498,-0.0,-0.0,-1.0,0.1701072087765468,1.0,0.0
37.039798736572266,4.805231094360352,-1.241595983505249,-0.0,-0.0,-1.0,0.0280750001012361,1.0,0.0
37.09961700439453,4.824573993682861,-1.2540667057037354,-0.0,-0.0,-1.0,0.0285377299078927,1.0,0.0
37.25792694091797,5.035041332244873,-1.284091234207153,-0.0,-0.0,-1.0,0.0154642235170619,2.0,0.0
37.429473876953125,5.384164810180664,-1.3160686492919922,-0.0,-0.0,-1.0,0.0094815422334223,2.0,0.0
37.6048583984375,5.540191650390625,-1.3532278537750244,-0.0,-0.0,-1.0,0.0146345800763225,2.0,0.0
35.80485916137695,3.206817626953125,-1.0521714687347412,-0.0,-0.0,-1.0,0.0453506088547015,1.0,0.0
35.71169662475586,3.57197904586792,-1.0130958557128906,0.0617944009225748,0.1592727432274403,-0.9852987594021552,0.070455295927569,8.0,0.0
35.81278610229492,3.595795154571533,-1.0322613716125488,-0.0,-0.0,-1.0,0.0854500249646485,1.0,0.0
36.235294342041016,3.703932285308838,-1.1122303009033203,-0.0,-0.0,-1.0,0.0277442161999161,1.0,0.0
35.24213409423828,4.114081382751465,-0.8902621269226074,0.5772402758843279,0.7360577250110135,-0.3535713355867468,0.0798880181122267,4.0,0.0
36.41463088989258,3.908914089202881,-1.139925479888916,0.1526733940282891,-0.8195912556139027,-0.5522327484649101,0.0636892262090603,4.0,0.0
36.51318359375,4.280365943908691,-1.1455047130584717,0.0929004987424161,-0.9949727999400328,0.0373981913052179,0.2114958901729126,7.0,0.0
36.706512451171875,4.387973785400391,-1.1824443340301514,-0.3796371105284836,0.0310154096723399,-0.9246154382620057,0.1894053866078996,4.0,0.0
36.21319580078125,4.9267144203186035,-1.0604536533355713,-0.7313712985620571,-0.6740082538730102,-0.1039658470398155,0.1835943250048795,8.0,0.0
36.30951690673828,4.813164710998535,-1.084465742111206,-0.3753813557791463,-0.9095748738976251,0.1782200508010509,0.2210406486340982,5.0,0.0
36.95438766479492,4.684170246124268,-1.2263307571411133,-0.5137745518572466,0.7352099820607648,-0.4421560721533693,0.0196874822208622,3.0,0.0
36.469364166259766,4.999715328216553,-1.1135132312774658,0.1016931040947162,0.7497602638859623,-0.6538486516597198,0.1895422445126073,6.0,0.0
35.50019073486328,5.54565954208374,-1.2764685153961182,-0.0,-0.0,-1.0,0.0748496345715197,2.0,0.0
36.472599029541016,3.4125328063964844,-1.064697027206421,0.4265581385088934,-0.0995780450443401,-0.8989618275638712,0.0868432967856265,4.0,0.0
35.29755783081055,4.009275913238525,-1.1097514629364014,-0.0,-0.0,-1.0,0.0686051277204846,1.0,0.0
35.542449951171875,3.990681171417236,-1.169813871383667,-0.0,-0.0,-1.0,0.0294304048324343,2.0,0.0
36.60380172729492,3.653963088989258,-1.0719377994537354,-0.0,-0.0,-1.0,0.0803122383392794,2.0,0.0
