x,y,z,nx,ny,nz,curvature,density,label
25.433433532714844,9.810038566589355,-0.4037224054336548,-0.6880262173707992,0.7229657040767989,0.062773521003432,0.1494409720886188,5.0,0.0
25.6987361907959,10.155356407165527,-0.3948234319686889,-0.0,-0.0,-1.0,0.1618820010628817,1.0,0.0
27.66205406188965,9.180471420288086,-0.6008154153823853,-0.5264568615862519,0.2603950714081549,-0.8093439192797434,0.1766542485211052,6.0,0.0
27.007234573364254,10.113869667053224,-0.6858241558074951,0.2330736876830962,-0.4736842631635528,-0.8492937506781764,0.2274125005017008,6.0,0.0
25.448062896728516,8.458748817443848,-0.0522835254669189,0.0008748750495434,-0.9966184110191936,0.0821643317457478,0.1359599742794399,11.0,0.0
27.673765182495117,9.282981872558594,-0.5957887172698975,-0.3398956146276955,-0.7118846600844949,-0.6145658645688385,0.1953736361068512,7.0,0.0
25.62373161315918,8.302227020263672,-0.9546592235565186,-0.0,-0.0,-1.0,0.1613578316420698,1.0,0.0
25.738948822021484,8.154891967773438,-0.9345765113830566,-0.0,-0.0,-1.0,0.1913360195685188,2.0,0.0
25.565921783447266,8.601310729980469,-0.9630577564239502,-0.0,-0.0,-1.0,0.0331793936437106,1.0,0.0
25.635059356689453,8.458647727966309,-0.9510543346405028,-0.0,-0.0,-1.0,0.1137264325441771,1.0,0.0
27.54113006591797,8.569038391113281,-0.952289342880249,-0.0184037855679226,0.2287009839420604,-0.9733227422703647,0.1207139329671282,3.0,0.0
27.60412216186523,8.678535461425781,-0.9376280307769777,-0.0,-0.0,-1.0,0.1015547364621329,2.0,0.0
25.535839080810547,8.335785865783691,-0.5431389808654785,-0.5074844817700213,0.7691672316260242,0.3883828916872762,0.09027649986446,5.0,0.0
25.87767219543457,8.260639190673828,-0.4919149875640869,-0.00293817538039,-0.3033572958328167,-0.9528723514670971,0.1658766882711743,4.0,0.0
25.411659240722656,8.377498626708984,-0.134218692779541,-0.0,-0.0,-1.0,0.1400552090442827,1.0,0.0
26.030620574951172,9.873558044433594,-1.050603985786438,-0.0,-0.0,-1.0,0.0172279932565346,1.0,0.0
26.058530807495117,9.614494323730469,-1.039179444313049,-0.0,-0.0,-1.0,0.1045480054196735,2.0,0.0
26.079639434814453,9.120635032653809,-1.026255488395691,-0.0,-0.0,-1.0,0.1206039445722235,2.0,0.0
26.320192337036133,8.827898979187012,-0.975483536720276,-0.1320566522980387,-0.7025815105570149,-0.6992426342888841,0.0435736065054615,4.0,0.0
26.49989318847656,8.407668113708496,-0.9376968145370485,-0.0,-0.0,-1.0,0.0483689440813809,1.0,0.0
26.05841827392578,10.469905853271484,-1.0634032487869265,-0.0,-0.0,-1.0,0.1619922881687384,1.0,0.0
26.14960479736328,10.031789779663086,-1.0317059755325315,0.8165881367738205,0.3157340043191624,0.4832140865049854,0.037334044599477,3.0,0.0
26.348712921142575,9.622400283813477,-0.982277512550354,-0.0,-0.0,-1.0,0.2106193664777157,2.0,0.0
26.44119644165039,9.530652046203612,-0.962126851081848,0.2048866828155322,-0.9327693994499222,-0.2965850546718082,0.2430687316305289,4.0,0.0
26.719711303710938,8.628898620605469,-0.8950134515762329,0.2202673069350471,0.901186741082252,-0.3732891254686273,0.2481795197567808,4.0,0.0
27.03555679321289,10.147316932678224,-0.862866997718811,0.1469386257188697,-0.5751344901313334,-0.8047542224388898,0.1971751752455584,6.0,0.0
25.22401428222656,9.58391571044922,-0.7502094507217407,-0.0,-0.0,-1.0,0.189873648088734,2.0,0.0
25.34037399291992,9.459916114807127,-0.7296916246414185,-0.0,-0.0,-1.0,0.1349610874117628,2.0,0.0
25.61115074157715,8.33377742767334,-0.678530216217041,0.7261580457606571,0.0503645078241747,0.6856806172910913,0.2308486134829309,7.0,0.0
25.636058807373047,8.167051315307617,-0.6747803688049316,-0.0,-0.0,-1.0,0.1465825664743938,2.0,0.0
25.49524307250977,10.044971466064451,-0.7150700092315674,0.2980487454572867,0.3861523490248857,-0.8729566476486106,0.2261879807504889,5.0,0.0
25.50531578063965,9.957612037658691,-0.7116557359695435,0.7172990625878546,-0.085292158780899,0.69152534477131,0.1533055683397877,3.0,0.0
25.710203170776367,10.222679138183594,-0.6847826242446899,0.9477063646988444,0.1376259529701164,-0.2879439934750647,0.2071546481516875,5.0,0.0
25.921478271484375,10.563193321228027,-0.6602227687835693,0.9666769106291409,-0.2203676250942164,-0.1302837682400804,0.1233073839872206,3.0,0.0
27.61111831665039,9.147527694702148,-0.7249712944030762,0.660219050191247,-0.7287538612471418,-0.1817377657008834,0.243354177843156,3.0,0.0
25.284339904785156,9.466455459594728,-0.2944275140762329,-0.0,-0.0,-1.0,0.1097666031434208,1.0,0.0
25.462249755859375,8.382394790649414,-0.2672716379165649,-0.2741545257106584,0.3032036876125383,-0.9126372882205296,0.1387062549646182,3.0,0.0
25.43701934814453,9.840130805969238,-0.2796227931976318,-0.0,-0.0,-1.0,0.1541269076903994,1.0,0.0
25.314388275146484,9.862577438354492,-0.9479589462280272,-0.0,-0.0,-1.0,0.1303037612080805,2.0,0.0
25.393875122070312,9.488287925720217,-0.9200303554534912,-0.0775424852740859,0.9959148787944492,-0.0462678849025459,0.2078900919892652,3.0,0.0
25.233489990234375,9.192655563354492,-0.939134120941162,-0.0,-0.0,-1.0,0.1313005175133512,2.0,0.0
25.529808044433594,10.329093933105469,-0.9313962459564208,-0.0,-0.0,-1.0,0.2028728402031371,1.0,0.0
25.515239715576172,10.05438995361328,-0.9209427833557128,0.2323091582146689,0.8780941084932937,0.4183099229506272,0.2404019296570951,10.0,0.0
25.465482711791992,9.59455680847168,-0.9109923839569092,-0.0453958670108567,0.7893052261041748,-0.612320565801093,0.0924914466213531,3.0,0.0
27.080337524414062,9.379901885986328,-1.0116627216339111,-0.2922743104072225,0.956313221849366,-0.0063835093849677,0.063026140478707,3.0,0.0
26.988628387451172,10.578615188598633,-1.100625991821289,-0.0,-0.0,-1.0,0.0990176367176627,2.0,0.0
27.28268051147461,10.294208526611328,-1.020279884338379,-0.0,-0.0,-1.0,0.1517526659440296,2.0,0.0
27.284618377685547,9.88717269897461,-0.994664430618286,0.3622872597197522,-0.8441424771219812,-0.3951852980098297,0.1223281584985197,4.0,0.0
27.23109245300293,9.399659156799316,-0.98085618019104,-0.0,-0.0,-1.0,0.0942048364544061,1.0,0.0
27.432437896728516,10.500678062438965,-1.0036945343017578,-0.122049064749181,-0.1102144322646878,-0.9863857281583222,0.104114363116934,3.0,0.0
27.42831039428711,9.96654987335205,-0.9690721035003662,-0.312574534487844,-0.724470164098297,0.6143615724645332,0.0789414625195208,3.0,0.0
25.369943618774418,9.789724349975586,-0.4836564064025879,-0.0,-0.0,-1.0,0.1791305010168018,2.0,0.0
25.226524353027344,9.528409957885742,-0.4959077835083008,-0.0,-0.0,-1.0,0.132363715369944,1.0,0.0
25.61902236938477,8.400276184082031,-0.8530409336090088,-0.1512220207839949,-0.9248191075775332,-0.3490580448714795,0.184679206974344,7.0,0.0
25.566444396972656,10.170392990112305,-0.4697589874267578,0.1425821426428145,0.5687682216665745,-0.8100450867832152,0.1897136604796912,6.0,0.0
25.753435134887695,8.306896209716797,-0.8276417255401611,-0.043048586073295,0.1710703207216423,-0.9843179184619592,0.2696410898671249,5.0,0.0
26.021747589111328,10.62228012084961,-0.8618104457855225,-0.0,-0.0,-1.0,0.0951961458355209,1.0,0.0
26.055418014526367,9.261393547058104,-0.795212984085083,0.0396551517766486,-0.8740078265667838,-0.4842910158546997,0.1534813483013024,6.0,0.0
26.488677978515625,9.473963737487791,-0.7259724140167236,-0.452769960511161,-0.8813604751862036,0.1349187742246076,0.1052204962399715,4.0,0.0
26.99311065673828,10.16162109375,-0.6689131259918213,-0.2285993863049724,0.0319179178130886,-0.9729972081683828,0.2740009852182807,11.0,0.0
27.46212387084961,9.77087688446045,-0.9506714344024658,-0.0,-0.0,-1.0,0.0548889710469796,2.0,0.0
27.33678436279297,9.015024185180664,-0.9425203800201416,-0.0,-0.0,-1.0,0.1550610137825955,2.0,0.0
27.31987762451172,8.731122016906738,-0.9366855621337892,-0.7599795701768519,0.318090429999078,-0.5667887889300642,0.077478745785838,5.0,0.0
27.614774703979492,8.48294448852539,-0.8667182922363281,-0.9674830321006818,0.2037680513848943,0.1498504715777484,0.0758362134713693,5.0,0.0
25.526899337768555,8.412038803100586,-0.4303860664367676,0.7163786483254275,0.6966795451920017,0.0379373633045174,0.1278245221098947,7.0,0.0
25.44253921508789,8.50708293914795,-0.0054821968078613,-0.1282813405532673,-0.0848368182587852,-0.9881025310834816,0.182101883809273,15.0,0.0
25.431148529052734,10.520654678344728,-1.0116652250289917,-0.0,-0.0,-1.0,0.0763920543447215,1.0,0.0
25.42730140686035,10.387173652648926,-1.0029202699661257,-0.0,-0.0,-1.0,0.0862299232149877,2.0,0.0
25.454458236694336,9.774909973144531,-0.9594656229019164,-0.0,-0.0,-1.0,0.1533843271308576,2.0,0.0
25.42046356201172,9.415790557861328,-0.9450212717056274,0.980611205946304,-0.1953323064144622,-0.0157147333207386,0.1437562351349685,4.0,0.0
25.27401351928711,9.136906623840332,-0.95521342754364,-0.0,-0.0,-1.0,0.1142886089442213,1.0,0.0
25.687105178833008,8.396129608154297,-0.8550294637680054,0.4538086430853297,0.8661386403056326,-0.2094315430649407,0.2096879573490834,4.0,0.0
25.604412078857425,10.167216300964355,-0.9595409631729126,-0.0,-0.0,-1.0,0.199608452212314,1.0,0.0
25.586177825927734,10.0343017578125,-0.953809380531311,0.5451195318334933,0.8166452353375862,-0.189565966391787,0.1221682805811403,3.0,0.0
27.51619529724121,9.589139938354492,-1.003907561302185,-0.0,-0.0,-1.0,0.0808415904245176,1.0,0.0
27.460704803466797,9.351537704467772,-0.9971944093704224,0.55784897065532,0.8298981056339042,-0.0085825523043778,0.0913433615423276,5.0,0.0
27.40147399902344,8.880383491516113,-0.977840781211853,-0.0,-0.0,-1.0,0.1030315792255307,1.0,0.0
27.366609573364254,8.652496337890625,-0.971643090248108,-0.0,-0.0,-1.0,0.0766197087509066,1.0,0.0
27.56535530090332,10.509695053100586,-1.0753170251846311,-0.0,-0.0,-1.0,0.0838186171446838,2.0,0.0
27.56271743774414,10.122401237487791,-1.0395151376724243,-0.829022686895003,0.11453684933748,-0.5473597489377835,0.0501597516733142,3.0,0.0
27.596559524536133,9.798089981079102,-1.0049444437026978,0.7026667125494985,-0.5568881289506483,-0.4428714293208889,0.1056167028195944,3.0,0.0
25.35555648803711,9.859835624694824,-0.5169385671615601,-0.0,-0.0,-1.0,0.1615621974560134,2.0,0.0
25.36634063720703,9.55624008178711,-0.5009421110153198,-0.062765258510257,0.8285071821437624,-0.5564497923985086,0.0691741651611751,4.0,0.0
25.52985382080078,8.448493003845215,-0.4370745420455932,-0.5459492765737385,0.4852392896031547,-0.6829950360244481,0.1259338661219802,6.0,0.0
25.74144744873047,8.325940132141113,-0.8433765172958374,0.6128012842599359,-0.1030763942365032,-0.7834857005463304,0.2591072902161681,5.0,0.0
25.702163696289062,10.216647148132324,-0.4917436838150024,-0.0,-0.0,-1.0,0.192209266864974,2.0,0.0
26.07559585571289,9.27957248687744,-0.8293651342391968,-0.4921186834118662,-0.3156954052639381,-0.8112679042906906,0.212373052160143,7.0,0.0
26.98679542541504,10.196945190429688,-0.7399882078170776,0.7682695797762833,0.1915488029678861,-0.6107953084888122,0.2558293784539627,6.0,0.0
27.534141540527344,9.281866073608398,-0.5898503065109253,-0.0156750084961105,-0.1283751113283828,-0.9916017975478224,0.1516342306832202,3.0,0.0
27.645959854125977,8.555144309997559,-0.909899115562439,-0.0,-0.0,-1.0,0.0608093059392824,1.0,0.0
27.66228485107422,9.377114295959473,-0.5748482942581177,-0.0,-0.0,-1.0,0.2472499619501736,2.0,0.0
25.594335556030273,8.2247896194458,-0.4220551252365112,-0.0,-0.0,-1.0,0.1895716879584134,2.0,0.0
25.42055892944336,8.518990516662598,-0.0074427127838134,0.4847914150267925,0.1058060552916372,-0.8682064055165357,0.1423349305108993,13.0,0.0
25.775806427001953,8.413849830627441,-0.990093469619751,-0.0,-0.0,-1.0,0.1417661585458975,2.0,0.0
25.981050491333008,9.920969009399414,-1.0552141666412354,-0.0,-0.0,-1.0,0.0299175746088607,1.0,0.0
25.9122314453125,9.595327377319336,-1.0417566299438477,-0.0,-0.0,-1.0,0.0933897991729683,2.0,0.0
25.93062210083008,9.226007461547852,-1.0128273963928225,-0.0,-0.0,-1.0,0.2132142559267351,2.0,0.0
25.792652130126953,8.861885070800781,-1.0126831531524658,-0.0,-0.0,-1.0,0.0397945762015309,1.0,0.0
25.932571411132812,8.347383499145508,-0.9595754146575928,0.9785411043088114,-0.1773711008335269,0.1048656271959269,0.1121573090091459,3.0,0.0
26.103599548339844,10.371996879577637,-1.0727646350860596,-0.0,-0.0,-1.0,0.0666252663641612,1.0,0.0
26.142322540283203,10.06421184539795,-1.0405843257904053,0.8165881367738205,0.3157340043191624,0.4832140865049854,0.046079729537444,3.0,0.0
26.43145179748535,10.613935470581056,-1.0422732830047607,-0.912916480799418,0.0457652244449974,-0.4055724883621975,0.1142917548405833,8.0,0.0
25.446563720703125,9.972692489624023,-0.6665061712265015,-0.0,-0.0,-1.0,0.1316356430731632,1.0,0.0
25.37730407714844,9.596774101257324,-0.6523609161376953,0.5733880170451532,0.0926261073853992,-0.8140310719743169,0.181688734937691,3.0,0.0
25.693187713623047,8.299202919006348,-0.5437512397766113,-0.0,-0.0,-1.0,0.1756035044565752,1.0,0.0
25.81057357788086,10.432705879211426,-0.6509907245635986,-0.0,-0.0,-1.0,0.0400748655378416,1.0,0.0
26.804832458496097,8.608600616455078,-0.8258330821990967,-0.0,-0.0,-1.0,0.1424048661902919,1.0,0.0
27.131752014160156,10.43368148803711,-0.9152712821960448,-0.0,-0.0,-1.0,0.2426030874426378,1.0,0.0
27.117504119873047,10.227210998535156,-0.8984158039093018,0.7987628826467827,0.0670906856624069,0.5978935500598337,0.2721208765899336,4.0,0.0
27.530733108520508,9.277841567993164,-0.7513964176177979,-0.0,-0.0,-1.0,0.2041832467032357,2.0,0.0
27.563196182250977,9.18375015258789,-0.7388219833374023,0.8166689152085439,-0.5739141952898472,-0.0606166592357837,0.2026250531822182,8.0,0.0
25.399986267089844,8.471820831298828,-0.1297450065612793,0.6989203630233629,0.3171836199602039,-0.6410186248310041,0.202719796686326,8.0,0.0
27.57727432250977,10.364405632019045,-1.0595210790634155,-0.0,-0.0,-1.0,0.0325033338979939,2.0,0.0
25.322166442871097,10.02444553375244,-0.888489842414856,-0.0,-0.0,-1.0,0.0969369126768168,2.0,0.0
25.27035903930664,9.586946487426758,-0.8662101030349731,0.737479767786477,0.5791411190672854,0.3474466236864249,0.2993722998589941,4.0,0.0
25.372604370117188,9.03782558441162,-0.818428635597229,-0.0,-0.0,-1.0,0.1956214037779424,1.0,0.0
25.612348556518555,8.419635772705078,-0.7509297132492065,0.2936447525269229,-0.8110372641959068,-0.5059558433292582,0.2518491736239291,8.0,0.0
25.809091567993164,10.560466766357422,-0.8630074262619019,-0.0,-0.0,-1.0,0.1275363531562958,2.0,0.0
25.562931060791016,10.197187423706056,-0.8682411909103394,0.9819932385297448,0.1574496403851042,-0.1043977500929256,0.2060190745677555,3.0,0.0
25.72675514221191,8.38486099243164,-0.7328656911849976,0.6950175585045641,0.5891845065406249,-0.4120827715676001,0.2573573591949407,6.0,0.0
25.880130767822266,10.579227447509766,-0.8551596403121948,0.8502180550087711,0.5214043948552572,-0.0725721431592403,0.1550233574919156,8.0,0.0
26.12126922607422,9.380823135375977,-0.7359968423843384,-0.0,-0.0,-1.0,0.1312617356061632,2.0,0.0
26.500736236572266,9.482330322265623,-0.6910988092422485,0.1068643521324188,-0.8783485063860859,-0.4659226454816836,0.1159479321171981,7.0,0.0
26.991531372070312,10.196887016296388,-0.6795070171356201,-0.2470526168170772,-0.6465330186062309,-0.7217756302174171,0.2723702807942084,7.0,0.0
27.128467559814453,8.151402473449707,-0.9455491304397584,-0.0,-0.0,-1.0,0.1324220100815575,2.0,0.0
27.442005157470703,9.497056007385254,-0.9970568418502808,-0.0,-0.0,-1.0,0.0570407567813031,1.0,0.0
27.40871810913086,9.025551795959473,-0.9620169401168824,0.6711204721882897,0.4645253326839971,-0.5777659795320147,0.0605826716939825,3.0,0.0
27.333675384521484,8.765111923217773,-0.9538649320602416,-0.9366028626039528,0.2634251590494519,-0.2310460199653994,0.091472440463366,3.0,0.0
27.567195892333984,10.154741287231444,-1.039530873298645,-0.829022686895003,0.11453684933748,-0.5473597489377835,0.0493381560803492,3.0,0.0
27.613758087158203,9.849691390991213,-1.0019148588180542,-0.0820749421590614,-0.9332110766794488,-0.3498296588803904,0.0535701111096724,3.0,0.0
27.569345474243164,9.6412353515625,-0.989219069480896,0.4330836949467763,0.4119752161748639,-0.8016950382963096,0.0875613093065297,3.0,0.0
25.362163543701172,9.509563446044922,-0.3538118600845337,-0.5092636435372572,0.0086391964010477,-0.86056719996564,0.1097666031434206,4.0,0.0
25.437313079833984,8.19061279296875,-0.2877001762390136,-0.2352616751200896,0.0066616527541481,-0.9719092378418228,0.1041024965004811,5.0,0.0
25.798641204833984,10.25096035003662,-1.0371181964874268,-0.0,-0.0,-1.0,0.0444586672072223,1.0,0.0
25.98595809936523,10.43393325805664,-1.03417706489563,-0.0,-0.0,-1.0,0.1823050679071394,2.0,0.0
25.27143287658691,8.849994659423828,-0.9666523933410645,0.5295920069607202,-0.6182301062127596,-0.5807958694201227,0.1239587042406921,3.0,0.0
25.213565826416016,8.819829940795898,-0.9715814590454102,-0.0,-0.0,-1.0,0.1041840353301473,1.0,0.0
25.588830947875977,9.301653861999512,-0.9671597480773926,-0.0,-0.0,-1.0,0.0420124642753954,2.0,0.0
25.487621307373047,9.05930519104004,-0.9575214385986328,-0.2154528934174431,-0.2415316443512017,-0.9461725611615764,0.0672582916394322,3.0,0.0
25.382102966308594,8.857427597045898,-0.9528019428253174,-0.0,-0.0,-1.0,0.0668914757331321,2.0,0.0
25.701801300048828,8.321213722229004,-0.8638429641723633,-0.1920994833744186,-0.5445091296990754,-0.8164604069773604,0.2341800581946143,6.0,0.0
25.722749710083008,9.859777450561523,-1.005612850189209,-0.0,-0.0,-1.0,0.0373906342471699,1.0,0.0
25.697696685791016,9.444584846496582,-0.9671483039855956,0.211273562650606,-0.8271592547578328,-0.5207408654920287,0.0555466061617567,3.0,0.0
26.033145904541016,10.406644821166992,-1.0255839824676514,-0.0,-0.0,-1.0,0.171896941735852,1.0,0.0
26.507171630859375,9.548943519592283,-0.8756601810455322,0.9401891836953749,0.0862091684612426,0.3295637694520517,0.150417506585502,3.0,0.0
27.083202362060547,10.444561004638672,-0.9047837257385254,-0.0,-0.0,-1.0,0.1729369352322223,1.0,0.0
27.051437377929688,10.141815185546877,-0.873701810836792,0.0525551502071614,-0.9377019880193836,-0.3434427723088646,0.1749875127779023,5.0,0.0
27.200916290283203,10.155706405639648,-0.857541561126709,-0.0,-0.0,-1.0,0.1584056041280276,2.0,0.0
27.627338409423828,9.154916763305664,-0.695676326751709,0.801078479698435,-0.4640570816447151,-0.3780532956336105,0.3146203207533205,5.0,0.0
25.288105010986328,9.553056716918944,-0.505639910697937,-0.0,-0.0,-1.0,0.1480179544810095,1.0,0.0
25.510173797607425,8.455984115600586,-0.399672269821167,-0.9271601967796248,0.1713486513272207,-0.3331870483615915,0.1128456772424066,8.0,0.0
25.597349166870117,10.103374481201172,-0.5229365825653076,-0.0,-0.0,-1.0,0.1940262032314605,1.0,0.0
25.974376678466797,8.322009086608887,-0.343718409538269,0.6118640083488044,-0.7017287704378001,0.3649646120203816,0.1546440215506282,5.0,0.0
25.951465606689453,10.535024642944336,-0.5294772386550903,-0.0,-0.0,-1.0,0.1227796544718404,2.0,0.0
25.73037338256836,10.47223663330078,-0.8430658578872681,-0.0,-0.0,-1.0,0.0759523691134453,1.0,0.0
25.542449951171875,10.08400821685791,-0.8225840330123901,0.4524203409912551,-0.7052464132706494,0.5458418558760783,0.1834838742566834,3.0,0.0
25.978422164916992,10.607793807983398,-0.8330274820327759,-0.5194764815163496,-0.4480425072647784,-0.7276002314700604,0.0981098419465882,3.0,0.0
27.078617095947266,8.172142028808594,-0.9568969011306764,-0.0,-0.0,-1.0,0.122071018881039,1.0,0.0
27.49061393737793,8.950770378112793,-0.9891184568405152,0.8664730810591573,0.0565154627620221,-0.496014518203495,0.0606351100013837,3.0,0.0
27.70504570007324,9.549262046813965,-1.0345090627670288,0.7736547251035316,-0.1165805543470258,-0.6227899651352123,0.0341328620858292,3.0,0.0
27.58796501159668,9.079683303833008,-0.9917961359024048,-0.8451995263851666,-0.2449988799778953,-0.4749876939541352,0.1094899853498231,3.0,0.0
25.596755981445312,8.188135147094727,-0.6437673568725586,0.8648997740101873,-0.2707341015562527,-0.4226717723856844,0.200916427227845,5.0,0.0
25.910259246826172,8.987249374389648,-0.6804265975952148,-0.0,-0.0,-1.0,0.2143560254227228,2.0,0.0
25.68648910522461,8.369783401489258,-0.6494182348251343,0.7954794861671514,0.598364678942878,0.0957710712106309,0.2206024595046605,7.0,0.0
26.110925674438477,9.39559555053711,-0.6981016397476196,-0.0,-0.0,-1.0,0.1218170630949668,2.0,0.0
26.513343811035156,9.44911003112793,-0.6625884771347046,-0.1703842309024991,-0.8168733918466182,-0.5510781029516282,0.1780566835314271,6.0,0.0
26.99547576904297,10.13698959350586,-0.6857219934463501,0.6734590007825765,-0.4422117567591598,-0.5923695944669268,0.217154222796992,12.0,0.0
25.452800750732425,8.446880340576172,-0.1570035219192505,-0.4152370808523413,-0.8885444533185419,-0.1951074605495105,0.1524244569521978,10.0,0.0
25.701683044433594,10.140802383422852,-0.2670948505401611,-0.0,-0.0,-1.0,0.1345224693263023,2.0,0.0
25.80797958374023,8.735236167907715,-0.9936718940734864,-0.0,-0.0,-1.0,0.0303256929055167,1.0,0.0
25.808528900146484,8.512031555175781,-0.9726626873016356,-0.0,-0.0,-1.0,0.0791607193033112,2.0,0.0
25.74130630493164,8.141127586364746,-0.9469656944274902,-0.0,-0.0,-1.0,0.1922031761822053,2.0,0.0
26.113788604736328,9.640653610229492,-1.0493109226226809,-0.0,-0.0,-1.0,0.0603479257299644,1.0,0.0
26.057422637939453,9.355937004089355,-1.0261955261230469,-0.0,-0.0,-1.0,0.1915431399990379,2.0,0.0
25.947187423706055,8.83586311340332,-0.9870448112487792,-0.0,-0.0,-1.0,0.0391651850479218,2.0,0.0
26.579849243164062,9.705767631530762,-1.0048556327819824,-0.0,-0.0,-1.0,0.1114135502754109,2.0,0.0
26.4957275390625,9.542808532714844,-0.99657940864563,0.3215850381490374,-0.917203945914382,-0.2352020085751176,0.2292915411011463,5.0,0.0
26.586715698242188,8.599455833435059,-0.8896703720092773,-0.0,-0.0,-1.0,0.1312171315966528,1.0,0.0
26.851486206054688,9.51813507080078,-0.9548535346984864,-0.9003032403128033,-0.0777484757151649,-0.4282630616878312,0.1348385712854059,5.0,0.0
25.300785064697266,9.5980224609375,-0.5602811574935913,-0.0,-0.0,-1.0,0.2563291619906708,2.0,0.0
26.796703338623047,8.559418678283691,-0.8614749908447266,0.8100262389089143,-0.4714571008970306,0.3486914026655166,0.2389215133788058,3.0,0.0
27.627771377563477,9.149715423583984,-0.8303320407867432,-0.0,-0.0,-1.0,0.1473414889238041,1.0,0.0
25.988441467285156,8.175920486450195,-0.3905178308486938,-0.1110500289446705,0.9758937058787226,-0.1878812547799324,0.0753304336958783,4.0,0.0
25.302885055541992,9.888412475585938,-0.6887127161026001,-0.0,-0.0,-1.0,0.094365108146006,1.0,0.0
25.451858520507812,9.710247993469238,-0.6617437601089478,-0.0,-0.0,-1.0,0.1159775845520233,1.0,0.0
25.617067337036133,10.169462203979492,-0.6854562759399414,-0.0,-0.0,-1.0,0.2090162654580429,1.0,0.0
26.68783187866211,8.467021942138672,-0.9938077926635742,-0.0971440656274607,-0.0915265416185581,-0.9910529363725804,0.1622680700796527,3.0,0.0
26.91998291015625,8.626827239990234,-0.9831297397613524,-0.0,-0.0,-1.0,0.161258759683942,1.0,0.0
27.51308822631836,9.259929656982422,-0.9834537506103516,-0.0,-0.0,-1.0,0.1919813304622878,2.0,0.0
27.477783203125,9.098149299621582,-0.969881534576416,0.3229097618626159,0.7188975458659908,-0.6155612108000994,0.0786216985031174,3.0,0.0
27.667858123779297,9.644352912902832,-1.009087324142456,-0.0,-0.0,-1.0,0.0469916443015104,1.0,0.0
27.638063430786133,9.40121841430664,-0.9853744506835938,-0.0,-0.0,-1.0,0.1427748949306543,2.0,0.0
25.778324127197266,8.369120597839355,-0.5295649766921997,-0.0,-0.0,-1.0,0.1036038774066542,1.0,0.0
25.55852699279785,8.68819808959961,-0.003566026687622,-0.0,-0.0,-1.0,0.1909466152358428,1.0,0.0
25.332088470458984,9.943264961242676,-0.7192587852478027,-0.0,-0.0,-1.0,0.1454210431609252,1.0,0.0
25.818078994750977,10.40205192565918,-0.7190399169921875,-0.0,-0.0,-1.0,0.0589865812971585,1.0,0.0
25.584552764892575,10.012909889221191,-0.7044808864593506,-0.0,-0.0,-1.0,0.2577026700824091,1.0,0.0
27.031513214111328,8.409341812133789,-0.9882602691650392,-0.2907928144825064,0.2036722931573733,-0.9348567462693732,0.0956626506695745,3.0,0.0
27.40989875793457,8.409439086914062,-0.9465534687042236,-0.5621691909462849,-0.1843050318256157,-0.8062241971031127,0.0527641996213442,3.0,0.0
25.79692840576172,8.62405014038086,-0.5739390850067139,-0.0,-0.0,-1.0,0.1343064895801232,1.0,0.0
25.76694107055664,8.435586929321289,-0.5618584156036377,-0.0,-0.0,-1.0,0.1895820345847429,1.0,0.0
25.62969207763672,8.75575065612793,-0.0203877687454223,-0.0,-0.0,-1.0,0.1909466152358428,1.0,0.0
25.749752044677734,10.351738929748535,-1.046774983406067,-0.556642564424328,-0.2381567218102847,-0.795883428227832,0.0868463482500736,5.0,0.0
25.58915328979492,9.97380828857422,-1.0241612195968628,-0.0,-0.0,-1.0,0.0622446385396394,1.0,0.0
25.501670837402344,9.771964073181152,-1.0127521753311155,-0.0,-0.0,-1.0,0.0751377270188999,1.0,0.0
26.106821060180664,10.539058685302734,-1.0339354276657104,-0.8819914170994143,-0.2407653360762676,0.4051212079206038,0.1413851282292858,3.0,0.0
25.918195724487305,10.445616722106934,-1.0410505533218384,-0.0,-0.0,-1.0,0.1552692935035614,2.0,0.0
25.524259567260746,9.526209831237791,-0.9872580766677856,-0.0,-0.0,-1.0,0.0884697634186813,2.0,0.0
25.430164337158203,9.163691520690918,-0.9624406099319458,-0.0,-0.0,-1.0,0.0951299358607147,2.0,0.0
25.5976619720459,8.239466667175293,-0.8629332780838013,0.8659530894136761,0.3941971074663362,0.3077887057708312,0.2161313680089393,4.0,0.0
26.99148178100586,10.072851181030272,-0.9086381196975708,-0.0,-0.0,-1.0,0.0710832353043773,2.0,0.0
26.42843246459961,9.51864528656006,-0.9024659395217896,-0.0,-0.0,-1.0,0.2006521546011952,1.0,0.0
25.725339889526367,8.252891540527344,-0.8513365983963013,0.4276103136625038,-0.3183675028785708,-0.8460446517532738,0.195440674813232,6.0,0.0
27.54537582397461,9.165657043457031,-0.7668181657791138,-0.0784280505865658,0.8593019140560249,-0.5054198862142677,0.1890915127728431,3.0,0.0
25.27328872680664,9.518750190734863,-0.3989393711090088,-0.0,-0.0,-1.0,0.1122021863798638,1.0,0.0
25.444576263427734,8.155173301696777,-0.2936053276062011,-0.0854779716426435,-0.0326131593216073,-0.9958061549332397,0.1093880283195328,5.0,0.0
26.050247192382812,8.261496543884277,-0.2574472427368164,-0.0241546291077248,-0.3803699341799702,-0.9245189381860132,0.1527530497698004,3.0,0.0
25.78165054321289,10.330718994140623,-1.0275590419769287,0.6616830243931717,0.470288819983326,-0.5839554786356541,0.0722636190471959,3.0,0.0
26.407604217529297,10.636606216430664,-1.0132529735565186,-0.6464159974590737,0.4742574368837397,-0.5976840651962009,0.1133860703189282,5.0,0.0
26.027935028076172,10.55511474609375,-1.0327439308166504,-0.0,-0.0,-1.0,0.2085932789787663,1.0,0.0
25.792713165283203,10.167070388793944,-1.0094537734985352,-0.0,-0.0,-1.0,0.1502865634215644,2.0,0.0
25.60687255859375,9.908174514770508,-0.9971466064453124,-0.0,-0.0,-1.0,0.0586654987169588,1.0,0.0
25.49637985229492,9.398885726928713,-0.9542503356933594,-0.0,-0.0,-1.0,0.1207800895030501,1.0,0.0
25.344295501708984,9.09477424621582,-0.9369275569915771,-0.0,-0.0,-1.0,0.090829315979536,1.0,0.0
25.9110107421875,9.291027069091797,-0.908991813659668,-0.4598594070017657,0.6048560947314972,-0.6501372397103139,0.177986242232777,5.0,0.0
25.44902801513672,9.004825592041016,-0.9190680980682372,-0.0,-0.0,-1.0,0.2462540548651745,2.0,0.0
26.466705322265625,9.641311645507812,-0.900970458984375,-0.2412135354509574,-0.8521374265262635,-0.4644112796094072,0.124646036681517,3.0,0.0
25.692251205444336,8.288156509399414,-0.8286070823669434,0.4836972247484526,-0.1822526154463487,0.8560496357884922,0.2366004037101404,7.0,0.0
27.149898529052734,10.125442504882812,-0.9024109840393066,0.0914065278792836,-0.820141700692164,0.5648118602214534,0.1925117788170031,6.0,0.0
27.563739776611328,9.216846466064451,-0.7715599536895752,0.9480247776085012,-0.0559753698153277,-0.3132343835123935,0.1825652206791922,6.0,0.0
25.972925186157227,10.596113204956056,-0.4158878326416015,-0.0,-0.0,-1.0,0.1222973372518184,2.0,0.0
25.361988067626953,9.501373291015623,-0.362138032913208,0.9103479784361374,0.3626451263472218,0.1993867360027876,0.1097666031434207,5.0,0.0
26.01696014404297,8.30252456665039,-0.2335788011550903,0.5376736860419565,-0.7393102541844917,0.4053731064041103,0.1666202035162133,3.0,0.0
26.763917922973633,8.350397109985352,-0.9975570440292358,-0.0,-0.0,-1.0,0.0702362926547523,1.0,0.0
27.632564544677734,8.998451232910156,-0.997270941734314,-0.0,-0.0,-1.0,0.0683964071029226,1.0,0.0
26.026277542114254,10.620370864868164,-0.6958291530609131,0.6712205559654563,-0.6223939581884518,0.4026024416964416,0.057825509165337,3.0,0.0
25.522262573242188,10.079944610595703,-0.678419828414917,0.5781032046139299,0.7121256946308204,0.3983386497211589,0.2676665517022501,3.0,0.0
25.342931747436523,9.479461669921877,-0.6370841264724731,0.816067926225957,-0.0986201473054391,-0.5694797681487197,0.2498925869829154,7.0,0.0
27.5046443939209,8.193572998046875,-0.9122332334518432,-0.0,-0.0,-1.0,0.1622868486921193,1.0,0.0
25.82196044921875,10.589561462402344,-0.8589955568313599,-0.0,-0.0,-1.0,0.1183435653269454,2.0,0.0
25.882883071899418,10.609728813171388,-0.8562284708023071,0.6958511638561292,0.574676841311788,-0.4307408569197685,0.102095789074016,5.0,0.0
25.47334098815918,10.000835418701172,-0.833189845085144,0.2909181023275815,0.5276287487135554,-0.7981068608081795,0.1454187156593915,3.0,0.0
25.220073699951172,9.652525901794434,-0.8231173753738403,-0.0,-0.0,-1.0,0.2253941086405063,2.0,0.0
25.606674194335938,8.368334770202637,-0.6821976900100708,0.6562488557457987,-0.2976267985606763,-0.6933655083077412,0.1779202861976861,9.0,0.0
27.652374267578125,9.190571784973145,-0.5935355424880981,-0.3440326281574467,0.2279882438172001,-0.9108583377475497,0.1689785553898576,4.0,0.0
25.462459564208984,8.432133674621582,-0.1123067140579223,-0.5442966720272947,0.6062511032232749,-0.5798281923644052,0.202512150524618,11.0,0.0
25.94811248779297,10.61773681640625,-0.875432014465332,-0.1120008893480874,0.3309825034520482,-0.9369665859537638,0.1073091644688452,3.0,0.0
25.858789443969727,10.530113220214844,-0.8730497360229492,-0.0,-0.0,-1.0,0.16421962809504,2.0,0.0
25.668052673339844,10.177173614501951,-0.8524825572967529,-0.0,-0.0,-1.0,0.1820094811041366,2.0,0.0
25.51504135131836,10.024154663085938,-0.8489696979522705,0.4230628760417229,0.7586620125998241,0.4954288582160812,0.247709520152169,3.0,0.0
25.348796844482425,9.52009105682373,-0.8141076564788818,0.959890448726876,-0.1667702537521452,0.2253841363236586,0.1369712740509066,4.0,0.0
26.12668228149414,9.316680908203123,-0.7379223108291626,-0.0,-0.0,-1.0,0.1149182052706274,2.0,0.0
25.624923706054688,8.369413375854492,-0.6885241270065308,0.2070522312628779,0.7740801790609795,-0.5982718862807993,0.1943070721901374,8.0,0.0
27.69178009033203,9.215601921081545,-0.6200917959213257,-0.6691018720066207,0.1690773841794943,-0.7236819211754951,0.0985149081466044,3.0,0.0
27.60739517211914,9.14714241027832,-0.6188337802886963,0.7195917272940496,0.3841495062463572,-0.5784608049476181,0.2224248587565335,3.0,0.0
25.454524993896484,8.433707237243652,-0.1241734027862548,-0.601522553679471,-0.6838593007713477,-0.4129250224477214,0.198821884711261,11.0,0.0
25.947853088378903,10.604278564453123,-0.8090378046035767,-0.5529487284306304,-0.3853738506401924,-0.738738586354943,0.0940343895876769,5.0,0.0
25.70721435546875,10.266545295715332,-0.7795745134353638,0.5772313095187728,-0.1834892421988137,-0.7956982551875729,0.1552037520796227,4.0,0.0
25.523752212524418,10.11583423614502,-0.7703124284744263,0.9780552409586828,0.1175566743126501,-0.1720127145236723,0.1942153307075552,4.0,0.0
25.29513931274414,9.57192325592041,-0.719488263130188,-0.0,-0.0,-1.0,0.2126119778788495,2.0,0.0
27.524513244628903,9.303284645080566,-0.5924710035324097,-0.1749311093553515,0.3822526363119191,-0.9073489014774272,0.1977631070687279,4.0,0.0
25.8808536529541,8.36001205444336,-0.5556122064590454,-0.0,-0.0,-1.0,0.1437090332218793,1.0,0.0
25.56854248046875,8.469093322753906,-0.5838029384613037,-0.3997242231693966,0.8836367144965567,-0.2437349014920784,0.1472485188811426,7.0,0.0
25.463457107543945,8.53567123413086,-0.0278140306472778,-0.7708026059886104,-0.031461975899517,-0.6362966970475841,0.2065937492391166,13.0,0.0
25.58884048461914,10.202465057373049,-0.7361342906951904,-0.0,-0.0,-1.0,0.143261529707263,2.0,0.0
25.412260055541992,9.846195220947266,-0.7294516563415527,0.7761700635187183,0.592867690171637,-0.2146344204639524,0.1804306788455161,3.0,0.0
25.351131439208984,9.637981414794922,-0.7216492891311646,0.8990075867657029,-0.0621714120707602,-0.4334974907180378,0.1859570421304204,3.0,0.0
27.272136688232425,8.311596870422363,-0.9594972133636476,-0.4636708241750815,-0.885864196922871,-0.0159371082382393,0.0544753442085723,3.0,0.0
26.845258712768555,8.236109733581543,-1.0043292045593262,-0.0,-0.0,-1.0,0.0430052261438305,1.0,0.0
26.914600372314453,8.1471529006958,-0.9871573448181152,-0.0,-0.0,-1.0,0.0722401749432353,2.0,0.0
25.553239822387695,8.506647109985352,-0.6257400512695312,-0.0,-0.0,-1.0,0.108512432520357,1.0,0.0
25.57048988342285,8.314898490905762,-0.6115665435791016,0.8472574490707201,-0.4861273394674326,0.2140911600615304,0.1024193844103785,3.0,0.0
25.40049171447754,8.572280883789062,-0.0771812200546264,0.7824794340732565,-0.550228594978784,-0.291503736717164,0.142508110206694,4.0,0.0
25.55186462402344,10.465036392211914,-0.8658039569854736,-0.0,-0.0,-1.0,0.1091184478119198,1.0,0.0
25.610790252685547,10.08297634124756,-0.8301680088043213,-0.0,-0.0,-1.0,0.1835430253608655,1.0,0.0
26.303089141845703,9.544124603271484,-0.7194006443023682,-0.0,-0.0,-1.0,0.0506660810283118,1.0,0.0
25.307592391967773,9.710224151611328,-0.8326690196990967,-0.0,-0.0,-1.0,0.1301177024794855,2.0,0.0
27.708892822265625,9.270339012145996,-0.5647048950195312,-0.0,-0.0,-1.0,0.1768204623679281,2.0,0.0
26.02237319946289,9.264062881469728,-0.7257339954376221,-0.0,-0.0,-1.0,0.2096921598546376,2.0,0.0
25.72916030883789,8.396639823913574,-0.6920192241668701,-0.0,-0.0,-1.0,0.2059968743077838,2.0,0.0
25.533885955810547,8.515779495239258,-0.1549102067947387,-0.0,-0.0,-1.0,0.1851126662334174,2.0,0.0
25.425743103027344,9.578653335571287,-0.6590676307678223,0.7744082183023079,-0.2363607929705424,0.5868777444853239,0.212123404549381,3.0,0.0
26.942787170410156,8.441898345947266,-0.9722496271133424,-0.6120532032714101,0.7097925645296193,-0.3486909687727407,0.1141233103542674,4.0,0.0
26.71961212158203,8.448774337768555,-0.9952377080917358,-0.0,-0.0,-1.0,0.145002812495548,2.0,0.0
27.53777503967285,8.31533432006836,-0.8998690843582153,-0.5283035329659066,0.0837587318241819,-0.8449141091844459,0.1028873249326806,4.0,0.0
27.14268493652344,8.230386734008789,-0.9281615018844604,-0.0,-0.0,-1.0,0.0991362072451244,2.0,0.0
25.60729217529297,8.480142593383789,-0.5541172027587891,-0.1744217263178803,0.8402631970361676,-0.5133564269538751,0.2528910522766643,4.0,0.0
25.45980453491211,8.568702697753906,-0.0123323202133178,-0.5009146933097146,0.7388944748962448,-0.4506877244769789,0.1654977056734863,7.0,0.0
25.677982330322266,10.24557876586914,-0.953940749168396,-0.0,-0.0,-1.0,0.1811521778325299,1.0,0.0
25.480390548706055,10.065877914428713,-0.9489041566848756,-0.0350426538789011,0.8646564559891866,0.5011399260938437,0.1408880493620312,5.0,0.0
25.45789337158203,9.661721229553224,-0.9076286554336548,0.9387522062040112,-0.3058072078826577,-0.1588277272837274,0.1765830381531118,3.0,0.0
27.03771209716797,10.27745246887207,-0.8674618005752563,-0.8523354924597917,-0.4427491114904253,-0.2783836068588872,0.2016925403803054,3.0,0.0
26.533462524414062,9.663957595825195,-0.8311835527420044,-0.0,-0.0,-1.0,0.1455689096947575,1.0,0.0
26.01272201538086,9.448187828063965,-0.8440061807632446,-0.0,-0.0,-1.0,0.2214453886279576,1.0,0.0
25.68991470336914,8.404374122619629,-0.7584651708602905,0.7709815202139719,0.6359980948763652,0.0330744433390307,0.2049435775838187,6.0,0.0
25.50847053527832,8.506827354431152,-0.2291721105575561,-0.3383987240257468,-0.6685588986353687,-0.6622048796507085,0.1847985016613018,5.0,0.0
26.16796875,9.904102325439451,-1.070637822151184,-0.0,-0.0,-1.0,0.0275719160213673,1.0,0.0
26.072912216186523,9.77191162109375,-1.0572320222854614,-0.0,-0.0,-1.0,0.0449230075987084,2.0,0.0
26.674060821533203,9.828938484191896,-1.0392268896102903,-0.0,-0.0,-1.0,0.0434586899903482,2.0,0.0
26.620773315429688,9.681549072265623,-1.0213381052017212,0.2432209790066936,-0.4994522235031984,-0.8314992674733614,0.0830648819032886,4.0,0.0
26.06557846069336,9.359207153320312,-1.0027564764022827,-0.0,-0.0,-1.0,0.2344110418225748,2.0,0.0
25.787033081054688,9.234644889831545,-1.0001956224441528,-0.0,-0.0,-1.0,0.1081972211979079,1.0,0.0
25.575172424316406,9.01112461090088,-0.9823023080825806,-0.0,-0.0,-1.0,0.1518409188216897,1.0,0.0
27.699935913085938,9.975872993469238,-1.024492859840393,-0.0,-0.0,-1.0,0.0831229049368755,1.0,0.0
27.32886505126953,9.647527694702148,-0.9901851415634156,-0.0,-0.0,-1.0,0.0330717840510237,1.0,0.0
27.10590171813965,9.563392639160156,-0.986524224281311,-0.0,-0.0,-1.0,0.06933244617117,1.0,0.0
25.736419677734375,8.36359691619873,-0.8902789354324341,0.1471443394786247,-0.9617405762110036,0.2310922054694316,0.1666532996538395,6.0,0.0
25.662153244018555,8.336759567260742,-0.891051173210144,-0.1899300540051536,-0.841471704110747,-0.5058180955309476,0.2225569724062741,6.0,0.0
27.546432495117188,9.54598331451416,-0.9688745737075806,0.2224333406133865,0.9178326391843106,-0.3287957655316323,0.1194700384310092,3.0,0.0
27.25503921508789,9.087522506713867,-0.9155064821243286,-0.0,-0.0,-1.0,0.1354418029394243,2.0,0.0
26.944671630859375,8.733434677124023,-0.8795450925827026,-0.0,-0.0,-1.0,0.0866204449094489,1.0,0.0
26.884197235107425,8.676384925842285,-0.8744200468063354,-0.0,-0.0,-1.0,0.1436509423317529,1.0,0.0
25.527324676513672,10.186654090881348,-0.528674840927124,-0.0,-0.0,-1.0,0.1984031490022323,1.0,0.0
25.570955276489254,8.25333023071289,-0.3371423482894897,-0.0,-0.0,-1.0,0.1114151325539439,2.0,0.0
26.026763916015625,8.410323143005371,-0.3350266218185425,0.7859695923228323,-0.559428883989695,-0.2632320719477868,0.1202260389414667,3.0,0.0
25.71148681640625,8.550952911376953,-0.9690431356430054,-0.0,-0.0,-1.0,0.0633011396487192,1.0,0.0
25.92452621459961,8.491901397705078,-0.9713619947433472,-0.0,-0.0,-1.0,0.0485214038416275,1.0,0.0
25.706375122070312,8.317691802978516,-0.9242104291915894,0.6758016132345116,-0.4506513829430086,0.5832713867499292,0.2565993034166131,3.0,0.0
26.17912483215332,8.33357048034668,-0.9575632810592652,-0.0,-0.0,-1.0,0.0443906488519324,2.0,0.0
25.365196228027344,9.87530517578125,-0.5775831937789917,-0.0,-0.0,-1.0,0.2092952207759431,1.0,0.0
27.024681091308594,10.171701431274414,-0.763452410697937,-0.7810494135564336,-0.6196807080183521,-0.0771857091243251,0.1836937557809549,7.0,0.0
25.49832534790039,8.430654525756836,-0.3589180707931518,-0.7329100767600841,0.6796769515709686,-0.0296995098734404,0.0867822724295605,5.0,0.0
25.983543395996097,8.30461311340332,-0.3767091035842895,0.4973727244407534,0.8296844673795791,-0.2534641149580089,0.1576770038547273,7.0,0.0
25.479171752929688,8.225942611694336,-0.3251503705978393,-0.2675536839364606,0.9635421604066622,0.0012374695514432,0.1215625930649462,7.0,0.0
27.478008270263672,9.232452392578123,-0.6505037546157837,-0.0,-0.0,-1.0,0.1544039670508142,2.0,0.0
26.096086502075195,8.194372177124023,-0.368069052696228,-0.0,-0.0,-1.0,0.0889823073217599,2.0,0.0
25.95034408569336,10.590167999267578,-0.942955493927002,-0.0170837028431821,0.9674018938308476,-0.2526691965983494,0.1295536095622879,3.0,0.0
25.79483413696289,10.483278274536133,-0.9501841068267822,-0.0,-0.0,-1.0,0.2572113257912799,2.0,0.0
25.50885772705078,9.966508865356444,-0.9361891746520996,-0.0,-0.0,-1.0,0.1765433947822883,2.0,0.0
27.086740493774418,10.115739822387695,-0.7821753025054932,-0.0,-0.0,-1.0,0.1183688520850249,1.0,0.0
25.53558349609375,9.553165435791016,-0.8970799446105957,-0.0,-0.0,-1.0,0.1125645633560398,1.0,0.0
25.4288330078125,9.429655075073242,-0.8986055850982666,0.2476935501524222,0.9151554062090992,-0.318022778585353,0.1552704269017033,3.0,0.0
26.502910614013672,9.507238388061523,-0.7865872383117676,-0.0654049426093714,-0.7783720725168914,-0.6243869875389974,0.1386212726203379,3.0,0.0
26.118724822998047,9.23894500732422,-0.8041870594024658,-0.1049501434925111,-0.9661494753144924,0.2356706573386521,0.1794670736394541,7.0,0.0
25.95240020751953,9.292754173278809,-0.8273913860321045,-0.8224520087938683,0.4508926666548679,-0.3467974861324592,0.208136773392323,4.0,0.0
27.590038299560547,9.25646686553955,-0.652808427810669,-0.3841060860304193,-0.8969798036586634,-0.2188372603165598,0.2224691310077408,6.0,0.0
25.80371856689453,8.289470672607422,-0.7570443153381348,0.832572432275542,-0.0465671074961435,0.5519552966629008,0.190118487143256,7.0,0.0
25.62543296813965,8.289482116699219,-0.7779123783111572,-0.0181294701996674,0.4510454022286362,-0.8923168537233216,0.2256200629604784,7.0,0.0
25.41988945007324,9.88051700592041,-0.3195066452026367,0.224668242580433,0.625951226610889,-0.7467993322708208,0.1541269076903995,4.0,0.0
27.428979873657227,10.59931468963623,-1.0914422273635864,-0.0,-0.0,-1.0,0.1424646160655023,1.0,0.0
25.517074584960938,10.084853172302246,-0.8004599809646606,0.4810842869725535,-0.6656943823358937,0.5704462272243922,0.1960822117825277,4.0,0.0
27.07125663757324,10.14582347869873,-0.9730449914932252,-0.9257288251087084,0.0305731776839916,0.3769501600598592,0.1778324667869162,4.0,0.0
26.48503875732422,9.522422790527344,-0.8036442995071411,0.0798088632480324,-0.8618013466481119,-0.500928122850532,0.2042898849390193,6.0,0.0
27.567543029785156,9.214957237243652,-0.8690165281295776,-0.0,-0.0,-1.0,0.1911147480386319,2.0,0.0
25.849712371826172,8.479650497436523,-0.5652608871459961,-0.0,-0.0,-1.0,0.0859065038708786,1.0,0.0
25.52796936035156,8.326011657714844,-0.5097029209136963,0.7836887207033693,0.5095386241231984,0.3552497425318623,0.1012029641636662,4.0,0.0
25.897733688354492,8.20540714263916,-0.5243101119995117,-0.0,-0.0,-1.0,0.1427907042917033,2.0,0.0
25.57426071166992,9.059743881225586,-1.106920838356018,-0.0,-0.0,-1.0,0.1366164502593456,1.0,0.0
26.11054801940918,8.723104476928711,-1.0657564401626587,-0.0,-0.0,-1.0,0.0298895626597276,1.0,0.0
25.956684112548828,8.746002197265625,-1.0661245584487915,-0.0,-0.0,-1.0,0.0307825789618533,1.0,0.0
25.33841133117676,8.894153594970703,-1.0771867036819458,-0.0,-0.0,-1.0,0.0773762141709201,1.0,0.0
25.329444885253903,8.253427505493164,-0.9791256189346312,-0.0,-0.0,-1.0,0.1357919508780749,2.0,0.0
27.39228057861328,10.602041244506836,-0.7811582088470459,-0.0,-0.0,-1.0,0.1212899981839473,1.0,0.0
25.72500228881836,10.060676574707031,-0.656866192817688,-0.0,-0.0,-1.0,0.1534914134966381,2.0,0.0
25.344383239746097,10.15277099609375,-0.6557830572128296,0.9597437778093668,-0.1674321414655176,-0.2255179792399611,0.2917856083865598,3.0,0.0
26.376468658447266,8.67231559753418,-0.510421872138977,-0.0,-0.0,-1.0,0.0990279174887364,1.0,0.0
25.408260345458984,9.114179611206056,-1.1031043529510498,-0.0,-0.0,-1.0,0.1297274703979421,1.0,0.0
25.316890716552734,9.186567306518556,-1.1163196563720703,-0.0,-0.0,-1.0,0.138721951443097,1.0,0.0
27.68669891357422,9.211126327514648,-1.042078733444214,-0.0,-0.0,-1.0,0.1751969507457127,2.0,0.0
27.35795021057129,9.26911163330078,-1.0584399700164795,-0.0,-0.0,-1.0,0.0839897717824014,2.0,0.0
26.99480438232422,9.319768905639648,-1.0753960609436035,-0.0,-0.0,-1.0,0.0472552815804468,2.0,0.0
27.216609954833984,8.851631164550781,-1.0055744647979736,-0.0,-0.0,-1.0,0.1628848035172901,1.0,0.0
26.916587829589844,9.079206466674805,-1.0451886653900146,-0.0,-0.0,-1.0,0.0460395559972752,2.0,0.0
26.40720558166504,9.07827377319336,-1.0613727569580078,-0.0,-0.0,-1.0,0.1915726893316187,1.0,0.0
26.787174224853516,8.75339126586914,-1.0052940845489502,0.0905682637400802,-0.3356370425737731,-0.9376274128114204,0.1149783798941274,3.0,0.0
25.898223876953125,8.861013412475586,-1.0506412982940674,-0.0,-0.0,-1.0,0.0405971915561972,1.0,0.0
26.632099151611328,10.066076278686523,-0.5842519998550415,-0.0,-0.0,-1.0,0.0621047588808591,1.0,0.0
27.114322662353516,8.839273452758789,-0.4505352973937988,-0.0,-0.0,-1.0,0.1133854146517502,1.0,0.0
26.67255401611328,8.968986511230469,-0.4726767539978027,-0.0,-0.0,-1.0,0.2115996016894197,1.0,0.0
27.646440505981445,9.216270446777344,-0.6942329406738281,-0.8839303689466291,-0.4387055900346914,-0.1618780656117097,0.2286697584760512,8.0,0.0
27.50027084350586,9.217437744140623,-0.7008541822433472,-0.5739185908294918,-0.3536932679670468,-0.7385922578087866,0.2019300538401812,5.0,0.0
26.123117446899418,9.514101028442385,-0.7996847629547119,-0.0,-0.0,-1.0,0.1998720788101963,1.0,0.0
25.51613998413086,10.205802917480469,-0.9068926572799684,0.2956966651032003,-0.5275850976811068,-0.7963777037007396,0.282750440765763,4.0,0.0
25.96591567993164,9.430118560791016,-0.7985168695449829,-0.0,-0.0,-1.0,0.1509514670631634,1.0,0.0
25.353702545166016,9.875732421875,-0.8794461488723755,-0.0,-0.0,-1.0,0.1890164549420022,1.0,0.0
25.87141227722168,8.999134063720703,-0.7562767267227173,-0.0,-0.0,-1.0,0.2380764439172823,1.0,0.0
25.899423599243164,9.089788436889648,-0.7647124528884888,-0.0025994928852178,0.9551263651797504,0.2961872198040599,0.1093351538765428,4.0,0.0
25.553760528564453,8.416328430175781,-0.709999680519104,0.3868989138327217,0.8446069963671501,0.370065199880671,0.1259381309210546,7.0,0.0
25.49009895324707,8.42469596862793,-0.714425802230835,-0.0,-0.0,-1.0,0.1109075703386063,2.0,0.0
25.357372283935547,8.45113754272461,-0.1643489599227905,-0.0,-0.0,-1.0,0.1860996121082523,2.0,0.0
27.377531051635746,9.039749145507812,-0.9868284463882446,0.6711204721882897,0.4645253326839971,-0.5777659795320147,0.1129102404175384,3.0,0.0
27.192249298095703,8.811849594116211,-0.9726344347000122,-0.9192185903866,-0.2377056191521055,-0.3139000186543262,0.1030057086518206,4.0,0.0
26.881471633911133,8.984464645385742,-1.022562861442566,-0.0,-0.0,-1.0,0.0478594668671807,1.0,0.0
26.82012367248535,8.61219596862793,-0.9790037870407104,0.9977192099733808,-0.0472309576025395,0.0482246274639757,0.2330364306348104,4.0,0.0
26.50406837463379,8.782119750976562,-1.0297051668167114,0.0155018367749776,-0.0369128345629145,-0.999198246446186,0.0476168765760916,3.0,0.0
26.30856132507324,8.451601028442383,-1.004338622093201,-0.0,-0.0,-1.0,0.0267575414643741,2.0,0.0
25.937389373779297,8.29262924194336,-0.5018373727798462,-0.0026660801888195,-0.9036103403557254,-0.4283471078677159,0.1205717303482367,4.0,0.0
25.57781982421875,8.46939468383789,-0.5487121343612671,-0.2874960693150905,0.8883980159885658,-0.3579035838266401,0.1666517212761502,8.0,0.0
25.56350326538086,8.358108520507812,-0.5392345190048218,-0.5524705113321218,0.5305143732546889,-0.6429081068695651,0.1054961135211571,9.0,0.0
25.47462272644043,8.546464920043945,-0.0385705232620239,0.826325149240785,0.178779061588474,-0.5340644107874437,0.1712740054530117,7.0,0.0
25.407676696777344,8.576662063598633,-0.0452473163604736,0.1529126386377133,0.9738529045106268,-0.1680126344090473,0.1787039360929492,3.0,0.0
27.139341354370117,10.18967628479004,-0.8020554780960083,0.334633375319347,-0.9400091497224008,-0.0663573851244186,0.1844065514827863,3.0,0.0
27.050758361816406,10.234501838684082,-0.8131567239761353,-0.8836772851744236,0.2536150121586292,0.3934385355739049,0.1660438523261739,5.0,0.0
25.99965476989746,10.633234024047852,-0.9315892457962036,-0.0,-0.0,-1.0,0.0934033608478679,1.0,0.0
25.610492706298828,10.203431129455566,-0.90404212474823,-0.0,-0.0,-1.0,0.2268915508905771,1.0,0.0
26.17654800415039,9.311575889587402,-0.7512389421463013,-0.0,-0.0,-1.0,0.1137910911950206,1.0,0.0
26.05436897277832,9.36889934539795,-0.7669857740402222,-0.510961788330261,-0.8043162439568785,-0.3033041881897456,0.156687364593862,3.0,0.0
25.466569900512695,9.757098197937012,-0.8581253290176392,-0.0,-0.0,-1.0,0.2433280521290738,1.0,0.0
25.48130989074707,10.069141387939451,-0.8963762521743774,0.7994174665763298,0.59667609409122,0.0700667743850698,0.2079355329828321,7.0,0.0
25.34844207763672,9.60457992553711,-0.8477045297622681,0.8857931770486855,0.2016574986456236,0.4179769141160621,0.2369995977132821,7.0,0.0
25.698339462280273,8.328791618347168,-0.6615309715270996,0.6127254548781645,-0.0270459546315056,0.7898329147879423,0.173325575671959,9.0,0.0
