x,y,z,nx,ny,nz,curvature,density,label
29.403289794921875,-26.42268180847168,1.046130895614624,0.9963330480474258,-0.0854408741762559,0.0045071486022554,0.17180933830282,4.0,2.0
29.694499969482425,-25.969709396362305,1.0650734901428225,-0.2742900775219269,0.910936078012013,0.3081564783500545,0.1189025430089047,7.0,2.0
29.94714736938477,-25.678804397583008,1.0729939937591553,0.6432057676188226,-0.267767271547235,-0.7173472163395006,0.1573313546829499,6.0,2.0
30.159366607666016,-25.349550247192383,1.085709571838379,-0.0,-0.0,-1.0,0.0601297744056207,1.0,2.0
29.722492218017575,-25.796615600585938,1.0768284797668457,-0.0,-0.0,-1.0,0.1432096165648188,2.0,2.0
28.895252227783203,-25.073511123657227,1.1794145107269287,-0.0,-0.0,-1.0,0.129469077098077,1.0,2.0
28.044910430908203,-24.80242156982422,1.24766206741333,-0.0,-0.0,-1.0,0.1958218752924456,1.0,2.0
29.71908950805664,-26.62677001953125,1.2303903102874756,-0.0,-0.0,-1.0,0.0790006892341922,1.0,2.0
29.46011734008789,-26.77377700805664,1.1810626983642578,-0.0,-0.0,-1.0,0.238021880925931,2.0,2.0
28.88812255859375,-26.856260299682617,1.113452434539795,-0.0,-0.0,-1.0,0.1343104316323151,2.0,2.0
28.115718841552734,-26.81625747680664,1.0480937957763672,-0.0,-0.0,-1.0,0.0683489112484453,2.0,2.0
28.076885223388672,-24.86445045471191,1.3764455318450928,-0.0,-0.0,-1.0,0.1852828876105467,2.0,2.0
29.91372299194336,-25.363269805908203,0.8111826181411743,-0.0,-0.0,-1.0,0.1022868196088931,1.0,1.0
29.19514274597168,-26.72351837158203,1.023982048034668,-0.404357527635668,-0.5228095786611417,-0.7504432918645685,0.1278498668842058,3.0,2.0
28.127296447753903,-24.382232666015625,1.0928326845169067,0.3126781222392924,0.1816535803037794,-0.93232739348135,0.1218070511441901,4.0,2.0
29.432382583618164,-26.38343811035156,1.0200703144073486,0.3285356607456059,0.9394393882517896,0.0975600093252934,0.1119312929393465,3.0,2.0
29.6293888092041,-25.911880493164062,1.019301176071167,0.0907877639164422,0.2130786652160163,-0.9728078249853942,0.0740066453385261,3.0,2.0
29.861438751220703,-25.5760498046875,1.0154595375061035,-0.0,-0.0,-1.0,0.0426279968891086,1.0,2.0
29.167829513549805,-26.682052612304688,1.3891401290893557,0.8461818940785648,0.318854703892258,0.4269752685336618,0.2798380801880136,8.0,2.0
29.48691177368164,-24.77515983581543,0.7927082777023315,-0.2904166564211649,-0.9490724155520192,0.1221462881605775,0.0602452543918519,3.0,1.0
29.679397583007812,-24.691442489624023,0.7816641330718994,-0.0,-0.0,-1.0,0.0558957425248787,2.0,1.0
29.719871520996097,-26.405513763427734,1.0811543464660645,-0.0,-0.0,-1.0,0.1324717342964599,2.0,2.0
29.604589462280273,-26.747623443603516,1.0885162353515625,-0.0,-0.0,-1.0,0.1165919521129106,1.0,2.0
29.9986572265625,-25.91737365722656,1.0622844696044922,-0.0,-0.0,-1.0,0.1734407920477017,2.0,2.0
29.161884307861328,-26.620227813720703,1.3710435628890991,-0.3849176190962462,0.544915599276702,0.7449197380753111,0.1887678075137587,5.0,2.0
29.505298614501953,-25.803861618041992,0.8718763589859009,-0.0,-0.0,-1.0,0.0659146633367673,1.0,1.0
29.769485473632812,-25.359155654907227,0.8584213256835938,-0.0,-0.0,-1.0,0.1303447146165188,1.0,1.0
29.632862091064453,-25.56235694885254,0.8656644821166992,-0.0,-0.0,-1.0,0.0695565290630956,1.0,1.0
30.109394073486328,-24.528440475463867,0.843721866607666,-0.0,-0.0,-1.0,0.1004245548964403,2.0,1.0
29.23733901977539,-26.508256912231445,1.0451661348342896,-0.0,-0.0,-1.0,0.0772296634014235,1.0,2.0
29.51370620727539,-26.20051383972168,1.0264140367507937,0.7811674692582927,0.2715608798892712,-0.5621673002642179,0.064031128750992,4.0,2.0
29.404577255249023,-26.46489143371582,1.0326869487762451,0.694544131816165,0.5708884902281335,-0.4378296251794436,0.1331000751456953,4.0,2.0
29.82149887084961,-25.371644973754883,1.0093204975128174,-0.0,-0.0,-1.0,0.0902248374290989,1.0,2.0
29.66220474243164,-25.759157180786133,1.018505573272705,-0.0,-0.0,-1.0,0.0600746749786218,1.0,2.0
29.98049545288086,-25.310827255249023,0.9975605010986328,-0.2218360018803373,0.2798881401968848,-0.9340510784999264,0.0799110627952962,3.0,1.0
30.1605224609375,-24.706972122192383,0.988433599472046,-0.0,-0.0,-1.0,0.0716612404438913,2.0,1.0
28.006362915039062,-24.50489044189453,1.1826934814453125,-0.0,-0.0,-1.0,0.1954312469992117,2.0,2.0
28.258153915405273,-24.51502227783203,1.165834903717041,0.6125427388371982,-0.5186013484889685,0.5965266418553723,0.2430489926321124,3.0,2.0
29.34568977355957,-26.790416717529297,1.0700064897537231,-0.0,-0.0,-1.0,0.1261982250298345,2.0,2.0
29.740928649902344,-26.00264358520508,1.0516176223754885,0.1374584857202923,0.8406745787325346,-0.523804751196817,0.0935792804795349,3.0,2.0
29.624670028686523,-26.51434326171875,1.054184913635254,-0.0,-0.0,-1.0,0.0879245924779048,2.0,2.0
30.025619506835938,-25.741432189941406,1.0351899862289429,-0.8749402438018223,-0.1804132952244995,-0.4493669020769609,0.087027864142299,3.0,2.0
29.88597869873047,-25.896499633789062,1.0429794788360596,0.5357701978407654,0.8399049884895954,-0.086659710453935,0.1695274027321303,4.0,2.0
30.153026580810547,-24.969532012939453,1.0344499349594116,-0.0,-0.0,-1.0,0.0982039662408607,1.0,2.0
30.158458709716797,-25.595928192138672,1.0277488231658936,-0.0,-0.0,-1.0,0.1489359364997269,1.0,2.0
27.849201202392575,-26.169492721557617,0.9747327566146852,-0.0,-0.0,-1.0,0.0478638971863339,2.0,1.0
28.73943328857422,-24.849477767944336,0.8976792097091675,-0.0,-0.0,-1.0,0.199359705902277,1.0,1.0
28.93907928466797,-24.66532325744629,0.8826608657836914,-0.0,-0.0,-1.0,0.1991407269189519,1.0,1.0
29.12913703918457,-24.51151466369629,0.868077278137207,-0.0,-0.0,-1.0,0.1208678572582682,1.0,1.0
28.993793487548828,-26.665884017944336,1.342533826828003,-0.0,-0.0,-1.0,0.1615780748331123,2.0,2.0
29.169967651367188,-26.728612899780273,1.329918384552002,0.5735238524702507,0.7267466959488232,-0.378033901356943,0.2163654199734134,4.0,2.0
29.243244171142575,-26.67313766479492,1.034895420074463,-0.0,-0.0,-1.0,0.119823802807006,2.0,2.0
29.43412971496582,-26.47422790527344,1.0214288234710691,-0.0,-0.0,-1.0,0.1309236038858707,2.0,2.0
29.54944229125977,-25.92623519897461,1.0185317993164062,-0.0,-0.0,-1.0,0.0556007970133277,2.0,2.0
28.109054565429688,-24.478721618652344,1.1565730571746826,-0.4328688499090537,0.892781781895011,0.1247607658472082,0.0980763104422954,5.0,2.0
29.789215087890625,-25.640621185302734,1.0017662048339844,0.338829403000492,0.4138554774153142,-0.8449368494009907,0.1258375921690654,4.0,2.0
28.38393783569336,-24.36968994140625,1.135342359542847,0.534564617874588,-0.4057942251575312,0.7413310435597545,0.1803600550661533,3.0,2.0
29.955589294433594,-25.35202407836914,0.991131067276001,-0.1691801500479573,0.1869983059155786,-0.9676826496400844,0.124428588137138,4.0,1.0
30.08449935913086,-24.91994857788086,0.9853153228759766,-0.0,-0.0,-1.0,0.1095515243300962,2.0,1.0
29.004507064819336,-26.748525619506836,1.514357566833496,-0.0,-0.0,-1.0,0.183940319138511,2.0,2.0
28.939910888671875,-26.680404663085938,1.4122791290283203,-0.0,-0.0,-1.0,0.2469918803679539,1.0,2.0
29.195335388183594,-25.65856552124023,0.818941593170166,-0.0,-0.0,-1.0,0.0243939626627597,2.0,1.0
29.38153076171875,-25.375083923339844,0.818727970123291,-0.0,-0.0,-1.0,0.0514737080595899,1.0,1.0
29.515470504760746,-24.779083251953125,0.830125093460083,-0.2904166564211649,-0.9490724155520192,0.1221462881605775,0.0558070074586694,3.0,1.0
28.14425468444824,-24.389389038085938,0.904371738433838,-0.0,-0.0,-1.0,0.0990127996249394,1.0,1.0
29.7224063873291,-24.6842041015625,0.8231465816497803,-0.8104413009989032,-0.2532417055802229,-0.5282551809400691,0.068920098974474,3.0,1.0
28.812366485595703,-26.48581314086914,0.965158462524414,-0.0,-0.0,-1.0,0.0342637176060617,2.0,1.0
28.951828002929688,-26.37682342529297,0.9611930847167968,-0.7035433445567878,-0.6788893927131783,-0.2100855892044499,0.0449060146845572,3.0,1.0
29.24208068847656,-26.20416259765625,0.9513554573059082,-0.0,-0.0,-1.0,0.0353577725173625,1.0,1.0
29.41585350036621,-25.82085418701172,0.9527716636657716,-0.0,-0.0,-1.0,0.0556946458701227,1.0,1.0
29.65632438659668,-25.406036376953125,0.951523780822754,-0.2208631793371749,0.4252933893197714,-0.8776929924603342,0.1330786438955123,4.0,1.0
29.86723899841309,-25.31264877319336,0.9431772232055664,-0.0,-0.0,-1.0,0.0981505335910047,2.0,1.0
28.93541717529297,-24.989444732666016,0.9988515377044678,-0.0,-0.0,-1.0,0.255870079885579,1.0,1.0
29.952072143554688,-24.872005462646484,0.950376033782959,-0.0,-0.0,-1.0,0.1347793137385211,2.0,1.0
28.07073974609375,-24.397300720214844,1.056854009628296,0.7138116961298256,0.4795390772993728,-0.5104068336250287,0.1398223043354434,5.0,2.0
28.96341896057129,-26.767333984375,1.1355268955230713,-0.0,-0.0,-1.0,0.1898030292507483,2.0,2.0
29.34305763244629,-26.67523956298828,1.1211752891540527,0.9682623275627305,0.0859375392756952,-0.2346972610961664,0.1326473809147685,3.0,2.0
29.566476821899418,-26.626934051513672,1.1124536991119385,0.138509332099249,-0.3469260412813401,-0.927608477107814,0.1152456547150959,4.0,2.0
29.697656631469727,-26.36334228515625,1.113020420074463,-0.0,-0.0,-1.0,0.1824179715656309,2.0,2.0
29.803861618041992,-25.961166381835938,1.1180405616760254,-0.0,-0.0,-1.0,0.1507470969368326,2.0,2.0
30.083879470825195,-25.881759643554688,1.1072123050689695,-0.0,-0.0,-1.0,0.1197326662609414,2.0,2.0
28.34067153930664,-24.71051025390625,1.212822198867798,-0.919520090855262,0.2551709373232487,-0.2989491516280068,0.1997417227617057,4.0,2.0
29.21985626220703,-26.79690933227539,1.12841796875,-0.8934569466775562,0.2038689692379424,-0.4002151019332945,0.2871135860913643,5.0,2.0
29.34622383117676,-26.56273651123047,1.1283864974975586,-0.6386387671295596,0.6645233553949296,-0.3880067464025605,0.0949628938165584,3.0,2.0
29.62742042541504,-26.399497985839844,1.1192331314086914,-0.0,-0.0,-1.0,0.1978543825590314,1.0,2.0
29.882362365722656,-25.88315200805664,1.1199440956115725,0.8655367535087057,0.4646811199572703,0.1868624763853547,0.1709302255790009,3.0,2.0
30.176368713378903,-25.839275360107425,1.1068603992462158,-0.0,-0.0,-1.0,0.120830888895936,1.0,2.0
28.986331939697266,-26.662670135498047,1.4432594776153564,-0.1449787288827667,0.8978770558679393,0.4156897409336181,0.2898052536585977,6.0,2.0
29.03993225097656,-26.745241165161133,1.3434836864471436,0.2621121265793608,0.3824987275064105,-0.885997718143801,0.1549722026534694,3.0,2.0
29.220144271850582,-24.851701736450195,0.7595484256744385,-0.0,-0.0,-1.0,0.0510974470646143,1.0,1.0
29.41804313659668,-24.675779342651367,0.7594633102416992,-0.0,-0.0,-1.0,0.0544946808901396,2.0,1.0
29.694114685058594,-24.48189353942871,0.7583603858947754,-0.0,-0.0,-1.0,0.0729294079200654,1.0,1.0
29.417945861816406,-24.725568771362305,0.7062503099441528,-0.0,-0.0,-1.0,0.0579345567150836,1.0,1.0
29.201011657714844,-24.653783798217773,0.664419412612915,-0.0,-0.0,-1.0,0.0653120160846617,1.0,1.0
28.070571899414062,-24.372547149658203,1.059477686882019,0.5475641297281421,0.0285193264736722,-0.836277568665183,0.147923886839804,4.0,2.0
28.417699813842773,-24.56806182861328,1.058475375175476,-0.0,-0.0,-1.0,0.2115140283177713,2.0,2.0
28.35028648376465,-25.22382545471191,0.7278457880020142,-0.0,-0.0,-1.0,0.1356533868387716,2.0,1.0
29.32674217224121,-24.734378814697266,0.7269917726516724,-0.0,-0.0,-1.0,0.037152005200639,1.0,1.0
28.471757888793945,-24.450531005859375,1.1179522275924685,-0.1087551409796279,0.976399410258751,-0.186591829823452,0.2112616980499322,3.0,2.0
27.803688049316406,-26.452571868896484,1.1109025478363037,-0.0,-0.0,-1.0,0.1009167395047375,1.0,2.0
28.59462547302246,-24.832653045654297,1.1187822818756104,-0.0,-0.0,-1.0,0.1734555517079081,2.0,2.0
29.85948181152344,-26.63443374633789,1.127708077430725,-0.0,-0.0,-1.0,0.1103863606288752,2.0,2.0
28.082054138183594,-24.401859283447266,1.142919659614563,-0.0,-0.0,-1.0,0.1013960329070274,2.0,2.0
28.459552764892575,-24.51728057861328,1.1466505527496338,-0.0,-0.0,-1.0,0.1573825033042574,1.0,2.0
28.586830139160156,-24.742450714111328,1.1479891538619995,-0.0,-0.0,-1.0,0.1893070346060571,1.0,2.0
29.225082397460938,-26.659923553466797,1.1545696258544922,-0.0,-0.0,-1.0,0.1512379670405409,2.0,2.0
29.657493591308594,-26.85769271850586,1.1584699153900146,-0.0,-0.0,-1.0,0.0908988954156902,1.0,2.0
28.29302406311035,-25.412559509277344,0.8658305406570435,-0.0,-0.0,-1.0,0.0587234782617026,2.0,1.0
28.06241226196289,-25.18433380126953,0.8425304889678955,-0.0,-0.0,-1.0,0.2337028453308929,2.0,1.0
28.941179275512695,-24.85306930541992,0.8559722900390625,-0.0,-0.0,-1.0,0.1497258087441402,1.0,1.0
28.24092674255371,-25.174484252929688,0.8449640274047852,-0.0,-0.0,-1.0,0.1136663727857321,1.0,1.0
29.14738655090332,-26.648361206054688,1.4789265394210815,0.8298415599959841,0.0601459332269947,0.5547480978062792,0.2680937997934625,5.0,2.0
28.164405822753903,-24.529420852661133,1.1775743961334229,-0.4366006951895114,0.6317802305712136,-0.640494787815966,0.1818681813383995,3.0,2.0
27.88880729675293,-24.562665939331055,1.1850731372833252,0.2806891472668474,0.4298007933441169,-0.8581869730119293,0.2265037588420247,4.0,2.0
28.882328033447266,-25.002450942993164,1.1596603393554688,-0.0,-0.0,-1.0,0.1474551236766789,1.0,2.0
29.877933502197266,-25.71489143371582,1.1357598304748535,-0.0,-0.0,-1.0,0.106690862737663,2.0,2.0
30.15819549560547,-26.00931739807129,1.1293678283691406,-0.0,-0.0,-1.0,0.0839583963665788,1.0,2.0
29.797176361083984,-26.05283546447754,1.1384108066558838,-0.0,-0.0,-1.0,0.0870777423058629,1.0,2.0
29.56024742126465,-26.362871170043945,1.144988775253296,-0.0,-0.0,-1.0,0.1470752946276256,2.0,2.0
29.118244171142575,-26.776865005493164,1.1572279930114746,-0.9397921732599848,0.3201353323314725,0.1195994986289311,0.2634647526954471,3.0,2.0
29.47797203063965,-26.72195625305176,1.147799015045166,0.2480790931046516,-0.4720291049454495,-0.8459582067979312,0.1669603113067948,4.0,2.0
29.18462371826172,-26.72913360595703,1.4650113582611084,0.4237560225221917,0.0996343361048404,-0.9002798634008868,0.203853291831578,3.0,2.0
29.38245391845703,-26.637245178222656,1.4537391662597656,-0.0,-0.0,-1.0,0.1664200627008403,1.0,2.0
29.28830337524414,-26.62700653076172,1.3641374111175537,-0.0,-0.0,-1.0,0.170983253815702,1.0,2.0
29.144832611083984,-26.674903869628903,1.4990668296813965,0.9337681853490868,0.1562200022125565,0.3219818115027336,0.2557016313842754,6.0,2.0
29.045652389526367,-26.728721618652344,1.409247636795044,-0.0054558280711083,0.4970945191085346,-0.8676792454659225,0.1576777339216588,6.0,2.0
29.020008087158203,-26.78803062438965,1.1637109518051147,-0.0,-0.0,-1.0,0.14549459700847,1.0,2.0
29.474987030029297,-26.68673515319824,1.1413893699645996,0.4069581476754728,-0.2601053324244392,-0.8756313619811252,0.1396474591715801,4.0,2.0
29.73151969909668,-26.329710006713867,1.1264833211898804,0.7501715399609309,-0.4737951160079574,-0.461260066209564,0.2201453888212616,4.0,2.0
29.897201538085938,-25.9089412689209,1.1153414249420166,-0.0,-0.0,-1.0,0.126322866772995,2.0,2.0
27.948211669921875,-24.522275924682617,1.1977266073226929,0.2066117949885833,-0.4561113585242567,-0.8656061429985077,0.2744339391287425,3.0,2.0
28.140003204345703,-24.57793617248535,1.1892235279083252,0.7069490268271243,0.6853019074664712,-0.1748838731587266,0.2052701557014474,5.0,2.0
28.965070724487305,-26.76364517211914,1.4746878147125244,-0.0,-0.0,-1.0,0.20371720975417,1.0,2.0
29.144386291503903,-26.661884307861328,1.4658501148223877,0.9799050424196544,0.0321257980692524,-0.1968604605779142,0.2249771245542507,6.0,2.0
29.44099235534668,-26.7034912109375,1.128191590309143,0.0728790293300743,-0.2666923303288902,-0.9610222932001382,0.1824235936255555,9.0,2.0
29.590789794921875,-26.45987319946289,1.123145341873169,-0.0,-0.0,-1.0,0.1096119750082672,1.0,2.0
29.773183822631836,-26.380035400390625,1.1174180507659912,-0.0,-0.0,-1.0,0.1416466598755057,1.0,2.0
29.94016456604004,-25.83666229248047,1.1110421419143677,-0.0,-0.0,-1.0,0.109449703826809,2.0,2.0
28.107582092285156,-24.56418228149414,1.162852764129639,0.6093115758864457,0.7471869767144735,-0.2654261202652461,0.1410259990460599,4.0,2.0
28.27620506286621,-24.45235824584961,1.1577953100204468,-0.273502675872714,0.9460247152366178,0.1738779009878516,0.1585066006392987,4.0,2.0
28.945310592651367,-26.75855255126953,1.1240373849868774,-0.0,-0.0,-1.0,0.1887193354304625,2.0,2.0
27.77824592590332,-24.36620330810547,0.9913634061813354,-0.0,-0.0,-1.0,0.127641552433577,1.0,1.0
28.175512313842773,-24.49913024902344,1.0440737009048462,-0.0,-0.0,-1.0,0.1685277559739017,1.0,2.0
28.40742301940918,-24.380809783935547,1.076776385307312,-0.0,-0.0,-1.0,0.1253059297330044,2.0,2.0
29.695411682128903,-26.494190216064453,1.1595515012741089,-0.0,-0.0,-1.0,0.0920814942075746,1.0,2.0
29.915508270263672,-25.842838287353516,1.154470920562744,-0.0,-0.0,-1.0,0.1624838336187429,1.0,2.0
30.050809860229492,-26.035884857177734,1.1505146026611328,-0.4316567514148967,-0.6584145365182257,-0.6165733914623854,0.0599330029339599,4.0,2.0
28.244508743286133,-24.492008209228516,1.1998541355133057,0.6980105669554635,-0.4312176676379417,0.5716927247529093,0.1514801014162533,3.0,2.0
29.261255264282227,-24.79977035522461,0.7457091808319092,0.7556936716198108,0.15969297047365,-0.6351576417355546,0.0426033034847829,3.0,1.0
29.798067092895508,-24.493000030517575,0.7335938215255737,-0.0,-0.0,-1.0,0.061960885344358,1.0,1.0
29.26946449279785,-26.679840087890625,1.1247133016586304,-0.0,-0.0,-1.0,0.1658879286265877,2.0,2.0
29.46038055419922,-26.660255432128903,1.12135112285614,-0.0900535563279439,0.1078357213268123,-0.990081720969848,0.1372266940823933,4.0,2.0
29.786161422729492,-25.96959686279297,1.118371605873108,-0.0,-0.0,-1.0,0.151412243320139,2.0,2.0
29.708738327026367,-25.985973358154297,1.0699248313903809,0.47817704822896,0.6196976406141971,-0.6223516246979967,0.1092262573100622,7.0,2.0
28.117517471313477,-24.466289520263672,1.1135952472686768,-0.3148704921846078,0.9265083624722572,0.2060068625565654,0.1316493973546217,3.0,2.0
28.242366790771484,-24.48009490966797,1.1109718084335327,0.421708629144345,0.905685166460231,-0.0435455090577717,0.2130165434051266,3.0,2.0
28.54654312133789,-26.42013931274414,0.9215688705444336,-0.0,-0.0,-1.0,0.0257063487092156,1.0,1.0
29.636157989501953,-25.469806671142575,0.9204492568969728,0.8029528520337702,0.5606597180513226,0.2023052099315421,0.1320770482795837,4.0,1.0
28.94543838500977,-26.379308700561523,0.9906220436096193,-0.7035433445567878,-0.6788893927131783,-0.2100855892044499,0.0443147038018451,3.0,1.0
29.44843864440918,-25.836454391479492,0.9886308908462524,-0.0,-0.0,-1.0,0.0624229027772535,1.0,1.0
29.67823600769043,-25.460107803344727,0.98881995677948,-0.0,-0.0,-1.0,0.1314957577968338,1.0,1.0
29.00362014770508,-24.975069046020508,1.002652287483215,0.9429448311123104,0.0793490978288578,-0.3233554795458447,0.1899570450949564,4.0,2.0
28.11561584472656,-24.44093894958496,1.0186994075775146,-0.2068859653449477,0.5842928541131509,-0.7847292896124095,0.1819590858519476,3.0,2.0
28.64978790283203,-25.829364776611328,0.8190814256668091,-0.0,-0.0,-1.0,0.0178475021717025,1.0,1.0
29.599489212036133,-24.713645935058594,0.8309295177459717,-0.0,-0.0,-1.0,0.0488340917831528,1.0,1.0
28.461917877197266,-24.455303192138672,1.0987155437469482,-0.0,-0.0,-1.0,0.2214358866399762,2.0,2.0
28.71230697631836,-24.837648391723633,1.0799468755722046,-0.0,-0.0,-1.0,0.2158682233256905,1.0,2.0
29.114521026611328,-24.9392147064209,1.0601117610931396,-0.0,-0.0,-1.0,0.1910320948060345,2.0,2.0
29.339954376220703,-26.43020820617676,1.019678235054016,0.1254759579267151,0.9163142466214206,0.3802946034602538,0.1122590526254047,3.0,2.0
29.60628318786621,-25.82845115661621,1.0201001167297363,-0.0,-0.0,-1.0,0.0862322241421729,1.0,2.0
30.186254501342773,-24.58388328552246,1.019640564918518,-0.0,-0.0,-1.0,0.0608612163552614,1.0,2.0
27.925626754760746,-24.54409408569336,1.2038323879241943,0.5201061196496882,-0.8485326748560191,-0.0973751713971976,0.2977456992921311,5.0,2.0
28.329790115356445,-24.501508712768555,1.183834671974182,0.6501900727350323,0.639980682059541,0.4094845490460145,0.210757193764052,4.0,2.0
29.140140533447266,-26.67711067199707,1.1009597778320312,-0.505025118465492,0.8099356494213774,-0.2982513596201822,0.214076984258248,3.0,2.0
29.362876892089844,-26.51701545715332,1.092333436012268,-0.0,-0.0,-1.0,0.1347325073873722,2.0,2.0
29.702632904052734,-25.884374618530273,1.0864909887313845,-0.5300869744716306,0.7385126689691495,0.4166615380228607,0.0799891926400422,3.0,2.0
30.044858932495117,-24.988672256469727,1.0854796171188354,-0.0,-0.0,-1.0,0.099432041639338,1.0,2.0
27.75360679626465,-24.44400978088379,1.1820356845855713,0.9123052730647112,0.1165586085426249,-0.3925725149738955,0.2317873601672268,3.0,2.0
28.134777069091797,-24.453481674194336,1.1646451950073242,0.1180138195042431,0.1913584775888667,-0.9743996466855328,0.1084416944128054,3.0,2.0
28.371826171875,-24.44576072692871,1.154047966003418,-0.0,-0.0,-1.0,0.1303904268144984,2.0,2.0
28.38562393188477,-24.761173248291016,1.1475281715393066,-0.0,-0.0,-1.0,0.2617838563766864,2.0,2.0
29.157543182373047,-26.675373077392575,1.0762107372283936,-0.505025118465492,0.8099356494213774,-0.2982513596201822,0.2568036333487179,3.0,2.0
29.662029266357425,-25.90281867980957,1.0675252676010132,-0.0507278671522407,0.7680758107952228,-0.6383464830054644,0.0874022819929675,3.0,2.0
29.40880584716797,-26.404193878173828,1.0697420835494995,0.9794981848998348,-0.1762888291026298,-0.0974964333273395,0.1505741749370474,4.0,2.0
30.03525161743164,-24.932125091552734,1.068636178970337,-0.0,-0.0,-1.0,0.0697256357669281,1.0,2.0
28.26089096069336,-25.4144287109375,0.9217883348464966,-0.0,-0.0,-1.0,0.1283556417932924,1.0,1.0
28.269033432006836,-26.091611862182617,0.9054731130599976,-0.0,-0.0,-1.0,0.0449140038196957,2.0,1.0
28.7713623046875,-25.969451904296875,0.8899846076965332,-0.0,-0.0,-1.0,0.0295466949368477,2.0,1.0
28.98394775390625,-24.952348709106445,0.9063303470611572,-0.0,-0.0,-1.0,0.1478233384774033,2.0,1.0
29.04397964477539,-25.66041374206543,0.8873055577278137,-0.0,-0.0,-1.0,0.024160725458029,1.0,1.0
28.929162979125977,-26.81752586364746,1.5769215822219849,-0.0,-0.0,-1.0,0.1918666955570311,1.0,2.0
29.033052444458008,-26.836076736450195,1.5725727081298828,-0.0831610098159444,-0.4504569268886911,-0.888916645959782,0.1812876716832571,3.0,2.0
27.816219329833984,-24.42605972290039,1.2992050647735596,-0.0,-0.0,-1.0,0.1262632341909967,1.0,2.0
27.96800994873047,-24.558277130126953,1.2903668880462646,0.6544559665303477,-0.6210386532426374,-0.431275293810577,0.2062856969087058,4.0,2.0
28.972095489501953,-26.742341995239254,1.2064025402069092,-0.0,-0.0,-1.0,0.1354021409801881,2.0,2.0
29.11745834350586,-26.794828414916992,1.1991362571716309,-0.6917422555941198,0.6683462995916729,0.2735066281604109,0.1512644837775954,3.0,2.0
29.732654571533203,-26.5832576751709,1.1765539646148682,-0.0,-0.0,-1.0,0.0826367699664797,2.0,2.0
30.092350006103516,-26.14257049560547,1.1693756580352783,0.0097937557161726,0.1908698429004909,-0.9815664956690984,0.0640097713647885,3.0,2.0
27.78995132446289,-24.373952865600582,1.204114317893982,-0.0,-0.0,-1.0,0.1923526696736835,1.0,2.0
27.851146697998047,-24.52047538757324,1.2026278972625732,-0.0,-0.0,-1.0,0.1189821578702019,2.0,2.0
28.283071517944336,-24.418678283691406,1.199885368347168,-0.0,-0.0,-1.0,0.2371687941284324,2.0,2.0
28.264644622802734,-24.45955467224121,1.1997482776641846,0.8673045083587164,-0.4541755221630592,0.2037338578846381,0.1279065824457003,4.0,2.0
28.43872833251953,-24.76234436035156,1.1962172985076904,0.759185254357806,0.6442538870662378,0.0925995602890034,0.213990692110092,3.0,2.0
29.03984642028809,-25.03144073486328,1.189226508140564,0.5015470404327963,0.1742198682474854,-0.8474066342323102,0.1840695646076818,3.0,2.0
29.064350128173828,-26.83574867248535,1.1759252548217771,0.1742756754809131,0.898338129949461,-0.4032574775680873,0.1031150028206641,3.0,2.0
29.821645736694336,-26.631147384643555,1.1704444885253906,-0.0,-0.0,-1.0,0.1286739059965995,2.0,2.0
28.072052001953125,-24.43001365661621,1.1685233116149902,-0.0,-0.0,-1.0,0.0987526148050222,2.0,2.0
27.815149307250977,-24.466819763183594,1.17010235786438,-0.0,-0.0,-1.0,0.1966284302811852,1.0,2.0
28.329191207885746,-24.40884017944336,1.1667778491973877,-0.073060841852882,0.1521399546381618,-0.9856548825985932,0.1256304843832715,4.0,2.0
28.427078247070312,-24.743867874145508,1.1631828546524048,0.1612127168330858,0.9733970184737606,-0.1628149389880682,0.2545307048686611,4.0,2.0
28.97174072265625,-24.968168258666992,1.1569669246673584,0.5257032107508638,0.7011772352910807,-0.4816498924694047,0.1889648896374564,5.0,2.0
29.10338973999023,-26.81390380859375,1.1396472454071045,-0.8190952410083513,0.4786100381398222,-0.316252142363129,0.1882712157359981,3.0,2.0
30.010822296142575,-26.01001739501953,1.1389490365982056,-0.503301473099205,-0.8492883731791191,-0.1593640058449075,0.0595479768797594,3.0,2.0
28.405900955200195,-24.599613189697266,0.9994304776191713,-0.0,-0.0,-1.0,0.2309764461967608,1.0,1.0
28.40835952758789,-24.814958572387695,0.9947569370269777,-0.0,-0.0,-1.0,0.2197670797507193,2.0,1.0
28.599609375,-24.813196182250977,0.9908846020698548,-0.0,-0.0,-1.0,0.209509874230451,1.0,1.0
28.618913650512695,-25.225976943969727,0.9815908074378968,-0.0,-0.0,-1.0,0.1458803905621245,1.0,1.0
28.178321838378903,-26.025224685668945,0.9734238386154176,-0.0,-0.0,-1.0,0.0352805209918627,2.0,1.0
29.067176818847656,-24.963029861450195,0.977991223335266,0.3454070243375852,-0.5600000342588899,-0.7530564050376949,0.1842837413318527,3.0,1.0
28.334972381591797,-26.13714027404785,0.9677799344062804,0.1039387943202628,0.9205645166190944,-0.3765072346942396,0.0446513757600539,5.0,1.0
28.222990036010746,-26.651649475097656,0.9589775204658508,-0.0,-0.0,-1.0,0.0574648149125321,2.0,1.0
29.21233367919922,-25.9666690826416,0.9531460404396056,-0.0,-0.0,-1.0,0.0888878101994035,2.0,1.0
28.95593643188477,-26.10053062438965,0.95563405752182,-0.0,-0.0,-1.0,0.0512618307737354,1.0,1.0
28.346702575683594,-24.45719337463379,1.0292835235595703,-0.0,-0.0,-1.0,0.2024518576786195,1.0,2.0
28.08498764038086,-24.42764663696289,1.0366714000701904,0.4621021762344885,0.8106224114676045,-0.3596566206060928,0.1825511028494957,4.0,2.0
28.445796966552734,-24.80101776123047,1.0190680027008057,0.587684275816146,-0.2208041767478389,-0.7783782547638137,0.166652542872055,3.0,2.0
28.998321533203125,-24.99798011779785,1.0002256631851196,0.952451480152381,0.2257809192233626,-0.204595098842059,0.1542145156343943,6.0,2.0
28.03826141357422,-26.04973030090332,1.0018515586853027,-0.0,-0.0,-1.0,0.0160502340546306,1.0,2.0
28.07775115966797,-26.664697647094727,0.9870885610580444,-0.0,-0.0,-1.0,0.0645698823581667,2.0,1.0
28.129854202270508,-26.781225204467773,0.9831145405769348,0.7336329356573006,0.6147304825601492,-0.2896362365627219,0.0562890521187423,3.0,1.0
28.959861755371097,-26.165786743164062,0.9749979376792908,-0.0,-0.0,-1.0,0.0600531404503005,1.0,1.0
28.37409210205078,-24.4227237701416,1.0740437507629397,-0.0,-0.0,-1.0,0.1949491744436385,1.0,2.0
28.219411849975582,-24.36669158935547,1.076602339744568,-0.0,-0.0,-1.0,0.1347367981865452,2.0,2.0
28.524192810058594,-24.914409637451172,1.0649110078811646,-0.0,-0.0,-1.0,0.1474760161603859,2.0,2.0
29.049840927124023,-24.956029891967773,1.0582222938537598,0.1710791789651728,0.3722051481077877,-0.9122473580376446,0.1468140612619768,5.0,2.0
27.76052474975586,-26.742361068725582,1.0458178520202637,-0.0,-0.0,-1.0,0.0940030536227935,1.0,2.0
28.937511444091797,-26.42918586730957,1.036890745162964,-0.0,-0.0,-1.0,0.0452088359072096,1.0,2.0
29.71669006347656,-25.796377182006836,1.037234902381897,-0.8737081409907534,0.4685195321819025,0.1308569154860845,0.080696446197194,3.0,2.0
29.263277053833008,-26.560937881469727,1.0309133529663086,-0.0,-0.0,-1.0,0.0970690964685273,1.0,2.0
29.040721893310547,-26.657623291015625,1.0321162939071655,-0.0,-0.0,-1.0,0.1285664059000832,2.0,2.0
29.05778694152832,-24.972415924072266,0.8409857749938965,-0.0851736869001789,-0.3785550571970033,-0.921651513171006,0.2173915633004494,3.0,1.0
28.371307373046875,-25.259300231933594,0.8335390090942383,-0.0,-0.0,-1.0,0.1188988280647456,1.0,1.0
29.443132400512695,-24.85879135131836,0.84417724609375,-0.0,-0.0,-1.0,0.0709408747471956,2.0,1.0
29.070112228393555,-25.169761657714844,0.8373115658760071,-0.0,-0.0,-1.0,0.1304351542674778,1.0,1.0
28.53765869140625,-25.513015747070312,0.8293213248252869,-0.0,-0.0,-1.0,0.0787393013657911,1.0,1.0
29.702468872070312,-24.614707946777344,0.8494493365287781,-0.0,-0.0,-1.0,0.0876266907067332,1.0,1.0
28.32134246826172,-24.713075637817383,0.9472193717956544,-0.0,-0.0,-1.0,0.2021128526715402,1.0,1.0
29.013755798339844,-24.932458877563477,0.9429211616516112,-0.0,-0.0,-1.0,0.1360050271819203,2.0,1.0
28.207841873168945,-25.534324645996097,0.9353306889533995,-0.0,-0.0,-1.0,0.1673821118867864,1.0,1.0
29.420209884643555,-25.46744728088379,0.9341353178024292,-0.0,-0.0,-1.0,0.0522710739539262,1.0,1.0
28.19277572631836,-25.909156799316406,0.9298405647277832,-0.0,-0.0,-1.0,0.0301543536137037,2.0,1.0
29.082508087158203,-25.931943893432617,0.9279088973999025,-0.0,-0.0,-1.0,0.0690340702324507,1.0,1.0
28.652870178222656,-26.258501052856445,0.923892080783844,-0.0,-0.0,-1.0,0.055721023557077,1.0,1.0
28.34094619750977,-26.241668701171875,0.9246954917907716,-0.0,-0.0,-1.0,0.0523273088961748,1.0,1.0
28.356117248535156,-24.418142318725582,0.9514883756637572,-0.0,-0.0,-1.0,0.193802248389719,1.0,1.0
30.142189025878903,-24.57285499572754,0.9458886384963988,-0.0,-0.0,-1.0,0.0651718368300929,1.0,1.0
28.313156127929688,-24.50509452819824,1.0675969123840332,-0.0,-0.0,-1.0,0.2369666073504345,2.0,2.0
27.969959259033203,-24.472522735595703,1.0837926864624023,-0.0,-0.0,-1.0,0.1844079103670735,1.0,2.0
28.67430305480957,-24.651336669921875,1.0474509000778198,-0.0,-0.0,-1.0,0.1986300357771268,1.0,2.0
28.521053314208984,-24.615140914916992,1.055314540863037,0.2409371773502614,0.9581935530779512,0.1543191219853852,0.1861835349661869,4.0,2.0
28.65805435180664,-24.473268508911133,1.2257537841796875,-0.0,-0.0,-1.0,0.1532639809300437,1.0,2.0
28.085325241088867,-24.529783248901367,1.2221754789352417,-0.049986123354555,0.9315871971192404,-0.3600648297675028,0.1125395687525146,3.0,2.0
27.80429458618164,-24.483407974243164,1.2205579280853271,-0.0,-0.0,-1.0,0.1323749204271273,1.0,2.0
28.42101287841797,-24.71839904785156,1.2241241931915283,-0.0,-0.0,-1.0,0.172134779739718,2.0,2.0
28.275314331054688,-24.79676628112793,1.223172903060913,-0.7007169840071805,-0.0824581978812128,-0.7086581361460992,0.2289908287364304,3.0,2.0
29.17437744140625,-26.748136520385746,1.2284362316131592,-0.0,-0.0,-1.0,0.2236653290330702,1.0,2.0
29.274999618530273,-26.849851608276367,1.2291438579559326,-0.0,-0.0,-1.0,0.1244160697286714,1.0,2.0
27.986797332763672,-24.37921142578125,1.110572099685669,-0.2727317862994577,0.8758799472852731,-0.3980599084126085,0.1344800855884609,3.0,2.0
28.43482208251953,-24.560279846191406,1.1023560762405396,-0.0,-0.0,-1.0,0.2150656347182514,2.0,2.0
28.17471694946289,-24.663177490234375,1.104731559753418,-0.0,-0.0,-1.0,0.2697645132035912,1.0,2.0
29.066303253173828,-25.03795623779297,1.0886279344558716,-0.0,-0.0,-1.0,0.1287521235206746,1.0,2.0
28.699115753173828,-24.88358688354492,1.0951716899871826,-0.0,-0.0,-1.0,0.1678424069825423,2.0,2.0
30.1274471282959,-24.999256134033203,1.0757527351379397,-0.0,-0.0,-1.0,0.1263938147381616,2.0,2.0
29.700759887695312,-25.96450424194336,1.0703611373901367,-0.2742900775219269,0.910936078012013,0.3081564783500545,0.1189025430089047,7.0,2.0
29.502199172973633,-26.51706314086914,1.0667263269424438,0.2604301618586158,0.9371968676224848,-0.2320305197875866,0.1380234828972771,4.0,2.0
28.444625854492188,-24.448610305786133,1.0428612232208252,-0.0,-0.0,-1.0,0.2083280409709276,1.0,2.0
28.16509437561035,-24.423337936401367,1.0558505058288574,0.5573016856998401,0.8253084131424785,0.0909991995149437,0.1267210647213357,4.0,2.0
28.694629669189453,-24.990577697753903,1.0195589065551758,-0.0,-0.0,-1.0,0.1680165654550171,2.0,2.0
29.11969566345215,-25.02955436706543,1.00005304813385,-0.0,-0.0,-1.0,0.2209884244614392,1.0,2.0
29.42662811279297,-25.876514434814453,0.967694878578186,-0.0,-0.0,-1.0,0.0771197028420045,2.0,1.0
29.178756713867188,-26.16847038269043,0.9718849658966064,-0.0,-0.0,-1.0,0.0496156244795764,1.0,1.0
28.960628509521484,-26.29214096069336,0.9785891771316528,-0.0,-0.0,-1.0,0.0433049447442471,2.0,1.0
28.44715881347656,-26.85249710083008,0.9884114861488342,-0.0,-0.0,-1.0,0.0507856974682835,2.0,1.0
28.71061134338379,-25.24539566040039,0.8926256895065308,-0.0,-0.0,-1.0,0.1185346266124717,1.0,1.0
28.345130920410156,-25.93633079528809,0.8966213464736938,-0.0,-0.0,-1.0,0.0296353869841925,2.0,1.0
28.727787017822266,-25.83243751525879,0.8663052320480347,-0.0,-0.0,-1.0,0.0151203505835573,2.0,1.0
28.652053833007812,-25.851842880249023,0.8724144697189331,-0.0,-0.0,-1.0,0.0188928583925243,1.0,1.0
29.77008628845215,-24.60712432861328,0.8205115795135498,-0.7724533768874463,-0.2034487636391427,0.6016015135526882,0.0395405627889536,3.0,1.0
29.55443000793457,-24.74043083190918,0.8354687690734863,-0.0,-0.0,-1.0,0.0457263316338513,1.0,1.0
29.13749122619629,-26.74222946166992,1.5329512357711792,0.5101156569505179,0.161066143095433,-0.8448903562488467,0.1686851124532722,3.0,2.0
28.976055145263672,-26.811038970947266,1.54859721660614,-0.764296426509994,-0.155506244015438,-0.6258344673284338,0.2018889718166416,4.0,2.0
29.28240394592285,-26.76508331298828,1.518137812614441,-0.0,-0.0,-1.0,0.2244294055378497,1.0,2.0
29.05588150024414,-25.03135108947754,1.0298763513565063,0.2890538561132551,0.4636096948939551,-0.837564277573006,0.1295150962434336,5.0,2.0
28.560836791992188,-25.10350799560547,1.0103468894958496,-0.0,-0.0,-1.0,0.1445125219132482,1.0,2.0
30.15807342529297,-24.845752716064453,1.0756466388702393,-0.0,-0.0,-1.0,0.0871035695513682,1.0,2.0
28.344682693481445,-26.132070541381836,0.9967204332351683,0.5291695861637579,0.7226741163823447,-0.4446590498238783,0.0438457700006113,4.0,1.0
29.47166633605957,-25.8481388092041,1.0425773859024048,-0.0,-0.0,-1.0,0.0760518975358422,1.0,2.0
29.2032413482666,-26.143646240234375,1.0303109884262085,-0.0,-0.0,-1.0,0.0796830644220769,1.0,2.0
28.822614669799805,-26.280174255371097,1.0144935846328735,-0.0,-0.0,-1.0,0.0746617661772294,1.0,2.0
28.522371292114254,-26.520402908325195,1.0015404224395752,-0.0,-0.0,-1.0,0.0295490521705954,2.0,2.0
28.82856178283691,-26.679758071899418,1.3273390531539917,-0.0,-0.0,-1.0,0.1023722785548072,1.0,2.0
28.706863403320312,-26.800941467285156,1.3255462646484375,-0.0,-0.0,-1.0,0.0656785102662162,1.0,2.0
29.00806427001953,-24.889358520507812,0.9791644811630248,-0.0,-0.0,-1.0,0.1992299961713146,1.0,1.0
28.93954086303711,-24.89346694946289,0.9743609428405762,-0.0,-0.0,-1.0,0.1744246017491732,2.0,1.0
28.597068786621097,-24.902402877807617,0.9502344131469728,-0.0,-0.0,-1.0,0.176266620979581,1.0,1.0
28.24621200561523,-24.446813583374023,0.9278547763824464,-0.0,-0.0,-1.0,0.123785252462459,2.0,1.0
29.52745819091797,-26.580848693847656,1.0047478675842283,-0.0,-0.0,-1.0,0.1006311826089778,2.0,2.0
29.392614364624023,-26.450931549072266,0.9963337182998656,0.5207034760000804,0.8402235920857127,0.1513017031761878,0.1186245916541195,3.0,1.0
29.11910629272461,-26.66521453857422,0.9762523770332336,-0.0,-0.0,-1.0,0.0843820214164321,1.0,1.0
28.91808319091797,-26.85451316833496,0.961210072040558,-0.0,-0.0,-1.0,0.1079589744636502,1.0,1.0
28.186439514160156,-24.71575927734375,1.5470809936523438,-0.0,-0.0,-1.0,0.2410372264686594,1.0,2.0
28.10588264465332,-24.841197967529297,1.5498161315917969,-0.0,-0.0,-1.0,0.1929484044225822,1.0,2.0
28.98814392089844,-26.606544494628903,1.5753164291381836,-0.0,-0.0,-1.0,0.1274196570553401,1.0,2.0
28.837833404541016,-26.743118286132812,1.5789515972137451,-0.0,-0.0,-1.0,0.2164203737192873,1.0,2.0
28.987625122070312,-26.65269470214844,1.4670039415359497,-0.1449787288827667,0.8978770558679393,0.4156897409336181,0.2273053422274997,6.0,2.0
29.031064987182617,-26.85121154785156,1.3651156425476074,-0.0,-0.0,-1.0,0.1242317922676711,1.0,2.0
29.12334251403809,-26.669639587402344,1.354370355606079,-0.6664007518859727,0.7153264659678441,-0.2102809667368029,0.1393878025251072,7.0,2.0
29.596023559570312,-25.354751586914062,0.8560172915458679,-0.2141920508728055,0.3655497559004307,-0.905811868604092,0.0871450337401029,3.0,1.0
29.69004821777344,-24.782623291015625,0.8407052755355835,-0.0,-0.0,-1.0,0.0623856831927652,1.0,1.0
29.978012084960938,-24.5838623046875,0.8161736130714417,-0.0,-0.0,-1.0,0.0518201688630766,2.0,1.0
29.479331970214844,-25.76258850097656,0.928625762462616,-0.6107065812134079,-0.6198988585855243,-0.4927097287318319,0.0603220485408014,3.0,1.0
29.559139251708984,-25.564468383789062,0.92015939950943,-0.0,-0.0,-1.0,0.0752745127599337,2.0,1.0
29.72373962402344,-25.414661407470703,0.9059731364250184,-0.1081480292283066,0.8801851471117246,-0.4621451185265783,0.1347460862231415,3.0,1.0
29.8494930267334,-25.139801025390625,0.8930748105049133,-0.0,-0.0,-1.0,0.0579733699208279,2.0,1.0
29.91437530517578,-24.73076629638672,0.8829904198646545,-0.0,-0.0,-1.0,0.1368074721593828,2.0,1.0
29.082395553588867,-26.67169189453125,1.3690437078475952,-0.105481291522348,0.9819476521767592,-0.1570111636901278,0.1732391634127557,3.0,2.0
29.056549072265625,-26.83694839477539,1.231440186500549,0.2871460868326396,0.5868251709687706,0.7570887289705055,0.1298966161132858,3.0,2.0
29.68709945678711,-26.687538146972656,1.1911506652832031,-0.0,-0.0,-1.0,0.1144839235875316,1.0,2.0
28.12236595153809,-24.649105072021484,1.2595925331115725,-0.8976131466884698,0.384107223445527,0.2162227550212785,0.1980197258736594,3.0,2.0
28.42209243774414,-24.597705841064453,1.2407859563827517,0.7485562946008342,0.6568389004364793,-0.0906980302259389,0.114026576904275,3.0,2.0
28.99363136291504,-26.750282287597656,1.3276097774505615,-0.2498842461452639,0.8825824913390546,0.3982536999327949,0.2325418785937252,4.0,2.0
27.772462844848633,-25.063579559326172,1.2394300699234009,-0.0,-0.0,-1.0,0.1566288605340071,2.0,2.0
29.663599014282227,-26.69282913208008,1.2354943752288818,-0.0,-0.0,-1.0,0.0990761806274237,2.0,2.0
29.18181610107422,-25.783361434936523,0.7964483499526978,-0.0,-0.0,-1.0,0.0273104501013043,1.0,1.0
29.62960624694824,-24.827709197998047,0.8080823421478271,-0.0,-0.0,-1.0,0.0506539831115744,1.0,1.0
29.50493049621582,-25.04935646057129,0.8054475784301758,-0.0,-0.0,-1.0,0.0494099699958258,2.0,1.0
29.83905982971191,-24.76151657104492,0.8084733486175537,-0.0,-0.0,-1.0,0.0645141814045844,1.0,1.0
28.417556762695312,-24.78136825561523,1.32367742061615,-0.0,-0.0,-1.0,0.2520509331231092,2.0,2.0
29.077308654785156,-26.789947509765625,1.315884709358215,0.2282578146130685,0.7417942913453156,-0.6305867104495358,0.1524103394000035,5.0,2.0
28.981443405151367,-25.635257720947266,0.8039796352386475,-0.0,-0.0,-1.0,0.0214174608132645,1.0,1.0
29.433752059936523,-24.756494522094727,0.7720054388046265,-0.0,-0.0,-1.0,0.0588112230733606,2.0,1.0
29.522838592529297,-24.689638137817383,0.7654072046279907,-0.0,-0.0,-1.0,0.0542161729434902,2.0,1.0
27.724945068359375,-24.37039375305176,1.1165705919265747,-0.0,-0.0,-1.0,0.2220014861052094,1.0,2.0
28.144840240478516,-24.413442611694336,1.09197735786438,-0.5764806012365549,0.3112337904730798,-0.7555154823467877,0.1294276129385118,4.0,2.0
28.21738052368164,-24.570465087890625,1.088065266609192,-0.0,-0.0,-1.0,0.1536302975858081,1.0,2.0
29.036977767944336,-24.99355125427246,1.041129469871521,0.2491617878607665,0.3406330643150007,-0.9065801227499964,0.1269900369491466,8.0,2.0
29.16867446899414,-26.79640007019043,1.0373358726501465,-0.0,-0.0,-1.0,0.1695838281756868,1.0,2.0
29.618406295776367,-25.952333450317383,1.009415626525879,0.1048418878860172,0.0182061283411586,-0.9943222392340028,0.1004855587281072,4.0,2.0
29.603132247924805,-26.399946212768555,1.0112380981445312,0.581295000549314,0.7096370187402541,0.3981349318633284,0.1863703862888368,5.0,2.0
29.478776931762695,-26.546367645263672,1.018762230873108,-0.531825341097249,0.7961230260555011,-0.2887038862762789,0.1168510164586953,4.0,2.0
29.97732925415039,-25.37618827819824,0.9874985218048096,-0.0,-0.0,-1.0,0.0965190519540216,2.0,1.0
29.82787322998047,-25.81102752685547,0.99701189994812,-0.3680793089131551,0.3683740084932683,-0.85370850541424,0.1145750819304041,3.0,1.0
30.1357421875,-25.002546310424805,0.9776331186294556,-0.0,-0.0,-1.0,0.1180980615683402,1.0,1.0
30.055309295654297,-25.289310455322266,0.9828326106071472,-0.0,-0.0,-1.0,0.0824267155575673,2.0,1.0
29.417892456054688,-24.84445571899414,0.8077847361564636,-0.0,-0.0,-1.0,0.0364909128767044,2.0,1.0
29.646900177001953,-24.6290225982666,0.7909212708473206,-0.0,-0.0,-1.0,0.0531996976978877,2.0,1.0
29.967756271362305,-24.47161102294922,0.7665027976036072,-0.0,-0.0,-1.0,0.0571713917940208,2.0,1.0
27.972633361816406,-24.53976821899414,1.2545444965362549,-0.2469762250210156,-0.2981849755761053,-0.9220024211546552,0.183897595829827,5.0,2.0
28.284114837646484,-24.649978637695312,1.2379732131958008,-0.0,-0.0,-1.0,0.2069752798247375,2.0,2.0
28.451051712036133,-24.632143020629883,1.230399489402771,-0.0,-0.0,-1.0,0.1279260875744519,2.0,2.0
29.076868057250977,-26.844226837158203,1.1624482870101929,-0.7031607484196782,0.0841143985753855,-0.7060380512650709,0.116083503855773,3.0,2.0
28.983627319335938,-25.01677894592285,1.1984755992889404,0.782041724260312,0.2550424339823819,-0.5686511218526703,0.2104149492826529,4.0,2.0
29.419816970825195,-26.68919563293457,1.148809552192688,0.5168901532708841,0.1464602271100482,-0.8434298852462339,0.1794111591329224,7.0,2.0
29.72722816467285,-26.57586097717285,1.136062502861023,0.2742457022775636,-0.954650910933487,-0.1158919023752287,0.0802329152179651,4.0,2.0
29.995988845825195,-25.663225173950195,1.1388397216796875,-0.0,-0.0,-1.0,0.1102123917985994,2.0,2.0
29.931406021118164,-26.00387954711914,1.136101245880127,-0.0,-0.0,-1.0,0.0991313548081344,2.0,2.0
28.573915481567383,-24.53617477416992,1.0639090538024902,-0.0,-0.0,-1.0,0.2063220042524912,1.0,2.0
29.033878326416016,-26.338403701782227,0.9902596473693848,-0.0,-0.0,-1.0,0.0278051890281419,1.0,1.0
28.954740524291992,-26.39000701904297,0.994042158126831,-0.7035433445567878,-0.6788893927131783,-0.2100855892044499,0.043742587593788,3.0,1.0
29.02155876159668,-25.022239685058594,1.023374319076538,0.6643732620931122,0.5465825205316197,-0.509760450471649,0.1340644696128538,8.0,2.0
29.210540771484375,-26.084552764892575,0.985193967819214,-0.0,-0.0,-1.0,0.1005078641783361,1.0,1.0
29.523754119873047,-25.70086669921875,0.9745163321495056,-0.0,-0.0,-1.0,0.0637328385532024,1.0,1.0
29.94242286682129,-24.838726043701172,0.9686117172241212,-0.4018772748861053,0.3476655085349404,-0.8471265254407153,0.1571258456555685,3.0,1.0
29.951942443847656,-25.257898330688477,0.9577596187591552,-0.0,-0.0,-1.0,0.1087695830386367,1.0,1.0
29.81688117980957,-25.435379028320312,0.962141752243042,-0.0,-0.0,-1.0,0.0945798509068937,2.0,1.0
30.055898666381836,-24.79318046569824,0.9623766541481018,-0.0,-0.0,-1.0,0.0840583926023459,1.0,1.0
28.014892578125,-24.37371253967285,1.1034221649169922,-0.0,-0.0,-1.0,0.1665653427882313,2.0,2.0
28.243181228637695,-24.481660842895508,1.086289882659912,0.421708629144345,0.905685166460231,-0.0435455090577717,0.1945993045750349,3.0,2.0
28.346355438232425,-24.365251541137695,1.082600235939026,-0.0,-0.0,-1.0,0.1454078973201763,2.0,2.0
29.17006492614746,-26.860754013061523,1.0742309093475342,-0.0,-0.0,-1.0,0.1429475811723431,2.0,2.0
29.54177474975586,-26.55368995666504,1.0406124591827393,-0.3084019694828697,0.8135571948357812,-0.4929634022420134,0.1076481301877515,3.0,2.0
29.86893081665039,-25.862045288085938,1.0166034698486328,0.8626765696601049,0.0409461801284567,-0.5040957711510408,0.1110819406781419,3.0,2.0
30.010761260986328,-25.57021141052246,1.0059444904327393,-0.0,-0.0,-1.0,0.0945264308043557,1.0,2.0
27.787511825561523,-24.42755699157715,1.248632788658142,-0.0,-0.0,-1.0,0.1450671253041352,1.0,2.0
28.045690536499023,-24.671146392822266,1.2193316221237185,-0.0,-0.0,-1.0,0.1482406411534036,2.0,2.0
28.35068130493164,-24.538063049316406,1.190659999847412,0.6265284899187511,0.4398307474016416,0.6434368383611887,0.1427851998925814,5.0,2.0
30.165769577026367,-24.8155574798584,1.0001754760742188,-0.0,-0.0,-1.0,0.0773654487662755,1.0,2.0
30.11145782470703,-25.08590507507324,1.0021392107009888,-0.0,-0.0,-1.0,0.1259803073140988,1.0,2.0
30.05191421508789,-25.379390716552734,1.004302740097046,-0.7227089903712245,0.2009751817446475,-0.6612871475836433,0.0619489344382438,3.0,2.0
28.78964614868164,-26.260913848876953,0.8717243671417236,0.5868687181029498,-0.1871545880301769,-0.7877552081017652,0.0673744112022513,4.0,1.0
28.95382308959961,-26.021385192871097,0.8702925443649292,-0.0,-0.0,-1.0,0.0426258491326764,2.0,1.0
28.983774185180664,-24.982398986816406,0.9048432111740112,-0.0,-0.0,-1.0,0.154853625170181,2.0,1.0
29.46263313293457,-25.56367874145508,0.8553920388221741,-0.0,-0.0,-1.0,0.0494187186606907,2.0,1.0
29.300617218017575,-25.752521514892575,0.8587138652801514,-0.0,-0.0,-1.0,0.03665114891159,1.0,1.0
29.70861053466797,-24.828266143798828,0.8657119870185852,-0.0,-0.0,-1.0,0.083702439945588,1.0,1.0
29.547340393066406,-25.388835906982425,0.8562585115432739,-0.0,-0.0,-1.0,0.0803602706710257,2.0,1.0
29.912982940673828,-24.687488555908203,0.8577786087989807,-0.0,-0.0,-1.0,0.0637343238334635,1.0,1.0
28.797853469848633,-25.422595977783203,0.743944525718689,-0.0,-0.0,-1.0,0.0484031659009399,2.0,1.0
29.264869689941406,-24.775379180908203,0.7561420202255249,-0.0,-0.0,-1.0,0.0403882522068519,2.0,1.0
29.27433204650879,-24.83281898498535,0.7529584169387817,-0.0,-0.0,-1.0,0.0426033034847827,2.0,1.0
28.239049911499023,-24.851911544799805,1.490492582321167,-0.0,-0.0,-1.0,0.1466445722605812,1.0,2.0
28.925092697143555,-26.84235382080078,1.4373947381973269,-0.0,-0.0,-1.0,0.1024800921624566,1.0,2.0
29.104961395263672,-26.70633125305176,1.4328564405441284,-0.1070899902968515,0.9912444900759364,-0.0772405002075793,0.1950492298598131,9.0,2.0
28.801733016967773,-25.390357971191406,0.7600040435791016,-0.0,-0.0,-1.0,0.0439181037892276,2.0,1.0
28.746742248535156,-25.4886474609375,0.7575207948684692,-0.0,-0.0,-1.0,0.0295719265167071,1.0,1.0
29.20769500732422,-24.939393997192383,0.7640380859375,-0.0,-0.0,-1.0,0.0506020307841042,2.0,1.0
29.39099502563477,-24.834707260131836,0.7606674432754517,-0.0,-0.0,-1.0,0.0324909935972106,2.0,1.0
29.01372337341309,-26.773040771484375,1.406505465507507,0.2720894202432799,0.8649218216765435,0.421755367220626,0.1469420463805813,4.0,2.0
29.13465118408203,-25.4202823638916,0.7744013071060181,-0.0,-0.0,-1.0,0.0275572853284516,1.0,1.0
29.029388427734375,-25.53324508666992,0.7724510431289673,-0.0,-0.0,-1.0,0.0281576247173382,1.0,1.0
29.74448013305664,-24.683683395385746,0.7890317440032959,-0.7908335251739954,0.3436317685064329,-0.5064578394437317,0.0602809670572444,3.0,1.0
29.526519775390625,-24.881254196166992,0.7874598503112793,-0.0,-0.0,-1.0,0.0517947912063919,1.0,1.0
29.42879867553711,-25.208572387695312,0.7740998268127441,-0.0,-0.0,-1.0,0.0370169505053689,1.0,1.0
30.092031478881836,-24.516386032104492,0.7834727764129639,-0.0,-0.0,-1.0,0.0739836439601963,1.0,1.0
29.32882308959961,-26.65426254272461,1.388418436050415,-0.0,-0.0,-1.0,0.2085208094109255,1.0,2.0
28.10798454284668,-24.540931701660156,1.1901856660842896,0.538350347658244,0.8066407328745276,-0.2439459596793768,0.1224136965265899,6.0,2.0
28.042644500732425,-24.6962890625,1.188275933265686,-0.0,-0.0,-1.0,0.1982619545089578,2.0,2.0
28.458677291870117,-24.378093719482425,1.17794668674469,-0.0741410794807363,0.1670927121893582,-0.9831495948565688,0.2042170101743124,4.0,2.0
28.34196662902832,-24.552921295166016,1.1780095100402832,0.3790708803842624,0.4870751794836183,0.7868055904578342,0.1764537302322039,4.0,2.0
28.22910499572754,-24.772449493408203,1.1763643026351929,-0.0,-0.0,-1.0,0.2367180262494387,1.0,2.0
28.983062744140625,-25.00257110595703,1.1304755210876465,0.195623280033005,0.9614131529760565,-0.1934328865363037,0.1735016923557721,6.0,2.0
