x,y,z,nx,ny,nz,curvature,density,label
14.8871488571167,26.882633209228516,-1.1533869504928589,-0.0,-0.0,-1.0,0.2141425806972983,1.0,0.0
14.817069053649902,26.940690994262695,-1.1676148176193235,-0.0,-0.0,-1.0,0.2099968571108707,1.0,0.0
14.23451042175293,26.999526977539062,-1.255254149436951,-0.0,-0.0,-1.0,0.1339660187868032,1.0,0.0
14.545981407165527,26.46550750732422,-1.17255437374115,-0.0,-0.0,-1.0,0.1986596259554603,2.0,0.0
14.173243522644045,26.7178897857666,-1.2444661855697632,-0.0,-0.0,-1.0,0.1575631137677407,2.0,0.0
14.020475387573242,26.637954711914062,-1.261452078819275,-0.0,-0.0,-1.0,0.0523091367561307,2.0,0.0
14.748377799987791,25.940906524658203,-1.1072760820388794,-0.0,-0.0,-1.0,0.1805211004025451,1.0,0.0
13.743218421936035,25.65180015563965,-1.24162757396698,-0.0,-0.0,-1.0,0.1262128740033021,1.0,0.0
14.163212776184082,28.11664581298828,-0.7487562894821167,0.9850712817324858,-0.0809251496098219,-0.1519397580179235,0.2022013162263104,3.0,0.0
14.1080904006958,27.833744049072266,-0.7396734952926636,-0.0,-0.0,-1.0,0.1431394211612872,1.0,0.0
14.066009521484377,27.9484920501709,-0.7505296468734741,-0.0,-0.0,-1.0,0.1886766133436233,1.0,0.0
14.090476036071776,27.24491310119629,-0.711464524269104,-0.0,-0.0,-1.0,0.2366063694557988,2.0,0.0
13.176526069641112,27.499425888061523,-0.8307915925979614,-0.0332828061027917,-0.3263150935365,-0.9446749253305018,0.1224417148914827,4.0,0.0
14.088159561157228,27.173255920410156,-0.708191990852356,-0.7599531697767843,-0.261105646674148,-0.5952268651708292,0.1944934536165749,6.0,0.0
14.014638900756836,27.123756408691406,-0.7143471240997314,0.5576974932958585,-0.6228674519237289,-0.5486434573614791,0.2268548487336942,5.0,0.0
13.48465347290039,26.047616958618164,-0.7307395935058594,-0.0,-0.0,-1.0,0.1211145125450834,2.0,0.0
13.437018394470217,25.842702865600582,-0.7287898063659668,-0.0662490671064663,-0.3852233427725645,-0.9204423052482182,0.2735169440556329,4.0,0.0
12.979790687561035,25.809764862060547,-0.7850435972213745,-0.0,-0.0,-1.0,0.2427924729983056,1.0,0.0
13.36329174041748,28.118370056152344,-1.2937228679656982,-0.0,-0.0,-1.0,0.0209100843220761,1.0,0.0
13.651272773742676,27.73193359375,-1.2244503498077393,-0.0,-0.0,-1.0,0.1295789484938247,1.0,0.0
15.164958953857422,27.761730194091797,-1.022658109664917,-0.0,-0.0,-1.0,0.1358402309477812,1.0,0.0
14.828338623046877,27.63589859008789,-1.0564143657684326,-0.0,-0.0,-1.0,0.1300391049135329,1.0,0.0
14.58066749572754,27.605609893798828,-1.0870957374572754,-0.0,-0.0,-1.0,0.2223939115151402,1.0,0.0
15.077198028564451,27.51806640625,-1.0136566162109375,-0.0,-0.0,-1.0,0.1976395632423155,1.0,0.0
14.655926704406738,27.26925277709961,-1.0502965450286863,-0.839792225416448,-0.4214026010893507,-0.342299380550446,0.1377438855438408,3.0,0.0
14.87235164642334,26.95503616333008,-0.9961071014404296,-0.0,-0.0,-1.0,0.1585102069751061,2.0,0.0
14.494842529296877,26.775209426879883,-1.0349407196044922,-0.0,-0.0,-1.0,0.2639094261987181,1.0,0.0
14.524083137512209,26.545183181762695,-1.013972282409668,0.520783931748229,-0.3345289598539172,-0.7854135671427585,0.2001649375107111,3.0,0.0
14.414440155029297,26.512866973876953,-1.027249097824097,-0.0,-0.0,-1.0,0.2175856713566141,1.0,0.0
13.274591445922852,26.352811813354492,-1.183361291885376,-0.0,-0.0,-1.0,0.0523574100391703,2.0,0.0
14.555194854736328,26.11177444458008,-0.9787566661834716,-0.0,-0.0,-1.0,0.1639088019154241,2.0,0.0
14.396857261657717,26.083993911743164,-0.999842643737793,0.482226531303187,-0.7017069036699032,-0.5244663896278707,0.1802850905666894,3.0,0.0
13.50904655456543,25.862369537353516,-1.1176822185516355,-0.4531223342153608,-0.4374322155425987,-0.7767452652193744,0.2219325102885429,3.0,0.0
13.212034225463867,25.692150115966797,-1.153125286102295,-0.0,-0.0,-1.0,0.1121355602363879,2.0,0.0
14.069168090820312,28.05062484741211,-0.6165215969085693,-0.0,-0.0,-1.0,0.2581880210117083,2.0,0.0
14.012929916381836,27.3367977142334,-0.5849272012710571,-0.0,-0.0,-1.0,0.1994320309187356,1.0,0.0
13.258325576782228,27.501211166381836,-0.679631233215332,-0.0,-0.0,-1.0,0.0900899422389874,2.0,0.0
13.980032920837402,27.25606155395508,-0.5845770835876465,-0.1480900860385341,0.4181523550382435,-0.8962242656796738,0.246597339449303,5.0,0.0
13.877720832824709,27.207260131835938,-0.593833327293396,-0.0,-0.0,-1.0,0.1484717985015602,2.0,0.0
13.453323364257812,26.05885124206543,-0.5922424793243408,-0.0,-0.0,-1.0,0.1673859553681577,2.0,0.0
13.049065589904783,26.006622314453125,-0.6399822235107422,-0.0,-0.0,-1.0,0.187747873129499,2.0,0.0
14.747523307800291,26.046789169311523,-0.9464666843414308,-0.0,-0.0,-1.0,0.1496622631168495,1.0,0.0
14.44663429260254,25.94395446777344,-0.9830825328826904,-0.0,-0.0,-1.0,0.1127502754907273,1.0,0.0
12.993239402770996,25.8375244140625,-0.6405713558197021,-0.7201479822923572,-0.1111620038859401,-0.6848575709534857,0.205384292128767,8.0,0.0
12.788846969604492,25.820707321166992,-0.6655917167663574,-0.5134311144617438,-0.590790856769794,-0.6223782244421668,0.1436816773536237,3.0,0.0
13.536178588867188,25.831008911132812,-0.5729701519012451,0.865949538204013,0.2745384973275788,-0.4180430728637562,0.1682033724546847,3.0,0.0
14.779269218444824,28.09990501403809,-1.075100660324097,-0.0,-0.0,-1.0,0.1376909705846414,1.0,0.0
14.436366081237791,27.971742630004883,-1.0996708869934082,-0.0,-0.0,-1.0,0.1267107144847925,2.0,0.0
15.032129287719728,27.56498336791992,-0.9894390106201172,-0.0,-0.0,-1.0,0.1969628861959958,2.0,0.0
14.65267848968506,27.544389724731445,-1.030186653137207,-0.0,-0.0,-1.0,0.2314427771680212,1.0,0.0
14.371773719787598,27.341636657714844,-1.0418462753295898,-0.0,-0.0,-1.0,0.2616980942613457,1.0,0.0
14.484326362609863,27.292613983154297,-1.023625373840332,-0.0,-0.0,-1.0,0.245958416354857,1.0,0.0
13.786816596984863,26.975358963012695,-1.0765273571014404,-0.0,-0.0,-1.0,0.0814847164484148,1.0,0.0
13.14315700531006,26.35635757446289,-1.1023762226104736,-0.0,-0.0,-1.0,0.0521860363201787,1.0,0.0
13.433361053466797,25.870193481445312,-1.0220131874084473,-0.0,-0.0,-1.0,0.1745142074009756,2.0,0.0
13.145861625671388,25.879627227783203,-1.0613961219787598,0.5492180363146928,0.7859859840157668,-0.2838759967263875,0.1442040427333587,5.0,0.0
12.74404239654541,25.903675079345703,-1.1179251670837402,-0.8432092037918176,-0.3069521083158006,-0.44133733338712,0.1514807983762895,3.0,0.0
13.2024564743042,27.54131317138672,-0.6369147300720215,-0.3896422069670524,-0.918419191310798,-0.0684480794607484,0.1396950914787199,4.0,0.0
13.458813667297363,27.44242286682129,-0.6047282218933105,0.3391365358279967,-0.684818468572816,-0.644988430259155,0.0576702572237826,3.0,0.0
15.052316665649414,26.827146530151367,-0.9095797538757324,-0.0,-0.0,-1.0,0.1428469719068942,1.0,0.0
14.4645357131958,26.659460067749023,-0.962745189666748,-0.0,-0.0,-1.0,0.1973486244515148,2.0,0.0
14.287775993347168,26.48431396484375,-0.9674921035766602,-0.0,-0.0,-1.0,0.2053487456444901,1.0,0.0
14.568875312805176,26.31226348876953,-0.9164383411407472,-0.0,-0.0,-1.0,0.1330659404156529,1.0,0.0
14.417997360229492,26.118053436279297,-0.9165794849395752,-0.0,-0.0,-1.0,0.2043971886047613,2.0,0.0
14.019400596618652,25.79144287109375,-0.9378604888916016,-0.0,-0.0,-1.0,0.1401884822550058,2.0,0.0
13.69127368927002,25.78006172180176,-0.9800012111663818,-0.0,-0.0,-1.0,0.2477809412515645,1.0,0.0
14.00507926940918,27.234840393066406,-0.5368396043777466,0.1668293455810683,-0.6941355734694816,-0.7002455105869556,0.2431357146849231,5.0,0.0
13.85797119140625,27.1201171875,-0.542693018913269,-0.0,-0.0,-1.0,0.1017040492989977,2.0,0.0
13.29525661468506,26.07967758178711,-0.5295939445495605,0.3195262690432915,-0.2236285255381928,-0.9208111890919266,0.1869548857899211,4.0,0.0
13.113195419311523,25.98702621459961,-0.5432600975036621,-0.0,-0.0,-1.0,0.1877105778213589,2.0,0.0
14.539063453674316,28.066009521484375,-1.2024388313293457,-0.0,-0.0,-1.0,0.1700858570414694,1.0,0.0
13.844253540039062,27.892417907714844,-1.2547447681427002,-0.0,-0.0,-1.0,0.1902758549473974,2.0,0.0
14.62863540649414,27.646800994873047,-1.13936448097229,-0.0,-0.0,-1.0,0.2117898764433036,2.0,0.0
14.26479434967041,27.500469207763672,-1.160017013549805,-0.7753743134812857,-0.3679891300494829,-0.5132043200898152,0.157059771300416,3.0,0.0
14.44073486328125,27.402557373046875,-1.128645896911621,-0.0,-0.0,-1.0,0.2484749381554627,1.0,0.0
13.803959846496582,27.135459899902344,-1.1673202514648438,-0.0,-0.0,-1.0,0.1242327311421557,1.0,0.0
13.651930809020996,26.70429420471191,-1.1344757080078125,-0.0,-0.0,-1.0,0.0782715300567333,1.0,0.0
14.169557571411133,28.10744285583496,-0.7027194499969482,0.7826061561173397,0.4948057137553929,0.377749798202803,0.2407908570431901,7.0,0.0
13.239290237426758,27.505521774291992,-0.7282211780548096,-0.0,-0.0,-1.0,0.1227461291771851,1.0,0.0
15.203079223632812,27.79010009765625,-1.0991299152374268,-0.0,-0.0,-1.0,0.1229780649974815,1.0,0.0
14.913969993591309,27.60241317749023,-1.1038951873779297,-0.0,-0.0,-1.0,0.23522119007518,2.0,0.0
15.087193489074709,27.576709747314453,-1.0828046798706057,-0.0,-0.0,-1.0,0.2379783125736123,2.0,0.0
14.82939910888672,27.42707633972168,-1.0903170108795166,-0.0,-0.0,-1.0,0.1965531362881682,1.0,0.0
14.864818572998049,26.943119049072266,-1.0252420902252195,-0.0,-0.0,-1.0,0.1585102069751061,2.0,0.0
14.541155815124512,26.80513572692871,-1.0437543392181396,-0.0,-0.0,-1.0,0.1878637462401489,1.0,0.0
13.28427505493164,26.288238525390625,-1.1322245597839355,-0.0,-0.0,-1.0,0.0324433744556951,1.0,0.0
14.518324851989746,26.53508758544922,-1.0134904384613037,0.520783931748229,-0.3345289598539172,-0.7854135671427585,0.1966083237468068,3.0,0.0
14.475581169128418,26.257301330566406,-0.985175609588623,-0.0,-0.0,-1.0,0.1736230453207279,2.0,0.0
13.535676956176758,25.89756774902344,-1.0577542781829834,-0.0,-0.0,-1.0,0.2316929581443693,2.0,0.0
13.177828788757324,25.91444206237793,-1.1050176620483398,-0.1974747004462901,-0.4874529338835285,-0.8505253552552025,0.2067462304967555,4.0,0.0
12.773476600646973,25.688140869140625,-1.133765697479248,-0.0,-0.0,-1.0,0.1581908531722737,1.0,0.0
14.8364839553833,26.05654525756836,-0.9196186065673828,-0.0,-0.0,-1.0,0.2355918560568324,1.0,0.0
14.529227256774902,26.09385681152344,-0.9595911502838136,-0.0,-0.0,-1.0,0.1674492257145946,2.0,0.0
14.079828262329102,25.8189697265625,-0.9816451072692872,-0.7166330783705542,0.6084060371016916,-0.3409972507269793,0.1579058360403717,3.0,0.0
13.770350456237791,25.79766845703125,-1.0174102783203125,-0.8027263392137385,-0.5727593670868409,0.166063637641692,0.1646547591160497,4.0,0.0
14.465868949890137,25.685508728027344,-0.9195806980133056,-0.0,-0.0,-1.0,0.1822239761568784,1.0,0.0
14.16910457611084,27.996091842651367,-0.6917741298675537,0.6026000406305193,-0.5582813288076198,0.5702588438041932,0.2285520714769903,5.0,0.0
14.23337745666504,27.415794372558594,-0.6299154758453369,-0.0,-0.0,-1.0,0.1644801502916066,2.0,0.0
14.096994400024414,27.300735473632812,-0.6309890747070312,-0.0,-0.0,-1.0,0.1565400569075599,1.0,0.0
14.01405429840088,27.204042434692383,-0.6293023824691772,-0.3886387619273119,0.9182689588202354,0.0757761967560188,0.2055297307917513,5.0,0.0
13.009098052978516,26.13785171508789,-0.6312965154647827,-0.0,-0.0,-1.0,0.083930318396767,2.0,0.0
13.550562858581545,25.994964599609375,-0.5648156404495239,-0.0,-0.0,-1.0,0.0962181074765792,2.0,0.0
13.14794635772705,26.000324249267575,-0.6058220863342285,-0.0810529634264776,-0.0320152918594959,-0.9961954819245756,0.2019630768112943,5.0,0.0
12.917524337768556,25.839786529541016,-0.6162965297698975,-0.0,-0.0,-1.0,0.1019206763427903,2.0,0.0
14.470866203308104,28.09766387939453,-1.3234084844589231,-0.0,-0.0,-1.0,0.2381222205367719,1.0,0.0
14.12704086303711,27.60217666625977,-1.2684952020645142,-0.0,-0.0,-1.0,0.1285826778076474,1.0,0.0
14.968400955200195,27.641551971435547,-1.2161861658096311,-0.0,-0.0,-1.0,0.237005986091433,1.0,0.0
14.545326232910156,27.342529296875,-1.196680188179016,-0.0,-0.0,-1.0,0.1933877360363894,2.0,0.0
14.333248138427734,27.48038673400879,-1.2339812517166138,-0.0,-0.0,-1.0,0.2189742180946289,1.0,0.0
13.982073783874512,27.162052154541016,-1.211051344871521,-0.0,-0.0,-1.0,0.1527010154658374,1.0,0.0
14.81080150604248,27.205978393554688,-1.155955195426941,-0.777866174318585,-0.359474151932961,-0.5154634312374134,0.1489765090402739,4.0,0.0
13.714661598205566,26.69607162475586,-1.162345051765442,-0.0,-0.0,-1.0,0.0873948528688178,2.0,0.0
13.368562698364258,26.332061767578125,-1.1396785974502563,-0.0,-0.0,-1.0,0.0456296382473778,1.0,0.0
14.285229682922363,28.084688186645508,-0.7957907915115356,-0.0,-0.0,-1.0,0.1720832777342563,1.0,0.0
13.249269485473633,27.526073455810547,-0.7834206819534302,-0.0,-0.0,-1.0,0.1251985413103495,2.0,0.0
14.252225875854492,27.899688720703125,-0.7733203172683716,0.2635036406911792,0.7595715441572862,-0.5946569604814269,0.2070630430457725,3.0,0.0
14.870529174804688,27.028404235839844,-1.1232503652572632,-0.0,-0.0,-1.0,0.1559204595501375,1.0,0.0
13.50879955291748,25.885150909423828,-1.0625442266464231,-0.0,-0.0,-1.0,0.2173561601350575,2.0,0.0
13.199996948242188,25.87421417236328,-1.0906928777694702,-0.7029911091079754,-0.2800250217338059,-0.6537503252145423,0.2074097977447354,7.0,0.0
14.801750183105469,26.081369400024418,-0.9792782068252563,-0.0,-0.0,-1.0,0.203774944559173,1.0,0.0
14.296515464782717,26.068275451660156,-1.0186997652053833,-0.0,-0.0,-1.0,0.0939091936373886,2.0,0.0
14.085786819458008,25.81591033935547,-0.9996260404586792,-0.0,-0.0,-1.0,0.1356359367479462,2.0,0.0
13.787850379943848,25.77427673339844,-1.0206423997879028,-0.8027263392137385,-0.5727593670868409,0.166063637641692,0.1753546725401601,4.0,0.0
14.137834548950195,27.185211181640625,-0.687949538230896,0.5663820743094276,0.1725193655828465,-0.8058836233600002,0.2524324093703735,7.0,0.0
13.18087100982666,26.025325775146484,-0.6107441186904907,0.1256342668850294,-0.3207215360992042,-0.9388044137446458,0.1592604571478741,4.0,0.0
13.565316200256348,25.91342544555664,-0.5703569650650024,-0.0,-0.0,-1.0,0.2146485819953602,1.0,0.0
13.095155715942385,25.8270320892334,-0.5946661233901978,-0.0750899647654959,-0.9968837292425888,0.0241728683218539,0.1570046688650815,3.0,0.0
14.03652000427246,28.1368350982666,-1.337083101272583,-0.0,-0.0,-1.0,0.1352207187174899,1.0,0.0
13.960262298583984,27.855491638183594,-1.3019273281097412,-0.0,-0.0,-1.0,0.1396119080868174,1.0,0.0
14.157333374023438,27.72967529296875,-1.2673020362854004,-0.0,-0.0,-1.0,0.0921381072506668,1.0,0.0
14.589682579040527,27.79596710205078,-1.243129014968872,-0.0,-0.0,-1.0,0.1532448576854123,1.0,0.0
14.236284255981444,27.496654510498047,-1.2266337871551514,-0.0,-0.0,-1.0,0.1969943946657888,2.0,0.0
13.804866790771484,26.689937591552734,-1.1487164497375488,-0.0,-0.0,-1.0,0.0932774449788857,1.0,0.0
13.338730812072754,26.371337890625,-1.1499550342559814,-0.0,-0.0,-1.0,0.0512367879913846,2.0,0.0
12.7699556350708,25.87002182006836,-1.1440284252166748,-0.0,-0.0,-1.0,0.1341046626916621,2.0,0.0
14.913188934326172,27.523597717285156,-1.177835464477539,-0.0,-0.0,-1.0,0.2839683714822225,2.0,0.0
14.79811668395996,27.169811248779297,-1.133415460586548,-0.0,-0.0,-1.0,0.172860061292421,2.0,0.0
14.533977508544922,26.814857482910156,-1.102302074432373,-0.0,-0.0,-1.0,0.1439361334240485,2.0,0.0
13.218783378601074,25.90492248535156,-1.1003544330596924,0.2025758837100425,0.281771309092828,-0.937852835316506,0.1945246428590734,6.0,0.0
13.231308937072754,27.450931549072266,-0.7618987560272217,-0.0,-0.0,-1.0,0.1096080232324324,2.0,0.0
14.25937843322754,27.918655395507812,-0.7459242343902588,0.3498329379866234,-0.849191064430622,-0.3955900044121879,0.19288360813958,4.0,0.0
14.435052871704102,27.37066650390625,-0.6708636283874512,-0.0,-0.0,-1.0,0.1453134482902301,1.0,0.0
14.19609546661377,27.23697280883789,-0.6708260774612427,-0.0,-0.0,-1.0,0.1528160885377494,1.0,0.0
13.97914695739746,27.06778335571289,-0.6660559177398682,-0.0,-0.0,-1.0,0.247878169176321,2.0,0.0
13.254389762878418,25.802492141723633,-1.0832433700561523,-0.0,-0.0,-1.0,0.2022241926216674,2.0,0.0
14.544029235839844,26.705516815185547,-1.0855381488800049,-0.0,-0.0,-1.0,0.1993974624878173,1.0,0.0
14.604461669921877,26.515810012817383,-1.0528905391693115,-0.0,-0.0,-1.0,0.1792261499762104,1.0,0.0
14.26125144958496,26.014781951904297,-1.0120453834533691,-0.0344948068774728,0.6017156297021907,-0.7979651679557085,0.059995852359987,3.0,0.0
13.91620635986328,25.749143600463867,-1.008507490158081,-0.0,-0.0,-1.0,0.0684187425045061,1.0,0.0
13.639029502868652,25.6876220703125,-1.0280637741088867,-0.5661099990497493,-0.4488758780131288,-0.691397074851952,0.1362845763515984,3.0,0.0
14.161405563354492,25.834434509277344,-0.9962968826293944,-0.0,-0.0,-1.0,0.2541706451225034,2.0,0.0
14.132725715637209,25.75420379638672,-0.9879992008209229,-0.0,-0.0,-1.0,0.1574345387336413,1.0,0.0
14.43610954284668,27.26999855041504,-0.6590684652328491,-0.0,-0.0,-1.0,0.1281171103450409,1.0,0.0
14.070493698120115,27.06006622314453,-0.6589388847351074,-0.0,-0.0,-1.0,0.1599846217497064,2.0,0.0
13.13718032836914,26.0306339263916,-0.6179563999176025,-0.0053982181183831,-0.3946639910431418,-0.9188096611459012,0.2019630768112943,4.0,0.0
13.551591873168944,25.966632843017575,-0.5775578022003174,-0.0,-0.0,-1.0,0.1576237440567959,2.0,0.0
13.264432907104492,25.980926513671875,-0.6024379730224609,-0.0,-0.0,-1.0,0.1124470808549424,1.0,0.0
13.051959991455078,25.83004379272461,-0.6046462059020996,-0.0,-0.0,-1.0,0.1753544541750046,2.0,0.0
13.395282745361328,26.25867462158203,-1.2439544200897217,-0.0,-0.0,-1.0,0.0346025921177996,1.0,0.0
14.638063430786133,27.290367126464844,-1.341675043106079,-0.0,-0.0,-1.0,0.1218952736865361,1.0,0.0
14.378229141235352,27.186351776123047,-1.336940050125122,-0.0,-0.0,-1.0,0.1391942327134561,1.0,0.0
13.975541114807127,26.65059280395508,-1.2697155475616455,-0.0,-0.0,-1.0,0.0288973922079089,2.0,0.0
13.567506790161133,26.169490814208984,-1.2176506519317627,-0.0,-0.0,-1.0,0.0415506103375438,1.0,0.0
13.394672393798828,25.851709365844727,-1.1793742179870603,0.6514156055420285,-0.7574154998570836,-0.044491228714844,0.1687895118710801,3.0,0.0
13.13620662689209,25.715858459472656,-1.17751145362854,-0.0,-0.0,-1.0,0.1133144366733493,1.0,0.0
15.084793090820312,27.540531158447266,-1.3650941848754885,-0.0,-0.0,-1.0,0.1169893946095401,1.0,0.0
14.907341003417969,27.259876251220703,-1.3237879276275637,-0.0,-0.0,-1.0,0.0920634387316215,1.0,0.0
14.767248153686523,27.086143493652344,-1.300213098526001,-0.0,-0.0,-1.0,0.2029364102341212,1.0,0.0
14.177921295166016,27.79318618774414,-0.8963396549224854,-0.0,-0.0,-1.0,0.2157363872542393,1.0,0.0
14.00545883178711,27.718660354614254,-0.8922853469848633,-0.0,-0.0,-1.0,0.1021495568093661,1.0,0.0
14.26465892791748,27.225963592529297,-0.8147928714752197,-0.0,-0.0,-1.0,0.1766633855726492,1.0,0.0
13.97760009765625,26.999755859375,-0.7951834201812744,-0.0,-0.0,-1.0,0.1685400161718997,1.0,0.0
14.563404083251951,27.37078285217285,-0.824303150177002,-0.9957789524628888,-0.090695867082679,-0.0140903344897406,0.2588343561925336,3.0,0.0
14.460780143737791,27.23573303222656,-0.8090574741363525,-0.1441007959257194,-0.9751717917111656,-0.1681515306632956,0.2056964656919171,3.0,0.0
14.007696151733398,25.73561668395996,-1.1177327632904053,-0.0,-0.0,-1.0,0.1354824907002204,2.0,0.0
13.943161010742188,25.657913208007812,-1.1095259189605713,-0.0,-0.0,-1.0,0.0694901600758124,1.0,0.0
15.18085479736328,26.135234832763672,-1.1164581775665283,-0.0,-0.0,-1.0,0.1823304833982331,1.0,0.0
12.953775405883787,25.775306701660156,-0.6868062019348145,-0.0,-0.0,-1.0,0.149954261481858,1.0,0.0
12.722187995910645,25.644990921020508,-0.6844905614852905,-0.0,-0.0,-1.0,0.1529882364495914,1.0,0.0
14.32392406463623,26.718542098999023,-0.742943525314331,-0.0,-0.0,-1.0,0.243572222686683,2.0,0.0
13.459712982177734,25.69268035888672,-0.6477563381195068,0.6746619310058305,0.6775215930063728,-0.2929091495013275,0.229003492784157,3.0,0.0
13.29469394683838,25.726261138916016,-0.6610832214355469,-0.0,-0.0,-1.0,0.1566848634674492,1.0,0.0
14.388287544250488,26.669166564941406,-0.7336430549621582,-0.0,-0.0,-1.0,0.1987600314826309,1.0,0.0
13.70038890838623,26.35126495361328,-1.228385329246521,-0.0,-0.0,-1.0,0.0289602385131878,1.0,0.0
13.499791145324709,26.126300811767575,-1.19762122631073,-0.0,-0.0,-1.0,0.0477660375154877,2.0,0.0
13.217120170593262,25.696754455566406,-1.1375635862350464,-0.0,-0.0,-1.0,0.1493191866160266,2.0,0.0
13.814983367919922,26.023025512695312,-1.1683405637741089,-0.0,-0.0,-1.0,0.177578134071997,1.0,0.0
15.152531623840332,27.011144638061523,-1.3058863878250122,-0.0,-0.0,-1.0,0.1295710663277192,1.0,0.0
14.81802749633789,26.49169921875,-1.2200886011123655,-0.0,-0.0,-1.0,0.1278007299034578,1.0,0.0
13.060369491577148,27.393001556396484,-0.8495515584945679,-0.0,-0.0,-1.0,0.1644120779344212,1.0,0.0
13.180681228637695,27.285858154296875,-0.8323684930801392,-0.0,-0.0,-1.0,0.1564020156095141,1.0,0.0
14.105073928833008,27.58266830444336,-0.8600443601608276,-0.0,-0.0,-1.0,0.1385712258162024,1.0,0.0
14.41528034210205,27.29084014892578,-0.8152042627334595,-0.0,-0.0,-1.0,0.1911981561593822,2.0,0.0
13.961173057556152,26.947803497314453,-0.7718764543533325,-0.0,-0.0,-1.0,0.1704113549379955,1.0,0.0
14.56552791595459,27.347103118896484,-0.8219763040542603,-0.9957789524628888,-0.090695867082679,-0.0140903344897406,0.1916722282377805,3.0,0.0
13.501277923583984,25.65581512451172,-1.1185511350631714,-0.0,-0.0,-1.0,0.1371468882913312,1.0,0.0
13.98081874847412,25.711183547973633,-1.1093555688858032,-0.0,-0.0,-1.0,0.1022926006770511,2.0,0.0
12.968339920043944,25.82001495361328,-0.6377503871917725,0.1727356446542734,-0.5298384237026283,-0.8303214087533736,0.1886097977047838,6.0,0.0
12.76333999633789,25.665088653564453,-0.6229697465896606,-0.0,-0.0,-1.0,0.0945871404915632,1.0,0.0
13.376260757446287,25.681621551513672,-0.6083716154098511,-0.0,-0.0,-1.0,0.1980378882788593,2.0,0.0
14.313139915466309,26.69248962402344,-0.731009840965271,-0.0,-0.0,-1.0,0.1566806337087648,2.0,0.0
14.222549438476562,26.642433166503903,-0.7250975370407104,-0.0,-0.0,-1.0,0.1335543397205154,1.0,0.0
13.960102081298828,26.304615020751953,-0.6817103624343872,-0.0,-0.0,-1.0,0.154145328958239,1.0,0.0
12.735126495361328,27.719295501708984,-0.9825782775878906,-0.0,-0.0,-1.0,0.0836408931879028,1.0,0.0
13.02529239654541,27.30548858642578,-0.9250364303588868,-0.0,-0.0,-1.0,0.140733108374557,1.0,0.0
13.718538284301758,25.888580322265625,-1.2669553756713867,-0.0,-0.0,-1.0,0.1271175035737262,2.0,0.0
13.62815284729004,25.783885955810547,-1.2483453750610352,-0.0,-0.0,-1.0,0.1846651829717631,1.0,0.0
14.062173843383787,25.81450843811035,-1.2536559104919434,-0.0,-0.0,-1.0,0.2270195122959886,1.0,0.0
12.756649017333984,25.685596466064453,-0.6885743141174316,-0.0,-0.0,-1.0,0.1757679871458248,1.0,0.0
13.715450286865234,27.13268661499023,-0.9096949100494384,-0.0,-0.0,-1.0,0.1346729492988302,1.0,0.0
13.03521728515625,25.83789825439453,-0.7112671136856079,-0.0978224522335821,0.1755989623175186,-0.9795895937952892,0.1853915145664478,8.0,0.0
13.004652976989746,25.724334716796875,-0.694860577583313,-0.0,-0.0,-1.0,0.1906683602270348,1.0,0.0
14.545467376708984,27.447856903076172,-0.9767248630523682,-0.6718195298992334,-0.541121786240153,0.5058119529056618,0.1783455382711226,3.0,0.0
14.350646018981934,27.256179809570312,-0.9421389102935792,-0.0,-0.0,-1.0,0.2399121368133665,1.0,0.0
14.139986038208008,26.821517944335938,-0.8712971210479736,-0.0,-0.0,-1.0,0.1583169005349236,1.0,0.0
13.74126148223877,26.39463806152344,-0.7998602390289307,-0.0,-0.0,-1.0,0.074863814669759,1.0,0.0
13.441780090332031,25.671680450439453,-0.6899298429489136,-0.0,-0.0,-1.0,0.2102561884698576,2.0,0.0
14.569933891296388,26.98459243774414,-0.9062156677246094,-0.0,-0.0,-1.0,0.1825272825659865,1.0,0.0
14.299083709716797,26.50037384033203,-0.8259131908416748,-0.0,-0.0,-1.0,0.149560195105175,1.0,0.0
14.22332000732422,26.473854064941406,-0.8203051090240479,-0.0,-0.0,-1.0,0.1451674981007152,1.0,0.0
14.003166198730469,26.06231689453125,-0.7544456720352173,-0.0,-0.0,-1.0,0.1298008672420385,1.0,0.0
13.794496536254885,25.779617309570312,-0.9851772785186768,-0.8027263392137385,-0.5727593670868409,0.166063637641692,0.1630374840559795,4.0,0.0
14.20020580291748,25.87531280517578,-0.9999969005584716,-0.0,-0.0,-1.0,0.2518687406767108,1.0,0.0
14.306058883666992,26.007339477539062,-1.019594430923462,-0.0,-0.0,-1.0,0.1151232146937149,2.0,0.0
13.547892570495604,26.648685455322266,-1.111316442489624,-0.0,-0.0,-1.0,0.0607380720501725,1.0,0.0
14.237730026245115,26.428619384765625,-1.081040620803833,-0.0,-0.0,-1.0,0.1574363244278258,1.0,0.0
13.927695274353027,26.906414031982425,-1.149974346160889,-0.5013717294738325,0.2119706428388102,-0.8388652069664823,0.101229294064585,3.0,0.0
14.936789512634276,27.324508666992188,-1.2168046236038208,-0.0,-0.0,-1.0,0.1113590014691963,1.0,0.0
15.072290420532228,27.51083755493164,-1.2394152879714966,-0.0,-0.0,-1.0,0.1570863561128181,2.0,0.0
13.091540336608888,25.846359252929688,-0.7924767732620239,-0.0,-0.0,-1.0,0.1687498933256101,1.0,0.0
13.37517547607422,25.835302352905273,-0.7815791368484497,-0.0,-0.0,-1.0,0.1777880365464285,1.0,0.0
13.583009719848633,25.721454620361328,-0.7625519037246704,-0.0,-0.0,-1.0,0.2030322825181331,1.0,0.0
14.28951644897461,26.10977554321289,-0.8133249282836914,0.7130744053615081,-0.4430306153558708,-0.5433679842203898,0.1747347413036162,5.0,0.0
13.297402381896973,26.550073623657227,-0.8875370025634766,-0.0,-0.0,-1.0,0.0912008000076205,2.0,0.0
13.593217849731444,27.01983070373535,-0.932009220123291,-0.0,-0.0,-1.0,0.0856041280240775,1.0,0.0
14.463196754455566,26.769187927246097,-0.8826532363891602,-0.0,-0.0,-1.0,0.260386395764751,1.0,0.0
14.5413236618042,26.81348419189453,-0.6858844757080078,-0.0,-0.0,-1.0,0.2058722623672501,1.0,0.0
14.30046558380127,27.26952362060547,-0.7277494668960571,-0.0,-0.0,-1.0,0.1747238235174202,1.0,0.0
14.546411514282228,27.250484466552734,-0.7005002498626709,-0.0,-0.0,-1.0,0.2282749031761752,1.0,0.0
14.67606258392334,27.391525268554688,-0.6913005113601685,-0.0,-0.0,-1.0,0.1703448824463377,1.0,0.0
14.564539909362791,27.58807373046875,-1.282313346862793,-0.0,-0.0,-1.0,0.1555385930412184,1.0,0.0
14.901721000671388,27.39834976196289,-1.249833106994629,-0.0,-0.0,-1.0,0.1462590811601437,1.0,0.0
15.046643257141112,27.396484375,-1.245612859725952,-0.0,-0.0,-1.0,0.21376089368564,2.0,0.0
14.380268096923828,27.961502075195312,-1.3328063488006592,-0.0,-0.0,-1.0,0.2279576159787598,1.0,0.0
12.91880989074707,25.63957977294922,-1.1140216588974,-0.0,-0.0,-1.0,0.1139248382639076,1.0,0.0
14.389745712280272,27.408023834228516,-1.1724406480789185,-0.0,-0.0,-1.0,0.1857010925897914,1.0,0.0
13.12921905517578,26.38257598876953,-1.0498003959655762,-0.0,-0.0,-1.0,0.0556818056517411,1.0,0.0
13.16484832763672,25.845535278320312,-1.017076015472412,-0.9294283741527596,-0.1650348228498853,-0.3300400044944022,0.1224710411678066,3.0,0.0
13.03791046142578,25.693174362182617,-1.0113234519958496,-0.0,-0.0,-1.0,0.1495810458949067,1.0,0.0
13.167646408081056,27.749126434326172,-0.6241192817687988,-0.0,-0.0,-1.0,0.1547050088811739,1.0,0.0
13.923883438110352,27.162105560302734,-0.5881801843643188,0.7828399101836439,-0.3071437078928423,-0.541132532495969,0.1983757933051584,4.0,0.0
14.329679489135742,27.278186798095703,-0.6374059915542603,-0.0,-0.0,-1.0,0.1242726809354668,1.0,0.0
13.806888580322266,25.91736221313477,-0.6356885433197021,-0.0,-0.0,-1.0,0.1926066151449547,1.0,0.0
13.335271835327148,26.007953643798828,-0.6646559238433838,-0.0,-0.0,-1.0,0.2240329509207956,2.0,0.0
13.503223419189451,26.02013397216797,-0.9376646280288696,-0.0,-0.0,-1.0,0.1891410397984099,1.0,0.0
13.406187057495115,25.934314727783203,-0.9378398656845092,-0.0,-0.0,-1.0,0.2371747426694946,2.0,0.0
13.74156379699707,25.89728546142578,-0.9225972890853882,-0.0,-0.0,-1.0,0.1606080876230778,1.0,0.0
13.348112106323242,25.79236221313477,-0.933998703956604,-0.0,-0.0,-1.0,0.2055898020113029,1.0,0.0
13.04888916015625,25.74297142028809,-0.8282884359359741,-0.0,-0.0,-1.0,0.1715414662633824,1.0,0.0
13.445995330810549,25.83399772644043,-0.8746544122695923,-0.0,-0.0,-1.0,0.1267925714570825,1.0,0.0
13.807220458984377,26.736345291137695,-1.0824942588806152,-0.0,-0.0,-1.0,0.0661030015832461,1.0,0.0
13.493034362792969,26.49281120300293,-1.1067962646484375,-0.0,-0.0,-1.0,0.0339106005174922,1.0,0.0
13.407550811767578,25.86958122253418,-1.103245735168457,-0.0,-0.0,-1.0,0.1816833466849799,2.0,0.0
13.888402938842772,27.11341094970703,-1.2156163454055786,-0.0,-0.0,-1.0,0.1326965871589466,1.0,0.0
15.169403076171877,26.778059005737305,-1.0576130151748655,-0.0,-0.0,-1.0,0.148787424419248,1.0,0.0
14.23069190979004,26.38254737854004,-0.9845105409622192,-0.0,-0.0,-1.0,0.2491453365746891,1.0,0.0
15.194957733154297,26.49515151977539,-1.2361764907836914,-0.0,-0.0,-1.0,0.0915291391120426,1.0,0.0
14.688421249389648,25.69574737548828,-1.194650173187256,-0.0,-0.0,-1.0,0.201686568849246,1.0,0.0
14.554546356201172,25.652090072631836,-1.1944804191589355,-0.0253714198824497,0.6585197393596305,-0.7521356552689634,0.1305547805959786,3.0,0.0
14.014341354370115,27.778392791748047,-0.7684764862060547,-0.0,-0.0,-1.0,0.2046395756584058,1.0,0.0
14.314781188964844,26.762298583984375,-0.7162008285522461,-0.0,-0.0,-1.0,0.2125720487311539,1.0,0.0
13.918214797973633,26.951152801513672,-0.7360700368881226,-0.0,-0.0,-1.0,0.1819465982411341,1.0,0.0
13.301204681396484,25.64104652404785,-0.6988240480422974,-0.0,-0.0,-1.0,0.1880811679928138,1.0,0.0
13.053970336914062,25.79864501953125,-0.7129812240600586,-0.7452637261622197,-0.3197897157025472,-0.5850782137438447,0.2631370525957133,4.0,0.0
14.279729843139648,28.015668869018555,-0.7568956613540649,-0.0,-0.0,-1.0,0.1836164360839502,1.0,0.0
14.3253173828125,27.340497970581055,-0.7335708141326904,0.5532382783620569,-0.0390264714907133,-0.8321083714745161,0.2695899507282799,5.0,0.0
14.23383331298828,27.814809799194336,-0.7533751726150513,-0.0,-0.0,-1.0,0.1439904152053238,1.0,0.0
14.078582763671877,26.980329513549805,-0.7366364002227783,-0.0,-0.0,-1.0,0.1470808102412143,2.0,0.0
13.574111938476562,25.78301239013672,-0.7284029722213745,-0.0119478143099662,-0.7603253726331116,-0.6494325041630841,0.2541960079257316,4.0,0.0
13.47300148010254,25.709001541137695,-0.7318452596664429,0.3683713247777508,-0.92597651992443,-0.0828857745944785,0.1744984376292868,5.0,0.0
13.01583480834961,25.77326202392578,-0.7597389221191406,-0.0,-0.0,-1.0,0.1718332898111831,2.0,0.0
14.258255004882812,25.76423454284668,-1.3489686250686646,-0.0,-0.0,-1.0,0.2441090286309344,1.0,0.0
14.14736270904541,25.77779769897461,-1.38852858543396,-0.0,-0.0,-1.0,0.2018843760349243,1.0,0.0
13.949329376220703,25.785560607910156,-1.3892168998718262,-0.0,-0.0,-1.0,0.1830224958979666,1.0,0.0
15.175280570983888,27.40913963317871,-1.2957711219787598,-0.0,-0.0,-1.0,0.1635092722257617,1.0,0.0
13.87270164489746,26.8207950592041,-1.1722135543823242,-0.0,-0.0,-1.0,0.0767918201125542,2.0,0.0
13.651442527770996,26.572179794311523,-1.1360971927642822,-0.0,-0.0,-1.0,0.0866692826200155,1.0,0.0
13.676414489746094,25.66562271118164,-1.044391632080078,-0.1294415742762857,-0.2326572422841904,-0.9639063680988896,0.1008884401404118,4.0,0.0
13.201229095458984,26.361095428466797,-1.0929296016693115,-0.0,-0.0,-1.0,0.0677764615159488,1.0,0.0
13.251543998718262,25.895666122436523,-1.0476799011230469,-0.2976378525728517,-0.7940308243214848,-0.5300252434961609,0.229491109266809,3.0,0.0
12.815299987792969,25.886228561401367,-1.0259747505187988,-0.0,-0.0,-1.0,0.1750244978771075,2.0,0.0
14.19467544555664,26.358863830566406,-1.2871625423431396,-0.0,-0.0,-1.0,0.1185712348665751,2.0,0.0
14.341158866882324,25.66662979125977,-1.2173738479614258,-0.0,-0.0,-1.0,0.1426899602176778,1.0,0.0
13.888575553894045,26.23865127563477,-1.2565224170684814,-0.0,-0.0,-1.0,0.0402754222450493,1.0,0.0
13.683636665344238,25.762542724609375,-1.1916940212249756,-0.3568765623052602,-0.0408863911174777,-0.9332563540092124,0.22157069188545,3.0,0.0
13.34664249420166,25.73788070678711,-1.1704747676849363,-0.0,-0.0,-1.0,0.1292300735729678,2.0,0.0
14.354768753051758,27.61573600769043,-0.7688201665878296,-0.0,-0.0,-1.0,0.1408648209650457,1.0,0.0
14.328103065490724,27.95374298095703,-0.7881196737289429,-0.0,-0.0,-1.0,0.1530256849265931,2.0,0.0
14.069878578186035,27.023258209228516,-0.7481993436813354,-0.3096489491140899,-0.3053341665907522,-0.9004935174807592,0.214152661424941,3.0,0.0
13.547412872314451,25.711748123168945,-0.698694109916687,-0.8421942760893751,0.0063923243363181,-0.539136290293904,0.1352520259192865,3.0,0.0
13.457598686218262,25.88638687133789,-0.7116826772689819,0.5142351310041801,-0.8118547676889337,-0.2765032842876576,0.2267935682759177,3.0,0.0
13.060348510742188,25.823089599609375,-0.7243694067001343,-0.7452637261622197,-0.3197897157025472,-0.5850782137438447,0.2385761130023028,4.0,0.0
14.588394165039062,27.27042579650879,-0.9518656730651855,-0.0,-0.0,-1.0,0.2304063424616866,1.0,0.0
13.214588165283203,25.853734970092773,-0.9667091369628906,-0.8505949506261656,0.5252013141306656,-0.0255305621695396,0.1984927935903238,4.0,0.0
14.268854141235352,27.428451538085938,-0.6465730667114258,0.3029158123822822,-0.949929124838314,-0.0766594312051495,0.1865902456724404,3.0,0.0
13.985393524169922,27.055683135986328,-0.6426864862442017,-0.0,-0.0,-1.0,0.1894568454655694,2.0,0.0
14.133933067321776,27.960968017578125,-0.6780524253845215,0.8282340305056797,-0.2308389063484449,-0.5106288182507632,0.1817640344831712,4.0,0.0
13.459749221801758,25.750642776489254,-0.607140064239502,0.291628654066338,-0.955641272998602,-0.0412611859871716,0.187074947628275,3.0,0.0
12.956750869750977,25.81482696533203,-0.634661078453064,-0.4248405295165173,-0.1208980667287087,-0.8971589502097084,0.1891096404265775,7.0,0.0
13.081735610961914,26.01066780090332,-0.6376622915267944,0.1365349583672214,-0.9580029311382384,-0.2521677796115219,0.2405402531873786,3.0,0.0
12.801554679870604,25.779191970825195,-0.6405986547470093,-0.0,-0.0,-1.0,0.1295938252690873,2.0,0.0
15.007936477661133,27.40442657470703,-1.2717996835708618,-0.0,-0.0,-1.0,0.176658182037206,2.0,0.0
14.102688789367676,25.704404830932617,-1.2167891263961792,-0.0,-0.0,-1.0,0.1557937819667019,1.0,0.0
13.977120399475098,26.15374183654785,-1.2548171281814575,-0.0,-0.0,-1.0,0.048209559377562,2.0,0.0
14.008804321289062,26.30501365661621,-1.2627586126327517,-0.0,-0.0,-1.0,0.0277394937172098,1.0,0.0
15.08750057220459,27.626766204833984,-1.2935748100280762,-0.0,-0.0,-1.0,0.1798077399834104,1.0,0.0
15.145774841308594,27.73236846923828,-1.2966229915618896,-0.0,-0.0,-1.0,0.1580891775107684,1.0,0.0
13.949607849121094,26.27861785888672,-1.2855174541473389,-0.0,-0.0,-1.0,0.0335384489405004,2.0,0.0
13.797430992126465,25.967437744140625,-1.276097059249878,-0.0,-0.0,-1.0,0.0523367980537822,2.0,0.0
14.484638214111328,27.255828857421875,-0.9055359363555908,-0.0,-0.0,-1.0,0.2800614475835606,1.0,0.0
14.26437282562256,26.08649444580078,-0.8447003364562988,0.7243026205482783,-0.4326010641945139,-0.5368817682923035,0.2176665275649844,4.0,0.0
14.296504974365234,26.216644287109375,-0.8509876728057861,-0.0,-0.0,-1.0,0.1775647979039996,2.0,0.0
14.355775833129885,26.698028564453125,-0.8777110576629639,-0.0,-0.0,-1.0,0.1714442302744014,1.0,0.0
14.138484954833984,26.131906509399418,-0.8546547889709473,-0.0,-0.0,-1.0,0.1469314363692007,1.0,0.0
14.045784950256348,26.886882781982425,-0.9068915843963624,-0.0,-0.0,-1.0,0.2010880448108674,1.0,0.0
13.569190979003906,25.768640518188477,-0.8648486137390137,-0.0,-0.0,-1.0,0.2583885805604936,2.0,0.0
13.229167938232422,25.916828155517575,-0.8937070369720459,-0.0,-0.0,-1.0,0.1503793409617345,2.0,0.0
13.279325485229492,26.56728744506836,-0.9307405948638916,-0.0,-0.0,-1.0,0.0912008000076205,2.0,0.0
14.16174602508545,28.020383834838867,-0.8636698722839355,-0.0,-0.0,-1.0,0.1961594110003653,2.0,0.0
14.246642112731934,27.36321258544922,-0.8284094333648682,-0.0,-0.0,-1.0,0.1665616127052459,1.0,0.0
13.960687637329102,26.864896774291992,-0.8361704349517822,-0.0,-0.0,-1.0,0.190913796612492,2.0,0.0
14.007455825805664,26.963359832763672,-0.8355014324188232,-0.0,-0.0,-1.0,0.166143694959043,1.0,0.0
13.481449127197266,25.704076766967773,-0.8395626544952393,-0.0,-0.0,-1.0,0.1330927279300395,1.0,0.0
13.087651252746582,25.849655151367188,-0.885730504989624,-0.0,-0.0,-1.0,0.2407021847673105,1.0,0.0
12.929742813110352,25.780414581298828,-0.8996903896331787,-0.0,-0.0,-1.0,0.1794407487600079,1.0,0.0
15.170232772827148,27.191383361816406,-1.197447419166565,-0.0,-0.0,-1.0,0.1386371925472157,1.0,0.0
15.14465618133545,27.645782470703125,-1.234081149101257,-0.0,-0.0,-1.0,0.121110665774537,2.0,0.0
14.84751796722412,27.66653060913086,-1.2594412565231323,-0.0,-0.0,-1.0,0.2204941073275599,2.0,0.0
13.998146057128906,25.877426147460938,-1.1944860219955444,-0.0,-0.0,-1.0,0.2300463463049296,1.0,0.0
13.865138053894045,26.111658096313477,-1.222988247871399,-0.0,-0.0,-1.0,0.0480244060550653,1.0,0.0
13.87242317199707,26.517559051513672,-1.2525845766067505,-0.0,-0.0,-1.0,0.0287175110424678,1.0,0.0
14.756279945373535,27.21235084533691,-1.0134683847427368,-0.0,-0.0,-1.0,0.1150069844905853,2.0,0.0
15.040948867797852,27.576068878173828,-1.043716549873352,-0.0,-0.0,-1.0,0.2648445446758729,2.0,0.0
14.57932949066162,27.829673767089844,-1.079601168632507,-0.0,-0.0,-1.0,0.2169006834720359,1.0,0.0
13.234786033630373,25.946210861206055,-0.925275444984436,-0.0118094862830231,-0.7308930262220067,-0.6823898594306395,0.1370973651973047,3.0,0.0
13.347736358642578,26.698301315307617,-0.996501088142395,-0.0,-0.0,-1.0,0.0903838632698501,1.0,0.0
12.94972038269043,27.202796936035156,-1.0566869974136353,-0.0,-0.0,-1.0,0.1330372814598724,1.0,0.0
14.410358428955078,26.074108123779297,-0.907750964164734,-0.0,-0.0,-1.0,0.14515921828809,2.0,0.0
14.038735389709473,25.776765823364254,-0.8875256776809692,-0.0,-0.0,-1.0,0.1226143970829321,1.0,0.0
13.669732093811035,25.694276809692383,-0.8889304399490356,-0.5470340973250601,-0.4837980473519738,0.6831494314878509,0.158404189844607,3.0,0.0
13.658949851989746,25.864370346069336,-0.9060002565383912,0.0365788643997857,-0.755802573378177,-0.6537770696148248,0.229054154009466,4.0,0.0
13.40877914428711,25.76641845703125,-0.9029537439346312,-0.0,-0.0,-1.0,0.1966109682220796,2.0,0.0
13.8753023147583,25.739322662353516,-1.269022822380066,-0.0,-0.0,-1.0,0.1070200469779041,1.0,0.0
13.96386432647705,25.97718811035156,-1.292777419090271,-0.0,-0.0,-1.0,0.1233135251663371,1.0,0.0
14.137392044067385,27.93893814086914,-0.6956924200057983,0.4286266636499218,-0.5227518747363731,0.7368918921171165,0.2018417778526339,3.0,0.0
14.211215019226074,28.063148498535156,-0.7047502994537354,0.2700707677188424,-0.9018466041448658,0.3372454343888569,0.2566590087730743,9.0,0.0
14.274514198303224,27.353351593017575,-0.6433455944061279,-0.9652513951404554,-0.1503810889325417,-0.2137177397196299,0.1763302231531989,3.0,0.0
13.909225463867188,27.034011840820312,-0.6237268447875977,-0.0,-0.0,-1.0,0.1688529029726915,2.0,0.0
14.026904106140137,27.149494171142575,-0.6310914754867554,-0.456882337385361,-0.8532699695259416,-0.2513740020178853,0.2555049858693171,4.0,0.0
13.43620777130127,25.874027252197266,-0.5357526540756226,-0.0,-0.0,-1.0,0.0820986104768766,1.0,0.0
13.436264038085938,26.015716552734375,-0.5476671457290649,-0.0,-0.0,-1.0,0.1821573914476862,1.0,0.0
13.12813663482666,25.99797821044922,-0.5526856184005737,-0.0,-0.0,-1.0,0.2047522831932766,2.0,0.0
14.044153213500977,25.773216247558594,-1.380429744720459,-0.0,-0.0,-1.0,0.1770905202799229,1.0,0.0
14.511903762817385,26.72219467163086,-0.7384693622589111,-0.0,-0.0,-1.0,0.1938282808606531,2.0,0.0
14.6097993850708,27.298599243164062,-0.7907695770263672,-0.0,-0.0,-1.0,0.2350026569352216,1.0,0.0
14.745746612548828,27.37433624267578,-0.7943241596221924,-0.0,-0.0,-1.0,0.2087023102063395,2.0,0.0
14.119261741638184,26.39130401611328,-0.7183359861373901,-0.0,-0.0,-1.0,0.1910026770126926,2.0,0.0
14.380794525146484,26.728759765625,-0.7427997589111328,-0.0,-0.0,-1.0,0.2010562664454743,1.0,0.0
14.442754745483398,27.28803253173828,-0.7943482398986816,-0.0,-0.0,-1.0,0.1843129124113324,2.0,0.0
14.022632598876951,26.32947158813477,-0.7153327465057373,-0.0,-0.0,-1.0,0.2372309361960466,2.0,0.0
13.923543930053713,27.13825225830078,-0.7947478294372559,-0.0,-0.0,-1.0,0.1711239883925314,1.0,0.0
13.429482460021973,25.71087646484375,-0.675297737121582,0.906417947757335,0.2526656024082921,-0.3384768785944415,0.2696447355830542,5.0,0.0
13.53192901611328,25.821075439453125,-0.6824038028717041,-0.1990503385870296,-0.9715849180672028,-0.1280691598033476,0.256848776645547,4.0,0.0
13.107521057128906,25.825164794921875,-0.6960816383361816,-0.0,-0.0,-1.0,0.2053509370847051,1.0,0.0
13.193246841430664,27.438373565673828,-0.8444736003875732,-0.0,-0.0,-1.0,0.1574447833364739,1.0,0.0
12.859896659851074,25.772144317626953,-0.6990489959716797,-0.7362337655904577,0.6087806497010998,-0.2955435043339673,0.194467367785843,4.0,0.0
14.42530632019043,26.78842544555664,-0.7079691886901855,-0.0,-0.0,-1.0,0.215867592553692,1.0,0.0
14.518980979919434,27.480472564697266,-0.767212986946106,-0.0,-0.0,-1.0,0.2954548563950779,1.0,0.0
14.013200759887695,26.336742401123047,-0.6845598220825195,-0.0,-0.0,-1.0,0.2372309361960466,2.0,0.0
14.002970695495604,27.072959899902344,-0.7514737844467163,-0.0,-0.0,-1.0,0.2389661530540928,2.0,0.0
14.265153884887695,27.45855712890625,-0.7755881547927856,-0.0,-0.0,-1.0,0.1273470609867032,1.0,0.0
13.436240196228027,25.71329116821289,-0.6541471481323242,0.9036566650657952,0.3490906886609791,-0.2480732205869239,0.2506584258082586,5.0,0.0
13.534366607666016,25.81250762939453,-0.6585879325866699,0.0351081720862513,-0.9773563586775228,-0.2086671138569167,0.1965307086397265,5.0,0.0
13.047032356262209,25.89999008178711,-0.6882070302963257,-0.7467518093506256,-0.2492829076291083,-0.6166196292655176,0.187160366107863,4.0,0.0
13.163512229919434,27.485427856445312,-0.824478268623352,-0.0144288327114304,-0.3999136149075007,-0.916439255705582,0.1545480901117283,3.0,0.0
12.86674976348877,25.78557586669922,-0.6862994432449341,-0.6091277599678256,0.6869615857252589,-0.39629175082812,0.1755673700435868,3.0,0.0
15.007946014404297,26.8818416595459,-0.9278519153594972,-0.0,-0.0,-1.0,0.1420916758889481,2.0,0.0
14.828120231628418,27.04046630859375,-0.9553792476654052,-0.0,-0.0,-1.0,0.1673112449847179,2.0,0.0
14.909964561462402,27.542526245117188,-0.9939100742340088,-0.0,-0.0,-1.0,0.2050392948089823,1.0,0.0
14.974448204040527,27.83793830871582,-1.0155117511749268,-0.0,-0.0,-1.0,0.1661425006748034,1.0,0.0
14.455626487731934,26.637779235839844,-0.9479858875274658,-0.366139641796063,-0.4161500748171451,-0.8323225804549188,0.2212003064029305,3.0,0.0
14.58002758026123,27.17571449279785,-0.9859864711761476,-0.0,-0.0,-1.0,0.2492481773319331,1.0,0.0
14.44529628753662,27.384492874145508,-1.0145809650421145,-0.0,-0.0,-1.0,0.162482535576843,1.0,0.0
14.662236213684082,27.946020126342773,-1.0482618808746338,-0.0,-0.0,-1.0,0.1928397401892693,1.0,0.0
13.912022590637209,25.707237243652344,-0.9089815616607666,-0.0,-0.0,-1.0,0.056178128767201,1.0,0.0
14.131820678710938,25.96421813964844,-0.9141218662261964,-0.0,-0.0,-1.0,0.0892002429672737,1.0,0.0
14.332564353942873,27.30578231811523,-1.0161259174346924,-0.0,-0.0,-1.0,0.2117589080459122,1.0,0.0
13.635807991027832,25.70265769958496,-0.9303085803985596,-0.6182210775053559,-0.6292292446127726,-0.4710342419104541,0.1420019925229917,3.0,0.0
13.591132164001465,25.92193031311035,-0.9526686668395996,-0.0,-0.0,-1.0,0.1655419466289679,2.0,0.0
13.585041046142578,26.950927734375,-1.0421733856201172,-0.0,-0.0,-1.0,0.0559703064217242,1.0,0.0
13.226123809814451,25.89756965637207,-0.9794199466705322,-0.3323054454235433,-0.1809614980459866,-0.9256489762144248,0.2067266537668272,3.0,0.0
13.246780395507812,26.698699951171875,-1.046623945236206,-0.0,-0.0,-1.0,0.098587005586395,2.0,0.0
13.006314277648926,25.79513931274414,-0.9881656169891356,-0.0,-0.0,-1.0,0.1544601639407769,1.0,0.0
12.948468208312988,25.973453521728516,-1.0079631805419922,-0.0,-0.0,-1.0,0.2164966919391835,2.0,0.0
13.09633731842041,26.67917251586914,-1.0567309856414795,-0.0,-0.0,-1.0,0.0445955720517562,2.0,0.0
14.55728530883789,27.28583717346191,-0.888263463973999,-0.0,-0.0,-1.0,0.2824778479199133,1.0,0.0
14.63333225250244,27.540414810180664,-0.8992359638214111,-0.0,-0.0,-1.0,0.1542718362374109,2.0,0.0
14.254111289978027,26.1202392578125,-0.8350479602813721,0.5807283729108619,0.3462006373970479,-0.7368172606299209,0.2003574137056863,4.0,0.0
14.318456649780272,26.75453186035156,-0.8737533092498779,-0.0,-0.0,-1.0,0.2167496177143348,2.0,0.0
14.280155181884766,27.35957717895508,-0.9210503101348876,-0.0,-0.0,-1.0,0.1609919764648123,1.0,0.0
13.536033630371094,25.754562377929688,-0.8826367855072021,-0.064184582619589,-0.7208324322213203,0.6901311063934485,0.2511093289363859,3.0,0.0
13.425363540649414,26.694995880126953,-0.9596490859985352,-0.0,-0.0,-1.0,0.0694688202288187,1.0,0.0
13.594988822937012,27.23158836364746,-0.980419397354126,-0.0,-0.0,-1.0,0.133444126269307,2.0,0.0
13.084228515625,25.747756958007812,-0.9288313388824464,-0.0,-0.0,-1.0,0.2333921042067818,1.0,0.0
13.099801063537598,25.910173416137695,-0.9384033679962158,-0.0,-0.0,-1.0,0.1819845165585053,2.0,0.0
13.109532356262209,26.510658264160156,-0.9790079593658448,-0.0,-0.0,-1.0,0.0770672234920014,1.0,0.0
13.173169136047363,26.64342498779297,-0.9817583560943604,-0.0,-0.0,-1.0,0.0607004168910397,1.0,0.0
13.098649978637695,27.54594039916992,-1.0528233051300049,-0.0,-0.0,-1.0,0.2209139690592542,1.0,0.0
12.81003475189209,27.35713577270508,-1.068819284439087,-0.0,-0.0,-1.0,0.0860315070423133,1.0,0.0
15.096482276916504,27.723709106445312,-1.1497783660888672,-0.0,-0.0,-1.0,0.1904110941713927,1.0,0.0
14.777668952941896,26.857398986816406,-1.1226081848144531,-0.3644020791229694,0.2883075151862629,-0.8854885100428919,0.2265297537988059,3.0,0.0
14.88381290435791,27.489673614501953,-1.1583428382873535,-0.0,-0.0,-1.0,0.2396867974128389,2.0,0.0
14.763520240783691,27.882368087768555,-1.204744577407837,-0.0,-0.0,-1.0,0.1981424624933765,1.0,0.0
14.780355453491213,26.22198486328125,-1.0733895301818848,-0.0,-0.0,-1.0,0.2153844760732285,1.0,0.0
14.445474624633787,26.558208465576172,-1.1431207656860352,-0.0,-0.0,-1.0,0.1902358948064859,1.0,0.0
14.521930694580078,26.748687744140625,-1.1476178169250488,-0.0,-0.0,-1.0,0.177463615745786,1.0,0.0
14.38005256652832,27.241138458251953,-1.2040581703186035,-0.0,-0.0,-1.0,0.2030648744059403,1.0,0.0
14.491111755371094,27.670480728149418,-1.2230355739593506,-0.0,-0.0,-1.0,0.1259297252443091,1.0,0.0
14.20364475250244,26.67199325561523,-1.1837012767791748,-0.0,-0.0,-1.0,0.1808893092652521,2.0,0.0
14.21562671661377,27.35750389099121,-1.2344915866851809,-0.0,-0.0,-1.0,0.2371840640902104,1.0,0.0
13.970276832580566,27.57876968383789,-1.2835958003997805,-0.0,-0.0,-1.0,0.0651691744510932,1.0,0.0
13.76632308959961,26.53041076660156,-1.2313177585601809,-0.0,-0.0,-1.0,0.0833411657019337,1.0,0.0
13.551483154296877,25.80728530883789,-1.2073652744293213,-0.0,-0.0,-1.0,0.1750535101134158,1.0,0.0
13.528970718383787,26.1050968170166,-1.2320287227630615,-0.0,-0.0,-1.0,0.0572435102668909,2.0,0.0
14.045015335083008,28.072555541992188,-0.6561317443847656,-0.0,-0.0,-1.0,0.2553482986805685,2.0,0.0
13.98540210723877,27.101205825805664,-0.6152118444442749,-0.0,-0.0,-1.0,0.1810762045970623,1.0,0.0
14.011736869812012,27.953962326049805,-0.6538981199264526,-0.0,-0.0,-1.0,0.20678001420772,1.0,0.0
13.831717491149902,27.091720581054688,-0.6316525936126709,-0.0,-0.0,-1.0,0.2546758448729093,2.0,0.0
13.39623737335205,25.673778533935547,-0.6138134002685547,-0.0,-0.0,-1.0,0.1987451615895872,2.0,0.0
13.305949211120604,25.997074127197266,-0.6387851238250732,-0.0,-0.0,-1.0,0.1882501573282819,2.0,0.0
13.073281288146973,27.42175674438477,-0.731237530708313,-0.0,-0.0,-1.0,0.1866348358361586,1.0,0.0
13.09433937072754,25.73622131347656,-0.650827169418335,-0.0,-0.0,-1.0,0.2238366184224242,1.0,0.0
12.817790985107422,25.72131729125977,-0.6815781593322754,-0.0009302259396492,0.119017447224036,-0.9928917271968658,0.1818198900630554,5.0,0.0
