x,y,z,nx,ny,nz,curvature,density,label
36.289764404296875,28.392261505126953,-2.303610324859619,0.8184438963187946,0.4557915539769247,-0.3498623270685357,0.2226923418726367,4.0,0.0
36.59380340576172,28.443580627441406,-2.3644728660583496,-0.0,-0.0,-1.0,0.0512544294234513,1.0,0.0
36.89705657958984,28.318450927734375,-2.3948140144348145,-0.0,-0.0,-1.0,0.0751392039287529,1.0,0.0
35.44742965698242,29.055810928344727,-2.2811532020568848,-0.0,-0.0,-1.0,0.0518077891354411,2.0,0.0
35.71919631958008,28.819671630859375,-2.2834486961364746,-0.0,-0.0,-1.0,0.0521451597119101,2.0,0.0
36.25450134277344,28.873973846435547,-2.3828134536743164,-0.0,-0.0,-1.0,0.028816649963762,1.0,0.0
36.43244171142578,28.75579071044922,-2.3918728828430176,-0.0,-0.0,-1.0,0.0153825598846787,2.0,0.0
35.23711013793945,28.29343605041504,-2.3052749633789062,-0.0,-0.0,-1.0,0.0194128906908329,1.0,0.0
36.96237564086914,28.5140323638916,-2.378002405166626,-0.4842937366815324,0.8742433810397789,0.034030682026288,0.0305147529136381,4.0,0.0
37.12204360961914,28.51917266845703,-2.408430337905884,-0.0,-0.0,-1.0,0.0282687923347865,1.0,0.0
37.5737190246582,28.35063743591309,-2.462123155593872,-0.0,-0.0,-1.0,0.0702906733356514,2.0,0.0
36.93345642089844,28.694957733154297,-2.4060423374176025,-0.0,-0.0,-1.0,0.0130411273359322,2.0,0.0
37.40836715698242,28.668163299560547,-2.4886791706085205,-0.0,-0.0,-1.0,0.0051923272507512,1.0,0.0
37.544097900390625,28.608211517333984,-2.5030252933502197,-0.0,-0.0,-1.0,0.036433673078256,2.0,0.0
36.5522575378418,29.188247680664062,-2.429435014724731,-0.1163889628810184,0.4589514216222174,-0.880804860289966,0.1175992399542628,3.0,0.0
36.79530334472656,29.13698959350586,-2.463437795639038,-0.0,-0.0,-1.0,0.0794929019412822,1.0,0.0
36.270851135253906,29.40840530395508,-2.4215219020843506,-0.0,-0.0,-1.0,0.1051547262441591,1.0,0.0
36.42656707763672,29.69102668762207,-2.5034983158111572,-0.0,-0.0,-1.0,0.0207132452906884,2.0,0.0
35.89678955078125,28.138690948486328,-2.113453149795532,-0.0,-0.0,-1.0,0.0686550770474715,2.0,0.0
36.23907852172851,28.353063583374023,-2.215703248977661,-0.9485256212637848,0.3095175813007348,0.0670672250200818,0.2322711908747548,9.0,0.0
36.30658721923828,28.328489303588867,-2.2234251499176025,-0.5791865469443607,0.3798315301197429,-0.7212981024275351,0.2065482466292447,4.0,0.0
35.90837478637695,28.90111541748047,-2.259932279586792,-0.0,-0.0,-1.0,0.0561169104177812,2.0,0.0
35.285797119140625,29.289791107177734,-2.226773500442505,0.2587516731534741,0.9593680593271748,-0.1125188801183529,0.1000291634435858,4.0,0.0
35.717498779296875,29.36389541625977,-2.3159964084625244,-0.0,-0.0,-1.0,0.0324311221381415,1.0,0.0
35.785179138183594,29.430633544921875,-2.34075665473938,-0.0,-0.0,-1.0,0.0395995250969875,2.0,0.0
36.254249572753906,28.39158058166504,-2.191359519958496,0.4308463059939135,0.4218437930347233,-0.7977589077468682,0.1944782953139114,7.0,0.0
37.60486602783203,28.400325775146484,-2.4445323944091797,-0.0,-0.0,-1.0,0.0674722740932734,1.0,0.0
36.03274917602539,28.93306350708008,-2.2589263916015625,0.4853345084490246,0.8004112522114639,-0.3518412173720127,0.0549049319819037,4.0,0.0
37.01007843017578,28.674861907958984,-2.385772705078125,-0.0,-0.0,-1.0,0.0148992109553408,1.0,0.0
37.55694961547851,28.650802612304688,-2.4830546379089355,-0.0,-0.0,-1.0,0.0356761446619386,2.0,0.0
35.888790130615234,28.960933685302734,-2.2389144897460938,-0.0,-0.0,-1.0,0.0520037104525991,1.0,0.0
36.48983001708984,29.30123710632324,-2.414483070373535,-0.0,-0.0,-1.0,0.1482110036481456,1.0,0.0
36.66473007202149,29.21122360229492,-2.427982807159424,-0.0,-0.0,-1.0,0.1265427254849865,1.0,0.0
36.89588165283203,29.125442504882812,-2.452848434448242,-0.0,-0.0,-1.0,0.0606627712887336,1.0,0.0
35.61699676513672,29.425228118896484,-2.2859086990356445,0.5791074622713172,-0.2640743368670407,-0.7712971488018789,0.039822574038461,3.0,0.0
35.7689208984375,29.40544891357422,-2.308248519897461,-0.0,-0.0,-1.0,0.0395995250969876,2.0,0.0
36.41587829589844,29.63249969482422,-2.4680776596069336,-0.0,-0.0,-1.0,0.0239349133543212,2.0,0.0
36.35466766357422,29.80040740966797,-2.491419792175293,-0.0,-0.0,-1.0,0.0053071098710093,1.0,0.0
37.29084014892578,30.428150177001953,-2.5666892528533936,-0.0,-0.0,-1.0,0.0709814492175145,1.0,0.0
37.464508056640625,30.311595916748047,-2.571467161178589,-0.0,-0.0,-1.0,0.0227213579624795,1.0,0.0
36.9183349609375,30.496936798095703,-2.5195772647857666,-0.0,-0.0,-1.0,0.0766760058410849,1.0,0.0
37.16340637207031,30.58464241027832,-2.5786654949188232,-0.0,-0.0,-1.0,0.0581666784675371,1.0,0.0
37.10933303833008,28.957439422607425,-2.2307779788970947,0.648760304245895,-0.0057903868724495,-0.760970787254439,0.1964586095636877,3.0,0.0
36.781036376953125,29.362653732299805,-2.257901906967163,-0.0,-0.0,-1.0,0.0719332061341935,2.0,0.0
35.7280387878418,28.29192543029785,-2.320521116256714,-0.0,-0.0,-1.0,0.0314385865362861,2.0,0.0
35.295616149902344,28.659332275390625,-2.330222845077514,-0.0,-0.0,-1.0,0.0210783562161934,1.0,0.0
35.55082702636719,28.501720428466797,-2.3383748531341553,-0.0,-0.0,-1.0,0.0460957421933579,1.0,0.0
36.98526382446289,30.541019439697266,-2.4409983158111572,-0.0,-0.0,-1.0,0.0836363760895633,1.0,0.0
35.399009704589844,29.825847625732425,-2.031208753585815,-0.0,-0.0,-1.0,0.1736486753938666,1.0,0.0
36.41858673095703,28.32187843322754,-2.339749574661255,-0.0,-0.0,-1.0,0.1398044074219915,1.0,0.0
36.78285217285156,28.20083236694336,-2.378669500350952,-0.0,-0.0,-1.0,0.0589291114689481,2.0,0.0
35.68224334716797,28.753829956054688,-2.316375970840454,-0.0,-0.0,-1.0,0.0693729434872019,1.0,0.0
36.04341125488281,28.590200424194336,-2.3389532566070557,-0.0,-0.0,-1.0,0.0808933507590883,1.0,0.0
36.35231018066406,28.49471664428711,-2.371311902999878,-0.0,-0.0,-1.0,0.1138741594784365,2.0,0.0
35.514957427978516,28.88864517211914,-2.322331190109253,-0.0,-0.0,-1.0,0.044107324149048,1.0,0.0
36.68567657470703,29.59148597717285,-2.1021177768707275,-0.0,-0.0,-1.0,0.1793938289107302,1.0,0.0
36.8779411315918,29.339828491210938,-2.4328598976135254,-0.0,-0.0,-1.0,0.0805500589136193,2.0,0.0
37.24556350708008,29.3572998046875,-2.4952707290649414,-0.0,-0.0,-1.0,0.0256897662335952,1.0,0.0
37.700252532958984,29.271228790283203,-2.545736312866211,0.9805872946582028,0.1168466526581141,-0.1574656067765323,0.0142770729005581,3.0,0.0
36.59267044067383,29.830198287963867,-2.5233802795410156,-0.0,-0.0,-1.0,0.0467706279220187,1.0,0.0
36.787166595458984,29.696802139282227,-2.5160646438598633,-0.0266596086511245,-0.8909245634077453,-0.4533681589870284,0.0480761568969083,3.0,0.0
36.2483024597168,30.12263298034668,-2.554007053375244,-0.0,-0.0,-1.0,0.00639179469024,1.0,0.0
36.40764617919922,30.01111602783203,-2.546092987060547,-0.0,-0.0,-1.0,0.0049658143337543,1.0,0.0
36.227596282958984,28.32735252380371,-2.057453155517578,-0.9818376126691531,0.1636918652448712,0.0959159819883681,0.121556380958331,4.0,0.0
36.320953369140625,28.37553596496582,-2.0850353240966797,-0.0969474313644666,0.9888141849827664,-0.1133477089697883,0.1632477267427851,3.0,0.0
35.23373031616211,29.362518310546875,-2.199000835418701,-0.0,-0.0,-1.0,0.1119966055644279,2.0,0.0
35.63633346557617,29.441944122314453,-2.277113437652588,0.4317093468429129,-0.1883475803048657,-0.8821293719414223,0.0398264479288995,5.0,0.0
36.6068229675293,29.287425994873047,-2.376814842224121,-0.0,-0.0,-1.0,0.1864056456293255,2.0,0.0
35.67287826538086,29.83868408203125,-2.393465995788574,-0.0,-0.0,-1.0,0.0438144979582685,1.0,0.0
37.69440078735352,30.32677459716797,-2.550671100616455,-0.0,-0.0,-1.0,0.0222434069158988,1.0,0.0
37.4013786315918,30.614442825317383,-2.5805888175964355,-0.0,-0.0,-1.0,0.0330338808236925,1.0,0.0
37.69288635253906,30.519577026367188,-2.5943636894226074,-0.0,-0.0,-1.0,0.0288143887792708,1.0,0.0
35.22055435180664,28.352447509765625,-2.3070101737976074,-0.0,-0.0,-1.0,0.0202803052880576,1.0,0.0
35.54069137573242,28.19944190979004,-2.3079824447631836,-0.0,-0.0,-1.0,0.0216791387167355,1.0,0.0
36.549705505371094,29.377527236938477,-2.194713592529297,-0.93319737781034,0.0996957810016352,-0.3452584615883874,0.159908409306558,3.0,0.0
36.8082389831543,29.403467178344727,-2.2316722869873047,-0.0,-0.0,-1.0,0.0596166225903956,1.0,0.0
35.390472412109375,29.757747650146484,-2.15396785736084,-0.0,-0.0,-1.0,0.1637058179041452,2.0,0.0
36.90532684326172,30.442306518554688,-2.4822845458984375,-0.0,-0.0,-1.0,0.0832784370196039,2.0,0.0
37.16366958618164,28.773935317993164,-2.4180305004119873,-0.0,-0.0,-1.0,0.0950492197999686,1.0,0.0
37.69844055175781,28.777862548828125,-2.494607448577881,-0.0,-0.0,-1.0,0.0054105330433683,1.0,0.0
36.34259796142578,29.25909423828125,-2.418482542037964,-0.0,-0.0,-1.0,0.077714857737937,2.0,0.0
36.49456787109375,29.223705291748047,-2.4299192428588867,-0.0,-0.0,-1.0,0.0989162439336736,2.0,0.0
36.974273681640625,29.110515594482425,-2.467674493789673,-0.0,-0.0,-1.0,0.0542217534379966,1.0,0.0
37.417259216308594,29.00646209716797,-2.5052175521850586,-0.0,-0.0,-1.0,0.0456981379157647,1.0,0.0
37.630706787109375,28.96649169921875,-2.5264980792999268,-0.0,-0.0,-1.0,0.0164830864974538,2.0,0.0
36.05865478515625,29.475051879882812,-2.432657241821289,-0.0,-0.0,-1.0,0.0131683395247515,1.0,0.0
36.25886535644531,28.3875732421875,-2.2086896896362305,-0.3554595500417949,0.2245076190733319,-0.9073284065111752,0.2446690921742492,7.0,0.0
35.89054489135742,28.82808494567871,-2.262408494949341,-0.0,-0.0,-1.0,0.0308482999685223,2.0,0.0
36.00712966918945,28.79663848876953,-2.2697818279266357,-0.3326918773088553,0.6723995506305395,-0.6612071983006218,0.0523995316786566,3.0,0.0
37.109500885009766,28.780681610107425,-2.4120306968688965,-0.0,-0.0,-1.0,0.0601503583739805,1.0,0.0
35.41539764404297,29.161136627197266,-2.282325029373169,-0.0,-0.0,-1.0,0.0547482084985194,2.0,0.0
35.76370620727539,29.174877166748047,-2.327136516571045,-0.0,-0.0,-1.0,0.0204009236458384,2.0,0.0
36.143070220947266,28.964902877807617,-2.3256289958953857,-0.0,-0.0,-1.0,0.0293964701057991,1.0,0.0
36.473873138427734,29.384122848510746,-1.9304137229919431,-0.0,-0.0,-1.0,0.1438785390477574,1.0,0.0
36.473365783691406,28.37723922729492,-2.3233306407928467,-0.0,-0.0,-1.0,0.0804471222387979,1.0,0.0
36.99544143676758,28.38951873779297,-2.392629384994507,-0.808116124400512,-0.5710554107293857,0.1443746770060088,0.0288570316894109,3.0,0.0
37.205718994140625,28.3373966217041,-2.407682418823242,-0.0,-0.0,-1.0,0.0751824032419591,1.0,0.0
37.47768020629883,28.295408248901367,-2.433945655822754,-0.0,-0.0,-1.0,0.0770352307353582,2.0,0.0
36.46018600463867,28.544700622558594,-2.363356590270996,-0.0,-0.0,-1.0,0.0604208631211143,2.0,0.0
36.80957794189453,28.443988800048828,-2.3821141719818115,-0.0,-0.0,-1.0,0.014843001079784,2.0,0.0
37.25318908691406,28.42913055419922,-2.436281442642212,-0.0,-0.0,-1.0,0.0161478098959041,1.0,0.0
35.384727478027344,29.040721893310547,-2.2186636924743652,-0.0,-0.0,-1.0,0.0526006601943828,1.0,0.0
36.184303283691406,28.29299545288086,-1.997786283493042,-0.0,-0.0,-1.0,0.1456673522159611,2.0,0.0
37.38096618652344,29.676742553710938,-2.4998116493225098,-0.0,-0.0,-1.0,0.0205040826461039,1.0,0.0
37.52714538574219,29.875328063964844,-2.5228829383850098,-0.0,-0.0,-1.0,0.0257203731811918,2.0,0.0
37.67304992675781,30.232093811035156,-2.578497886657715,-0.0,-0.0,-1.0,0.0202011970207115,1.0,0.0
36.85448455810547,30.533206939697266,-2.5579566955566406,-0.0,-0.0,-1.0,0.0527255285143058,1.0,0.0
36.83487701416016,30.17450714111328,-2.5102663040161133,-0.0,-0.0,-1.0,0.0255146249454059,2.0,0.0
36.449005126953125,29.667518615722656,-2.48002552986145,0.2763587961173425,-0.5340383737620046,-0.7990174160543728,0.0239707371285305,3.0,0.0
36.30921173095703,29.00330352783203,-2.405704975128174,-0.0,-0.0,-1.0,0.018106831903816,2.0,0.0
36.11945724487305,28.484580993652344,-2.3578507900238037,-0.0,-0.0,-1.0,0.0801306998294593,1.0,0.0
36.068572998046875,28.15453338623047,-2.3206958770751953,-0.0,-0.0,-1.0,0.0711939828402668,1.0,0.0
36.72418212890625,30.00162124633789,-2.497582197189331,-0.0,-0.0,-1.0,0.0129078641869356,1.0,0.0
36.55318069458008,29.780601501464844,-2.4847075939178467,-0.0,-0.0,-1.0,0.0757222506258893,1.0,0.0
36.528682708740234,29.217174530029297,-2.4112472534179688,0.4389916511256974,0.7066630621989411,-0.5548996727026866,0.1154701591873891,3.0,0.0
36.424598693847656,29.04531478881836,-2.3991539478302,-0.0,-0.0,-1.0,0.0232909135500997,1.0,0.0
37.15740966796875,30.335037231445312,-2.558384656906128,-0.0,-0.0,-1.0,0.0754641442461038,1.0,0.0
36.80961227416992,29.688961029052734,-2.501975774765014,-0.0266596086511245,-0.8909245634077453,-0.4533681589870284,0.0595973445025784,3.0,0.0
36.47821044921875,28.872360229492188,-2.4239981174468994,-0.0,-0.0,-1.0,0.0089799850583682,1.0,0.0
37.251163482666016,30.212100982666016,-2.531877279281616,-0.0,-0.0,-1.0,0.059261086997482,1.0,0.0
37.140647888183594,29.841041564941406,-2.4903523921966553,-0.0,-0.0,-1.0,0.0214471028349576,1.0,0.0
36.94206237792969,29.52698135375977,-2.4662418365478516,-0.0,-0.0,-1.0,0.0876007405326446,2.0,0.0
36.73056411743164,29.161293029785156,-2.437274217605591,-0.0,-0.0,-1.0,0.098378367463921,2.0,0.0
36.554222106933594,28.961505889892575,-2.428149938583374,-0.0,-0.0,-1.0,0.0307098168643928,1.0,0.0
36.36126708984375,28.318111419677734,-2.3620030879974365,-0.0,-0.0,-1.0,0.1502849357684932,2.0,0.0
37.19673156738281,30.440170288085938,-1.7533774375915527,-0.0,-0.0,-1.0,0.0380277931931228,1.0,0.0
37.195655822753906,30.46011734008789,-0.9467122554779052,-0.0,-0.0,-1.0,0.0346053346268562,1.0,0.0
35.48127365112305,29.68460464477539,-2.2733590602874756,-0.0,-0.0,-1.0,0.0825990914775079,1.0,0.0
35.29035949707031,29.46506118774414,-2.265035629272461,-0.0,-0.0,-1.0,0.0573220063776962,1.0,0.0
35.334434509277344,29.241193771362305,-2.2337186336517334,-0.0,-0.0,-1.0,0.0749768110295399,2.0,0.0
35.24790954589844,29.155500411987305,-2.2318999767303467,-0.0,-0.0,-1.0,0.0551836371012933,2.0,0.0
35.501686096191406,29.70734214782715,-2.1463546752929688,-0.0,-0.0,-1.0,0.1713709238316948,1.0,0.0
35.2420768737793,29.384719848632812,-2.1348109245300293,0.6630028608201456,0.5757134003386959,-0.4785198921829259,0.0999400672587512,3.0,0.0
37.41563415527344,30.505802154541016,-2.069059371948242,-0.0,-0.0,-1.0,0.0985459647885685,1.0,0.0
37.4063720703125,30.532968521118164,-1.2556051015853882,-0.0,-0.0,-1.0,0.0118453749336454,1.0,0.0
37.29281997680664,30.33871078491211,-2.5366406440734863,-0.0,-0.0,-1.0,0.0579015134327742,1.0,0.0
37.08042526245117,30.002368927001953,-2.5088868141174316,-0.0,-0.0,-1.0,0.0245114384167713,1.0,0.0
37.20432662963867,30.028345108032227,-2.5009279251098633,-0.0,-0.0,-1.0,0.063560930255991,2.0,0.0
37.01054382324219,29.894250869750977,-2.500330924987793,-0.0,-0.0,-1.0,0.0171673376096704,1.0,0.0
36.82142639160156,29.68189811706543,-2.488790988922119,-0.0266596086511245,-0.8909245634077453,-0.4533681589870284,0.0776597163617529,3.0,0.0
37.079463958740234,29.52142333984375,-2.44168472290039,-0.0,-0.0,-1.0,0.0644786460750534,1.0,0.0
36.81664276123047,29.219993591308594,-2.425386905670166,-0.0,-0.0,-1.0,0.0952397820655454,1.0,0.0
36.65607452392578,29.11044692993164,-2.4261322021484375,0.2901013418622024,0.3332021524489247,-0.897116233858887,0.1395196813593399,3.0,0.0
37.22505187988281,28.983871459960938,-2.3529577255249023,-0.0,-0.0,-1.0,0.2437116402879265,1.0,0.0
36.54219436645508,28.62843894958496,-2.3719301223754883,-0.0,-0.0,-1.0,0.0363686822332999,1.0,0.0
36.49976348876953,28.558208465576172,-2.3667473793029785,-0.0,-0.0,-1.0,0.0536367722230541,2.0,0.0
36.41954040527344,28.2291202545166,-2.330817699432373,-0.0,-0.0,-1.0,0.13210723355504,1.0,0.0
37.46903991699219,30.583036422729492,-0.9224892854690552,-0.0,-0.0,-1.0,0.0257591607982391,1.0,0.0
37.564449310302734,30.41887855529785,-2.5533149242401123,-0.0,-0.0,-1.0,0.0279689551439485,1.0,0.0
37.4228515625,30.19440269470215,-2.534287691116333,-0.0,-0.0,-1.0,0.0427658121547116,1.0,0.0
37.39710998535156,29.870738983154297,-2.4904088973999023,-0.0,-0.0,-1.0,0.0256436818537414,1.0,0.0
37.25806427001953,29.51936912536621,-2.453918218612671,-0.0,-0.0,-1.0,0.0207642537602545,1.0,0.0
37.11421585083008,29.32555770874023,-2.4407315254211426,-0.0,-0.0,-1.0,0.0552062598715435,1.0,0.0
37.020301818847656,29.0540771484375,-2.41206431388855,-0.0,-0.0,-1.0,0.1907957923494093,1.0,0.0
37.046241760253906,28.618425369262695,-2.3486993312835693,-0.0,-0.0,-1.0,0.0180530021769185,1.0,0.0
36.6412353515625,28.484058380126953,-2.3720405101776123,-0.0,-0.0,-1.0,0.0802984513731477,1.0,0.0
36.599853515625,28.288454055786133,-2.349647045135498,-0.0,-0.0,-1.0,0.050358734072568,1.0,0.0
37.40184783935547,30.536012649536133,-1.7737720012664795,-0.0,-0.0,-1.0,0.0219023672128286,1.0,0.0
37.38954162597656,30.564353942871097,-0.9728679656982422,-0.0,-0.0,-1.0,0.012219433336785,2.0,0.0
35.95488739013672,30.092540740966797,-2.527737617492676,-0.0,-0.0,-1.0,0.0208132618391874,1.0,0.0
37.48130798339844,30.60166931152344,-2.478048324584961,-0.0,-0.0,-1.0,0.2225188031358138,2.0,0.0
37.02546691894531,30.456615447998047,-2.492121696472168,-0.0,-0.0,-1.0,0.0760661769418042,2.0,0.0
35.96437454223633,29.93004608154297,-2.503403663635254,-0.0,-0.0,-1.0,0.0159129295280639,1.0,0.0
36.68994140625,29.334400177001953,-2.354501247406006,-0.8180163436528174,-0.0430182289451357,-0.5735840770935847,0.1812455598244041,3.0,0.0
36.21002960205078,29.295459747314453,-2.390417098999023,-0.0,-0.0,-1.0,0.0455306936442454,1.0,0.0
36.19337844848633,28.99268341064453,-2.3484625816345215,-0.0,-0.0,-1.0,0.0261013816796358,1.0,0.0
36.37532806396485,28.412097930908203,-2.2492785453796387,-0.0,-0.0,-1.0,0.1949973715184346,1.0,0.0
35.901161193847656,28.558002471923828,-2.3131375312805176,-0.0,-0.0,-1.0,0.0673551944742762,1.0,0.0
35.92036819458008,28.157455444335938,-2.255028247833252,-0.0,-0.0,-1.0,0.0513335857754383,2.0,0.0
35.518531799316406,28.265335083007812,-2.307893753051758,-0.0,-0.0,-1.0,0.0229737083225578,1.0,0.0
37.50094985961914,28.75857925415039,-1.7993290424346924,-0.0,-0.0,-1.0,0.1332822259254554,1.0,0.0
37.351898193359375,28.68056869506836,-1.794936180114746,-0.0,-0.0,-1.0,0.1532816276751885,1.0,0.0
37.310028076171875,28.488460540771484,-1.7678704261779783,-0.0,-0.0,-1.0,0.1119659847564348,2.0,0.0
37.298336029052734,28.506916046142575,-1.7712750434875488,-0.0,-0.0,-1.0,0.1119659847564348,2.0,0.0
35.37834930419922,30.06472396850586,-1.3207542896270752,-0.0,-0.0,-1.0,0.1039320968918934,1.0,0.0
35.2641716003418,29.89978790283203,-1.306459903717041,-0.0,-0.0,-1.0,0.1055831414818987,1.0,0.0
36.91267013549805,29.405689239501953,-2.3790483474731445,-0.0,-0.0,-1.0,0.0837817267484362,1.0,0.0
35.845191955566406,30.007022857666016,-2.58357310295105,-0.0,-0.0,-1.0,0.0225624976634716,1.0,0.0
35.96986770629883,29.53738784790039,-2.505363702774048,-0.0,-0.0,-1.0,0.0130312926491944,1.0,0.0
36.08876037597656,28.95711898803711,-2.413337469100952,-0.0,-0.0,-1.0,0.0447890883086271,1.0,0.0
36.30642318725586,28.701824188232425,-2.353065490722656,-0.0,-0.0,-1.0,0.0206619865579911,2.0,0.0
36.19544219970703,28.39805603027344,-2.3392529487609863,-0.0,-0.0,-1.0,0.2177308554815579,2.0,0.0
36.764923095703125,30.48823928833008,-2.451751708984375,-0.0,-0.0,-1.0,0.0499359025486976,1.0,0.0
36.463531494140625,29.34302520751953,-2.3306217193603516,-0.0,-0.0,-1.0,0.1319855208144121,1.0,0.0
35.79191589355469,30.111068725585938,-2.5121402740478516,-0.0,-0.0,-1.0,0.0233026275479229,2.0,0.0
36.01846694946289,29.156051635742188,-2.358595848083496,-0.0,-0.0,-1.0,0.0200350647819811,1.0,0.0
35.91916275024414,28.83287811279297,-2.328230142593384,-0.0,-0.0,-1.0,0.0641254572017656,1.0,0.0
35.75230407714844,28.159969329833984,-2.261596441268921,-0.0,-0.0,-1.0,0.0525243520488867,1.0,0.0
35.725830078125,28.499134063720703,-2.3085930347442627,-0.0,-0.0,-1.0,0.0589333957488819,1.0,0.0
36.173728942871094,28.418701171875,-2.2430241107940674,-0.0,-0.0,-1.0,0.139266520415487,1.0,0.0
37.66578674316406,30.155826568603516,-2.564857244491577,-0.0,-0.0,-1.0,0.0108439479078653,1.0,0.0
37.43120193481445,29.706485748291016,-2.522534132003784,-0.0,-0.0,-1.0,0.0229684445931881,1.0,0.0
37.515174865722656,29.910465240478516,-2.5442235469818115,-0.0,-0.0,-1.0,0.0257203731811918,2.0,0.0
37.27360153198242,29.420494079589844,-2.497572183609009,-0.0,-0.0,-1.0,0.0179166666725104,1.0,0.0
37.15689468383789,28.99950408935547,-2.447456121444702,-0.0,-0.0,-1.0,0.226367779930565,1.0,0.0
37.15442657470703,28.674705505371097,-2.3981621265411377,-0.0,-0.0,-1.0,0.0136853124401925,1.0,0.0
36.76118469238281,28.24279022216797,-2.3845417499542236,-0.0,-0.0,-1.0,0.0485379474603363,2.0,0.0
35.292625427246094,29.753276824951172,-2.055732250213623,-0.0,-0.0,-1.0,0.1544437098138078,2.0,0.0
37.405555725097656,30.59844207763672,-1.1963443756103516,-0.0,-0.0,-1.0,0.0122194333367848,2.0,0.0
37.61823272705078,29.325340270996097,-2.4784326553344727,-0.0,-0.0,-1.0,0.0135006321871666,1.0,0.0
37.39231491088867,29.089008331298828,-2.4507784843444824,-0.0,-0.0,-1.0,0.067497698806087,1.0,0.0
37.251983642578125,28.809616088867188,-2.409299850463867,-0.0,-0.0,-1.0,0.1110660171110194,1.0,0.0
35.432037353515625,29.784652709960938,-2.0270891189575195,-0.7362894620702777,0.2626952642745851,-0.6235936386557889,0.2095982752899849,3.0,0.0
37.227989196777344,28.664119720458984,-2.3840298652648926,-0.0,-0.0,-1.0,0.0151227739002011,1.0,0.0
35.348114013671875,29.720123291015625,-2.02396821975708,-0.0,-0.0,-1.0,0.1480192197305034,1.0,0.0
37.11876678466797,28.335891723632812,-2.332464694976806,-0.0,-0.0,-1.0,0.102763858495235,2.0,0.0
36.879486083984375,28.254150390625,-2.338146686553955,-0.0,-0.0,-1.0,0.0720861198320406,1.0,0.0
35.47160720825195,30.61716079711914,-2.4316110610961914,-0.0,-0.0,-1.0,0.0356838354135417,1.0,0.0
35.442344665527344,30.382720947265625,-2.4015092849731445,-0.0,-0.0,-1.0,0.0355029382991486,1.0,0.0
35.60697937011719,29.647890090942383,-2.275169134140014,-0.0,-0.0,-1.0,0.060259795323542,1.0,0.0
35.47637176513672,29.474945068359375,-2.2674944400787354,-0.0,-0.0,-1.0,0.0435396148778462,1.0,0.0
37.584991455078125,28.33429718017578,-2.4596102237701416,-0.0,-0.0,-1.0,0.0702906733356514,2.0,0.0
35.29281997680664,29.201669692993164,-2.2530694007873535,-0.0,-0.0,-1.0,0.06921619350417,2.0,0.0
37.14985656738281,29.14487648010254,-2.0118465423583984,-0.0,-0.0,-1.0,0.1955427121902244,1.0,0.0
36.96363067626953,28.956222534179688,-2.006113290786743,-0.0,-0.0,-1.0,0.1373434014881892,1.0,0.0
37.24296188354492,30.444992065429688,-2.5837178230285645,-0.0,-0.0,-1.0,0.0393459488354942,1.0,0.0
37.61957931518555,30.044872283935547,-2.4671335220336914,-0.0,-0.0,-1.0,0.0190042849038617,1.0,0.0
37.08485794067383,30.241146087646484,-2.5655012130737305,-0.0,-0.0,-1.0,0.072781800527215,1.0,0.0
36.96329879760742,30.117076873779297,-2.5578479766845703,-0.0,-0.0,-1.0,0.0173831296423654,1.0,0.0
36.70076751708984,29.761322021484375,-2.526674270629883,-0.0,-0.0,-1.0,0.0433431579110749,1.0,0.0
36.6318359375,29.27811050415039,-2.449792861938477,-0.0,-0.0,-1.0,0.1160644886239243,1.0,0.0
36.390594482421875,29.087011337280273,-2.447714328765869,-0.0,-0.0,-1.0,0.015519417916837,1.0,0.0
37.174072265625,29.092897415161133,-2.3480873107910156,-0.0,-0.0,-1.0,0.2386000425383052,1.0,0.0
37.11394119262695,29.004005432128903,-2.3396754264831543,-0.0,-0.0,-1.0,0.2433535095489352,1.0,0.0
36.29214096069336,28.938451766967773,-2.434884548187256,-0.0,-0.0,-1.0,0.0226493296271936,1.0,0.0
36.23816680908203,28.770538330078125,-2.412984848022461,-0.0,-0.0,-1.0,0.021758085674731,2.0,0.0
36.1251106262207,28.25963592529297,-2.3403921127319336,-0.0,-0.0,-1.0,0.1795288570302906,1.0,0.0
37.54845428466797,29.603120803833008,-2.5429954528808594,-0.0,-0.0,-1.0,0.0172987213403685,1.0,0.0
37.41810607910156,29.43760681152344,-2.522690773010254,-0.0,-0.0,-1.0,0.0154231277918846,1.0,0.0
37.24516677856445,29.20990943908691,-2.4947094917297363,-0.0,-0.0,-1.0,0.0646035121283611,1.0,0.0
37.18926239013672,28.92581558227539,-2.442843437194824,-0.0,-0.0,-1.0,0.156085844618213,1.0,0.0
36.84718704223633,28.457763671875,-2.387299060821533,-0.0,-0.0,-1.0,0.0180619145958093,2.0,0.0
36.658409118652344,28.326183319091797,-2.383375644683838,-0.0,-0.0,-1.0,0.0653795468487546,2.0,0.0
35.378787994384766,30.46506118774414,-2.2940421104431152,-0.0,-0.0,-1.0,0.0310173635131812,1.0,0.0
36.533050537109375,29.317386627197266,-1.9784189462661743,-0.0,-0.0,-1.0,0.2099090388255602,2.0,0.0
35.49040603637695,29.796924591064453,-2.17147445678711,0.7739434888966752,0.376906098784074,-0.5088745117352728,0.13381459876177,3.0,0.0
35.34288024902344,29.674909591674805,-2.1682848930358887,-0.0,-0.0,-1.0,0.1085020846936774,1.0,0.0
36.96995544433594,30.342788696289062,-2.532074451446533,-0.0,-0.0,-1.0,0.0681194423707677,1.0,0.0
36.85887145996094,30.19200897216797,-2.5117440223693848,-0.0,-0.0,-1.0,0.0242247738134225,2.0,0.0
36.63371658325195,30.11138153076172,-2.5173778533935547,-0.0,-0.0,-1.0,0.0173962598318322,1.0,0.0
36.24003219604492,29.971874237060547,-2.5291123390197754,-0.0,-0.0,-1.0,0.0061780904703244,1.0,0.0
36.149879455566406,29.863826751708984,-2.5168166160583496,-0.0,-0.0,-1.0,0.0090905151818476,1.0,0.0
37.1363639831543,29.08545684814453,-2.258604049682617,-0.0,-0.0,-1.0,0.1464150944652362,1.0,0.0
36.687767028808594,29.315887451171875,-2.350011825561523,-0.8180163436528174,-0.0430182289451357,-0.5735840770935847,0.181245559824404,3.0,0.0
36.3475341796875,29.257415771484375,-2.3737974166870117,-0.0,-0.0,-1.0,0.1269493314269368,2.0,0.0
36.15674591064453,29.468585968017575,-2.436455249786377,-0.0,-0.0,-1.0,0.0459845622371147,1.0,0.0
36.12936782836914,29.0147705078125,-2.3483171463012695,-0.0,-0.0,-1.0,0.0271618672127704,1.0,0.0
35.98163986206055,28.757850646972656,-2.313447952270508,-0.0,-0.0,-1.0,0.0235254311301249,2.0,0.0
36.256893157958984,28.47820281982422,-2.226783275604248,-0.0,-0.0,-1.0,0.2078781555088544,1.0,0.0
35.7353515625,28.637601852416992,-2.3180341720581055,-0.0,-0.0,-1.0,0.073401872241385,2.0,0.0
35.479576110839844,28.501033782958984,-2.321298599243164,-0.0,-0.0,-1.0,0.0325423656945525,2.0,0.0
35.27946090698242,28.337371826171875,-2.3138527870178223,-0.0,-0.0,-1.0,0.0208349349880879,1.0,0.0
36.187618255615234,28.34725570678711,-2.20833969116211,0.2071408399145236,0.9692830465539104,0.1326010863555639,0.2340997592753591,3.0,0.0
35.84782409667969,28.17206573486328,-2.2126078605651855,-0.0,-0.0,-1.0,0.0550686053575134,1.0,0.0
37.388702392578125,30.633472442626953,-1.2934342622756958,-0.9426797552092244,0.0116023296950453,-0.3334970240711659,0.0118453749336455,3.0,0.0
37.62334442138672,30.014772415161133,-2.577300548553467,-0.0,-0.0,-1.0,0.0176804279541179,1.0,0.0
37.4288330078125,29.834068298339844,-2.5458035469055176,-0.0,-0.0,-1.0,0.0264384710604782,1.0,0.0
37.206783294677734,29.52385139465332,-2.486675262451172,-0.0,-0.0,-1.0,0.0218377856108221,2.0,0.0
36.88229751586914,29.350814819335938,-2.4672136306762695,-0.0,-0.0,-1.0,0.0783174706213118,2.0,0.0
36.73575210571289,29.255834579467773,-2.455320358276367,-0.0,-0.0,-1.0,0.1352668079667977,1.0,0.0
36.53460311889648,29.152362823486328,-2.445800304412842,-0.0,-0.0,-1.0,0.0911440379183123,2.0,0.0
36.33457946777344,28.969314575195312,-2.418981552124023,-0.0,-0.0,-1.0,0.0180852487956284,2.0,0.0
36.12432861328125,28.538339614868164,-2.3377480506896973,-0.0,-0.0,-1.0,0.0661288332182874,1.0,0.0
35.94744110107422,28.48815155029297,-2.34116792678833,-0.0,-0.0,-1.0,0.0481504904957639,1.0,0.0
35.88205337524414,28.343582153320312,-2.3142290115356445,-0.0,-0.0,-1.0,0.0471131429891755,1.0,0.0
35.415958404541016,29.82783889770508,-2.079249858856201,-0.0304786464424313,0.6549370333790578,-0.7550685627277007,0.1736486753938667,3.0,0.0
35.251895904541016,29.64519691467285,-2.057387351989746,-0.0,-0.0,-1.0,0.1293898025314143,2.0,0.0
35.66860580444336,28.15431022644043,-2.29091215133667,-0.0,-0.0,-1.0,0.0443148905102805,1.0,0.0
35.62050247192383,29.99295425415039,-2.4396963119506836,-0.0,-0.0,-1.0,0.0485742254541709,1.0,0.0
35.50508499145508,29.54694366455078,-2.3523521423339844,-0.0,-0.0,-1.0,0.0644086745501166,1.0,0.0
35.26403045654297,29.2310848236084,-2.305385112762451,-0.0,-0.0,-1.0,0.0692946874805591,1.0,0.0
37.25992965698242,29.148984909057617,-2.1370205879211426,-0.0,-0.0,-1.0,0.1765783278767544,1.0,0.0
37.10733795166016,29.149417877197266,-2.1462268829345703,-0.0,-0.0,-1.0,0.1547526654514505,1.0,0.0
37.03897476196289,28.91529655456543,-2.098390579223633,-0.0,-0.0,-1.0,0.1313363123072734,1.0,0.0
37.37783432006836,30.61053466796875,-1.2635120153427124,-0.0,-0.0,-1.0,0.0118453749336455,2.0,0.0
36.83461380004883,30.59597396850586,-2.555309295654297,-0.0,-0.0,-1.0,0.0527255285143058,1.0,0.0
36.89746856689453,30.3050479888916,-2.482675075531006,-0.0,-0.0,-1.0,0.0545499590849248,1.0,0.0
36.65448760986328,30.195871353149418,-2.4711251258850098,-0.0,-0.0,-1.0,0.0240062067342239,1.0,0.0
36.186431884765625,30.22250747680664,-2.5079855918884277,-0.0,-0.0,-1.0,0.0072093999427053,1.0,0.0
36.76678085327149,29.348602294921875,-2.2634730339050293,-0.0,-0.0,-1.0,0.0765897004693039,2.0,0.0
37.15169525146485,29.038921356201172,-2.16770076751709,-0.0,-0.0,-1.0,0.1487481249789585,1.0,0.0
36.67979431152344,29.2952938079834,-2.2562255859375,-0.0,-0.0,-1.0,0.11969423427249,2.0,0.0
35.7880859375,29.243064880371097,-2.3068699836730957,-0.0,-0.0,-1.0,0.0218291647594334,1.0,0.0
36.02484130859375,28.956531524658203,-2.2212982177734375,-0.0,-0.0,-1.0,0.0554203140252809,2.0,0.0
35.60760498046875,29.028316497802734,-2.2710514068603516,-0.0,-0.0,-1.0,0.0350646743585556,1.0,0.0
35.35224533081055,28.996597290039062,-2.285378932952881,-0.0,-0.0,-1.0,0.0519085165850131,1.0,0.0
36.259666442871094,28.392623901367188,-2.071199893951416,-0.0,-0.0,-1.0,0.1135967618834401,2.0,0.0
37.41404724121094,30.60880470275879,-1.357827067375183,-0.0,-0.0,-1.0,0.0119526604674974,2.0,0.0
35.804054260253906,30.140972137451172,-2.474484443664551,-0.0,-0.0,-1.0,0.0218708565048604,2.0,0.0
36.686614990234375,29.36430549621582,-2.246715784072876,-0.0,-0.0,-1.0,0.1428005386262578,1.0,0.0
35.63666915893555,29.67827606201172,-2.371083974838257,-0.0,-0.0,-1.0,0.0582190436530925,1.0,0.0
35.61812973022461,29.484722137451172,-2.32511305809021,0.9072055305535296,-0.3302570757509013,-0.2605923814111848,0.0415829464705864,3.0,0.0
35.362342834472656,29.192766189575195,-2.2692363262176514,-0.0,-0.0,-1.0,0.0645237340596713,2.0,0.0
37.46480178833008,30.59992218017578,-1.3753483295440674,-0.0,-0.0,-1.0,0.0119526604674974,1.0,0.0
35.441097259521484,29.753231048583984,-2.166346788406372,-0.0,-0.0,-1.0,0.1405390098047338,2.0,0.0
35.22862243652344,29.52718162536621,-2.1210339069366455,-0.0,-0.0,-1.0,0.0459059582112383,1.0,0.0
37.45230865478515,30.597843170166016,-1.7624423503875732,-0.0,-0.0,-1.0,0.0158074378625583,2.0,0.0
37.42118453979492,30.600574493408203,-1.202641487121582,-0.0,-0.0,-1.0,0.0122194333367848,2.0,0.0
37.443267822265625,30.62512588500977,-0.6514832973480225,-0.0,-0.0,-1.0,0.0257591607982391,1.0,0.0
37.47013092041016,30.58352279663086,-2.436678409576416,-0.0,-0.0,-1.0,0.2225188031358138,2.0,0.0
37.269287109375,30.630456924438477,-2.441448926925659,-0.0,-0.0,-1.0,0.0741400598164398,1.0,0.0
35.4681396484375,29.788822174072266,-2.2113404273986816,0.7739434888966752,0.376906098784074,-0.5088745117352728,0.1208377583681168,3.0,0.0
35.4147834777832,29.735286712646484,-2.1984598636627197,-0.0,-0.0,-1.0,0.1135806893091729,2.0,0.0
36.987850189208984,28.80089950561523,-1.9950628280639648,-0.0,-0.0,-1.0,0.1289655008080435,1.0,0.0
37.448116302490234,30.587919235229492,-1.8736803531646729,-0.0,-0.0,-1.0,0.0191213901514271,1.0,0.0
37.45256042480469,30.60697555541992,-1.32167649269104,-0.0,-0.0,-1.0,0.0119526604674973,1.0,0.0
37.4037971496582,30.61396026611328,-0.7722604274749756,-0.0,-0.0,-1.0,0.0257591607982391,1.0,0.0
36.550811767578125,29.30522727966309,-1.9896202087402344,-0.0,-0.0,-1.0,0.198322500041609,2.0,0.0
35.291664123535156,29.811534881591797,-2.0839085578918457,-0.0709909392485382,-0.1883215013838664,-0.9795383089298432,0.1599753703661499,5.0,0.0
37.42676544189453,30.60023307800293,-1.763528823852539,-0.0,-0.0,-1.0,0.0219023672128286,2.0,0.0
37.3853759765625,30.58373260498047,-0.942162275314331,-0.0,-0.0,-1.0,0.0257591607982391,2.0,0.0
37.37715148925781,30.6121883392334,-0.6120686531066895,-0.0,-0.0,-1.0,0.0257591607982391,2.0,0.0
36.71733856201172,30.6361141204834,-2.629568576812744,-0.0,-0.0,-1.0,0.04792044691007,2.0,0.0
37.44309997558594,30.05475425720215,-2.546468734741211,-0.0,-0.0,-1.0,0.0228466403897491,1.0,0.0
36.70575714111328,30.43042755126953,-2.57855224609375,-0.0,-0.0,-1.0,0.0397938846501741,1.0,0.0
36.5222282409668,30.576526641845703,-2.6012558937072754,-0.0,-0.0,-1.0,0.0291853988595495,1.0,0.0
37.29553985595703,29.98921012878418,-2.5182323455810547,-0.0,-0.0,-1.0,0.0229138142072372,1.0,0.0
37.183326721191406,30.05130386352539,-2.5237560272216797,-0.0,-0.0,-1.0,0.0627933973258456,2.0,0.0
37.34902572631836,29.85158920288086,-2.489960193634033,-0.0,-0.0,-1.0,0.0268085664850831,2.0,0.0
37.232696533203125,29.977203369140625,-2.5100862979888916,-0.0,-0.0,-1.0,0.020028644182432,1.0,0.0
36.77001190185547,30.13846969604492,-2.5121893882751465,-0.0,-0.0,-1.0,0.0220164459901675,1.0,0.0
35.52384948730469,29.755115509033203,-2.3345558643341064,-0.0,-0.0,-1.0,0.0891530787533463,1.0,0.0
37.12762069702149,29.038501739501953,-2.2774860858917236,-0.0,-0.0,-1.0,0.1693797762224701,1.0,0.0
36.75426483154297,29.273122787475582,-2.301806688308716,-0.0,-0.0,-1.0,0.1126784870060924,2.0,0.0
36.61159133911133,29.233369827270508,-2.280844449996948,-0.0,-0.0,-1.0,0.1301658262839759,2.0,0.0
35.58954620361328,29.497848510742188,-2.2743546962738037,-0.0,-0.0,-1.0,0.0691045010605755,2.0,0.0
35.45857238769531,29.562286376953125,-2.282689332962036,-0.0,-0.0,-1.0,0.0727273259070115,1.0,0.0
36.17333221435547,28.30114364624023,-2.021195411682129,0.8042508938626498,0.5664523986243482,-0.1797558895108905,0.1403210006818835,3.0,0.0
35.26008224487305,29.83100128173828,-2.0923571586608887,0.0818438681406546,-0.2820844446472725,-0.9558922257952596,0.1672336136340469,3.0,0.0
36.954063415527344,28.818456649780273,-2.0311689376831055,-0.0,-0.0,-1.0,0.1289655008080436,1.0,0.0
37.428123474121094,30.25139045715332,-2.575580596923828,-0.0,-0.0,-1.0,0.0123373883589388,1.0,0.0
37.02947616577149,30.473812103271484,-2.570745944976806,-0.0,-0.0,-1.0,0.0760661769418041,2.0,0.0
35.24207305908203,29.62910842895508,-2.189424514770508,-0.0,-0.0,-1.0,0.0592641046078924,1.0,0.0
37.0560302734375,29.04242706298828,-2.284470558166504,-0.0,-0.0,-1.0,0.2283466973422561,1.0,0.0
36.67842102050781,29.25851058959961,-2.2785115242004395,-0.0,-0.0,-1.0,0.135090264895408,2.0,0.0
36.53565979003906,29.321468353271484,-2.2733235359191895,-0.0,-0.0,-1.0,0.1383200320298843,1.0,0.0
36.47521209716797,30.47391891479492,-2.614159345626831,-0.0,-0.0,-1.0,0.0187932026890146,1.0,0.0
36.54781723022461,29.92392349243164,-2.5182509422302246,-0.0,-0.0,-1.0,0.009153144540512,1.0,0.0
36.39954376220703,30.097171783447266,-2.530600070953369,-0.0,-0.0,-1.0,0.0054278550548272,1.0,0.0
37.14662170410156,29.29996109008789,-2.4896607398986816,-0.0,-0.0,-1.0,0.0303462929536399,1.0,0.0
36.97904968261719,29.347206115722656,-2.4728872776031494,-0.0,-0.0,-1.0,0.0362561735352324,1.0,0.0
37.66551971435547,28.991558074951172,-2.516080856323242,-0.0,-0.0,-1.0,0.0164830864974538,2.0,0.0
37.321590423583984,29.08291244506836,-2.4774606227874756,-0.0,-0.0,-1.0,0.083819639555453,1.0,0.0
37.07844161987305,29.077404022216797,-2.4384641647338867,-0.0,-0.0,-1.0,0.1505164855089887,1.0,0.0
36.6146240234375,29.25503921508789,-2.401085376739502,-0.4990618415061102,0.0749351379809226,-0.8633203365195967,0.183680442693445,5.0,0.0
35.84435272216797,29.37623405456543,-2.314054250717163,-0.0,-0.0,-1.0,0.0259507466162406,1.0,0.0
35.61326599121094,29.44908142089844,-2.2968766689300537,0.8210153840929126,-0.2606412799783137,-0.5079368683744402,0.0404220012694504,5.0,0.0
35.6749267578125,29.40048599243164,-2.2956511974334717,-0.0,-0.0,-1.0,0.0352454362764586,2.0,0.0
35.28300094604492,29.30083274841309,-2.2238869667053223,0.2587516731534741,0.9593680593271748,-0.1125188801183529,0.1000291634435858,4.0,0.0
36.05421447753906,28.927919387817383,-2.2575366497039795,-0.0137576334452785,-0.313888049623155,-0.9493603213879106,0.0541670728347769,3.0,0.0
36.238975524902344,28.415023803710938,-2.188380718231201,0.839418771741557,0.5341968839671165,0.1000490620031923,0.179669028540098,3.0,0.0
36.70195770263672,30.541553497314453,-2.620811939239502,-0.0,-0.0,-1.0,0.0390864761238936,1.0,0.0
36.669342041015625,30.04079818725586,-2.5345702171325684,-0.0,-0.0,-1.0,0.0116878439395474,1.0,0.0
36.87876892089844,29.868637084960938,-2.5426979064941406,-0.0,-0.0,-1.0,0.0080579109706843,1.0,0.0
36.59492492675781,30.061159133911133,-2.525331497192383,-0.0,-0.0,-1.0,0.0112287725190677,1.0,0.0
37.108177185058594,29.346820831298828,-2.50197696685791,-0.0,-0.0,-1.0,0.0313706441444965,1.0,0.0
36.63397979736328,29.248136520385746,-2.403375148773194,0.0231808499812977,0.3727235430170195,-0.9276528492248513,0.1331344918929212,3.0,0.0
35.66313171386719,29.480113983154297,-2.277787685394287,0.2868655986992152,-0.2810739226444441,-0.915808701799784,0.0391535163542944,5.0,0.0
37.56097412109375,29.01897430419922,-2.535101413726806,-0.0,-0.0,-1.0,0.0177507445588449,2.0,0.0
37.09831619262695,28.99539566040039,-2.44699764251709,-0.0,-0.0,-1.0,0.1981922257021313,2.0,0.0
36.06607437133789,28.9146728515625,-2.253328800201416,-0.0137576334452785,-0.313888049623155,-0.9493603213879106,0.0551525943578123,3.0,0.0
37.647483825683594,28.65554428100586,-2.498508930206299,-0.0,-0.0,-1.0,0.0348018220810273,1.0,0.0
36.23177719116211,28.33560562133789,-2.19216251373291,0.0094883620626628,0.9344093729130256,0.3560745635364231,0.2336261248412281,8.0,0.0
36.53474426269531,29.372753143310547,-2.155653476715088,-0.93319737781034,0.0996957810016352,-0.3452584615883874,0.1380844899475577,3.0,0.0
35.38970947265625,29.759868621826172,-2.126302719116211,-0.0,-0.0,-1.0,0.171956591067172,2.0,0.0
37.61713790893555,29.65590476989746,-2.5350489616394043,-0.0,-0.0,-1.0,0.016917243268792,1.0,0.0
37.708370208740234,29.26899528503418,-2.496842384338379,0.9805872946582028,0.1168466526581141,-0.1574656067765323,0.0146776367241104,3.0,0.0
36.132904052734375,28.75533103942871,-2.3535289764404297,-0.0,-0.0,-1.0,0.0478638153901305,1.0,0.0
35.47288131713867,28.51858711242676,-2.293851375579834,-0.0,-0.0,-1.0,0.0509003193035927,2.0,0.0
36.90123748779297,28.396886825561523,-2.353878974914551,-0.0,-0.0,-1.0,0.022737599768942,1.0,0.0
36.5748176574707,28.55245018005371,-2.353818416595459,-0.0,-0.0,-1.0,0.0387237130195995,1.0,0.0
35.64168167114258,28.443876266479492,-2.2937655448913574,-0.0,-0.0,-1.0,0.0504607636748419,1.0,0.0
37.38026428222656,30.558332443237305,-1.417195200920105,-0.0,-0.0,-1.0,0.0120377873278119,1.0,0.0
35.53865051269531,28.224136352539062,-2.2197701930999756,-0.0,-0.0,-1.0,0.0225535262124356,1.0,0.0
35.33649444580078,29.295347213745117,-2.2388291358947754,0.5139764267565367,0.7965934510317713,0.3182249306887749,0.104139316470518,3.0,0.0
35.565155029296875,29.665935516357425,-1.986780047416687,-0.0,-0.0,-1.0,0.1710074202910946,1.0,0.0
35.25813293457031,29.47533416748047,-1.9648889303207395,-0.0,-0.0,-1.0,0.0558942179188866,1.0,0.0
35.52370071411133,29.667028427124023,-2.222154140472412,-0.0,-0.0,-1.0,0.0889391896484982,1.0,0.0
35.37444305419922,29.27924156188965,-2.188549518585205,-0.0,-0.0,-1.0,0.0714562866432972,2.0,0.0
35.248348236083984,29.240633010864254,-2.189241886138916,-0.0,-0.0,-1.0,0.0731341797531642,1.0,0.0
37.41694641113281,30.37454605102539,-2.0976505279541016,-0.0,-0.0,-1.0,0.0988534277119852,1.0,0.0
37.40092468261719,30.53541374206543,-1.947301745414734,-0.0,-0.0,-1.0,0.0336739779774864,1.0,0.0
37.45221328735352,30.53514862060547,-1.944963455200195,-0.0,-0.0,-1.0,0.0342810219772905,1.0,0.0
37.3775520324707,30.567306518554688,-0.700965166091919,-0.0,-0.0,-1.0,0.0257591607982391,1.0,0.0
37.43337631225586,30.458667755126953,-1.076209306716919,-0.0,-0.0,-1.0,0.0122194333367849,1.0,0.0
36.742401123046875,29.210613250732425,-2.3851656913757324,-0.0,-0.0,-1.0,0.131631906221972,1.0,0.0
36.364013671875,28.310379028320312,-2.278049945831299,0.9245539415908612,0.2789950772480716,0.2595414339949307,0.1683441396277928,3.0,0.0
35.819950103759766,28.616792678833008,-2.3206748962402344,-0.0,-0.0,-1.0,0.0428673280500732,1.0,0.0
35.33150863647461,28.51209259033203,-2.312976837158203,-0.0,-0.0,-1.0,0.0302292846644766,2.0,0.0
36.292137145996094,28.282625198364254,-2.221937417984009,-0.7521471276786705,0.5509833349662647,0.3615135722406264,0.2072191458828592,4.0,0.0
35.743324279785156,28.67017364501953,-2.271061897277832,-0.0,-0.0,-1.0,0.0724850779534356,2.0,0.0
35.56614303588867,28.848146438598633,-2.2936885356903076,-0.0,-0.0,-1.0,0.0399921822703531,1.0,0.0
35.25751495361328,28.934568405151367,-2.3063549995422363,-0.0,-0.0,-1.0,0.037149797955459,1.0,0.0
37.42963790893555,30.553958892822266,-1.3342235088348389,-0.0,-0.0,-1.0,0.0119526604674974,1.0,0.0
37.18062210083008,28.465761184692383,-2.4311976432800293,-0.0,-0.0,-1.0,0.0270370120085006,1.0,0.0
36.89644241333008,28.268827438354492,-2.404233455657959,-0.0,-0.0,-1.0,0.0723026342037954,1.0,0.0
37.048583984375,28.38807678222656,-2.4205121994018555,-0.0,-0.0,-1.0,0.0305137966954256,1.0,0.0
36.250823974609375,28.359233856201172,-2.199143648147583,-0.7498190083320715,0.4791457870014708,0.4562792670532487,0.2614833265010422,11.0,0.0
35.94879913330078,28.801477432250977,-2.2619338035583496,-0.1181321500289642,0.0191474105137381,-0.9928132612934584,0.0359328592738062,5.0,0.0
35.559417724609375,29.002182006835938,-2.2933456897735596,-0.0,-0.0,-1.0,0.0395866012678347,2.0,0.0
37.130592346191406,28.927471160888672,-2.212425470352173,-0.0,-0.0,-1.0,0.1721705910070409,2.0,0.0
36.272335052490234,28.3419246673584,-2.123767852783203,-0.910927414643364,0.4010122829200264,0.096955630050172,0.142467166958744,5.0,0.0
35.690860748291016,29.473073959350582,-2.2650864124298096,0.1883627118041503,-0.6249328122781422,-0.7576136673397058,0.0391535163542944,3.0,0.0
35.4443359375,29.333576202392575,-2.244432210922241,-0.0,-0.0,-1.0,0.0401658235836686,1.0,0.0
35.45144271850586,29.7590389251709,-2.060791492462158,-0.7362894620702777,0.2626952642745851,-0.6235936386557889,0.2284724441038862,3.0,0.0
36.88817596435547,29.44952964782715,-2.1923975944519043,-0.0,-0.0,-1.0,0.0791489614278234,1.0,0.0
36.23109436035156,28.333282470703125,-2.0181331634521484,-0.0,-0.0,-1.0,0.1215563809583309,2.0,0.0
36.25663375854492,28.3106689453125,-2.1333141326904297,-0.8397958002764405,0.2797666662895147,0.4652672632705898,0.1963742591537207,3.0,0.0
35.392513275146484,29.282730102539062,-2.25370454788208,-0.0,-0.0,-1.0,0.0753597064367019,1.0,0.0
35.62646484375,29.479164123535156,-2.2890520095825195,0.3858774536149669,0.2164821033433801,-0.8967909955634339,0.0404220012694504,6.0,0.0
36.98248291015625,30.44266891479492,-2.455902576446533,-0.0,-0.0,-1.0,0.0734936003200012,1.0,0.0
37.1773796081543,28.97058486938477,-2.2417893409729004,-0.0,-0.0,-1.0,0.1956456413352291,1.0,0.0
36.218544006347656,28.302265167236328,-2.09197998046875,-0.0356760554510659,0.5083354588280182,-0.8604198279709508,0.1260068749227527,4.0,0.0
35.59757614135742,29.451114654541016,-2.239372730255127,-0.0,-0.0,-1.0,0.040248016957626,1.0,0.0
37.18812942504883,28.83924102783203,-2.421190023422241,-0.0,-0.0,-1.0,0.180545305130002,1.0,0.0
36.931251525878906,28.657251358032227,-2.3785154819488525,-0.0,-0.0,-1.0,0.0127531247888516,2.0,0.0
37.01369857788086,28.98516845703125,-2.439971446990967,-0.0,-0.0,-1.0,0.1616634475608575,1.0,0.0
36.28679656982422,28.342588424682617,-2.297025203704834,-0.3815718668360369,0.7682344160722622,0.5140221711184955,0.2454592939791141,3.0,0.0
36.63117980957031,29.086101531982425,-2.4432246685028076,-0.0,-0.0,-1.0,0.1133352971583555,2.0,0.0
35.91615295410156,28.159687042236328,-2.2503433227539062,-0.0,-0.0,-1.0,0.0499098818282102,2.0,0.0
36.032005310058594,28.68121337890625,-2.3485114574432373,-0.0,-0.0,-1.0,0.0647136213392908,2.0,0.0
35.62990188598633,28.57234764099121,-2.314870595932007,-0.0,-0.0,-1.0,0.0820010300190278,2.0,0.0
35.248504638671875,28.627899169921875,-2.312643527984619,-0.0,-0.0,-1.0,0.0199024337325687,1.0,0.0
37.70689392089844,29.247249603271484,-2.522171974182129,0.9805872946582028,0.1168466526581141,-0.1574656067765323,0.0137972982342322,3.0,0.0
37.05475997924805,28.741554260253903,-2.3988280296325684,-0.0,-0.0,-1.0,0.0177505164289399,2.0,0.0
36.97737121582031,28.558815002441406,-2.361063003540039,-0.5593760310868037,0.4801634024237531,-0.6756785943171649,0.0241784503434897,3.0,0.0
36.873512268066406,28.834369659423828,-2.4087421894073486,-0.0,-0.0,-1.0,0.0643340609040708,1.0,0.0
36.61109161376953,29.018051147460938,-2.4332525730133057,-0.0,-0.0,-1.0,0.0538191571941978,1.0,0.0
36.32734298706055,28.362735748291016,-2.2970378398895264,0.0667960502116549,-0.1350468437675774,-0.988585169656382,0.1757243895314429,3.0,0.0
36.322998046875,28.71820068359375,-2.3648951053619385,-0.0,-0.0,-1.0,0.020374164690586,2.0,0.0
35.849639892578125,28.561626434326172,-2.317253351211548,-0.0,-0.0,-1.0,0.0683490703383642,1.0,0.0
36.03522491455078,28.66269302368164,-2.3434274196624756,-0.0,-0.0,-1.0,0.0647136213392909,2.0,0.0
35.55550003051758,28.54720687866211,-2.30434513092041,-0.0,-0.0,-1.0,0.0548375709129229,1.0,0.0
35.31772994995117,28.54825210571289,-2.2967429161071777,-0.5387203334343267,0.1655782008848438,-0.8260534254732838,0.0301728422832822,3.0,0.0
37.23100662231445,28.58012008666992,-2.4372706413269043,-0.0,-0.0,-1.0,0.0125571368007638,1.0,0.0
36.9701042175293,28.524240493774418,-2.410304307937622,-0.4842937366815324,0.8742433810397789,0.034030682026288,0.0306655244490698,4.0,0.0
36.842044830322266,28.687427520751953,-2.433478355407715,-0.0,-0.0,-1.0,0.0108400988687494,1.0,0.0
36.52617645263672,28.48633575439453,-2.3761394023895264,-0.0,-0.0,-1.0,0.0647229797417915,1.0,0.0
36.454811096191406,28.76407241821289,-2.425506591796875,-0.5728960830416219,-0.6217044059665633,-0.5341102036446499,0.0090439112100848,3.0,0.0
36.214786529541016,28.737396240234375,-2.4068310260772705,-0.0,-0.0,-1.0,0.0267151416587026,2.0,0.0
36.321475982666016,28.324562072753903,-2.333059549331665,-0.0,-0.0,-1.0,0.1872300614143736,2.0,0.0
35.986000061035156,28.589427947998047,-2.365476608276367,-0.0,-0.0,-1.0,0.0580212202676092,1.0,0.0
35.67837905883789,28.54597282409668,-2.340663433074951,-0.0,-0.0,-1.0,0.0633363072490667,2.0,0.0
35.35161209106445,28.58456802368164,-2.331784725189209,-0.0,-0.0,-1.0,0.0275074623259496,1.0,0.0
36.73968505859375,29.69054412841797,-2.1515040397644043,-0.0,-0.0,-1.0,0.1340747548566119,1.0,0.0
35.46080017089844,29.781818389892575,-2.062243938446045,-0.7362894620702777,0.2626952642745851,-0.6235936386557889,0.2499792248809089,3.0,0.0
36.53365707397461,29.36383819580078,-2.1552891731262207,-0.93319737781034,0.0996957810016352,-0.3452584615883874,0.1380844899475578,3.0,0.0
35.29259490966797,29.891334533691406,-2.1047825813293457,-0.0,-0.0,-1.0,0.1690964831197388,2.0,0.0
35.587013244628906,28.1563720703125,-2.3112995624542236,-0.5000257437051033,-0.6729153067489253,-0.5451231471650769,0.0255458154634245,3.0,0.0
35.365699768066406,28.41241455078125,-2.3058829307556152,-0.0,-0.0,-1.0,0.0208397667417191,2.0,0.0
36.421730041503906,28.797407150268555,-2.4288249015808105,-0.0,-0.0,-1.0,0.0137174778189653,2.0,0.0
35.803794860839844,28.96932601928711,-2.327702045440674,-0.0,-0.0,-1.0,0.0218143417382977,1.0,0.0
35.777503967285156,29.185657501220703,-2.339566946029663,-0.0,-0.0,-1.0,0.0190005325761764,2.0,0.0
36.36866760253906,28.53285217285156,-2.400689601898194,-0.0,-0.0,-1.0,0.0452972675241618,1.0,0.0
35.786338806152344,28.749595642089844,-2.3081650733947754,-0.0,-0.0,-1.0,0.0553789931318682,2.0,0.0
35.517242431640625,29.00737762451172,-2.278775930404663,-0.0,-0.0,-1.0,0.0296349460305161,2.0,0.0
35.26127243041992,29.17419815063477,-2.246147394180298,-0.5285259636368282,0.7201879163331899,0.4494326099977842,0.0598156031051594,3.0,0.0
37.36308670043945,30.61161422729492,-1.103729009628296,-0.0,-0.0,-1.0,0.0122194333367848,1.0,0.0
