x,y,z,nx,ny,nz,curvature,density,label
16.52608871459961,-9.330102920532228,1.3552322387695312,0.4813411022664429,-0.8765311090981746,0.0019894853730784,0.0855623876565306,3.0,2.0
16.97014045715332,-9.019159317016602,1.2904176712036133,-0.0,-0.0,-1.0,0.2394371618740582,1.0,2.0
15.833335876464844,-9.015302658081056,1.5174882411956787,-0.0,-0.0,-1.0,0.1494028046250918,1.0,2.0
17.096675872802734,-9.181302070617676,1.3770315647125244,-0.0,-0.0,-1.0,0.2266848312757473,2.0,2.0
17.66162109375,-8.561397552490234,1.2264020442962646,-0.5783817606013916,-0.806703493721247,0.121260101523827,0.2508351892268102,8.0,2.0
16.43758773803711,-9.297971725463867,1.4847841262817385,-0.0,-0.0,-1.0,0.1170898342924591,1.0,2.0
16.89772605895996,-9.124799728393556,1.384086847305298,0.768600035413199,-0.4793562079182872,-0.4236408992212963,0.2043573075977712,3.0,2.0
16.210445404052734,-9.22162914276123,1.5471255779266355,-0.0,-0.0,-1.0,0.1409491471884401,1.0,2.0
17.693248748779297,-8.534690856933594,1.051927089691162,0.9152007757094816,-0.3229008728020032,0.241127697464368,0.0889409782272858,4.0,2.0
17.138418197631836,-9.34442901611328,1.00923490524292,-0.0,-0.0,-1.0,0.126819201699406,1.0,2.0
17.094192504882812,-8.973731994628906,1.0823354721069336,-0.0,-0.0,-1.0,0.14978934334485,1.0,2.0
16.276153564453125,-9.341516494750977,1.150162696838379,-0.0,-0.0,-1.0,0.0634624648269491,1.0,2.0
16.988887786865234,-9.299346923828123,1.5668127536773682,-0.0,-0.0,-1.0,0.1693721294923286,1.0,2.0
15.814035415649414,-9.006534576416016,1.2849879264831543,-0.0,-0.0,-1.0,0.1300672768939147,1.0,2.0
17.175933837890625,-9.311660766601562,0.900444507598877,-0.6749474866174539,0.3303912595854845,-0.6597632195707022,0.2309170297145568,6.0,1.0
17.51221466064453,-8.552594184875488,0.9998049736022948,-0.2222989528219445,-0.7477909976172217,-0.6256131388141614,0.1417092641491086,3.0,1.0
17.156394958496094,-9.187939643859863,0.9274659156799316,-0.4022091203070356,-0.8689191695240714,-0.288456756508559,0.2329353341930991,4.0,1.0
17.459259033203125,-7.653212547302246,1.1755340099334717,-0.0,-0.0,-1.0,0.1034434843691292,1.0,2.0
16.439451217651367,-9.121885299682615,1.0356249809265137,-0.0,-0.0,-1.0,0.2693542870602584,1.0,2.0
16.6221923828125,-8.76186466217041,1.0838866233825684,-0.0,-0.0,-1.0,0.1555566874171472,2.0,2.0
15.834797859191896,-9.074231147766112,1.1205439567565918,-0.0,-0.0,-1.0,0.1593305853172502,2.0,2.0
17.423446655273438,-7.543859481811523,0.1868410110473632,-0.0,-0.0,-1.0,0.1619025004995266,2.0,1.0
17.678253173828125,-7.247549057006836,0.282895565032959,0.783962129910882,-0.5534420135862138,0.2812566736332313,0.1577573252194169,3.0,1.0
17.260360717773438,-7.554404258728027,0.187934398651123,-0.0,-0.0,-1.0,0.1094479573411366,1.0,1.0
17.321945190429688,-8.735523223876953,0.3447551727294922,-0.0,-0.0,-1.0,0.151882191222091,1.0,1.0
17.64576530456543,-8.59862232208252,0.3880548477172851,-0.0,-0.0,-1.0,0.1857159957373726,1.0,1.0
16.95496368408203,-8.746221542358398,0.3415613174438476,-0.0,-0.0,-1.0,0.0687112179557755,1.0,1.0
17.466312408447266,-7.333728790283203,0.2597417831420898,-0.0,-0.0,-1.0,0.2090125231942806,1.0,1.0
17.56631851196289,-7.220991134643555,0.2960348129272461,-0.0,-0.0,-1.0,0.2583701364924121,2.0,1.0
16.68732261657715,-8.809350967407227,0.3203969001770019,-0.0,-0.0,-1.0,0.0665010242023649,1.0,1.0
17.11671257019043,-7.490592002868652,0.214482307434082,-0.0,-0.0,-1.0,0.1096447418021239,1.0,1.0
17.433732986450195,-6.979602813720703,0.3853015899658203,-0.0,-0.0,-1.0,0.1904543620427548,1.0,1.0
16.68707275390625,-7.590499877929688,0.1897287368774414,-0.0,-0.0,-1.0,0.0842715452788116,1.0,1.0
15.75071620941162,-7.582745552062988,0.2094144821166992,-0.0,-0.0,-1.0,0.0845002382279242,1.0,1.0
15.926387786865234,-6.916362762451172,0.4487652778625488,-0.0,-0.0,-1.0,0.1110949218148568,1.0,1.0
15.31752586364746,-7.500316619873047,0.2441916465759277,-0.0,-0.0,-1.0,0.1470699333243621,1.0,1.0
15.478466987609863,-6.921263694763184,0.4546294212341308,-0.0,-0.0,-1.0,0.1327488160306841,1.0,1.0
15.686054229736328,-6.8885040283203125,0.4632058143615722,-0.5934972726637765,-0.7659889241565213,-0.2470262241345918,0.1111426834879534,3.0,1.0
17.70563507080078,-7.721452713012695,0.6705093383789062,-0.0,-0.0,-1.0,0.1782332016995975,1.0,1.0
17.172042846679688,-8.468097686767578,0.4324660301208496,-0.0,-0.0,-1.0,0.2047888979920981,1.0,1.0
17.24606704711914,-7.891606330871582,0.619544506072998,-0.0,-0.0,-1.0,0.1876269256937859,1.0,1.0
17.49736976623535,-7.698562622070312,0.6799242496490479,-0.0,-0.0,-1.0,0.176061997050842,1.0,1.0
17.698936462402344,-7.467964172363281,0.7517037391662598,-0.0,-0.0,-1.0,0.0809154016689877,2.0,1.0
16.435142517089844,-8.744516372680664,0.3408637046813965,-0.0,-0.0,-1.0,0.0627905081306184,2.0,1.0
16.533496856689453,-8.708903312683105,0.3530616760253906,-0.0,-0.0,-1.0,0.0627016521966198,1.0,1.0
16.86020278930664,-8.098340034484863,0.5539464950561523,-0.0,-0.0,-1.0,0.2117163217547138,1.0,1.0
17.02741241455078,-8.074580192565918,0.56121826171875,-0.0,-0.0,-1.0,0.2221113023841363,1.0,1.0
16.085954666137695,-8.732393264770508,0.3427267074584961,-0.0,-0.0,-1.0,0.0903469865031955,1.0,1.0
15.475221633911133,-8.682065963745117,0.353431224822998,-0.0,-0.0,-1.0,0.069473916009686,2.0,1.0
15.623662948608398,-8.694284439086914,0.351104736328125,-0.0,-0.0,-1.0,0.0812757380572913,1.0,1.0
15.234332084655762,-8.64424991607666,0.3627910614013672,-0.0,-0.0,-1.0,0.039562293128277,1.0,1.0
15.27699851989746,-8.56631851196289,0.3896703720092773,-0.0,-0.0,-1.0,0.0449018264603589,2.0,1.0
15.463598251342772,-8.007412910461426,0.5791163444519043,-0.0,-0.0,-1.0,0.2879681073636728,1.0,1.0
15.67088222503662,-7.845785140991211,0.6346087455749512,-0.0,-0.0,-1.0,0.0866078238634426,1.0,1.0
15.461652755737305,-7.308211326599121,0.8117575645446777,-0.0,-0.0,-1.0,0.0898670902255989,1.0,1.0
17.607532501220703,-9.34204387664795,0.7408442497253418,-0.0,-0.0,-1.0,0.1811698455556635,1.0,1.0
17.655750274658203,-8.603829383850098,0.9581255912780762,-0.0,-0.0,-1.0,0.2273350952345206,2.0,1.0
16.276018142700195,-9.062865257263184,0.7960038185119629,-0.0,-0.0,-1.0,0.2011757126714891,1.0,1.0
15.857366561889648,-9.298906326293944,0.7142958641052246,-0.0,-0.0,-1.0,0.1688960746376182,1.0,1.0
16.87952995300293,-9.128103256225586,1.3548121452331543,-0.0,-0.0,-1.0,0.1550582198587766,2.0,2.0
15.923066139221191,-9.247920989990234,1.2838222980499268,-0.0,-0.0,-1.0,0.2126669714592036,1.0,2.0
17.5533504486084,-9.133686065673828,0.5453019142150879,-0.0,-0.0,-1.0,0.1492787159209624,1.0,1.0
17.666839599609375,-8.83023452758789,0.5988690853118896,0.6037993084149741,-0.5603651430041553,-0.566936770428177,0.1406461785647213,3.0,1.0
17.35004425048828,-9.085992813110352,0.5796785354614258,-0.0,-0.0,-1.0,0.2195514906628626,2.0,1.0
17.69140625,-7.541164875030518,0.8747978210449219,-0.0,-0.0,-1.0,0.1821660264975741,1.0,1.0
17.58742904663086,-7.1455769538879395,0.972381591796875,-0.0,-0.0,-1.0,0.2326417858614973,1.0,1.0
17.269882202148438,-7.460002422332764,0.9470300674438475,-0.0,-0.0,-1.0,0.1763187572669189,1.0,1.0
17.60192108154297,-7.328033447265625,0.2334599494934082,-0.0,-0.0,-1.0,0.253250350293413,2.0,1.0
17.220972061157227,-7.590885162353516,0.2280950546264648,-0.0,-0.0,-1.0,0.1426368872416372,2.0,1.0
17.3582763671875,-7.489561080932617,0.2318582534790039,-0.0,-0.0,-1.0,0.2196223064377745,1.0,1.0
16.944244384765625,-7.613279342651367,0.2556595802307129,-0.0,-0.0,-1.0,0.2090660191617786,2.0,1.0
17.316587448120117,-7.581680297851563,0.4594300985336303,-0.0,-0.0,-1.0,0.1768235405787704,2.0,1.0
17.650222778320312,-7.430522918701172,0.445958137512207,-0.0,-0.0,-1.0,0.1658505947560803,2.0,1.0
17.115482330322266,-6.933193206787109,0.110048770904541,-0.0,-0.0,-1.0,0.0855536875878553,1.0,1.0
15.457571029663086,-7.242992401123047,0.3691694736480713,-0.0,-0.0,-1.0,0.1483089657482064,1.0,1.0
16.867332458496094,-7.532535552978516,0.3056457042694092,-0.7821285122365683,0.4888400819092516,-0.3864069935515772,0.2448492895911114,4.0,1.0
17.021116256713867,-7.665561676025391,0.2936372756958008,-0.5115962455032286,0.7787393540888635,0.3630899337357887,0.1560625887118146,3.0,1.0
17.13941192626953,-7.516654968261719,0.2965831756591797,-0.0,-0.0,-1.0,0.1381068583906605,2.0,1.0
17.52170181274414,-7.205562591552734,0.2976799011230469,-0.0,-0.0,-1.0,0.2632894388147185,2.0,1.0
15.911004066467283,-9.186397552490234,0.8645011186599731,-0.1504149608331425,0.9746083343398084,-0.1658732473696339,0.2740342332662323,4.0,1.0
17.6851863861084,-8.795269012451172,0.753968358039856,-0.0,-0.0,-1.0,0.1261460632471329,2.0,1.0
15.83392333984375,-9.011064529418944,0.4421460628509521,-0.0,-0.0,-1.0,0.1923306952691906,1.0,1.0
16.393203735351562,-9.27153205871582,0.3961131572723388,-0.0,-0.0,-1.0,0.0976618300676674,1.0,1.0
16.579557418823242,-8.959749221801758,0.3994455337524414,0.2301269482437613,0.9415614351629464,0.2459749001542758,0.1950515857135273,3.0,1.0
16.726892471313477,-9.13005256652832,0.3824291229248047,-0.0,-0.0,-1.0,0.0581652652352967,2.0,1.0
16.97332000732422,-7.846307754516602,0.4276622533798218,0.3905577798991494,0.3854455663152884,-0.8360002009378549,0.2173304567278445,3.0,1.0
17.28369140625,-7.592508316040039,0.4203848838806152,-0.7838702318733148,0.5150663732511888,-0.3467767159552996,0.2194604453500326,3.0,1.0
17.65631103515625,-7.34834098815918,0.4085946083068847,-0.0368857132946292,-0.8917759309236358,-0.4509713219042085,0.2171557176832781,4.0,1.0
17.415292739868164,-7.605388641357422,0.7382407188415527,0.7784484192957544,-0.0184781120566612,-0.6274365448957869,0.2298784571310965,3.0,1.0
17.686410903930664,-8.58565902709961,0.6808410882949829,-0.0,-0.0,-1.0,0.1246878890018891,2.0,1.0
15.274306297302246,-8.779060363769531,0.4149427413940429,-0.0,-0.0,-1.0,0.0468719581743835,2.0,1.0
15.77455711364746,-9.036117553710938,0.3706912994384765,-0.0,-0.0,-1.0,0.1231676523501189,1.0,1.0
16.392900466918945,-8.699504852294922,0.3512241840362549,-0.0,-0.0,-1.0,0.0455990501325889,1.0,1.0
16.581483840942383,-8.76723861694336,0.3358633518218994,-0.0,-0.0,-1.0,0.0667148876284517,2.0,1.0
16.767885208129883,-8.75027084350586,0.3252186775207519,-0.0,-0.0,-1.0,0.0900928527970955,1.0,1.0
17.20970916748047,-7.633937835693359,0.3584998846054077,-0.5956196933054652,0.6749074882909568,0.4355881807343898,0.2278937354589059,3.0,1.0
16.920440673828125,-7.792320251464844,0.3680016994476318,-0.0,-0.0,-1.0,0.2022250728284552,1.0,1.0
17.37601089477539,-7.477424621582031,0.3565433025360107,-0.0,-0.0,-1.0,0.2462669360804958,1.0,1.0
17.48743438720703,-8.950189590454102,0.6380887031555176,-0.0,-0.0,-1.0,0.122414859560249,1.0,1.0
17.25520896911621,-9.339555740356444,0.6356160640716553,0.1154473505035749,-0.1309095393144591,-0.9846494816827868,0.1533478583122817,5.0,1.0
17.61225128173828,-9.015424728393556,0.6267589330673218,-0.0,-0.0,-1.0,0.2421929975098429,2.0,1.0
17.178491592407227,-7.124338150024414,0.1893727779388427,-0.0,-0.0,-1.0,0.10353351719525,2.0,1.0
17.293092727661133,-7.221614837646484,0.1762392520904541,0.6501890763090833,0.6874136532760429,-0.3235994968136155,0.1362081848007001,3.0,1.0
17.562204360961914,-6.963798522949219,0.1772100925445556,0.7594877585123871,0.6164775277503737,0.2076867892972906,0.2528946235637452,4.0,1.0
16.366329193115234,-9.344331741333008,1.283475399017334,-0.0,-0.0,-1.0,0.054199851634213,1.0,2.0
17.634618759155273,-8.543519973754883,1.2360625267028809,-0.6345467497844245,0.0376896090433937,-0.7719649705188565,0.261305931331784,5.0,2.0
15.695053100585938,-8.88850212097168,0.3552404642105102,-0.0,-0.0,-1.0,0.1458870736512866,2.0,1.0
16.2578067779541,-8.712373733520508,0.3316049575805664,-0.0,-0.0,-1.0,0.092241168148076,1.0,1.0
16.610225677490234,-8.628774642944336,0.3146674633026123,-0.0,-0.0,-1.0,0.0466973372131004,1.0,1.0
15.45790672302246,-7.329137802124023,0.4674484729766845,-0.2031713156920899,-0.3606166968598679,-0.91031698568456,0.1311344941900893,4.0,1.0
16.91791343688965,-7.730922698974609,0.3514175415039062,-0.0,-0.0,-1.0,0.230508669505194,1.0,1.0
17.181751251220703,-7.684726715087891,0.3372597694396972,-0.9235730908615174,0.2763496092857285,-0.2657887117319495,0.1934131437159875,3.0,1.0
17.54469108581543,-7.296501159667969,0.3378393650054931,-0.0,-0.0,-1.0,0.1885843505291663,2.0,1.0
17.06352424621582,-9.292444229125977,1.3977088928222656,-0.0,-0.0,-1.0,0.1494362587880618,1.0,2.0
15.6748628616333,-8.94743537902832,0.6583107709884644,-0.0,-0.0,-1.0,0.2617261152917498,2.0,1.0
15.511896133422852,-9.04554557800293,0.6619101762771606,0.7700656448221773,0.1510617579413511,-0.6198219485886838,0.1382344668463736,3.0,1.0
15.944375991821287,-9.190309524536133,0.6292160749435425,-0.0,-0.0,-1.0,0.2167888191498565,1.0,1.0
16.880889892578125,-9.327415466308594,0.5666429996490479,-0.0,-0.0,-1.0,0.0972710166634695,2.0,1.0
17.131752014160156,-7.678108215332031,0.6452003717422485,-0.7697273436339279,0.6288712218886993,0.1097305916436773,0.1818051588136286,3.0,1.0
17.44608497619629,-7.598306655883789,0.6305527687072754,-0.0,-0.0,-1.0,0.2320733270855622,2.0,1.0
17.705854415893555,-7.508136749267578,0.6195824146270752,-0.0,-0.0,-1.0,0.1426497469046551,1.0,1.0
15.911030769348145,-9.057012557983398,1.11138916015625,-0.0,-0.0,-1.0,0.1925537624312507,2.0,2.0
17.186222076416016,-9.274078369140623,1.0104496479034424,-0.0,-0.0,-1.0,0.2387937793779371,1.0,2.0
16.654611587524414,-8.787485122680664,1.0701183080673218,-0.3425838286869091,0.0699802741501595,-0.936877303360524,0.1555566874171472,3.0,2.0
17.65477180480957,-8.528043746948242,1.0086058378219604,0.0419862091782114,-0.4257589874975899,-0.9038619600380748,0.1768167698664396,3.0,2.0
17.245420455932617,-7.008543014526367,0.1346926689147949,-0.0,-0.0,-1.0,0.0724359626583274,1.0,1.0
17.3409366607666,-6.959705352783203,0.1326005458831787,-0.0,-0.0,-1.0,0.1036962735998281,2.0,1.0
17.154329299926758,-6.909507751464844,0.1484420299530029,-0.0,-0.0,-1.0,0.1008078751352688,2.0,1.0
15.869690895080566,-9.168132781982422,1.0871984958648682,0.5061475970526731,0.6298049921764715,-0.5892030904767892,0.1298453583450732,3.0,2.0
16.69818878173828,-8.790302276611328,1.0539731979370115,0.2311056068110412,0.960998338370803,-0.1518959912211511,0.1555566874171473,4.0,2.0
17.11111068725586,-9.244073867797852,1.0075621604919434,-0.1568895267371607,0.9589591640411984,-0.236184246091045,0.213908070351218,3.0,2.0
16.091426849365234,-9.016826629638672,1.0487987995147705,-0.0,-0.0,-1.0,0.2040314171266231,1.0,2.0
16.18473243713379,-9.286245346069336,1.0273103713989258,-0.0,-0.0,-1.0,0.1390730781124806,1.0,2.0
17.28154754638672,-8.12611198425293,0.9919929504394532,-0.0,-0.0,-1.0,0.1949061409970269,1.0,1.0
15.234408378601074,-7.884864807128906,0.2745718955993652,-0.0,-0.0,-1.0,0.1258915231257152,1.0,1.0
16.588109970092773,-7.816993713378906,0.1902096271514892,-0.0,-0.0,-1.0,0.0881079485224308,1.0,1.0
16.962312698364258,-7.621007919311523,0.1800358295440673,-0.0,-0.0,-1.0,0.1581533298040352,1.0,1.0
17.32928466796875,-7.48297119140625,0.1649549007415771,-0.2009534664685257,-0.9795456627094544,0.010392255836851,0.2571585984280194,3.0,1.0
17.61432647705078,-7.352043151855469,0.1548056602478027,-0.0,-0.0,-1.0,0.1815037587165409,2.0,1.0
15.661809921264648,-9.328372955322266,1.1317996978759766,-0.0,-0.0,-1.0,0.0972439238188578,1.0,2.0
15.76267433166504,-9.304494857788086,1.1260871887207031,-0.0,-0.0,-1.0,0.2043250906300541,1.0,2.0
16.170530319213867,-8.973678588867188,1.113748550415039,-0.0,-0.0,-1.0,0.1742252816422821,2.0,2.0
16.941041946411133,-9.333700180053713,1.0424827337265017,0.2826537552972087,0.1308966887385335,-0.950248868188578,0.1005514782267067,3.0,2.0
17.530128479003906,-9.321916580200195,1.0003266334533691,-0.0,-0.0,-1.0,0.1447469895234142,1.0,2.0
15.264171600341797,-9.286516189575195,0.5367114543914795,0.3954389654530086,-0.2444785493390426,-0.8853577037076775,0.2433852214941018,3.0,1.0
15.425914764404297,-9.117143630981444,0.5392056703567505,-0.0,-0.0,-1.0,0.1347633495785885,1.0,1.0
15.964908599853516,-9.083662033081056,0.5096968412399292,-0.0,-0.0,-1.0,0.1998832065056572,2.0,1.0
16.21150016784668,-8.940649032592773,0.5047004222869873,-0.0,-0.0,-1.0,0.1430896415410081,1.0,1.0
16.498737335205078,-9.006919860839844,0.4822666645050049,-0.0,-0.0,-1.0,0.1580708194700196,1.0,1.0
16.730844497680664,-9.226682662963867,0.4522269964218139,-0.4458330748094085,-0.853214366042388,0.2706623634435979,0.0969722889836397,3.0,1.0
16.875751495361328,-9.245513916015623,0.4416401386260986,-0.0,-0.0,-1.0,0.117012056125752,1.0,1.0
16.98855972290039,-8.749715805053711,0.4691208600997925,-0.0,-0.0,-1.0,0.0800557984881484,1.0,1.0
17.077869415283203,-8.965551376342773,0.4481858015060425,-0.0,-0.0,-1.0,0.0718343668366974,1.0,1.0
17.48287010192871,-7.52354621887207,0.5226055383682251,-0.0,-0.0,-1.0,0.2345887259309276,2.0,1.0
17.341997146606445,-7.73828125,0.5169111490249634,-0.0,-0.0,-1.0,0.2082087757869515,1.0,1.0
15.88078498840332,-6.992610931396484,0.6607943773269653,-0.0,-0.0,-1.0,0.1046556656563799,1.0,1.0
17.666215896606445,-7.368886947631836,0.5210988521575928,-0.0,-0.0,-1.0,0.1725512481392797,1.0,1.0
16.17154884338379,-8.91836166381836,1.4809198379516602,-0.0,-0.0,-1.0,0.156371628664285,1.0,2.0
17.421422958374023,-9.29743766784668,1.3865206241607666,-0.0,-0.0,-1.0,0.130972632080772,1.0,2.0
15.622177124023438,-8.975690841674805,0.69379723072052,-0.0,-0.0,-1.0,0.137110578925601,1.0,1.0
16.065176010131836,-9.26350212097168,0.6489912271499634,-0.0,-0.0,-1.0,0.2481872014009284,2.0,1.0
16.492597579956055,-9.357261657714844,0.6170032024383545,-0.0,-0.0,-1.0,0.0771426032933333,2.0,1.0
15.28286838531494,-7.807928085327148,0.7894579172134399,-0.0,-0.0,-1.0,0.0474537875543285,1.0,1.0
16.689239501953125,-9.276985168457031,0.6101558208465576,-0.0,-0.0,-1.0,0.1375852816049625,1.0,1.0
16.88201141357422,-9.242143630981444,0.6003860235214233,-0.0,-0.0,-1.0,0.1005149188105432,2.0,1.0
17.127113342285156,-9.028217315673828,0.5989375114440918,-0.0,-0.0,-1.0,0.1328856986580903,1.0,1.0
17.65483283996582,-8.456327438354492,0.6023401021957397,-0.0,-0.0,-1.0,0.199041847131078,1.0,1.0
17.202138900756836,-7.407333374023437,0.7013645172119141,-0.0,-0.0,-1.0,0.251790456092211,2.0,1.0
17.41857147216797,-7.443063735961914,0.6850103139877319,-0.0,-0.0,-1.0,0.2477438456259635,2.0,1.0
17.64249610900879,-7.389347076416016,0.6738650798797607,0.0368020759303449,0.959118421903332,-0.2806019600303588,0.1256190645853274,3.0,1.0
15.567815780639648,-9.335210800170898,0.4000570774078369,-0.0,-0.0,-1.0,0.2439147129162167,2.0,1.0
15.404613494873049,-8.889341354370117,0.4413349628448486,-0.0,-0.0,-1.0,0.1282834946713444,1.0,1.0
15.807180404663086,-8.906757354736328,0.4232038259506225,0.6576115404618635,0.3363792409267294,0.6740890654245417,0.1865453475941882,3.0,1.0
15.996992111206056,-8.883520126342773,0.4168151617050171,-0.0,-0.0,-1.0,0.108815913948728,2.0,1.0
16.34591293334961,-9.039417266845703,0.3891943693161011,-0.4560241426767543,0.4583444482596875,-0.762864567302384,0.0840869084871244,4.0,1.0
16.54633331298828,-8.887971878051758,0.3918802738189697,-0.0,-0.0,-1.0,0.1392912471353354,2.0,1.0
16.678586959838867,-8.967063903808594,0.3795680999755859,-0.0,-0.0,-1.0,0.1555679410731002,2.0,1.0
15.615129470825195,-6.998773574829102,0.5791805982589722,-0.0,-0.0,-1.0,0.2344553400138748,2.0,1.0
16.973777770996094,-7.688983917236328,0.4655638933181762,-0.0,-0.0,-1.0,0.1821756383527759,1.0,1.0
17.15207862854004,-7.672849655151367,0.4582754373550415,-0.332954001955932,-0.9197941041044964,0.2076546138089295,0.1591569467625394,3.0,1.0
17.4736385345459,-7.465826034545898,0.4586871862411499,-0.6356661523263532,-0.7611604757182876,0.1286983799079052,0.2418037829669157,3.0,1.0
17.70084571838379,-7.269254684448242,0.4626578092575073,-0.0,-0.0,-1.0,0.1704295721433841,2.0,1.0
15.83340549468994,-9.013532638549805,1.356337070465088,0.9308395846523252,0.3640126837019456,-0.0321315070980827,0.207626625749127,4.0,2.0
16.179161071777344,-9.273754119873049,1.3287317752838137,-0.0,-0.0,-1.0,0.070756784042009,2.0,2.0
16.69542694091797,-9.27463722229004,1.3034160137176514,-0.0,-0.0,-1.0,0.1080527193387382,2.0,2.0
17.037647247314453,-9.126747131347656,1.292636156082153,-0.0,-0.0,-1.0,0.1560356801215669,1.0,2.0
17.620283126831055,-8.594375610351562,1.285584807395935,-0.0,-0.0,-1.0,0.2461066900623028,2.0,2.0
15.280420303344728,-8.773029327392578,0.4125621318817138,-0.0,-0.0,-1.0,0.0468719581743835,2.0,1.0
15.660842895507812,-8.94256591796875,0.3838763236999511,-0.0,-0.0,-1.0,0.1009618719239574,1.0,1.0
15.950571060180664,-8.826692581176758,0.3817172050476074,-0.0,-0.0,-1.0,0.0732744924856115,1.0,1.0
16.228004455566406,-8.818424224853516,0.3706202507019043,-0.0,-0.0,-1.0,0.0986531668558873,1.0,1.0
16.441789627075195,-8.90622329711914,0.354022741317749,-0.0,-0.0,-1.0,0.0927377000051021,1.0,1.0
16.295122146606445,-8.685192108154297,0.378835916519165,-0.0,-0.0,-1.0,0.0911283752385096,2.0,1.0
16.550870895385742,-8.771577835083008,0.3603498935699463,-0.0,-0.0,-1.0,0.0823603720789622,2.0,1.0
15.43294906616211,-7.931240081787109,0.4759676456451416,-0.0699182967198856,-0.694500358237798,-0.7160870646725578,0.2115559865102832,3.0,1.0
16.88113784790039,-7.950380325317383,0.4137046337127685,-0.0,-0.0,-1.0,0.1679201427502975,1.0,1.0
17.030248641967773,-7.819225311279297,0.41768479347229,-0.0,-0.0,-1.0,0.2429828206628763,2.0,1.0
15.971172332763672,-7.057596206665039,0.5270562171936035,-0.0,-0.0,-1.0,0.1743713280056236,1.0,1.0
17.263818740844727,-7.620954513549805,0.4230549335479736,-0.0,-0.0,-1.0,0.1927160551654603,2.0,1.0
17.583192825317383,-7.404544830322266,0.4253987073898315,-0.0,-0.0,-1.0,0.2015239569472805,2.0,1.0
17.04436683654785,-9.237865447998049,1.2270112037658691,-0.0,-0.0,-1.0,0.1969470080917074,2.0,2.0
17.166603088378906,-9.344324111938477,1.215458631515503,-0.0,-0.0,-1.0,0.1738267054993484,1.0,2.0
17.471946716308594,-9.00094985961914,1.2160556316375732,-0.0,-0.0,-1.0,0.1628752818304756,2.0,2.0
17.64593505859375,-8.587339401245117,1.2269150018692017,0.4792729643911214,0.0763445372199784,-0.8743391431477915,0.2170434510817177,9.0,2.0
15.511545181274414,-8.96794319152832,0.4330887794494629,0.4365820058555128,-0.3378642869809766,-0.8338128541501465,0.218513217601014,4.0,1.0
15.931169509887695,-8.934309005737305,0.4308500289916992,-0.4926040477401033,0.7189473810028709,-0.4903630445895963,0.1623378052618809,3.0,1.0
16.327220916748047,-9.01325225830078,0.4192667007446289,-0.8529188986411523,-0.0548631669573548,-0.5191525645243146,0.0882210833854775,5.0,1.0
16.577545166015625,-8.906349182128906,0.4236586093902588,-0.0,-0.0,-1.0,0.1970036350194364,2.0,1.0
17.06686019897461,-7.794107437133789,0.5020031929016113,-0.0,-0.0,-1.0,0.1666783745870909,2.0,1.0
17.222455978393555,-7.595346450805664,0.5146458148956299,-0.0,-0.0,-1.0,0.1795201756432233,2.0,1.0
17.430402755737305,-7.646760940551758,0.506486177444458,-0.0,-0.0,-1.0,0.191507579406545,2.0,1.0
17.543724060058594,-7.446727752685547,0.519853949546814,-0.0,-0.0,-1.0,0.1423757569010778,1.0,1.0
17.402786254882812,-9.31228256225586,1.2998011112213137,-0.0,-0.0,-1.0,0.2125447553958795,1.0,2.0
17.58222198486328,-8.593877792358398,1.3266685009002686,-0.0,-0.0,-1.0,0.1957462062799863,2.0,2.0
16.302663803100586,-8.164039611816406,0.2851731777191162,-0.0,-0.0,-1.0,0.1379680431469472,2.0,1.0
16.095258712768555,-8.072107315063477,0.2913312911987304,-0.0,-0.0,-1.0,0.1669362383656936,2.0,1.0
16.84712791442871,-7.66618537902832,0.3293280601501465,-0.0,-0.0,-1.0,0.1645656685405685,2.0,1.0
17.06829261779785,-7.639236450195312,0.3322701454162597,-0.0,-0.0,-1.0,0.1474471387825641,2.0,1.0
17.365734100341797,-7.422519683837891,0.3509047031402588,-0.0,-0.0,-1.0,0.2598658735837709,1.0,1.0
17.67940902709961,-7.318811416625977,0.3595833778381347,-0.7069566760224772,0.3289512912446866,-0.6261016740240383,0.1749196692149021,3.0,1.0
16.025848388671875,-6.898099899291992,0.3875592947006225,-0.0,-0.0,-1.0,0.0835279130222397,2.0,1.0
17.36760902404785,-6.969795227050781,0.3889824151992798,-0.0,-0.0,-1.0,0.2099074470438463,1.0,1.0
17.481895446777344,-8.76719856262207,1.1445868015289309,-0.0,-0.0,-1.0,0.1826761194144397,2.0,2.0
17.155445098876953,-8.583595275878906,1.155820369720459,-0.0,-0.0,-1.0,0.1680534593924103,1.0,2.0
15.847318649291992,-9.319055557250977,0.7774627208709717,-0.0,-0.0,-1.0,0.1974939059261766,2.0,1.0
17.53498077392578,-8.978731155395508,0.7903157472610474,-0.0,-0.0,-1.0,0.2096692131832085,1.0,1.0
17.69391441345215,-8.676898956298828,0.8080108165740967,-0.0,-0.0,-1.0,0.0563997396771434,2.0,1.0
16.550918579101562,-7.443674087524414,0.1209733486175537,-0.0,-0.0,-1.0,0.0654237877821379,1.0,1.0
16.867677688598633,-7.27387809753418,0.1381227970123291,-0.0,-0.0,-1.0,0.0699611877250191,1.0,1.0
17.345489501953125,-7.4867706298828125,0.120180606842041,-0.0,-0.0,-1.0,0.2120145867664661,2.0,1.0
16.5350341796875,-6.918277740478516,0.1683650016784668,-0.0,-0.0,-1.0,0.1061167515438092,2.0,1.0
17.218029022216797,-7.134073257446289,0.1522140502929687,-0.0,-0.0,-1.0,0.0999745815050853,1.0,1.0
17.67300033569336,-6.921876907348633,0.172501802444458,-0.0,-0.0,-1.0,0.2806452708316225,1.0,1.0
17.161903381347656,-9.291400909423828,0.8978384733200073,-0.6374729472426869,0.0023375450927112,-0.7704691930354272,0.2786589858560569,6.0,1.0
16.48138427734375,-7.359584808349609,0.1608803272247314,-0.0,-0.0,-1.0,0.0536126059088187,2.0,1.0
16.689640045166016,-7.284515380859375,0.1707942485809326,-0.1753337211818021,-0.0731976497048854,-0.9817841872296696,0.103884729749349,4.0,1.0
16.848987579345703,-7.225271224975586,0.1784045696258545,0.6290090768581481,0.6601297698938994,0.4105804039769648,0.0715583107327624,3.0,1.0
17.029939651489258,-7.084373474121094,0.193324327468872,-0.0,-0.0,-1.0,0.0538507263390092,1.0,1.0
16.662893295288086,-7.302885055541992,0.1773741245269775,-0.0,-0.0,-1.0,0.0984193046068855,2.0,1.0
16.875255584716797,-7.25440788269043,0.1850078105926513,-0.0,-0.0,-1.0,0.0809994347702077,2.0,1.0
17.067720413208008,-7.237752914428711,0.1894536018371582,-0.0,-0.0,-1.0,0.0431508017092796,2.0,1.0
16.6209774017334,-6.915828704833984,0.2092666625976562,-0.0,-0.0,-1.0,0.1170206231514949,2.0,1.0
17.22228240966797,-7.188777923583984,0.1959164142608642,-0.0,-0.0,-1.0,0.0943167496658875,2.0,1.0
17.234769821166992,-9.223194122314451,0.979567289352417,-0.9733793262831236,0.2264240272702598,0.0355646880954839,0.2557746700531401,4.0,1.0
16.002151489257812,-8.173877716064453,0.254854679107666,-0.0,-0.0,-1.0,0.0405498096885718,1.0,1.0
16.438201904296875,-8.124387741088867,0.2679638862609863,-0.0,-0.0,-1.0,0.0716599757342025,1.0,1.0
15.90668487548828,-8.049715042114258,0.2620880603790283,-0.0,-0.0,-1.0,0.0795882034652801,1.0,1.0
16.304279327392578,-8.08780288696289,0.2679946422576904,-0.0,-0.0,-1.0,0.1607982558113768,1.0,1.0
16.85517120361328,-7.608978271484375,0.3159399032592773,-0.0,-0.0,-1.0,0.2299442752067849,2.0,1.0
17.189273834228516,-7.627571105957031,0.3206920623779297,-0.5548266785152995,0.7177300004063398,0.4207505238551658,0.2228345297232281,3.0,1.0
16.21263885498047,-6.951786041259766,0.3520016670227051,-0.88244597743553,0.0962535076360044,-0.4604610289434031,0.1697106983525851,3.0,1.0
16.424930572509766,-7.500852584838867,0.2169451713562011,-0.0,-0.0,-1.0,0.0622533328579344,1.0,1.0
16.811187744140625,-7.441402435302734,0.2381107807159423,-0.1602609374236068,0.816192061324492,0.5551098548638673,0.2101123737149296,3.0,1.0
16.670753479003906,-7.315544128417969,0.2404918670654297,-0.0,-0.0,-1.0,0.1554973487207522,1.0,1.0
16.265552520751953,-6.9103546142578125,0.2489802837371826,0.2525207548999009,-0.45766950007432,-0.8525091771039804,0.1576848742667707,4.0,1.0
16.388336181640625,-6.8704376220703125,0.2574231624603271,-0.0,-0.0,-1.0,0.0842324384520303,1.0,1.0
15.853915214538574,-9.162691116333008,1.079463243484497,0.5061475970526731,0.6298049921764715,-0.5892030904767892,0.142636782403495,3.0,2.0
16.463294982910156,-9.014938354492188,1.101836919784546,-0.0,-0.0,-1.0,0.1707783915039782,1.0,2.0
17.51565933227539,-9.045936584472656,1.1267943382263184,-0.0,-0.0,-1.0,0.2105197594475551,1.0,2.0
16.635570526123047,-8.874618530273438,1.1116652488708496,-0.0,-0.0,-1.0,0.1071730190921395,2.0,2.0
15.828546524047852,-9.122697830200195,0.9228025674819946,0.5158619243698633,0.8353382027979501,0.1899909522364485,0.1549922828816642,4.0,1.0
17.23919105529785,-9.162927627563477,0.9476814270019532,-0.0,-0.0,-1.0,0.2200723178625961,2.0,1.0
17.644973754882812,-9.19318962097168,0.9534964561462402,-0.0,-0.0,-1.0,0.1532913040863809,1.0,1.0
17.697208404541016,-8.616104125976562,0.9662460088729858,0.1750506367471692,-0.0589360413632698,-0.982793883580294,0.1487178925042073,3.0,1.0
17.16002655029297,-8.196996688842773,0.965640664100647,-0.0,-0.0,-1.0,0.2434713998242274,1.0,1.0
16.067546844482422,-9.354925155639648,0.6512380838394165,-0.0,-0.0,-1.0,0.0902315912295178,1.0,1.0
16.50809097290039,-9.361299514770508,0.6517268419265747,-0.0,-0.0,-1.0,0.0719611007848968,2.0,1.0
15.842905044555664,-9.0093994140625,0.6591217517852783,0.8966825468593039,-0.2462734031511524,-0.3678448328551893,0.1973643898235069,4.0,1.0
17.256328582763672,-9.149250030517578,0.6573281288146973,-0.0,-0.0,-1.0,0.1919894397946513,1.0,1.0
17.12796974182129,-6.881328582763672,0.1500055789947509,-0.0,-0.0,-1.0,0.1018219617344173,2.0,1.0
17.1966552734375,-9.189592361450195,1.0790960788726809,-0.5860477404099023,-0.3798444073461909,-0.7157277919490544,0.1512926179183112,4.0,2.0
17.23406219482422,-9.333045959472656,1.0776069164276123,-0.0,-0.0,-1.0,0.1630223946655835,2.0,2.0
16.71366310119629,-8.713432312011719,1.083883285522461,0.4979099203235616,-0.2713757330159817,-0.8236752532238804,0.1033531166850755,3.0,2.0
17.342845916748047,-8.520914077758789,1.0854225158691406,-0.0,-0.0,-1.0,0.1911131124493814,1.0,2.0
17.220211029052734,-9.338705062866213,0.9508521556854248,-0.0,-0.0,-1.0,0.1787877190900499,1.0,1.0
15.786066055297852,-9.27882957458496,0.9384300708770752,0.7397354043516882,0.6243943384560742,-0.2508450550691524,0.2328338589964367,3.0,1.0
17.17765998840332,-9.20692253112793,0.9517590999603271,0.8185836845006388,0.5691434388359504,-0.0774370550792512,0.2353441780061999,4.0,1.0
17.621742248535156,-8.864503860473633,0.9582860469818116,-0.0,-0.0,-1.0,0.1250358578439468,2.0,1.0
15.529699325561523,-7.25697135925293,0.9483072757720948,-0.4753039012101176,-0.8716708534506515,0.1194827382472255,0.068765176844227,4.0,1.0
17.54846954345703,-8.908384323120117,1.0315959453582764,-0.0,-0.0,-1.0,0.2703557332575305,1.0,2.0
16.685604095458984,-8.709470748901367,1.0343351364135742,-0.0,-0.0,-1.0,0.1389926595763445,2.0,2.0
17.165159225463867,-9.22504997253418,0.8717482089996338,0.543689584878291,-0.0516367890206848,-0.8376964111863585,0.2005065540172205,4.0,1.0
17.60239028930664,-8.954647064208984,0.879770040512085,-0.0,-0.0,-1.0,0.0792116510982738,2.0,1.0
16.739534378051758,-9.34775161743164,1.061642289161682,-0.0,-0.0,-1.0,0.0555010226313653,2.0,2.0
15.892057418823242,-8.99354362487793,1.0579525232315063,-0.0,-0.0,-1.0,0.1188997739355881,1.0,2.0
17.51563262939453,-8.919563293457031,1.0678805112838743,-0.9502757785081308,0.0505489952729181,0.3072795858134152,0.2672989396422692,3.0,2.0
15.50233268737793,-9.080684661865234,0.5528380870819092,-0.0,-0.0,-1.0,0.2305465371321566,2.0,1.0
16.41816520690918,-9.29787826538086,0.5904169082641602,-0.0,-0.0,-1.0,0.0922592466009617,2.0,1.0
16.803686141967773,-9.26553726196289,0.6053774356842041,-0.0,-0.0,-1.0,0.1051072708557553,1.0,1.0
17.055219650268555,-9.20779037475586,0.6149561405181885,-0.0,-0.0,-1.0,0.1909738545914951,1.0,1.0
15.921834945678713,-8.934215545654297,0.5693881511688232,-0.0,-0.0,-1.0,0.1784203991679075,2.0,1.0
15.877981185913086,-7.808477401733398,0.2429522275924682,-0.0,-0.0,-1.0,0.0913759596595578,1.0,1.0
16.945537567138672,-7.43304443359375,0.2960741519927978,-0.0,-0.0,-1.0,0.1994067487978757,1.0,1.0
17.591400146484375,-7.186738967895508,0.3278276920318603,0.1315014844526757,-0.9895294055549868,-0.0594887815368352,0.2406941801955853,3.0,1.0
16.306499481201172,-6.926595687866211,0.2641340494155884,-0.0,-0.0,-1.0,0.1136709666993399,2.0,1.0
17.512319564819336,-7.023111343383789,0.3241722583770752,-0.0,-0.0,-1.0,0.2008834966943894,1.0,1.0
17.182710647583008,-9.237316131591797,1.4509576559066772,0.1087178092699059,0.1465269625756915,-0.983214263111502,0.2033697574685398,4.0,2.0
15.322975158691406,-9.12582778930664,0.5802836418151855,-0.0,-0.0,-1.0,0.163152844062277,2.0,1.0
15.705739974975586,-8.97561264038086,0.5919380187988281,-0.0,-0.0,-1.0,0.257663756905756,1.0,1.0
17.66931915283203,-7.556690216064453,0.6523904800415039,-0.0,-0.0,-1.0,0.1545245481908303,1.0,1.0
17.283578872680664,-9.201595306396484,0.8920965194702148,0.0385707757471765,0.3310251151518474,-0.9428333195199284,0.1910134570488366,4.0,1.0
16.199520111083984,-6.964958190917969,0.4189422130584717,0.3966510654389582,0.8297929408256368,-0.3925705129554181,0.1338755325275935,6.0,1.0
16.33987808227539,-7.045248031616211,0.4208835363388061,-0.0,-0.0,-1.0,0.1576685197762956,1.0,1.0
16.04867935180664,-9.150052070617676,0.9413878917694092,-0.0,-0.0,-1.0,0.2574127980621545,2.0,1.0
16.077377319335938,-9.136673927307127,0.941037654876709,-0.0,-0.0,-1.0,0.2649754398583419,2.0,1.0
15.661922454833984,-7.810371398925781,0.6704341769218445,-0.0,-0.0,-1.0,0.0832941188213404,1.0,1.0
17.375072479248047,-9.183271408081056,0.663922905921936,-0.0,-0.0,-1.0,0.2123489727563725,2.0,1.0
17.41531753540039,-9.268230438232422,0.71342933177948,-0.0,-0.0,-1.0,0.2497230899614728,1.0,1.0
17.32372283935547,-7.260593414306641,0.5006885528564453,-0.0,-0.0,-1.0,0.2355167939293173,1.0,1.0
17.47147560119629,-7.316276550292969,0.5045351386070251,0.2688429045792594,0.0126138998192912,-0.9631014391998052,0.1068429107741754,3.0,1.0
15.411018371582031,-7.738649368286133,0.451187252998352,-0.0,-0.0,-1.0,0.1087196783023908,2.0,1.0
17.587234497070312,-7.399518966674805,0.4091776013374328,-0.8878272064167022,0.453018690763052,-0.0808512050970487,0.20718168219322,3.0,1.0
16.271827697753906,-7.0201263427734375,0.3892490863800049,-0.0,-0.0,-1.0,0.1737361830517841,1.0,1.0
16.100576400756836,-6.917385101318359,0.3876087665557861,0.3239409272718085,0.9444639299979428,-0.0552282588094332,0.1310694725902488,5.0,1.0
15.329845428466797,-7.832204818725586,0.3567692041397095,-0.0,-0.0,-1.0,0.1062438731864389,1.0,1.0
15.574455261230469,-7.966094970703125,0.3593745827674866,-0.0,-0.0,-1.0,0.1582097687969149,1.0,1.0
15.432317733764648,-8.613714218139648,0.3456815481185913,-0.0,-0.0,-1.0,0.040521047896523,2.0,1.0
17.57834243774414,-7.042477607727051,0.2800654172897339,-0.0,-0.0,-1.0,0.2494417998586833,2.0,1.0
17.20823860168457,-7.050301551818848,0.2719262838363647,-0.0,-0.0,-1.0,0.1515692127447324,1.0,1.0
16.587839126586914,-6.9251508712768555,0.2615209817886352,0.8585971443014546,0.4959436519304033,0.1298107773157602,0.0781885960324823,3.0,1.0
16.17803955078125,-7.014813423156738,0.2507243156433105,-0.0,-0.0,-1.0,0.2364082763896923,2.0,1.0
15.720346450805664,-7.797850608825684,0.2229233980178833,-0.0,-0.0,-1.0,0.0845062693618503,1.0,1.0
15.891630172729492,-7.905138969421387,0.2241294384002685,-0.0,-0.0,-1.0,0.0289849005338817,1.0,1.0
15.895944595336914,-9.125468254089355,1.4392709732055664,-0.0,-0.0,-1.0,0.1663423849017545,1.0,2.0
15.771408081054688,-8.976417541503906,0.6715079545974731,-0.0,-0.0,-1.0,0.2222751552441926,1.0,1.0
16.02623176574707,-9.178587913513184,0.6796563863754272,-0.0,-0.0,-1.0,0.2247551282522655,2.0,1.0
17.59528160095215,-9.143314361572266,1.050687551498413,-0.0,-0.0,-1.0,0.1833759861182389,1.0,2.0
16.762725830078125,-8.854005813598633,1.0603448152542114,0.5934462551048489,-0.2624857443201696,-0.760869749911716,0.1628220344627089,3.0,2.0
15.977239608764648,-9.132322311401367,1.060261607170105,-0.0,-0.0,-1.0,0.1588472533017801,2.0,2.0
16.497920989990234,-6.884759902954102,0.5532857179641724,-0.0,-0.0,-1.0,0.0383969740378929,1.0,1.0
17.477554321289062,-7.580717086791992,0.5408188700675964,-0.0,-0.0,-1.0,0.1965478872278038,1.0,1.0
17.2685604095459,-7.483547210693359,0.5419883131980896,0.0799892778155489,-0.926619916803193,0.3673924947766226,0.1685324868231587,5.0,1.0
15.555524826049805,-7.222831726074219,0.5373363494873047,-0.0,-0.0,-1.0,0.1372186596537644,1.0,1.0
17.204246520996094,-8.799592971801758,0.5052129626274109,-0.0,-0.0,-1.0,0.2046801421814638,2.0,1.0
15.869041442871094,-9.02275276184082,0.4891297817230224,0.9012387724091764,0.4333228031270668,-0.0001529591503577,0.2767030316447116,3.0,1.0
16.346059799194336,-9.360353469848633,0.4833390116691589,-0.0,-0.0,-1.0,0.0744284467900729,2.0,1.0
15.414304733276367,-9.070655822753906,0.4845096468925476,-0.0,-0.0,-1.0,0.113551515688882,2.0,1.0
17.595523834228516,-7.484720230102539,0.5607296228408813,0.5571560452259028,-0.081023907656246,-0.8264455624276433,0.1375973282883022,3.0,1.0
15.68109893798828,-6.993135452270508,0.5292419791221619,-0.0,-0.0,-1.0,0.2017445465633207,1.0,1.0
15.511343002319336,-7.307342529296875,0.5207220911979675,-0.160029243964581,-0.7086029711978946,-0.6872208308001443,0.1233750371896621,6.0,1.0
16.553749084472656,-9.344743728637695,0.5101547241210938,-0.0,-0.0,-1.0,0.0914461743395017,2.0,1.0
15.980831146240234,-9.040023803710938,0.502860426902771,-0.2033856736788021,-0.0786800770923195,-0.9759322277755594,0.2239036503450023,3.0,1.0
15.69328498840332,-9.020137786865234,0.4971957802772522,-0.0,-0.0,-1.0,0.2229757482873725,2.0,1.0
15.293989181518556,-9.104598999023438,0.4876013398170471,-0.0,-0.0,-1.0,0.0841269055243425,2.0,1.0
16.400583267211914,-6.943574905395508,0.856749951839447,-0.0,-0.0,-1.0,0.0442045345777454,1.0,1.0
17.260868072509766,-8.368751525878906,0.8540230989456177,-0.0,-0.0,-1.0,0.1394275662306185,1.0,1.0
16.03689956665039,-9.104787826538086,0.8315762877464294,-0.0,-0.0,-1.0,0.1724302558071025,1.0,1.0
16.408170700073242,-6.939552307128906,0.8007863759994507,-0.0,-0.0,-1.0,0.0341871189877425,1.0,1.0
15.636817932128906,-7.327239990234375,0.7883606553077698,-0.0,-0.0,-1.0,0.1377240842103703,1.0,1.0
15.904130935668944,-9.322715759277344,0.7575764656066895,-0.0,-0.0,-1.0,0.2128206247865993,2.0,1.0
16.160228729248047,-6.952455520629883,0.4407408237457275,-0.0081704783664985,0.8422166983043342,-0.5390772452817949,0.2086473402876115,4.0,1.0
16.258747100830078,-7.066516876220703,0.4353487491607666,-0.0,-0.0,-1.0,0.1672762938640309,1.0,1.0
15.409381866455078,-7.346700668334961,0.4327716827392578,-0.0,-0.0,-1.0,0.1043007422660761,2.0,1.0
17.643962860107422,-7.417423248291016,0.409061074256897,-0.0,-0.0,-1.0,0.1869908853152389,2.0,1.0
16.886966705322266,-7.558683395385742,0.4103519320487976,-0.0,-0.0,-1.0,0.2003720038565796,2.0,1.0
17.186901092529297,-7.65452766418457,0.4039381146430969,-0.5757237066588179,0.8043032649858766,0.1471002091232059,0.2184145887400589,4.0,1.0
16.59943962097168,-7.8069000244140625,0.4033727645874023,-0.0,-0.0,-1.0,0.1865141632297774,1.0,1.0
16.04222869873047,-8.787906646728516,0.3704968094825744,-0.5858716923402795,-0.7376727529963604,-0.3355492059312723,0.0989997141752495,3.0,1.0
15.777831077575684,-8.8138427734375,0.3719840049743652,-0.0,-0.0,-1.0,0.0809228672772644,1.0,1.0
15.83888339996338,-9.07025146484375,0.3614427447319031,-0.0,-0.0,-1.0,0.1373556004729321,1.0,1.0
17.31188201904297,-9.214256286621094,1.292781114578247,-0.0,-0.0,-1.0,0.1885285590279226,2.0,2.0
16.561721801757812,-9.35234260559082,1.3068777322769165,-0.0,-0.0,-1.0,0.0713823011596193,1.0,2.0
16.309099197387695,-9.345836639404297,1.3121435642242432,-0.0,-0.0,-1.0,0.0602580672564482,1.0,2.0
17.403583526611328,-7.433980941772461,0.867947518825531,-0.4400700196624802,-0.4544235053282014,-0.7744918692920506,0.1398236597740551,3.0,1.0
15.68955421447754,-7.834880828857422,0.8928789496421814,-0.0,-0.0,-1.0,0.0579669304305691,1.0,1.0
17.483423233032227,-7.470312118530273,0.8655773401260376,-0.0,-0.0,-1.0,0.2257772658043585,2.0,1.0
16.008468627929688,-9.146280288696287,0.8563790321350098,-0.0,-0.0,-1.0,0.2433387357786616,1.0,1.0
17.27984619140625,-9.303762435913086,0.8279753923416138,0.4690054111015553,-0.776320746547724,-0.4211413335651651,0.20560310582843,6.0,1.0
16.375450134277344,-7.009603500366211,0.3290424942970276,-0.0,-0.0,-1.0,0.1371266947125406,1.0,1.0
17.66290283203125,-7.256095886230469,0.308864414691925,-0.0,-0.0,-1.0,0.1548795333826924,2.0,1.0
17.377656936645508,-7.48835563659668,0.3010292053222656,-0.0,-0.0,-1.0,0.251478223954598,1.0,1.0
16.961284637451172,-7.561197280883789,0.3010302782058716,0.6217819782478817,0.6555738485799086,-0.4284974919229725,0.2184084554166452,4.0,1.0
17.190799713134766,-7.696624755859375,0.2934470176696777,-0.0,-0.0,-1.0,0.2116732685408293,2.0,1.0
16.750938415527344,-7.834589004516602,0.2907750010490417,-0.0,-0.0,-1.0,0.1387747852055244,1.0,1.0
16.555999755859375,-7.885026931762695,0.2900189161300659,-0.0,-0.0,-1.0,0.1640467904450555,1.0,1.0
16.236785888671875,-8.055644989013672,0.2849411368370056,-0.0,-0.0,-1.0,0.1505766955157699,1.0,1.0
17.557924270629883,-8.413026809692383,1.1384118795394895,-0.0,-0.0,-1.0,0.1651207523078862,1.0,2.0
16.96112823486328,-9.360734939575195,1.1392078399658203,-0.0,-0.0,-1.0,0.1251822826012098,1.0,2.0
17.538148880004883,-9.30471420288086,1.1303625106811523,-0.4878561363945647,-0.8182335332393876,-0.3041221387284324,0.1837705789475097,3.0,2.0
16.054275512695312,-6.9404191970825195,0.5152106285095215,-0.0,-0.0,-1.0,0.0987552757830236,2.0,1.0
17.570514678955078,-7.277771949768066,0.4235392808914184,-0.0,-0.0,-1.0,0.2001797076338381,2.0,1.0
17.3039608001709,-7.459845542907715,0.4282089471817016,-0.6403479859312364,-0.6713843572298122,-0.3730918141435441,0.1776619330917064,3.0,1.0
16.878177642822266,-7.643990516662598,0.440700888633728,-0.0,-0.0,-1.0,0.1638476301775278,1.0,1.0
15.735013008117676,-8.829480171203613,0.4407675266265869,-0.0,-0.0,-1.0,0.0878298778950128,1.0,1.0
15.273141860961914,-8.867899894714355,0.4616835713386535,-0.0,-0.0,-1.0,0.0590301758701747,2.0,1.0
16.120874404907227,-8.804282188415527,0.4228602647781372,-0.0,-0.0,-1.0,0.1542239795230837,1.0,1.0
15.710081100463867,-8.911911964416504,0.4380660057067871,0.3121038109791763,-0.3012987421679736,-0.901005149341707,0.2196727992976153,3.0,1.0
15.809422492980955,-8.936848640441895,1.3181945085525513,-0.0,-0.0,-1.0,0.1468085234845746,1.0,2.0
17.6021728515625,-8.489006996154785,1.220192790031433,-0.0,-0.0,-1.0,0.2412659540337856,1.0,2.0
16.430118560791016,-9.354418754577637,1.2760711908340454,-0.0,-0.0,-1.0,0.0684990315464169,1.0,2.0
17.616701126098633,-8.847081184387207,1.2144300937652588,-0.0,-0.0,-1.0,0.1430529419287467,1.0,2.0
17.095651626586914,-9.229945182800291,1.2391855716705322,-0.357115823231451,-0.5451119836175093,-0.7584993171482138,0.1858099151878397,4.0,2.0
17.288881301879883,-7.300956726074219,0.7195051908493042,-0.0,-0.0,-1.0,0.104172402375025,1.0,1.0
17.659313201904297,-7.381570816040039,0.7026505470275879,0.0368020759303449,0.959118421903332,-0.2806019600303588,0.1414050227864069,3.0,1.0
17.56757354736328,-7.519794464111328,0.7016932368278503,-0.0661302808859619,-0.7210970415289277,-0.6896708219492625,0.1402414832251252,3.0,1.0
15.75946044921875,-7.6862945556640625,0.766801118850708,-0.0,-0.0,-1.0,0.1679126860554726,1.0,1.0
16.22220802307129,-8.186759948730469,0.7322250604629517,-0.0,-0.0,-1.0,0.1275289007215667,1.0,1.0
15.76622200012207,-8.97163200378418,0.7245671153068542,-0.0,-0.0,-1.0,0.2295297280518189,1.0,1.0
15.669429779052734,-9.34918212890625,0.7160680294036865,-0.0,-0.0,-1.0,0.1123490786443177,1.0,1.0
16.212316513061523,-9.318103790283203,0.695784330368042,-0.0,-0.0,-1.0,0.0956908597482634,2.0,1.0
15.93703842163086,-9.352947235107422,0.7054243087768555,-0.0,-0.0,-1.0,0.1587987805057045,2.0,1.0
16.73737144470215,-9.338825225830078,0.6747008562088013,-0.0,-0.0,-1.0,0.0709259892674654,1.0,1.0
15.664334297180176,-8.808610916137695,1.5864324569702148,-0.0,-0.0,-1.0,0.1613847633852224,1.0,2.0
16.98815155029297,-9.331829071044922,1.5251076221466064,-0.0,-0.0,-1.0,0.0982200380273931,2.0,2.0
15.349223136901855,-8.632802963256836,0.3956584930419922,-0.0,-0.0,-1.0,0.0476880962800425,1.0,1.0
16.125072479248047,-8.6885986328125,0.356099009513855,-0.698581987079334,-0.4480434644656503,-0.5578891119908209,0.0981784072633498,3.0,1.0
15.895520210266112,-8.781961441040039,0.3622715473175049,-0.0,-0.0,-1.0,0.0489488070295959,2.0,1.0
16.424545288085938,-8.642139434814453,0.3441738486289978,-0.0,-0.0,-1.0,0.0469880677153016,1.0,1.0
15.573789596557615,-7.152793884277344,0.4601085782051086,-0.0,-0.0,-1.0,0.1409401825726947,2.0,1.0
15.311710357666016,-7.533781051635742,0.4530984163284302,-0.0,-0.0,-1.0,0.1247962238169453,1.0,1.0
16.22992515563965,-7.011074066162109,0.4363471269607544,-0.9851486234447024,0.0607220062367237,0.160608305151369,0.170210349795167,3.0,1.0
17.463937759399414,-7.076948165893555,0.3738903999328613,-0.0,-0.0,-1.0,0.2123070011911756,1.0,1.0
16.985803604125977,-7.67103385925293,0.3666839003562927,-0.0,-0.0,-1.0,0.2768745343391371,2.0,1.0
16.410512924194336,-8.322685241699219,0.3610942363739013,-0.0,-0.0,-1.0,0.1568409869981858,1.0,1.0
17.43031883239746,-7.56614875793457,0.3505787849426269,-0.0,-0.0,-1.0,0.2203265218820443,2.0,1.0
17.1748046875,-7.689291000366211,0.3566523194313049,-0.7630877260914429,0.6342763600231424,-0.1240589432664323,0.2528615076174886,3.0,1.0
17.442766189575195,-8.423051834106445,1.1009429693222046,-0.0,-0.0,-1.0,0.2054305767372671,2.0,2.0
15.944571495056152,-8.979341506958008,1.173783540725708,-0.0,-0.0,-1.0,0.1524945073144112,2.0,2.0
15.51957893371582,-9.355987548828123,1.1910288333892822,-0.0,-0.0,-1.0,0.1014297425574711,2.0,2.0
16.068452835083008,-9.179313659667969,1.1636073589324951,-0.0,-0.0,-1.0,0.1411864926560233,1.0,2.0
17.364913940429688,-9.174076080322266,1.0927871465682983,-0.0,-0.0,-1.0,0.1063158391472741,1.0,2.0
15.53620719909668,-7.083059310913086,0.4260878562927246,-0.0,-0.0,-1.0,0.1626263915190377,1.0,1.0
16.225738525390625,-6.989292144775391,0.4024317264556885,0.7111593618278077,0.4846728046453384,-0.5092589071600877,0.1750111254854693,5.0,1.0
16.79891586303711,-7.409587860107422,0.3553904294967651,-0.0,-0.0,-1.0,0.1665908490158606,1.0,1.0
16.013961791992188,-8.65866470336914,0.322921872138977,-0.0,-0.0,-1.0,0.1187185071979998,1.0,1.0
15.90192985534668,-8.808368682861328,0.3197504878044128,-0.0,-0.0,-1.0,0.0533223740522926,1.0,1.0
17.5974063873291,-6.999565124511719,0.3415441513061523,-0.0,-0.0,-1.0,0.2110556426763088,1.0,1.0
17.02193260192871,-7.682424545288086,0.3309542536735534,-0.0,-0.0,-1.0,0.1813316120295414,2.0,1.0
16.371599197387695,-8.43218994140625,0.3195744156837463,-0.0,-0.0,-1.0,0.0999291794891454,1.0,1.0
16.315185546875,-8.623695373535156,0.3118062019348144,-0.0,-0.0,-1.0,0.0665980380863974,1.0,1.0
17.360910415649414,-7.578149795532227,0.3213003873825073,-0.0,-0.0,-1.0,0.1898277436957455,1.0,1.0
16.083736419677734,-9.253423690795898,1.0864744186401367,-0.0,-0.0,-1.0,0.1578660932036408,1.0,2.0
16.725997924804688,-8.806215286254883,1.0626603364944458,0.4700452175530566,0.8402291872131087,-0.2703190825870384,0.1555566874171472,4.0,2.0
16.466279983520508,-9.348932266235352,1.0654748678207395,-0.0,-0.0,-1.0,0.1382251582499197,1.0,2.0
17.27468490600586,-9.323486328125,1.0250279903411863,-0.324907110991608,0.7625000844374348,-0.559489937764739,0.2478684873313928,5.0,2.0
15.349790573120115,-9.299908638000488,0.6616381406784058,-0.0,-0.0,-1.0,0.1693263827334326,1.0,1.0
16.41436767578125,-8.313641548156738,0.6129781007766724,-0.0,-0.0,-1.0,0.1901479476720104,1.0,1.0
15.979701042175291,-9.022534370422363,0.6188439130783081,-0.0,-0.0,-1.0,0.1849614742156437,2.0,1.0
15.811119079589844,-9.120720863342283,0.6292201280593872,0.3882153999366992,0.8120086390272718,-0.4358104787600529,0.2535664080755854,3.0,1.0
15.576894760131836,-9.32155704498291,0.6406528949737549,-0.0,-0.0,-1.0,0.2084659769846519,2.0,1.0
17.329744338989258,-7.496636390686035,0.5691855549812317,0.909390054704986,-0.1033532058841208,-0.4028992966451248,0.1880677972375379,4.0,1.0
17.196456909179688,-7.6142072677612305,0.5756580829620361,-0.0,-0.0,-1.0,0.1890802561849505,1.0,1.0
17.651933670043945,-7.50399112701416,0.5400230884552002,-0.0,-0.0,-1.0,0.2249014881291328,2.0,1.0
