x,y,z,nx,ny,nz,curvature,density,label
35.671424865722656,20.02882194519043,-1.6695804595947266,-0.0,-0.0,-1.0,0.1208193457308735,2.0,0.0
35.74039077758789,18.82198905944824,-1.7738075256347656,-0.0,-0.0,-1.0,0.0596220599992201,2.0,0.0
36.01897048950195,19.10905647277832,-1.7787317037582395,0.6502776274034491,-0.2350340273991403,-0.722425091800583,0.1356199844964781,3.0,0.0
36.191932678222656,18.771329879760746,-1.642045021057129,-0.0,-0.0,-1.0,0.1485058322534263,1.0,0.0
35.49799728393555,19.765520095825195,-1.6266100406646729,-0.0,-0.0,-1.0,0.1492154705318502,1.0,0.0
35.792320251464844,20.08980178833008,-1.6645991802215576,-0.0,-0.0,-1.0,0.1025379879886023,1.0,0.0
35.66762161254883,20.34720993041992,-1.665684700012207,0.397237742759798,0.5714864558379739,-0.7180566875399543,0.2152827795516804,5.0,0.0
35.77503967285156,18.623855590820312,-1.8119359016418457,-0.6888280391493443,0.6083783343277157,-0.3941975834556868,0.039157617876828,3.0,0.0
35.51448059082031,19.04981231689453,-1.8096466064453125,-0.0,-0.0,-1.0,0.1647981793659545,2.0,0.0
35.66456985473633,18.849952697753903,-1.8147001266479492,-0.0,-0.0,-1.0,0.04502537445236,1.0,0.0
35.41684341430664,19.469301223754883,-1.8309240341186523,-0.0,-0.0,-1.0,0.0660568573007255,2.0,0.0
35.6475830078125,19.369470596313477,-1.8558382987976072,-0.0,-0.0,-1.0,0.1179333267708693,1.0,0.0
35.246307373046875,19.6621036529541,-1.8227338790893557,-0.0,-0.0,-1.0,0.1124222057061916,1.0,0.0
35.29496765136719,18.197202682495117,-1.7066922187805176,-0.0,-0.0,-1.0,0.201465818438374,2.0,0.0
36.01711654663086,18.94223403930664,-1.7451810836791992,-0.0,-0.0,-1.0,0.1891131567677696,2.0,0.0
37.20907974243164,18.80101203918457,-1.8715801239013672,-0.0,-0.0,-1.0,0.1495473067309374,2.0,0.0
35.61982345581055,19.405248641967773,-1.7623753547668457,-0.0,-0.0,-1.0,0.1955178504192607,1.0,0.0
35.96940231323242,19.051136016845703,-1.7546205520629885,-0.0,-0.0,-1.0,0.1856428156907478,2.0,0.0
36.94254302978515,19.382793426513672,-1.9191908836364744,-0.0,-0.0,-1.0,0.133930152847268,1.0,0.0
37.57999420166016,19.32161521911621,-1.9886651039123535,-0.0,-0.0,-1.0,0.0698415776431362,1.0,0.0
35.44678497314453,19.734867095947266,-1.788691520690918,-0.0,-0.0,-1.0,0.1839991145875385,1.0,0.0
35.55329132080078,19.583452224731445,-1.7797651290893557,0.8077336709208244,-0.0505874892704295,-0.5873731546385854,0.2076300681303777,3.0,0.0
35.92865753173828,19.468406677246097,-1.8084406852722168,-0.0,-0.0,-1.0,0.098977185147974,1.0,0.0
37.49156951904297,19.57048797607422,-2.012233257293701,-0.0,-0.0,-1.0,0.0234589600961772,1.0,0.0
35.240386962890625,19.978670120239254,-1.7992825508117676,0.7183482823636539,0.6202500295381945,-0.3150645109863329,0.1540916411377504,3.0,0.0
35.53795623779297,18.918598175048828,-1.683781623840332,-0.0,-0.0,-1.0,0.138187226430348,1.0,0.0
35.32435989379883,19.80072021484375,-1.7835807800292969,-0.0,-0.0,-1.0,0.1712484571725029,2.0,0.0
37.617645263671875,19.71044921875,-2.0958118438720703,-0.0,-0.0,-1.0,0.0375921558751158,1.0,0.0
37.39731979370117,20.10589599609375,-2.1264123916625977,-0.0,-0.0,-1.0,0.0492811354123601,1.0,0.0
37.637351989746094,18.604408264160156,-1.9381837844848633,-0.0,-0.0,-1.0,0.0837787920854142,2.0,0.0
37.20044708251953,18.764896392822266,-1.9068403244018557,-0.0,-0.0,-1.0,0.1597954530897664,1.0,0.0
36.01717758178711,18.96533203125,-1.7893643379211426,-0.2903847189177,-0.847855884015471,-0.4436407498860226,0.1462490692676749,3.0,0.0
35.43821716308594,18.94631576538086,-1.7152786254882812,-0.0,-0.0,-1.0,0.1187657765471692,1.0,0.0
36.739715576171875,20.045534133911133,-2.036738872528076,-0.0,-0.0,-1.0,0.0776736905329091,1.0,0.0
35.54501724243164,19.5270938873291,-1.8139286041259768,-0.0,-0.0,-1.0,0.1907703244670496,1.0,0.0
35.71651840209961,19.870609283447266,-1.8856964111328125,-0.0,-0.0,-1.0,0.0478473681558056,1.0,0.0
35.35090637207031,19.915084838867188,-1.847733974456787,-0.0,-0.0,-1.0,0.1583645024418816,2.0,0.0
35.51202392578125,20.029186248779297,-1.884319305419922,-0.0,-0.0,-1.0,0.2060441011692967,1.0,0.0
35.31678771972656,20.192886352539062,-1.8849468231201172,-0.0,-0.0,-1.0,0.201193424076902,1.0,0.0
37.576812744140625,20.191329956054688,-1.9814887046813965,-0.2645589896788491,-0.0162549978060153,-0.964232501021633,0.158903268071058,3.0,0.0
36.11123275756836,19.026302337646484,-1.6203017234802246,-0.5385370530386562,-0.8208217980284755,0.1903402700054303,0.1619944242820645,7.0,0.0
36.86870193481445,20.0954647064209,-1.9017038345336912,0.3279947977313014,0.9291285489304082,0.1707031113473834,0.1062604195501895,3.0,0.0
36.76020431518555,20.315204620361328,-1.9373807907104492,-0.0,-0.0,-1.0,0.0570516198634307,2.0,0.0
35.68949890136719,19.93718719482422,-1.7701125144958496,-0.0,-0.0,-1.0,0.0761487228491859,1.0,0.0
35.465335845947266,19.925209045410156,-1.7489838600158691,0.2806311378796584,-0.0589261313687197,-0.9580051542107092,0.1196951540360877,4.0,0.0
35.46251678466797,20.13755798339844,-1.7926068305969238,-0.0,-0.0,-1.0,0.0945944762915139,2.0,0.0
35.257686614990234,20.20848846435547,-1.7904229164123535,-0.0,-0.0,-1.0,0.1253091667775866,2.0,0.0
37.65985870361328,20.18425750732422,-1.984849452972412,-0.0,-0.0,-1.0,0.1765317116337193,2.0,0.0
36.130069732666016,19.02904510498047,-1.6128005981445312,-0.1137272288266692,-0.9203702975337748,0.3741452028838499,0.1713606958927327,6.0,0.0
35.67071533203125,20.307992935180664,-1.7024970054626465,-0.0,-0.0,-1.0,0.1685634652931713,2.0,0.0
35.57672882080078,20.447084426879883,-1.7064204216003418,-0.0,-0.0,-1.0,0.1276566455878531,2.0,0.0
35.26494598388672,18.187570571899418,-1.725657939910889,0.049706266780816,0.8565347631268753,-0.513690068619106,0.2014658184383741,3.0,0.0
35.31040954589844,18.568143844604492,-1.7769250869750977,-0.0,-0.0,-1.0,0.0346643381931042,2.0,0.0
36.235504150390625,19.026931762695312,-0.8729763031005859,-0.0,-0.0,-1.0,0.0673300135151964,1.0,0.0
35.678192138671875,18.366382598876953,-1.7610256671905518,-0.0,-0.0,-1.0,0.0364473972744269,1.0,0.0
35.6681022644043,18.53997802734375,-1.7793595790863037,-0.0,-0.0,-1.0,0.0705129630533812,1.0,0.0
35.44190216064453,18.77566909790039,-1.7757880687713623,-0.0,-0.0,-1.0,0.1398682293036348,1.0,0.0
35.81618118286133,18.49066734313965,-1.8056602478027344,-0.0,-0.0,-1.0,0.0288162989451268,2.0,0.0
35.58208465576172,18.61011505126953,-1.776236057281494,-0.4335018809641241,0.1782981130877611,-0.8833379319772872,0.0735220387061808,3.0,0.0
35.540470123291016,18.928871154785156,-1.786489963531494,0.5837713329411737,0.3638207965994242,-0.7258412077016885,0.1925305949430447,5.0,0.0
35.564823150634766,19.282291412353516,-1.8091707229614256,-0.8615739982130544,0.505065447005398,-0.0509817599187085,0.1150788466091082,3.0,0.0
35.38481521606445,19.47361946105957,-1.7928619384765625,-0.6390261130385714,-0.6100338135993918,-0.4685129380499507,0.0826676686597237,3.0,0.0
35.32353210449219,19.67259979248047,-1.7950692176818848,-0.0,-0.0,-1.0,0.1402439647172497,1.0,0.0
35.937015533447266,18.921125411987305,-0.7847027778625488,0.0610611010011749,-0.0472842681983423,-0.9970134101031296,0.140145645992058,4.0,0.0
36.08657455444336,19.059783935546875,-1.6544694900512695,-0.5115316921289949,-0.8589609610157111,0.0228340841422015,0.1884982984760823,6.0,0.0
35.933685302734375,19.104646682739254,-1.6331062316894531,-0.0,-0.0,-1.0,0.1976562328310406,1.0,0.0
35.69175338745117,20.620271682739254,-1.6643776893615725,-0.0,-0.0,-1.0,0.0837187028501518,1.0,0.0
35.54254150390625,19.59266662597656,-1.594691276550293,-0.1263703801175496,-0.8639295023737359,-0.4875000943150833,0.1117282334468327,4.0,0.0
35.824424743652344,19.32987594604492,-1.86627197265625,-0.0,-0.0,-1.0,0.0545638961441448,1.0,0.0
35.799766540527344,18.358821868896484,-1.835583209991455,-0.0,-0.0,-1.0,0.0186701728167397,1.0,0.0
35.77577209472656,19.20698928833008,-1.8546791076660156,-0.0,-0.0,-1.0,0.0377877007471349,1.0,0.0
35.67422866821289,18.571727752685547,-1.820387840270996,-0.0,-0.0,-1.0,0.0408883184590446,1.0,0.0
35.60768127441406,18.8654727935791,-1.817418098449707,-0.0,-0.0,-1.0,0.0695443702987618,1.0,0.0
35.543235778808594,19.42736434936523,-1.8236727714538576,-0.0,-0.0,-1.0,0.1250844058872597,2.0,0.0
35.42302322387695,19.809104919433594,-1.816793441772461,-0.0,-0.0,-1.0,0.1219916377428342,1.0,0.0
35.23624038696289,20.21623992919922,-1.8012018203735352,-0.0,-0.0,-1.0,0.1253091667775865,2.0,0.0
37.59081268310547,18.62346839904785,-1.8590939044952393,-0.0,-0.0,-1.0,0.0904043509048786,1.0,0.0
37.191650390625,18.827701568603516,-1.7971575260162354,-0.0,-0.0,-1.0,0.1392724878830639,1.0,0.0
36.04386901855469,19.04653549194336,-1.6150877475738523,0.676225609338414,-0.2575960420887173,-0.6901907014551255,0.2083840979411102,7.0,0.0
37.59303283691406,20.104782104492188,-1.9501924514770508,-0.0,-0.0,-1.0,0.2057676225418409,2.0,0.0
37.13179397583008,18.41799545288086,-1.821335792541504,-0.0,-0.0,-1.0,0.1464122989566376,1.0,0.0
36.76169204711914,18.22598648071289,-1.75663423538208,-0.0,-0.0,-1.0,0.1264954682720382,1.0,0.0
36.87324142456055,18.657556533813477,-1.7868709564208984,-0.0,-0.0,-1.0,0.0703157416088049,1.0,0.0
36.64474868774414,18.497493743896484,-1.7455744743347168,-0.0,-0.0,-1.0,0.0791517915412451,1.0,0.0
36.07135009765625,19.005386352539062,-1.6700596809387207,-0.0,-0.0,-1.0,0.1890511626791245,2.0,0.0
35.63599395751953,19.419479370117188,-1.6156630516052246,-0.0,-0.0,-1.0,0.1899976168919352,2.0,0.0
35.719234466552734,20.301921844482425,-1.6638145446777344,-0.0,-0.0,-1.0,0.1806132400305683,1.0,0.0
35.57258987426758,20.509368896484375,-1.64992094039917,0.9453900939585828,0.3065111258546768,-0.110853506810929,0.0994342717398902,5.0,0.0
35.39664840698242,19.90121078491211,-1.5966739654541016,0.8224903440103388,0.5669313641642523,0.0458089765942747,0.1415838403385947,3.0,0.0
36.08687210083008,19.053531646728516,-1.6012914180755615,-0.8091339394349353,-0.5756240139171147,0.1181493235547786,0.1988055665324332,9.0,0.0
35.56822204589844,20.55693817138672,-1.6224400997161863,0.7669316921602278,0.428387262535667,-0.4778076316442076,0.1138365328040969,8.0,0.0
35.84723663330078,18.89300537109375,-1.9331152439117432,-0.0,-0.0,-1.0,0.1236665405369842,1.0,0.0
36.024986267089844,19.3555908203125,-1.9514524936676023,-0.0,-0.0,-1.0,0.0600458671283571,1.0,0.0
35.78278732299805,19.841983795166016,-1.8948132991790771,-0.0,-0.0,-1.0,0.0397781244166104,1.0,0.0
35.61193084716797,18.241445541381836,-1.912258863449097,-0.0,-0.0,-1.0,0.0491953627276704,1.0,0.0
35.621212005615234,18.55727195739746,-1.9030649662017824,-0.0,-0.0,-1.0,0.0446960995275096,1.0,0.0
35.511146545410156,19.03040313720703,-1.8680970668792725,-0.0,-0.0,-1.0,0.1847841458721049,1.0,0.0
35.567176818847656,19.513654708862305,-1.8644773960113523,-0.0,-0.0,-1.0,0.1965424441355784,1.0,0.0
35.50863265991211,19.867292404174805,-1.8449571132659912,-0.0,-0.0,-1.0,0.1324463808907293,2.0,0.0
35.48773956298828,20.21497344970703,-1.833057641983032,-0.0,-0.0,-1.0,0.2155879693238449,1.0,0.0
35.48326110839844,20.605077743530273,-1.8241450786590576,-0.0,-0.0,-1.0,0.2386126703760188,1.0,0.0
35.28987503051758,18.198759078979492,-1.855252027511597,-0.0,-0.0,-1.0,0.1670634606256326,1.0,0.0
36.86582946777344,19.443214416503903,-1.858049392700195,-0.0,-0.0,-1.0,0.1841462537280434,2.0,0.0
36.77412414550781,19.93130874633789,-1.8594074249267576,-0.0,-0.0,-1.0,0.0918443439470195,1.0,0.0
36.15680694580078,18.585142135620117,-1.7321529388427734,-0.0,-0.0,-1.0,0.0972829461567501,1.0,0.0
36.44468688964844,19.483428955078125,-1.7980728149414062,-0.0,-0.0,-1.0,0.0962252352600008,1.0,0.0
35.84395980834961,19.022003173828125,-1.6978225708007812,-0.0,-0.0,-1.0,0.1799347453464199,1.0,0.0
35.968772888183594,19.512876510620117,-1.7298874855041504,-0.0,-0.0,-1.0,0.1170965518664188,1.0,0.0
35.39849090576172,18.227588653564453,-1.613161325454712,-0.0,-0.0,-1.0,0.2107041440997378,2.0,0.0
35.561073303222656,19.08067321777344,-1.6582961082458496,-0.0,-0.0,-1.0,0.2210001628735513,1.0,0.0
35.61288070678711,19.606624603271484,-1.6811184883117676,-0.0,-0.0,-1.0,0.1687420433390348,1.0,0.0
35.56832504272461,20.073699951171875,-1.689610719680786,-0.1487355042202858,-0.9385978425200888,0.3113066652048616,0.1642957926751626,4.0,0.0
35.43017578125,20.47815704345703,-1.6836531162261963,-0.0,-0.0,-1.0,0.1167390413251205,2.0,0.0
35.21976089477539,18.952545166015625,-1.812577724456787,-0.0,-0.0,-1.0,0.1003164599766947,2.0,0.0
36.132232666015625,19.044546127319336,-0.9951333999633788,0.7155045575776897,0.4726490923607531,-0.5144473380008013,0.1156206121329881,3.0,0.0
35.998558044433594,19.041112899780273,-1.405545711517334,-0.0,-0.0,-1.0,0.2216001690646427,2.0,0.0
36.07343292236328,19.09174346923828,-1.0986449718475342,0.1751808477841832,-0.9556650542548536,-0.2366769415166627,0.1443338728258868,6.0,0.0
36.020965576171875,19.063627243041992,-1.214827299118042,0.1328855018896551,-0.9497503379661648,0.2834003156679435,0.0800231154993295,5.0,0.0
35.956024169921875,19.161815643310547,-1.5735938549041748,-0.0,-0.0,-1.0,0.1436283356761354,1.0,0.0
37.025753021240234,19.607099533081055,-1.9620389938354492,-0.0,-0.0,-1.0,0.0739531006615727,1.0,0.0
36.63364028930664,19.500913619995117,-1.9041433334350584,-0.0,-0.0,-1.0,0.1496854321483804,1.0,0.0
36.30059051513672,18.588733673095703,-1.8740568161010744,-0.0,-0.0,-1.0,0.0881239681346813,2.0,0.0
36.04462432861328,18.907621383666992,-1.8276019096374512,-0.0,-0.0,-1.0,0.1469196895947106,2.0,0.0
36.054744720458984,19.155107498168945,-1.8233251571655271,-0.0,-0.0,-1.0,0.1576941465802975,2.0,0.0
35.88209533691406,18.156280517578125,-1.8230524063110352,-0.0,-0.0,-1.0,0.0301635983808988,1.0,0.0
35.882015228271484,18.312755584716797,-1.8185524940490725,-0.0,-0.0,-1.0,0.0172425481963476,1.0,0.0
35.62090301513672,18.83130645751953,-1.765520095825195,-0.0,-0.0,-1.0,0.0609039907056706,2.0,0.0
35.58008575439453,19.57579040527344,-1.7422585487365725,0.7776576874575428,0.3479310628647756,-0.5236339338048804,0.1705260285460931,5.0,0.0
35.590450286865234,20.195451736450195,-1.7325010299682615,0.8614838018711725,-0.2323925684489353,-0.4514857176515082,0.1182353204218907,4.0,0.0
35.559791564941406,20.441871643066406,-1.7240238189697266,-0.0,-0.0,-1.0,0.1192604834643369,2.0,0.0
35.38539123535156,20.00646209716797,-1.7043509483337402,-0.0,-0.0,-1.0,0.2357462479569611,2.0,0.0
36.120323181152344,19.080116271972656,-1.4081406593322754,0.5954543447965416,-0.8027334697104577,-0.0324515002662638,0.1700996764487678,4.0,0.0
36.62018585205078,18.520057678222656,-1.8121120929718015,-0.0,-0.0,-1.0,0.0865144578503228,2.0,0.0
36.3067626953125,18.525875091552734,-1.7662780284881592,-0.0,-0.0,-1.0,0.0910255447493625,2.0,0.0
36.09360122680664,19.082866668701172,-1.7251288890838623,-0.0,-0.0,-1.0,0.2222028725906513,2.0,0.0
35.53620910644531,19.017053604125977,-1.6446640491485596,0.6562224575701081,0.7044795018629145,-0.2703344551396063,0.1764108871625857,5.0,0.0
35.580970764160156,20.47979164123535,-1.6303317546844482,-0.0,-0.0,-1.0,0.1088769892073586,2.0,0.0
35.41332244873047,19.878326416015625,-1.6128361225128174,-0.0,-0.0,-1.0,0.1449046599560403,2.0,0.0
37.22571563720703,18.861572265625,-1.8496861457824707,-0.0,-0.0,-1.0,0.113196226234852,1.0,0.0
36.033226013183594,19.108753204345703,-1.6786518096923828,-0.0,-0.0,-1.0,0.1688069974237638,2.0,0.0
37.55792236328125,20.243614196777344,-1.9503724575042725,-0.9197638327483308,0.3820323397470216,-0.0899209839554546,0.2125938903960983,3.0,0.0
35.277069091796875,18.822853088378903,-1.729231595993042,-0.0,-0.0,-1.0,0.0807188575063755,1.0,0.0
35.273197174072266,19.01787376403809,-1.7168481349945068,-0.0,-0.0,-1.0,0.1034749215247123,2.0,0.0
35.34156799316406,19.303241729736328,-1.7085983753204346,-0.0,-0.0,-1.0,0.1277130129842442,1.0,0.0
35.291778564453125,19.67474365234375,-1.6801655292510986,-0.0,-0.0,-1.0,0.2314841121958414,1.0,0.0
35.21985626220703,19.994808197021484,-1.652064085006714,-0.0,-0.0,-1.0,0.1158435800950883,1.0,0.0
35.55451202392578,20.550148010253903,-1.665297269821167,0.8573527196829399,0.4172876338473255,-0.3013591622804371,0.0844626996741157,6.0,0.0
35.387969970703125,18.29220962524414,-1.5569963455200195,-0.0,-0.0,-1.0,0.2519603389250562,1.0,0.0
36.65177154541016,18.209217071533203,-1.7194786071777344,-0.0,-0.0,-1.0,0.1382305998454299,2.0,0.0
36.72125244140625,18.286378860473633,-1.723050594329834,-0.0,-0.0,-1.0,0.1436750146805841,1.0,0.0
36.01231384277344,19.17021751403809,-1.5764296054840088,-0.6505856137869606,-0.7506440316911295,0.115203718776481,0.1391019360730161,3.0,0.0
36.19356155395508,19.179161071777344,-1.5986919403076172,-0.0,-0.0,-1.0,0.2493603129834807,2.0,0.0
35.22164535522461,19.16024398803711,-1.8027544021606443,-0.0,-0.0,-1.0,0.1311644008623162,1.0,0.0
35.2733154296875,18.91169548034668,-1.8252744674682615,-0.0,-0.0,-1.0,0.0805673648224141,2.0,0.0
35.37102127075195,19.498065948486328,-1.8058786392211912,-0.0,-0.0,-1.0,0.0771459174434939,2.0,0.0
35.25736618041992,20.342041015625,-1.7419486045837402,-0.0,-0.0,-1.0,0.0848995625252727,2.0,0.0
35.398353576660156,19.89994239807129,-1.7875752449035645,-0.0,-0.0,-1.0,0.1188516605050559,1.0,0.0
35.356319427490234,20.490921020507812,-1.7493844032287598,0.6804292929754346,-0.1568147586851271,-0.7158387449135981,0.1465134048981495,3.0,0.0
35.95922088623047,19.08501434326172,-1.546410083770752,-0.0,-0.0,-1.0,0.2221424638047577,2.0,0.0
35.95399475097656,18.964624404907227,-1.5526461601257324,-0.0,-0.0,-1.0,0.213044323057903,2.0,0.0
36.09391021728515,19.109691619873047,-1.5635695457458496,0.2901844863556577,-0.9368765459838042,-0.1950776805889382,0.1852919062924285,7.0,0.0
35.519874572753906,19.541589736938477,-1.4596526622772217,-0.0,-0.0,-1.0,0.1147388872835923,1.0,0.0
36.10560607910156,18.969989776611328,-1.1248431205749512,-0.0,-0.0,-1.0,0.1313717518859963,1.0,0.0
35.55751037597656,18.94169807434082,-1.7769925594329834,0.1779662920713969,0.0260207609361108,-0.9836924920353228,0.2152957619264424,4.0,0.0
35.51249694824219,18.494163513183594,-1.7926065921783447,-0.0,-0.0,-1.0,0.0412742699528197,2.0,0.0
35.44266891479492,18.168167114257812,-1.798323392868042,-0.0,-0.0,-1.0,0.1076137193796084,2.0,0.0
35.52424621582031,20.59760093688965,-1.6929075717926023,0.9988780423103044,0.0303969875827267,0.0363136301714478,0.1024909742025413,3.0,0.0
35.57132339477539,20.17020797729492,-1.7201025485992432,0.8614838018711725,-0.2323925684489353,-0.4514857176515082,0.1213256613109713,4.0,0.0
35.506370544433594,19.742685317993164,-1.7289526462554932,-0.0,-0.0,-1.0,0.1736087989790317,2.0,0.0
35.69782257080078,19.499256134033203,-1.7730696201324463,0.97267630994843,0.0521984175381757,0.2262213987924574,0.20029349326073,5.0,0.0
35.90806579589844,19.034278869628903,-1.8313305377960205,-0.0,-0.0,-1.0,0.1510420906329078,2.0,0.0
35.78099822998047,18.618202209472656,-1.8310730457305908,-0.0,-0.0,-1.0,0.039157617876828,2.0,0.0
35.94620132446289,19.158531188964844,-1.83162522315979,-0.9801107961281396,0.1679371742684812,-0.1057352013843182,0.1795602593681654,4.0,0.0
35.57136917114258,19.148035049438477,-1.8138718605041504,-0.6305627461847475,0.0173126674223743,-0.7759451621543058,0.1793421468262979,4.0,0.0
35.55491256713867,18.756757736206055,-1.8262028694152832,-0.0,-0.0,-1.0,0.0746942562112458,1.0,0.0
35.42368698120117,18.36547088623047,-1.8186030387878416,-0.0,-0.0,-1.0,0.0779645711036304,2.0,0.0
35.55339050292969,20.072237014770508,-1.7772293090820312,0.9814886250132526,-0.1679823885430415,-0.0919891086431953,0.1471502633737281,5.0,0.0
35.59452438354492,19.635150909423828,-1.8000259399414062,-0.0,-0.0,-1.0,0.1633314734513594,1.0,0.0
35.569313049316406,19.290056228637695,-1.80812406539917,-0.8615739982130544,0.505065447005398,-0.0509817599187085,0.1150788466091082,3.0,0.0
35.60472106933594,19.04218864440918,-1.823967456817627,-0.0,-0.0,-1.0,0.1828889451803546,2.0,0.0
35.430015563964844,20.46556282043457,-1.7415118217468262,-0.0,-0.0,-1.0,0.06907228244877,1.0,0.0
35.39937210083008,20.02835273742676,-1.7505488395690918,-0.0,-0.0,-1.0,0.2517703124085695,2.0,0.0
36.034912109375,19.150794982910156,-1.053813934326172,-0.0,-0.0,-1.0,0.1001394402409402,1.0,0.0
35.452030181884766,18.241899490356445,-1.6270301342010498,-0.0,-0.0,-1.0,0.2590564830256108,1.0,0.0
36.05635070800781,19.15675163269043,-1.7060930728912354,-0.0,-0.0,-1.0,0.1566142227754804,1.0,0.0
36.208709716796875,18.333175659179688,-1.760376214981079,-0.0,-0.0,-1.0,0.0488213760052754,1.0,0.0
36.17229461669922,19.234535217285156,-1.7248914241790771,-0.0,-0.0,-1.0,0.1889238155588086,1.0,0.0
36.215599060058594,18.95779037475586,-1.7412612438201904,-0.0,-0.0,-1.0,0.2207229827483083,1.0,0.0
36.44749450683594,18.54059600830078,-1.7967441082000732,0.1508859380361601,0.6140378942997018,-0.7747198836140301,0.0852179114157479,4.0,0.0
36.61299514770508,18.285383224487305,-1.835179090499878,-0.0,-0.0,-1.0,0.1304787527107941,1.0,0.0
36.70480728149414,18.653717041015625,-1.8398687839508057,-0.0,-0.0,-1.0,0.0560284509685167,1.0,0.0
37.21492004394531,19.044620513916016,-1.9211628437042236,-0.0,-0.0,-1.0,0.0472139087491895,1.0,0.0
37.62127304077149,19.277679443359375,-1.9891679286956787,-0.0,-0.0,-1.0,0.0106228614546864,1.0,0.0
35.36314010620117,18.19649314880371,-1.6126811504364014,-0.1827717535164854,0.5415958151296043,-0.8205293773842646,0.217445894949424,4.0,0.0
35.47344970703125,20.109081268310547,-1.571824312210083,-0.0,-0.0,-1.0,0.1570978454701488,1.0,0.0
35.48871994018555,19.093820571899418,-1.6047017574310305,-0.0,-0.0,-1.0,0.1455990487031586,2.0,0.0
35.66556167602539,19.614765167236328,-1.6210005283355713,-0.0,-0.0,-1.0,0.1566785739192204,1.0,0.0
36.052513122558594,19.14285659790039,-0.8880302906036377,-0.0,-0.0,-1.0,0.0530291995070866,1.0,0.0
36.52621841430664,18.558578491210938,-1.742969036102295,-0.0,-0.0,-1.0,0.0605486840934079,1.0,0.0
36.59123611450195,18.244932174682617,-1.7695212364196775,-0.0,-0.0,-1.0,0.1684928024114968,1.0,0.0
37.31710433959961,18.90357208251953,-1.8663887977600095,-0.0,-0.0,-1.0,0.0663046656514646,1.0,0.0
35.617218017578125,20.56108856201172,-1.494821071624756,-0.0,-0.0,-1.0,0.1530165945020566,2.0,0.0
36.10163116455078,19.008460998535156,-1.6472210884094238,-0.5333504101740142,-0.4052907620309023,0.7424801264543184,0.2722090912263255,6.0,0.0
36.315433502197266,18.303043365478516,-1.718388557434082,-0.0,-0.0,-1.0,0.0813198225140262,1.0,0.0
37.09661865234375,18.28992080688477,-1.770336389541626,-0.0,-0.0,-1.0,0.1675879645950287,1.0,0.0
37.29825210571289,18.88561630249023,-1.7875540256500244,-0.0,-0.0,-1.0,0.071762365882231,1.0,0.0
35.66495895385742,19.568683624267575,-1.4687707424163818,-0.2184824871298576,-0.9582796146702725,0.1842975391179861,0.0843889447412443,4.0,0.0
36.07761764526367,19.03642463684082,-1.560575246810913,-0.6866770917380185,-0.6034768169906408,-0.4053274022775434,0.1981189238837896,4.0,0.0
36.190887451171875,19.16214370727539,-1.5771725177764893,-0.9500857271510176,0.2911304737914183,0.1121613047976297,0.1892550289506216,3.0,0.0
36.65130615234375,18.152219772338867,-1.6945898532867432,-0.0,-0.0,-1.0,0.1313061401406652,2.0,0.0
35.956871032714844,19.014911651611328,-0.7753610610961914,-0.6668444790427964,0.5813697477362691,-0.4661841451478249,0.1346483174755943,5.0,0.0
35.30927276611328,18.7034854888916,-1.8077290058135984,-0.0,-0.0,-1.0,0.0231108635264867,1.0,0.0
35.24957275390625,18.314319610595703,-1.8055875301361084,-0.0,-0.0,-1.0,0.1476051478563531,2.0,0.0
35.40280532836914,19.19155502319336,-1.8160312175750732,-0.0,-0.0,-1.0,0.1516678225878326,1.0,0.0
35.45887756347656,18.91778564453125,-1.8338067531585691,-0.0,-0.0,-1.0,0.1216950638327837,2.0,0.0
35.28453063964844,20.406414031982425,-1.7707784175872805,-0.7105785381611663,0.0799384939005214,-0.6990622134671965,0.0889236351874945,4.0,0.0
35.35408020019531,20.033349990844727,-1.7905642986297607,-0.0,-0.0,-1.0,0.1209102324201278,2.0,0.0
35.37654495239258,19.61188316345215,-1.8022944927215576,-0.0,-0.0,-1.0,0.0660998752924932,1.0,0.0
35.30964660644531,19.3942928314209,-1.7923147678375244,-0.0,-0.0,-1.0,0.1127729578444311,2.0,0.0
36.039695739746094,19.125347137451172,-1.2660672664642334,-0.0,-0.0,-1.0,0.1928006047459739,1.0,0.0
36.30364990234375,18.601667404174805,-1.8539135456085205,-0.0,-0.0,-1.0,0.0800016081516665,2.0,0.0
35.637550354003906,19.53471946716309,-1.7123196125030518,0.9061952535661384,0.3300737166594284,-0.2643132686507317,0.1443062538055772,5.0,0.0
35.731605529785156,19.00233459472656,-1.7305610179901123,-0.0,-0.0,-1.0,0.091655907043166,2.0,0.0
35.898807525634766,18.546659469604492,-1.7665393352508545,-0.0,-0.0,-1.0,0.0231998229196176,1.0,0.0
35.995849609375,18.240150451660156,-1.7882134914398191,-0.0,-0.0,-1.0,0.0246383474492675,1.0,0.0
36.01960754394531,19.15588760375977,-1.7933943271636963,-0.753888958578627,-0.0354376126744677,-0.6560454357292395,0.2459554882455366,4.0,0.0
36.07088470458984,18.758207321166992,-1.803640604019165,0.0236489845368479,0.7837333592583455,-0.6206470390777716,0.0950476059448942,3.0,0.0
36.23502349853515,19.330421447753903,-1.8408963680267336,-0.0,-0.0,-1.0,0.1336972627532294,2.0,0.0
36.3009033203125,19.247976303100582,-1.8547818660736084,-0.0,-0.0,-1.0,0.1048536693254011,1.0,0.0
36.12043762207031,19.089075088500977,-1.0966696739196775,-0.0,-0.0,-1.0,0.1331860674388253,2.0,0.0
36.14067840576172,18.804765701293945,-1.0979244709014893,-0.0,-0.0,-1.0,0.0848672246834512,1.0,0.0
35.569828033447266,18.25671005249023,-1.842111587524414,-0.0,-0.0,-1.0,0.0955734641353627,2.0,0.0
35.34282684326172,18.175670623779297,-1.6350505352020264,0.0567959927950845,0.7045357727119261,-0.7073920837637568,0.1522715508813661,3.0,0.0
35.47239685058594,19.104732513427734,-1.714258909225464,-0.0,-0.0,-1.0,0.18550612443864,1.0,0.0
36.058616638183594,18.31678581237793,-1.8060972690582275,-0.0,-0.0,-1.0,0.0396718993081674,1.0,0.0
35.52998352050781,19.823993682861328,-1.7711808681488037,-0.0,-0.0,-1.0,0.1324172525257865,1.0,0.0
35.70995330810547,19.507841110229492,-1.7925984859466553,0.97267630994843,0.0521984175381757,0.2262213987924574,0.2144461053850583,5.0,0.0
35.935707092285156,19.112646102905273,-1.8209426403045657,-0.9625708642683588,0.2012709961677411,-0.1815139591417427,0.1946239593142862,4.0,0.0
36.04521942138672,18.741846084594727,-1.8252789974212649,0.0236489845368479,0.7837333592583455,-0.6206470390777716,0.0669351107724687,3.0,0.0
36.24169158935547,18.421707153320312,-1.853367567062378,-0.0,-0.0,-1.0,0.0788114262885024,1.0,0.0
35.26649856567383,20.583404541015625,-1.7621543407440186,-0.0,-0.0,-1.0,0.1420243562976922,2.0,0.0
35.457122802734375,20.226015090942383,-1.7809412479400637,0.3015176299733399,-0.9229176001237808,-0.2393955350398597,0.0877275471158121,3.0,0.0
35.95961380004883,19.36723899841309,-1.841259717941284,-0.8919313603522957,0.4173092867185125,-0.1741017163573914,0.125433142339388,3.0,0.0
35.96962356567383,19.14141845703125,-1.1685991287231443,0.096947987788692,-0.6659852316581658,-0.7396382621774936,0.1292590395882334,4.0,0.0
35.812530517578125,18.95200538635254,-1.7370903491973877,0.6121054810603639,0.2849000785294628,-0.7376712176232487,0.0965548917270104,4.0,0.0
36.13673400878906,18.554731369018555,-1.786902666091919,-0.0,-0.0,-1.0,0.0636743450583376,1.0,0.0
36.46031188964844,18.271018981933594,-1.8445498943328855,-0.0,-0.0,-1.0,0.1106824418825472,2.0,0.0
36.0236701965332,19.425113677978516,-1.817220449447632,-0.0,-0.0,-1.0,0.1304825767632437,1.0,0.0
36.169281005859375,19.09193992614746,-1.8284409046173096,-0.0,-0.0,-1.0,0.1684756212367371,1.0,0.0
36.33360290527344,18.780696868896484,-1.846226930618286,-0.0,-0.0,-1.0,0.0786006285969684,1.0,0.0
36.652130126953125,18.394737243652344,-1.896023511886597,-0.0,-0.0,-1.0,0.1166417289343085,1.0,0.0
35.86458206176758,19.8243465423584,-1.8087961673736572,-0.0,-0.0,-1.0,0.0413916710695984,1.0,0.0
35.960086822509766,19.67313575744629,-1.8199093341827393,-0.0,-0.0,-1.0,0.046947108372245,1.0,0.0
36.2327880859375,19.314754486083984,-1.857827425003052,-0.0,-0.0,-1.0,0.1162184713210656,2.0,0.0
35.515987396240234,19.062416076660156,-1.6759812831878662,-0.7490187545355135,-0.514208740127696,-0.417804113108471,0.1760503760239058,6.0,0.0
35.49143981933594,19.91436195373535,-1.7296078205108645,0.9399729551096642,0.3332306419770004,-0.0735403488569488,0.1687707373329167,4.0,0.0
35.63937759399414,19.55263328552246,-1.7376492023468018,-0.451352223026846,-0.71288228506443,-0.536730862173996,0.1706737565970515,3.0,0.0
35.39757537841797,20.536914825439453,-1.7556908130645752,-0.0,-0.0,-1.0,0.167399335328009,2.0,0.0
35.56964874267578,20.166454315185547,-1.766409158706665,0.8014769726867664,-0.5977087413991997,0.0194659371169433,0.1302995753822745,3.0,0.0
36.090049743652344,18.80263900756836,-1.142545461654663,0.8398660695984048,0.5007438698271289,0.2094768769288846,0.0748362536622465,3.0,0.0
35.977054595947266,19.110597610473633,-1.13987135887146,0.096947987788692,-0.6659852316581658,-0.7396382621774936,0.1261344504717819,4.0,0.0
35.21941375732422,18.262144088745117,-1.7832107543945312,-0.0,-0.0,-1.0,0.1804424033043584,2.0,0.0
36.13177108764648,19.089828491210938,-1.4332122802734375,0.652954578668468,-0.5035238927905793,0.5657861853959536,0.1758163755302587,5.0,0.0
35.76039123535156,19.632699966430664,-1.3858375549316406,-0.0,-0.0,-1.0,0.0749616176474368,1.0,0.0
35.91967010498047,18.986183166503903,-0.7685906887054443,-0.6668444790427964,0.5813697477362691,-0.4661841451478249,0.1346483174755944,5.0,0.0
35.478790283203125,18.425617218017575,-1.8424477577209473,-0.0,-0.0,-1.0,0.0505800023550169,2.0,0.0
37.086151123046875,20.60152053833008,-1.839838981628418,-0.0,-0.0,-1.0,0.1011040018319698,1.0,0.0
36.03524398803711,19.137510299682617,-1.4548053741455078,-0.0,-0.0,-1.0,0.1899103643981076,2.0,0.0
35.576148986816406,19.579654693603516,-1.3953509330749512,-0.0,-0.0,-1.0,0.1231700585582873,1.0,0.0
35.77919006347656,20.56064224243164,-1.5443978309631348,0.6735577379530816,0.5381832025941756,-0.5066347936028521,0.1399146294713183,4.0,0.0
36.007118225097656,19.11103630065918,-0.8537147045135498,-0.0,-0.0,-1.0,0.0836957151845111,1.0,0.0
35.264347076416016,18.172203063964844,-1.7513399124145508,-0.0,-0.0,-1.0,0.175144710181343,2.0,0.0
35.44805908203125,18.192197799682617,-1.804037094116211,-0.0,-0.0,-1.0,0.1002212560081488,2.0,0.0
35.257713317871094,18.611879348754883,-1.7968811988830566,-0.532637228843394,-0.4890286636550536,-0.6907593999170644,0.0387408566491067,3.0,0.0
35.490970611572266,18.43102264404297,-1.841087818145752,-0.0,-0.0,-1.0,0.043425789209371,2.0,0.0
35.217369079589844,18.971343994140625,-1.8268179893493652,0.9790130837081168,-0.0283185935581665,-0.2018203141093838,0.0851977663301038,3.0,0.0
37.54942321777344,20.217493057250977,-1.9744148254394531,0.0242622821906449,0.499411621069139,-0.8660250425963419,0.1323302619685122,4.0,0.0
37.49700927734375,20.327411651611328,-1.9753804206848145,-0.0,-0.0,-1.0,0.1289437655242289,1.0,0.0
35.609615325927734,19.602333068847656,-1.445346117019653,-0.0,-0.0,-1.0,0.0886003846088964,1.0,0.0
36.09541320800781,19.137556076049805,-1.5070104598999023,-0.0,-0.0,-1.0,0.1492814414374392,1.0,0.0
36.67130279541016,19.571619033813477,-1.6919031143188477,-0.0,-0.0,-1.0,0.2692782864608462,1.0,0.0
35.67909240722656,20.52111053466797,-1.5746221542358398,-0.5415338327315219,0.1982512624673266,-0.8169685091466006,0.1638460985178621,3.0,0.0
36.19092559814453,19.078886032104492,-0.9507756233215332,-0.0,-0.0,-1.0,0.0978227545028423,1.0,0.0
35.57587432861328,18.288026809692383,-1.8580975532531736,-0.0,-0.0,-1.0,0.0809073486555891,2.0,0.0
35.41912078857422,18.53562355041504,-1.8388032913208008,-0.2579230573603014,-0.1205844382906363,-0.9586110210737442,0.0423012949798244,3.0,0.0
35.26774597167969,18.91905975341797,-1.8383445739746096,-0.0,-0.0,-1.0,0.0805673648224141,2.0,0.0
37.51435470581055,18.79228782653809,-1.8886241912841797,-0.9890590159488696,0.1249304606000989,-0.0784515327096995,0.0601231406731176,3.0,0.0
37.63454818725586,18.611637115478516,-1.9009599685668943,-0.9873038509877934,-0.152403305660227,-0.0447698363690176,0.0837787920854142,3.0,0.0
37.690425872802734,19.631677627563477,-2.0272445678710938,-0.0,-0.0,-1.0,0.0257953171850851,2.0,0.0
37.54193115234375,20.035558700561523,-2.037564277648926,-0.0,-0.0,-1.0,0.0945697084810881,1.0,0.0
37.35636138916016,20.522945404052734,-2.0517945289611816,-0.0,-0.0,-1.0,0.1719369212440353,1.0,0.0
37.47753143310547,20.321699142456055,-2.0568137168884277,-0.0,-0.0,-1.0,0.0679403638156449,1.0,0.0
37.28053283691406,20.620878219604492,-2.045332908630371,-0.0,-0.0,-1.0,0.1835339466745479,1.0,0.0
37.13722229003906,18.470802307128903,-1.7576441764831543,-0.0,-0.0,-1.0,0.1393444275280245,1.0,0.0
36.04399108886719,19.05435562133789,-1.5371010303497314,-0.4132548154039351,0.0720538329338129,-0.9077602671988932,0.2839563370032645,4.0,0.0
36.137245178222656,18.97037124633789,-1.5517992973327637,-0.4089082877177895,-0.9071774143086284,-0.0991118116271533,0.2379260172775472,6.0,0.0
37.14548873901367,18.74478530883789,-1.788066864013672,-0.0,-0.0,-1.0,0.1726163116113123,1.0,0.0
35.693485260009766,19.554054260253903,-1.505394458770752,-0.2184824871298576,-0.9582796146702725,0.1842975391179861,0.0691666137781503,4.0,0.0
36.180931091308594,19.131153106689453,-1.5810694694519043,-0.0,-0.0,-1.0,0.2374712740686601,2.0,0.0
36.73577880859375,19.491411209106445,-1.7654027938842771,-0.0,-0.0,-1.0,0.2321494397954836,1.0,0.0
35.596473693847656,20.612443923950195,-1.6181669235229492,0.1222237601528577,-0.633037055557469,-0.7644118253567423,0.1769827305627456,6.0,0.0
35.788902282714844,20.40004539489746,-1.6377696990966797,-0.0,-0.0,-1.0,0.1366600842361,1.0,0.0
36.11402893066406,19.049428939819336,-1.015965461730957,-0.0,-0.0,-1.0,0.1420918977601692,2.0,0.0
36.25686264038086,18.495548248291016,-1.835885763168335,-0.0,-0.0,-1.0,0.0794948082840055,1.0,0.0
36.46989440917969,18.39923095703125,-1.8912451267242432,-0.0,-0.0,-1.0,0.0718248390302987,1.0,0.0
36.20304870605469,18.82364273071289,-1.85199236869812,-0.0,-0.0,-1.0,0.1132119490485131,1.0,0.0
36.1666374206543,19.25231170654297,-1.8863847255706787,-0.0,-0.0,-1.0,0.1065641191886913,1.0,0.0
35.90357208251953,19.528987884521484,-1.8389551639556885,-0.0,-0.0,-1.0,0.0862599054305688,2.0,0.0
36.15977478027344,19.425981521606445,-1.903576135635376,-0.0,-0.0,-1.0,0.1185831737437489,1.0,0.0
35.9932746887207,18.53088760375977,-1.7596628665924072,-0.0,-0.0,-1.0,0.0378759016874584,2.0,0.0
35.510711669921875,19.066951751708984,-1.6693108081817627,-0.0797871203529334,0.9671721313153372,0.2412718048855581,0.1760503760239058,5.0,0.0
35.770782470703125,19.01701545715332,-1.7419960498809814,-0.0,-0.0,-1.0,0.0950120675139497,2.0,0.0
35.71092224121094,19.667016983032227,-1.7977440357208252,-0.0,-0.0,-1.0,0.0746018234712605,1.0,0.0
35.535987854003906,20.04260635375977,-1.792372465133667,0.8092631234717347,-0.5622606981089916,0.1701649327880475,0.1595748015815985,3.0,0.0
35.68458557128906,19.82956886291504,-1.809589147567749,-0.0,-0.0,-1.0,0.0625565435703155,2.0,0.0
35.22406005859375,20.588735580444336,-1.7735941410064695,-0.0,-0.0,-1.0,0.1338546805770975,2.0,0.0
35.36796188354492,20.398658752441406,-1.7897531986236572,0.4488399060865964,-0.8935349509574226,-0.0117486221188751,0.0841766008907505,4.0,0.0
36.08625793457031,19.043794631958008,-1.329526662826538,-0.9849799740074092,-0.1639913244105177,-0.0540490177750526,0.228937641457661,4.0,0.0
35.93716049194336,18.993183135986328,-0.7908103466033936,-0.6668444790427964,0.5813697477362691,-0.4661841451478249,0.1346483174755945,5.0,0.0
37.139129638671875,18.39523124694824,-1.8998427391052248,-0.0,-0.0,-1.0,0.1050167136092867,2.0,0.0
36.98162841796875,18.733348846435547,-1.885694980621338,-0.0,-0.0,-1.0,0.1117156451366837,1.0,0.0
37.086090087890625,18.8447265625,-1.929692268371582,-0.0,-0.0,-1.0,0.0905269173624959,1.0,0.0
37.11135482788086,19.017181396484375,-1.9562444686889648,-0.0,-0.0,-1.0,0.0472645777598219,1.0,0.0
36.940799713134766,19.53466033935547,-1.9640250205993652,-0.0,-0.0,-1.0,0.0962875413610662,1.0,0.0
37.0341796875,19.527690887451172,-1.9917869567871096,-0.0,-0.0,-1.0,0.0500200976127444,1.0,0.0
36.7737922668457,20.017900466918945,-1.974370002746582,-0.0,-0.0,-1.0,0.0777051007564473,1.0,0.0
37.03818130493164,19.7508487701416,-2.0202865600585938,-0.0,-0.0,-1.0,0.0169830660928063,1.0,0.0
36.68459701538086,20.319110870361328,-1.9880475997924805,-0.0,-0.0,-1.0,0.051317858618798,1.0,0.0
36.91209030151367,18.316679000854492,-1.8222064971923828,-0.0,-0.0,-1.0,0.0953875435889769,1.0,0.0
36.10142517089844,18.95395278930664,-1.639418125152588,0.5909159552378902,-0.7705605660685946,-0.2388613569946784,0.2371397031206066,3.0,0.0
36.90431594848633,18.64071273803711,-1.8523187637329104,-0.0,-0.0,-1.0,0.0840864519869013,1.0,0.0
36.13227462768555,19.093910217285156,-1.6648802757263184,-0.1815778470877395,-0.8371946332325009,-0.515882381491828,0.2293089081918849,3.0,0.0
35.71898651123047,19.53824234008789,-1.592747688293457,-0.0,-0.0,-1.0,0.2031379146514566,1.0,0.0
35.496490478515625,19.96531867980957,-1.5817692279815674,-0.0,-0.0,-1.0,0.2039376482947586,1.0,0.0
35.706111907958984,20.43204116821289,-1.7105202674865725,-0.0,-0.0,-1.0,0.2185336892113769,2.0,0.0
36.517574310302734,20.489501953125,-1.961436748504639,-0.0,-0.0,-1.0,0.0383664135184529,1.0,0.0
36.16487884521485,18.811349868774418,-1.167365312576294,0.1379205245066031,-0.6606371730865039,-0.7379271335681429,0.0924815468327695,3.0,0.0
36.003395080566406,19.134017944335938,-1.157949447631836,0.096947987788692,-0.6659852316581658,-0.7396382621774936,0.1421124737365096,4.0,0.0
36.735809326171875,19.582653045654297,-1.5145118236541748,-0.0,-0.0,-1.0,0.203010622586232,1.0,0.0
35.9637451171875,19.10710906982422,-1.221888780593872,-0.0,-0.0,-1.0,0.1044692859540271,2.0,0.0
36.03531265258789,19.0390567779541,-0.9882895946502686,-0.0,-0.0,-1.0,0.1229246474310809,2.0,0.0
35.94511795043945,18.994369506835938,-0.800682544708252,-0.6668444790427964,0.5813697477362691,-0.4661841451478249,0.1346483174755945,5.0,0.0
35.34083557128906,19.778823852539062,-1.6386100053787231,-0.0,-0.0,-1.0,0.2410002429051574,1.0,0.0
36.51847076416016,19.027687072753903,-1.950905919075012,-0.0,-0.0,-1.0,0.0380953239529969,1.0,0.0
36.62674331665039,18.790035247802734,-1.9070838689804075,-0.0,-0.0,-1.0,0.0295085046851345,1.0,0.0
36.61249542236328,18.239803314208984,-1.8588117361068728,-0.0,-0.0,-1.0,0.1329851268007222,1.0,0.0
36.54812240600586,19.188024520874023,-1.961403489112854,-0.0,-0.0,-1.0,0.0286801938198135,1.0,0.0
36.74477005004883,18.6638240814209,-1.8724817037582395,-0.0,-0.0,-1.0,0.0614397125231255,1.0,0.0
36.85234069824219,18.48813819885254,-1.8353294134140017,-0.0,-0.0,-1.0,0.069478637534124,1.0,0.0
37.14322280883789,18.651552200317383,-1.7954241037368774,-0.0,-0.0,-1.0,0.1252070260759923,1.0,0.0
35.6193733215332,19.359107971191406,-1.5587517023086548,-0.0,-0.0,-1.0,0.1873253705304421,1.0,0.0
36.11946105957031,18.938758850097656,-1.4451228380203247,-0.0,-0.0,-1.0,0.1441513407817067,2.0,0.0
35.95555877685547,18.900800704956055,-0.8967617750167847,-0.0,-0.0,-1.0,0.1068300952861491,2.0,0.0
37.02622985839844,19.974645614624023,-2.006412982940674,-0.0,-0.0,-1.0,0.0425217429942425,1.0,0.0
37.18658447265625,20.28844833374023,-2.0074853897094727,-0.0,-0.0,-1.0,0.1297985379424221,1.0,0.0
37.09315490722656,20.06204605102539,-2.0022330284118652,-0.0,-0.0,-1.0,0.0268060472522587,1.0,0.0
35.303558349609375,20.084217071533203,-1.7203160524368286,-0.0,-0.0,-1.0,0.2875147244965934,1.0,0.0
35.36759948730469,19.782819747924805,-1.68805992603302,-0.0,-0.0,-1.0,0.2412563700890892,1.0,0.0
35.52466583251953,19.368114471435547,-1.6336928606033323,-0.0,-0.0,-1.0,0.1232883041185695,1.0,0.0
35.51077651977539,18.90752220153809,-1.6057955026626587,-0.0,-0.0,-1.0,0.1642611636413403,2.0,0.0
35.76399230957031,20.245738983154297,-1.6589452028274536,-0.0,-0.0,-1.0,0.2064917945859257,1.0,0.0
35.64178466796875,19.414630889892575,-1.6177932024002075,-0.0,-0.0,-1.0,0.1776976216659925,2.0,0.0
35.941734313964844,20.58209228515625,-1.6575576066970823,-0.0,-0.0,-1.0,0.1323871425914799,1.0,0.0
36.71245193481445,18.194419860839844,-1.9166382551193235,-0.0,-0.0,-1.0,0.1159086341443715,1.0,0.0
37.0526237487793,19.722108840942383,-1.9773057699203491,-0.0,-0.0,-1.0,0.0173203634795512,2.0,0.0
37.0660514831543,19.42160415649414,-1.947105050086975,-0.0,-0.0,-1.0,0.0880099978098605,2.0,0.0
36.97918701171875,19.143442153930664,-1.9394043684005735,-0.0,-0.0,-1.0,0.0553284452025892,1.0,0.0
37.1314582824707,18.699811935424805,-1.8724297285079956,-0.0,-0.0,-1.0,0.134856014854721,2.0,0.0
37.06576156616211,18.366992950439453,-1.8590980768203735,-0.0,-0.0,-1.0,0.1075714456210139,2.0,0.0
37.329307556152344,20.258277893066406,-1.977462649345398,-0.0,-0.0,-1.0,0.1620177296270372,1.0,0.0
37.216278076171875,19.939218521118164,-1.967103123664856,-0.0,-0.0,-1.0,0.0221929374898296,1.0,0.0
37.138160705566406,19.592113494873047,-1.9488013982772827,-0.0,-0.0,-1.0,0.1056436111661886,1.0,0.0
37.53419494628906,18.220361709594727,-1.754757285118103,-0.0,-0.0,-1.0,0.1818174509354683,1.0,0.0
36.11268997192383,18.97890281677246,-1.511496663093567,-0.909741853200085,-0.4150785931188802,-0.0089175148178027,0.2226789233464292,5.0,0.0
36.207427978515625,18.890222549438477,-0.9174596071243286,-0.0,-0.0,-1.0,0.1868397673794032,1.0,0.0
36.21989059448242,18.79722023010254,-0.9109667539596558,-0.0,-0.0,-1.0,0.1233084012175336,1.0,0.0
36.67878723144531,20.46658515930176,-1.9757130146026611,-0.0,-0.0,-1.0,0.0623930993411734,1.0,0.0
36.667137145996094,20.37627410888672,-1.9679293632507324,-0.0,-0.0,-1.0,0.0664987540181684,1.0,0.0
36.492645263671875,19.886882781982425,-1.9465906620025637,-0.0,-0.0,-1.0,0.03367695946585,1.0,0.0
36.46340560913086,19.585887908935547,-1.9213614463806152,0.9790925867214818,0.2033786729378839,-0.0038499377998519,0.0936489657175752,3.0,0.0
36.409217834472656,19.144615173339844,-1.8881375789642336,-0.0,-0.0,-1.0,0.0589506650831661,1.0,0.0
36.385711669921875,18.63765335083008,-1.8456411361694336,-0.0,-0.0,-1.0,0.0397631911762575,1.0,0.0
36.230106353759766,18.3427734375,-1.8478529453277588,-0.0,-0.0,-1.0,0.058438954954617,1.0,0.0
36.77207946777344,20.22229766845703,-1.9335191249847412,-0.0,-0.0,-1.0,0.0754616445686593,2.0,0.0
36.781097412109375,20.03546142578125,-1.912214279174805,-0.0,-0.0,-1.0,0.1207754237619349,2.0,0.0
36.54469299316406,19.297325134277344,-1.8787968158721924,-0.0,-0.0,-1.0,0.0456251918321412,1.0,0.0
36.47018814086914,18.642635345458984,-1.8309884071350095,-0.0,-0.0,-1.0,0.0364909269470507,1.0,0.0
36.519874572753906,18.375503540039062,-1.7984371185302734,-0.0,-0.0,-1.0,0.0949006568584713,1.0,0.0
36.93180465698242,18.613872528076172,-1.7459025382995603,-0.0,-0.0,-1.0,0.0818729856061551,1.0,0.0
35.7945442199707,20.52201461791992,-1.5096909999847412,-0.0,-0.0,-1.0,0.0818115100597138,2.0,0.0
36.0714111328125,18.965133666992188,-1.3415520191192627,-0.0,-0.0,-1.0,0.1660839900367061,1.0,0.0
35.88433837890625,18.874927520751953,-0.7738988399505615,-0.0,-0.0,-1.0,0.1122969452836506,1.0,0.0
36.67164993286133,20.535541534423828,-2.0132389068603516,-0.0,-0.0,-1.0,0.0794777304465888,1.0,0.0
36.77873611450195,20.27526092529297,-1.9657557010650637,-0.0,-0.0,-1.0,0.0701838852179541,2.0,0.0
36.781776428222656,19.98480224609375,-1.933194637298584,-0.0,-0.0,-1.0,0.1041955144167918,2.0,0.0
36.5452995300293,19.666297912597656,-1.9397993087768557,-0.0,-0.0,-1.0,0.1055455573842061,2.0,0.0
36.536041259765625,19.23381233215332,-1.8968758583068848,-0.0,-0.0,-1.0,0.031496501911433,1.0,0.0
36.56062316894531,18.75387954711914,-1.8452701568603516,-0.4458229987749989,0.4414179790523772,-0.7787117705111324,0.0362263161222759,3.0,0.0
36.57860565185547,18.367822647094727,-1.8056254386901855,-0.0,-0.0,-1.0,0.1137171448223254,1.0,0.0
36.85901641845703,18.541988372802734,-1.7718143463134766,-0.0,-0.0,-1.0,0.0690406937820354,1.0,0.0
36.65890121459961,18.330535888671875,-1.787738800048828,-0.0,-0.0,-1.0,0.119332475368652,1.0,0.0
35.80251693725586,20.467323303222656,-1.5300374031066897,-0.0,-0.0,-1.0,0.0672003468241607,1.0,0.0
36.12773132324219,18.965356826782227,-1.35394549369812,-0.0,-0.0,-1.0,0.2066887506821929,1.0,0.0
35.960445404052734,18.911331176757812,-0.7873749732971191,-0.0712851899407064,0.1002327268817136,-0.992407084898618,0.140145645992058,3.0,0.0
36.0696907043457,20.42631149291992,-1.8475089073181152,-0.0,-0.0,-1.0,0.0925571618201016,1.0,0.0
35.967262268066406,20.14523696899414,-1.836428165435791,-0.0,-0.0,-1.0,0.049230190320176,2.0,0.0
35.967628479003906,19.909257888793945,-1.8138649463653564,-0.0,-0.0,-1.0,0.0404778544422491,1.0,0.0
35.8491325378418,19.60927391052246,-1.8055484294891355,-0.0,-0.0,-1.0,0.0867482644919022,1.0,0.0
35.710506439208984,19.219959259033203,-1.7940011024475098,-0.0,-0.0,-1.0,0.0506343086756925,2.0,0.0
35.41716766357422,18.90521240234375,-1.8164658546447752,-0.0,-0.0,-1.0,0.1252298639148894,2.0,0.0
35.29731369018555,18.58913230895996,-1.8113126754760744,-0.5369970143696037,-0.7898596429138526,-0.2962363094796669,0.0402218452627767,5.0,0.0
35.8016471862793,18.92132568359375,-1.752981662750244,0.0489278428008483,-0.0173402745493177,-0.9986517816924024,0.095100413350395,5.0,0.0
35.578731536865234,18.643985748291016,-1.767753839492798,-0.9325730534800593,-0.0019234839827677,-0.3609761766824048,0.0667031606961337,3.0,0.0
35.365867614746094,18.478721618652344,-1.790884494781494,-0.0,-0.0,-1.0,0.1272375885860114,2.0,0.0
35.32493209838867,18.208232879638672,-1.7771387100219729,-0.0,-0.0,-1.0,0.1778836638923357,2.0,0.0
37.625186920166016,18.375022888183594,-1.9351990222930908,-0.0,-0.0,-1.0,0.1329145559258245,1.0,0.0
36.12735366821289,19.020790100097656,-1.7069170475006104,-0.0,-0.0,-1.0,0.2987865661729142,2.0,0.0
36.16880798339844,18.875301361083984,-1.6874334812164309,-0.0,-0.0,-1.0,0.2114076121108687,1.0,0.0
36.10124206542969,19.040151596069336,-1.1257972717285156,-0.0,-0.0,-1.0,0.1241286444667227,1.0,0.0
36.31095123291016,19.06417465209961,-1.0993356704711914,-0.0,-0.0,-1.0,0.0919532188724612,1.0,0.0
36.09450912475586,20.530452728271484,-1.7871228456497192,-0.0,-0.0,-1.0,0.111065134725793,2.0,0.0
35.962440490722656,20.265626907348633,-1.783518671989441,-0.0,-0.0,-1.0,0.0794924107702081,1.0,0.0
35.7666015625,19.8743896484375,-1.7800294160842896,-0.0,-0.0,-1.0,0.0495108960567282,1.0,0.0
35.58651351928711,19.74187469482422,-1.7980083227157593,-0.0,-0.0,-1.0,0.1160336565428553,2.0,0.0
35.71744155883789,19.502941131591797,-1.7560869455337524,0.97267630994843,0.0521984175381757,0.2262213987924574,0.1840472088283568,5.0,0.0
35.25918197631836,19.097064971923828,-1.7996031045913696,-0.0,-0.0,-1.0,0.145845918230128,1.0,0.0
37.564395904541016,20.367204666137695,-2.1067867279052734,-0.0,-0.0,-1.0,0.0605072330409985,2.0,0.0
35.63145446777344,18.994813919067383,-1.7288192510604858,-0.0,-0.0,-1.0,0.1739804176521806,1.0,0.0
37.67548370361328,20.225372314453125,-2.0689282417297363,-0.0,-0.0,-1.0,0.0758807445437921,1.0,0.0
37.596336364746094,18.935848236083984,-1.936205267906189,-0.0,-0.0,-1.0,0.0285982177627936,1.0,0.0
37.685752868652344,18.60974884033203,-1.8843945264816284,-0.0,-0.0,-1.0,0.0814322847555285,1.0,0.0
37.40402603149414,18.3549861907959,-1.9142049551010132,-0.0,-0.0,-1.0,0.1197128639206924,1.0,0.0
35.659549713134766,18.91939926147461,-1.7181342840194702,-0.0,-0.0,-1.0,0.0726300859351809,1.0,0.0
36.78018951416016,19.51319122314453,-1.5827370882034302,-0.0,-0.0,-1.0,0.1953174737989146,1.0,0.0
36.261810302734375,19.01931953430176,-1.6253653764724731,-0.0,-0.0,-1.0,0.1917512623453611,1.0,0.0
36.16754150390625,18.911348342895508,-1.6322592496871948,-0.0,-0.0,-1.0,0.2846409292555721,1.0,0.0
36.04806137084961,19.040061950683594,-1.0813158750534058,0.995314514210078,0.0957157511234662,0.0136935309408139,0.1330366001780445,4.0,0.0
36.301483154296875,19.032920837402344,-1.0466889142990112,-0.0,-0.0,-1.0,0.1047675662882109,1.0,0.0
37.19658279418945,20.59283447265625,-1.8869129419326784,-0.0,-0.0,-1.0,0.1231022692866344,1.0,0.0
36.71992492675781,20.458120346069336,-1.9480060338974,-0.0,-0.0,-1.0,0.0623930993411734,1.0,0.0
36.53388977050781,20.289825439453125,-1.958651661872864,-0.0,-0.0,-1.0,0.0290736946547121,1.0,0.0
36.837738037109375,20.1767635345459,-1.894786715507507,-0.0,-0.0,-1.0,0.0870615720296992,2.0,0.0
