x,y,z,nx,ny,nz,curvature,density,label
18.216899871826172,-9.514244079589844,1.187118411064148,-0.0,-0.0,-1.0,0.2238578784468042,1.0,2.0
17.802127838134766,-11.580511093139648,0.4952447414398193,-0.0,-0.0,-1.0,0.0944220745468625,1.0,1.0
18.268783569335938,-9.45430850982666,0.4055266380310058,-0.0,-0.0,-1.0,0.2135872813591733,1.0,1.0
18.587459564208984,-9.457935333251951,0.4477629661560058,-0.0,-0.0,-1.0,0.2188070443039803,2.0,1.0
19.077316284179688,-11.135153770446776,0.321750283241272,-0.0,-0.0,-1.0,0.152606047415794,2.0,1.0
19.35161590576172,-10.733383178710938,0.4023861885070801,-0.0,-0.0,-1.0,0.2474750110657541,1.0,1.0
19.20096206665039,-11.125544548034668,0.3366529941558838,-0.0,-0.0,-1.0,0.1679747322690952,1.0,1.0
19.27202033996582,-11.435431480407717,0.3046430349349975,-0.3584226684682434,0.3571573459541262,-0.8625380113126077,0.1234275200313518,4.0,1.0
19.704910278320312,-10.329164505004885,0.3452926874160766,-0.0,-0.0,-1.0,0.1125160270997512,2.0,1.0
19.710569381713867,-10.521612167358398,0.3202652931213379,-0.0,-0.0,-1.0,0.1698509704451672,2.0,1.0
19.922060012817383,-11.130904197692873,0.4132109880447387,0.3092710327553723,-0.9386192638777456,-0.1527917071572405,0.1042015236907353,6.0,1.0
19.78011703491211,-11.84409236907959,0.3011524677276611,-0.0,-0.0,-1.0,0.026284727750627,2.0,1.0
20.003753662109375,-9.370426177978516,0.3718273639678955,-0.0,-0.0,-1.0,0.1825335674902513,1.0,1.0
19.980432510375977,-9.756362915039062,0.3164321184158325,-0.0,-0.0,-1.0,0.1731358849530312,2.0,1.0
19.83160972595215,-10.1527738571167,0.2388966083526611,-0.0,-0.0,-1.0,0.0809981233716367,2.0,1.0
19.857688903808594,-10.58169174194336,0.1795216798782348,-0.0,-0.0,-1.0,0.1098406242104328,1.0,1.0
19.953311920166016,-11.139755249023438,0.4152407646179199,0.4445917964094346,-0.8828364679926535,-0.1514526505139095,0.0900444564175759,6.0,1.0
17.744041442871094,-11.020095825195312,0.9018985033035278,-0.0,-0.0,-1.0,0.0944719658656087,1.0,1.0
17.806434631347656,-11.152544021606444,0.896781325340271,0.7879178283263413,-0.5759285443935159,-0.2179261516162493,0.1311128175830369,3.0,1.0
17.910545349121094,-9.597599029541016,0.6749614477157593,-0.4011176215110713,-0.7724452714054496,0.4923748129186364,0.2557455323901377,4.0,1.0
17.914016723632812,-10.046667098999023,0.6407517194747925,-0.0,-0.0,-1.0,0.2498014470310174,1.0,1.0
18.061485290527344,-10.39318561553955,0.6268097162246704,-0.0,-0.0,-1.0,0.2001733014304698,1.0,1.0
18.07670783996582,-10.927654266357422,0.581253170967102,-0.0,-0.0,-1.0,0.2312599171596347,2.0,1.0
18.178815841674805,-11.143068313598633,0.5706361532211304,-0.0,-0.0,-1.0,0.2110802227843695,1.0,1.0
18.265117645263672,-11.734822273254396,0.8823593258857727,-0.0,-0.0,-1.0,0.14112338210372,1.0,1.0
18.26077651977539,-9.580085754394531,0.7125236988067627,-0.0,-0.0,-1.0,0.2079431479409188,1.0,1.0
18.555727005004883,-10.837236404418944,0.6337355375289917,-0.0,-0.0,-1.0,0.1171843576595003,1.0,1.0
18.65505599975586,-11.158689498901367,0.6117900609970093,-0.0,-0.0,-1.0,0.1829012418640791,1.0,1.0
18.89728546142578,-11.133552551269531,0.6352450847625732,-0.0,-0.0,-1.0,0.1917427936146333,1.0,1.0
19.052623748779297,-11.363914489746094,0.6251667737960815,0.589381708250925,-0.2262707072495584,-0.7755196767458618,0.2423456457030074,3.0,1.0
19.169050216674805,-11.837648391723633,0.5844757556915283,-0.0,-0.0,-1.0,0.2266809161027925,1.0,1.0
19.34803581237793,-10.044471740722656,0.780010461807251,-0.0,-0.0,-1.0,0.1982343662427662,2.0,1.0
19.242267608642575,-11.467376708984377,0.629895806312561,-0.0,-0.0,-1.0,0.2474506660518943,1.0,1.0
19.674386978149418,-9.866204261779783,0.5427720546722412,-0.0,-0.0,-1.0,0.2130441207213376,2.0,1.0
19.676822662353516,-10.194829940795898,0.5048282146453857,-0.0,-0.0,-1.0,0.1687027774918569,1.0,1.0
19.922861099243164,-9.380486488342283,0.6275002956390381,-0.0,-0.0,-1.0,0.16321087349457,1.0,1.0
19.8782901763916,-9.653146743774414,0.5917088985443115,-0.0,-0.0,-1.0,0.1986301490370959,1.0,1.0
19.808547973632812,-10.005765914916992,0.5427230596542358,-0.1109330441571752,0.6092007750751471,-0.7852186162858485,0.2145559989370407,6.0,1.0
18.016521453857425,-10.404834747314451,0.9612475633621216,-0.0,-0.0,-1.0,0.2630389283718542,2.0,1.0
18.31932830810547,-10.289928436279297,0.9893697500228882,-0.0,-0.0,-1.0,0.2323672105288193,2.0,1.0
18.73021697998047,-11.206329345703123,0.9504854679107666,-0.0,-0.0,-1.0,0.1489917190908021,2.0,1.0
18.843647003173828,-11.237932205200195,0.9548115730285645,-0.0,-0.0,-1.0,0.1658835330847256,2.0,1.0
19.1328125,-11.785041809082031,0.9274532794952391,-0.0,-0.0,-1.0,0.1850062409455596,1.0,1.0
18.069202423095703,-9.56082534790039,0.476781964302063,-0.0,-0.0,-1.0,0.1765125342168921,1.0,1.0
18.015811920166016,-10.020174026489258,0.4339230060577392,-0.0,-0.0,-1.0,0.1321085151882652,2.0,1.0
18.298524856567383,-9.569290161132812,0.5079693794250488,-0.0,-0.0,-1.0,0.1679149910068677,1.0,1.0
18.106521606445312,-9.94372272491455,0.4524931907653808,-0.6924520585751709,-0.6978527177112774,-0.1830620959073518,0.1048011598151637,4.0,1.0
18.46685791015625,-11.094185829162598,0.3937468528747558,-0.0,-0.0,-1.0,0.1209346785844269,1.0,1.0
18.522167205810547,-9.576221466064451,0.5386098623275757,-0.0,-0.0,-1.0,0.2101079238046009,1.0,1.0
18.568782806396484,-11.066539764404297,0.409268856048584,-0.0,-0.0,-1.0,0.1564513150674626,1.0,1.0
19.221696853637695,-10.862899780273438,0.5109798908233643,-0.0,-0.0,-1.0,0.2011968493161296,1.0,1.0
19.12410545349121,-11.276082992553713,0.4538241624832153,-0.0,-0.0,-1.0,0.1577585150629201,2.0,1.0
19.199405670166016,-11.545955657958984,0.4316980838775635,-0.0,-0.0,-1.0,0.1572896946892301,1.0,1.0
19.60807991027832,-10.410698890686035,0.3254609107971191,-0.0797324429127552,-0.1368490341809327,-0.9873778807482524,0.1276450207253189,3.0,1.0
19.496971130371097,-10.821828842163086,0.2563998699188232,-0.0,-0.0,-1.0,0.0945576451909912,1.0,1.0
19.584259033203125,-11.108237266540527,0.2311058044433593,-0.0,-0.0,-1.0,0.0357212362103889,2.0,1.0
19.991199493408203,-9.59101676940918,0.3544775247573852,-0.0,-0.0,-1.0,0.1957618675309922,1.0,1.0
19.905986785888672,-10.009051322937012,0.2880616188049316,0.135182268501162,0.9067038408995696,-0.3995170824643766,0.1138001381518679,3.0,1.0
19.721290588378903,-10.3035888671875,0.3562179803848266,0.1567404965951598,0.3013853653454956,-0.9405313808069692,0.1750607724593775,3.0,1.0
19.905353546142575,-11.26561164855957,0.2545298337936401,-0.0,-0.0,-1.0,0.241496691418577,1.0,1.0
20.157726287841797,-9.493688583374023,0.2696453332901001,-0.0,-0.0,-1.0,0.1680871952444496,2.0,1.0
17.982921600341797,-9.620936393737791,0.7758030891418457,-0.0,-0.0,-1.0,0.1932762638583873,2.0,1.0
17.921016693115234,-10.01449966430664,0.7446181774139404,-0.0,-0.0,-1.0,0.2173778494949703,2.0,1.0
17.948837280273438,-10.316582679748535,0.7271463871002197,-0.0,-0.0,-1.0,0.2169865305215852,2.0,1.0
17.940122604370117,-10.875142097473145,0.6851402521133423,-0.0,-0.0,-1.0,0.1953026120454967,1.0,1.0
17.965179443359375,-11.129454612731934,0.6677091121673584,-0.0,-0.0,-1.0,0.138846458670095,1.0,1.0
18.163593292236328,-9.688687324523926,0.7909492254257202,-0.0,-0.0,-1.0,0.2040831516979286,1.0,1.0
18.16332244873047,-10.454782485961914,0.7390896081924438,0.6252123040687019,-0.759837836773822,-0.1782022352496838,0.2588678450546141,4.0,1.0
18.38818359375,-11.147846221923828,0.7065026760101318,-0.0,-0.0,-1.0,0.2060340535642912,1.0,1.0
18.5990047454834,-9.55723476409912,0.550715446472168,-0.0,-0.0,-1.0,0.207772393781385,1.0,1.0
18.69355010986328,-10.702868461608888,0.7723523378372192,-0.0,-0.0,-1.0,0.1240191524101423,1.0,1.0
18.76926040649414,-11.168624877929688,0.7403378486633301,-0.0,-0.0,-1.0,0.1813469980295738,1.0,1.0
18.677507400512695,-11.554206848144531,0.6977683305740356,-0.0,-0.0,-1.0,0.1949599941791253,1.0,1.0
19.252300262451172,-9.654242515563965,0.6316983699798584,-0.0,-0.0,-1.0,0.0797651828295924,1.0,1.0
19.145233154296875,-10.889482498168944,0.6520637273788452,-0.8543150903102319,0.0604377476990245,-0.5162296050414864,0.1992329138933814,3.0,1.0
18.988683700561523,-11.343936920166016,0.7447497844696045,-0.2990916084740044,0.2727925060501309,-0.9144006006031068,0.164742571389796,6.0,1.0
19.08433532714844,-11.510770797729492,0.7378330230712891,-0.0,-0.0,-1.0,0.1656585454442949,1.0,1.0
19.477283477783203,-9.575929641723633,0.6686744689941406,-0.0,-0.0,-1.0,0.1196983209983652,2.0,1.0
19.511449813842773,-9.983949661254885,0.6360833644866943,0.5076953427180513,-0.8590474956252249,0.0654434048810844,0.2301256152441435,3.0,1.0
19.5414981842041,-10.342933654785156,0.6047779321670532,-0.0,-0.0,-1.0,0.1636011911198905,1.0,1.0
19.680601119995117,-10.64492416381836,0.5901625156402588,-0.0,-0.0,-1.0,0.19826626692981,2.0,1.0
20.01587677001953,-9.479504585266112,0.4980552196502685,0.3947593809891956,-0.8936713303931809,-0.2133461608614258,0.268303956700192,3.0,1.0
19.88465690612793,-10.286489486694336,0.653308629989624,-0.0,-0.0,-1.0,0.1424727755535028,1.0,1.0
19.908296585083008,-11.19503116607666,0.5537753105163574,-0.0,-0.0,-1.0,0.1956034005370495,2.0,1.0
20.12433624267578,-11.789098739624023,0.7958762645721436,-0.0,-0.0,-1.0,0.1545684000071127,1.0,1.0
17.758651733398438,-9.901273727416992,1.058879256248474,-0.0,-0.0,-1.0,0.0973439729204782,1.0,2.0
17.899444580078125,-10.435401916503906,1.2044661045074463,-0.0,-0.0,-1.0,0.1768398246650739,1.0,2.0
17.8143310546875,-11.19801139831543,0.9911607503890992,0.9357336297500772,-0.3473052820744463,-0.0614948387910299,0.1229026924463084,6.0,1.0
18.462663650512695,-11.727005004882812,0.9975532293319702,-0.0,-0.0,-1.0,0.1358991235476686,2.0,1.0
18.708559036254883,-11.2052001953125,1.0487080812454224,-0.3478533120348082,-0.0366130903710324,-0.9368337925800376,0.1773523787491463,3.0,2.0
17.82396697998047,-9.949138641357422,0.4201297760009765,-0.0,-0.0,-1.0,0.1943818605352941,1.0,1.0
18.240060806274418,-11.173711776733398,0.3909848928451538,-0.0,-0.0,-1.0,0.223137238809049,1.0,1.0
18.394716262817383,-11.130091667175291,0.4170284271240234,-0.0,-0.0,-1.0,0.1486878087284124,2.0,1.0
19.61530113220215,-10.003575325012209,0.4369666576385498,-0.0,-0.0,-1.0,0.218164430977208,2.0,1.0
19.58184051513672,-10.319758415222168,0.4008207321166992,-0.0,-0.0,-1.0,0.2023026389659306,2.0,1.0
19.41370391845703,-10.66603946685791,0.3355405330657959,-0.0,-0.0,-1.0,0.1577814976886255,1.0,1.0
19.32681655883789,-11.124728202819824,0.2695764303207397,-0.0,-0.0,-1.0,0.1167134164605776,1.0,1.0
19.99839210510254,-9.531176567077637,0.3120328187942505,-0.0,-0.0,-1.0,0.2552961673238716,1.0,1.0
19.86297607421875,-9.957527160644531,0.2396978139877319,-0.0,-0.0,-1.0,0.0956894268794563,1.0,1.0
19.854766845703125,-10.224776268005373,0.2081919908523559,-0.0,-0.0,-1.0,0.1335928523151922,1.0,1.0
19.627212524414062,-11.275114059448242,0.3021613359451294,-0.0,-0.0,-1.0,0.0609199023884618,2.0,1.0
19.630062103271484,-11.567676544189451,0.2656022310256958,-0.0,-0.0,-1.0,0.0269755656711459,1.0,1.0
20.08917808532715,-11.672243118286133,0.3243461847305298,-0.2335221293549636,-0.8115881987289201,-0.5355296544407887,0.1046305902547918,3.0,1.0
18.082910537719727,-9.548053741455078,0.6323095560073853,-0.0,-0.0,-1.0,0.1806219202065439,1.0,1.0
18.025550842285156,-10.162574768066406,0.7411781549453735,-0.0,-0.0,-1.0,0.1211830561661397,2.0,1.0
17.89398956298828,-10.329349517822266,0.7162121534347534,0.9127009505850774,0.17106748709468,-0.3710968736869232,0.257619603782366,4.0,1.0
18.27398109436035,-9.64250946044922,0.507969856262207,-0.0,-0.0,-1.0,0.198076816149919,1.0,1.0
18.09451484680176,-10.5017671585083,0.729778528213501,-0.0,-0.0,-1.0,0.2052319416988891,2.0,1.0
18.101463317871097,-10.83925724029541,0.7092534303665161,-0.0,-0.0,-1.0,0.2575466219552231,1.0,1.0
18.085039138793945,-11.126428604125977,0.6878658533096313,-0.0,-0.0,-1.0,0.216120504901593,1.0,1.0
18.560075759887695,-10.920434951782228,0.7556523084640503,-0.0,-0.0,-1.0,0.1241195224306632,1.0,1.0
18.48708724975586,-11.217227935791016,0.7261897325515747,-0.0,-0.0,-1.0,0.1623280000950316,1.0,1.0
18.498659133911133,-11.743900299072266,0.6861855983734131,-0.0,-0.0,-1.0,0.2100423985362014,2.0,1.0
19.41908073425293,-9.422063827514648,0.698723554611206,-0.0,-0.0,-1.0,0.1002098513673732,2.0,1.0
19.23346710205078,-9.760174751281738,0.6486270427703857,-0.0,-0.0,-1.0,0.1556871571343192,2.0,1.0
18.881799697875977,-10.762521743774414,0.5192235708236694,-0.0,-0.0,-1.0,0.1965962781971066,1.0,1.0
19.036685943603516,-10.961689949035645,0.523687481880188,-0.0,-0.0,-1.0,0.2342388893507161,2.0,1.0
18.930278778076172,-11.325093269348145,0.6214745044708252,-0.0,-0.0,-1.0,0.2474268221237568,2.0,1.0
18.647804260253903,-11.707361221313477,0.7051581144332886,-0.0,-0.0,-1.0,0.2416352616285046,1.0,1.0
19.613126754760746,-9.419881820678713,0.6077415943145752,-0.5810981257840487,0.6246601761801623,-0.5216556646915995,0.1505016051932165,4.0,1.0
19.559720993041992,-9.95427703857422,0.5597214698791504,0.8156110743469602,0.2712750664645561,0.5110659582844937,0.2131560335566285,3.0,1.0
19.587785720825195,-10.20019817352295,0.5435153245925903,-0.0,-0.0,-1.0,0.3012840705744319,2.0,1.0
19.537256240844727,-10.699966430664062,0.6186008453369141,-0.8719609565397111,0.0451346909866246,-0.4874904613834961,0.179480122379536,4.0,1.0
19.10293197631836,-11.45881175994873,0.629449725151062,-0.0,-0.0,-1.0,0.227814243943075,2.0,1.0
19.897714614868164,-9.577997207641602,0.6452174186706543,0.1514747512203826,-0.8710046830217557,0.4673395359873742,0.2246502367901598,4.0,1.0
19.816560745239254,-9.847328186035156,0.4876548051834106,-0.0,-0.0,-1.0,0.2384943612085464,2.0,1.0
19.69863510131836,-10.340341567993164,0.6736235618591309,-0.0,-0.0,-1.0,0.1272161817298673,1.0,1.0
19.86817169189453,-11.21189785003662,0.6139031648635864,-0.0,-0.0,-1.0,0.1956034005370495,2.0,1.0
17.908979415893555,-9.521491050720217,1.056436538696289,-0.0,-0.0,-1.0,0.0852783667557534,1.0,2.0
18.0205020904541,-9.855341911315918,1.0541739463806152,-0.0,-0.0,-1.0,0.1448077340704917,1.0,2.0
17.978961944580078,-10.500139236450195,1.0230920314788818,-0.0,-0.0,-1.0,0.2599241381747534,2.0,2.0
18.244813919067383,-10.352705001831056,1.0523552894592283,-0.0,-0.0,-1.0,0.1367244823105079,2.0,2.0
18.37211227416992,-11.820215225219728,0.9816049337387084,0.3346724086353165,0.9149152509731724,-0.2256644908596235,0.1672397469279401,3.0,1.0
18.80402946472168,-11.216363906860352,1.052215814590454,-0.0,-0.0,-1.0,0.1869202809604939,2.0,2.0
18.12537384033203,-9.879584312438965,0.3941582441329956,-0.0,-0.0,-1.0,0.1564712911316517,2.0,1.0
18.111492156982425,-10.008484840393066,0.383283257484436,-0.0,-0.0,-1.0,0.1355500624500246,1.0,1.0
17.855953216552734,-10.659104347229004,0.5879553556442261,-0.0,-0.0,-1.0,0.1583657393358771,1.0,1.0
17.856481552124023,-10.913911819458008,0.5687301158905029,-0.0,-0.0,-1.0,0.1886580005880423,1.0,1.0
17.91240119934082,-11.127138137817385,0.5593761205673218,-0.0,-0.0,-1.0,0.1687338067969441,1.0,1.0
18.31790351867676,-10.995610237121582,0.3381487131118774,-0.0,-0.0,-1.0,0.1399124307071081,2.0,1.0
18.826412200927734,-11.177544593811035,0.4041882753372192,-0.0,-0.0,-1.0,0.1945037042004258,1.0,1.0
19.594907760620117,-9.77293586730957,0.427192211151123,-0.0,-0.0,-1.0,0.2353284981017974,1.0,1.0
19.351417541503903,-10.661142349243164,0.2925945520401001,0.6106423900003736,0.7917391845350998,-0.0162768303525951,0.1264293979110951,3.0,1.0
19.24867057800293,-10.897130966186523,0.3752840757369995,-0.0,-0.0,-1.0,0.2396619024135505,1.0,1.0
19.08576011657715,-11.257283210754396,0.4374996423721313,-0.0,-0.0,-1.0,0.169635225863461,2.0,1.0
18.991535186767575,-11.765079498291016,0.3636362552642822,-0.2139947605916499,-0.2849436761081709,-0.9343518308888168,0.1972804647635254,4.0,1.0
19.87543487548828,-9.619051933288574,0.4981707334518432,-0.5316469182783863,-0.694766222923619,0.4844083502268958,0.2288120440858945,4.0,1.0
19.791061401367188,-9.878443717956545,0.4594048261642456,-0.7809078614790486,0.6244114768078467,0.0171236535489068,0.2095739204929498,3.0,1.0
19.636234283447266,-10.233993530273438,0.394654631614685,-0.3655104057195299,-0.0091082482072544,-0.9307626889413542,0.2104521533717612,3.0,1.0
19.529621124267575,-10.581040382385254,0.3370003700256347,-0.0,-0.0,-1.0,0.1587052374816285,1.0,1.0
19.342540740966797,-11.043704986572266,0.2462959289550781,-0.0,-0.0,-1.0,0.0939037361915107,1.0,1.0
19.367055892944336,-11.312692642211914,0.34917151927948,-0.0,-0.0,-1.0,0.1652960917243629,1.0,1.0
19.661821365356445,-11.490764617919922,0.2484408617019653,-0.0,-0.0,-1.0,0.0294605037579122,1.0,1.0
20.130455017089844,-11.672965049743652,0.3074411153793335,-0.2335221293549636,-0.8115881987289201,-0.5355296544407887,0.1046305902547918,3.0,1.0
17.91141128540039,-9.538501739501951,0.8037182092666626,-0.0,-0.0,-1.0,0.2606938376663044,1.0,1.0
17.777008056640625,-10.016357421875,0.6183230876922607,-0.0,-0.0,-1.0,0.1522088737416946,1.0,1.0
18.111177444458008,-9.793879508972168,0.8180375099182129,0.037360382904022,-0.4984308901268904,-0.8661240382050256,0.244286806437759,3.0,1.0
18.05904006958008,-10.125924110412598,0.7922683954238892,0.4077706200989818,0.864943610083204,-0.2925673815727348,0.1365835493512429,3.0,1.0
18.022905349731445,-10.445344924926758,0.7690497636795044,0.1108857170897573,0.9819078453655063,-0.153497038913326,0.1877161943088876,3.0,1.0
17.741485595703125,-11.162662506103516,0.8379775285720825,0.6238510814764944,0.3154831027729029,0.7150386283309387,0.1077458585000422,3.0,1.0
18.219173431396484,-10.99126434326172,0.611495852470398,-0.0,-0.0,-1.0,0.1918296852865287,2.0,1.0
19.24863052368164,-9.761218070983888,0.5995117425918579,-0.0,-0.0,-1.0,0.1453682914244559,2.0,1.0
18.726316452026367,-10.873165130615234,0.6891082525253296,-0.0,-0.0,-1.0,0.1015221731509355,2.0,1.0
18.70762634277344,-11.119084358215332,0.6655179262161255,-0.875791442229957,0.4823552534479174,-0.0179654999364693,0.2089731777522297,3.0,1.0
19.705398559570312,-9.370733261108398,0.5949850082397461,-0.0,-0.0,-1.0,0.0765793436773485,2.0,1.0
19.437435150146484,-9.83372688293457,0.6275447607040405,0.7566975239285798,0.4049473690034004,-0.5132508992857008,0.2301236476804402,4.0,1.0
19.500741958618164,-10.126062393188477,0.6159564256668091,-0.0,-0.0,-1.0,0.2160794153267114,2.0,1.0
19.43401527404785,-10.456293106079102,0.5761173963546753,-0.0,-0.0,-1.0,0.1932150071996242,1.0,1.0
19.189022064208984,-10.855158805847168,0.6273807287216187,-0.0,-0.0,-1.0,0.1850438653604606,1.0,1.0
18.96686553955078,-11.29597282409668,0.6829341650009155,-0.0,-0.0,-1.0,0.2646142078770281,2.0,1.0
18.880096435546875,-11.617250442504885,0.640466570854187,-0.0,-0.0,-1.0,0.1667191112732959,1.0,1.0
19.934337615966797,-9.56865692138672,0.6249760389328003,0.8309960024915203,-0.4126071790668777,0.3730964481546117,0.1749447157137478,4.0,1.0
20.02070045471191,-9.787304878234863,0.5152159929275513,-0.0,-0.0,-1.0,0.2121144905867953,2.0,1.0
19.671932220458984,-10.389958381652832,0.622475266456604,-0.0,-0.0,-1.0,0.1640637363312165,1.0,1.0
19.52494430541992,-10.601798057556152,0.5776523351669312,-0.0,-0.0,-1.0,0.2138646499111823,1.0,1.0
19.89687728881836,-11.200155258178713,0.5736018419265747,0.4565929671335484,-0.8890557919848946,0.0332063412964257,0.1956034005370495,3.0,1.0
20.121646881103516,-11.844921112060549,0.7659783363342285,-0.0,-0.0,-1.0,0.1836800394505445,1.0,1.0
17.94226837158203,-9.608463287353516,1.2276825904846191,-0.0,-0.0,-1.0,0.2027457926072065,2.0,2.0
18.2857666015625,-9.411853790283203,0.992146372795105,-0.0,-0.0,-1.0,0.1265982599728349,2.0,1.0
18.22614288330078,-9.587770462036133,1.249281406402588,-0.4551888515904407,0.0026662435366639,-0.8903909256799389,0.2686694203688604,3.0,2.0
18.152246475219727,-10.494309425354004,1.204275369644165,-0.0,-0.0,-1.0,0.0970468875524535,1.0,2.0
17.77528190612793,-11.12685203552246,1.1442313194274902,-0.0,-0.0,-1.0,0.1222322438893912,1.0,2.0
17.857019424438477,-10.40917682647705,1.4760926961898804,0.6029882100240856,0.5282586337782023,-0.5977859436376336,0.0814113908537676,4.0,2.0
17.883399963378906,-10.430195808410645,1.4762399196624756,0.6143560462222428,0.7722022785656915,0.1620811199619742,0.0725586858355871,3.0,2.0
18.216461181640625,-10.754182815551758,0.2889182567596435,-0.0,-0.0,-1.0,0.0902547452351189,1.0,1.0
18.44995880126953,-10.872492790222168,0.3308334350585937,-0.0,-0.0,-1.0,0.111579704663563,1.0,1.0
19.42583274841309,-9.704458236694336,0.3583846092224121,-0.0,-0.0,-1.0,0.1632261222067972,1.0,1.0
19.476821899414062,-10.288066864013672,0.3499908447265625,-0.0,-0.0,-1.0,0.0970696245392036,1.0,1.0
19.331777572631836,-10.580613136291504,0.2990601062774658,-0.0,-0.0,-1.0,0.1069802747984218,1.0,1.0
19.2446231842041,-10.772275924682615,0.2660616636276245,-0.0,-0.0,-1.0,0.0819959815434152,1.0,1.0
19.42092514038086,-10.58340072631836,0.3202837705612182,-0.0,-0.0,-1.0,0.1311335920015012,2.0,1.0
19.259164810180664,-10.93151569366455,0.2583625316619873,-0.0,-0.0,-1.0,0.0857975938317963,1.0,1.0
19.318771362304688,-11.215709686279297,0.2502672672271728,-0.0,-0.0,-1.0,0.0604115361201414,1.0,1.0
18.924924850463867,-11.803753852844238,0.3603271245956421,0.3203461341408614,0.2624657520541956,-0.9102143062705784,0.131926282673344,3.0,1.0
19.68756103515625,-11.272308349609377,0.3318521976470947,-0.0,-0.0,-1.0,0.1232580864404799,1.0,1.0
19.442962646484375,-11.575555801391602,0.2461013793945312,-0.0,-0.0,-1.0,0.0641046540661476,1.0,1.0
19.495569229125977,-11.781177520751951,0.2370340824127197,-0.0,-0.0,-1.0,0.0739060802092581,1.0,1.0
17.71664047241211,-9.737443923950195,0.6360076665878296,-0.0,-0.0,-1.0,0.1939846143225738,1.0,1.0
18.391626358032227,-9.550196647644045,0.6183363199234009,-0.0,-0.0,-1.0,0.2153369230084528,1.0,1.0
18.04865264892578,-9.869842529296877,0.5537365674972534,-0.0,-0.0,-1.0,0.2178715401208107,1.0,1.0
17.843469619750977,-10.33902072906494,0.6441572904586792,-0.0,-0.0,-1.0,0.2517225675899943,2.0,1.0
17.858627319335938,-10.503667831420898,0.6398316621780396,-0.0,-0.0,-1.0,0.241291544755363,1.0,1.0
18.1538028717041,-10.480751991271973,0.5548697710037231,-0.0,-0.0,-1.0,0.2179938658221253,2.0,1.0
18.079559326171875,-10.873061180114746,0.5261353254318237,-0.0,-0.0,-1.0,0.1866294425315836,1.0,1.0
17.990737915039062,-11.097759246826172,0.636780858039856,-0.0,-0.0,-1.0,0.1409042746220518,1.0,1.0
19.302736282348633,-9.598217010498049,0.5548732280731201,-0.0,-0.0,-1.0,0.1897135054347516,1.0,1.0
19.13214683532715,-9.870049476623535,0.7421501874923706,-0.0,-0.0,-1.0,0.1544591350783335,1.0,1.0
18.6219425201416,-10.733201026916504,0.6251732110977173,-0.493323174138821,0.8244600779129636,-0.2773045722402505,0.121344994964553,3.0,1.0
18.41488265991211,-11.321528434753418,0.560227632522583,-0.0,-0.0,-1.0,0.1990082587332413,1.0,1.0
18.209646224975582,-11.725959777832031,0.7733660936355591,-0.0,-0.0,-1.0,0.1604155095872944,1.0,1.0
19.68404006958008,-9.378171920776367,0.5330348014831543,-0.0,-0.0,-1.0,0.0728287785735727,1.0,1.0
19.61005401611328,-9.742505073547363,0.5110111236572266,-0.0,-0.0,-1.0,0.2200431562246601,1.0,1.0
19.54169464111328,-10.08531093597412,0.4844307899475097,-0.2916927624044455,0.6631941554076907,-0.6892668892337303,0.2040272398592666,3.0,1.0
19.363746643066406,-10.419285774230955,0.5421420335769653,-0.0,-0.0,-1.0,0.2630666056190659,2.0,1.0
19.050247192382812,-10.904376029968262,0.5708092451095581,-0.0,-0.0,-1.0,0.2598339265340381,1.0,1.0
18.890270233154297,-11.15180492401123,0.5265707969665527,-0.0,-0.0,-1.0,0.1792360952791272,1.0,1.0
18.654956817626953,-11.585257530212402,0.583611011505127,-0.0,-0.0,-1.0,0.2063733595772227,2.0,1.0
19.98774528503418,-9.496747970581056,0.5992937088012695,0.4442528167366073,-0.8857013674099529,-0.1348054991079005,0.1659529830066217,3.0,1.0
19.79376983642578,-9.79099178314209,0.4467642307281494,-0.0,-0.0,-1.0,0.1695029957077183,1.0,1.0
19.614511489868164,-10.176712036132812,0.3885296583175659,-0.7740760971559421,-0.5669889623240087,0.2816553078047139,0.165959416721779,3.0,1.0
19.53252410888672,-10.47542667388916,0.4642935991287231,-0.0,-0.0,-1.0,0.2112912139297301,1.0,1.0
19.29473114013672,-10.80644989013672,0.5076675415039062,-0.3542467869829399,0.1979943681824378,-0.9139515545587198,0.1859408029978673,3.0,1.0
19.089109420776367,-11.322409629821776,0.5528637170791626,0.088998788667167,-0.825995805839705,-0.5566059147646507,0.2443738228508003,5.0,1.0
19.021831512451172,-11.575027465820312,0.5224125385284424,-0.0,-0.0,-1.0,0.1737663509568877,1.0,1.0
19.8815975189209,-11.17867374420166,0.4936810731887817,0.2594220732881691,-0.4937305628953837,-0.8300182643495716,0.1807515559245602,3.0,1.0
17.857147216796875,-9.541451454162598,0.7957363128662109,-0.0,-0.0,-1.0,0.222049944752846,2.0,1.0
18.23984718322754,-9.479500770568848,0.84940105676651,0.5884409005031529,0.4275315224730773,-0.686260959043199,0.1306679161470552,3.0,1.0
18.016788482666016,-10.343667984008787,0.8031892776489258,0.36737022150046,-0.5901389833144604,-0.7188707121084272,0.2567090631157723,3.0,1.0
17.90968894958496,-10.497859954833984,0.9202109575271606,-0.0,-0.0,-1.0,0.233903352173745,1.0,1.0
18.195384979248047,-10.485164642333984,0.9537090063095092,-0.0,-0.0,-1.0,0.1790557942062523,1.0,1.0
17.801137924194336,-11.22935390472412,1.021709680557251,0.726568498078717,0.2977240320454101,0.6192403558734372,0.1247437305102135,3.0,2.0
18.497142791748047,-10.750874519348145,0.8561564683914185,-0.0,-0.0,-1.0,0.1233148802378268,1.0,1.0
19.31507110595703,-9.957693099975586,0.7715905904769897,0.2973917290225711,0.7834883144767727,-0.5456227823206354,0.1780706627126524,4.0,1.0
18.86651611328125,-11.354292869567873,0.8792216777801514,-0.0,-0.0,-1.0,0.2446408712266832,2.0,1.0
18.75360107421875,-11.491642951965332,0.8572084307670593,-0.0,-0.0,-1.0,0.147406007751125,1.0,1.0
20.044771194458008,-11.804622650146484,0.7910445928573608,-0.0,-0.0,-1.0,0.1836800394505446,1.0,1.0
17.865467071533203,-9.626602172851562,0.5261223316192627,-0.0,-0.0,-1.0,0.1931066838200569,1.0,1.0
17.753509521484375,-10.088112831115724,0.5009087324142456,-0.0,-0.0,-1.0,0.1725231527157671,1.0,1.0
18.551626205444336,-9.457289695739746,0.4222770929336548,-0.0,-0.0,-1.0,0.1756384806688968,2.0,1.0
18.18033790588379,-10.454506874084473,0.3298349380493164,-0.0,-0.0,-1.0,0.1524094152027172,1.0,1.0
17.969913482666016,-10.574461936950684,0.4062925577163696,-0.0,-0.0,-1.0,0.1522009970195068,1.0,1.0
18.272241592407227,-10.765939712524414,0.3397960662841797,-0.0,-0.0,-1.0,0.1097859380355104,1.0,1.0
17.912094116210938,-11.151354789733888,0.4960776567459106,-0.0,-0.0,-1.0,0.1744344286605075,1.0,1.0
18.639453887939453,-11.02588939666748,0.4110115766525268,-0.0,-0.0,-1.0,0.1728245404144165,1.0,1.0
18.79351043701172,-11.092819213867188,0.4422683715820312,-0.0,-0.0,-1.0,0.2523238609375738,1.0,1.0
18.83039665222168,-11.702165603637695,0.4079508781433105,-0.0,-0.0,-1.0,0.139778829337659,2.0,1.0
18.717788696289062,-11.827497482299805,0.3723641633987427,-0.0,-0.0,-1.0,0.084108739579043,1.0,1.0
18.887405395507812,-11.707740783691406,0.4200267791748047,-0.0,-0.0,-1.0,0.1515488870516551,2.0,1.0
17.997325897216797,-9.647567749023438,0.676459550857544,-0.0,-0.0,-1.0,0.1995637055469846,1.0,1.0
18.50924491882324,-9.50015354156494,0.6480792760848999,-0.7715251865138498,0.4055985830506889,-0.4901414856977963,0.1839723046744572,3.0,1.0
18.147518157958984,-9.909839630126951,0.5785880088806152,-0.0,-0.0,-1.0,0.1813298525008043,1.0,1.0
18.084043502807617,-10.33515167236328,0.6811987161636353,-0.0,-0.0,-1.0,0.2458934711809239,1.0,1.0
17.946760177612305,-10.5527982711792,0.6525453329086304,-0.0,-0.0,-1.0,0.2651124838351812,2.0,1.0
19.099365234375,-9.38477897644043,0.5442241430282593,-0.0,-0.0,-1.0,0.0389422350253036,1.0,1.0
18.23128890991211,-10.474006652832031,0.8238822221755981,-0.0,-0.0,-1.0,0.1256415572813158,2.0,1.0
18.327621459960938,-11.013616561889648,0.5819340944290161,-0.0,-0.0,-1.0,0.1022176849174574,1.0,1.0
18.061779022216797,-11.029677391052246,0.6535731554031372,-0.0,-0.0,-1.0,0.2045144990561648,1.0,1.0
19.443546295166016,-9.701578140258787,0.6256835460662842,-0.0,-0.0,-1.0,0.2170930662614245,1.0,1.0
19.329116821289062,-9.969106674194336,0.7034577131271362,-0.4883057225452923,-0.6467853037650613,-0.5858551801964864,0.2133863416506156,6.0,1.0
18.642269134521484,-10.711047172546388,0.6548783779144287,-0.493323174138821,0.8244600779129636,-0.2773045722402505,0.121344994964553,3.0,1.0
18.6951847076416,-10.978297233581545,0.6536016464233398,-0.0,-0.0,-1.0,0.2235596826045004,2.0,1.0
18.457679748535156,-11.338590621948242,0.7063262462615967,-0.0,-0.0,-1.0,0.1139149350549217,1.0,1.0
18.252914428710938,-11.659750938415527,0.7740377187728882,-0.0,-0.0,-1.0,0.2556337042064359,1.0,1.0
19.886064529418945,-9.555724143981934,0.7238991260528564,0.7053411379158249,-0.5100561290960918,-0.4922769792861738,0.2854179820912114,3.0,1.0
19.590105056762695,-9.795537948608398,0.6595423221588135,0.7669948501783669,0.6416490259762384,0.0023296488166605,0.1856910643179833,4.0,1.0
19.477149963378903,-10.150879859924316,0.631844162940979,-0.0,-0.0,-1.0,0.2023579586891925,2.0,1.0
19.34709930419922,-10.471567153930664,0.5949622392654419,-0.0,-0.0,-1.0,0.1792116370364834,2.0,1.0
19.046802520751953,-10.852738380432127,0.619976282119751,-0.0,-0.0,-1.0,0.2652807499647489,1.0,1.0
19.034446716308594,-11.209110260009766,0.5984200239181519,0.4816438115873535,-0.8311174968270157,-0.2779621291248169,0.2146311389441899,3.0,1.0
18.780353546142575,-11.589115142822266,0.6337624788284302,-0.0,-0.0,-1.0,0.2150996837284738,2.0,1.0
18.479671478271484,-11.819594383239746,0.6797834634780884,-0.0,-0.0,-1.0,0.142364345099305,2.0,1.0
19.612709045410156,-10.641704559326172,0.6499814987182617,-0.0,-0.0,-1.0,0.2464440433889894,1.0,1.0
19.232120513916016,-11.140311241149902,0.5385756492614746,-0.0,-0.0,-1.0,0.2246470371547463,2.0,1.0
19.11176300048828,-11.399261474609377,0.6014392375946045,-0.0,-0.0,-1.0,0.2230393858439546,2.0,1.0
20.09893035888672,-11.814082145690918,0.6763399839401245,-0.0,-0.0,-1.0,0.155392856012112,1.0,1.0
18.265850067138672,-9.385936737060549,1.1989244222640991,-0.0,-0.0,-1.0,0.1354413410146616,1.0,2.0
18.04824447631836,-9.701897621154783,1.174663782119751,-0.0,-0.0,-1.0,0.2208618472726574,1.0,2.0
18.16638565063477,-10.385051727294922,1.0556695461273191,0.3653822147743022,-0.6849771831713605,-0.6303190427563283,0.1608297936747058,3.0,2.0
17.95802879333496,-10.397048950195312,1.030348777770996,-0.1016137069518617,-0.8444521827755165,0.5259041410420411,0.2525547587110703,5.0,2.0
17.712987899780273,-11.02847957611084,1.1087744235992432,0.5357616437234102,0.8384218967674727,0.1000409123090303,0.0976312512608928,3.0,2.0
18.67248916625977,-11.251774787902832,1.085391402244568,-0.0,-0.0,-1.0,0.1846254024317043,1.0,2.0
18.8727970123291,-11.311932563781738,0.9986027479171752,-0.0,-0.0,-1.0,0.1424142089219788,1.0,1.0
19.18127822875977,-11.813952445983888,0.9039510488510132,-0.0,-0.0,-1.0,0.133561209695243,2.0,1.0
18.43559455871582,-9.365752220153809,0.4168634414672851,-0.0,-0.0,-1.0,0.1284698154351248,1.0,1.0
17.967594146728516,-10.116495132446287,0.335188627243042,-0.0,-0.0,-1.0,0.1611632611165297,1.0,1.0
18.13685607910156,-10.406974792480469,0.3782753944396972,-0.0,-0.0,-1.0,0.1718994082422964,1.0,1.0
17.928627014160156,-10.461770057678224,0.3299086093902588,-0.0,-0.0,-1.0,0.1578856774239957,1.0,1.0
18.226207733154297,-10.90816593170166,0.3976999521255493,-0.0,-0.0,-1.0,0.1300751522188008,1.0,1.0
18.40733337402344,-11.084404945373535,0.4373784065246582,-0.0,-0.0,-1.0,0.1587446857750124,1.0,1.0
17.912878036499023,-9.619895935058594,0.6754779815673828,-0.2265730679510483,-0.0462421912595673,-0.972895834417418,0.201785000391929,3.0,1.0
18.419574737548828,-9.523286819458008,0.7641867399215698,-0.0,-0.0,-1.0,0.1038069267360335,1.0,1.0
18.207164764404297,-9.603034973144531,0.8436425924301147,-0.0,-0.0,-1.0,0.1641373798064459,1.0,1.0
17.83751678466797,-10.057825088500977,0.5491189956665039,-0.0,-0.0,-1.0,0.2139775756450121,2.0,1.0
19.204776763916016,-9.530146598815918,0.5981370210647583,-0.0,-0.0,-1.0,0.0598954866693748,1.0,1.0
18.092836380004883,-10.37288761138916,0.717475414276123,-0.0,-0.0,-1.0,0.198791359646206,2.0,1.0
17.96152114868164,-10.541449546813965,0.6927706003189087,-0.0,-0.0,-1.0,0.2365119520922489,2.0,1.0
17.77407455444336,-11.057598114013672,0.7739056348800659,-0.0,-0.0,-1.0,0.1951476999444922,2.0,1.0
19.54920959472656,-9.403940200805664,0.6669493913650513,-0.0,-0.0,-1.0,0.1166071312724119,2.0,1.0
19.4132080078125,-9.861255645751951,0.7566242218017578,0.8041450324090316,0.0871764361607533,-0.5880059828183615,0.2162657518211062,4.0,1.0
19.148197174072266,-10.167963981628418,0.7102679014205933,-0.0,-0.0,-1.0,0.1727660327836382,1.0,1.0
18.904373168945312,-10.327390670776367,0.5570696592330933,-0.0,-0.0,-1.0,0.1511090892703249,1.0,1.0
18.65071678161621,-10.688397407531738,0.7127878665924072,-0.0,-0.0,-1.0,0.1213449949645531,1.0,1.0
18.182884216308594,-10.955389976501465,0.7296559810638428,-0.0,-0.0,-1.0,0.2138896002527003,2.0,1.0
17.932769775390625,-11.022361755371094,0.5651823282241821,-0.0,-0.0,-1.0,0.2386005831631098,1.0,1.0
19.899234771728516,-9.567305564880373,0.7547693252563477,-0.0,-0.0,-1.0,0.2053786473315259,2.0,1.0
19.48429298400879,-10.048428535461426,0.6844222545623779,-0.0,-0.0,-1.0,0.2087623063495635,1.0,1.0
19.289655685424805,-10.254413604736328,0.6451452970504761,-0.0,-0.0,-1.0,0.1482191697048141,1.0,1.0
18.970468521118164,-10.759790420532228,0.5745609998703003,-0.0,-0.0,-1.0,0.2140387844249406,2.0,1.0
18.76179313659668,-10.9921875,0.6276670694351196,-0.0,-0.0,-1.0,0.2311382438609746,2.0,1.0
18.386381149291992,-11.108424186706545,0.654003381729126,-0.0,-0.0,-1.0,0.2501934922585034,1.0,1.0
19.48881149291992,-10.566561698913574,0.6963762044906616,-0.0,-0.0,-1.0,0.099542054744266,1.0,1.0
19.102275848388672,-10.949109077453612,0.6040102243423462,-0.0,-0.0,-1.0,0.243076255278767,2.0,1.0
19.01610565185547,-11.258549690246582,0.6770106554031372,-0.3949539479324763,-0.7593525340896481,0.5171026087578557,0.2089778708428179,3.0,1.0
18.82442855834961,-11.59253215789795,0.621691107749939,-0.0,-0.0,-1.0,0.2192524795472814,2.0,1.0
18.576135635375977,-11.806682586669922,0.5598207712173462,-0.0,-0.0,-1.0,0.1608580882020095,1.0,1.0
19.068439483642575,-11.488408088684082,0.5811604261398315,0.7912579701600188,0.0845685888205444,0.6056062899633295,0.1363239525221706,3.0,1.0
19.096641540527344,-11.74880599975586,0.6713305711746216,-0.0,-0.0,-1.0,0.186152122697157,1.0,1.0
18.204479217529297,-9.46567153930664,1.0709242820739746,-0.0,-0.0,-1.0,0.1576440338177882,1.0,2.0
17.90477752685547,-9.589856147766112,1.2740983963012695,-0.0,-0.0,-1.0,0.1157297403544728,1.0,2.0
18.069026947021484,-9.820171356201172,1.1744729280471802,-0.0,-0.0,-1.0,0.1562414991390825,2.0,2.0
17.92508316040039,-10.37678337097168,1.0410869121551514,0.6425532816942199,0.4733889323766485,0.6025182145688914,0.2188219023041347,5.0,2.0
18.08081817626953,-10.42886447906494,1.060516595840454,-0.0,-0.0,-1.0,0.1786897564820174,2.0,2.0
18.695785522460938,-10.665731430053713,0.9304670691490172,-0.0,-0.0,-1.0,0.1698098501157651,1.0,1.0
17.823291778564453,-11.16585636138916,1.0160695314407349,0.9404367458218114,-0.1855648687836953,0.284858572946948,0.1221537599399421,6.0,2.0
18.764060974121097,-11.157764434814451,0.9336932897567748,-0.0,-0.0,-1.0,0.1110082720930585,1.0,1.0
18.31995964050293,-11.218363761901855,0.8594470024108887,-0.0,-0.0,-1.0,0.1228861976831748,2.0,1.0
18.848384857177734,-11.28588581085205,1.044582724571228,-0.0,-0.0,-1.0,0.1477326726980763,1.0,2.0
18.387784957885746,-11.831796646118164,0.9578936100006104,-0.0,-0.0,-1.0,0.1747483761971353,2.0,1.0
18.194847106933594,-9.6957368850708,1.3003921508789062,-0.0,-0.0,-1.0,0.0799088184127743,1.0,2.0
17.943187713623047,-10.364739418029783,1.5059895515441897,-0.0,-0.0,-1.0,0.0688896137152468,1.0,2.0
18.034618377685547,-9.719141006469728,0.356471300125122,-0.0,-0.0,-1.0,0.1163023400069934,1.0,1.0
17.714384078979492,-9.89194107055664,0.2951383590698242,-0.0,-0.0,-1.0,0.1461298403730413,1.0,1.0
18.21959686279297,-9.67876434326172,0.3954156637191772,-0.0,-0.0,-1.0,0.1343473286150466,1.0,1.0
18.098392486572266,-9.854052543640137,0.3807908296585083,-0.0,-0.0,-1.0,0.1580900605254905,2.0,1.0
17.939693450927734,-10.157608032226562,0.3631676435470581,-0.0,-0.0,-1.0,0.1563692368314162,1.0,1.0
18.02562713623047,-10.36107349395752,0.3940000534057617,-0.0,-0.0,-1.0,0.2118760542877253,1.0,1.0
17.93383026123047,-10.809142112731934,0.3894810676574707,-0.0,-0.0,-1.0,0.1503494705576911,1.0,1.0
17.889759063720703,-9.553152084350586,0.6617323160171509,-0.0,-0.0,-1.0,0.2600192455551112,1.0,1.0
18.558168411254883,-9.448406219482422,0.6651235818862915,-0.0,-0.0,-1.0,0.1346084022532232,2.0,1.0
18.10043716430664,-9.936952590942385,0.4997600317001343,-0.0,-0.0,-1.0,0.1460464090073863,2.0,1.0
17.890625,-10.31818389892578,0.6983873844146729,0.9127009505850774,0.17106748709468,-0.3710968736869232,0.2409531020882118,4.0,1.0
19.431095123291016,-9.412992477416992,0.6341938972473145,-0.0,-0.0,-1.0,0.1769583436447715,1.0,1.0
18.189146041870117,-10.196231842041016,0.6403424739837646,-0.0,-0.0,-1.0,0.1764653585064064,2.0,1.0
18.138084411621097,-10.429176330566406,0.5324430465698242,-0.0,-0.0,-1.0,0.1380538067704423,2.0,1.0
18.013521194458008,-10.778489112854004,0.5187186002731323,-0.0,-0.0,-1.0,0.1835373669521924,1.0,1.0
19.73863220214844,-9.478126525878906,0.7054579257965088,-0.0,-0.0,-1.0,0.1334349179426678,1.0,1.0
19.484689712524418,-9.625060081481934,0.6678675413131714,-0.0,-0.0,-1.0,0.1449492542773918,2.0,1.0
19.354970932006836,-9.943899154663086,0.6706264019012451,-0.0,-0.0,-1.0,0.2552068976851185,2.0,1.0
19.07550621032715,-10.241302490234377,0.6308392286300659,-0.0,-0.0,-1.0,0.1916414065809731,1.0,1.0
18.736351013183594,-10.595460891723633,0.6696014404296875,-0.0,-0.0,-1.0,0.0799811356940942,1.0,1.0
18.46997833251953,-10.900151252746582,0.7211828231811523,-0.0,-0.0,-1.0,0.1399307632970094,1.0,1.0
18.22801971435547,-11.031301498413086,0.6742863655090332,-0.0,-0.0,-1.0,0.1586179519170958,2.0,1.0
19.37841796875,-10.19161605834961,0.6964995861053467,-0.0,-0.0,-1.0,0.1066741031005799,1.0,1.0
19.229419708251953,-10.367490768432615,0.6749774217605591,-0.0,-0.0,-1.0,0.1304524636533342,1.0,1.0
19.045927047729492,-10.894183158874512,0.6584150791168213,-0.0,-0.0,-1.0,0.1745332314013812,2.0,1.0
18.658512115478516,-10.973173141479492,0.66629958152771,-0.0,-0.0,-1.0,0.1824237037366946,2.0,1.0
18.507080078125,-11.44626808166504,0.6390119791030884,-0.0,-0.0,-1.0,0.1818642571031128,1.0,1.0
18.301769256591797,-11.567028999328612,0.6920251846313477,-0.0,-0.0,-1.0,0.2050918625522293,1.0,1.0
19.170011520385746,-11.14871597290039,0.6959364414215088,-0.0,-0.0,-1.0,0.2673243276408897,1.0,1.0
19.007169723510746,-11.333521842956545,0.659487247467041,-0.0,-0.0,-1.0,0.1903028011520752,1.0,1.0
18.596424102783203,-11.564208984375,0.6572773456573486,-0.0,-0.0,-1.0,0.2288718242702213,2.0,1.0
19.24718475341797,-11.862051963806152,0.717605710029602,-0.0,-0.0,-1.0,0.1068565005766909,2.0,1.0
18.265380859375,-9.438326835632324,0.9413405656814576,-0.0,-0.0,-1.0,0.1721372610909692,1.0,1.0
17.8655948638916,-9.688920974731444,1.124267339706421,-0.0,-0.0,-1.0,0.156799318887729,1.0,2.0
18.117345809936523,-9.822694778442385,1.045213222503662,-0.0,-0.0,-1.0,0.0951795563101379,1.0,2.0
17.97579574584961,-10.341524124145508,0.932941436767578,0.7482255769954288,-0.5437779628110625,0.3800842184186403,0.131821022220606,3.0,1.0
18.27299118041992,-10.33088493347168,0.8723980188369751,0.7646395924290328,-0.4426182242285771,-0.4684179771002645,0.2051831729375024,4.0,1.0
18.13968086242676,-10.406526565551758,1.0635263919830322,0.4393449510097321,-0.6580193100579167,0.6115444396061165,0.1515521985811277,4.0,2.0
17.803001403808594,-11.16481876373291,0.9168077111244202,0.7879178283263413,-0.5759285443935159,-0.2179261516162493,0.1341378582852146,3.0,1.0
18.76032829284668,-11.170076370239258,0.8793500661849976,-0.0,-0.0,-1.0,0.1208882813571799,1.0,1.0
18.68101501464844,-11.36430549621582,0.7710869312286377,-0.0,-0.0,-1.0,0.1407453335497034,1.0,1.0
18.240188598632812,-11.7138032913208,0.9818832278251648,-0.0,-0.0,-1.0,0.1410406515924042,1.0,1.0
18.955968856811523,-11.37618637084961,0.8278391361236572,-0.0,-0.0,-1.0,0.1745761696450085,2.0,1.0
18.854379653930664,-11.559218406677246,0.8071432113647461,-0.0,-0.0,-1.0,0.1447458813503732,1.0,1.0
19.203744888305664,-11.831518173217772,0.8773448467254639,-0.6824964657488672,-0.7242703204085217,-0.0981380518231458,0.1237809558758542,3.0,1.0
18.198925018310547,-9.58218002319336,1.2632125616073608,-0.0,-0.0,-1.0,0.2102265758883646,2.0,2.0
17.921361923217773,-9.512720108032228,1.236020565032959,0.4898677270281665,-0.6997213383459494,-0.5200189022329965,0.1246694394086722,3.0,2.0
18.034902572631836,-9.8153076171875,1.2533875703811646,-0.0,-0.0,-1.0,0.134486621677201,2.0,2.0
17.866649627685547,-10.414034843444824,1.4627351760864258,0.6143560462222428,0.7722022785656915,0.1620811199619742,0.0814113908537676,3.0,2.0
17.863210678100586,-9.39039421081543,0.5826559066772461,-0.0,-0.0,-1.0,0.2374145163006316,2.0,1.0
18.083419799804688,-9.693857192993164,0.7603752613067627,-0.0,-0.0,-1.0,0.2119877309575859,1.0,1.0
18.01410675048828,-10.035280227661133,0.6791104078292847,-0.0,-0.0,-1.0,0.2244287240081577,2.0,1.0
18.15814781188965,-10.28496551513672,0.8297792673110962,-0.0,-0.0,-1.0,0.2352886763699951,2.0,1.0
17.947341918945312,-10.417903900146484,0.8057022094726562,0.4973628876260461,-0.6739432826879752,-0.546288028179308,0.2136416725079438,4.0,1.0
18.544818878173828,-10.709415435791016,0.8369492292404175,-0.0,-0.0,-1.0,0.1233148802378267,1.0,1.0
17.76051139831543,-11.15574073791504,0.818324089050293,0.899849611482964,0.2875270115400638,0.3280227040142167,0.1107414470151449,4.0,1.0
18.68601417541504,-11.189318656921388,0.8995529413223267,-0.0,-0.0,-1.0,0.1248957935285317,1.0,1.0
18.190147399902344,-11.206128120422363,0.8044571876525879,-0.0,-0.0,-1.0,0.189336265161064,2.0,1.0
18.232755661010746,-11.67398166656494,0.833942174911499,-0.0,-0.0,-1.0,0.2350822713235592,1.0,1.0
18.715761184692383,-11.244902610778809,0.9087228775024414,-0.9454408324011172,-0.3036227773307586,0.1181306120979618,0.1296967047525781,3.0,1.0
17.7366886138916,-9.8232421875,1.2692413330078125,-0.0,-0.0,-1.0,0.1819838499678039,1.0,2.0
18.29307556152344,-9.58883285522461,1.3000943660736084,-0.0,-0.0,-1.0,0.211488506400458,2.0,2.0
17.925081253051758,-9.821478843688965,1.2843198776245115,-0.0,-0.0,-1.0,0.1948996584210843,2.0,2.0
18.241689682006836,-10.407095909118652,1.145618915557861,-0.0,-0.0,-1.0,0.1388515499444277,2.0,2.0
17.976781845092773,-10.44113826751709,1.2178655862808228,-0.0,-0.0,-1.0,0.1596766380685573,1.0,2.0
17.900482177734375,-11.118084907531738,1.1361377239227295,-0.0,-0.0,-1.0,0.1342956675051537,1.0,2.0
18.59497833251953,-11.232911109924316,1.0574814081192017,-0.0,-0.0,-1.0,0.1758895530092484,1.0,2.0
18.78504180908203,-11.259407997131348,1.0890660285949707,-0.0,-0.0,-1.0,0.181018970872528,2.0,2.0
18.293283462524418,-11.846099853515623,1.0284810066223145,-0.0,-0.0,-1.0,0.1361030642988259,2.0,2.0
17.827526092529297,-9.578807830810549,0.6489670276641846,-0.0,-0.0,-1.0,0.2028352271545371,1.0,1.0
17.719694137573242,-9.895752906799316,1.1433098316192627,-0.0,-0.0,-1.0,0.1306384935101726,2.0,2.0
18.002208709716797,-10.26998519897461,0.7899965047836304,-0.0,-0.0,-1.0,0.2040565338092614,2.0,1.0
17.930017471313477,-10.378458023071287,0.9012300968170166,0.5316928199907761,0.8458738894325487,-0.0424276837278257,0.2339021825972436,5.0,1.0
18.263412475585938,-10.325101852416992,0.9410600662231444,-0.0,-0.0,-1.0,0.2128279787198291,2.0,1.0
17.809709548950195,-11.121421813964844,0.9803346395492554,0.4102248252443989,-0.3610801556063111,-0.8374584849295663,0.1082203267074817,6.0,1.0
17.790592193603516,-11.169161796569824,0.8834195137023926,0.7879178283263413,-0.5759285443935159,-0.2179261516162493,0.1184864117033889,3.0,1.0
18.736772537231445,-11.27043342590332,1.0596657991409302,-0.0,-0.0,-1.0,0.1901112704536181,2.0,2.0
18.237361907958984,-9.554607391357422,1.147965908050537,-0.0,-0.0,-1.0,0.2419536015966673,2.0,2.0
17.91453742980957,-10.399060249328612,1.4274263381958008,-0.0,-0.0,-1.0,0.0597095998956727,1.0,2.0
17.960445404052734,-9.464622497558594,0.6789586544036865,-0.0,-0.0,-1.0,0.2505723711684743,1.0,1.0
17.85221290588379,-9.725433349609377,0.716171383857727,-0.0,-0.0,-1.0,0.1993922190110624,2.0,1.0
18.09656524658203,-10.133694648742676,0.8215969800949097,-0.0,-0.0,-1.0,0.1079003181172697,2.0,1.0
17.974485397338867,-10.32796859741211,0.8414407968521118,-0.0,-0.0,-1.0,0.2371260463766022,2.0,1.0
18.026199340820312,-9.60251235961914,1.1964309215545654,-0.0,-0.0,-1.0,0.0931795907881376,1.0,2.0
18.2807559967041,-9.54078197479248,1.204921007156372,-0.0,-0.0,-1.0,0.2331895824528601,2.0,2.0
18.10157012939453,-10.347244262695312,0.9725348949432372,0.0775578340244648,-0.0114542755855246,-0.9969220541006428,0.2026598380442036,5.0,1.0
18.29198455810547,-10.297183990478516,0.8756543397903442,0.7476956453439383,-0.2854520404864138,-0.599556798406835,0.2433697111810136,4.0,1.0
18.225080490112305,-10.392942428588867,0.8850882053375244,0.6344089084337831,-0.7631816683434459,-0.1227968973727379,0.2125756660414123,4.0,1.0
17.82293701171875,-11.135088920593262,0.9556591510772704,0.4102248252443989,-0.3610801556063111,-0.8374584849295663,0.111030692847961,6.0,1.0
18.793495178222656,-11.218485832214355,1.1063368320465088,-0.0,-0.0,-1.0,0.1566869864920301,2.0,2.0
17.91933250427246,-10.241668701171877,1.4943848848342896,-0.0,-0.0,-1.0,0.061225360531325,1.0,2.0
17.9533634185791,-9.41636085510254,0.6475223302841187,-0.0,-0.0,-1.0,0.1688634606454803,2.0,1.0
17.915546417236328,-9.875165939331056,0.7426046133041382,-0.0,-0.0,-1.0,0.2024977925966117,1.0,1.0
17.920061111450195,-10.336181640625,0.838320255279541,0.5330012865057513,-0.8340346506284381,-0.1424634343763824,0.2151493256057539,3.0,1.0
17.752361297607422,-11.03049087524414,0.9573724269866944,-0.0,-0.0,-1.0,0.0835860010421915,1.0,1.0
18.154708862304688,-10.332845687866213,0.8578038215637207,-0.0,-0.0,-1.0,0.2441069967691031,1.0,1.0
18.01573371887207,-9.503377914428713,1.1889843940734863,0.1332538555523833,0.4345280315211616,-0.8907462039227386,0.1097509916963412,4.0,2.0
18.111278533935547,-9.770108222961426,1.23356032371521,-0.6573077213348499,0.6809615951584268,-0.3228588939349164,0.1361593226710688,3.0,2.0
17.920494079589844,-10.365949630737305,1.081282615661621,0.6764747837823725,-0.7345805275852608,-0.0526622768132195,0.2399683968028383,5.0,2.0
18.30567741394043,-9.55112075805664,1.205408215522766,-0.0,-0.0,-1.0,0.2331895824528601,2.0,2.0
18.114870071411133,-10.382644653320312,1.0970652103424072,-0.2507559286969377,-0.8665431094624567,0.4315373722708998,0.101429102820188,3.0,2.0
17.813858032226562,-11.139368057250977,0.9843947887420654,0.405151182927127,-0.6344732394910508,-0.6582524039777461,0.1082203267074817,7.0,1.0
19.98149681091309,-9.443208694458008,0.1820476055145263,-0.0,-0.0,-1.0,0.1499099003798164,1.0,1.0
19.671791076660156,-10.255462646484377,0.380901575088501,-0.3655104057195299,-0.0091082482072544,-0.9307626889413542,0.1933408224047973,3.0,1.0
19.534109115600582,-9.935846328735352,0.5908124446868896,-0.0083230288383821,0.9041537312914136,-0.4271261609674237,0.2277404068981722,6.0,1.0
19.726837158203125,-9.994264602661133,0.4682543277740478,-0.0,-0.0,-1.0,0.2206198140074531,1.0,1.0
19.539514541625977,-9.597515106201172,0.5093979835510254,-0.0,-0.0,-1.0,0.225188825882347,2.0,1.0
19.907289505004883,-9.65924072265625,0.3943262100219726,-0.0,-0.0,-1.0,0.237664569859191,2.0,1.0
19.9049072265625,-9.455936431884766,0.5004820823669434,-0.0,-0.0,-1.0,0.240043012065919,1.0,1.0
19.57904815673828,-10.113845825195312,0.637181282043457,-0.0,-0.0,-1.0,0.1960798887538914,2.0,1.0
20.03143310546875,-10.719362258911133,0.2447383403778076,-0.0,-0.0,-1.0,0.0734062370174827,1.0,1.0
19.185014724731445,-10.289499282836914,0.3462882041931152,-0.0,-0.0,-1.0,0.1430057467977046,1.0,1.0
20.02557373046875,-10.587453842163086,0.2067768573760986,-0.0,-0.0,-1.0,0.0949586436538804,1.0,1.0
19.07061767578125,-10.141773223876951,0.2977089881896972,-0.0,-0.0,-1.0,0.1321162804292071,1.0,1.0
