x,y,z,nx,ny,nz,curvature,density,label
49.596981048583984,-18.54090690612793,-0.2863388061523437,-0.0,-0.0,-1.0,0.0156371915169225,1.0,0.0
49.889652252197266,-18.413862228393555,-0.3284230232238769,-0.0,-0.0,-1.0,0.0078986801432631,2.0,0.0
48.63022232055664,-19.193490982055664,-0.1422719955444336,-0.0,-0.0,-1.0,0.0199377636215745,1.0,0.0
48.776702880859375,-19.013090133666992,-0.1662163734436035,-0.0,-0.0,-1.0,0.0475911326335523,1.0,0.0
49.74398422241211,-17.33040428161621,-0.3474507331848144,-0.0,-0.0,-1.0,0.0673467266957536,2.0,0.0
48.20207214355469,-19.320079803466797,-0.0842695236206054,-0.0,-0.0,-1.0,0.0374108102042635,1.0,0.0
49.53208541870117,-17.48578453063965,-0.3139891624450683,-0.0,-0.0,-1.0,0.0818595262347516,1.0,0.0
49.72311019897461,-17.065919876098633,-0.3546133041381836,-0.6721849144918888,0.1484719928483337,-0.7253437171914953,0.0480817518774245,3.0,0.0
49.9057502746582,-18.12767791748047,-0.3185944557189941,-0.0,-0.0,-1.0,0.0096580784931149,1.0,0.0
48.254390716552734,-19.27409553527832,-0.1777980327606201,-0.0,-0.0,-1.0,0.0438532279488978,2.0,0.0
48.350955963134766,-19.13702392578125,-0.1704094409942627,-0.0,-0.0,-1.0,0.0440159340409327,1.0,0.0
47.87391662597656,-19.210111618041992,-0.1633548736572265,-0.0,-0.0,-1.0,0.016589374857101,1.0,0.0
48.3170051574707,-18.478431701660156,-0.2682762145996094,-0.0,-0.0,-1.0,0.055954159343129,1.0,0.0
49.75955581665039,-16.867807388305664,-0.4526643753051758,-0.0,-0.0,-1.0,0.0573529458990986,1.0,0.0
49.6347770690918,-17.043149948120117,-0.4456620216369629,-0.0,-0.0,-1.0,0.0759563186721625,1.0,0.0
49.576690673828125,-16.941246032714844,-0.4118437767028808,-0.0,-0.0,-1.0,0.0647240510008768,2.0,0.0
48.762638092041016,-18.58721160888672,-0.2217681407928466,-0.0,-0.0,-1.0,0.0076816451327619,1.0,0.0
49.02452850341797,-18.491924285888672,-0.2403481006622314,0.0938137637520617,0.1967540451089384,-0.9759543142298936,0.0179916158617891,3.0,0.0
49.56810760498047,-18.735794067382812,-0.2819676399230957,-0.0,-0.0,-1.0,0.0149950318470817,1.0,0.0
49.94786071777344,-18.635578155517575,-0.3092422485351562,-0.0,-0.0,-1.0,0.0161171916596788,1.0,0.0
48.139373779296875,-18.614877700805664,-0.290062665939331,-0.0,-0.0,-1.0,0.048014922690083,1.0,0.0
48.3457145690918,-18.339384078979492,-0.3142812252044678,-0.0,-0.0,-1.0,0.0261086011781819,1.0,0.0
48.57506561279297,-18.09242820739746,-0.340599775314331,-0.0,-0.0,-1.0,0.023889344959286,1.0,0.0
49.41341400146485,-17.012346267700195,-0.4402201175689697,-0.0,-0.0,-1.0,0.0289160779419162,1.0,0.0
48.47650909423828,-19.022018432617188,-0.1754519939422607,-0.0,-0.0,-1.0,0.0368043797068034,1.0,0.0
48.6685791015625,-18.99392318725586,-0.1955969333648681,-0.0,-0.0,-1.0,0.0425906575169629,1.0,0.0
48.93808364868164,-18.9267578125,-0.2243609428405761,-0.0,-0.0,-1.0,0.0511732720135981,1.0,0.0
49.286590576171875,-18.95340347290039,-0.2598166465759277,-0.0,-0.0,-1.0,0.0236473522543725,1.0,0.0
49.4886589050293,-18.801204681396484,-0.2831423282623291,-0.0,-0.0,-1.0,0.0134847828824453,2.0,0.0
49.95686340332031,-18.570972442626953,-0.3354012966156006,-0.0,-0.0,-1.0,0.0133575639569575,1.0,0.0
48.56899642944336,-18.75184440612793,-0.2068800926208496,-0.0,-0.0,-1.0,0.0263651895344078,1.0,0.0
48.79731369018555,-18.644773483276367,-0.2279553413391113,-0.0,-0.0,-1.0,0.0078309371174376,1.0,0.0
49.02286148071289,-18.5333194732666,-0.2488536834716797,0.0970821964382119,0.188875921485363,-0.9771903260971156,0.020183346547576,4.0,0.0
49.43336868286133,-18.629732131958008,-0.2859435081481933,-0.0,-0.0,-1.0,0.0108164106560716,1.0,0.0
49.669586181640625,-18.526765823364254,-0.3079216480255127,-0.0,-0.0,-1.0,0.0145061384532946,2.0,0.0
49.95206451416016,-18.47691535949707,-0.3340044021606445,-0.0,-0.0,-1.0,0.009696011546742,1.0,0.0
50.17504119873047,-18.35556983947754,-0.3549795150756836,-0.0,-0.0,-1.0,0.0081193849335128,2.0,0.0
48.2044677734375,-18.16838836669922,-0.261472225189209,-0.0,-0.0,-1.0,0.0580692404524766,1.0,0.0
48.43345260620117,-17.972610473632812,-0.2782185077667236,-0.0,-0.0,-1.0,0.0141353067552213,1.0,0.0
49.839820861816406,-17.82323455810547,-0.3974614143371582,-0.0,-0.0,-1.0,0.0342216690129484,2.0,0.0
48.76871109008789,-17.668956756591797,-0.3028461933135986,-0.0,-0.0,-1.0,0.0289961331723759,1.0,0.0
49.608638763427734,-17.153656005859375,-0.369255781173706,-0.0,-0.0,-1.0,0.0460341216985303,1.0,0.0
48.113494873046875,-18.364933013916016,-0.2076954841613769,-0.4592559937705028,-0.3464909497571355,-0.817941290021641,0.0446112046489514,3.0,0.0
48.4827880859375,-18.236576080322266,-0.2392387390136718,-0.0,-0.0,-1.0,0.0528224532992714,1.0,0.0
48.66588592529297,-17.989791870117188,-0.2529730796813965,-0.0,-0.0,-1.0,0.0613091378559006,2.0,0.0
48.93408966064453,-17.866817474365234,-0.2759089469909668,-0.0,-0.0,-1.0,0.0263964982473095,1.0,0.0
49.852996826171875,-18.10506820678711,-0.3620610237121582,-0.0,-0.0,-1.0,0.0091044852894676,1.0,0.0
49.00452423095703,-17.71123504638672,-0.2806878089904785,-0.0,-0.0,-1.0,0.0180219992773653,1.0,0.0
49.83341217041016,-17.827255249023438,-0.357583999633789,-0.1798793341481851,0.9811933488376762,0.0700216919469388,0.0342216690129484,3.0,0.0
49.68521881103515,-17.136688232421875,-0.3374752998352051,-0.0,-0.0,-1.0,0.046685988899137,2.0,0.0
49.92779541015625,-19.19966506958008,-0.2667784690856933,-0.0,-0.0,-1.0,0.0250506950164637,1.0,0.0
48.038387298583984,-19.271305084228516,-0.1491142511367797,-0.0,-0.0,-1.0,0.0368558906243759,1.0,0.0
48.24138641357422,-19.20323944091797,-0.1603745222091674,-0.0,-0.0,-1.0,0.0448487199264448,2.0,0.0
49.385475158691406,-19.23472595214844,-0.2326233386993408,-0.0,-0.0,-1.0,0.0292606736700087,1.0,0.0
48.44320297241211,-18.98470687866211,-0.1690200567245483,-0.0,-0.0,-1.0,0.0488157744731201,1.0,0.0
48.87841796875,-19.044193267822266,-0.1972963809967041,-0.0,-0.0,-1.0,0.0503380147407236,2.0,0.0
49.071800231933594,-18.96963119506836,-0.2082216739654541,-0.0,-0.0,-1.0,0.0261421061682189,2.0,0.0
47.82286071777344,-18.264028549194336,-0.3003585338592529,-0.0,-0.0,-1.0,0.0554254444466851,1.0,0.0
48.00461959838867,-18.185876846313477,-0.3125475645065307,-0.0,-0.0,-1.0,0.043674713932352,1.0,0.0
48.116966247558594,-18.114431381225582,-0.3198189735412597,-0.0,-0.0,-1.0,0.0387238861506159,1.0,0.0
48.72611999511719,-17.111356735229492,-0.3522138595581054,-0.0,-0.0,-1.0,0.0353004357875404,1.0,0.0
49.119407653808594,-17.172922134399414,-0.382796049118042,-0.0,-0.0,-1.0,0.0192499795965313,1.0,0.0
49.48046112060547,-17.1556453704834,-0.4102306365966797,-0.0,-0.0,-1.0,0.0429535831770536,1.0,0.0
48.41533660888672,-16.91562843322754,-0.3263518810272217,-0.0,-0.0,-1.0,0.023552132218775,1.0,0.0
48.903289794921875,-17.031126022338867,-0.3646337985992431,-0.0,-0.0,-1.0,0.0355988811851448,1.0,0.0
47.76247024536133,-18.684215545654297,-0.2169312238693237,-0.0,-0.0,-1.0,0.0243818806362916,2.0,0.0
48.01146697998047,-18.43315887451172,-0.2292083501815796,-0.0,-0.0,-1.0,0.0458133802256271,1.0,0.0
48.47955322265625,-18.39634704589844,-0.260657787322998,-0.0,-0.0,-1.0,0.0503980273905663,1.0,0.0
49.399173736572266,-18.37432098388672,-0.3246768712997436,0.7509625836522863,-0.6153108594882483,0.2396825904193216,0.0117822270381449,3.0,0.0
49.62458038330078,-18.414234161376953,-0.3413829803466797,-0.0,-0.0,-1.0,0.0121840337715426,1.0,0.0
48.64426040649414,-18.27460479736328,-0.2699298858642578,-0.0,-0.0,-1.0,0.0681628902167469,1.0,0.0
48.938358306884766,-18.294597625732425,-0.2908104658126831,-0.0,-0.0,-1.0,0.0358711335900867,1.0,0.0
49.82504653930664,-18.22723388671875,-0.3526349067687988,-0.0,-0.0,-1.0,0.0099733809092391,1.0,0.0
49.635398864746094,-17.193920135498047,-0.3219506740570068,-0.0,-0.0,-1.0,0.0442117141386653,1.0,0.0
48.264259338378906,-18.164087295532227,-0.2577801942825317,-0.0,-0.0,-1.0,0.0268114245376965,2.0,0.0
48.431884765625,-18.065168380737305,-0.2690247297286987,-0.0,-0.0,-1.0,0.0247787351850312,2.0,0.0
49.33033752441406,-17.752241134643555,-0.3342264890670776,-0.0,-0.0,-1.0,0.0056086790381602,1.0,0.0
49.5738525390625,-17.85002326965332,-0.3551548719406128,-0.0,-0.0,-1.0,0.0264145321562475,1.0,0.0
50.02882385253906,-17.45334815979004,-0.3855663537979126,-0.0,-0.0,-1.0,0.0323610662205653,1.0,0.0
48.61659240722656,-17.833498001098633,-0.2794762849807739,-0.0,-0.0,-1.0,0.0422514787442305,1.0,0.0
48.857566833496094,-17.595006942749023,-0.2943814992904663,-0.0,-0.0,-1.0,0.005879275367379,1.0,0.0
48.92681121826172,-17.42571449279785,-0.2970765829086303,-0.0,-0.0,-1.0,0.0089314451699259,1.0,0.0
49.579002380371094,-17.203989028930664,-0.3454409837722778,-0.0,-0.0,-1.0,0.0493949511480973,1.0,0.0
48.44195938110352,-16.871606826782227,-0.249990701675415,-0.0,-0.0,-1.0,0.0287776878139093,1.0,0.0
48.91804504394531,-17.063344955444336,-0.2905400991439819,-0.0,-0.0,-1.0,0.0323311391101097,1.0,0.0
48.39929962158203,-19.345678329467773,-0.0275895595550537,-0.0,-0.0,-1.0,0.0352615061479867,1.0,0.0
48.20772171020508,-18.703628540039062,0.0377238988876342,-0.0,-0.0,-1.0,0.2463712550770197,1.0,1.0
48.870574951171875,-19.18706512451172,-0.1747820377349853,-0.0,-0.0,-1.0,0.0346298523481171,1.0,0.0
47.95346450805664,-18.855243682861328,-0.1364935636520385,-0.0,-0.0,-1.0,0.028874724108033,1.0,0.0
48.38142395019531,-18.951454162597656,-0.1518291234970092,-0.0,-0.0,-1.0,0.0623012537349433,1.0,0.0
48.74539566040039,-19.1375732421875,-0.1693116426467895,-0.0,-0.0,-1.0,0.0461367857845435,2.0,0.0
47.85197830200195,-18.574146270751953,-0.2204729318618774,-0.0,-0.0,-1.0,0.0377272185961876,2.0,0.0
48.15154647827149,-18.392070770263672,-0.2175647020339965,-0.4592559937705028,-0.3464909497571355,-0.817941290021641,0.0599822772726122,3.0,0.0
48.48821258544922,-18.482585906982425,-0.2286657094955444,-0.0,-0.0,-1.0,0.0526355643337096,1.0,0.0
48.77757263183594,-18.461681365966797,-0.2337218523025512,-0.0,-0.0,-1.0,0.0119020153954042,2.0,0.0
49.05825424194336,-18.59333038330078,-0.246131420135498,0.9000825977437474,0.1014748543396174,-0.42373832866006,0.0145239694260094,3.0,0.0
49.393333435058594,-18.780033111572266,-0.262621521949768,-0.0,-0.0,-1.0,0.0088460959439273,1.0,0.0
49.62262725830078,-18.836830139160156,-0.2706717252731323,-0.0,-0.0,-1.0,0.01504820499883,1.0,0.0
49.854103088378906,-18.958385467529297,-0.2820407152175903,-0.0,-0.0,-1.0,0.0133480036694342,1.0,0.0
50.20378112792969,-19.13814926147461,-0.2992869615554809,-0.0,-0.0,-1.0,0.019305422324093,1.0,0.0
48.91522979736328,-16.889713287353516,-0.3612701892852783,-0.0,-0.0,-1.0,0.0346492574927845,2.0,0.0
49.12068176269531,-16.955902099609375,-0.3676959276199341,-0.0,-0.0,-1.0,0.0285778602798546,1.0,0.0
49.533973693847656,-17.187740325927734,-0.386565089225769,-0.7523891033515857,0.6233745277127581,-0.2128728149780817,0.0382160357099936,3.0,0.0
49.7572021484375,-17.041526794433594,-0.3812136650085449,-0.6721849144918888,0.1484719928483337,-0.7253437171914953,0.053667040296948,3.0,0.0
47.89908981323242,-18.91436195373535,-0.1655728816986084,-0.0,-0.0,-1.0,0.0155498161069091,1.0,0.0
48.43825912475586,-18.90461540222168,-0.1668838262557983,-0.0,-0.0,-1.0,0.0584299666989295,2.0,0.0
48.169071197509766,-18.978994369506836,-0.1696257591247558,-0.0,-0.0,-1.0,0.0651988767154179,1.0,0.0
48.75289535522461,-19.09868621826172,-0.1778620481491089,-0.0,-0.0,-1.0,0.0461367857845435,2.0,0.0
49.12310028076172,-19.285005569458008,-0.1888918876647949,-0.0,-0.0,-1.0,0.04034406506939,1.0,0.0
48.993526458740234,-16.900156021118164,-0.3729246854782104,-0.0,-0.0,-1.0,0.0335247027295386,1.0,0.0
49.74048614501953,-16.93880844116211,-0.3776909112930298,-0.0,-0.0,-1.0,0.0688466245076221,1.0,0.0
49.48711395263672,-17.007780075073242,-0.3809400796890259,-0.0,-0.0,-1.0,0.0456302842475108,1.0,0.0
47.75764083862305,-18.66501235961914,-0.1802254915237426,-0.4079296974726716,0.7858464219672653,-0.4647997020234646,0.0249233579143175,3.0,0.0
49.777496337890625,-18.821365356445312,-0.1791814565658569,-0.0,-0.0,-1.0,0.0168158749696781,1.0,0.0
49.490577697753906,-18.6802978515625,-0.1732455492019653,-0.0,-0.0,-1.0,0.0135117600779782,1.0,0.0
49.16449737548828,-18.383544921875,-0.1602555513381958,-0.0,-0.0,-1.0,0.0253077530418958,1.0,0.0
48.82852935791016,-18.256290435791016,-0.1551250219345092,-0.0,-0.0,-1.0,0.0908515186004693,1.0,0.0
50.17522048950195,-19.115570068359375,-0.1919859647750854,-0.0,-0.0,-1.0,0.0205500879085682,1.0,0.0
48.79103469848633,-18.89983367919922,-0.0066691637039184,-0.0,-0.0,-1.0,0.0645395920351173,1.0,0.0
48.527549743652344,-18.797996520996097,-0.0094555616378784,-0.0,-0.0,-1.0,0.0707705750017711,1.0,0.0
47.84326171875,-19.323787689208984,-0.0496256351470947,-0.0,-0.0,-1.0,0.0908130136749692,1.0,0.0
47.74911117553711,-19.06769561767578,-0.1224093437194824,-0.0,-0.0,-1.0,0.0139225923760745,2.0,0.0
47.863033294677734,-18.984134674072266,-0.1331721544265747,-0.0,-0.0,-1.0,0.0145643259979847,2.0,0.0
48.92717361450195,-18.46594619750977,-0.2276777029037475,-0.0,-0.0,-1.0,0.0334108899611065,1.0,0.0
49.103797912597656,-18.44348907470703,-0.2418545484542846,-0.0,-0.0,-1.0,0.0159901559198269,1.0,0.0
49.51066207885742,-18.642345428466797,-0.2683672904968261,-0.0,-0.0,-1.0,0.0135309269001521,1.0,0.0
49.73221206665039,-17.26584243774414,-0.3196431398391723,0.1780292739633701,0.982641795639312,-0.052160129168014,0.1684409896007806,5.0,0.0
48.031715393066406,-19.359338760375977,-0.0730237960815429,-0.0,-0.0,-1.0,0.0884188150187684,2.0,0.0
49.991798400878906,-17.10277557373047,-0.2951120138168335,-0.0,-0.0,-1.0,0.032087040651824,1.0,0.0
49.727508544921875,-16.978343963623047,-0.2902377843856811,-0.0,-0.0,-1.0,0.0764433057937714,2.0,0.0
48.915382385253906,-16.9227294921875,-0.3722246885299682,-0.0,-0.0,-1.0,0.0346492574927846,2.0,0.0
49.22452545166016,-17.111963272094727,-0.3904528617858886,-0.0,-0.0,-1.0,0.0203407410601966,1.0,0.0
49.50735092163086,-17.225915908813477,-0.4042611122131347,-0.7523891033515857,0.6233745277127581,-0.2128728149780817,0.0398384685781726,3.0,0.0
49.03847885131836,-16.946273803710938,-0.3768974542617798,-0.0,-0.0,-1.0,0.0283403677808911,1.0,0.0
49.29925155639648,-17.03171157836914,-0.3886204957962036,-0.0,-0.0,-1.0,0.0218867140391465,1.0,0.0
49.612545013427734,-17.107555389404297,-0.4014754295349121,-0.0,-0.0,-1.0,0.0447634080377285,1.0,0.0
47.935638427734375,-18.196908950805664,-0.273961067199707,-0.0,-0.0,-1.0,0.0628303200908149,1.0,0.0
48.1650390625,-18.218721389770508,-0.2787668704986572,-0.0,-0.0,-1.0,0.0341042037293642,1.0,0.0
48.42753601074219,-18.14620018005371,-0.2794573307037353,-0.0,-0.0,-1.0,0.0294854197981511,1.0,0.0
48.668792724609375,-18.118995666503903,-0.2821654081344604,-0.0,-0.0,-1.0,0.046718515491491,1.0,0.0
48.92198944091797,-18.16261100769043,-0.2887499332427978,-0.0,-0.0,-1.0,0.0341693499178517,1.0,0.0
49.37104415893555,-18.402435302734375,-0.3087173700332641,-0.0,-0.0,-1.0,0.0117474389696231,2.0,0.0
49.633766174316406,-18.472671508789062,-0.3169999122619629,-0.0,-0.0,-1.0,0.0139208657183841,1.0,0.0
49.90736770629883,-18.561473846435547,-0.3264706134796142,-0.0,-0.0,-1.0,0.0133575639569575,1.0,0.0
50.15043640136719,-18.499845504760746,-0.328018307685852,-0.0,-0.0,-1.0,0.0118863029531883,1.0,0.0
47.71331787109375,-18.01880645751953,-0.2673169374465942,-0.0,-0.0,-1.0,0.0581121256516131,1.0,0.0
48.1738166809082,-18.07061767578125,-0.2773293256759643,-0.0,-0.0,-1.0,0.0353300038560934,1.0,0.0
48.6597900390625,-17.993545532226562,-0.281274676322937,-0.0,-0.0,-1.0,0.0459654223685724,2.0,0.0
49.125701904296875,-18.19689559936523,-0.2999615669250488,-0.0,-0.0,-1.0,0.0261645557650258,2.0,0.0
49.41138458251953,-18.35497283935547,-0.3132649660110473,-0.0,-0.0,-1.0,0.0104182311150781,2.0,0.0
49.72660446166992,-18.422645568847656,-0.3224930763244629,-0.0,-0.0,-1.0,0.0084146817138274,1.0,0.0
50.197975158691406,-18.461105346679688,-0.333256721496582,-0.0,-0.0,-1.0,0.012798208029822,1.0,0.0
47.98691177368164,-18.932872772216797,-0.127474308013916,-0.0,-0.0,-1.0,0.0244720196773744,2.0,0.0
47.83603286743164,-19.002222061157227,-0.1197915077209472,-0.1170648166892722,-0.4717570583721553,-0.8739228264381003,0.0132495436497908,3.0,0.0
48.27434539794922,-18.85866928100586,-0.1442799568176269,-0.0,-0.0,-1.0,0.1150332611430474,2.0,0.0
48.73146057128906,-18.853357315063477,-0.1752560138702392,-0.0,-0.0,-1.0,0.0560787784776276,1.0,0.0
48.62388610839844,-18.919248580932617,-0.1701600551605224,-0.0,-0.0,-1.0,0.0614947156343309,2.0,0.0
48.99436569213867,-18.819469451904297,-0.1921937465667724,-0.0,-0.0,-1.0,0.0331194946164285,1.0,0.0
49.213111877441406,-18.88179397583008,-0.2094699144363403,-0.0,-0.0,-1.0,0.0148752679645241,1.0,0.0
49.5388069152832,-18.96605110168457,-0.2350265979766845,-0.0,-0.0,-1.0,0.0206825381530515,2.0,0.0
49.89928436279297,-18.91704559326172,-0.2587000131607055,-0.0,-0.0,-1.0,0.015632516701609,1.0,0.0
47.91271209716797,-17.875577926635742,-0.2784211635589599,-0.0,-0.0,-1.0,0.0531813684271344,1.0,0.0
48.28266143798828,-16.931194305419922,-0.2581801414489746,-0.0,-0.0,-1.0,0.032428740343069,1.0,0.0
48.303314208984375,-17.742368698120117,-0.2998479604721069,-0.0,-0.0,-1.0,0.0377142588660083,1.0,0.0
48.76885986328125,-17.164508819580078,-0.3053767681121826,-0.0,-0.0,-1.0,0.0309480855026446,1.0,0.0
48.567779541015625,-17.561906814575195,-0.3101282119750976,-0.0,-0.0,-1.0,0.0454986243937468,1.0,0.0
48.9676628112793,-17.07062339782715,-0.315532922744751,-0.0,-0.0,-1.0,0.0240978410523867,2.0,0.0
49.21859359741211,-17.225482940673828,-0.3417553901672363,-0.0,-0.0,-1.0,0.0157429866929788,1.0,0.0
49.51044464111328,-17.208030700683594,-0.3628208637237549,-0.7335906558741386,0.6386712913756969,-0.232257898007046,0.0457723136469273,4.0,0.0
49.74739837646485,-17.045297622680664,-0.3729002475738525,-0.6721849144918888,0.1484719928483337,-0.7253437171914953,0.053667040296948,3.0,0.0
48.27930450439453,-18.919544219970703,-0.1204761266708374,-0.0,-0.0,-1.0,0.1092641272285551,2.0,0.0
48.01898193359375,-19.192790985107425,-0.1211341619491577,-0.0,-0.0,-1.0,0.0226400561234394,1.0,0.0
47.74770736694336,-19.34364128112793,-0.1150908470153808,-0.0,-0.0,-1.0,0.0931075600114295,1.0,0.0
48.56911849975586,-19.00899887084961,-0.1403543949127197,-0.0,-0.0,-1.0,0.0473177939863846,1.0,0.0
48.25699615478515,-19.251867294311523,-0.1365085840225219,-0.0,-0.0,-1.0,0.0438532279488978,2.0,0.0
49.199554443359375,-19.041818618774418,-0.1757528781890869,-0.0,-0.0,-1.0,0.0340950362261379,1.0,0.0
48.925296783447266,-19.062177658081055,-0.1620358228683471,-0.0,-0.0,-1.0,0.0502625434000295,1.0,0.0
49.45654296875,-19.269718170166016,-0.2012251615524292,-0.0,-0.0,-1.0,0.0234342566514719,1.0,0.0
49.89140701293945,-19.235769271850582,-0.2233494520187378,-0.0,-0.0,-1.0,0.0260125269741977,1.0,0.0
49.59890365600586,-19.293642044067383,-0.2101815938949585,-0.0,-0.0,-1.0,0.0258668911979955,1.0,0.0
48.20318984985352,-18.610212326049805,-0.1716529130935669,-0.0,-0.0,-1.0,0.0763547989707136,1.0,0.0
48.02386474609375,-18.772552490234375,-0.1692132949829101,-0.0,-0.0,-1.0,0.0539889920357049,2.0,0.0
48.51033401489258,-18.601104736328125,-0.1898292303085327,-0.0,-0.0,-1.0,0.0465846372273266,1.0,0.0
48.932518005371094,-18.56722640991211,-0.2139961719512939,-0.0,-0.0,-1.0,0.0178469159019467,1.0,0.0
48.82308197021485,-18.58412742614746,-0.2080960273742675,-0.0,-0.0,-1.0,0.0125223139391657,1.0,0.0
49.79025650024414,-17.031984329223633,-0.3204492330551147,-0.0,-0.0,-1.0,0.0447626363480078,1.0,0.0
49.15216064453125,-16.959903717041016,-0.2934119701385498,-0.0,-0.0,-1.0,0.0270508913445114,1.0,0.0
49.83255386352539,-17.310144424438477,-0.3454753160476684,-0.0,-0.0,-1.0,0.0459253287575304,1.0,0.0
49.91316986083984,-17.53411865234375,-0.3671996593475342,-0.0,-0.0,-1.0,0.0342805874813577,2.0,0.0
49.7698974609375,-17.075042724609375,-0.2851296663284302,-0.0,-0.0,-1.0,0.045983524785527,2.0,0.0
49.059349060058594,-17.516063690185547,-0.2779278755187988,-0.0,-0.0,-1.0,0.0050800548787304,1.0,0.0
48.81158828735352,-17.631885528564453,-0.2734168767929077,-0.0,-0.0,-1.0,0.0275030948187939,1.0,0.0
48.55216979980469,-17.746326446533203,-0.2684175968170166,-0.0634234219338871,-0.0898620009461094,-0.993932739342134,0.0498624898299507,3.0,0.0
49.50353240966797,-17.72158432006836,-0.3121832609176636,-0.0,-0.0,-1.0,0.0241572167261739,1.0,0.0
50.06915283203125,-17.82938003540039,-0.346315860748291,-0.0,-0.0,-1.0,0.0322653338668043,2.0,0.0
49.75194549560547,-17.843111038208008,-0.3317757844924927,-0.0,-0.0,-1.0,0.0402825738280796,1.0,0.0
48.81288146972656,-18.07992172241211,0.0686409473419189,-0.0,-0.0,-1.0,0.1657877554685937,1.0,1.0
48.59056091308594,-18.10243225097656,0.0932762622833252,-0.0,-0.0,-1.0,0.2280222859387402,1.0,1.0
48.26939392089844,-18.395668029785156,0.141181468963623,-0.0,-0.0,-1.0,0.1783199672472439,1.0,1.0
48.20922088623047,-18.480857849121097,0.1516356468200683,-0.0,-0.0,-1.0,0.1725866487375519,1.0,1.0
47.9969482421875,-18.67929458618164,0.1838393211364746,-0.0,-0.0,-1.0,0.1711917518700144,1.0,1.0
47.98006057739258,-19.09361457824707,0.2056542634963989,-0.0,-0.0,-1.0,0.1312397573302288,1.0,1.0
47.71662139892578,-18.69641876220703,-0.1754432916641235,-0.0,-0.0,-1.0,0.0233852150220123,2.0,0.0
48.757904052734375,-17.76571273803711,-0.2802388668060303,-0.0,-0.0,-1.0,0.036559024106477,1.0,0.0
49.6954345703125,-18.90149688720703,-0.2572236061096191,-0.0,-0.0,-1.0,0.0154226679957409,1.0,0.0
49.8172607421875,-18.71716690063477,-0.2707459926605224,-0.0,-0.0,-1.0,0.0174953406956737,1.0,0.0
47.969139099121094,-19.20655059814453,-0.111930251121521,-0.0,-0.0,-1.0,0.0182742767454554,1.0,0.0
49.49502944946289,-18.964618682861328,-0.2215371131896972,-0.0,-0.0,-1.0,0.0220279175654443,2.0,0.0
49.8060302734375,-19.07293701171875,-0.2411487102508545,-0.0,-0.0,-1.0,0.0217104287586683,1.0,0.0
48.22657775878906,-18.32196998596191,-0.1865164041519165,-0.0,-0.0,-1.0,0.0322205528907586,2.0,0.0
48.139442443847656,-18.57198143005371,-0.1843279600143432,-0.0,-0.0,-1.0,0.071288219207658,2.0,0.0
48.01897048950195,-18.79293441772461,-0.1791599988937378,-0.0,-0.0,-1.0,0.0543934618294527,2.0,0.0
48.580909729003906,-18.44904136657715,-0.2154129743576049,-0.0,-0.0,-1.0,0.0441862802415399,1.0,0.0
48.60294342041016,-16.922353744506836,-0.1910699605941772,-0.0,-0.0,-1.0,0.0364658411493332,2.0,0.0
48.746917724609375,-18.447999954223633,-0.227904200553894,-0.0,-0.0,-1.0,0.0457406444335254,2.0,0.0
49.76090621948242,-17.176584243774414,-0.2831095457077026,-0.0,-0.0,-1.0,0.1385665818190745,2.0,0.0
49.724403381347656,-17.273775100708008,-0.2819451093673706,0.3096431496528538,0.8704530754516696,-0.382665079814961,0.1583652015832016,6.0,0.0
50.14033508300781,-18.21129035949707,-0.3291138410568237,-0.0,-0.0,-1.0,0.007723570018857,1.0,0.0
47.95733642578125,-18.489381790161133,-0.2004958391189575,-0.0,-0.0,-1.0,0.0346511293435606,2.0,0.0
48.137596130371094,-18.266944885253903,-0.226108431816101,-0.0,-0.0,-1.0,0.0338282350058769,1.0,0.0
47.94065856933594,-18.531509399414062,-0.1950167417526245,-0.0,-0.0,-1.0,0.029105081665346,2.0,0.0
47.78724670410156,-18.65304946899414,-0.1859830617904663,-0.0,-0.0,-1.0,0.0260612563544602,2.0,0.0
48.11554718017578,-18.37413215637207,-0.2049509286880493,-0.4592559937705028,-0.3464909497571355,-0.817941290021641,0.0445452261216321,3.0,0.0
48.52943801879883,-18.2056884765625,-0.2336071729660034,-0.0,-0.0,-1.0,0.0526682339347961,1.0,0.0
48.98492431640625,-17.105222702026367,-0.2452620267868042,-0.0,-0.0,-1.0,0.0240978410523867,2.0,0.0
49.7584342956543,-17.095548629760742,-0.3072401285171509,-0.929641069167551,0.3168004895150045,0.1881619843647116,0.0449213728828683,3.0,0.0
49.75389099121094,-17.297630310058594,-0.3110905885696411,-0.92014679939364,-0.3744144081117638,0.1146460577776568,0.1475520869461824,5.0,0.0
47.96995544433594,-17.879812240600586,-0.2700786590576172,-0.0,-0.0,-1.0,0.0537348735489788,1.0,0.0
48.14518356323242,-17.72693634033203,-0.2814188003540039,-0.0,-0.0,-1.0,0.0406509403096683,1.0,0.0
48.08980941772461,-17.845291137695312,-0.2794511318206787,-0.0,-0.0,-1.0,0.0407334392272922,2.0,0.0
48.274566650390625,-18.636259078979492,-0.035982608795166,-0.0,-0.0,-1.0,0.1777041012580568,1.0,0.0
49.47996520996094,-19.35116195678711,-0.1224820613861084,-0.0,-0.0,-1.0,0.0232838638205185,1.0,0.0
49.733665466308594,-17.00002670288086,-0.3114290237426758,-0.0,-0.0,-1.0,0.0764433057937713,2.0,0.0
49.744476318359375,-17.139272689819336,-0.3025851249694824,-0.9658397869665242,0.2569013753129733,0.0339880754789388,0.0674346009390058,6.0,0.0
49.04084014892578,-19.13294219970703,-0.133549690246582,-0.0,-0.0,-1.0,0.038350769970967,1.0,0.0
49.30157470703125,-19.332265853881836,-0.1538882255554199,-0.0,-0.0,-1.0,0.0377560535033766,1.0,0.0
48.29540252685547,-18.82377052307129,-0.0625891685485839,-0.0,-0.0,-1.0,0.1168862911545659,1.0,0.0
49.06922912597656,-18.962759017944336,-0.1454122066497802,0.6783818992143203,0.6754626819618128,0.2890469928840757,0.0477682773833691,4.0,0.0
48.594573974609375,-16.906286239624023,-0.2019639015197754,-0.0,-0.0,-1.0,0.0364658411493332,2.0,0.0
49.72361755371094,-17.15680694580078,-0.3189377784729004,0.1350379851426667,0.9907418540773072,0.0139757342586536,0.0715198111303568,5.0,0.0
50.11362075805664,-16.97714614868164,-0.3746368885040283,-0.0,-0.0,-1.0,0.0488804914643372,1.0,0.0
47.83190155029297,-19.25438690185547,-0.0781350135803222,-0.0,-0.0,-1.0,0.1499958575307058,2.0,0.0
48.02325439453125,-18.844865798950195,-0.1284713745117187,-0.0,-0.0,-1.0,0.0562358995025009,1.0,0.0
48.25716400146485,-18.539831161499023,-0.1795353889465332,-0.0,-0.0,-1.0,0.0694742787227035,1.0,0.0
48.18122100830078,-18.28583335876465,-0.1843461990356445,-0.0,-0.0,-1.0,0.0393840310990418,1.0,0.0
48.470176696777344,-18.08117294311523,-0.237924575805664,-0.0,-0.0,-1.0,0.0247810754537467,2.0,0.0
48.52778244018555,-17.71879005432129,-0.2693510055541992,-0.0634234219338871,-0.0898620009461094,-0.993932739342134,0.0498624898299507,3.0,0.0
48.593994140625,-17.320941925048828,-0.3051872253417969,-0.0,-0.0,-1.0,0.0272280555384848,1.0,0.0
48.026329040527344,-16.868736267089844,-0.2563343048095703,-0.0,-0.0,-1.0,0.0314603742623202,1.0,0.0
48.18790435791016,-16.899404525756836,-0.2770276069641113,-0.0,-0.0,-1.0,0.0314603742623202,1.0,0.0
48.491607666015625,-19.226911544799805,-0.0878572463989257,-0.0,-0.0,-1.0,0.0348889564722889,1.0,0.0
48.710174560546875,-19.107242584228516,-0.126333475112915,-0.0,-0.0,-1.0,0.04403499232185,1.0,0.0
48.83368682861328,-18.944786071777344,-0.1536781787872314,-0.0,-0.0,-1.0,0.0503178040582739,1.0,0.0
49.12333297729492,-18.78730201721191,-0.2049531936645507,-0.0,-0.0,-1.0,0.013926699417999,1.0,0.0
49.629058837890625,-18.746334075927734,-0.2806155681610107,-0.0,-0.0,-1.0,0.0138938203260372,1.0,0.0
49.646522521972656,-18.53097343444824,-0.2963371276855469,-0.0,-0.0,-1.0,0.0130815595278668,2.0,0.0
49.747650146484375,-18.14206314086914,-0.3354804515838623,-0.0,-0.0,-1.0,0.007677738308151,1.0,0.0
49.15030288696289,-17.591636657714844,-0.2850344181060791,-0.0,-0.0,-1.0,0.0067777240989462,1.0,0.0
49.79865264892578,-17.736042022705078,-0.369356632232666,-0.0,-0.0,-1.0,0.0332638230333648,1.0,0.0
49.900535583496094,-17.885385513305664,-0.3742420673370361,-0.0,-0.0,-1.0,0.0350478198044604,1.0,0.0
48.98756790161133,-17.111164093017578,-0.2945454120635986,0.8985883315002168,0.4387675531568225,-0.0046951877951163,0.0240978410523867,3.0,0.0
49.477317810058594,-17.242000579833984,-0.3563640117645263,-0.0,-0.0,-1.0,0.0373102288809129,2.0,0.0
49.83055114746094,-17.4190731048584,-0.3953738212585449,-0.0,-0.0,-1.0,0.0539210863888099,2.0,0.0
49.64160919189453,-16.879802703857422,-0.4058077335357666,-0.0,-0.0,-1.0,0.0678408879590368,1.0,0.0
48.245994567871094,-18.80044937133789,-0.0772123336791992,-0.0,-0.0,-1.0,0.1214395797592741,1.0,0.0
49.680076599121094,-18.602323532104492,-0.2748608589172363,-0.0,-0.0,-1.0,0.0193859302509871,1.0,0.0
49.78538513183594,-18.26631736755371,-0.3135700225830078,-0.0,-0.0,-1.0,0.0099616229704965,1.0,0.0
49.87408828735352,-17.81974220275879,-0.3583688735961914,-0.0,-0.0,-1.0,0.0342216690129484,2.0,0.0
49.62079620361328,-17.307575225830078,-0.3574612140655517,-0.0,-0.0,-1.0,0.0557928667221456,1.0,0.0
49.88388442993164,-17.510343551635742,-0.3822922706604004,-0.0,-0.0,-1.0,0.0373339453182709,2.0,0.0
49.609275817871094,-16.961780548095703,-0.3820466995239258,-0.0,-0.0,-1.0,0.0701538783405985,2.0,0.0
49.08048248291016,-19.30577087402344,-0.1389393806457519,-0.0,-0.0,-1.0,0.0370128828842657,1.0,0.0
49.17325973510742,-19.25601577758789,-0.1560368537902832,-0.0,-0.0,-1.0,0.0396134077784849,1.0,0.0
48.23233413696289,-18.75423812866211,-0.0457632541656494,-0.0,-0.0,-1.0,0.1157293289297999,2.0,0.0
49.03550720214844,-18.93746757507324,-0.1553807258605957,0.420897940674189,0.7577445578529626,0.4986663299045215,0.049841985941269,3.0,0.0
49.22823715209961,-19.084190368652344,-0.1751320362091064,-0.0,-0.0,-1.0,0.0304304365267834,1.0,0.0
49.39729309082031,-17.20983123779297,-0.3309464454650879,-0.0,-0.0,-1.0,0.0307089650355682,1.0,0.0
48.94873809814453,-17.01808738708496,-0.2776060104370117,-0.0,-0.0,-1.0,0.0349330628171148,1.0,0.0
49.2479248046875,-17.07539176940918,-0.3185262680053711,-0.0,-0.0,-1.0,0.0246821484046602,1.0,0.0
49.742679595947266,-17.28218650817871,-0.2746026515960693,0.7351933536089069,0.6680199217583868,0.115065707068646,0.1684409896007806,4.0,0.0
49.901710510253906,-17.025909423828125,-0.3196358680725097,-0.0,-0.0,-1.0,0.0423157960862837,1.0,0.0
47.82831573486328,-19.065296173095703,-0.1092467308044433,-0.0,-0.0,-1.0,0.0157963449123247,2.0,0.0
47.8508415222168,-19.26879119873047,-0.110255479812622,-0.0,-0.0,-1.0,0.0908130136749692,2.0,0.0
48.116424560546875,-18.815441131591797,-0.1657028198242187,-0.0,-0.0,-1.0,0.0967556994032221,2.0,0.0
48.23820495605469,-18.475751876831055,-0.1946713924407959,-0.0,-0.0,-1.0,0.0650441348882305,1.0,0.0
48.4643440246582,-18.080724716186523,-0.2451217174530029,0.6412666439635218,0.5966032920714319,-0.4825366340800374,0.0247465451871597,3.0,0.0
48.50728988647461,-18.0474853515625,-0.2537384033203125,-0.0,-0.0,-1.0,0.0222557729182926,1.0,0.0
48.54861068725586,-17.724163055419922,-0.2701942920684814,-0.0634234219338871,-0.0898620009461094,-0.993932739342134,0.0498624898299507,3.0,0.0
48.606658935546875,-17.68021583557129,-0.2820475101470947,-0.0,-0.0,-1.0,0.0372927149726371,1.0,0.0
48.527587890625,-17.125904083251953,-0.2857282161712646,-0.0,-0.0,-1.0,0.0330017331269825,2.0,0.0
48.67545700073242,-17.3776798248291,-0.3039326667785644,-0.0,-0.0,-1.0,0.0199842867618542,2.0,0.0
47.81436920166016,-18.733882904052734,-0.1591832637786865,-0.0,-0.0,-1.0,0.0261519779966706,1.0,0.0
48.04513931274414,-18.47316551208496,-0.1936867237091064,-0.0,-0.0,-1.0,0.038058780026243,2.0,0.0
48.29048156738281,-18.180818557739254,-0.2309331893920898,-0.0,-0.0,-1.0,0.0280256519738735,2.0,0.0
48.46731948852539,-17.846925735473633,-0.2555384635925293,-0.0,-0.0,-1.0,0.0437673183231539,1.0,0.0
48.64830780029297,-17.460533142089844,-0.2813687324523926,-0.0,-0.0,-1.0,0.0197714427172049,1.0,0.0
48.77300262451172,-17.04060173034668,-0.2979063987731933,-0.0,-0.0,-1.0,0.0373796904899087,1.0,0.0
49.059722900390625,-16.881622314453125,-0.3489723205566406,-0.0,-0.0,-1.0,0.0277041070035971,1.0,0.0
47.779788970947266,-18.534008026123047,-0.21002197265625,-0.0,-0.0,-1.0,0.0238897194027634,1.0,0.0
48.04140090942383,-18.031850814819336,-0.2729959487915039,-0.0,-0.0,-1.0,0.0409502839247409,1.0,0.0
48.00327682495117,-18.208818435668945,-0.261009931564331,-0.0,-0.0,-1.0,0.0611962746196528,2.0,0.0
48.0892448425293,-17.819046020507812,-0.288470983505249,-0.0,-0.0,-1.0,0.0392094819463217,2.0,0.0
47.986270904541016,-17.13655662536621,-0.2919239997863769,-0.0,-0.0,-1.0,0.0305550469927834,1.0,0.0
48.14168167114258,-17.467958450317383,-0.3099644184112549,-0.0,-0.0,-1.0,0.0287245837559743,1.0,0.0
48.76148223876953,-17.342756271362305,-0.3041067123413086,-0.0,-0.0,-1.0,0.0118446428093272,1.0,0.0
48.654090881347656,-17.232603073120117,-0.3003878593444824,-0.0,-0.0,-1.0,0.0294733771391336,2.0,0.0
48.780460357666016,-18.195642471313477,-0.2441284656524658,-0.0,-0.0,-1.0,0.0411302196541048,2.0,0.0
48.71149444580078,-17.922128677368164,-0.2558164596557617,-0.0,-0.0,-1.0,0.034422109352244,1.0,0.0
48.21018600463867,-17.118770599365234,-0.2594177722930908,-0.0,-0.0,-1.0,0.029061814117706,1.0,0.0
48.10528945922851,-16.957155227661133,-0.2603111267089844,-0.0,-0.0,-1.0,0.0314603742623202,2.0,0.0
48.64985656738281,-18.50085830688477,-0.2080099582672119,-0.0,-0.0,-1.0,0.0374836150117602,1.0,0.0
48.13977813720703,-18.940380096435547,-0.1199300289154052,-0.0,-0.0,-1.0,0.077888730528593,1.0,0.0
48.50104522705078,-17.660253524780273,-0.3347795009613037,-0.0,-0.0,-1.0,0.0471519503832272,1.0,0.0
48.49000549316406,-17.38045883178711,-0.3466267585754394,-0.0,-0.0,-1.0,0.031625270505289,1.0,0.0
48.31385040283203,-18.154359817504883,-0.2893316745758056,-0.0,-0.0,-1.0,0.0321859378949252,1.0,0.0
48.4376220703125,-17.856964111328125,-0.3178784847259521,-0.0,-0.0,-1.0,0.0411666212624528,1.0,0.0
48.26178741455078,-17.27481460571289,-0.323596715927124,-0.0,-0.0,-1.0,0.0260432357400212,1.0,0.0
48.06129455566406,-17.00959014892578,-0.3121311664581299,-0.0,-0.0,-1.0,0.0347268228164413,1.0,0.0
48.06206130981445,-18.54879379272461,-0.2411880493164062,-0.0,-0.0,-1.0,0.0374344838454312,1.0,0.0
47.91584777832031,-17.097307205200195,-0.289766788482666,-0.0,-0.0,-1.0,0.032169029178909,1.0,0.0
50.065338134765625,-17.019872665405273,-0.2973003387451172,-0.0,-0.0,-1.0,0.0435509226617288,1.0,0.0
49.79597473144531,-18.56288719177246,-0.250040054321289,-0.0,-0.0,-1.0,0.0194867268455313,1.0,0.0
49.955848693847656,-18.414295196533203,-0.2700119018554687,-0.0,-0.0,-1.0,0.0110114488189054,1.0,0.0
49.709434509277344,-17.246044158935547,-0.2518882751464844,-0.0,-0.0,-1.0,0.1264184143653743,2.0,0.0
48.98561096191406,-18.78009033203125,-0.1521477699279785,-0.0,-0.0,-1.0,0.0296730146378646,1.0,0.0
48.395721435546875,-19.209884643554688,-0.0802712440490722,-0.0,-0.0,-1.0,0.0397830843575146,1.0,0.0
48.394927978515625,-18.97735595703125,-0.0807967185974121,-0.0,-0.0,-1.0,0.0773573916997866,1.0,0.0
50.04683303833008,-18.640531539916992,-0.2996923923492431,-0.0,-0.0,-1.0,0.0153560307500628,1.0,0.0
50.07421112060547,-16.871097564697266,-0.3232641220092773,-0.0,-0.0,-1.0,0.0497793187609506,1.0,0.0
49.936492919921875,-18.78932762145996,-0.2854378223419189,-0.0,-0.0,-1.0,0.0151407015561579,1.0,0.0
48.87754821777344,-18.96917724609375,-0.1565778255462646,-0.0,-0.0,-1.0,0.0501605469876049,1.0,0.0
48.5533332824707,-19.146343231201172,-0.1167051792144775,-0.0,-0.0,-1.0,0.0339456857668314,1.0,0.0
48.26359558105469,-18.86412811279297,-0.0829291343688964,-0.0,-0.0,-1.0,0.1037732477780141,1.0,0.0
49.9715576171875,-17.857646942138672,-0.3539624214172363,-0.0,-0.0,-1.0,0.0344508223511077,1.0,0.0
50.01707458496094,-17.70477294921875,-0.3551247119903564,-0.0,-0.0,-1.0,0.0332132092819168,1.0,0.0
49.696414947509766,-17.286428451538086,-0.3069093227386474,-0.4733793970886807,0.8766103640913874,0.0864072680943115,0.1481466139548879,3.0,0.0
49.72056579589844,-17.440593719482422,-0.3135833740234375,-0.0,-0.0,-1.0,0.1046480248919747,1.0,0.0
49.28759002685547,-17.923717498779297,-0.2759726047515869,-0.0,-0.0,-1.0,0.0081999756039477,1.0,0.0
48.986610412597656,-18.2069034576416,-0.2490882873535156,-0.0,-0.0,-1.0,0.0314734573433412,1.0,0.0
48.590091705322266,-17.005268096923828,-0.1708631515502929,-0.0,-0.0,-1.0,0.0334908810247962,1.0,0.0
48.69588851928711,-18.386444091796875,-0.2206311225891113,-0.0,-0.0,-1.0,0.0523797476579788,1.0,0.0
48.13585662841797,-18.730348587036133,-0.1664168834686279,-0.0,-0.0,-1.0,0.0991422193102141,1.0,0.0
48.30804443359375,-18.547590255737305,-0.1805348396301269,-0.0,-0.0,-1.0,0.0643886380336189,1.0,0.0
48.08209991455078,-18.81808090209961,-0.1630873680114746,-0.0,-0.0,-1.0,0.0907527206512211,2.0,0.0
48.7125129699707,-17.266490936279297,-0.3030610084533691,-0.0,-0.0,-1.0,0.0294855148967544,1.0,0.0
48.479129791259766,-16.969850540161133,-0.2715716361999511,-0.0,-0.0,-1.0,0.029583988220624,1.0,0.0
48.519866943359375,-17.60101890563965,-0.2876920700073242,-0.0,-0.0,-1.0,0.0472405875092562,1.0,0.0
48.52771759033203,-17.138587951660156,-0.279926061630249,-0.0,-0.0,-1.0,0.0330017331269825,2.0,0.0
48.21073913574219,-17.970531463623047,-0.2606027126312256,-0.0,-0.0,-1.0,0.0409621308869935,1.0,0.0
48.3170166015625,-17.833343505859375,-0.2695848941802978,-0.0,-0.0,-1.0,0.0384392322382655,1.0,0.0
48.03691864013672,-18.209945678710938,-0.2465224266052246,-0.0,-0.0,-1.0,0.0526895634908729,2.0,0.0
48.21057891845703,-18.80186462402344,-0.0283653736114501,-0.0,-0.0,-1.0,0.1060621749991122,1.0,0.0
49.526214599609375,-16.990535736083984,-0.3491966724395752,-0.0,-0.0,-1.0,0.0556311561078447,1.0,0.0
48.87156677246094,-17.001220703125,-0.2784960269927978,-0.0,-0.0,-1.0,0.0362324189826654,1.0,0.0
48.7081298828125,-17.470056533813477,-0.2637238502502441,-0.0,-0.0,-1.0,0.0112283385465283,1.0,0.0
48.587669372558594,-17.118080139160156,-0.2484614849090576,-0.0,-0.0,-1.0,0.0353042881675779,1.0,0.0
48.33177947998047,-17.953189849853516,-0.2274162769317627,-0.0,-0.0,-1.0,0.0384157385982909,1.0,0.0
48.51054000854492,-17.764909744262695,-0.2448213100433349,-0.0,-0.0,-1.0,0.0509488643426921,1.0,0.0
48.16606903076172,-18.19776153564453,-0.2122857570648193,-0.0,-0.0,-1.0,0.0628513044357548,1.0,0.0
49.85430908203125,-17.547138214111328,-0.1715273857116699,-0.0,-0.0,-1.0,0.0531910911456946,1.0,0.0
49.673431396484375,-17.24510955810547,-0.1073691844940185,-0.0,-0.0,-1.0,0.1125810488193466,1.0,0.0
48.120853424072266,-19.287710189819336,-0.139862060546875,-0.0,-0.0,-1.0,0.0410080220776553,1.0,0.0
48.889404296875,-19.015687942504883,-0.1958179473876953,-0.0,-0.0,-1.0,0.0521873740197079,2.0,0.0
49.22773361206055,-19.124513626098633,-0.2182962894439697,-0.0,-0.0,-1.0,0.0301810678944295,1.0,0.0
49.638938903808594,-19.3017520904541,-0.2461144924163818,-0.0,-0.0,-1.0,0.0265541838273664,1.0,0.0
49.09788513183594,-18.99367904663086,-0.1649577617645263,-0.0,-0.0,-1.0,0.0268761072212796,2.0,0.0
49.91461944580078,-19.34337615966797,-0.2261445522308349,-0.0,-0.0,-1.0,0.0242786849441585,1.0,0.0
48.731014251708984,-18.14032554626465,-0.2214787006378173,-0.0,-0.0,-1.0,0.1166054844946388,1.0,0.0
49.93741607666016,-17.95365333557129,-0.3197662830352783,-0.0,-0.0,-1.0,0.0343091535229064,1.0,0.0
50.0839958190918,-17.841447830200195,-0.3318774700164795,-0.0,-0.0,-1.0,0.0322653338668043,2.0,0.0
48.76292419433594,-17.938800811767578,-0.2729945182800293,-0.0,-0.0,-1.0,0.0466581793091846,1.0,0.0
48.787742614746094,-18.19790267944336,-0.2757914066314697,-0.0,-0.0,-1.0,0.0400716131640586,2.0,0.0
49.05096435546875,-17.065994262695312,-0.2939612865447998,-0.0,-0.0,-1.0,0.0252626728312589,1.0,0.0
49.68070983886719,-17.20702362060547,-0.3455173969268799,-0.0,-0.0,-1.0,0.0623720608552291,1.0,0.0
49.80052947998047,-18.0157470703125,-0.3571093082427978,-0.0,-0.0,-1.0,0.0119595674621612,1.0,0.0
50.177772521972656,-17.908329010009766,-0.3875050544738769,-0.0,-0.0,-1.0,0.0129586549669855,1.0,0.0
48.5059814453125,-17.533662796020508,-0.2511417865753174,-0.0,-0.0,-1.0,0.051589222052823,1.0,0.0
49.049339294433594,-16.933818817138672,-0.2834210395812988,-0.0,-0.0,-1.0,0.0292754612649388,1.0,0.0
49.83128356933594,-17.416929244995117,-0.4010229110717773,-0.0,-0.0,-1.0,0.0539210863888099,2.0,0.0
48.85865783691406,-19.089929580688477,-0.261606216430664,-0.0,-0.0,-1.0,0.0498750665351892,1.0,0.0
48.83724594116211,-18.834362030029297,-0.2593603134155273,-0.0,-0.0,-1.0,0.0411108091822125,1.0,0.0
49.08741760253906,-18.227882385253903,-0.2957625389099121,-0.0,-0.0,-1.0,0.0269694702141635,2.0,0.0
48.1381950378418,-18.55092430114746,-0.1615715026855468,-0.0,-0.0,-1.0,0.0736298500119673,2.0,0.0
48.33035659790039,-18.400222778320312,-0.1883983612060547,-0.0,-0.0,-1.0,0.0525179066647558,1.0,0.0
48.480106353759766,-17.68117332458496,-0.212895393371582,-0.0,-0.0,-1.0,0.0546453352849124,1.0,0.0
50.03191757202149,-18.726703643798828,-0.3548421859741211,-0.0,-0.0,-1.0,0.0138869762980682,1.0,0.0
49.481449127197266,-18.78323745727539,-0.2854518890380859,-0.0,-0.0,-1.0,0.0140221355205214,2.0,0.0
48.90251922607422,-19.33612823486328,-0.2219929695129394,-0.0,-0.0,-1.0,0.0303830146688162,1.0,0.0
49.197078704833984,-18.995689392089844,-0.253119945526123,-0.0,-0.0,-1.0,0.0188939734962065,1.0,0.0
48.62557220458984,-18.92052459716797,-0.1784801483154297,-0.0,-0.0,-1.0,0.0614947156343309,2.0,0.0
48.23017120361328,-19.19817352294922,-0.1332101821899414,-0.0,-0.0,-1.0,0.0448487199264448,2.0,0.0
49.80241775512695,-17.883962631225586,-0.410466194152832,-0.0,-0.0,-1.0,0.0152248755911941,1.0,0.0
50.02384567260742,-17.641672134399414,-0.4251365661621094,-0.0,-0.0,-1.0,0.0341349152871013,1.0,0.0
49.7962760925293,-16.915348052978516,-0.3648772239685058,-0.0,-0.0,-1.0,0.0535124901516312,1.0,0.0
48.6508903503418,-18.190996170043945,-0.2899446487426758,-0.0,-0.0,-1.0,0.0452585431665065,1.0,0.0
48.85797882080078,-18.06777000427246,-0.3085012435913086,-0.0,-0.0,-1.0,0.0917316675666318,1.0,0.0
48.22577667236328,-18.42819595336914,-0.2510852813720703,-0.0,-0.0,-1.0,0.0478490650465478,1.0,0.0
47.714656829833984,-18.730945587158203,-0.2050991058349609,-0.0,-0.0,-1.0,0.0217744363880578,2.0,0.0
49.55668640136719,-18.397594451904297,-0.3150715827941894,-0.0,-0.0,-1.0,0.010490891295644,1.0,0.0
49.909385681152344,-18.440221786499023,-0.3430294990539551,-0.0,-0.0,-1.0,0.0096131035823004,2.0,0.0
50.17298889160156,-18.365081787109375,-0.348029613494873,-0.0,-0.0,-1.0,0.0081193849335128,2.0,0.0
47.887203216552734,-18.558841705322266,-0.2373976707458496,-0.0,-0.0,-1.0,0.0375015765398932,2.0,0.0
48.57258224487305,-18.328693389892575,-0.2446660995483398,-0.0,-0.0,-1.0,0.055464107275832,1.0,0.0
49.116676330566406,-18.341894149780273,-0.279850959777832,-0.0,-0.0,-1.0,0.0282311113767759,1.0,0.0
48.049564361572266,-18.324413299560547,-0.2121691703796386,-0.0,-0.0,-1.0,0.0372141737299852,1.0,0.0
48.39952850341797,-19.29987335205078,-0.0661416053771972,-0.0,-0.0,-1.0,0.0346491441115656,1.0,0.0
48.4017333984375,-18.46027374267578,-0.1872296333312988,-0.0,-0.0,-1.0,0.0553228728988893,1.0,0.0
48.613624572753906,-18.382862091064453,-0.1893572807312011,-0.0,-0.0,-1.0,0.0592559510362308,1.0,0.0
49.00059509277344,-18.420299530029297,-0.2203826904296875,-0.0,-0.0,-1.0,0.0326664262995328,1.0,0.0
49.39167022705078,-18.457592010498047,-0.2517361640930176,-0.0,-0.0,-1.0,0.0133987946996073,1.0,0.0
49.85685729980469,-18.429058074951172,-0.2782144546508789,-0.0,-0.0,-1.0,0.0097800915199846,1.0,0.0
47.79943084716797,-18.593597412109375,-0.168400764465332,-0.0,-0.0,-1.0,0.0390956504808349,1.0,0.0
48.05207824707031,-18.44324111938477,-0.1618871688842773,-0.0,-0.0,-1.0,0.0470443567386664,2.0,0.0
50.1981086730957,-18.905467987060547,-0.3341116905212402,-0.0,-0.0,-1.0,0.0119598568019698,1.0,0.0
50.20023727416992,-19.19227600097656,-0.3456964492797851,-0.0,-0.0,-1.0,0.0205500879085682,2.0,0.0
48.13422393798828,-19.10150909423828,-0.1142072677612304,-0.0,-0.0,-1.0,0.0431836905450178,2.0,0.0
48.031829833984375,-19.3295955657959,-0.1032805442810058,-0.0,-0.0,-1.0,0.0355468955451442,2.0,0.0
48.46902847290039,-18.90587615966797,-0.163210391998291,-0.0,-0.0,-1.0,0.0488992337504813,2.0,0.0
48.655269622802734,-18.72401428222656,-0.1892256736755371,-0.0,-0.0,-1.0,0.0348302793459705,1.0,0.0
49.05221176147461,-18.554285049438477,-0.2496161460876464,0.4235200620682041,-0.0170988531268694,-0.9057253370903842,0.0147436150844015,5.0,0.0
49.29966735839844,-18.306957244873047,-0.285036563873291,-0.0,-0.0,-1.0,0.0102154726160304,1.0,0.0
49.609771728515625,-17.545438766479492,-0.3235507011413574,-0.0,-0.0,-1.0,0.035729656265061,1.0,0.0
49.64158248901367,-18.02486801147461,-0.335820198059082,0.3179575335862316,0.7027645961264777,-0.6364156890483996,0.0124864510242051,3.0,0.0
49.744720458984375,-17.15114402770996,-0.3405909538269043,-0.4920329299100373,0.8300775568277755,-0.2624401751542154,0.068878728793547,3.0,0.0
47.971397399902344,-18.46847343444824,-0.0867328643798828,-0.0,-0.0,-1.0,0.0312926859093399,1.0,0.0
47.927703857421875,-18.816661834716797,-0.078381061553955,-0.0,-0.0,-1.0,0.1036913817341574,1.0,0.0
47.76930236816406,-18.100418090820312,-0.0541005134582519,-0.0,-0.0,-1.0,0.0522564865472031,1.0,0.0
48.144081115722656,-17.753158569335938,-0.1196398735046386,-0.0,-0.0,-1.0,0.0400834924439383,1.0,0.0
48.09490203857422,-17.991968154907227,-0.1098232269287109,-0.0,-0.0,-1.0,0.060631797430441,1.0,0.0
48.40141296386719,-17.232336044311523,-0.1677751541137695,-0.0,-0.0,-1.0,0.0368839724492061,1.0,0.0
48.26100158691406,-17.626819610595703,-0.1404480934143066,-0.0,-0.0,-1.0,0.0614615149513033,1.0,0.0
48.539947509765625,-17.02532196044922,-0.1935644149780273,-0.0,-0.0,-1.0,0.0328713684023512,1.0,0.0
49.722904205322266,-19.318998336791992,-0.0450038909912109,-0.0,-0.0,-1.0,0.0248214671757624,1.0,0.0
48.26473236083984,-18.82075309753418,0.0067133903503417,-0.0,-0.0,-1.0,0.1168862911545659,1.0,1.0
48.26140975952149,-19.13658905029297,0.0187044143676757,-0.0,-0.0,-1.0,0.1131476459730101,1.0,1.0
48.52318572998047,-18.395105361938477,-0.044631004333496,-0.0,-0.0,-1.0,0.1605567615090599,1.0,0.0
48.84488677978515,-18.17851448059082,-0.0970830917358398,-0.0,-0.0,-1.0,0.141714474457815,1.0,0.0
49.43578338623047,-17.83661460876465,-0.1910924911499023,-0.0,-0.0,-1.0,0.0141411158803371,1.0,0.0
50.0518684387207,-17.783233642578125,-0.2786164283752441,-0.0,-0.0,-1.0,0.0325101001470173,1.0,0.0
50.184513092041016,-17.500732421875,-0.3063125610351562,-0.0,-0.0,-1.0,0.0269207406022216,1.0,0.0
49.859130859375,-18.083568572998047,-0.2847881317138672,-0.0,-0.0,-1.0,0.0107996562592523,1.0,0.0
50.10862350463867,-17.88677978515625,-0.3330206871032715,-0.0,-0.0,-1.0,0.0322653338668043,1.0,0.0
49.421119689941406,-19.195680618286133,-0.0525074005126953,-0.0,-0.0,-1.0,0.028719841968061,1.0,0.0
47.895450592041016,-19.227941513061523,-0.1148905754089355,-0.0,-0.0,-1.0,0.0908130136749692,1.0,0.0
47.83675384521485,-19.02140235900879,-0.1095342636108398,0.9026369213769808,-0.1760948099771031,-0.3927304496295317,0.0155563337021161,3.0,0.0
48.26838302612305,-18.901039123535156,-0.145176887512207,0.8746150635453407,-0.1130976477247168,-0.4714418444503159,0.0876624510446264,3.0,0.0
48.819435119628906,-18.810544967651367,-0.1909170150756836,-0.0,-0.0,-1.0,0.0411108091822125,1.0,0.0
48.96065139770508,-18.665626525878903,-0.2025179862976074,-0.0,-0.0,-1.0,0.0098220656476996,1.0,0.0
50.09138870239258,-18.58331871032715,-0.2969799041748047,-0.0,-0.0,-1.0,0.0152406610667115,1.0,0.0
48.224647521972656,-18.853479385375977,-0.0205612182617187,-0.0,-0.0,-1.0,0.1029480664492221,1.0,0.0
48.91509246826172,-17.775928497314453,-0.2781143188476562,-0.0,-0.0,-1.0,0.0164278430601948,1.0,0.0
48.295166015625,-18.739160537719727,-0.0593762397766113,-0.0,-0.0,-1.0,0.1273210173414114,2.0,0.0
0.0,0.0,0.0,0.0,0.0,0.0,0.0,0.0,0.0
0.0,0.0,0.0,0.0,0.0,0.0,0.0,0.0,0.0
0.0,0.0,0.0,0.0,0.0,0.0,0.0,0.0,0.0
0.0,0.0,0.0,0.0,0.0,0.0,0.0,0.0,0.0
0.0,0.0,0.0,0.0,0.0,0.0,0.0,0.0,0.0
0.0,0.0,0.0,0.0,0.0,0.0,0.0,0.0,0.0
0.0,0.0,0.0,0.0,0.0,0.0,0.0,0.0,0.0
0.0,0.0,0.0,0.0,0.0,0.0,0.0,0.0,0.0
0.0,0.0,0.0,0.0,0.0,0.0,0.0,0.0,0.0
0.0,0.0,0.0,0.0,0.0,0.0,0.0,0.0,0.0
0.0,0.0,0.0,0.0,0.0,0.0,0.0,0.0,0.0
0.0,0.0,0.0,0.0,0.0,0.0,0.0,0.0,0.0
0.0,0.0,0.0,0.0,0.0,0.0,0.0,0.0,0.0
0.0,0.0,0.0,0.0,0.0,0.0,0.0,0.0,0.0
0.0,0.0,0.0,0.0,0.0,0.0,0.0,0.0,0.0
0.0,0.0,0.0,0.0,0.0,0.0,0.0,0.0,0.0
0.0,0.0,0.0,0.0,0.0,0.0,0.0,0.0,0.0
0.0,0.0,0.0,0.0,0.0,0.0,0.0,0.0,0.0
0.0,0.0,0.0,0.0,0.0,0.0,0.0,0.0,0.0
0.0,0.0,0.0,0.0,0.0,0.0,0.0,0.0,0.0
0.0,0.0,0.0,0.0,0.0,0.0,0.0,0.0,0.0
0.0,0.0,0.0,0.0,0.0,0.0,0.0,0.0,0.0
0.0,0.0,0.0,0.0,0.0,0.0,0.0,0.0,0.0
0.0,0.0,0.0,0.0,0.0,0.0,0.0,0.0,0.0
0.0,0.0,0.0,0.0,0.0,0.0,0.0,0.0,0.0
0.0,0.0,0.0,0.0,0.0,0.0,0.0,0.0,0.0
0.0,0.0,0.0,0.0,0.0,0.0,0.0,0.0,0.0
0.0,0.0,0.0,0.0,0.0,0.0,0.0,0.0,0.0
0.0,0.0,0.0,0.0,0.0,0.0,0.0,0.0,0.0
0.0,0.0,0.0,0.0,0.0,0.0,0.0,0.0,0.0
0.0,0.0,0.0,0.0,0.0,0.0,0.0,0.0,0.0
0.0,0.0,0.0,0.0,0.0,0.0,0.0,0.0,0.0
0.0,0.0,0.0,0.0,0.0,0.0,0.0,0.0,0.0
0.0,0.0,0.0,0.0,0.0,0.0,0.0,0.0,0.0
0.0,0.0,0.0,0.0,0.0,0.0,0.0,0.0,0.0
0.0,0.0,0.0,0.0,0.0,0.0,0.0,0.0,0.0
0.0,0.0,0.0,0.0,0.0,0.0,0.0,0.0,0.0
0.0,0.0,0.0,0.0,0.0,0.0,0.0,0.0,0.0
0.0,0.0,0.0,0.0,0.0,0.0,0.0,0.0,0.0
0.0,0.0,0.0,0.0,0.0,0.0,0.0,0.0,0.0
