x,y,z,nx,ny,nz,curvature,density,label
43.665985107421875,4.003975868225098,-1.413905382156372,0.5033387408808155,0.3743544299139437,-0.7787867954275557,0.0670271526243608,4.0,0.0
43.832374572753906,4.378629207611084,-1.428553342819214,-0.0440906885347842,-0.9939560578333492,-0.1005353981486934,0.116545823732978,3.0,0.0
43.7465705871582,4.823299884796143,-1.409210443496704,0.2714925491378685,-0.8910366722920647,-0.363793134065647,0.1119701189777631,4.0,0.0
44.065189361572266,5.588093280792236,-1.4444949626922607,-0.0,-0.0,-1.0,0.1198038153159394,1.0,0.0
43.383506774902344,3.6581625938415527,-1.384685754776001,-0.0,-0.0,-1.0,0.063325525533425,1.0,0.0
43.39549255371094,3.855886936187744,-1.3811423778533936,-0.0,-0.0,-1.0,0.0926042980217337,2.0,0.0
43.07661819458008,3.2796077728271484,-1.3551013469696045,-0.0,-0.0,-1.0,0.0651396618320186,2.0,0.0
43.13901901245117,3.5233583450317383,-1.355980634689331,-0.0,-0.0,-1.0,0.0371969276136384,2.0,0.0
45.16167449951172,3.505483627319336,-1.324171543121338,-0.1972510866143602,-0.200772299330686,-0.9595741204570511,0.0600057406986012,5.0,0.0
44.840179443359375,3.3390607833862305,-1.2973897457122805,-0.0,-0.0,-1.0,0.0705186304702088,2.0,0.0
44.572898864746094,3.2346410751342773,-1.2738559246063232,0.8186124698354053,-0.4345443582072273,-0.375559349477878,0.138794231168376,4.0,0.0
44.65291213989258,4.422519683837891,-1.3181142807006836,-0.0,-0.0,-1.0,0.0533356935125298,1.0,0.0
44.51422500610352,3.9368772506713863,-1.340111494064331,-0.0,-0.0,-1.0,0.0940625833397503,2.0,0.0
44.55335998535156,4.204261779785156,-1.32399320602417,-0.0,-0.0,-1.0,0.1094786658639639,2.0,0.0
44.070499420166016,3.4591054916381836,-1.3347020149230957,-0.0,-0.0,-1.0,0.0234531572475638,1.0,0.0
44.19427490234375,3.683913230895996,-1.3286068439483645,-0.0,-0.0,-1.0,0.0705329206506972,2.0,0.0
43.827003479003906,3.2583694458007812,-1.3281207084655762,-0.0,-0.0,-1.0,0.044460374649937,1.0,0.0
43.981407165527344,4.857081413269043,-1.2206037044525146,-0.0,-0.0,-1.0,0.2522457682881966,2.0,0.0
44.35462188720703,3.2088871002197266,-1.3197327852249146,-0.2892350507007609,0.3139344209465297,-0.904316462744705,0.0892763868902744,4.0,0.0
44.39987564086914,4.629575729370117,-1.4104896783828735,-0.0,-0.0,-1.0,0.0539182542595882,1.0,0.0
44.48087692260742,4.250351905822754,-1.396215558052063,-0.0,-0.0,-1.0,0.1191124651930118,2.0,0.0
44.57597351074219,3.915047645568848,-1.3860329389572144,-0.0,-0.0,-1.0,0.0682684639759531,2.0,0.0
44.5360107421875,3.451737403869629,-1.3537200689315796,-0.0,-0.0,-1.0,0.0853000990360506,2.0,0.0
44.673797607421875,5.48089599609375,-1.490463137626648,-0.0,-0.0,-1.0,0.0587980739220053,1.0,0.0
44.62933349609375,5.085169792175293,-1.4621058702468872,-0.0,-0.0,-1.0,0.0581708018591456,2.0,0.0
44.69187927246094,4.831043243408203,-1.4534846544265747,-0.0,-0.0,-1.0,0.0603835664870516,1.0,0.0
44.639198303222656,4.201605796813965,-1.4100383520126345,-0.2369702461614342,0.914261629429404,-0.3285890676624531,0.1224374382890482,4.0,0.0
44.75075912475586,5.459416389465332,-1.4973162412643433,-0.0,-0.0,-1.0,0.0578870910613154,1.0,0.0
44.80109405517578,5.2105207443237305,-1.4877656698226929,-0.0,-0.0,-1.0,0.1085225846724285,2.0,0.0
43.12176132202149,3.2333498001098633,-1.3972270488739014,-0.5988379485124666,0.5028532458990923,-0.6233231300939569,0.0678690826474525,4.0,0.0
43.19544982910156,3.547548294067383,-1.4001305103302002,-0.0,-0.0,-1.0,0.0284364883540396,2.0,0.0
43.47992706298828,3.617043495178222,-1.4248268604278564,-0.0,-0.0,-1.0,0.0905556423842829,1.0,0.0
43.45240783691406,3.8541507720947266,-1.4197471141815186,-0.0,-0.0,-1.0,0.0947123013886729,2.0,0.0
43.8094482421875,4.131426811218262,-1.4489214420318604,-0.0,-0.0,-1.0,0.0330751490024753,1.0,0.0
43.76984405517578,4.826769828796387,-1.438600778579712,0.2064453626913243,-0.9772752519878256,0.048097755408957,0.0930014322396825,3.0,0.0
43.95038986206055,4.432674407958984,-1.4585988521575928,-0.0,-0.0,-1.0,0.0964769035724453,2.0,0.0
44.041717529296875,5.246106147766113,-1.4594857692718506,-0.0,-0.0,-1.0,0.1009030388365487,1.0,0.0
44.39741516113281,4.915239334106445,-1.4945037364959717,-0.0,-0.0,-1.0,0.0550821296045491,2.0,0.0
44.157020568847656,5.611095428466797,-1.466986894607544,0.373901314636131,0.6989114920136771,-0.6096888823363836,0.1327933057548597,3.0,0.0
44.47553253173828,5.296215057373047,-1.4983646869659424,-0.0,-0.0,-1.0,0.0525615866860408,2.0,0.0
44.45502471923828,5.0121965408325195,-1.498875856399536,-0.0,-0.0,-1.0,0.0395256172849585,2.0,0.0
44.3969612121582,3.299964904785156,-1.3150081634521484,-0.8031177780788359,-0.2362518302613966,-0.5469798051407877,0.0473024108838931,3.0,0.0
44.357025146484375,3.1497087478637695,-1.3044753074645996,-0.0,-0.0,-1.0,0.0892763868902744,1.0,0.0
44.473201751708984,3.5952539443969727,-1.3356091976165771,-0.7517417420228482,-0.568213006537592,0.3346913989064614,0.0184258659035471,5.0,0.0
44.49326705932617,3.998214721679687,-1.355422019958496,0.3632031476083265,-0.8661028662616895,-0.3434374741065543,0.1111055406234838,3.0,0.0
44.64445114135742,4.619744300842285,-1.3987650871276855,0.0129201491394976,0.4210781462572273,-0.906932337327758,0.1107770427476002,4.0,0.0
44.70357131958008,4.934679985046387,-1.4192142486572266,-0.1960471263137516,-0.7884807926460043,0.5829781847483214,0.0439109020443346,3.0,0.0
44.32688903808594,3.939454078674317,-1.3359310626983645,0.8328644233051703,-0.0429628995739485,-0.5518070692304922,0.0822696911632544,3.0,0.0
44.14479064941406,4.49257755279541,-1.3421616554260254,-0.0,-0.0,-1.0,0.0991026973251611,1.0,0.0
44.43475341796875,4.188969612121582,-1.3579936027526855,0.710996841513951,-0.5962517104828466,-0.372783300462166,0.1132980175142762,4.0,0.0
43.9847526550293,5.034001350402832,-1.350499153137207,-0.0,-0.0,-1.0,0.2041234033783271,1.0,0.0
44.60022735595703,4.748727798461914,-1.400146484375,-0.0,-0.0,-1.0,0.0581069185774826,1.0,0.0
44.55965805053711,4.533884048461914,-1.3862314224243164,-0.0940256845118314,-0.1926170447342961,-0.9767588467630628,0.0669488148480914,6.0,0.0
44.64807891845703,5.383904933929443,-1.4344027042388916,-0.0,-0.0,-1.0,0.0614421629415081,1.0,0.0
44.73311996459961,5.148852348327637,-1.4321403503417969,-0.0,-0.0,-1.0,0.0740076923773905,1.0,0.0
42.948360443115234,5.469964504241943,-1.5748802423477173,-0.0,-0.0,-1.0,0.0222899253682742,1.0,0.0
42.94129180908203,5.5791497230529785,-1.5644339323043823,-0.0,-0.0,-1.0,0.0223814900849548,2.0,0.0
44.30672073364258,3.166621208190918,-1.330836057662964,-0.0,-0.0,-1.0,0.0882849192672174,1.0,0.0
44.3793830871582,3.7902517318725586,-1.353177785873413,0.7509432421678477,-0.6596662681433408,0.0304082507928241,0.0469255743099793,4.0,0.0
44.456085205078125,3.4945831298828125,-1.3550753593444824,0.3327545358653082,-0.299566387709463,-0.8941668738081092,0.0485306075115423,3.0,0.0
44.53450775146485,4.114145755767822,-1.378424882888794,-0.9507872136714276,0.1614558244767325,-0.2644535707103642,0.1539436208466764,3.0,0.0
44.47020721435547,3.858691692352295,-1.365067958831787,0.839221662757229,-0.2871160331899692,-0.4618131486264201,0.0663359177169372,3.0,0.0
43.91381072998047,4.975367546081543,-1.3291597366333008,-0.6624129717489616,0.0257317381522353,-0.7486968228264187,0.1951074473194852,4.0,0.0
44.5417594909668,4.4335737228393555,-1.387014627456665,0.0689135239058499,0.1085159937622389,-0.9917031840831568,0.0714592480024923,3.0,0.0
44.79582977294922,4.72769832611084,-1.423245191574097,0.837022838277605,-0.3042786446519879,-0.45476067839079,0.0834472816371424,3.0,0.0
44.66892623901367,5.44302225112915,-1.427370548248291,-0.0,-0.0,-1.0,0.0597488385739223,1.0,0.0
44.76240539550781,5.335297584533691,-1.4351646900177002,-0.0,-0.0,-1.0,0.0849229617511847,2.0,0.0
44.9915885925293,5.019148826599121,-1.4529941082000732,-0.0,-0.0,-1.0,0.0838781402460553,1.0,0.0
45.02349090576172,5.622795104980469,-1.4726769924163818,-0.0,-0.0,-1.0,0.054629835425891,2.0,0.0
44.06135559082031,3.3503904342651367,-1.3775784969329834,-0.6563288922110797,0.725708820315003,-0.2063470217036909,0.0434823094244339,3.0,0.0
43.93482208251953,3.1851742267608643,-1.3687138557434082,-0.6907057908075761,0.5703965412904091,-0.4444921779163497,0.03562147854003,4.0,0.0
44.18931579589844,3.612332820892334,-1.3833587169647217,-0.0,-0.0,-1.0,0.0516093489687447,2.0,0.0
44.334014892578125,4.027512550354004,-1.3862571716308594,0.1264111138759296,0.6427831575223346,-0.7555461883262096,0.0700279835047277,5.0,0.0
44.58000183105469,4.650053024291992,-1.3961677551269531,-0.0,-0.0,-1.0,0.0556253459357229,2.0,0.0
44.578704833984375,4.388434886932373,-1.4041190147399902,-0.0,-0.0,-1.0,0.0839719853039879,2.0,0.0
44.82569885253906,5.190912246704102,-1.4106414318084717,-0.0,-0.0,-1.0,0.1276269857929121,1.0,0.0
44.73797607421875,4.935094356536865,-1.4070839881896973,0.3320041985194598,-0.0960625156170379,-0.9383737023482582,0.0858470157001396,3.0,0.0
44.84302520751953,5.264900207519531,-1.410775661468506,-0.0,-0.0,-1.0,0.1121938748260738,1.0,0.0
44.56510925292969,3.7264809608459473,-1.3283097743988037,-0.0,-0.0,-1.0,0.1098663121755671,2.0,0.0
44.55216598510742,3.492594957351685,-1.328942060470581,-0.0,-0.0,-1.0,0.0359871061266752,2.0,0.0
44.72931671142578,3.895493030548096,-1.3468401432037354,-0.9649180980566852,0.262041818543163,-0.0163447048692033,0.071550193453298,6.0,0.0
44.53041458129883,4.517786502838135,-1.3812438249588013,0.0728923484797482,-0.4136057130655849,-0.907533481284639,0.0490018047012659,3.0,0.0
44.48463821411133,4.397765636444092,-1.3673733472824097,0.4378940606183217,-0.6004934062940797,-0.6690713419901729,0.0686409826303073,3.0,0.0
44.45064163208008,3.757385730743408,-1.3223479986190796,0.5757869457834005,-0.8118304108192743,-0.0969576048303173,0.0613188516109241,4.0,0.0
44.61648941040039,4.238467693328857,-1.3748818635940552,-0.0,-0.0,-1.0,0.1090100554316809,2.0,0.0
44.53279495239258,3.939424991607666,-1.344767928123474,-0.0,-0.0,-1.0,0.0952859416954784,2.0,0.0
44.46907806396485,3.6371588706970215,-1.3174413442611694,-0.0,-0.0,-1.0,0.0917218129089069,2.0,0.0
44.517677307128906,3.276775360107422,-1.2014966011047363,-0.0,-0.0,-1.0,0.130304870008236,1.0,0.0
44.54279327392578,3.743499755859375,-1.2561190128326416,-0.0,-0.0,-1.0,0.1519933307947561,1.0,0.0
44.49409484863281,4.214071273803711,-1.305644989013672,-0.0,-0.0,-1.0,0.1056468013976762,1.0,0.0
44.553070068359375,4.053993225097656,-1.292106866836548,-0.0,-0.0,-1.0,0.1399195687766526,2.0,0.0
43.94184875488281,4.594160079956055,-1.306166648864746,-0.0,-0.0,-1.0,0.105744424028358,1.0,0.0
44.39067840576172,4.475862503051758,-1.32741379737854,-0.0,-0.0,-1.0,0.0696402554919133,2.0,0.0
43.73653793334961,4.856475830078125,-1.3206610679626465,-0.0,-0.0,-1.0,0.1466779651000755,1.0,0.0
43.84611129760742,5.150362014770508,-1.3630623817443848,-0.0,-0.0,-1.0,0.0855844196683969,1.0,0.0
44.00608825683594,5.510051727294922,-1.416961431503296,-0.0,-0.0,-1.0,0.0984721794039702,1.0,0.0
44.40552520751953,5.3479461669921875,-1.4286930561065674,-0.0,-0.0,-1.0,0.051476134366418,1.0,0.0
43.978755950927734,3.766752243041992,-1.3801684379577637,-0.0,-0.0,-1.0,0.0727746331855286,1.0,0.0
44.050479888916016,3.703189849853515,-1.377058029174805,-0.0,-0.0,-1.0,0.0760076828715009,2.0,0.0
43.5379524230957,4.289106369018555,-1.4173617362976074,-0.0,-0.0,-1.0,0.037901151808641,1.0,0.0
42.87794494628906,4.7672271728515625,-1.4349360466003418,-0.0,-0.0,-1.0,0.0464979659077155,2.0,0.0
43.15336608886719,4.685857772827148,-1.4431147575378418,-0.0,-0.0,-1.0,0.0625681291485194,2.0,0.0
42.750301361083984,5.112693786621094,-1.4725894927978516,-0.5667776143544427,0.792078923722554,0.2266585856772408,0.0202044683142636,3.0,0.0
42.78717803955078,3.621757507324219,-1.2759056091308594,-0.0,-0.0,-1.0,0.1390516839794594,2.0,0.0
44.01953125,3.445518493652344,-1.341137409210205,-0.0,-0.0,-1.0,0.0334864385976845,2.0,0.0
43.382545471191406,3.7767601013183594,-1.338599443435669,-0.0942872354307312,0.988678435412014,-0.116725612382551,0.0907784471909277,3.0,0.0
43.76099395751953,3.857959747314453,-1.3764300346374512,-0.0,-0.0,-1.0,0.0449289886192903,1.0,0.0
43.13063049316406,4.387424468994141,-1.4017581939697266,-0.0,-0.0,-1.0,0.0601752746881554,1.0,0.0
43.04651641845703,3.656789779663086,-1.3256125450134275,-0.0,-0.0,-1.0,0.0693717714019349,1.0,0.0
43.23991775512695,3.4581546783447266,-1.3117682933807373,-0.0,-0.0,-1.0,0.0360809014536609,2.0,0.0
43.5484619140625,3.342130661010742,-1.3175742626190186,-0.0,-0.0,-1.0,0.0595000295914106,2.0,0.0
42.73353958129883,4.088706970214844,-1.3638794422149658,-0.0,-0.0,-1.0,0.0830841499632262,1.0,0.0
42.891807556152344,3.9934864044189458,-1.3614625930786133,0.0813531110364186,0.9923982818226575,-0.092343497660275,0.0498782399034083,3.0,0.0
43.06359100341797,3.334228515625,-1.284330129623413,-0.0,-0.0,-1.0,0.0678909038546743,1.0,0.0
43.39037322998047,3.1758899688720703,-1.2854671478271484,-0.0,-0.0,-1.0,0.034760740922099,1.0,0.0
42.850128173828125,3.649988174438477,-1.3136413097381592,-0.0,-0.0,-1.0,0.1234506985207013,1.0,0.0
42.734886169433594,3.963003158569336,-1.349769115447998,-0.0,-0.0,-1.0,0.0565371881072729,2.0,0.0
43.07371520996094,4.326879501342773,-1.321716547012329,-0.0,-0.0,-1.0,0.0651261939797814,1.0,0.0
43.31927490234375,4.224918365478516,-1.3243358135223389,-0.0,-0.0,-1.0,0.0856323369904768,1.0,0.0
43.56105422973633,4.07537841796875,-1.32047700881958,-0.0,-0.0,-1.0,0.0759236742624777,1.0,0.0
43.566463470458984,3.73237419128418,-1.2742094993591309,-0.0,-0.0,-1.0,0.0648455350355923,1.0,0.0
43.74748992919922,3.6970272064208984,-1.2821054458618164,-0.0,-0.0,-1.0,0.0638975092052321,1.0,0.0
43.8762092590332,3.665111541748047,-1.286891222000122,-0.0,-0.0,-1.0,0.1198316903552272,1.0,0.0
44.29347610473633,5.386745452880859,-1.4915835857391355,-0.0,-0.0,-1.0,0.1161087098222414,2.0,0.0
43.834320068359375,4.875469207763672,-1.402249097824097,-0.5326461244413577,0.2635229775256764,-0.804265967471957,0.1735618259610072,3.0,0.0
44.13060760498047,4.360462188720703,-1.36515212059021,-0.6155436104767311,0.2175304417715717,-0.757487010122243,0.1443629745319921,4.0,0.0
43.50550842285156,5.337583541870117,-1.5283868312835691,-0.0,-0.0,-1.0,0.0242091421417845,1.0,0.0
43.52305603027344,4.762079238891602,-1.4769294261932373,-0.0,-0.0,-1.0,0.0650982784361944,2.0,0.0
43.82471466064453,4.418912887573242,-1.4750325679779053,0.6435229902019166,-0.215050500979809,-0.734596108831184,0.0878444067663719,4.0,0.0
43.660213470458984,4.503229141235352,-1.4665577411651611,-0.0,-0.0,-1.0,0.0282863885948701,2.0,0.0
43.86797332763672,4.126127243041992,-1.452627420425415,-0.0,-0.0,-1.0,0.0270235462634344,2.0,0.0
43.82832336425781,3.715730667114258,-1.411391019821167,-0.664121889248006,-0.1431407146875102,-0.7337934668695326,0.0814000199785215,3.0,0.0
43.67888641357422,3.1388607025146484,-1.3442261219024658,-0.0,-0.0,-1.0,0.0669998113970142,1.0,0.0
42.738807678222656,3.938177108764648,-1.4681594371795654,-0.0,-0.0,-1.0,0.0574627192969182,1.0,0.0
42.9447135925293,3.23238754272461,-1.4014017581939695,-0.0769668493455519,0.2963084412201855,-0.9519860354876446,0.0498864226359087,3.0,0.0
44.69865798950195,5.083019256591797,-1.4754741191864014,-0.0,-0.0,-1.0,0.0781731328262762,1.0,0.0
45.05718231201172,3.9933910369873047,-1.344794511795044,-0.0,-0.0,-1.0,0.0306681022793274,1.0,0.0
44.77824401855469,4.249094009399414,-1.3684799671173096,-0.0,-0.0,-1.0,0.0291060960618478,1.0,0.0
44.188720703125,5.359991073608398,-1.4959394931793213,-0.0,-0.0,-1.0,0.0882981720054528,1.0,0.0
44.432151794433594,4.207454681396484,-1.3512656688690186,0.710996841513951,-0.5962517104828466,-0.372783300462166,0.0801535100827952,4.0,0.0
44.21937561035156,4.434881210327148,-1.374242067337036,-0.0,-0.0,-1.0,0.1013111058421419,1.0,0.0
44.01164245605469,4.681079864501953,-1.4000718593597412,-0.0,-0.0,-1.0,0.104131142304861,1.0,0.0
44.980831146240234,5.501007080078125,-1.4538466930389404,-0.0,-0.0,-1.0,0.0644354920590033,2.0,0.0
44.183258056640625,3.5496997833251953,-1.3727736473083496,-0.7451210856415892,-0.5592424764681363,-0.3633764167445177,0.0475546192542482,4.0,0.0
44.02299499511719,3.89179801940918,-1.3989062309265137,-0.0,-0.0,-1.0,0.0320099496202997,2.0,0.0
43.91930389404297,4.180841445922852,-1.4242959022521973,-0.3306118485131856,-0.3406761492688956,-0.8801338346763016,0.0286412058873147,3.0,0.0
43.697410583496094,4.271270751953125,-1.416024684906006,0.3828901333836187,0.6314579593042299,-0.6742818337971241,0.0460286051811497,3.0,0.0
43.59711837768555,4.627590179443359,-1.4508633613586426,0.8697361660898458,0.385628098934353,-0.3079772243326006,0.0572367814118535,3.0,0.0
43.37928771972656,5.019411087036133,-1.4810190200805664,0.7629125964892253,0.0329005074959475,-0.6456639425619004,0.0566333534014085,3.0,0.0
43.389503479003906,5.419147491455078,-1.531810283660889,-0.0,-0.0,-1.0,0.02919224380065,1.0,0.0
43.143409729003906,4.785404205322266,-1.432331085205078,-0.0,-0.0,-1.0,0.0624464086753351,1.0,0.0
44.19639587402344,3.270000457763672,-1.3413124084472656,-0.0,-0.0,-1.0,0.0346098711811612,2.0,0.0
43.1313591003418,3.4852962493896484,-1.378554344177246,-0.0,-0.0,-1.0,0.0432478405533818,2.0,0.0
43.06089401245117,3.83768081665039,-1.4094209671020508,-0.5314956186510497,0.5796835729718158,-0.6176401562247769,0.0490915520306568,3.0,0.0
44.60773849487305,4.859984397888184,-1.4553065299987793,-0.0738997769637328,-0.1661121520398071,-0.9833339086543362,0.0337708284220927,3.0,0.0
44.53192901611328,5.240753173828125,-1.4886445999145508,-0.0,-0.0,-1.0,0.0596356843120466,1.0,0.0
44.681053161621094,4.097851753234863,-1.3828086853027344,-0.144579229661618,-0.8973716741037647,-0.4169183671495656,0.0933065639115741,5.0,0.0
44.50574493408203,4.312918663024902,-1.3865337371826172,-0.0,-0.0,-1.0,0.1037157663621797,1.0,0.0
44.576934814453125,4.845678329467773,-1.4505748748779297,0.2190748852538777,-0.697401930576204,-0.6823758069272267,0.0303663727570379,3.0,0.0
44.34745788574219,5.218732833862305,-1.4670462608337402,-0.0,-0.0,-1.0,0.0669722278463681,1.0,0.0
44.11712646484375,5.465768814086914,-1.4706048965454102,-0.3709783650997236,-0.2929289750488484,-0.8812307689843599,0.1146098404647682,4.0,0.0
44.74040603637695,3.642313003540039,-1.3426132202148438,-0.0,-0.0,-1.0,0.052768601040904,2.0,0.0
44.61936569213867,3.821046829223633,-1.3477163314819336,-0.6403892150579724,-0.3590742983874914,-0.6789457279304179,0.1036022413750893,3.0,0.0
44.330772399902344,4.4588117599487305,-1.3833703994750977,0.3359712950019584,0.7722855139473908,-0.5391645146722118,0.0732654837341,3.0,0.0
44.611358642578125,3.150721549987793,-1.2793831825256348,-0.0,-0.0,-1.0,0.0513137008855956,2.0,0.0
44.570953369140625,3.25076961517334,-1.2849044799804688,0.0048473655806574,-0.3144265738507789,-0.9492694205036776,0.1437040643431943,4.0,0.0
44.72175598144531,4.672323226928711,-1.4450008869171145,-0.0,-0.0,-1.0,0.1599168772663498,1.0,0.0
44.55849075317383,4.30385684967041,-1.4556005001068115,-0.0,-0.0,-1.0,0.0702347028962458,1.0,0.0
44.29009246826172,3.8902463912963863,-1.4496095180511477,-0.0,-0.0,-1.0,0.0576784549077979,1.0,0.0
44.014892578125,3.483046531677246,-1.4416444301605225,-0.0,-0.0,-1.0,0.0358477226358124,1.0,0.0
43.7425537109375,3.188516616821289,-1.420255422592163,-0.0,-0.0,-1.0,0.0636226826376743,1.0,0.0
43.59182357788086,5.0427350997924805,-1.4908270835876465,-0.0,-0.0,-1.0,0.0517730424468024,2.0,0.0
43.67036819458008,5.433496475219727,-1.5278863906860352,-0.0,-0.0,-1.0,0.0384303118520028,1.0,0.0
43.639549255371094,4.139286994934082,-1.4386472702026367,-0.0,-0.0,-1.0,0.0620596796476392,1.0,0.0
43.567649841308594,4.573892593383789,-1.456650733947754,-0.1898498563026362,0.6738494135702155,-0.7140616219157455,0.0478636977104246,4.0,0.0
43.548004150390625,4.849343299865723,-1.472089767456055,-0.7956739202641645,-0.5481443136689653,0.2577611762927743,0.0930953213454829,3.0,0.0
43.512168884277344,3.641621589660645,-1.3909649848937988,-0.0,-0.0,-1.0,0.0871114879212016,1.0,0.0
43.474891662597656,4.301715850830078,-1.4267091751098633,-0.0,-0.0,-1.0,0.0274945150355781,2.0,0.0
43.59809112548828,3.168710708618164,-1.3749990463256836,-0.0,-0.0,-1.0,0.0766732597381053,2.0,0.0
43.369083404541016,3.362163543701172,-1.3548941612243652,-0.0,-0.0,-1.0,0.0793371313570551,1.0,0.0
42.7901611328125,3.5629796981811523,-1.2883281707763672,-0.8875527487732825,0.0978808232172035,-0.4501882523915004,0.2383657409481807,4.0,0.0
42.84944152832031,5.383718013763428,-1.539306402206421,-0.0,-0.0,-1.0,0.0168056146704038,2.0,0.0
42.738059997558594,4.55714750289917,-1.4634382724761963,-0.0,-0.0,-1.0,0.0557435925413481,2.0,0.0
42.751102447509766,4.941473484039307,-1.493100881576538,-0.0,-0.0,-1.0,0.0229812943489064,2.0,0.0
42.831748962402344,3.356001377105713,-1.3942453861236572,0.5389190344561813,-0.3041875659442566,-0.7855165173474876,0.0845104705657281,3.0,0.0
42.88753509521485,3.707363605499267,-1.42499041557312,-0.0,-0.0,-1.0,0.053860437298834,1.0,0.0
42.77730941772461,4.110449314117432,-1.4373056888580322,-0.5510502009325186,-0.4327792637079085,0.7134744459030548,0.0766094077972809,4.0,0.0
42.72490692138672,4.4745869636535645,-1.4557116031646729,-0.0,-0.0,-1.0,0.054467683009247,2.0,0.0
43.2294921875,5.513718605041504,-1.5693066120147705,-0.0,-0.0,-1.0,0.0321728587672587,2.0,0.0
43.127227783203125,5.0918474197387695,-1.5297558307647705,0.789040814171515,-0.6100382860309695,-0.0725801842650555,0.0289390030240563,3.0,0.0
43.12501907348633,5.363243103027344,-1.5456926822662354,-0.0,-0.0,-1.0,0.0309756699960512,1.0,0.0
43.00920486450195,3.7781848907470703,-1.4403564929962158,-0.0,-0.0,-1.0,0.055548797159868,2.0,0.0
42.88486099243164,4.01603889465332,-1.435415506362915,-0.7287647218189995,-0.1927580418745475,0.6570740578692529,0.0545793699462043,4.0,0.0
42.9278450012207,4.4105377197265625,-1.4628875255584717,0.2283684267566653,-0.4568303672856599,-0.859740587146108,0.0685627481202565,4.0,0.0
42.89947509765625,4.791038513183594,-1.4804918766021729,-0.0,-0.0,-1.0,0.025486624243663,2.0,0.0
42.871826171875,3.318425178527832,-1.3976876735687256,-0.0,-0.0,-1.0,0.0589209136774499,1.0,0.0
42.9140739440918,3.5409154891967773,-1.414797067642212,0.4838016768887958,-0.0508958507911082,-0.8736964860933334,0.1366696455694217,4.0,0.0
42.81423568725586,3.9946212768554688,-1.4242651462554932,-0.7769758590485013,0.4509521107277568,-0.4392615488362537,0.073197435551312,4.0,0.0
42.87554931640625,4.829538345336914,-1.4708480834960938,-0.0,-0.0,-1.0,0.0234273702942577,2.0,0.0
43.04839324951172,5.135157585144043,-1.5113897323608398,-0.0,-0.0,-1.0,0.0185115631170594,1.0,0.0
42.89256286621094,3.850528478622437,-1.4248661994934082,-0.895494156263753,-0.3587789919900918,0.2633777724183318,0.0324447614379372,5.0,0.0
42.8425178527832,4.219146728515625,-1.4353594779968262,-0.621652316155694,-0.0042634526500879,-0.7832816995115881,0.1078877366952194,6.0,0.0
42.86425018310547,4.610258102416992,-1.4579415321350098,0.379043301259813,-0.6529233781796505,-0.6557569961476094,0.0568774248700782,3.0,0.0
42.79425811767578,3.4455726146698,-1.3924970626831057,0.135350778293443,-0.3484811704734624,-0.9274918008482907,0.1655099326106379,3.0,0.0
43.18829345703125,5.411541938781738,-1.5199601650238037,-0.0,-0.0,-1.0,0.0254691361730137,2.0,0.0
43.11083221435547,5.066293239593506,-1.493213415145874,-0.0,-0.0,-1.0,0.0222670033078157,2.0,0.0
42.91090393066406,3.8094348907470703,-1.4124658107757568,-0.895494156263753,-0.3587789919900918,0.2633777724183318,0.0219219129653977,5.0,0.0
42.8408088684082,4.230142116546631,-1.419719934463501,-0.7282526388242733,0.619654613541509,-0.292705063096294,0.1078877366952194,5.0,0.0
42.87317657470703,4.676429271697998,-1.4432342052459717,0.0458518383253148,-0.9879842448450858,-0.1475965475886027,0.0313653867277304,6.0,0.0
42.78582382202149,3.409323215484619,-1.380108118057251,-0.0,-0.0,-1.0,0.1491396556513242,2.0,0.0
42.826812744140625,3.79380464553833,-1.4003169536590576,-0.0,-0.0,-1.0,0.0641456417534997,1.0,0.0
44.726905822753906,3.2050113677978516,-1.2225723266601562,-0.0,-0.0,-1.0,0.0860538843136495,2.0,0.0
42.884254455566406,4.532088279724121,-1.4685053825378418,-0.0,-0.0,-1.0,0.0573010907169718,2.0,0.0
44.47073745727539,4.796187400817871,-1.4342970848083496,-0.0,-0.0,-1.0,0.0492462792254821,1.0,0.0
44.413631439208984,5.209817409515381,-1.442732334136963,-0.0,-0.0,-1.0,0.0510824176738646,2.0,0.0
44.15217590332031,3.5626895427703857,-1.3579473495483398,-0.5758815549372942,-0.5816880317462536,-0.5744558019605805,0.0503862552900897,5.0,0.0
44.226802825927734,3.904920101165771,-1.3768291473388672,-0.0,-0.0,-1.0,0.0965147261146495,1.0,0.0
44.14444732666016,4.322999000549316,-1.38085675239563,-0.6155436104767311,0.2175304417715717,-0.757487010122243,0.1325487666274731,4.0,0.0
44.18130874633789,5.375723361968994,-1.4224424362182615,-0.0,-0.0,-1.0,0.1359896441391563,1.0,0.0
44.17565155029297,5.488314151763916,-1.426100254058838,0.3990890062277801,-0.7292880275021624,-0.5557579851429288,0.0738415359062777,3.0,0.0
43.99969482421875,3.152841567993164,-1.3288030624389648,-0.0,-0.0,-1.0,0.0365990871681305,2.0,0.0
43.4488525390625,5.506146430969238,-1.551429033279419,-0.0,-0.0,-1.0,0.0246288027500626,2.0,0.0
43.02698516845703,4.670969009399414,-1.4827735424041748,-0.0,-0.0,-1.0,0.0702891836601137,1.0,0.0
43.23378372192383,5.067536354064941,-1.5156919956207275,-0.0,-0.0,-1.0,0.0418700649732246,1.0,0.0
42.83211135864258,4.216525554656982,-1.4510390758514404,-0.621652316155694,-0.0042634526500879,-0.7832816995115881,0.0988788162572896,6.0,0.0
42.96349334716797,4.440515041351318,-1.4707739353179932,-0.0,-0.0,-1.0,0.061786744032787,2.0,0.0
44.43926239013672,5.020144939422607,-1.4608101844787598,-0.0,-0.0,-1.0,0.0669268588299696,2.0,0.0
44.14429473876953,5.319461822509766,-1.4256219863891602,-0.0,-0.0,-1.0,0.1277389883689954,1.0,0.0
43.81957244873047,4.376324653625488,-1.4001545906066897,-0.0,-0.0,-1.0,0.155115713991614,2.0,0.0
43.716590881347656,4.7080841064453125,-1.3848257064819336,0.0230607525907556,-0.9675615398233623,-0.2515807392162443,0.0876340911500499,3.0,0.0
43.414268493652344,3.565052032470703,-1.367957592010498,-0.0,-0.0,-1.0,0.0458017025392529,1.0,0.0
43.56793212890625,3.789123058319092,-1.3810644149780271,-0.0,-0.0,-1.0,0.0854477998418203,2.0,0.0
43.135650634765625,3.380864143371582,-1.340932846069336,-0.0,-0.0,-1.0,0.0482955870476832,1.0,0.0
42.994380950927734,5.386558532714844,-1.502201795578003,-0.0,-0.0,-1.0,0.0245117367869551,1.0,0.0
42.97684860229492,5.522248268127441,-1.4961936473846436,-0.0,-0.0,-1.0,0.0230005004817391,1.0,0.0
44.66362380981445,4.650138854980469,-1.3851633071899414,0.3882405298329379,-0.6408766106681845,-0.6622284053810283,0.1361552154075037,5.0,0.0
44.99909210205078,5.136652946472168,-1.456054449081421,-0.0,-0.0,-1.0,0.080637319926564,1.0,0.0
44.82762908935547,5.037845611572266,-1.4423816204071045,0.8097778515595054,-0.4325137626035117,-0.3964740549925358,0.0833791080874606,4.0,0.0
44.68990707397461,4.928530693054199,-1.43212628364563,-0.0,-0.0,-1.0,0.0420269309143109,2.0,0.0
44.831573486328125,5.495084762573242,-1.432767629623413,0.2664065355005952,0.9193882096683308,0.2894008945484298,0.0654518951754798,3.0,0.0
44.546722412109375,4.743915557861328,-1.4231956005096436,-0.0,-0.0,-1.0,0.0353067466009047,1.0,0.0
44.13246154785156,3.892660140991211,-1.40625,-0.0,-0.0,-1.0,0.0631891651663332,2.0,0.0
44.20148086547851,4.098073959350586,-1.4072792530059814,-0.0,-0.0,-1.0,0.0380054779405755,1.0,0.0
44.17383575439453,4.485882759094238,-1.3950717449188232,0.3681169730832206,-0.718187136754323,-0.5905058261598061,0.0771204746074224,3.0,0.0
43.920387268066406,3.666717529296875,-1.3929007053375244,-0.0,-0.0,-1.0,0.1028180391752068,1.0,0.0
43.54380416870117,3.185458183288574,-1.3720703125,0.43923364113295,0.5754451534444087,-0.6898816448307866,0.0662712420925807,3.0,0.0
43.71390151977539,3.5107831954956055,-1.3783795833587646,-0.0,-0.0,-1.0,0.0630462007203344,1.0,0.0
43.58910369873047,4.913569450378418,-1.4846251010894775,-0.0,-0.0,-1.0,0.0647300569186535,2.0,0.0
43.680816650390625,5.034427642822266,-1.48866868019104,-0.3158098080562107,-0.9479722002728524,0.040160585719665,0.1012492973649301,4.0,0.0
43.34256362915039,4.402005195617676,-1.4810407161712646,0.9307541713472692,-0.3133251286423916,-0.1884782116874182,0.0222805205888662,5.0,0.0
43.43903732299805,4.741510391235352,-1.4772655963897705,-0.2646654740972565,-0.5629137871142882,-0.7829944157511751,0.0557432409466025,4.0,0.0
43.02239608764648,4.2949113845825195,-1.4565308094024658,-0.0,-0.0,-1.0,0.079846644381675,2.0,0.0
42.91781234741211,3.722208023071289,-1.4695956707000732,-0.0,-0.0,-1.0,0.0404098009685561,1.0,0.0
42.85732650756836,4.128059387207031,-1.4482553005218506,-0.0,-0.0,-1.0,0.1168345571058009,1.0,0.0
43.09253692626953,3.23687744140625,-1.3635084629058838,-0.6367480489211444,0.1222433822212769,-0.7613202202084339,0.0639175756090597,4.0,0.0
45.19663619995117,3.482507705688477,-1.258986234664917,-0.0,-0.0,-1.0,0.0614653415613235,1.0,0.0
44.813236236572266,3.246234893798828,-1.2180447578430176,0.6823018346891057,-0.7284916849993517,-0.0613520274048515,0.1242151979523263,3.0,0.0
42.77505111694336,4.8341522216796875,-1.461252212524414,-0.0,-0.0,-1.0,0.0232890403758243,2.0,0.0
42.84332656860352,5.051504135131836,-1.471208572387695,-0.0,-0.0,-1.0,0.023141212738946,1.0,0.0
43.206390380859375,5.442380905151367,-1.5172863006591797,-0.0,-0.0,-1.0,0.0271138197427954,2.0,0.0
43.30191421508789,5.559301376342773,-1.5297040939331057,-0.0,-0.0,-1.0,0.0287061128357228,2.0,0.0
44.1688117980957,3.272878646850586,-1.299018144607544,-0.0,-0.0,-1.0,0.0356357429195956,2.0,0.0
44.344757080078125,3.605560302734375,-1.3222229480743408,-0.0,-0.0,-1.0,0.0267107707707423,1.0,0.0
44.32013320922851,3.880819320678711,-1.322770118713379,-0.0,-0.0,-1.0,0.0808673244883568,2.0,0.0
44.465187072753906,4.069734573364258,-1.3413097858428955,-0.0,-0.0,-1.0,0.1069126066201687,2.0,0.0
44.47541809082031,4.330299377441406,-1.345850944519043,-0.0,-0.0,-1.0,0.0812356852753704,1.0,0.0
44.70862579345703,4.717763900756836,-1.3774428367614746,0.9037594665647608,0.2422089223006937,-0.3529216124757959,0.1422798551178071,6.0,0.0
44.89241027832031,4.960731506347656,-1.4017574787139893,-0.0,-0.0,-1.0,0.0961774670177819,2.0,0.0
44.82765579223633,5.438240051269531,-1.4019012451171875,-0.0,-0.0,-1.0,0.0718256798306847,1.0,0.0
44.76181411743164,3.3797531127929688,-1.2592957019805908,-0.0,-0.0,-1.0,0.0678522763811955,2.0,0.0
45.133243560791016,3.5065250396728516,-1.300494909286499,-0.4058915883766079,-0.1966672899502247,-0.8925099414285244,0.0632605674508269,7.0,0.0
43.85371398925781,3.623245239257813,-1.3678743839263916,-0.0,-0.0,-1.0,0.0886698118940171,1.0,0.0
43.80730438232422,4.005809783935547,-1.36564302444458,-0.0,-0.0,-1.0,0.024737146331149,2.0,0.0
43.694847106933594,4.340950012207031,-1.3553807735443115,-0.0,-0.0,-1.0,0.0568779249156632,1.0,0.0
43.81657409667969,4.434659957885742,-1.3707094192504885,-0.0,-0.0,-1.0,0.1628415743326108,1.0,0.0
44.40624237060547,4.401762008666992,-1.440537691116333,-0.0,-0.0,-1.0,0.0728372564789039,1.0,0.0
44.35212707519531,4.791748046875,-1.438263177871704,-0.0,-0.0,-1.0,0.0532501152123169,2.0,0.0
44.024024963378906,5.177408218383789,-1.4033608436584473,-0.0,-0.0,-1.0,0.0882920008917714,1.0,0.0
45.00248718261719,5.251115798950195,-1.5220158100128174,-0.0,-0.0,-1.0,0.0790074553879483,1.0,0.0
44.14723205566406,5.440467834472656,-1.4212977886199951,-0.0,-0.0,-1.0,0.1003799939544915,1.0,0.0
45.07048034667969,5.629768371582031,-1.5353329181671145,-0.4996879117896628,0.7534732537172786,-0.4273055660110028,0.0523332267671191,3.0,0.0
44.387508392333984,3.149686813354492,-1.244647979736328,-0.0,-0.0,-1.0,0.0838126994505128,1.0,0.0
44.511810302734375,3.4142284393310547,-1.2606415748596191,-0.0,-0.0,-1.0,0.102685783226261,1.0,0.0
44.60029602050781,3.7927074432373047,-1.2735025882720947,-0.0,-0.0,-1.0,0.110931561141479,2.0,0.0
44.678672790527344,4.090795516967773,-1.2849459648132324,-0.0,-0.0,-1.0,0.096215040262862,1.0,0.0
44.867332458496094,4.228778839111328,-1.308182954788208,-0.0,-0.0,-1.0,0.0260872875080875,1.0,0.0
44.73866271972656,4.649509429931641,-1.2968339920043943,-0.0,-0.0,-1.0,0.1277069843053377,2.0,0.0
44.87041473388672,4.90880012512207,-1.3149237632751465,-0.0,-0.0,-1.0,0.0658265785874065,1.0,0.0
44.93648910522461,5.208623886108398,-1.3258452415466309,-0.0,-0.0,-1.0,0.0801828705226849,1.0,0.0
45.2076301574707,3.3532581329345703,-1.2340712547302246,-0.0,-0.0,-1.0,0.050152722450454,1.0,0.0
45.19166564941406,3.174766540527344,-1.2191603183746338,0.4172164668430347,0.1760363561368925,-0.8915949871511503,0.1270451743287253,5.0,0.0
44.67756652832031,3.271514892578125,-1.258793592453003,0.8677734223267538,0.4589539171586901,-0.1906058483573042,0.1245913043438344,3.0,0.0
44.92954635620117,3.427894592285156,-1.2862863540649414,-0.0,-0.0,-1.0,0.0419278543318873,2.0,0.0
44.83210754394531,3.263690948486328,-1.2154476642608645,-0.0,-0.0,-1.0,0.0909588395438348,2.0,0.0
45.09077453613281,3.334877014160156,-1.2446610927581787,-0.0,-0.0,-1.0,0.1024533556232058,1.0,0.0
42.851524353027344,4.257586479187012,-1.4556052684783936,-0.9795081371542396,0.1872448175619842,0.0741834721808724,0.0786470859119698,5.0,0.0
42.841400146484375,4.01569938659668,-1.45694899559021,-0.206704108505169,0.8914914142650667,0.4031333151933176,0.0741695388741597,3.0,0.0
42.73764419555664,3.69511604309082,-1.4465091228485107,-0.0,-0.0,-1.0,0.1013974365056956,1.0,0.0
43.00064849853515,4.731573104858398,-1.470972776412964,-0.0,-0.0,-1.0,0.0564023648900119,1.0,0.0
43.00153350830078,4.4929656982421875,-1.4736168384552002,-0.0,-0.0,-1.0,0.0554496107730416,1.0,0.0
43.410194396972656,5.224770545959473,-1.5224549770355225,-0.0,-0.0,-1.0,0.0339429488811016,1.0,0.0
43.37908172607422,4.930929183959961,-1.5210106372833252,-0.0,-0.0,-1.0,0.0301774895593466,2.0,0.0
43.654685974121094,5.483175277709961,-1.5538184642791748,-0.0,-0.0,-1.0,0.0351893301375543,2.0,0.0
44.353729248046875,3.2528553009033203,-1.3069934844970703,-0.2892350507007609,0.3139344209465297,-0.904316462744705,0.0960034190403133,4.0,0.0
44.59581756591797,3.830569267272949,-1.3305416107177734,-0.5967327061315424,-0.3084006224729984,-0.7408097822593823,0.1104056973198911,4.0,0.0
44.60599899291992,3.389531135559082,-1.3370227813720703,0.361722253722004,-0.8832022404810054,-0.2985143439964092,0.1055990453951352,3.0,0.0
44.75754165649414,4.557600975036621,-1.3434820175170898,-0.0,-0.0,-1.0,0.089097746860991,1.0,0.0
44.840919494628906,4.22205924987793,-1.357378005981445,-0.0,-0.0,-1.0,0.0318988334029986,2.0,0.0
44.769996643066406,4.004123687744141,-1.3506550788879397,-0.0,-0.0,-1.0,0.0579220346625816,1.0,0.0
43.977325439453125,3.4500317573547363,-1.3467674255371094,-0.0,-0.0,-1.0,0.0281517216246993,2.0,0.0
44.068111419677734,3.699820041656494,-1.3604602813720703,-0.0,-0.0,-1.0,0.0984219462240392,2.0,0.0
44.15097427368164,4.040030479431152,-1.3721275329589844,-0.0,-0.0,-1.0,0.039146860035195,2.0,0.0
44.30105209350586,4.279360294342041,-1.396183967590332,-0.0,-0.0,-1.0,0.0449956220374471,1.0,0.0
44.50455093383789,4.968507766723633,-1.4261999130249023,-0.0,-0.0,-1.0,0.0500050710071401,1.0,0.0
43.82347106933594,3.2012953758239746,-1.3222436904907229,-0.0,-0.0,-1.0,0.0418073720345188,1.0,0.0
44.66775894165039,3.2966909408569336,-1.2428240776062012,-0.0,-0.0,-1.0,0.1087752579538935,2.0,0.0
44.853790283203125,3.433466911315918,-1.2651877403259275,-0.0,-0.0,-1.0,0.044984779766112,2.0,0.0
44.45874786376953,3.323399543762207,-1.3064193725585938,0.9143604921170656,-0.3668614495362012,-0.171340501048744,0.0953157719445256,3.0,0.0
44.56827163696289,3.5593395233154297,-1.3204078674316406,-0.0,-0.0,-1.0,0.03061693196434,1.0,0.0
44.76067352294922,3.9304428100585938,-1.346278190612793,0.6556368648355674,-0.4667430881211662,-0.5935412295365043,0.0611192232230492,4.0,0.0
44.70746612548828,4.1055684089660645,-1.332550048828125,0.9841724972987924,-0.0427663895584868,-0.1719753804612467,0.0653241748765912,4.0,0.0
44.79705810546875,4.33834981918335,-1.343393325805664,-0.0,-0.0,-1.0,0.0317350264784806,1.0,0.0
42.91214370727539,5.193854808807373,-1.506452560424805,-0.0,-0.0,-1.0,0.0195578364211166,2.0,0.0
43.30116653442383,5.586362361907959,-1.5485048294067385,-0.0,-0.0,-1.0,0.0356071824489455,2.0,0.0
42.94968032836914,5.341444969177246,-1.5017213821411133,-0.0,-0.0,-1.0,0.0219268550765343,1.0,0.0
43.1055793762207,5.46265983581543,-1.5214414596557615,-0.0,-0.0,-1.0,0.0280475328971228,2.0,0.0
43.18399429321289,3.169314384460449,-1.3144302368164062,-0.0,-0.0,-1.0,0.0726791987345023,1.0,0.0
43.32704544067383,3.367539405822754,-1.3133783340454102,-0.0,-0.0,-1.0,0.057014992852626,1.0,0.0
43.49870300292969,3.4843759536743164,-1.328033447265625,-0.0,-0.0,-1.0,0.0627439365114703,1.0,0.0
43.81170654296875,3.722310066223145,-1.351729393005371,-0.0,-0.0,-1.0,0.0751485872892709,1.0,0.0
44.11129379272461,4.053644180297852,-1.3613243103027344,0.006750086394809,0.957462935973915,-0.2884773172536675,0.0278916759082189,4.0,0.0
44.16341781616211,4.275169372558594,-1.3421077728271484,-0.0,-0.0,-1.0,0.0886271504978636,1.0,0.0
44.353397369384766,4.472084999084473,-1.350259780883789,0.2108276007142406,0.8490491520892074,-0.4844246691836358,0.0760916678583614,3.0,0.0
44.69818878173828,4.72069787979126,-1.3790998458862305,0.8557555797579017,0.3612036060766957,-0.3704245438283071,0.142279855117807,5.0,0.0
44.75848388671875,4.94343376159668,-1.3616580963134766,-0.6658952758980651,-0.0105518365688896,-0.7459706028267219,0.0942879033624924,3.0,0.0
43.57765197753906,3.344935417175293,-1.334876537322998,0.0632177053237262,0.9627975208008246,0.2627250571860027,0.0715164020354172,3.0,0.0
43.75870513916016,3.4480695724487305,-1.3502230644226074,-0.0,-0.0,-1.0,0.0628152238595858,1.0,0.0
43.98097229003906,3.700786590576172,-1.3496708869934082,-0.0,-0.0,-1.0,0.0611175243205568,2.0,0.0
44.276336669921875,4.012236595153809,-1.3531203269958496,-0.0,-0.0,-1.0,0.0704917927174416,2.0,0.0
44.55475616455078,4.180788516998291,-1.375861644744873,-0.0,-0.0,-1.0,0.1256817209998016,2.0,0.0
44.541725158691406,4.4084343910217285,-1.3390069007873535,-0.0,-0.0,-1.0,0.0675707623878739,1.0,0.0
45.19556427001953,3.236577033996582,-1.1948719024658203,-0.0,-0.0,-1.0,0.1070070722293844,1.0,0.0
44.44159698486328,3.402102470397949,-1.3445372581481934,-0.0,-0.0,-1.0,0.053211140737535,2.0,0.0
44.74066925048828,3.772170066833496,-1.3545737266540527,-0.0,-0.0,-1.0,0.0669486269285608,1.0,0.0
44.86079406738281,3.900205135345459,-1.3614602088928225,-0.2869075585463446,0.9427931604870304,-0.1697795906104502,0.043631515303218,3.0,0.0
44.95604705810547,4.025992393493652,-1.364016056060791,-0.0,-0.0,-1.0,0.0280415198551641,2.0,0.0
44.20279693603515,3.165522575378418,-1.329576015472412,-0.0708453296519133,-0.5658524692818688,-0.8214571944259323,0.0279107770853868,5.0,0.0
44.80348587036133,4.411858558654785,-1.352947235107422,-0.1154923222530678,0.0782077958408849,-0.9902247543716042,0.0399497793486455,4.0,0.0
44.18706130981445,3.2674813270568848,-1.331686019897461,-0.6398969709261103,0.6161228121861969,-0.4592652250098638,0.0348684707442637,3.0,0.0
44.29549407958984,3.4565391540527344,-1.3358488082885742,-0.0,-0.0,-1.0,0.0588931851062534,1.0,0.0
44.46590042114258,3.779637336730957,-1.340571403503418,0.777482941099283,-0.61991605934027,-0.1059450596849122,0.0787492975181299,3.0,0.0
44.64536666870117,4.093203067779541,-1.348780632019043,0.2838626852800525,0.9587720915400708,0.0133436272982802,0.1212622282457971,5.0,0.0
44.1965217590332,4.392744541168213,-1.2312383651733398,-0.0,-0.0,-1.0,0.1048998621985319,1.0,0.0
43.48175811767578,3.3644185066223145,-1.3934869766235352,-0.0,-0.0,-1.0,0.0603362836367108,1.0,0.0
43.30135345458984,4.2127251625061035,-1.4268169403076172,0.605401545516034,-0.0169337865829132,-0.7957400427016108,0.0817770367206497,4.0,0.0
43.494014739990234,3.9817471504211426,-1.4409570693969729,0.1999426314660248,-0.1711533221240815,-0.9647432220276704,0.088625790277481,3.0,0.0
43.508731842041016,3.7200865745544434,-1.4240703582763672,-0.0,-0.0,-1.0,0.0890955314872758,2.0,0.0
43.27519226074219,4.7365336418151855,-1.461033821105957,-0.0,-0.0,-1.0,0.0577054186688662,2.0,0.0
43.339820861816406,4.395570278167725,-1.4464635848999023,0.8625118575927284,-0.5053870190505331,-0.025637014006249,0.0322784035254608,3.0,0.0
43.39381790161133,5.112795352935791,-1.5077600479125977,0.5091088701664506,0.6046478553423688,-0.6125431652934465,0.1310241119342436,4.0,0.0
43.351531982421875,5.631815433502197,-1.538862228393555,-0.0,-0.0,-1.0,0.0244776442739018,2.0,0.0
43.910850524902344,3.18117094039917,-1.3277668952941897,-0.0,-0.0,-1.0,0.0322343237622787,2.0,0.0
43.99394989013672,3.535865306854248,-1.3630366325378418,-0.0,-0.0,-1.0,0.0540977131640246,1.0,0.0
44.050537109375,4.071950435638428,-1.4050850868225098,-0.0,-0.0,-1.0,0.0277426607153465,2.0,0.0
44.024208068847656,3.891493320465088,-1.3897242546081543,-0.0,-0.0,-1.0,0.0320099496202997,2.0,0.0
44.0596809387207,4.425943851470947,-1.4282793998718262,-0.0,-0.0,-1.0,0.1049666323482838,2.0,0.0
43.91194152832031,5.010058879852295,-1.4399285316467283,-0.0,-0.0,-1.0,0.2506025328513492,2.0,0.0
44.052513122558594,4.777627468109131,-1.4486918449401855,-0.0,-0.0,-1.0,0.0899923724757708,1.0,0.0
43.79562759399414,5.423319339752197,-1.4463133811950684,-0.0,-0.0,-1.0,0.0524370095188735,1.0,0.0
44.593467712402344,3.3960986137390137,-1.4558324813842771,-0.0,-0.0,-1.0,0.0660090482158368,1.0,0.0
44.28620910644531,3.2022228240966797,-1.372147560119629,-0.0,-0.0,-1.0,0.0412126608889868,2.0,0.0
44.25400161743164,3.568051338195801,-1.4255743026733398,-0.0,-0.0,-1.0,0.0352979510165576,1.0,0.0
44.231666564941406,3.9310359954833984,-1.4810857772827148,-0.0,-0.0,-1.0,0.0523542843454861,1.0,0.0
43.7938232421875,4.300063610076904,-1.467686653137207,-0.0,-0.0,-1.0,0.0717548941391751,2.0,0.0
43.780555725097656,4.445582389831543,-1.4898347854614258,0.3794320347510644,-0.8998259275734096,0.2152780320221269,0.1061663872991342,3.0,0.0
43.67060470581055,4.643876552581787,-1.5046663284301758,-0.0,-0.0,-1.0,0.068274672984558,1.0,0.0
43.47796630859375,4.899870872497559,-1.5156497955322266,-0.0,-0.0,-1.0,0.0525421365247825,1.0,0.0
43.22543716430664,5.226758003234863,-1.5293712615966797,0.6352351295163754,-0.1009422788260123,-0.7656937942635589,0.0282587256693724,3.0,0.0
43.04167938232422,5.557259559631348,-1.5561418533325195,-0.0,-0.0,-1.0,0.0240688014791976,1.0,0.0
44.243072509765625,4.541337013244629,-1.4216818809509275,-0.0,-0.0,-1.0,0.0606062791037106,1.0,0.0
43.98905944824219,4.342848777770996,-1.4034037590026855,-0.0,-0.0,-1.0,0.1125736372102829,2.0,0.0
43.6380615234375,3.8808951377868657,-1.4034323692321775,-0.0,-0.0,-1.0,0.0169170725439619,2.0,0.0
43.15880584716797,3.2656140327453613,-1.4012751579284668,-0.6481277412957143,0.7094161941246369,-0.2768737879912641,0.067820803524398,3.0,0.0
44.96326446533203,5.10079288482666,-1.473884105682373,-0.0,-0.0,-1.0,0.0854817454783838,2.0,0.0
44.45763397216797,4.72164249420166,-1.435401439666748,-0.0,-0.0,-1.0,0.0236576466446984,1.0,0.0
43.92729949951172,4.155946254730225,-1.4176630973815918,-0.0,-0.0,-1.0,0.0326296177244296,2.0,0.0
43.42488098144531,3.4386744499206543,-1.425187587738037,-0.0,-0.0,-1.0,0.0726372465225814,2.0,0.0
43.17438888549805,3.177510976791382,-1.259615421295166,-0.0,-0.0,-1.0,0.0726791987345023,1.0,0.0
44.329566955566406,3.2215559482574463,-1.163240909576416,-0.0,-0.0,-1.0,0.1223342741127682,1.0,0.0
44.217628479003906,3.8215932846069336,-1.216477870941162,-0.0,-0.0,-1.0,0.0741729301645396,1.0,0.0
44.27558898925781,3.391317129135132,-1.174795627593994,-0.0,-0.0,-1.0,0.0898091704482152,1.0,0.0
44.32072067260742,4.35462760925293,-1.295595645904541,-0.0,-0.0,-1.0,0.0731997071883278,1.0,0.0
44.44279861450195,4.104098796844482,-1.285102367401123,-0.0,-0.0,-1.0,0.0909072632225255,1.0,0.0
44.16300201416016,5.2121663093566895,-1.3724207878112793,-0.0,-0.0,-1.0,0.0969559634586401,1.0,0.0
44.337623596191406,4.881720066070557,-1.3606114387512207,-0.0,-0.0,-1.0,0.0458299491571794,1.0,0.0
44.26816177368164,4.611537933349609,-1.317751407623291,-0.0,-0.0,-1.0,0.0540402293655393,1.0,0.0
44.182350158691406,5.477345943450928,-1.4068970680236816,0.3990890062277801,-0.7292880275021624,-0.5557579851429288,0.0722489543838982,3.0,0.0
44.103572845458984,3.2350308895111084,-1.3251662254333496,-0.0534565151317783,-0.8344680387348674,-0.5484573760283926,0.0412876676186675,3.0,0.0
44.133453369140625,3.5641801357269287,-1.366361141204834,0.2262056870336009,-0.7392349138655746,-0.6343206833107473,0.0525998501152649,3.0,0.0
44.006160736083984,4.110170364379883,-1.404956340789795,-0.0,-0.0,-1.0,0.028656809114736,1.0,0.0
43.9210090637207,4.431168556213379,-1.4264483451843262,-0.0,-0.0,-1.0,0.10107684420769,2.0,0.0
43.725677490234375,4.817527770996094,-1.4368138313293457,0.0799893509206655,-0.8918657898127413,-0.4451708848307419,0.1014307303116369,6.0,0.0
43.70351791381836,5.219965934753418,-1.4797625541687012,-0.0,-0.0,-1.0,0.0457756348817237,2.0,0.0
43.7738037109375,5.636348724365234,-1.5411601066589355,-0.0,-0.0,-1.0,0.0571137182841037,1.0,0.0
45.02730941772461,5.247405052185059,-1.4241743087768557,-0.0,-0.0,-1.0,0.0658831289291586,1.0,0.0
0.0,0.0,0.0,0.0,0.0,0.0,0.0,0.0,0.0
0.0,0.0,0.0,0.0,0.0,0.0,0.0,0.0,0.0
0.0,0.0,0.0,0.0,0.0,0.0,0.0,0.0,0.0
0.0,0.0,0.0,0.0,0.0,0.0,0.0,0.0,0.0
0.0,0.0,0.0,0.0,0.0,0.0,0.0,0.0,0.0
0.0,0.0,0.0,0.0,0.0,0.0,0.0,0.0,0.0
0.0,0.0,0.0,0.0,0.0,0.0,0.0,0.0,0.0
0.0,0.0,0.0,0.0,0.0,0.0,0.0,0.0,0.0
0.0,0.0,0.0,0.0,0.0,0.0,0.0,0.0,0.0
0.0,0.0,0.0,0.0,0.0,0.0,0.0,0.0,0.0
0.0,0.0,0.0,0.0,0.0,0.0,0.0,0.0,0.0
0.0,0.0,0.0,0.0,0.0,0.0,0.0,0.0,0.0
0.0,0.0,0.0,0.0,0.0,0.0,0.0,0.0,0.0
0.0,0.0,0.0,0.0,0.0,0.0,0.0,0.0,0.0
0.0,0.0,0.0,0.0,0.0,0.0,0.0,0.0,0.0
0.0,0.0,0.0,0.0,0.0,0.0,0.0,0.0,0.0
0.0,0.0,0.0,0.0,0.0,0.0,0.0,0.0,0.0
0.0,0.0,0.0,0.0,0.0,0.0,0.0,0.0,0.0
0.0,0.0,0.0,0.0,0.0,0.0,0.0,0.0,0.0
0.0,0.0,0.0,0.0,0.0,0.0,0.0,0.0,0.0
0.0,0.0,0.0,0.0,0.0,0.0,0.0,0.0,0.0
0.0,0.0,0.0,0.0,0.0,0.0,0.0,0.0,0.0
0.0,0.0,0.0,0.0,0.0,0.0,0.0,0.0,0.0
0.0,0.0,0.0,0.0,0.0,0.0,0.0,0.0,0.0
0.0,0.0,0.0,0.0,0.0,0.0,0.0,0.0,0.0
0.0,0.0,0.0,0.0,0.0,0.0,0.0,0.0,0.0
0.0,0.0,0.0,0.0,0.0,0.0,0.0,0.0,0.0
0.0,0.0,0.0,0.0,0.0,0.0,0.0,0.0,0.0
0.0,0.0,0.0,0.0,0.0,0.0,0.0,0.0,0.0
0.0,0.0,0.0,0.0,0.0,0.0,0.0,0.0,0.0
0.0,0.0,0.0,0.0,0.0,0.0,0.0,0.0,0.0
0.0,0.0,0.0,0.0,0.0,0.0,0.0,0.0,0.0
0.0,0.0,0.0,0.0,0.0,0.0,0.0,0.0,0.0
0.0,0.0,0.0,0.0,0.0,0.0,0.0,0.0,0.0
0.0,0.0,0.0,0.0,0.0,0.0,0.0,0.0,0.0
0.0,0.0,0.0,0.0,0.0,0.0,0.0,0.0,0.0
0.0,0.0,0.0,0.0,0.0,0.0,0.0,0.0,0.0
0.0,0.0,0.0,0.0,0.0,0.0,0.0,0.0,0.0
0.0,0.0,0.0,0.0,0.0,0.0,0.0,0.0,0.0
0.0,0.0,0.0,0.0,0.0,0.0,0.0,0.0,0.0
0.0,0.0,0.0,0.0,0.0,0.0,0.0,0.0,0.0
0.0,0.0,0.0,0.0,0.0,0.0,0.0,0.0,0.0
0.0,0.0,0.0,0.0,0.0,0.0,0.0,0.0,0.0
0.0,0.0,0.0,0.0,0.0,0.0,0.0,0.0,0.0
0.0,0.0,0.0,0.0,0.0,0.0,0.0,0.0,0.0
0.0,0.0,0.0,0.0,0.0,0.0,0.0,0.0,0.0
0.0,0.0,0.0,0.0,0.0,0.0,0.0,0.0,0.0
0.0,0.0,0.0,0.0,0.0,0.0,0.0,0.0,0.0
0.0,0.0,0.0,0.0,0.0,0.0,0.0,0.0,0.0
0.0,0.0,0.0,0.0,0.0,0.0,0.0,0.0,0.0
0.0,0.0,0.0,0.0,0.0,0.0,0.0,0.0,0.0
0.0,0.0,0.0,0.0,0.0,0.0,0.0,0.0,0.0
0.0,0.0,0.0,0.0,0.0,0.0,0.0,0.0,0.0
0.0,0.0,0.0,0.0,0.0,0.0,0.0,0.0,0.0
0.0,0.0,0.0,0.0,0.0,0.0,0.0,0.0,0.0
0.0,0.0,0.0,0.0,0.0,0.0,0.0,0.0,0.0
0.0,0.0,0.0,0.0,0.0,0.0,0.0,0.0,0.0
0.0,0.0,0.0,0.0,0.0,0.0,0.0,0.0,0.0
0.0,0.0,0.0,0.0,0.0,0.0,0.0,0.0,0.0
0.0,0.0,0.0,0.0,0.0,0.0,0.0,0.0,0.0
0.0,0.0,0.0,0.0,0.0,0.0,0.0,0.0,0.0
0.0,0.0,0.0,0.0,0.0,0.0,0.0,0.0,0.0
0.0,0.0,0.0,0.0,0.0,0.0,0.0,0.0,0.0
0.0,0.0,0.0,0.0,0.0,0.0,0.0,0.0,0.0
0.0,0.0,0.0,0.0,0.0,0.0,0.0,0.0,0.0
0.0,0.0,0.0,0.0,0.0,0.0,0.0,0.0,0.0
0.0,0.0,0.0,0.0,0.0,0.0,0.0,0.0,0.0
0.0,0.0,0.0,0.0,0.0,0.0,0.0,0.0,0.0
0.0,0.0,0.0,0.0,0.0,0.0,0.0,0.0,0.0
0.0,0.0,0.0,0.0,0.0,0.0,0.0,0.0,0.0
0.0,0.0,0.0,0.0,0.0,0.0,0.0,0.0,0.0
0.0,0.0,0.0,0.0,0.0,0.0,0.0,0.0,0.0
0.0,0.0,0.0,0.0,0.0,0.0,0.0,0.0,0.0
0.0,0.0,0.0,0.0,0.0,0.0,0.0,0.0,0.0
0.0,0.0,0.0,0.0,0.0,0.0,0.0,0.0,0.0
0.0,0.0,0.0,0.0,0.0,0.0,0.0,0.0,0.0
0.0,0.0,0.0,0.0,0.0,0.0,0.0,0.0,0.0
0.0,0.0,0.0,0.0,0.0,0.0,0.0,0.0,0.0
0.0,0.0,0.0,0.0,0.0,0.0,0.0,0.0,0.0
0.0,0.0,0.0,0.0,0.0,0.0,0.0,0.0,0.0
0.0,0.0,0.0,0.0,0.0,0.0,0.0,0.0,0.0
0.0,0.0,0.0,0.0,0.0,0.0,0.0,0.0,0.0
0.0,0.0,0.0,0.0,0.0,0.0,0.0,0.0,0.0
0.0,0.0,0.0,0.0,0.0,0.0,0.0,0.0,0.0
