x,y,z,nx,ny,nz,curvature,density,label
12.076382637023926,-5.357442855834961,0.4127726554870605,-0.2656656493761941,0.7358675881962858,-0.6228327667871262,0.2344415278293898,5.0,1.0
11.77803897857666,-5.778263092041016,0.3953115940093994,-0.0,-0.0,-1.0,0.0987673914197855,2.0,1.0
11.249441146850586,-6.598358154296875,0.3608851432800293,-0.0,-0.0,-1.0,0.0564589997253282,2.0,1.0
11.170368194580078,-6.861038684844971,0.3575154542922973,-0.0,-0.0,-1.0,0.0559839296976565,1.0,1.0
12.670888900756836,-4.849362850189209,0.4537078142166137,-0.466604669671359,-0.5634503828399631,-0.6817651709484585,0.2686110430311615,3.0,1.0
12.527495384216309,-5.042203426361084,0.4466445446014404,-0.0,-0.0,-1.0,0.1706872076666293,1.0,1.0
12.032610893249512,-6.08924674987793,0.4287023544311523,-0.0,-0.0,-1.0,0.197432600097309,2.0,1.0
12.044718742370604,-6.141384601593018,0.4311871528625488,-0.0,-0.0,-1.0,0.1972803056214009,2.0,1.0
12.670040130615234,-5.72550106048584,0.4823782444000244,-0.0,-0.0,-1.0,0.0798631605809044,1.0,1.0
12.332076072692873,-6.021040439605713,0.4569122791290283,-0.0,-0.0,-1.0,0.2087797127678876,1.0,1.0
12.637022972106934,-6.372884750366211,0.9572426080703736,-0.0,-0.0,-1.0,0.0844386988724288,2.0,1.0
12.637712478637695,-6.69952392578125,0.9620171785354614,-0.0,-0.0,-1.0,0.0662678554984053,1.0,1.0
12.04531478881836,-4.403021812438965,0.2592991590499878,-0.0,-0.0,-1.0,0.1639990522615917,1.0,1.0
11.875858306884766,-4.433745384216309,0.2427166700363159,-0.0,-0.0,-1.0,0.1853110939150909,1.0,1.0
11.971219062805176,-5.063619613647461,0.2771296501159668,-0.0,-0.0,-1.0,0.1274787980643462,1.0,1.0
12.10244083404541,-5.289554119110107,0.2991780042648315,-0.0,-0.0,-1.0,0.1583864788270562,1.0,1.0
12.138689041137695,-5.4379425048828125,0.3081032037734985,-0.0,-0.0,-1.0,0.1827410333562016,2.0,1.0
11.68113899230957,-6.138186454772949,0.277068018913269,-0.0,-0.0,-1.0,0.0835148608166842,2.0,1.0
12.676654815673828,-4.986326217651367,0.3498848676681518,-0.0,-0.0,-1.0,0.1654472015945098,2.0,1.0
12.236960411071776,-5.776678085327148,0.3293887376785278,-0.0,-0.0,-1.0,0.1266287876222872,2.0,1.0
12.205748558044434,-6.078221797943115,0.3343223333358764,-0.0,-0.0,-1.0,0.206806320878033,1.0,1.0
11.979950904846191,-6.476138591766357,0.3183573484420776,-0.0,-0.0,-1.0,0.1646318141419541,2.0,1.0
11.73499584197998,-6.648978233337402,0.2939547300338745,-0.0,-0.0,-1.0,0.0772116440219626,1.0,1.0
12.702404022216797,-5.704984664916992,0.378399133682251,-0.0,-0.0,-1.0,0.0573401302352703,2.0,1.0
12.52305030822754,-6.547799110412598,0.3813287019729614,-0.0,-0.0,-1.0,0.1897702600000645,1.0,1.0
12.638752937316896,-6.536979675292969,0.3941410779953003,-0.0,-0.0,-1.0,0.1477280432481734,1.0,1.0
10.76659107208252,-4.509437561035156,0.6663442850112915,-0.0,-0.0,-1.0,0.2343091045989126,1.0,1.0
10.921058654785156,-5.077033042907715,0.6899634599685669,-0.0,-0.0,-1.0,0.129974649470117,1.0,1.0
10.88534927368164,-5.367923736572266,0.692313551902771,-0.0,-0.0,-1.0,0.0867363875857383,1.0,1.0
11.187917709350586,-5.609910488128662,0.7199317216873169,0.8256830975295265,0.4439991065364542,-0.3480118041803708,0.1423231943957692,5.0,1.0
10.843204498291016,-5.764787197113037,0.6952611207962036,-0.0,-0.0,-1.0,0.1261796327551922,2.0,1.0
11.161541938781738,-6.283525466918945,0.7267861366271973,-0.0,-0.0,-1.0,0.2228146934858166,2.0,1.0
12.622300148010254,-4.952576637268066,0.815680980682373,-0.0,-0.0,-1.0,0.2118658256175159,1.0,1.0
11.986302375793455,-5.378434658050537,0.7774060964584351,-0.0,-0.0,-1.0,0.1820776644113075,1.0,1.0
11.279720306396484,-6.166207313537598,1.2344589233398438,-0.0,-0.0,-1.0,0.0700122076104472,2.0,2.0
12.671210289001465,-6.410017013549805,0.8478349447250366,-0.0,-0.0,-1.0,0.0698860193144064,1.0,1.0
12.6150484085083,-6.85393762588501,0.8484474420547485,-0.0,-0.0,-1.0,0.0669388835879177,1.0,1.0
12.089567184448242,-4.7431793212890625,0.1944981813430786,-0.0,-0.0,-1.0,0.1218100391785765,2.0,1.0
12.663928031921388,-4.567526340484619,0.2483059167861938,-0.0,-0.0,-1.0,0.0834101573097173,1.0,1.0
12.569952964782717,-4.782296657562256,0.249064564704895,-0.0,-0.0,-1.0,0.2756084014130002,2.0,1.0
12.11794090270996,-5.064682483673096,0.2125371694564819,-0.0,-0.0,-1.0,0.1805028025278703,1.0,1.0
12.644649505615234,-5.183525562286377,0.2765690088272095,-0.0,-0.0,-1.0,0.1168482998282539,1.0,1.0
12.585529327392578,-5.464228630065918,0.2825733423233032,-0.0,-0.0,-1.0,0.1841404862842493,1.0,1.0
12.25082302093506,-5.507691383361816,0.2466593980789184,-0.0,-0.0,-1.0,0.1465334848896733,2.0,1.0
12.502182006835938,-5.955552101135254,0.2931079864501953,-0.0,-0.0,-1.0,0.0930328185147367,1.0,1.0
12.437311172485352,-6.188257694244385,0.2942224740982055,-0.0,-0.0,-1.0,0.1447402096500658,1.0,1.0
12.457038879394531,-6.81635046005249,0.3167442083358764,-0.0,-0.0,-1.0,0.0765064523341453,2.0,1.0
10.334178924560549,-4.557294845581055,0.5407942533493042,-0.0,-0.0,-1.0,0.1680713278772022,1.0,1.0
10.709307670593262,-5.5249342918396,0.5951954126358032,-0.0,-0.0,-1.0,0.0763701962060979,2.0,1.0
11.185236930847168,-5.6672844886779785,0.6379812955856323,0.4744328635411136,0.7375163658117898,-0.480606978883941,0.1000058634054143,3.0,1.0
10.28403663635254,-6.246951580047607,0.5724488496780396,0.1445172646740763,0.4943285472710896,-0.8571779555984725,0.1017595315431284,3.0,1.0
10.248428344726562,-6.400235176086426,0.5716227293014526,-0.0,-0.0,-1.0,0.0876547751245064,2.0,1.0
12.156708717346191,-5.364732265472412,0.710345983505249,-0.0,-0.0,-1.0,0.1300597482262764,2.0,1.0
11.024832725524902,-6.21788215637207,0.6353127956390381,-0.0,-0.0,-1.0,0.1541009558651158,1.0,1.0
12.623790740966797,-4.994969367980957,0.7366949319839478,-0.5253310236249602,-0.3902925810039639,-0.7561078076771962,0.2059058113514772,6.0,1.0
12.12235164642334,-5.552044868469238,0.7125340700149536,-0.0,-0.0,-1.0,0.2000496533636516,2.0,1.0
12.687664985656738,-6.484585762023926,0.7809430360794067,0.5166410904607719,-0.0738493111823058,-0.8530112911828326,0.045660062064744,3.0,1.0
10.43637752532959,-5.706213474273682,0.452932596206665,-0.0,-0.0,-1.0,0.133431818479378,2.0,1.0
12.627809524536133,-4.364192485809326,0.5891914367675781,-0.0,-0.0,-1.0,0.1831470737603363,2.0,1.0
12.393310546875,-4.602808952331543,0.5809776782989502,-0.0,-0.0,-1.0,0.1204173978156674,1.0,1.0
12.092790603637695,-4.919439792633057,0.5694780349731445,-0.5762547240321972,-0.2540995811669215,-0.7767650197333625,0.1234794945319356,3.0,1.0
11.715912818908691,-4.8636345863342285,0.5355446338653564,-0.0,-0.0,-1.0,0.1922062062355994,1.0,1.0
12.572246551513672,-5.047144889831543,0.6147419214248657,0.50550953140591,0.4744723350133899,-0.7206497880140664,0.2154796319894706,3.0,1.0
12.182120323181152,-4.917906761169434,0.5768892765045166,-0.0,-0.0,-1.0,0.1261466084381899,2.0,1.0
11.096552848815918,-6.123812198638916,0.5244259834289551,-0.0,-0.0,-1.0,0.1350476020695248,1.0,1.0
10.67990493774414,-5.4283833503723145,0.9821583032608032,-0.0,-0.0,-1.0,0.1015356498352682,1.0,1.0
11.172636985778809,-6.266343116760254,1.0231530666351318,0.7414071884564699,0.3956387706854544,-0.5420196897120763,0.0665407307243855,3.0,2.0
12.670016288757324,-5.9902215003967285,0.2232670783996582,-0.0,-0.0,-1.0,0.0558592030831945,1.0,1.0
10.970367431640623,-5.268731117248535,0.4932228326797485,-0.0,-0.0,-1.0,0.0881019193564736,1.0,1.0
10.71395206451416,-5.519757270812988,0.4861270189285278,-0.0,-0.0,-1.0,0.1261042998646235,1.0,1.0
12.152043342590332,-4.855658531188965,0.5576428174972534,-0.0,-0.0,-1.0,0.2357627434388111,2.0,1.0
11.13176155090332,-6.209836483001709,0.5540522336959839,-0.3700877354570825,-0.617301740216293,-0.6942432063694862,0.0976808573605088,3.0,1.0
12.591741561889648,-4.896419048309326,0.5914949178695679,-0.0,-0.0,-1.0,0.2158169400582347,2.0,1.0
12.211849212646484,-5.3541460037231445,0.5929278135299683,-0.5018444350032206,0.8585903250195519,0.1047607600159451,0.2087850821857764,3.0,1.0
12.622794151306152,-6.136938571929932,0.2293726205825805,-0.0,-0.0,-1.0,0.0783475397601387,1.0,1.0
10.233624458312988,-5.876474380493164,0.9782127141952516,-0.0,-0.0,-1.0,0.1829941499513462,2.0,1.0
12.433771133422852,-5.980959892272949,0.6462254524230957,-0.3715499476002755,-0.5196824083637102,-0.7693379172220273,0.1249800784989398,3.0,1.0
12.646937370300291,-6.425567150115967,0.6872023344039917,-0.0,-0.0,-1.0,0.0549704862084261,1.0,1.0
12.41185474395752,-6.666733264923096,0.2507979869842529,-0.0,-0.0,-1.0,0.05601602384078,2.0,1.0
10.396432876586914,-5.705491065979004,0.4595211744308471,-0.1585630459942132,0.1427543974241882,-0.9769743816810624,0.1203537611741194,3.0,1.0
12.072221755981444,-5.440787315368652,0.5616269111633301,0.3100493578200727,0.902716251363988,-0.2982830287473788,0.2274630929028509,4.0,1.0
12.708148002624512,-5.552669525146484,0.6160337924957275,-0.0,-0.0,-1.0,0.134454550486439,1.0,1.0
11.780973434448242,-4.677407264709473,0.9714888334274292,-0.0,-0.0,-1.0,0.2051708564207267,2.0,1.0
12.110175132751465,-6.201698303222656,0.2805533409118652,-0.0,-0.0,-1.0,0.1403425742076101,2.0,1.0
12.061511993408203,-6.398916244506836,0.2971200942993164,-0.0,-0.0,-1.0,0.1208612560145026,1.0,1.0
12.227352142333984,-6.451149940490723,0.3189268112182617,-0.0,-0.0,-1.0,0.0487505391876476,1.0,1.0
10.279996871948242,-5.735743522644043,0.5803035497665405,-0.0,-0.0,-1.0,0.1886674895587752,1.0,1.0
11.150105476379396,-6.2816572189331055,0.688621997833252,-0.7896274009097579,-0.5771218975480032,0.2083719825290644,0.1610086520343366,3.0,1.0
11.192787170410156,-6.236814498901367,1.179349422454834,0.9449384170083722,0.2857706212237839,0.1594570164874656,0.05587504522888,4.0,2.0
10.80540657043457,-5.485378265380859,0.2312123775482177,-0.0,-0.0,-1.0,0.2117653953051244,1.0,1.0
10.84334659576416,-5.591470718383789,0.2469239234924316,-0.0,-0.0,-1.0,0.1341123252885629,1.0,1.0
11.016996383666992,-5.608962059020996,0.2613083124160766,-0.0,-0.0,-1.0,0.1858293018450793,1.0,1.0
12.04011058807373,-4.635683059692383,0.1994855403900146,-0.0,-0.0,-1.0,0.1354551529844402,1.0,1.0
12.171496391296388,-4.588320732116699,0.2003254890441894,-0.0,-0.0,-1.0,0.1631883096296194,1.0,1.0
10.373794555664062,-5.0611724853515625,0.7010213136672974,0.051071480979632,0.9513168982723303,-0.3039537183389271,0.1372183583195188,3.0,1.0
10.959897994995115,-4.742544174194336,0.6931328773498535,-0.0,-0.0,-1.0,0.1338263074709969,1.0,1.0
10.594719886779783,-6.752566337585449,0.3643219470977783,-0.0,-0.0,-1.0,0.0500811006434377,1.0,1.0
10.71371841430664,-6.597198486328125,0.3562058210372925,-0.0,-0.0,-1.0,0.0440718056953797,1.0,1.0
11.179899215698242,-6.281255722045898,0.354727029800415,-0.0,-0.0,-1.0,0.2076641377593746,2.0,1.0
11.285386085510254,-6.80394172668457,0.4241738319396972,-0.0,-0.0,-1.0,0.0536988147319988,1.0,1.0
12.375771522521973,-4.850451469421387,0.2478978633880615,-0.0,-0.0,-1.0,0.1549564052096038,1.0,1.0
12.070280075073242,-6.048628807067871,0.3883509635925293,-0.0,-0.0,-1.0,0.1372495012914669,1.0,1.0
12.67663288116455,-5.1102752685546875,0.3004875183105469,-0.0,-0.0,-1.0,0.1617782779754199,1.0,1.0
12.230527877807615,-5.813758850097656,0.3683376312255859,-0.0,-0.0,-1.0,0.0926157854521427,1.0,1.0
12.193397521972656,-6.100743293762207,0.4031506776809692,-0.0,-0.0,-1.0,0.2356610965245008,1.0,1.0
10.682802200317385,-5.411105155944824,0.7494118213653564,-0.0,-0.0,-1.0,0.122693686720546,1.0,1.0
11.475128173828123,-5.037639617919922,0.4525563716888428,-0.0,-0.0,-1.0,0.1013480880220426,1.0,1.0
11.887537002563477,-5.216058731079102,0.4867370128631592,-0.0,-0.0,-1.0,0.2463705541216947,1.0,1.0
11.829345703125,-5.349882125854492,0.3095014095306396,-0.0,-0.0,-1.0,0.2324193016199505,2.0,1.0
12.34511947631836,-4.896495819091797,0.3160960674285888,-0.0,-0.0,-1.0,0.1071907390043209,2.0,1.0
12.54555320739746,-5.360082626342773,0.5949432849884033,-0.0,-0.0,-1.0,0.1974944416897161,1.0,1.0
12.56772804260254,-4.805061340332031,0.2198729515075683,-0.0,-0.0,-1.0,0.2522334469930818,2.0,1.0
12.530376434326172,-5.382051467895508,0.2616102695465088,-0.8482705803589938,-0.4660471232106649,-0.2514698817840404,0.166886876660619,3.0,1.0
12.065868377685549,-4.98979377746582,0.5836913585662842,-0.0,-0.0,-1.0,0.1374277724635259,2.0,1.0
12.59774398803711,-5.076118469238281,0.6135513782501221,-0.0,-0.0,-1.0,0.177444530093805,2.0,1.0
10.913101196289062,-5.318605422973633,0.4948701858520508,-0.0,-0.0,-1.0,0.0861015155894931,2.0,1.0
12.12208366394043,-5.541286468505859,0.5939154624938965,-0.0,-0.0,-1.0,0.2200342332676073,1.0,1.0
10.741228103637695,-4.72943115234375,0.4148221015930176,-0.0,-0.0,-1.0,0.1301321133261637,2.0,1.0
10.259115219116213,-6.231842041015625,0.4835946559906006,0.5202718520886872,0.8220953018953654,0.231249896271924,0.1010663862805565,3.0,1.0
12.646187782287598,-6.493988037109375,0.676196813583374,0.9344175747003842,-0.0093762576053945,-0.3560560094765559,0.0558597477127415,4.0,1.0
11.577503204345703,-4.801929473876953,0.4788236618041992,-0.0,-0.0,-1.0,0.1742839025474461,1.0,1.0
10.402896881103516,-5.670536041259766,0.4635796546936035,-0.0,-0.0,-1.0,0.1518399018202844,2.0,1.0
10.226144790649414,-6.212551116943359,0.4891929626464844,-0.0,-0.0,-1.0,0.0691844223378093,2.0,1.0
10.8262357711792,-5.558647155761719,0.6706638336181641,-0.3899634209560804,0.1152620322564907,-0.9135880878362715,0.2414213757468929,3.0,1.0
11.225014686584473,-6.339740753173828,0.7507326602935791,-0.0,-0.0,-1.0,0.1545187434135442,1.0,1.0
11.672205924987791,-4.855619430541992,0.8156013488769531,-0.0,-0.0,-1.0,0.0713548552778303,1.0,1.0
10.302983283996582,-5.785114288330078,0.85011887550354,-0.0,-0.0,-1.0,0.1252153000786439,2.0,1.0
10.64370059967041,-4.773632049560547,0.2528035640716553,-0.0,-0.0,-1.0,0.2417010152521242,1.0,1.0
10.394091606140137,-5.273429870605469,0.2721271514892578,-0.0,-0.0,-1.0,0.1928976592465176,1.0,1.0
10.285277366638184,-5.876853942871094,0.3106892108917236,-0.0,-0.0,-1.0,0.1615234181860841,2.0,1.0
11.18673038482666,-6.271324157714844,0.4194755554199219,0.3614472049521008,-0.9276109592351752,0.0943070853070566,0.2308945993627549,5.0,1.0
11.123900413513184,-6.832857131958008,0.4588627815246582,-0.0,-0.0,-1.0,0.05462761084265,1.0,1.0
10.43608570098877,-6.663116455078125,0.3854627609252929,-0.0,-0.0,-1.0,0.0556322560082029,1.0,1.0
10.927079200744627,-5.31968879699707,0.3431692123413086,-0.0,-0.0,-1.0,0.1083176844452034,1.0,1.0
11.977950096130373,-6.356660842895508,0.5126268863677979,-0.0,-0.0,-1.0,0.0934343305730559,1.0,1.0
11.115792274475098,-5.767948150634766,0.3966960906982422,-0.0,-0.0,-1.0,0.2422978221887285,1.0,1.0
11.853116035461426,-6.458717346191406,0.5124971866607666,-0.0,-0.0,-1.0,0.1593118937559679,1.0,1.0
11.196380615234377,-6.3354644775390625,0.4524095058441162,0.3213931084705427,0.8793420655294266,-0.3513744464500566,0.118818773445286,3.0,1.0
10.856219291687012,-6.276754379272461,0.4212493896484375,-0.0,-0.0,-1.0,0.1270865848624245,1.0,1.0
10.597626686096191,-4.937562942504883,0.829498291015625,0.2657950425404893,-0.0737012154360321,-0.9612081596637386,0.1335024986782768,3.0,1.0
11.913284301757812,-6.347562789916992,0.2687013149261474,-0.0,-0.0,-1.0,0.2012055709439891,1.0,1.0
11.117263793945312,-6.279314041137695,0.9405767917633056,-0.0,-0.0,-1.0,0.0500581016044769,1.0,1.0
12.613595962524414,-4.410615921020508,0.3784284591674804,0.5386792348565953,-0.5660884675930716,-0.6239940134267644,0.1538404711044365,3.0,1.0
12.559288024902344,-5.109357833862305,0.4432816505432129,-0.0,-0.0,-1.0,0.1478827939606,2.0,1.0
11.76291847229004,-5.200998306274414,0.3802146911621094,-0.0,-0.0,-1.0,0.2157689956406229,1.0,1.0
11.161067008972168,-6.184789657592773,0.4189848899841308,-0.0,-0.0,-1.0,0.2099506897791468,2.0,1.0
11.102521896362305,-5.684858322143555,0.3655016422271728,-0.0,-0.0,-1.0,0.2281832272739834,2.0,1.0
10.977294921875,-5.486196517944336,0.3345348834991455,-0.0,-0.0,-1.0,0.1841924757375957,1.0,1.0
11.14585304260254,-6.294216156005859,0.4279799461364746,0.0538184226444113,-0.6378806979423471,-0.7682524276412351,0.1680340764976744,4.0,1.0
10.88424015045166,-6.153408050537109,0.3894386291503906,0.843095976145411,-0.5349290813086217,0.055136675432333,0.2823638500146564,3.0,1.0
10.278353691101074,-5.782831192016602,0.2956662178039551,-0.0,-0.0,-1.0,0.2313599216663386,1.0,1.0
12.634682655334473,-6.622561454772949,0.3167333602905273,-0.0,-0.0,-1.0,0.2306806902490308,1.0,1.0
12.663565635681152,-6.543497085571289,0.3099091053009033,-0.0,-0.0,-1.0,0.221512581871464,2.0,1.0
12.540630340576172,-6.591102600097656,0.304093599319458,-0.0,-0.0,-1.0,0.1937957695522573,1.0,1.0
11.699647903442385,-4.914669036865234,0.749849796295166,-0.0,-0.0,-1.0,0.128288101889978,2.0,1.0
11.15492820739746,-5.524242401123047,0.7622771263122559,-0.0,-0.0,-1.0,0.1484353849296103,1.0,1.0
11.090229034423828,-5.940814971923828,0.793811559677124,-0.0,-0.0,-1.0,0.1628915861797469,1.0,1.0
10.807456016540527,-5.380189895629883,0.7222099304199219,-0.0,-0.0,-1.0,0.1285333722436749,1.0,1.0
10.682642936706545,-4.506227493286133,0.6353130340576172,-0.0,-0.0,-1.0,0.1372059559995544,1.0,1.0
10.266653060913086,-5.091146469116211,0.6538248062133789,0.5018403655415917,0.4570684671217148,-0.7343328018521901,0.1380081179086115,3.0,1.0
10.282630920410156,-6.243074417114258,0.7545921802520752,-0.0,-0.0,-1.0,0.0874944891781851,1.0,1.0
10.252020835876465,-5.713817596435547,0.7066190242767334,-0.0,-0.0,-1.0,0.1270351399163201,2.0,1.0
12.61722469329834,-6.05416202545166,0.2691793441772461,-0.2331713796050933,0.4652125042719586,-0.8539370196929456,0.0538845941334537,3.0,1.0
12.00118637084961,-6.77323055267334,0.3004882335662842,-0.0,-0.0,-1.0,0.0213266095017973,1.0,1.0
11.083788871765137,-6.218235969543457,0.8036482334136963,-0.0,-0.0,-1.0,0.2091902835666187,1.0,1.0
11.123433113098145,-6.050440788269043,0.7909305095672607,-0.0,-0.0,-1.0,0.1991634526736023,1.0,1.0
10.82741355895996,-5.500150680541992,0.7139854431152344,0.8219341823686636,-0.2795546641981129,-0.4962593974717619,0.1661728606000026,3.0,1.0
11.022500991821287,-5.30134391784668,0.710824728012085,-0.0,-0.0,-1.0,0.1621231737703096,1.0,1.0
10.366305351257324,-5.681515693664551,0.6929376125335693,-0.0,-0.0,-1.0,0.121013523338546,2.0,1.0
12.67923069000244,-5.052679061889648,0.5938200950622559,-0.0,-0.0,-1.0,0.1417335134111599,1.0,1.0
12.543745994567873,-5.068295478820801,0.5808243751525879,-0.0,-0.0,-1.0,0.2439759208319053,2.0,1.0
12.16333293914795,-4.923525810241699,0.5246486663818359,0.4124513217640643,-0.90966091551298,-0.0489992445162486,0.1440912623593011,4.0,1.0
11.18392562866211,-6.277764320373535,0.5465099811553955,-0.0,-0.0,-1.0,0.1108335563098899,2.0,1.0
11.112653732299805,-6.069647789001465,0.5181598663330078,-0.0,-0.0,-1.0,0.1617599428667296,1.0,1.0
10.922648429870604,-5.254866600036621,0.4172811508178711,-0.0,-0.0,-1.0,0.0948874211839893,1.0,1.0
10.70253849029541,-4.712799072265625,0.3389792442321777,-0.9833587994429236,0.0094754830711086,0.181426808324295,0.1962748012018503,3.0,1.0
10.297385215759276,-5.7233171463012695,0.387937068939209,-0.0,-0.0,-1.0,0.1541247090047932,2.0,1.0
10.515522956848145,-5.135900497436523,0.358102798461914,-0.0,-0.0,-1.0,0.1976288214794352,2.0,1.0
11.188569068908691,-6.209718704223633,1.168489933013916,0.9449384170083722,0.2857706212237839,0.1594570164874656,0.056513546634959,4.0,2.0
12.676258087158203,-6.557511329650879,0.320406436920166,-0.0,-0.0,-1.0,0.1954692880304833,2.0,1.0
12.655332565307615,-6.06541633605957,0.2526426315307617,-0.0,-0.0,-1.0,0.0703984111175287,2.0,1.0
12.38177490234375,-6.462367057800293,0.2699825763702392,-0.0,-0.0,-1.0,0.0710125035709387,2.0,1.0
12.389654159545898,-4.80552864074707,0.6675734519958496,-0.0,-0.0,-1.0,0.1372293841658802,1.0,1.0
12.12572956085205,-5.495484352111816,0.7115540504455566,-0.4691711535821652,0.8506805089340039,-0.2371098909074946,0.199597040185727,3.0,1.0
11.76468563079834,-4.50465202331543,0.5708770751953125,-0.0,-0.0,-1.0,0.1712103127138809,1.0,1.0
10.780722618103027,-5.57421875,0.5710175037384033,-0.0,-0.0,-1.0,0.1621084273151507,2.0,1.0
12.697358131408691,-6.451737403869629,0.8709769248962402,-0.0,-0.0,-1.0,0.0316936989327929,2.0,1.0
12.607426643371582,-5.89567756652832,0.3361914157867431,-0.0,-0.0,-1.0,0.1688871749265223,2.0,1.0
12.536968231201172,-4.8968048095703125,0.1880218982696533,-0.0,-0.0,-1.0,0.2326905902257793,1.0,1.0
12.121638298034668,-6.229038238525391,0.3184566497802734,0.617573311221452,-0.3524077620019063,-0.7031443483011003,0.2099308106262143,4.0,1.0
12.180767059326172,-6.0357770919799805,0.3001067638397217,-0.0,-0.0,-1.0,0.1345067191774925,1.0,1.0
12.252016067504885,-5.231618881225586,0.1990954875946045,-0.0,-0.0,-1.0,0.1581941333645982,1.0,1.0
11.723172187805176,-6.4127397537231445,0.2893173694610595,-0.0,-0.0,-1.0,0.1598791375134006,1.0,1.0
11.84482765197754,-6.131072044372559,0.2683913707733154,-0.0,-0.0,-1.0,0.0973908237383556,1.0,1.0
10.94210147857666,-5.248587608337402,0.6316111087799072,-0.0,-0.0,-1.0,0.1006674438701219,1.0,1.0
10.941678047180176,-6.161992073059082,0.7256782054901123,-0.0,-0.0,-1.0,0.1923547135466737,1.0,1.0
12.001078605651855,-4.944675445556641,0.4108047485351562,-0.0,-0.0,-1.0,0.128569423371382,2.0,1.0
11.872222900390623,-4.48873233795166,0.3385822772979736,-0.0,-0.0,-1.0,0.2358027164330351,1.0,1.0
11.646807670593262,-4.732006072998047,0.3335385322570801,-0.0,-0.0,-1.0,0.1715443133061837,1.0,1.0
11.53116226196289,-4.3863983154296875,0.2763566970825195,-0.0,-0.0,-1.0,0.1631735803407167,1.0,1.0
11.084798812866213,-4.9012346267700195,0.2675766944885254,-0.0,-0.0,-1.0,0.2201857866163564,1.0,1.0
11.013879776000977,-4.576478004455566,0.2202248573303222,-0.0,-0.0,-1.0,0.1156834529237705,1.0,1.0
10.830029487609863,-5.498359680175781,0.2936420440673828,-0.0,-0.0,-1.0,0.1415309127996263,1.0,1.0
10.800410270690918,-4.636068344116211,0.1942348480224609,-0.0,-0.0,-1.0,0.2925399536408533,2.0,1.0
10.359484672546388,-5.75255012512207,0.2453577518463134,-0.0,-0.0,-1.0,0.2693195543734822,1.0,1.0
10.416889190673828,-5.058577537536621,0.1807096004486084,-0.1187230169366632,-0.9319857842544952,-0.3425015959042969,0.2197723693021848,4.0,1.0
10.462674140930176,-6.337183952331543,0.3227877616882324,-0.0,-0.0,-1.0,0.1000196516880327,1.0,1.0
10.301563262939451,-5.810642242431641,0.2420086860656738,-0.0,-0.0,-1.0,0.276799620368768,1.0,1.0
12.373577117919922,-5.976065635681152,0.5853567123413086,-0.0,-0.0,-1.0,0.1574936793937573,2.0,1.0
11.982325553894045,-5.368735313415527,0.4569873809814453,-0.0,-0.0,-1.0,0.2328256827378399,2.0,1.0
11.016778945922852,-6.769776344299316,0.4582729339599609,-0.0,-0.0,-1.0,0.0421096871443796,1.0,1.0
11.028291702270508,-6.175362586975098,0.3978464603424072,-0.0,-0.0,-1.0,0.1051671294132213,1.0,1.0
10.991087913513184,-6.816135406494141,0.4588360786437988,-0.0,-0.0,-1.0,0.0381503940425705,2.0,1.0
10.829730033874512,-6.190647125244141,0.3674919605255127,0.1947576425626335,-0.9289167773477024,-0.3149334555511767,0.1865204854585581,3.0,1.0
10.494325637817385,-6.746493339538574,0.3695411682128906,-0.0,-0.0,-1.0,0.0842481081286782,2.0,1.0
10.449281692504885,-6.428804397583008,0.8711636066436768,0.0982153163814533,0.9859001762800892,-0.1354791276875535,0.124907510548864,3.0,1.0
11.88957405090332,-4.519908905029297,0.2105755805969238,-0.0,-0.0,-1.0,0.1529170712915037,1.0,1.0
11.466394424438477,-4.712635040283203,0.1703529357910156,-0.0,-0.0,-1.0,0.1402616260273927,2.0,1.0
11.425995826721191,-4.756382942199707,0.1697781085968017,-0.0,-0.0,-1.0,0.0962976970243214,2.0,1.0
10.927967071533203,-5.1012420654296875,0.1337101459503173,-0.0,-0.0,-1.0,0.1200608008410412,2.0,1.0
10.55912971496582,-5.145539283752441,0.0773477554321289,-0.0,-0.0,-1.0,0.1236509489443657,2.0,1.0
12.647377014160156,-4.749719619750977,0.3583080768585205,-0.0,-0.0,-1.0,0.2468719300387883,1.0,1.0
12.035093307495115,-4.853952407836914,0.2794222831726074,-0.0,-0.0,-1.0,0.2230988650650812,1.0,1.0
12.648956298828123,-6.49147891998291,0.5995955467224121,0.9268409118773764,-0.3624158505109896,0.0980850415135229,0.0567773290128329,4.0,1.0
11.956750869750977,-5.786776542663574,0.3933627605438232,-0.0,-0.0,-1.0,0.1182066986117814,2.0,1.0
12.063220024108888,-5.420368194580078,0.3613746166229248,-0.9333769540518192,-0.1321489886698294,-0.333682643298223,0.1380586207675412,4.0,1.0
11.883166313171388,-4.896697044372559,0.2615277767181396,-0.0,-0.0,-1.0,0.1691556285796224,2.0,1.0
12.02695655822754,-6.13502311706543,0.450847864151001,-0.0,-0.0,-1.0,0.1910714812783356,2.0,1.0
11.884315490722656,-5.846688270568848,0.3894538879394531,-0.0,-0.0,-1.0,0.0958938953077447,2.0,1.0
11.289351463317873,-6.202730178833008,0.3354716300964355,0.2601701959443209,-0.260698175541786,-0.9297031410140968,0.2340220214558939,3.0,1.0
11.162550926208496,-5.913908958435059,0.2774062156677246,-0.0,-0.0,-1.0,0.2146983671009034,1.0,1.0
10.43932819366455,-4.460596084594727,0.5277531147003174,-0.0,-0.0,-1.0,0.0787999700292744,1.0,1.0
11.2611083984375,-6.623356819152832,0.3827831745147705,-0.0,-0.0,-1.0,0.0582292111827639,2.0,1.0
11.138860702514648,-6.400362014770508,0.3339533805847168,-0.0,-0.0,-1.0,0.1658176642820998,1.0,1.0
10.879281044006348,-6.793771743774414,0.3357717990875244,-0.0,-0.0,-1.0,0.0332641037882525,1.0,1.0
10.854616165161133,-6.499530792236328,0.2962183952331543,-0.0,-0.0,-1.0,0.0493776692646123,1.0,1.0
12.243341445922852,-5.213413238525391,0.8579788208007812,0.5402311216426973,0.5733065755092188,-0.6160112869798456,0.0995557013184865,4.0,1.0
11.681163787841797,-4.694769859313965,0.7257199287414551,0.3035561073006497,-0.603444724236192,-0.7373656857435004,0.1307654255846029,3.0,1.0
11.184945106506348,-5.591569900512695,0.749995231628418,0.8186629419137053,0.5226731602480664,-0.2379154368541405,0.2544026795032616,3.0,1.0
11.124741554260254,-6.257403373718262,0.8074202537536621,-0.0,-0.0,-1.0,0.1644862611412628,2.0,1.0
11.094051361083984,-6.007903099060059,0.7783889770507812,-0.0,-0.0,-1.0,0.2290072770072356,1.0,1.0
10.779972076416016,-5.503209114074707,0.6822726726531982,0.2275181146364096,0.0858815862329529,-0.9699793093970642,0.184999985281955,3.0,1.0
10.258718490600586,-5.680910110473633,0.6222457885742188,-0.0,-0.0,-1.0,0.1830187198270815,1.0,1.0
10.240121841430664,-5.589792251586914,0.610710620880127,-0.0,-0.0,-1.0,0.1104582807080568,1.0,1.0
12.701744079589844,-6.366874694824219,1.044604778289795,-0.0,-0.0,-1.0,0.0806029851302654,1.0,2.0
12.68252658843994,-4.84377384185791,0.5444238185882568,-0.0,-0.0,-1.0,0.1636104556234607,1.0,1.0
12.55126953125,-5.006256103515625,0.5502545833587646,-0.0,-0.0,-1.0,0.2331703384416815,2.0,1.0
12.253377914428713,-4.838644027709961,0.4820699691772461,-0.0,-0.0,-1.0,0.1304336456497141,1.0,1.0
12.561186790466309,-6.294432640075684,0.3137779235839844,-0.0,-0.0,-1.0,0.1032675408839948,2.0,1.0
12.51690673828125,-6.0120086669921875,0.257307767868042,-0.0,-0.0,-1.0,0.1227960224325804,1.0,1.0
12.54097843170166,-5.723415374755859,0.2113173007965088,-0.0,-0.0,-1.0,0.1285771278183032,2.0,1.0
12.124667167663574,-5.393139839172363,0.5444397926330566,-0.0,-0.0,-1.0,0.2057356694999864,2.0,1.0
12.093929290771484,-4.900811195373535,0.4680521488189697,-0.0,-0.0,-1.0,0.1477884098115272,1.0,1.0
11.738628387451172,-4.647091865539551,0.3781499862670898,-0.0,-0.0,-1.0,0.1679890871538886,2.0,1.0
12.19227695465088,-6.486754417419434,0.2800993919372558,-0.0,-0.0,-1.0,0.0450736920967067,1.0,1.0
12.212427139282228,-6.251435279846191,0.2443432807922363,-0.0,-0.0,-1.0,0.1191468284840469,1.0,1.0
11.531874656677246,-5.027593612670898,0.4017424583435058,-0.0,-0.0,-1.0,0.108261549365614,1.0,1.0
11.994148254394531,-6.723597526550293,0.2823758125305176,-0.0,-0.0,-1.0,0.0505652112869954,1.0,1.0
11.970630645751951,-6.479973793029785,0.2382559776306152,-0.0,-0.0,-1.0,0.1218282438630768,2.0,1.0
11.182604789733888,-5.647239685058594,0.43304443359375,-0.0,-0.0,-1.0,0.1279436013209081,1.0,1.0
10.984123229980469,-4.833644866943359,0.2892582416534424,-0.0,-0.0,-1.0,0.1986506302603747,1.0,1.0
10.79629898071289,-4.719998359680176,0.2438347339630127,-0.0,-0.0,-1.0,0.25720240068101,1.0,1.0
11.157833099365234,-6.224056243896484,0.5063440799713135,-0.0,-0.0,-1.0,0.0830989972824501,2.0,1.0
10.880386352539062,-5.821882247924805,0.4071881771087646,-0.0,-0.0,-1.0,0.1436570118657178,1.0,1.0
10.888163566589355,-5.555233955383301,0.3728313446044922,-0.0,-0.0,-1.0,0.1406502986429473,2.0,1.0
10.329094886779783,-5.7432756423950195,0.304828405380249,-0.0,-0.0,-1.0,0.2309887759790499,2.0,1.0
10.230939865112305,-6.207786560058594,0.3471262454986572,-0.0,-0.0,-1.0,0.1491453039925269,1.0,1.0
10.261361122131348,-5.92647647857666,0.3167958259582519,0.2737696086277114,-0.9488415306540128,0.1573211718046232,0.0951853247317447,3.0,1.0
10.229832649230955,-6.555509567260742,0.3900115489959717,-0.0,-0.0,-1.0,0.1167179788223591,2.0,1.0
12.69251823425293,-6.417060852050781,0.7779006958007812,0.7654748645350195,-0.4589553054607138,-0.4510080479931116,0.0482598633031069,3.0,1.0
12.501714706420898,-5.965328216552734,0.6840107440948486,-0.0,-0.0,-1.0,0.085676363472093,1.0,1.0
11.742414474487305,-4.671391487121582,0.867239236831665,-0.0,-0.0,-1.0,0.1096019675472436,2.0,1.0
11.226548194885254,-5.985167503356934,0.9460885524749756,-0.0,-0.0,-1.0,0.1182911728767226,1.0,1.0
10.351480484008787,-5.644665718078613,0.786745548248291,-0.0,-0.0,-1.0,0.1682958240973306,2.0,1.0
12.706561088562012,-5.028334617614746,0.2242491245269775,-0.0,-0.0,-1.0,0.1346395251558177,1.0,1.0
12.704124450683594,-4.800204277038574,0.1793904304504394,-0.0,-0.0,-1.0,0.1728167966315758,1.0,1.0
12.46745491027832,-5.230893135070801,0.2221128940582275,-0.0,-0.0,-1.0,0.1235050372061264,1.0,1.0
12.386981010437012,-5.104463577270508,0.1840982437133789,-0.0,-0.0,-1.0,0.1168829822200164,1.0,1.0
12.318155288696287,-5.857666015625,0.3131012916564941,-0.0,-0.0,-1.0,0.161984262730258,2.0,1.0
12.24574851989746,-5.358526229858398,0.2074885368347168,-0.0,-0.0,-1.0,0.1913583599513882,2.0,1.0
12.179962158203123,-5.2018632888793945,0.1664333343505859,-0.0,-0.0,-1.0,0.0563006438118535,1.0,1.0
11.67329216003418,-4.750618934631348,0.4471888542175293,-0.5398489385286223,-0.1114099816991005,-0.8343566021476226,0.2479606468930954,3.0,1.0
12.041576385498049,-5.997653961181641,0.2877638339996338,-0.0,-0.0,-1.0,0.1160675922778766,1.0,1.0
11.677478790283203,-6.145744323730469,0.2450699806213379,-0.0,-0.0,-1.0,0.0719353387960764,2.0,1.0
10.7830228805542,-4.702524185180664,0.2968239784240722,-0.0,-0.0,-1.0,0.174245149126763,1.0,1.0
10.59438419342041,-4.65330696105957,0.2582910060882568,-0.0,-0.0,-1.0,0.1198434693465442,2.0,1.0
11.515491485595703,-6.779788017272949,0.3218305110931396,-0.0,-0.0,-1.0,0.0215446633641896,1.0,1.0
10.70950698852539,-5.493175506591797,0.4013845920562744,-0.0,-0.0,-1.0,0.113854206463365,1.0,1.0
10.456500053405762,-4.635227203369141,0.2326679229736328,-0.0,-0.0,-1.0,0.2129614833355214,2.0,1.0
10.293212890625,-5.685426712036133,0.3565013408660888,-0.0,-0.0,-1.0,0.1658550096191191,2.0,1.0
12.63202667236328,-5.012006759643555,0.635183572769165,-0.8805343245931142,-0.1235936220327972,-0.4575848771606884,0.1864931549773734,3.0,1.0
12.700078010559082,-4.894289016723633,0.6258335113525391,-0.0,-0.0,-1.0,0.1325147231129196,1.0,1.0
12.399251937866213,-4.51779842376709,0.520047664642334,-0.0,-0.0,-1.0,0.1374635057029321,1.0,1.0
12.175609588623049,-4.899407386779785,0.5483832359313965,0.933986458966914,-0.162017531624459,-0.3184644625586376,0.1314516560171943,3.0,1.0
12.136343002319336,-5.375724792480469,0.6177964210510254,-0.0,-0.0,-1.0,0.2040295565591409,1.0,1.0
12.555651664733888,-6.842987537384033,0.5359804630279541,-0.0,-0.0,-1.0,0.1124463709590166,1.0,1.0
11.185014724731444,-5.63352108001709,0.5025773048400879,-0.0,-0.0,-1.0,0.11036686501278,2.0,1.0
11.186043739318848,-6.2403717041015625,0.5909552574157715,-0.0,-0.0,-1.0,0.1839150052429261,1.0,1.0
11.117792129516602,-6.227609634399414,0.5773024559020996,-0.0,-0.0,-1.0,0.1437161288859093,2.0,1.0
11.023306846618652,-5.6458539962768555,0.4770820140838623,-0.0,-0.0,-1.0,0.080802914141095,1.0,1.0
10.380632400512695,-4.9156389236450195,0.7354941368103027,-0.0,-0.0,-1.0,0.0828835078831743,2.0,1.0
10.249658584594728,-5.588828086853027,0.795250415802002,-0.0,-0.0,-1.0,0.1582665228645944,1.0,1.0
10.266742706298828,-6.176015853881836,0.4195494651794433,-0.0,-0.0,-1.0,0.1140601703200211,1.0,1.0
12.674492835998535,-6.776166915893555,0.9203834533691406,-0.0,-0.0,-1.0,0.0660692014682899,2.0,1.0
12.70047092437744,-4.882701873779297,0.461014986038208,-0.466604669671359,-0.5634503828399631,-0.6817651709484585,0.185844508032047,3.0,1.0
12.646432876586914,-5.651278495788574,0.2243971824645996,-0.0,-0.0,-1.0,0.1117506207057119,1.0,1.0
12.15219497680664,-4.906415939331055,0.3676629066467285,0.2124232759831144,-0.8611481349720467,-0.4618443909530209,0.1437337633515137,3.0,1.0
12.54489517211914,-6.296268463134766,0.3401441574096679,-0.0,-0.0,-1.0,0.130213621036045,2.0,1.0
12.559086799621582,-5.908205032348633,0.2614707946777344,-0.0,-0.0,-1.0,0.0778971606122921,2.0,1.0
12.103866577148438,-5.368119239807129,0.4441738128662109,0.327325625427723,0.9442792992462588,0.0345621173156961,0.2007048558756029,3.0,1.0
11.804814338684082,-4.7803850173950195,0.2800130844116211,-0.0,-0.0,-1.0,0.2042439304973675,2.0,1.0
11.694366455078123,-4.568984031677246,0.2202670574188232,-0.0,-0.0,-1.0,0.1288395432871851,2.0,1.0
12.133626937866213,-6.395590305328369,0.2694892883300781,-0.0,-0.0,-1.0,0.0813172522760518,1.0,1.0
12.185184478759766,-6.183599948883057,0.2379636764526367,-0.0,-0.0,-1.0,0.12800929184232,2.0,1.0
11.624319076538086,-5.4272613525390625,0.3627834320068359,-0.0,-0.0,-1.0,0.2561722920254838,1.0,1.0
11.264793395996094,-4.774275779724121,0.1762943267822265,-0.0,-0.0,-1.0,0.1299595491944751,1.0,1.0
11.921686172485352,-6.481311321258545,0.2384583950042724,-0.0,-0.0,-1.0,0.1657432006596404,2.0,1.0
11.117573738098145,-5.629112243652344,0.2967946529388428,-0.0,-0.0,-1.0,0.1531648768763754,1.0,1.0
11.019811630249023,-5.31210994720459,0.2227051258087158,-0.0,-0.0,-1.0,0.1461425040224952,1.0,1.0
10.93315887451172,-4.9243059158325195,0.1380667686462402,-0.0,-0.0,-1.0,0.1026637412383714,1.0,1.0
11.101725578308104,-6.1957597732543945,0.3882267475128174,-0.0,-0.0,-1.0,0.1733473564030911,2.0,1.0
10.6697998046875,-5.411746978759766,0.1683132648468017,-0.0,-0.0,-1.0,0.0988628022959566,1.0,1.0
10.594941139221191,-5.1406402587890625,0.1070823669433593,-0.0,-0.0,-1.0,0.1682372280216098,2.0,1.0
10.751348495483398,-6.225339889526367,0.3186228275299072,-0.0,-0.0,-1.0,0.1097691337407293,1.0,1.0
10.547039031982422,-6.144773006439209,0.2621316909790039,-0.8841827193387956,-0.0646853380682879,-0.462641033482379,0.0791893701807791,3.0,1.0
10.532087326049805,-6.789222717285156,0.3584756851196289,-0.0,-0.0,-1.0,0.0827653794539302,1.0,1.0
10.576743125915527,-6.45543098449707,0.3173394203186035,-0.0,-0.0,-1.0,0.0455817705179609,1.0,1.0
12.67715835571289,-5.017388343811035,0.8675217628479004,-0.0,-0.0,-1.0,0.1813497575774768,1.0,1.0
12.244991302490234,-5.238266944885254,0.8340356349945068,0.5402311216426973,0.5733065755092188,-0.6160112869798456,0.10247090108482,4.0,1.0
12.115874290466309,-4.812444686889648,0.7462239265441895,-0.0,-0.0,-1.0,0.1563162856190218,2.0,1.0
12.664767265319824,-6.42977237701416,0.7437357902526855,0.7654748645350195,-0.4589553054607138,-0.4510080479931116,0.05217210264101,3.0,1.0
12.633689880371094,-6.339868545532227,0.7215735912322998,-0.0,-0.0,-1.0,0.05217210264101,1.0,1.0
12.392822265625,-5.989191055297852,0.6120953559875488,-0.0,-0.0,-1.0,0.1574936793937575,2.0,1.0
11.693748474121094,-4.766744613647461,0.6704962253570557,-0.0,-0.0,-1.0,0.0954851722775074,1.0,1.0
11.553960800170898,-4.454758644104004,0.5991456508636475,-0.0,-0.0,-1.0,0.1884163501610427,2.0,1.0
11.168389320373535,-5.586811065673828,0.7034816741943359,0.946494146269468,0.1842709660348547,-0.2649396953161461,0.1755720168931554,5.0,1.0
10.750913619995115,-4.575828552246094,0.482558012008667,-0.0,-0.0,-1.0,0.1447395483839601,1.0,1.0
11.127220153808594,-6.1417059898376465,0.7746551036834717,-0.0,-0.0,-1.0,0.1575337149065507,1.0,1.0
10.81312370300293,-5.50496768951416,0.6283359527587891,-0.0,-0.0,-1.0,0.1469818780005099,1.0,1.0
10.473944664001465,-4.954501152038574,0.4892277717590332,-0.0,-0.0,-1.0,0.0898246852701126,1.0,1.0
10.96450424194336,-6.803005218505859,0.4559526443481445,-0.0,-0.0,-1.0,0.0383488321588034,2.0,1.0
10.305830001831056,-5.630619525909424,0.5532808303833008,-0.0,-0.0,-1.0,0.1276789873197524,2.0,1.0
11.182308197021484,-6.209165096282959,1.1748363971710205,0.9449384170083722,0.2857706212237839,0.1594570164874656,0.056513546634959,4.0,2.0
12.488809585571287,-5.496169090270996,0.2302126884460449,-0.0,-0.0,-1.0,0.088751092212305,1.0,1.0
12.32156753540039,-5.291446208953857,0.145792007446289,-0.0,-0.0,-1.0,0.1268319800092483,1.0,1.0
12.378446578979492,-4.934452533721924,0.0743205547332763,-0.0,-0.0,-1.0,0.1142521836584791,1.0,1.0
12.287914276123049,-5.883407115936279,0.274113655090332,-0.0,-0.0,-1.0,0.1516754364256699,2.0,1.0
11.682025909423828,-4.575976371765137,0.2313756942749023,-0.0,-0.0,-1.0,0.128839543287185,2.0,1.0
11.689582824707031,-4.399079322814941,0.196988821029663,-0.0,-0.0,-1.0,0.1759631375137927,1.0,1.0
11.83308219909668,-6.247446537017822,0.2470581531524658,-0.0,-0.0,-1.0,0.1010241373053185,1.0,1.0
11.987045288085938,-6.0659260749816895,0.2444000244140625,-0.0,-0.0,-1.0,0.1158510503755305,1.0,1.0
11.147705078125,-4.846886157989502,0.1767494678497314,-0.0,-0.0,-1.0,0.1234872020707696,1.0,1.0
11.137340545654297,-4.663837432861328,0.1389665603637695,-0.0,-0.0,-1.0,0.0633171911311641,2.0,1.0
11.637149810791016,-6.52388334274292,0.2570805549621582,-0.0,-0.0,-1.0,0.053707427689674,1.0,1.0
11.676328659057615,-6.199649810791016,0.1988117694854736,-0.0,-0.0,-1.0,0.0702973909301705,1.0,1.0
10.99787712097168,-5.168417930603027,0.2067689895629882,-0.0,-0.0,-1.0,0.1582575175219498,1.0,1.0
10.852885246276855,-4.806632995605469,0.1071963310241699,-0.0,-0.0,-1.0,0.1478350347875027,1.0,1.0
11.564553260803224,-6.688357353210449,0.2726662158966064,-0.0,-0.0,-1.0,0.0336212358414714,2.0,1.0
10.531824111938477,-5.322042465209961,0.1343142986297607,-0.0,-0.0,-1.0,0.1203033675942405,1.0,1.0
10.523954391479492,-5.047431468963623,0.0821943283081054,-0.0,-0.0,-1.0,0.1997101152915204,1.0,1.0
10.393037796020508,-5.821153163909912,0.1923868656158447,-0.0,-0.0,-1.0,0.1558495320294855,2.0,1.0
10.28768253326416,-5.370248794555664,0.0889248847961425,-0.0,-0.0,-1.0,0.1761890583760693,1.0,1.0
12.667938232421877,-4.883418560028076,0.4838728904724121,-0.466604669671359,-0.5634503828399631,-0.6817651709484585,0.2209820334463278,3.0,1.0
12.562788009643556,-4.518415451049805,0.3874025344848633,-0.0,-0.0,-1.0,0.1060478377576812,1.0,1.0
12.650354385375977,-6.4762492179870605,0.490640640258789,-0.0,-0.0,-1.0,0.0667123268867579,2.0,1.0
12.378377914428713,-5.960422039031982,0.479412317276001,-0.0,-0.0,-1.0,0.194990641512251,1.0,1.0
11.995336532592772,-5.360699653625488,0.4510023593902588,-0.0,-0.0,-1.0,0.2273678252826561,2.0,1.0
11.916006088256836,-4.90540075302124,0.3440949916839599,-0.0,-0.0,-1.0,0.1732700309910891,2.0,1.0
11.710832595825195,-4.670727729797363,0.2561025619506836,-0.0,-0.0,-1.0,0.1570853949334311,2.0,1.0
11.57895278930664,-4.363665580749512,0.5617513656616211,-0.0,-0.0,-1.0,0.2457388501453059,1.0,1.0
11.091350555419922,-5.502438545227051,0.2894418239593506,-0.0,-0.0,-1.0,0.1598037262449596,1.0,1.0
10.974809646606444,-5.276721477508545,0.2221870422363281,-0.0,-0.0,-1.0,0.1617621063084194,1.0,1.0
10.727298736572266,-4.548402786254883,0.4405484199523926,-0.0,-0.0,-1.0,0.1852428604881439,1.0,1.0
11.59103775024414,-6.7130513191223145,0.2843592166900635,-0.0,-0.0,-1.0,0.0326533013350346,2.0,1.0
10.942852973937988,-6.082940101623535,0.3624267578125,-0.0,-0.0,-1.0,0.2852847677144364,2.0,1.0
10.82285499572754,-5.476215839385986,0.4177145957946777,-0.0,-0.0,-1.0,0.1568213066937462,2.0,1.0
10.586258888244627,-5.386236667633057,0.5482540130615234,-0.0,-0.0,-1.0,0.1611314610895095,1.0,1.0
10.536731719970703,-6.166656970977783,0.2848904132843017,-0.8912996499231726,-0.3929773818244348,0.2261718625763219,0.0679781742755697,4.0,1.0
10.455121994018556,-6.022151947021484,0.2414600849151611,-0.0,-0.0,-1.0,0.0839761620208801,1.0,1.0
10.278669357299805,-5.575778484344482,0.5172348022460938,-0.0,-0.0,-1.0,0.1582073639086398,1.0,1.0
10.397930145263672,-6.706789016723633,0.3428504467010498,-0.0,-0.0,-1.0,0.0893570089161062,1.0,1.0
10.369075775146484,-6.4099955558776855,0.2871723175048828,-0.0,-0.0,-1.0,0.0641296843622544,1.0,1.0
12.21511173248291,-5.220322608947754,0.8206758499145508,0.5402311216426973,0.5733065755092188,-0.6160112869798456,0.0927540760982589,4.0,1.0
12.097962379455566,-4.7857465744018555,0.7247700691223145,-0.0,-0.0,-1.0,0.1777689862341115,2.0,1.0
12.629318237304688,-6.765293598175049,0.8556296825408936,-0.0,-0.0,-1.0,0.0669559453331269,1.0,1.0
11.169427871704102,-5.570253372192383,0.6888747215270996,-0.0,-0.0,-1.0,0.1743348421825911,2.0,1.0
10.961524963378906,-5.998171806335449,0.7158060073852539,-0.0,-0.0,-1.0,0.1727844187060903,1.0,1.0
10.902493476867676,-5.746082305908203,0.6654715538024902,-0.0,-0.0,-1.0,0.1362021075010533,1.0,1.0
11.14923858642578,-6.184885025024414,1.129624605178833,-0.0,-0.0,-1.0,0.056513546634959,1.0,2.0
11.911581039428713,-4.492954730987549,0.2595884799957275,-0.0,-0.0,-1.0,0.2020643643757761,1.0,1.0
11.77447509765625,-4.80446195602417,0.3031706809997558,-0.0,-0.0,-1.0,0.1860596659513156,2.0,1.0
11.211030960083008,-4.891695976257324,0.1959681510925293,-0.0,-0.0,-1.0,0.1157597095617572,1.0,1.0
11.04601764678955,-5.373196601867676,0.2622339725494385,-0.0,-0.0,-1.0,0.1624043451579528,2.0,1.0
10.923151016235352,-5.094935417175293,0.17305588722229,-0.0,-0.0,-1.0,0.1319718548790333,2.0,1.0
10.788432121276855,-5.5685200691223145,0.2403843402862548,-0.0,-0.0,-1.0,0.0935458499989353,2.0,1.0
10.600483894348145,-5.389395713806152,0.1569256782531738,-0.0,-0.0,-1.0,0.1381124436364656,2.0,1.0
10.532587051391602,-6.127490520477295,0.2873353958129883,-0.8841827193387956,-0.0646853380682879,-0.462641033482379,0.0819834224700954,3.0,1.0
10.514934539794922,-5.916027545928955,0.2415785789489746,-0.0,-0.0,-1.0,0.139580629729786,2.0,1.0
10.391132354736328,-5.543872356414795,0.1363341808319091,-0.0,-0.0,-1.0,0.0912205651382069,1.0,1.0
12.702385902404783,-5.032724857330322,0.5542175769805908,-0.0,-0.0,-1.0,0.1120488882292841,1.0,1.0
12.572547912597656,-4.888108730316162,0.4926493167877197,-0.0,-0.0,-1.0,0.2510268126793115,1.0,1.0
12.096051216125488,-4.878714084625244,0.553736686706543,-0.0,-0.0,-1.0,0.1473188353230182,2.0,1.0
11.78859519958496,-4.613119125366211,0.6067771911621094,-0.0,-0.0,-1.0,0.2554548768025741,1.0,1.0
11.73334503173828,-4.386800289154053,0.5496981143951416,-0.0,-0.0,-1.0,0.2129024406637152,1.0,1.0
12.043842315673828,-5.460424900054932,0.5135657787322998,0.2812956790190557,-0.0270779770307263,-0.9592390338831775,0.1668627126794593,3.0,1.0
11.750343322753906,-4.920633792877197,0.6617081165313721,-0.0,-0.0,-1.0,0.1292472875850142,1.0,1.0
11.727706909179688,-4.794116973876953,0.6317615509033203,-0.0,-0.0,-1.0,0.1063318028498551,2.0,1.0
11.183767318725586,-5.712867736816406,0.3674542903900146,-0.0,-0.0,-1.0,0.1873401899567535,1.0,1.0
11.118692398071287,-5.6927690505981445,0.3473834991455078,-0.0,-0.0,-1.0,0.215956120065909,2.0,1.0
11.015420913696287,-4.907751560211182,0.510387659072876,-0.0,-0.0,-1.0,0.1491735661093639,1.0,1.0
10.687185287475586,-4.760618686676025,0.413740873336792,-0.0,-0.0,-1.0,0.1681336773430511,1.0,1.0
11.204971313476562,-6.275487422943115,0.488201379776001,0.0157397689582038,-0.9165753896800984,-0.3995520175220217,0.1197735811338578,3.0,1.0
10.90752410888672,-6.02971887588501,0.5293135643005371,-0.0,-0.0,-1.0,0.1550487693156034,1.0,1.0
10.82482624053955,-5.592409133911133,0.5973944664001465,-0.0,-0.0,-1.0,0.2064535304773685,1.0,1.0
10.456497192382812,-5.337244510650635,0.4706737995147705,-0.0,-0.0,-1.0,0.1006181043679377,1.0,1.0
10.54478645324707,-5.003124713897705,0.4289326667785644,-0.0,-0.0,-1.0,0.1388451620634099,1.0,1.0
10.519855499267578,-6.299427509307861,0.3168468475341797,-0.0,-0.0,-1.0,0.0851444236975946,1.0,1.0
10.32593822479248,-5.751071929931641,0.5142593383789062,-0.0,-0.0,-1.0,0.173656255220683,1.0,1.0
10.460651397705078,-6.754232406616211,0.3847942352294922,-0.0,-0.0,-1.0,0.0911770077116737,2.0,1.0
10.37956714630127,-6.36973762512207,0.4646651744842529,-0.0,-0.0,-1.0,0.1307029048492178,1.0,1.0
12.278624534606934,-5.331140041351318,0.8480567932128906,0.5272773555704496,0.3978178258354377,-0.7508126049489307,0.1119579908046402,4.0,1.0
11.804677963256836,-4.721638202667236,0.9669063091278076,-0.0,-0.0,-1.0,0.1751747674611668,1.0,1.0
11.231182098388672,-6.331487655639648,1.1253526210784912,-0.0,-0.0,-1.0,0.0547732857076862,1.0,2.0
11.15986442565918,-6.1047515869140625,0.76291823387146,-0.0,-0.0,-1.0,0.1735616733545541,1.0,1.0
10.79002857208252,-5.52150297164917,0.9160025119781494,-0.0,-0.0,-1.0,0.1349776648417824,1.0,1.0
10.460322380065918,-5.000839710235596,0.7715792655944824,-0.0,-0.0,-1.0,0.1039447567056275,1.0,1.0
10.36158561706543,-5.740718364715576,0.8661653995513916,-0.0,-0.0,-1.0,0.1486983676202178,2.0,1.0
10.486207962036133,-4.659046173095703,0.2409963607788086,0.1306877428055112,-0.1780237945620709,-0.9753093060409718,0.1682552139712781,3.0,1.0
12.119009017944336,-4.8889265060424805,0.6952428817749023,-0.0,-0.0,-1.0,0.1904328428931904,2.0,1.0
11.71203327178955,-4.913096904754639,0.6030125617980957,-0.0,-0.0,-1.0,0.1110095388615029,1.0,1.0
11.575855255126951,-4.667595863342285,0.5171937942504883,-0.0,-0.0,-1.0,0.1587881145479848,1.0,1.0
11.180292129516602,-5.674315452575684,0.6223106384277344,-0.0,-0.0,-1.0,0.1447855274602887,2.0,1.0
10.92095947265625,-5.437329292297363,0.5075831413269043,-0.0,-0.0,-1.0,0.1455226308304381,2.0,1.0
10.724136352539062,-4.687958717346191,0.4751203060150146,-0.0,-0.0,-1.0,0.1254821319816107,2.0,1.0
10.991254806518556,-6.2421464920043945,0.6760470867156982,-0.0,-0.0,-1.0,0.1240264312001742,1.0,1.0
10.925529479980469,-5.8929853439331055,0.5947611331939697,-0.0,-0.0,-1.0,0.236796239673996,1.0,1.0
10.734909057617188,-5.5813517570495605,0.4850728511810303,-0.958474110375157,0.2807296144152694,-0.0501823009716143,0.0753687712019862,3.0,1.0
10.376466751098633,-5.195488929748535,0.4808263778686523,-0.1973307187862199,0.9394074202171258,0.2803110526973899,0.190374641883904,3.0,1.0
10.31069278717041,-5.804509162902832,0.4086029529571533,-0.0,-0.0,-1.0,0.1984888841580598,2.0,1.0
12.24005889892578,-5.329103946685791,0.8205318450927734,0.693140830110168,-0.1263399327686631,-0.7096435802726581,0.1357729116290409,4.0,1.0
12.249780654907228,-5.300735950469971,0.8166959285736084,0.5843669316005815,0.5964275480712903,-0.550263090851449,0.1207796930654518,4.0,1.0
11.733083724975586,-4.737506866455078,0.875920295715332,0.9057217210228228,-0.2643175025933816,-0.3313675027673256,0.1409435810992288,3.0,1.0
11.172069549560549,-6.338712215423584,0.8832201957702637,-0.0,-0.0,-1.0,0.0995779104372092,1.0,1.0
10.742010116577148,-5.482159614562988,0.7810840606689453,-0.0,-0.0,-1.0,0.1262783622156299,2.0,1.0
10.518518447875977,-6.519556045532227,0.8847618103027344,-0.0,-0.0,-1.0,0.1107490525723765,1.0,1.0
10.24462890625,-5.831052780151367,0.8704218864440918,-0.0,-0.0,-1.0,0.1578438899293796,1.0,1.0
10.437494277954102,-6.430368900299072,0.8512332439422607,0.0982153163814533,0.9859001762800892,-0.1354791276875535,0.1397441504489852,3.0,1.0
10.231653213500977,-6.201245307922363,0.7655622959136963,-0.0,-0.0,-1.0,0.0863217583520106,1.0,1.0
11.979093551635742,-6.688297271728516,0.7972807884216309,-0.0,-0.0,-1.0,0.1656307399250199,1.0,1.0
12.600934028625488,-4.855751037597656,0.8234421014785767,-0.0,-0.0,-1.0,0.1788717864131707,1.0,1.0
10.427002906799316,-5.068885803222656,0.2043190002441406,0.6037282554999102,-0.6027112574598741,-0.5217770919101109,0.2017235584466775,3.0,1.0
12.609057426452637,-5.095569610595703,0.8935412168502808,-0.0,-0.0,-1.0,0.1682259131846709,1.0,1.0
10.39802074432373,-5.713232040405273,0.5313949584960938,0.4206556273648976,-0.358083442401336,-0.8335616902450913,0.1402448487536282,3.0,1.0
10.267815589904783,-5.973295211791992,0.5184669494628906,-0.0,-0.0,-1.0,0.0976791844793744,2.0,1.0
