x,y,z,nx,ny,nz,curvature,density,label
31.551124572753903,2.8994293212890625,-0.8963215351104736,0.6748425436819513,-0.4142816939414738,-0.61070305329338,0.0661567038196636,3.0,0.0
30.37600898742676,1.2745695114135742,-0.8176238536834717,-0.0,-0.0,-1.0,0.0430301695180556,1.0,0.0
30.786762237548828,1.673013687133789,-0.8132901191711426,-0.0,-0.0,-1.0,0.0512320480787519,1.0,0.0
30.9405517578125,1.837602615356445,-0.8104081153869629,-0.0,-0.0,-1.0,0.0706216200279086,1.0,0.0
31.10660743713379,2.0808820724487305,-0.7986114025115967,0.4839069770061576,0.5335748466300709,-0.6936367353654639,0.0650064404748328,4.0,0.0
31.268966674804688,2.383943557739258,-0.7785429954528809,-0.0,-0.0,-1.0,0.042343633717979,1.0,0.0
31.479341506958008,2.51303768157959,-0.7914958000183105,-0.0,-0.0,-1.0,0.1276310346409326,1.0,0.0
32.23059844970703,2.905604362487793,-0.8537869453430176,-0.0,-0.0,-1.0,0.027497059673948,1.0,0.0
30.32792854309082,3.129718780517578,-0.5359702110290527,-0.0,-0.0,-1.0,0.1399806643319103,1.0,0.0
30.662940979003903,0.9320297241210938,-0.6814553737640381,-0.2095869969962997,0.9625337398578482,-0.1720525801182236,0.0818379352261802,3.0,0.0
30.90632438659668,0.8797512054443359,-0.7177536487579346,-0.0,-0.0,-1.0,0.0482327691734734,2.0,0.0
31.304574966430664,0.7889261245727539,-0.7792117595672607,-0.0,-0.0,-1.0,0.0524033136117885,1.0,0.0
31.774364471435547,0.9464645385742188,-0.8146417140960693,-0.0,-0.0,-1.0,0.084714760690217,2.0,0.0
32.04597473144531,1.0133886337280271,-0.8400113582611084,-0.0,-0.0,-1.0,0.0253093486651403,2.0,0.0
31.267688751220703,1.4235467910766602,-0.6798455715179443,0.3967868007443109,0.720263212783623,-0.5690176966191008,0.182765789325152,4.0,0.0
32.20535659790039,1.0914802551269531,-0.849841833114624,-0.0,-0.0,-1.0,0.0552409012077403,2.0,0.0
32.610836029052734,1.1796283721923828,-0.8924434185028076,-0.0,-0.0,-1.0,0.0389627450976075,2.0,0.0
31.319448471069336,1.5953140258789062,-0.6608326435089111,0.3481276596951321,-0.6540035478217924,-0.6716297283412183,0.1554217652054724,4.0,0.0
32.64015197753906,2.46535587310791,-0.7159116268157959,-0.0858125725433602,0.851290404645324,-0.5176300313469951,0.1055760281768432,3.0,0.0
30.577104568481445,3.039198875427246,-0.8908083438873291,-0.0,-0.0,-1.0,0.0264852513611602,1.0,0.0
30.67578887939453,3.111325263977051,-0.8915338516235352,-0.1590752790392433,-0.8577719347226515,0.4887968531002902,0.031355192490342,4.0,0.0
32.41012191772461,0.7316856384277344,-0.8372161388397217,-0.3421382806905247,0.2492660042220016,-0.90598446787201,0.2342828908264301,3.0,0.0
31.33087730407715,1.616476058959961,-0.5701127052307129,0.5414099550904661,-0.8387946539463491,0.0574350854440407,0.1830880630934148,8.0,0.0
31.782377243041992,1.4969024658203125,-0.6429874897003174,-0.0,-0.0,-1.0,0.1312996388724452,1.0,0.0
30.695964813232425,2.660198211669922,-0.8722286224365234,-0.0,-0.0,-1.0,0.058882305367378,1.0,0.0
30.605621337890625,2.6910810470581055,-0.8549644947052002,-0.0,-0.0,-1.0,0.0555830108701239,1.0,0.0
30.881343841552734,2.7399940490722656,-0.8811399936676025,-0.0,-0.0,-1.0,0.0335288347270682,1.0,0.0
31.223352432250977,2.83121109008789,-0.9098477363586426,-0.0,-0.0,-1.0,0.0178391162866835,2.0,0.0
30.73604393005371,1.7562036514282229,-0.8104174137115479,-0.0,-0.0,-1.0,0.0701172264287002,1.0,0.0
30.894800186157227,1.8782310485839844,-0.8045570850372314,-0.0,-0.0,-1.0,0.0694731415782561,1.0,0.0
31.12935447692871,2.065009117126465,-0.7959117889404297,0.3722881521782997,0.39029989693693,-0.8420614717457922,0.0632266551602458,3.0,0.0
31.255409240722656,2.3085756301879883,-0.7648696899414062,-0.0,-0.0,-1.0,0.0502422296800472,1.0,0.0
31.45518493652344,2.2739181518554688,-0.7952682971954346,-0.7152826891656695,-0.2476868059558768,-0.653469142909827,0.0892589531560303,3.0,0.0
32.093570709228516,2.464122772216797,-0.8413441181182861,-0.0,-0.0,-1.0,0.1578947327693264,1.0,0.0
32.16436004638672,2.648033142089844,-0.817408561706543,-0.0,-0.0,-1.0,0.0416882542013351,1.0,0.0
32.34254455566406,2.7524662017822266,-0.8230853080749512,-0.1285431928238153,-0.9882808222073453,-0.0823265694404475,0.0311997663605479,3.0,0.0
30.234439849853516,3.1327829360961914,-0.4959712028503418,-0.0,-0.0,-1.0,0.1366330346926021,1.0,0.0
30.65839385986328,0.7109899520874023,-0.7488834857940674,-0.0,-0.0,-1.0,0.127622902189013,2.0,0.0
31.13335227966309,0.72259521484375,-0.7798075675964355,-0.0,-0.0,-1.0,0.0405372338372801,2.0,0.0
31.557382583618164,0.7485752105712891,-0.807668924331665,-0.0,-0.0,-1.0,0.0157525939105895,1.0,0.0
31.93552017211914,0.7354183197021484,-0.8415970802307129,-0.0,-0.0,-1.0,0.03897702023355,1.0,0.0
32.1477165222168,0.7187891006469727,-0.8632712364196777,-0.0,-0.0,-1.0,0.0641675631008231,2.0,0.0
32.64509582519531,0.7987403869628906,-0.8953373432159424,0.4318900575262763,0.5240030556383979,-0.7340924845627911,0.0739762385224847,3.0,0.0
30.844528198242188,0.9653167724609376,-0.7136440277099609,0.7652834017980653,-0.1535856732521645,-0.6251021963679702,0.0470154972916412,7.0,0.0
32.28496170043945,0.9658412933349608,-0.8306634426116943,-0.0,-0.0,-1.0,0.0703728105791378,2.0,0.0
31.300424575805664,1.555622100830078,-0.6372780799865723,0.5401611075051219,-0.6397799464991037,-0.5467244260104392,0.1473834720381143,5.0,0.0
32.66848373413086,2.591477394104004,-0.5748631954193115,-0.0,-0.0,-1.0,0.134118661554852,1.0,0.0
30.723819732666016,2.1745738983154297,-0.8204208612442017,-0.0,-0.0,-1.0,0.0343989938676383,1.0,0.0
30.976322174072266,2.1231794357299805,-0.8414205312728882,-0.0,-0.0,-1.0,0.0669618450063903,1.0,0.0
30.454626083374023,2.363048553466797,-0.7762929201126099,-0.0,-0.0,-1.0,0.05424526449659,1.0,0.0
30.71573829650879,2.2563953399658203,-0.8061519861221313,0.4630562555714331,-0.1321135879970661,-0.8764273524044677,0.0380881828160173,3.0,0.0
31.14208221435547,2.394852638244629,-0.8048120737075806,-0.0,-0.0,-1.0,0.0751082429015551,1.0,0.0
32.04302978515625,2.472334861755371,-0.8476861715316772,-0.0,-0.0,-1.0,0.1803386631713758,2.0,0.0
32.26544952392578,2.6893911361694336,-0.8279315233230591,-0.0,-0.0,-1.0,0.0487154557463801,1.0,0.0
31.594547271728516,2.7313270568847656,-0.7752929925918579,-0.0,-0.0,-1.0,0.0718553586208764,1.0,0.0
32.445770263671875,2.8840112686157227,-0.8096095323562622,-0.0,-0.0,-1.0,0.0272009085712993,2.0,0.0
32.49674987792969,3.083746910095215,-0.7811027765274048,-0.0,-0.0,-1.0,0.0875051771951036,1.0,0.0
30.409324645996097,1.4417037963867188,-0.8170723915100098,0.0168913615843301,0.837665615432103,-0.5459221543650558,0.0457193273296914,3.0,0.0
30.558691024780273,1.5726804733276367,-0.8055741786956787,0.919989090665918,0.3895351472170922,-0.0433871194970973,0.0968884624466573,3.0,0.0
30.80780601501465,1.7231454849243164,-0.7965941429138184,-0.7639442151206679,-0.1916543043919908,-0.6161638286946814,0.0638793176717419,3.0,0.0
31.864402770996097,1.8316736221313477,-0.8422567844390869,-0.0,-0.0,-1.0,0.0539445853286657,1.0,0.0
31.979516983032227,1.7387008666992188,-0.8627433776855469,-0.0,-0.0,-1.0,0.0485707386859087,2.0,0.0
31.020462036132812,1.9596309661865232,-0.7744057178497314,-0.0,-0.0,-1.0,0.0852291777540201,1.0,0.0
31.24327850341797,1.9805870056152344,-0.7837479114532471,-0.0,-0.0,-1.0,0.0963883168768073,1.0,0.0
32.15802001953125,2.02236270904541,-0.8353404998779297,-0.0,-0.0,-1.0,0.0384683831073006,2.0,0.0
32.31005096435547,1.9369802474975584,-0.8577477931976318,-0.0,-0.0,-1.0,0.024329756507897,2.0,0.0
30.3420352935791,2.1965389251708984,-0.7077019214630127,-0.0,-0.0,-1.0,0.2324577817710382,1.0,0.0
31.21709442138672,2.0633316040039062,-0.7707364559173584,-0.4855947015202469,-0.3215840607502871,-0.8128846644677324,0.0617577485205325,6.0,0.0
31.73578834533691,2.0965805053710938,-0.7970626354217529,-0.0,-0.0,-1.0,0.0562344206269159,1.0,0.0
32.082401275634766,2.0938186645507812,-0.8202035427093506,-0.0,-0.0,-1.0,0.0640999869345044,1.0,0.0
32.312435150146484,2.246135711669922,-0.815077543258667,-0.0,-0.0,-1.0,0.1035729630888705,1.0,0.0
32.447349548339844,2.487813949584961,-0.7914390563964844,-0.0,-0.0,-1.0,0.0795778538345493,1.0,0.0
32.56899642944336,2.769603729248047,-0.7616560459136963,0.9031692426710182,-0.2650520948793343,-0.3376872903932505,0.0494216669923876,4.0,0.0
32.60275650024414,3.1032543182373047,-0.7183191776275635,0.768428944455986,-0.186904105665578,-0.6120325257758856,0.1565350592407078,3.0,0.0
30.593915939331055,2.788288116455078,-0.8635463714599609,0.6541543464914387,-0.6325064927660945,-0.414750078450979,0.0590074437640185,3.0,0.0
30.937808990478516,2.8158607482910156,-0.8720865249633789,-0.0,-0.0,-1.0,0.0313230153849264,1.0,0.0
31.179691314697266,2.7707366943359375,-0.8895328044891357,0.922664160629756,-0.3048781750799221,0.2360935091215425,0.0169257471045896,3.0,0.0
31.635269165039062,2.9564285278320312,-0.8816032409667969,0.1708873126928907,0.562250540956052,-0.8091179490996535,0.0626710130921821,3.0,0.0
32.326759338378906,0.7246370315551758,-0.6824647188186646,-0.0,-0.0,-1.0,0.2384861352829601,2.0,0.0
31.262548446655273,1.6031427383422852,-0.5379178524017334,0.2163175583139331,-0.2432079207549953,-0.9455456738027676,0.2054493114258307,3.0,0.0
30.480487823486328,2.860907554626465,-0.8512594699859619,-0.0,-0.0,-1.0,0.0954717751837303,2.0,0.0
31.04594612121582,2.6991424560546875,-0.8841507434844971,0.1655792957140155,-0.1601592482810169,-0.9731045740417166,0.0262822524009929,3.0,0.0
31.689130783081055,2.917757034301758,-0.8631904125213623,-0.3660323988374662,0.042621713160374,-0.9296255550320056,0.0927253649783663,3.0,0.0
31.978214263916016,2.889224052429199,-0.8765950202941895,-0.0,-0.0,-1.0,0.0082532967073615,1.0,0.0
30.285371780395508,3.1278390884399414,-0.8073382377624512,-0.0,-0.0,-1.0,0.1116120179834562,1.0,0.0
32.19459533691406,3.1168012619018555,-0.8470058441162109,-0.0,-0.0,-1.0,0.0296123400384616,2.0,0.0
31.802188873291016,1.3526639938354492,-0.5831273794174194,0.8659461011293454,0.3198740582107582,-0.3844709830698098,0.2364811787559489,6.0,0.0
31.31654167175293,1.605790138244629,-0.5375807285308838,-0.5279183211688933,-0.6959850728821495,0.4867309569972377,0.1726328280905396,7.0,0.0
30.500715255737305,2.8588714599609375,-0.8547947406768799,-0.0,-0.0,-1.0,0.0875649757708501,2.0,0.0
30.96400451660156,2.901914596557617,-0.8503456115722656,-0.0,-0.0,-1.0,0.0189442499963975,1.0,0.0
31.75994300842285,2.9370107650756836,-0.8573200702667236,0.2195757657578957,0.0115632109619726,-0.9755269218448476,0.0804183927531397,5.0,0.0
32.0245475769043,2.917849540710449,-0.8670415878295898,-0.0,-0.0,-1.0,0.0169988923565184,1.0,0.0
30.570308685302734,2.8295745849609375,-0.8871684074401855,-0.1928395010040969,0.2483020134832716,-0.9492939676162724,0.0539214328662545,3.0,0.0
32.388824462890625,0.7805280685424805,-0.6411519050598145,-0.0,-0.0,-1.0,0.172848919432887,1.0,0.0
31.793643951416016,1.4311513900756836,-0.5536909103393555,0.8720431190066344,-0.0827357754769838,0.4823853128458654,0.1619606060365508,5.0,0.0
31.29994773864746,1.609971046447754,-0.5311181545257568,-0.0535211605074712,-0.9193620694308372,0.3897548853700003,0.1682130894142093,5.0,0.0
30.445091247558594,2.9511890411376953,-0.871697187423706,-0.0,-0.0,-1.0,0.0782186743782342,2.0,0.0
30.765872955322266,2.947999954223633,-0.8638219833374023,-0.0,-0.0,-1.0,0.0134980705209306,1.0,0.0
31.670438766479492,2.9027891159057617,-0.8565168380737305,-0.0,-0.0,-1.0,0.0938768212443958,2.0,0.0
32.01099395751953,2.85174560546875,-0.8627331256866455,-0.0,-0.0,-1.0,0.0210663516955584,2.0,0.0
32.21110153198242,3.059234619140625,-0.8287177085876465,-0.0,-0.0,-1.0,0.0389037427206557,1.0,0.0
32.26473617553711,3.11465835571289,-0.8197226524353027,-0.0,-0.0,-1.0,0.0360985548998486,2.0,0.0
31.310609817504883,2.631617546081543,-0.8884412050247192,0.5786311618639198,-0.0994137397832034,-0.8095078053127887,0.0780171014741837,4.0,0.0
31.466144561767575,2.64249038696289,-0.8837262392044067,-0.0,-0.0,-1.0,0.090266539719549,1.0,0.0
32.018760681152344,2.6194028854370117,-0.8794227838516235,-0.0,-0.0,-1.0,0.0347532607547917,1.0,0.0
30.443679809570312,2.979991912841797,-0.8601456880569458,-0.0,-0.0,-1.0,0.0583780771593743,2.0,0.0
30.7423095703125,2.79776382446289,-0.8776706457138062,-0.0,-0.0,-1.0,0.0435427164654628,1.0,0.0
31.59014129638672,2.8018665313720703,-0.856979489326477,-0.0,-0.0,-1.0,0.0497861645420912,2.0,0.0
31.919219970703125,2.7156896591186523,-0.8655043840408325,-0.0,-0.0,-1.0,0.0153062726251865,2.0,0.0
31.737821578979492,2.8707199096679688,-0.8439418077468872,-0.6632634020318655,0.7482433645932898,0.0146125585449282,0.0665217592910843,3.0,0.0
31.953960418701172,2.822154998779297,-0.8486984968185425,-0.0,-0.0,-1.0,0.0072043146832841,2.0,0.0
31.73057746887207,3.106390953063965,-0.89349365234375,-0.0,-0.0,-1.0,0.0618494256873835,2.0,0.0
31.979324340820312,3.0098648071289062,-0.8912725448608398,-0.0,-0.0,-1.0,0.0185895221394154,1.0,0.0
30.731494903564453,1.0641460418701172,-0.6661221981048584,-0.0,-0.0,-1.0,0.0440048336143785,2.0,0.0
30.233882904052734,1.9481868743896484,-0.602359414100647,-0.907366251774216,0.3242858409207917,-0.2674419161603221,0.1072927251463725,3.0,0.0
30.405160903930664,2.064685821533203,-0.5791772603988647,-0.0,-0.0,-1.0,0.2874874880830496,1.0,0.0
32.225257873535156,0.7262859344482422,-0.7962605953216553,-0.0,-0.0,-1.0,0.1813666474441898,1.0,0.0
31.561519622802734,1.1495513916015625,-0.7877078056335449,-0.0,-0.0,-1.0,0.0722490337121166,1.0,0.0
31.854034423828125,0.9715375900268556,-0.7897069454193115,-0.0,-0.0,-1.0,0.0914480572435488,2.0,0.0
30.697206497192383,1.633769989013672,-0.7947132587432861,-0.0,-0.0,-1.0,0.0755580764363992,1.0,0.0
31.050046920776367,1.7309064865112305,-0.7579600811004639,-0.0,-0.0,-1.0,0.1163018642697434,2.0,0.0
31.48132705688477,1.8186330795288088,-0.7177994251251221,-0.0960418783664385,0.9537323305525592,-0.2849045441172005,0.0658070527761173,3.0,0.0
31.744897842407227,1.7412567138671875,-0.7087528705596924,-0.0,-0.0,-1.0,0.0698575170821303,1.0,0.0
30.290311813354492,2.240290641784668,-0.7620275020599365,-0.0,-0.0,-1.0,0.23855485890333,2.0,0.0
30.518314361572266,2.199047088623047,-0.7478430271148682,-0.0,-0.0,-1.0,0.1614602253147112,2.0,0.0
30.23547744750977,2.6311349868774414,-0.7257905006408691,-0.0,-0.0,-1.0,0.0839002865862947,2.0,0.0
32.13999938964844,2.432234764099121,-0.6047852039337158,0.2484938884832511,0.9072536997949404,-0.3393250824723481,0.1645026192761761,6.0,0.0
31.69816017150879,0.9429988861083984,-0.7672519683837891,-0.0,-0.0,-1.0,0.074073684927591,2.0,0.0
31.912538528442383,0.7571334838867188,-0.7772374153137207,-0.0,-0.0,-1.0,0.0581734659017634,1.0,0.0
30.57025909423828,1.519937515258789,-0.7705798149108887,-0.0,-0.0,-1.0,0.0976007060538523,2.0,0.0
30.850906372070312,1.5476951599121094,-0.7497236728668213,-0.0,-0.0,-1.0,0.1715074208009551,2.0,0.0
31.413671493530273,1.5077219009399414,-0.7201864719390869,-0.4728257983395848,-0.263464946167636,-0.8408459945587056,0.2311769710859209,3.0,0.0
31.09640884399414,1.6407690048217771,-0.7245233058929443,-0.0,-0.0,-1.0,0.1222789759834672,1.0,0.0
31.28227424621582,1.6304283142089844,-0.7145075798034668,-0.0,-0.0,-1.0,0.2739543895248161,1.0,0.0
31.65410041809082,1.8046150207519531,-0.673926830291748,-0.0,-0.0,-1.0,0.2234628242970444,1.0,0.0
30.392580032348633,2.1181564331054688,-0.7202761173248291,-0.0,-0.0,-1.0,0.2391604488939109,1.0,0.0
32.099571228027344,2.4059667587280273,-0.5827507972717285,-0.8116796188756348,-0.2870366861065564,-0.5087102683560366,0.1645026192761761,5.0,0.0
31.18262481689453,0.766876220703125,-0.752997636795044,-0.0,-0.0,-1.0,0.052631893424626,1.0,0.0
30.902196884155273,1.1814422607421875,-0.7285470962524414,-0.0,-0.0,-1.0,0.024987968070259,2.0,0.0
31.118797302246097,0.8353862762451172,-0.7498311996459961,-0.0,-0.0,-1.0,0.079347893757132,1.0,0.0
32.31464385986328,0.7776565551757812,-0.692436933517456,-0.4168614976086456,-0.8909755894704675,-0.1799694162329524,0.2494436925800851,3.0,0.0
30.73595428466797,1.3127641677856443,-0.7262406349182129,-0.0835876768243705,-0.001344780402942,-0.9964995192416164,0.0866546467713368,3.0,0.0
31.20852279663086,1.460261344909668,-0.6825257539749146,0.760607017219833,0.417589167359519,-0.4970877715855942,0.1831424885228912,4.0,0.0
31.81243324279785,1.4568977355957031,-0.6479232311248779,0.6829974337531762,0.2470313643287035,-0.6873790879307246,0.1437399620487628,3.0,0.0
32.31550979614258,0.6552257537841797,-0.8075056076049805,-0.0,-0.0,-1.0,0.1623355270039196,2.0,0.0
31.930818557739254,0.9570178985595704,-0.7973155975341797,-0.0,-0.0,-1.0,0.0686111392598712,2.0,0.0
32.16326904296875,0.8765983581542969,-0.7924909591674805,-0.0,-0.0,-1.0,0.0505474011216554,1.0,0.0
30.68726348876953,1.827007293701172,-0.7918710708618164,-0.0,-0.0,-1.0,0.1164059643913145,1.0,0.0
31.119155883789062,1.970505714416504,-0.7478752136230469,-0.0,-0.0,-1.0,0.0561538270398598,2.0,0.0
31.424968719482425,1.8982648849487305,-0.7341547012329102,-0.0,-0.0,-1.0,0.0461704287728381,2.0,0.0
31.698829650878903,1.7733631134033203,-0.7286295890808105,-0.0,-0.0,-1.0,0.1029048600336628,1.0,0.0
30.598011016845703,2.116424560546875,-0.771331787109375,-0.0,-0.0,-1.0,0.0960402805746927,1.0,0.0
31.183568954467773,2.010129928588867,-0.7395915985107422,-0.0,-0.0,-1.0,0.0602259608495849,2.0,0.0
30.242746353149418,2.6320152282714844,-0.7517995834350586,-0.0,-0.0,-1.0,0.0864986920674021,2.0,0.0
30.252899169921875,2.969640731811523,-0.7213811874389648,-0.143989694715422,-0.5456939602128669,-0.8255210897384495,0.0547928496056863,3.0,0.0
31.284290313720703,0.8948974609375,-0.8260499238967896,-0.0,-0.0,-1.0,0.0491447113999512,1.0,0.0
30.483413696289062,1.3735675811767578,-0.8312188386917114,-0.0,-0.0,-1.0,0.0405150773814338,1.0,0.0
31.79998016357422,0.7371797561645508,-0.8124250173568726,-0.0,-0.0,-1.0,0.0551936003216483,2.0,0.0
31.61096572875977,0.8016939163208008,-0.8164528608322144,-0.0,-0.0,-1.0,0.017445301920931,2.0,0.0
30.630836486816406,1.4628772735595703,-0.8133813142776489,-0.0,-0.0,-1.0,0.0609584482265238,2.0,0.0
30.83324432373047,1.4680042266845703,-0.7997702360153198,-0.3509747837241082,0.5509786836947704,-0.7571256113114875,0.0798375191911852,3.0,0.0
31.250410079956055,1.5524492263793943,-0.7655626535415649,-0.0,-0.0,-1.0,0.1970682131629282,1.0,0.0
31.82970428466797,1.4007024765014648,-0.7455006837844849,0.9906321493097644,-0.0107346632020118,-0.1361349027981284,0.2162379030404274,5.0,0.0
30.36626434326172,2.0486068725585938,-0.7791470289230347,-0.0,-0.0,-1.0,0.1869706630693527,2.0,0.0
32.12539291381836,2.346743583679199,-0.6370359659194946,-0.8202620803209905,-0.3145796294103343,-0.4777130690566644,0.1764770637169112,5.0,0.0
32.104286193847656,2.418201446533203,-0.6315038204193115,0.2780604170167489,-0.16167542379386,-0.946859789952846,0.1645026192761761,8.0,0.0
31.4453125,0.8487119674682617,-0.8136868476867676,-0.0,-0.0,-1.0,0.0227473646921368,1.0,0.0
31.78925514221191,0.7259426116943359,-0.8059237003326416,-0.0,-0.0,-1.0,0.050089237778421,2.0,0.0
31.17548370361328,1.005056381225586,-0.8152210712432861,-0.0,-0.0,-1.0,0.0498604129217344,1.0,0.0
31.25390625,1.0323686599731443,-0.8081128597259521,-0.0,-0.0,-1.0,0.0432500587801259,2.0,0.0
30.731365203857425,1.5032052993774414,-0.7990739345550537,-0.3014742390689461,0.092926529072332,-0.9489351628917382,0.1078223008583278,3.0,0.0
31.03124237060547,1.560882568359375,-0.7748236656188965,-0.0,-0.0,-1.0,0.1218479636533089,1.0,0.0
31.308483123779297,1.5595273971557615,-0.7576072216033936,0.1143451567918004,0.2135808847063469,-0.970210487887197,0.2475866087631736,5.0,0.0
30.271465301513672,1.9217414855957031,-0.7949056625366211,-0.0,-0.0,-1.0,0.1524490908940275,1.0,0.0
31.83519744873047,1.4354162216186523,-0.7373008728027344,0.3435274898304126,-0.7274215324491322,-0.594009072203592,0.2461889950821523,5.0,0.0
32.33036422729492,0.7915983200073242,-0.8461213111877441,-0.585857562149563,0.7696471683194934,-0.2537994349283622,0.2134685378634946,3.0,0.0
32.58540725708008,0.6847820281982422,-0.8409976959228516,-0.0,-0.0,-1.0,0.1180608170253127,1.0,0.0
31.91447639465332,1.1247262954711914,-0.8420333862304688,-0.0,-0.0,-1.0,0.0552019068514474,1.0,0.0
32.18458938598633,1.0649738311767578,-0.8303728103637695,-0.235688922006376,-0.3242392285317692,-0.9161439050305336,0.0511259894364287,4.0,0.0
31.23382568359375,2.1526660919189453,-0.8022847175598145,-0.0,-0.0,-1.0,0.0639445956377801,1.0,0.0
31.52080345153809,2.032280921936035,-0.7914562225341797,-0.6352232263691983,-0.3353483993973978,-0.6957247327087847,0.074129576890971,4.0,0.0
31.277801513671875,2.484577178955078,-0.7727460861206055,-0.0,-0.0,-1.0,0.0651826378509216,1.0,0.0
31.426586151123047,2.305901527404785,-0.7760870456695557,-0.0,-0.0,-1.0,0.0777240022947356,2.0,0.0
31.936378479003903,1.499528884887695,-0.2847990989685058,-0.0,-0.0,-1.0,0.1500807632735938,2.0,0.0
31.87178421020508,0.970815658569336,-0.7980824708938599,-0.7445083027708643,-0.1669445591902531,-0.6464030486175161,0.0958599556165141,4.0,0.0
32.12350082397461,0.8012056350708008,-0.7952133417129517,-0.0,-0.0,-1.0,0.0616598952544145,1.0,0.0
32.391971588134766,0.6969394683837891,-0.7868014574050903,-0.0,-0.0,-1.0,0.2043789702431803,1.0,0.0
31.476289749145508,1.2161331176757812,-0.8051706552505493,-0.0,-0.0,-1.0,0.0753563523775849,1.0,0.0
31.738977432250977,1.154428482055664,-0.7929884195327759,-0.0,-0.0,-1.0,0.0880968252422663,1.0,0.0
31.66532516479492,1.6481428146362305,-0.762241005897522,-0.0,-0.0,-1.0,0.059304037543931,2.0,0.0
31.698505401611328,1.576725959777832,-0.7651783227920532,-0.0,-0.0,-1.0,0.1309432157609102,2.0,0.0
31.190942764282227,0.6836156845092773,-0.672285795211792,-0.0,-0.0,-1.0,0.0401742101134916,2.0,0.0
30.897367477416992,1.170269012451172,-0.661972165107727,-0.0,-0.0,-1.0,0.0317813244635283,1.0,0.0
31.141765594482425,0.9584026336669922,-0.6589312553405762,-0.0,-0.0,-1.0,0.0532408884560713,1.0,0.0
30.669958114624023,1.5951833724975586,-0.6523947715759277,-0.0,-0.0,-1.0,0.1351644596957102,1.0,0.0
31.124399185180664,1.664048194885254,-0.619153618812561,-0.0,-0.0,-1.0,0.1620968532147845,1.0,0.0
31.129180908203125,1.7685184478759766,-0.6129326820373535,-0.0,-0.0,-1.0,0.1270831010121007,1.0,0.0
31.623096466064453,1.625478744506836,-0.5896660089492798,-0.0,-0.0,-1.0,0.1804891739258743,1.0,0.0
30.22753143310547,2.072373390197754,-0.4467582702636719,-0.0,-0.0,-1.0,0.0932789091566183,2.0,0.0
30.449533462524418,2.0814332962036133,-0.6087913513183594,-0.0,-0.0,-1.0,0.1950724460242738,1.0,0.0
30.58588409423828,2.51357364654541,-0.8155504465103149,-0.0,-0.0,-1.0,0.0605466278914381,1.0,0.0
30.54627799987793,2.764392852783203,-0.8083869218826294,-0.0,-0.0,-1.0,0.0706313103687744,1.0,0.0
30.680809020996097,2.5636892318725586,-0.8056453466415405,-0.0,-0.0,-1.0,0.0894424538766514,1.0,0.0
30.86394500732422,2.3439531326293945,-0.7999206781387329,-0.0,-0.0,-1.0,0.1038917927930449,2.0,0.0
31.67754554748535,0.9276809692382812,-0.801963210105896,-0.0,-0.0,-1.0,0.0441307125701119,2.0,0.0
31.74375915527344,1.2571535110473633,-0.7802168130874634,0.72877205820427,-0.2546082826446206,-0.6356617886812683,0.2004571192228868,3.0,0.0
31.92686462402344,0.8588418960571289,-0.7862805128097534,-0.0,-0.0,-1.0,0.0853808703936602,1.0,0.0
31.809101104736328,1.7589349746704102,-0.7505098581314087,-0.0,-0.0,-1.0,0.0756770367335009,2.0,0.0
31.86894798278809,1.427812576293945,-0.7619355916976929,0.0493048478955141,0.9096401631828032,-0.4124606714570051,0.1431158286875821,4.0,0.0
32.13725280761719,0.6689586639404297,-0.7801300287246704,-0.0,-0.0,-1.0,0.080261752083602,2.0,0.0
30.21133804321289,2.3167314529418945,-0.4319158792495727,-0.0,-0.0,-1.0,0.2343768942767944,1.0,0.0
30.210004806518555,1.9157962799072263,-0.4504414796829223,-0.0,-0.0,-1.0,0.1380914437225059,1.0,0.0
30.33004379272461,1.734182357788086,-0.4516321420669555,-0.0,-0.0,-1.0,0.1659355472469973,1.0,0.0
30.223880767822266,2.4697742462158203,-0.5379800796508789,-0.0,-0.0,-1.0,0.0930449050547037,1.0,0.0
30.29136848449707,2.0645084381103516,-0.5425418615341187,-0.0,-0.0,-1.0,0.1742998125499824,1.0,0.0
30.363786697387695,1.8552360534667969,-0.5421931743621826,-0.0,-0.0,-1.0,0.2239925530108263,1.0,0.0
30.247560501098633,2.361762046813965,-0.5226809978485107,-0.0,-0.0,-1.0,0.1221608738378507,1.0,0.0
30.34416389465332,1.9097881317138672,-0.4472676515579223,-0.0,-0.0,-1.0,0.2014892170072767,1.0,0.0
30.226070404052734,2.2218122482299805,-0.566750168800354,-0.0,-0.0,-1.0,0.1346137037067366,2.0,0.0
30.226600646972656,1.8865957260131836,-0.575898289680481,-0.5355501125214038,0.8203300470564142,-0.2006107945119923,0.1480309294257256,3.0,0.0
31.43410301208496,2.495223045349121,-0.91800057888031,-0.0,-0.0,-1.0,0.1483178971529229,1.0,0.0
31.5748348236084,2.2629318237304688,-0.9130226373672484,-0.0,-0.0,-1.0,0.1084609544299661,1.0,0.0
31.45560836791992,2.315474510192871,-0.9234246015548706,-0.0,-0.0,-1.0,0.0829347626917648,1.0,0.0
32.353240966796875,1.513410568237305,-0.8665980100631714,-0.0,-0.0,-1.0,0.0554819366903638,1.0,0.0
32.43830871582031,1.0951852798461914,-0.8791910409927368,-0.0,-0.0,-1.0,0.0668066079691055,2.0,0.0
32.56330871582031,1.019404411315918,-0.8704437017440796,-0.0,-0.0,-1.0,0.0521751099337894,1.0,0.0
32.40053939819336,0.7538261413574219,-0.9010318517684937,-0.0,-0.0,-1.0,0.1854539495210239,1.0,0.0
31.63995933532715,3.02230167388916,-0.2078683376312255,-0.0,-0.0,-1.0,0.0789663135271604,1.0,0.0
30.324710845947266,2.9697256088256836,-0.3104006052017212,-0.0,-0.0,-1.0,0.1801215004086352,1.0,0.0
30.489093780517575,1.5868520736694336,-0.3333498239517212,-0.0,-0.0,-1.0,0.1173312115589603,1.0,0.0
31.717756271362305,3.025867462158203,-0.7757186889648438,-0.0,-0.0,-1.0,0.0777520001830059,1.0,0.0
31.578832626342773,2.808407783508301,-0.815718412399292,-0.0,-0.0,-1.0,0.0662053980150466,2.0,0.0
31.050416946411133,2.8589916229248047,-0.8374183177947998,-0.0,-0.0,-1.0,0.0185265613515813,1.0,0.0
30.37750816345215,3.0099000930786133,-0.8345324993133545,-0.0,-0.0,-1.0,0.0933724708506493,1.0,0.0
32.04323196411133,1.2987604141235352,-0.8110544681549072,-0.0,-0.0,-1.0,0.0742976340084232,1.0,0.0
31.927574157714844,1.493332862854004,-0.8062362670898438,-0.0,-0.0,-1.0,0.1481510042430965,1.0,0.0
31.131635665893555,2.1248159408569336,-0.8286552429199219,-0.0,-0.0,-1.0,0.0809041220122576,2.0,0.0
30.91870880126953,2.231496810913086,-0.8397448062896729,-0.0,-0.0,-1.0,0.0432967645378881,2.0,0.0
30.633262634277344,2.417247772216797,-0.8519055843353271,-0.0,-0.0,-1.0,0.0406538897776214,1.0,0.0
32.37391662597656,0.770899772644043,-0.824012279510498,-0.0752403099417979,-0.1742754818264572,-0.9818181869338224,0.2818916536215399,3.0,0.0
32.0158805847168,1.1221189498901367,-0.826756477355957,-0.0,-0.0,-1.0,0.0379105423490033,2.0,0.0
32.14826965332031,0.7280416488647461,-0.8460037708282471,-0.0,-0.0,-1.0,0.0765103227977515,2.0,0.0
32.013145446777344,0.7984018325805664,-0.851783037185669,-0.0,-0.0,-1.0,0.0382653418530539,1.0,0.0
31.44911766052246,3.0344743728637695,-0.091768741607666,-0.0,-0.0,-1.0,0.2038288118178126,1.0,0.0
30.276065826416016,1.941939353942871,-0.2159074544906616,-0.0,-0.0,-1.0,0.0922890764286571,1.0,0.0
31.517990112304688,2.788846015930176,-0.8528754711151123,-0.9822759013374964,0.0804159185665542,-0.1693143044538959,0.0748960144888058,3.0,0.0
31.17956924438477,2.8371429443359375,-0.8852715492248535,-0.0,-0.0,-1.0,0.0176925776010859,1.0,0.0
31.690879821777344,1.8211650848388672,-0.798169732093811,0.6743760770783357,0.4083709403188688,-0.6151829660901851,0.1053037588158958,5.0,0.0
31.31859016418457,1.8804988861083984,-0.8119231462478638,0.173244556893221,-0.8321037726205412,-0.526867758643034,0.0835907094712775,3.0,0.0
30.524005889892575,2.249753952026367,-0.8144532442092896,-0.885654033013828,0.0046512838323847,-0.4643224088551531,0.0697383913802083,3.0,0.0
30.236114501953125,2.475841522216797,-0.8056865930557251,-0.0,-0.0,-1.0,0.087848680100675,1.0,0.0
31.824295043945312,1.284764289855957,-0.857376217842102,-0.0,-0.0,-1.0,0.1790646666400988,2.0,0.0
31.730205535888672,1.5696592330932615,-0.8269833326339722,-0.0,-0.0,-1.0,0.1014949489750602,1.0,0.0
30.528125762939453,1.9368925094604492,-0.8510526418685913,-0.0,-0.0,-1.0,0.1140573513451565,2.0,0.0
32.54936981201172,0.6395998001098633,-0.902535080909729,-0.0,-0.0,-1.0,0.125225857964488,1.0,0.0
32.28977584838867,0.856196403503418,-0.8875130414962769,-0.0,-0.0,-1.0,0.0952676361402844,2.0,0.0
31.850732803344727,0.9845075607299804,-0.8938521146774292,-0.0,-0.0,-1.0,0.0350106883161135,1.0,0.0
31.559814453125,1.2737483978271484,-0.8730403184890747,-0.0,-0.0,-1.0,0.0681487076181681,1.0,0.0
30.681262969970703,1.568185806274414,-0.886137843132019,-0.0,-0.0,-1.0,0.0544507951804808,1.0,0.0
30.49946975708008,1.5935449600219729,-0.8935989141464233,-0.0,-0.0,-1.0,0.0434799531656965,1.0,0.0
31.797985076904297,2.92520523071289,-0.855780839920044,-0.1250879647043482,-0.465794169923334,-0.8760073015400933,0.0506244260476508,4.0,0.0
31.66677474975586,2.9694948196411133,-0.8658695220947266,-0.0,-0.0,-1.0,0.0710122406331697,2.0,0.0
31.711009979248047,2.847172737121582,-0.8551744222640991,-0.5150524262040906,0.6983961639268017,0.4969545215345241,0.104670891242715,4.0,0.0
30.285785675048828,3.1219558715820312,-0.6681913137435913,-0.0,-0.0,-1.0,0.1243997039375501,2.0,0.0
32.151668548583984,2.3496904373168945,-0.5402166843414307,-0.0,-0.0,-1.0,0.1645026192761761,2.0,0.0
30.49803924560547,2.209904670715332,-0.7122074365615845,-0.0,-0.0,-1.0,0.216434742275954,2.0,0.0
30.24679183959961,2.1746864318847656,-0.7398854494094849,-0.0,-0.0,-1.0,0.216623558633578,1.0,0.0
31.831985473632812,1.3409996032714844,-0.649537205696106,-0.0,-0.0,-1.0,0.1996246251225702,2.0,0.0
31.229446411132812,1.5132150650024414,-0.6931670904159546,-0.0,-0.0,-1.0,0.1518020670074261,2.0,0.0
30.4577579498291,1.8958635330200195,-0.7393752336502075,-0.0,-0.0,-1.0,0.2260967344445421,1.0,0.0
31.400482177734375,1.3727130889892578,-0.6877263784408569,-0.0,-0.0,-1.0,0.1040702399266198,2.0,0.0
31.26189422607422,1.1359748840332031,-0.7193623781204224,-0.0,-0.0,-1.0,0.0852054820618174,1.0,0.0
30.784103393554688,1.4785709381103516,-0.738749623298645,-0.0,-0.0,-1.0,0.1981406181507524,2.0,0.0
30.45460319519043,1.509653091430664,-0.7685061693191528,-0.0,-0.0,-1.0,0.0479850925848187,2.0,0.0
31.39300537109375,0.7543849945068359,-0.7371467351913452,-0.0,-0.0,-1.0,0.0433760394862519,2.0,0.0
31.19544792175293,0.9318761825561525,-0.7416430711746216,-0.0,-0.0,-1.0,0.0534477531615711,1.0,0.0
30.211719512939453,3.124914169311523,-0.5933288335800171,-0.2138128736056303,-0.8902883638767768,-0.4020829320253655,0.1255908527295245,4.0,0.0
31.326427459716797,1.5699405670166016,-0.6152586936950684,0.6391292693654474,-0.7596918879250524,0.1199250285022218,0.2288630087822028,4.0,0.0
30.73741149902344,1.2186079025268557,-0.6976808309555054,0.941148173438538,0.3305340970269614,-0.0706210049197412,0.0865242353456879,4.0,0.0
30.987979888916016,0.6650304794311523,-0.722185492515564,0.1557763009316933,-0.930790796574871,-0.3306996175981402,0.044392141813971,4.0,0.0
30.84698486328125,0.9504938125610352,-0.7104324102401733,-0.3000245898752909,-0.0598567921652041,-0.9520516844698376,0.0402148140866849,7.0,0.0
31.164085388183594,2.7408571243286133,-0.8671289682388306,0.922664160629756,-0.3048781750799221,0.2360935091215425,0.0182231180335073,3.0,0.0
30.28601837158203,1.9483213424682615,-0.4457001686096191,-0.0,-0.0,-1.0,0.1571805914190413,2.0,0.0
31.873512268066406,1.4995384216308594,-0.6722311973571777,0.941710579550194,-0.2998007086502635,-0.1526457318631523,0.1194787676437215,3.0,0.0
31.851272583007812,1.4125852584838867,-0.6449121236801147,0.8471907450227915,-0.0247794151749073,-0.5307106764813736,0.1242717610811146,5.0,0.0
32.636749267578125,2.5250349044799805,-0.7072973251342773,-0.0,-0.0,-1.0,0.1191903530353053,1.0,0.0
31.859050750732425,1.4146156311035156,-0.7126684188842773,0.759650052397583,-0.1287257436552956,-0.637464885944897,0.1390525847197488,4.0,0.0
32.5980224609375,2.5201425552368164,-0.7819907665252686,-0.0,-0.0,-1.0,0.071161122840741,2.0,0.0
32.636478424072266,3.1334705352783203,-0.772111177444458,-0.0,-0.0,-1.0,0.1170335867454605,1.0,0.0
30.51413345336914,0.7547378540039062,-0.7695339918136597,0.1300808721215038,-0.0254619483606087,-0.9911763999883122,0.0953857295573647,3.0,0.0
30.651874542236328,1.2420635223388672,-0.7677716016769409,-0.07887163132387,-0.4069127710419767,-0.9100556370548184,0.0687358287145723,4.0,0.0
31.22147560119629,2.1046037673950195,-0.821771502494812,-0.0,-0.0,-1.0,0.0680226406306043,2.0,0.0
31.538822174072266,2.631760597229004,-0.85450279712677,-0.0,-0.0,-1.0,0.1425211514567636,2.0,0.0
31.719173431396484,2.9220633506774902,-0.8748220205307007,-0.2337388449217002,0.9378580607821966,-0.2564925149015596,0.1191559759043123,3.0,0.0
30.26089096069336,2.613471031188965,-0.6462113857269287,-0.0,-0.0,-1.0,0.1229366003230716,2.0,0.0
31.885988235473633,0.6615266799926758,-0.7971043586730957,-0.8310489643341601,-0.2554537827920452,-0.4940657686344554,0.0587118990196649,3.0,0.0
32.28569030761719,1.0372257232666016,-0.8425905704498291,-0.444829438883055,-0.3257402921611869,-0.8342781504784429,0.0742311455235326,3.0,0.0
32.32003402709961,0.7794055938720703,-0.8592500686645508,-0.585857562149563,0.7696471683194934,-0.2537994349283622,0.2194355661866726,3.0,0.0
31.732471466064453,1.6912994384765625,-0.7269119024276733,-0.0,-0.0,-1.0,0.0758573500670015,2.0,0.0
32.239166259765625,1.4922170639038086,-0.8161776065826416,-0.0,-0.0,-1.0,0.0609400473043205,1.0,0.0
31.81218910217285,2.469560146331787,-0.7097197771072388,-0.0,-0.0,-1.0,0.1685158314857786,2.0,0.0
32.233551025390625,2.470160007476806,-0.7794797420501709,-0.0,-0.0,-1.0,0.1651964442694204,1.0,0.0
32.49551010131836,2.3092803955078125,-0.8282840251922607,0.7384834327741027,0.4176026283388294,-0.5293866869526268,0.099331466647469,3.0,0.0
32.64952850341797,2.082132339477539,-0.8614044189453125,-0.0,-0.0,-1.0,0.0321584588116882,1.0,0.0
32.355186462402344,2.581597328186035,-0.7961170673370361,-0.7645177606882442,0.4910162981658143,-0.41763092381644,0.0581596992819219,5.0,0.0
32.438392639160156,2.603496551513672,-0.8093926906585693,-0.0,-0.0,-1.0,0.0672171225974927,2.0,0.0
30.328723907470703,1.0066308975219729,-0.7917144298553467,-0.0,-0.0,-1.0,0.0512566168252683,1.0,0.0
30.491802215576172,1.5023775100708008,-0.7880063056945801,-0.0,-0.0,-1.0,0.0479161861106839,2.0,0.0
32.38715744018555,0.7998218536376953,-0.7050104141235352,-0.0,-0.0,-1.0,0.1770486860730061,2.0,0.0
30.550294876098633,2.4934587478637695,-0.7402493953704834,-0.0,-0.0,-1.0,0.1198095354083324,2.0,0.0
31.360530853271484,2.971261501312256,-0.8834969997406006,0.7347815176853787,0.3902716813193068,-0.5547829629937935,0.0194690856611039,3.0,0.0
32.702613830566406,3.1333975791931152,-0.7173748016357422,-0.0,-0.0,-1.0,0.1639082283799059,2.0,0.0
31.372989654541016,1.613454818725586,-0.5068051815032959,0.935119697227082,-0.2768773940020242,-0.2211109688563137,0.2328902787920747,6.0,0.0
32.13959503173828,2.4120683670043945,-0.6216700077056885,0.8110684557895272,-0.1033822588601098,-0.5757430577750571,0.1645026192761761,7.0,0.0
30.83605575561523,0.907273292541504,-0.7117183208465576,-0.9105579146340532,0.282808931457441,-0.3015018944968414,0.0610719418442662,4.0,0.0
30.96474838256836,1.0443658828735352,-0.7173782587051392,0.095638713649925,0.0705579322560845,-0.9929122895035254,0.060417821170343,3.0,0.0
31.259843826293945,1.3780269622802734,-0.7310378551483154,-0.4030426250936233,0.579521069063096,-0.7083162943696883,0.1726553707195273,4.0,0.0
31.69164276123047,1.3631410598754885,-0.7990025281906128,-0.0,-0.0,-1.0,0.1754834584385661,2.0,0.0
31.299137115478516,1.486262321472168,-0.7274963855743408,-0.0,-0.0,-1.0,0.1900760642353854,1.0,0.0
31.576335906982425,1.605879783630371,-0.7603260278701782,-0.0,-0.0,-1.0,0.0899816555725191,2.0,0.0
31.946563720703125,1.722919464111328,-0.8095709085464478,-0.0,-0.0,-1.0,0.0567340079878387,1.0,0.0
32.324859619140625,1.6486530303955078,-0.8769634962081909,-0.3231809527710649,-0.7807608753522367,-0.5347583821551524,0.0569535566417392,3.0,0.0
31.59197425842285,1.8747491836547852,-0.7403360605239868,0.9259616761644726,0.3541855755387056,0.1309486630515813,0.0936483522741393,4.0,0.0
32.13112258911133,1.9451112747192385,-0.8222874402999878,-0.0,-0.0,-1.0,0.0243592749943864,1.0,0.0
32.37146759033203,2.0606589317321777,-0.8532668352127075,-0.0,-0.0,-1.0,0.0281927495262383,1.0,0.0
32.100101470947266,2.30340576171875,-0.7899032831192017,-0.0,-0.0,-1.0,0.1676156191578906,1.0,0.0
32.40272521972656,2.305135726928711,-0.8407217264175415,0.3011290775294677,0.9509264222481254,-0.0711352102452201,0.1301203237306614,3.0,0.0
30.654111862182617,3.0630483627319336,-0.8557785749435425,-0.0,-0.0,-1.0,0.0283408308797943,1.0,0.0
32.32986068725586,2.555605888366699,-0.8105651140213013,0.4546215895490227,0.1841836270155985,-0.8714330736524174,0.0668573549669576,4.0,0.0
31.882793426513672,1.3984308242797852,-0.3947291374206543,0.9214290357419604,-0.1660427941813012,-0.3512809738544166,0.1106938193304275,4.0,0.0
30.30010223388672,2.704763889312744,-0.4668582677841186,-0.0,-0.0,-1.0,0.0768948815588373,1.0,0.0
30.42059326171875,3.052049160003662,-0.4564567804336548,-0.0,-0.0,-1.0,0.1481938588783202,2.0,0.0
31.526159286499023,0.6746635437011719,-0.7694593667984009,-0.0,-0.0,-1.0,0.0114225455347292,2.0,0.0
31.898975372314453,0.665349006652832,-0.8209258317947388,-0.0,-0.0,-1.0,0.0584065365253253,2.0,0.0
32.21125793457031,0.7255525588989258,-0.8575989007949829,-0.0,-0.0,-1.0,0.1522448690540346,1.0,0.0
32.67431640625,0.8693761825561523,-0.9088948965072632,-0.0,-0.0,-1.0,0.069117982078204,1.0,0.0
31.7281494140625,1.373307228088379,-0.7146546840667725,-0.0,-0.0,-1.0,0.1787508870141596,1.0,0.0
32.06163024902344,1.0284013748168943,-0.801615834236145,-0.0,-0.0,-1.0,0.0272177575162601,2.0,0.0
32.35578536987305,1.004068374633789,-0.8470560312271118,0.2055807795745191,0.9758935034785012,0.0732694543311866,0.0717742621534731,4.0,0.0
30.52120590209961,2.3069539070129395,-0.7866874933242798,0.1447021944386675,0.0096125383476555,-0.9894285593367262,0.0591538846823267,3.0,0.0
31.09009552001953,2.4320006370544434,-0.8622428178787231,-0.0,-0.0,-1.0,0.1177386568520992,1.0,0.0
31.31583023071289,2.5347065925598145,-0.887241005897522,0.7769404226275014,-0.0157205976923567,-0.6293778217379403,0.0742793545511554,3.0,0.0
32.045684814453125,2.3608179092407227,-0.6557420492172241,-0.0,-0.0,-1.0,0.1824295655867245,2.0,0.0
32.621429443359375,2.449084758758545,-0.7395671606063843,-0.0858125725433602,0.851290404645324,-0.5176300313469951,0.0668527783104858,3.0,0.0
31.52404022216797,2.780611038208008,-0.8918863534927368,-0.9822759013374964,0.0804159185665542,-0.1693143044538959,0.1270681819548618,3.0,0.0
31.64995765686035,2.9316582679748535,-0.8957136869430542,0.4375082210891928,0.6267508935836589,-0.6448021974772226,0.1398917981747347,3.0,0.0
31.805274963378903,1.4179763793945312,-0.3218739032745361,0.592909749506446,-0.7787399234170023,-0.2049930745578611,0.1295072088116762,4.0,0.0
30.271230697631836,1.8580522537231443,-0.4596514701843261,-0.0,-0.0,-1.0,0.1846462294050558,2.0,0.0
31.83343505859375,1.444291114807129,-0.3230437040328979,0.6906189280934246,-0.6969841869916781,-0.1930247114818196,0.1370229269175106,5.0,0.0
30.526607513427734,1.0778865814208984,-0.7711484432220459,-0.0,-0.0,-1.0,0.0370841147583008,2.0,0.0
32.383262634277344,0.7105369567871094,-0.6923195123672485,0.4611923358951751,-0.8783736708478393,0.1255441104665732,0.2650479414019127,5.0,0.0
30.98484992980957,1.4083662033081057,-0.779881477355957,-0.0,-0.0,-1.0,0.0741366758383001,1.0,0.0
31.236040115356445,1.7071456909179688,-0.7705748081207275,-0.0,-0.0,-1.0,0.1017436895766627,1.0,0.0
31.38789939880371,1.901866436004639,-0.7642607688903809,0.9055827267115566,0.2273277084047889,-0.3581089751361862,0.045526913514223,5.0,0.0
31.64751243591309,1.9952092170715332,-0.7920932769775391,-0.0,-0.0,-1.0,0.102815883347244,2.0,0.0
32.058929443359375,2.061762809753418,-0.8514895439147949,-0.0,-0.0,-1.0,0.0434217296615699,2.0,0.0
31.8742733001709,2.301210403442383,-0.7863869667053223,-0.0,-0.0,-1.0,0.0973195665294053,1.0,0.0
32.462379455566406,2.8368687629699707,-0.8214828968048096,-0.0,-0.0,-1.0,0.0284193592925943,2.0,0.0
31.788265228271484,1.3993873596191406,-0.5286006927490234,0.962239855538452,-0.2498288073325902,0.1080741756393004,0.1693872186552496,5.0,0.0
30.357330322265625,2.2234888076782227,-0.5612319707870483,-0.0,-0.0,-1.0,0.270888596784535,2.0,0.0
30.384437561035156,0.7919158935546875,-0.8205525875091553,-0.5080761564053852,0.6092589222434726,-0.6088203223932765,0.0674519362109903,3.0,0.0
30.926685333251953,1.1970930099487305,-0.7931432723999023,-0.0,-0.0,-1.0,0.0280206110174531,1.0,0.0
31.61998748779297,1.2863283157348633,-0.8584692478179932,-0.0,-0.0,-1.0,0.0838643299516062,1.0,0.0
31.520469665527344,1.4029769897460938,-0.8230924606323242,-0.0,-0.0,-1.0,0.0607716330208752,1.0,0.0
31.97805404663086,1.5737390518188477,-0.8518474102020264,-0.0,-0.0,-1.0,0.0672695561669379,1.0,0.0
32.149658203125,1.582106590270996,-0.8749780654907227,-0.0,-0.0,-1.0,0.0546843692454362,1.0,0.0
32.401397705078125,1.6799592971801758,-0.8940978050231934,-0.0,-0.0,-1.0,0.0483360655207458,2.0,0.0
32.63749694824219,1.6757774353027344,-0.9314777851104736,-0.346122425997151,-0.3630942547044097,-0.8650790879581446,0.0246990159786652,3.0,0.0
32.41615676879883,0.7244195938110352,-0.7050356864929199,-0.1385874609885417,0.7618926572164204,-0.6327030065808532,0.1861024000863866,6.0,0.0
30.646394729614254,1.216360092163086,-0.7594573497772217,-0.1573009122624944,-0.273418651902984,-0.948946080550914,0.0776263116307763,3.0,0.0
30.961347579956055,1.315464973449707,-0.7734091281890869,-0.0,-0.0,-1.0,0.0599579389056555,2.0,0.0
31.12067222595215,1.4437274932861328,-0.7661049365997314,-0.0,-0.0,-1.0,0.1062001566006045,2.0,0.0
31.346424102783203,1.5304813385009766,-0.7764742374420166,-0.7687792486512396,-0.1184689939892569,-0.6284453550678919,0.1909902508003436,4.0,0.0
31.802114486694336,1.4163055419921875,-0.5215797424316406,0.4862051518172461,-0.870683765242619,0.0742585435441899,0.1617146226362235,7.0,0.0
31.56172561645508,1.8013105392456057,-0.7516195774078369,0.0880091325484436,-0.1023599355264539,-0.9908465250416384,0.1573476857178604,5.0,0.0
31.71129035949707,1.8202762603759768,-0.7681825160980225,0.4541435710329427,0.3234392613358754,-0.8301449639165136,0.0821191906916386,7.0,0.0
32.684444427490234,2.3194732666015625,-0.8248934745788574,-0.6823419131322679,-0.5397225097175085,-0.4930609760336245,0.0520406604547781,3.0,0.0
30.403316497802734,1.0442743301391602,-0.8222652673721313,-0.0,-0.0,-1.0,0.0548132720907451,2.0,0.0
32.32831954956055,0.7760553359985352,-0.7161866426467896,-0.4168614976086456,-0.8909755894704675,-0.1799694162329524,0.2072570617406908,3.0,0.0
30.64104461669922,1.2815618515014648,-0.7871276140213013,-0.0,-0.0,-1.0,0.1119891214103688,2.0,0.0
30.920366287231445,1.3425006866455078,-0.7967721223831177,-0.0,-0.0,-1.0,0.0583033399448701,1.0,0.0
31.13681411743164,1.4964666366577148,-0.7825280427932739,-0.0,-0.0,-1.0,0.0717456585019888,1.0,0.0
31.384965896606445,1.5528783798217771,-0.7948614358901978,0.5967240756245478,-0.6885346002913625,0.4121170728951215,0.1933745708289131,3.0,0.0
31.866031646728516,1.489971160888672,-0.6995906829833984,0.941710579550194,-0.2998007086502635,-0.1526457318631523,0.1078330660903055,3.0,0.0
32.22140884399414,1.516435623168945,-0.89854896068573,-0.0,-0.0,-1.0,0.0628753277755648,1.0,0.0
32.52195739746094,1.5396089553833008,-0.932742714881897,-0.0,-0.0,-1.0,0.0289815455657588,1.0,0.0
30.257266998291016,2.207005500793457,-0.5509413480758667,0.012476095367436,-0.7174018720527486,-0.6965478454633209,0.1913692294778267,3.0,0.0
31.58017921447754,1.8220181465148928,-0.7572829723358154,0.5252472831743094,-0.66751269890916,-0.5277708672454517,0.1184752224031825,7.0,0.0
31.70954704284668,1.799272537231445,-0.7767390012741089,0.5888368387932262,0.3913416303338466,-0.7071936832633952,0.0851709848307133,5.0,0.0
32.606685638427734,1.671269416809082,-0.9172579050064088,-0.0,-0.0,-1.0,0.0273403372572662,2.0,0.0
30.2946834564209,2.4128060340881348,-0.5072813034057617,-0.0,-0.0,-1.0,0.1594949886193274,1.0,0.0
31.266422271728516,0.6863183975219727,-0.7390021085739136,-0.5246564947382036,0.0739789465678332,-0.8480935549771235,0.0473141607397862,3.0,0.0
30.682138442993164,0.7180261611938477,-0.7072370052337646,-0.0,-0.0,-1.0,0.1121672257036209,2.0,0.0
31.8443546295166,1.086225509643555,-0.6882301568984985,-0.0,-0.0,-1.0,0.0885954944043678,1.0,0.0
31.33375358581543,1.590436935424805,-0.548148512840271,0.4085867616603132,-0.8587417959686827,0.3092238445728599,0.2277244173116777,10.0,0.0
31.841779708862305,1.4485206604003906,-0.3035247325897217,0.1067855843924258,-0.1561926674765263,-0.9819372126528944,0.1370229269175105,5.0,0.0
30.95198631286621,0.6570882797241211,-0.7173454761505127,-0.0323454409465259,-0.4091303383095294,-0.911902483122348,0.0390645561662049,3.0,0.0
32.34111785888672,0.7269220352172852,-0.7489261627197266,-0.0,-0.0,-1.0,0.2009140415972774,1.0,0.0
31.790298461914062,1.3716745376586914,-0.5822527408599854,0.7623452247491996,-0.1725510752771081,-0.6237434446331328,0.2220823005313555,7.0,0.0
30.54044532775879,0.7255582809448242,-0.7653312683105469,0.1039685036029208,-0.0427065640055208,-0.993663272768704,0.0927955765899256,4.0,0.0
30.918067932128903,0.6719284057617188,-0.7629115581512451,-0.0,-0.0,-1.0,0.0367905971214269,1.0,0.0
30.616199493408203,0.9372711181640624,-0.7159394025802612,0.0944743710425908,0.6629896715856698,0.7426434464713418,0.062822659259182,5.0,0.0
31.300886154174805,0.7389755249023438,-0.7375330924987793,-0.3994154609916636,0.4308793420636365,-0.8092034862156888,0.0486226706717285,3.0,0.0
30.70758819580078,1.001190185546875,-0.6982400417327881,0.0218478379939572,0.955490537942554,0.2942116650937532,0.0612298943377186,3.0,0.0
31.370595932006836,1.6196355819702148,-0.5411098003387451,0.8170485334519424,-0.4851547177408843,-0.3115390727305219,0.2136395002968895,10.0,0.0
31.79422950744629,1.367046356201172,-0.5903439521789551,0.7623452247491996,-0.1725510752771081,-0.6237434446331328,0.2606591022278982,7.0,0.0
30.24028587341309,2.087244987487793,-0.4884216785430908,-0.0,-0.0,-1.0,0.1134904401169266,2.0,0.0
30.281585693359375,0.7582893371582031,-0.8095672130584717,0.9342056458592528,-0.3161638555306117,-0.1652278054708552,0.0410149788016653,5.0,0.0
30.745038986206055,0.8544931411743164,-0.7587623596191406,0.4842121626554673,0.7759548585296402,0.4042680287393026,0.0954922844512798,3.0,0.0
31.115123748779297,0.7432327270507812,-0.7617180347442627,-0.0,-0.0,-1.0,0.0448290623735428,2.0,0.0
30.746246337890625,1.0088987350463867,-0.7261452674865723,-0.566198680469574,0.7416386389856974,-0.3597098600232634,0.0532801494226875,5.0,0.0
31.380611419677734,1.5592994689941406,-0.5744410753250122,0.6523070183890447,-0.7329341198723117,0.1931401814418596,0.1910642926632487,3.0,0.0
31.851919174194336,1.4343271255493164,-0.5817334651947021,0.5716939441426506,-0.7863655577082017,-0.234083839427006,0.1169865331866185,6.0,0.0
30.222820281982425,2.153411388397217,-0.5313774347305298,-0.0,-0.0,-1.0,0.1463397396606012,2.0,0.0
30.254854202270508,1.7673745155334473,-0.2954717874526977,-0.0,-0.0,-1.0,0.1386503649517753,1.0,0.0
31.63564109802246,1.0222206115722656,-0.8643475770950317,-0.0,-0.0,-1.0,0.0270395277873278,2.0,0.0
32.571998596191406,0.7165403366088867,-0.8823274374008179,-0.0,-0.0,-1.0,0.0967844313200994,2.0,0.0
32.10381317138672,0.95635986328125,-0.8499764204025269,-0.0,-0.0,-1.0,0.031172655217257,2.0,0.0
32.44786071777344,0.8654403686523438,-0.8532530069351196,-0.0,-0.0,-1.0,0.1070939981279486,2.0,0.0
30.569232940673828,1.5436983108520508,-0.8422468900680542,0.919989090665918,0.3895351472170922,-0.0433871194970973,0.0507728582916542,3.0,0.0
30.9815673828125,1.5083990097045898,-0.8100839853286743,-0.0,-0.0,-1.0,0.1050241369737976,2.0,0.0
31.486757278442383,1.3093538284301758,-0.8112941980361938,-0.5185765640414166,-0.6335199162871052,-0.5742219630896902,0.0718377220454912,3.0,0.0
31.763416290283203,1.117353439331055,-0.8345838785171509,-0.0,-0.0,-1.0,0.0689735500275054,2.0,0.0
32.112518310546875,0.9901857376098632,-0.8420673608779907,-0.0,-0.0,-1.0,0.0367360264911878,2.0,0.0
