x,y,z,nx,ny,nz,curvature,density,label
21.203725814819336,-27.12811279296875,1.0534740686416626,-0.0,-0.0,-1.0,0.0482680895970503,2.0,2.0
21.588350296020508,-26.947589874267575,1.1068382263183594,-0.0,-0.0,-1.0,0.1275593556136062,1.0,2.0
21.913827896118164,-27.087329864501953,1.125922918319702,-0.0,-0.0,-1.0,0.1863212706615819,1.0,2.0
22.380451202392575,-27.084991455078125,1.168943166732788,-0.5198197741783845,-0.657878626260505,-0.5449615724826143,0.1439969872880944,4.0,2.0
20.791759490966797,-29.13037872314453,1.8408050537109375,-0.185905268703259,0.3769394600447139,-0.907389593575752,0.158355491661171,3.0,2.0
20.536396026611328,-28.90131950378418,1.835302472114563,-0.0,-0.0,-1.0,0.1455010772792544,2.0,2.0
22.19048500061035,-27.391189575195312,1.5471508502960205,-0.0,-0.0,-1.0,0.1978286389314368,1.0,2.0
22.393434524536133,-27.02762222290039,1.583847165107727,-0.0,-0.0,-1.0,0.1445528519929103,1.0,2.0
22.12073135375977,-28.08207893371582,1.0729877948760986,-0.0,-0.0,-1.0,0.1258226285036657,1.0,2.0
22.45987319946289,-28.284442901611328,1.0853312015533447,-0.0,-0.0,-1.0,0.0649210975597199,1.0,2.0
22.70433807373047,-28.414791107177734,1.0941815376281738,-0.0,-0.0,-1.0,0.047336889593849,1.0,2.0
21.73543930053711,-27.66566276550293,1.0706017017364502,-0.0,-0.0,-1.0,0.0647223912266731,2.0,2.0
21.98515892028809,-27.96326446533203,1.0703938007354736,-0.0,-0.0,-1.0,0.0798895130752693,2.0,2.0
22.313465118408203,-28.00669860839844,1.0962193012237549,-0.0,-0.0,-1.0,0.1338265947169051,1.0,2.0
20.9709415435791,-27.25487518310547,1.0238295793533323,-0.0,-0.0,-1.0,0.0748675455372765,2.0,2.0
21.42487144470215,-27.27581787109375,1.069167137145996,-0.0,-0.0,-1.0,0.1248084013203779,1.0,2.0
21.678098678588867,-27.440759658813477,1.0821475982666016,-0.0,-0.0,-1.0,0.1299531668585776,2.0,2.0
21.886470794677734,-27.38033866882324,1.1069626808166504,-0.0,-0.0,-1.0,0.1189224962495273,1.0,2.0
21.351806640625,-27.12772750854492,1.0722901821136477,-0.0,-0.0,-1.0,0.0464797911949268,2.0,2.0
21.54561996459961,-27.042369842529297,1.09819495677948,0.0264737584723589,-0.1705999084498203,-0.9849846756926016,0.1153432115025323,4.0,2.0
21.49068069458008,-29.251859664916992,1.4288636445999146,-0.0,-0.0,-1.0,0.1900204516067077,2.0,2.0
21.628177642822266,-29.357364654541016,1.431897759437561,-0.0,-0.0,-1.0,0.1239697528873907,1.0,2.0
20.442028045654297,-28.843366622924805,1.3763799667358398,-0.0,-0.0,-1.0,0.1958882970455286,1.0,2.0
20.80886459350586,-28.796070098876953,1.4057693481445312,-0.476901428480259,0.8218927149636711,0.311540354694435,0.2670944355360177,4.0,2.0
21.06804656982422,-28.87202835083008,1.4203909635543823,-0.0,-0.0,-1.0,0.2500020693342158,2.0,2.0
20.77684783935547,-28.641780853271484,1.4110724925994873,-0.0,-0.0,-1.0,0.2322911023813316,2.0,2.0
20.97615623474121,-28.405590057373047,1.4373600482940674,-0.0,-0.0,-1.0,0.1174393215591565,1.0,2.0
22.51047134399414,-27.427379608154297,1.1614012718200684,-0.0,-0.0,-1.0,0.1677981730063352,2.0,2.0
22.28704071044922,-27.09898376464844,1.166877508163452,-0.0,-0.0,-1.0,0.1548231737922005,1.0,2.0
22.452579498291016,-27.02828598022461,1.1879794597625732,-0.0,-0.0,-1.0,0.1917770997392869,2.0,2.0
20.28714942932129,-28.91717529296875,1.3570339679718018,-0.0,-0.0,-1.0,0.2157580840487008,1.0,2.0
20.538902282714844,-28.91915702819824,1.376718521118164,-0.9987917319785724,0.0202682565286533,-0.044769117799354,0.2384946982183323,4.0,2.0
22.679851531982425,-28.15435791015625,1.0961215496063232,-0.0,-0.0,-1.0,0.0610873697418919,1.0,2.0
22.010814666748047,-27.870445251464844,1.0530340671539309,-0.0,-0.0,-1.0,0.0694077848891233,1.0,2.0
22.272308349609375,-27.835063934326172,1.0809131860733032,-0.0,-0.0,-1.0,0.0667191797857322,1.0,2.0
22.54537582397461,-28.032848358154297,1.0927953720092771,-0.0,-0.0,-1.0,0.0998660906102196,1.0,2.0
21.5537109375,-27.307418823242188,1.0428208112716677,-0.0,-0.0,-1.0,0.1122823501207343,2.0,2.0
21.913055419921875,-27.33581161499023,1.0786288976669312,-0.0,-0.0,-1.0,0.1003944503067238,1.0,2.0
22.248254776000977,-27.50321578979492,1.1013685464859009,-0.0,-0.0,-1.0,0.1286791524189414,1.0,2.0
22.599124908447266,-27.313743591308594,1.1492347717285156,-0.0,-0.0,-1.0,0.0701741882815259,1.0,2.0
21.64301490783691,-26.93296813964844,1.0749009847640991,-0.0,-0.0,-1.0,0.1348658089696753,1.0,2.0
21.971450805664062,-27.08102035522461,1.1009129285812378,-0.0,-0.0,-1.0,0.1927934489722001,2.0,2.0
22.453012466430664,-27.019763946533203,1.1545381546020508,-0.0,-0.0,-1.0,0.1873650065095293,2.0,2.0
21.535646438598633,-29.332435607910156,1.43246591091156,-0.0,-0.0,-1.0,0.1543255807359696,1.0,2.0
20.975982666015625,-28.792699813842773,1.4154268503189087,-0.0,-0.0,-1.0,0.2445560852596585,2.0,2.0
21.16577911376953,-28.968826293945312,1.4222604036331177,-0.0,-0.0,-1.0,0.2326859413114446,1.0,2.0
22.26287078857422,-27.39371109008789,1.571385383605957,-0.0,-0.0,-1.0,0.2168601868049129,1.0,2.0
22.244457244873047,-27.03097152709961,1.584610939025879,-0.0,-0.0,-1.0,0.1744018408919883,1.0,2.0
22.093490600585938,-27.140281677246097,1.012537956237793,-0.0,-0.0,-1.0,0.0888434789637703,1.0,2.0
22.289081573486328,-27.24182510375977,1.0228407382965088,0.3459894877057897,-0.8717531799306436,-0.346897200446899,0.1666611847519092,3.0,2.0
22.291454315185547,-27.053211212158203,1.0383890867233276,-0.0,-0.0,-1.0,0.2220660550605006,1.0,2.0
22.698320388793945,-27.142841339111328,1.069098711013794,-0.0,-0.0,-1.0,0.0931698979345454,1.0,2.0
20.391996383666992,-28.83759498596191,1.2777221202850342,-0.0,-0.0,-1.0,0.2122467130612307,2.0,2.0
20.769718170166016,-28.93415069580078,1.2976082563400269,-0.0,-0.0,-1.0,0.1612513161474038,2.0,2.0
21.009607315063477,-29.18632125854492,1.298268437385559,-0.0,-0.0,-1.0,0.1062072885968959,1.0,2.0
21.36745834350586,-29.256820678710938,1.3168466091156006,-0.0,-0.0,-1.0,0.2508704705038615,2.0,2.0
20.40247344970703,-28.60777282714844,1.2914611101150513,-0.0,-0.0,-1.0,0.112282980384211,1.0,2.0
20.652484893798828,-28.74441909790039,1.3008596897125244,-0.0,-0.0,-1.0,0.174855447706406,2.0,2.0
21.91878890991211,-28.326858520507812,1.4097791910171509,-0.0,-0.0,-1.0,0.090576514760423,1.0,2.0
20.408924102783203,-27.792102813720703,1.336392164230347,-0.0,-0.0,-1.0,0.1918739262628513,1.0,2.0
22.024999618530273,-27.411678314208984,1.4712271690368652,-0.0,-0.0,-1.0,0.1888203924439429,1.0,2.0
22.24161148071289,-26.96794891357422,1.5113825798034668,-0.0,-0.0,-1.0,0.1468522569524124,1.0,2.0
20.42634391784668,-28.799171447753903,1.840565800666809,-0.0,-0.0,-1.0,0.1194400255236353,1.0,2.0
20.63091278076172,-28.90795135498047,1.8455159664154053,0.0463210585438848,0.9981864446487624,0.0384471228421172,0.1478052666745295,3.0,2.0
20.277437210083008,-28.713462829589844,1.837064266204834,-0.0,-0.0,-1.0,0.2188516267523653,1.0,2.0
20.874557495117188,-28.82883071899414,1.858393311500549,-0.0,-0.0,-1.0,0.0997529545156421,1.0,2.0
20.988544464111328,-28.79505729675293,1.8642780780792236,-0.0,-0.0,-1.0,0.1951662227145683,2.0,2.0
22.332408905029297,-27.53337860107422,1.0893356800079346,-0.0,-0.0,-1.0,0.1048789699252346,2.0,2.0
22.521495819091797,-27.63131332397461,1.0948092937469482,-0.0,-0.0,-1.0,0.1552149867371204,1.0,2.0
21.97243881225586,-26.981792449951172,1.1085736751556396,-0.0,-0.0,-1.0,0.2296638240691852,1.0,2.0
22.186359405517575,-27.200328826904297,1.1066536903381348,-0.0,-0.0,-1.0,0.2062258218327129,1.0,2.0
20.613845825195312,-29.317886352539062,1.3848834037780762,-0.0,-0.0,-1.0,0.2281678176543142,1.0,2.0
20.678207397460938,-28.922924041748047,1.4126826524734497,-0.0,-0.0,-1.0,0.1398204943892442,2.0,2.0
20.729755401611328,-29.065120697021484,1.4062601327896118,-0.0,-0.0,-1.0,0.1778369335052884,1.0,2.0
20.387073516845703,-28.508834838867188,1.4241057634353638,-0.0,-0.0,-1.0,0.1924924349849327,1.0,2.0
20.643997192382812,-28.6534423828125,1.4277443885803225,-0.0,-0.0,-1.0,0.2451082099890161,1.0,2.0
21.060575485229492,-28.988117218017575,1.4268102645874023,-0.0,-0.0,-1.0,0.1724931987862252,1.0,2.0
21.326187133789062,-29.038516998291016,1.4360934495925903,-0.0,-0.0,-1.0,0.1018969804382681,1.0,2.0
22.145065307617188,-29.33639907836914,1.4544570446014404,-0.0,-0.0,-1.0,0.150309244466142,1.0,2.0
20.597108840942383,-28.057601928710938,1.4618746042251587,-0.0,-0.0,-1.0,0.1802538688689509,1.0,2.0
22.073389053344727,-26.903472900390625,1.122846245765686,-0.0,-0.0,-1.0,0.1868181162264287,1.0,2.0
22.389448165893555,-27.069913864135746,1.133030891418457,-0.0,-0.0,-1.0,0.1706522325472506,2.0,2.0
21.510032653808594,-27.687171936035156,1.5293179750442505,-0.0,-0.0,-1.0,0.1183839573249481,1.0,2.0
21.41727066040039,-26.93078231811523,1.5703738927841189,-0.0,-0.0,-1.0,0.1251361493073635,1.0,2.0
21.604637145996097,-27.409156799316406,1.0652130842208862,-0.0,-0.0,-1.0,0.1497253908187649,1.0,2.0
21.726110458374023,-27.100547790527344,1.0938048362731934,-0.0,-0.0,-1.0,0.0655784806428573,2.0,2.0
22.01066780090332,-27.442672729492188,1.102237343788147,-0.0,-0.0,-1.0,0.1750656544925899,1.0,2.0
22.26197052001953,-27.707294464111328,1.1104656457901,-0.0,-0.0,-1.0,0.2212865021021377,1.0,2.0
22.53241539001465,-27.89374732971191,1.124105453491211,-0.0,-0.0,-1.0,0.118572608458326,2.0,2.0
20.422483444213867,-29.245140075683594,1.4294310808181765,-0.0,-0.0,-1.0,0.2269768053777887,1.0,2.0
20.620532989501953,-28.679851531982425,1.463214874267578,-0.0,-0.0,-1.0,0.2082286115815854,2.0,2.0
20.689964294433594,-28.871936798095703,1.460892915725708,-0.0,-0.0,-1.0,0.1907631054191146,1.0,2.0
20.397300720214844,-28.288013458251953,1.4616296291351318,-0.0,-0.0,-1.0,0.1414634196271336,1.0,2.0
20.55551528930664,-28.411020278930664,1.4682493209838867,-0.0,-0.0,-1.0,0.1713754561223241,1.0,2.0
20.529781341552734,-27.912006378173828,1.4833256006240845,-0.0,-0.0,-1.0,0.1653038759521314,2.0,2.0
21.894197463989254,-27.049013137817383,1.606559991836548,-0.0,-0.0,-1.0,0.1100629178607924,1.0,2.0
20.45917510986328,-26.9534912109375,1.0472100973129272,-0.0,-0.0,-1.0,0.0534729965266826,1.0,2.0
20.855255126953125,-27.214099884033203,1.072834849357605,0.2247679422029903,0.58969021162164,-0.7757221322583613,0.0810209168171286,3.0,2.0
21.040714263916016,-27.483774185180664,1.07682204246521,-0.0,-0.0,-1.0,0.1313721200613699,1.0,2.0
21.22467041015625,-27.766193389892575,1.0792455673217771,-0.0,-0.0,-1.0,0.0424981618617819,1.0,2.0
20.917604446411133,-26.91662216186523,1.0930156707763672,-0.0,-0.0,-1.0,0.1560926665696799,1.0,2.0
21.403236389160156,-27.42037582397461,1.1138193607330322,-0.0,-0.0,-1.0,0.2632405598822674,1.0,2.0
21.66644287109375,-27.76755142211914,1.1193841695785522,-0.0,-0.0,-1.0,0.1179072664964615,2.0,2.0
21.853042602539062,-27.950992584228516,1.1257447004318235,-0.0,-0.0,-1.0,0.1029682815540078,1.0,2.0
22.115476608276367,-28.26578140258789,1.1303948163986206,-0.0,-0.0,-1.0,0.077121557611786,2.0,2.0
22.37610626220703,-28.587732315063477,1.1329927444458008,-0.0,-0.0,-1.0,0.0288189815225086,1.0,2.0
22.630504608154297,-28.90066146850586,1.1342198848724363,-0.0,-0.0,-1.0,0.044385060140648,1.0,2.0
22.067089080810547,-27.38085174560547,1.1766996383666992,0.6290836293190888,-0.7200600660640553,-0.2928605275255637,0.1635751129544774,3.0,2.0
21.967544555664062,-27.855392456054688,1.1414170265197754,-0.0,-0.0,-1.0,0.1072128740307056,1.0,2.0
22.409866333007812,-28.52337074279785,1.1399402618408203,-0.0,-0.0,-1.0,0.0394934714128014,1.0,2.0
22.700408935546875,-28.937885284423828,1.1376529932022097,-0.0,-0.0,-1.0,0.0532502812090245,1.0,2.0
21.964914321899418,-26.945045471191406,1.190387725830078,-0.0,-0.0,-1.0,0.2024193843530167,1.0,2.0
22.215099334716797,-27.18425750732422,1.2008085250854492,-0.0,-0.0,-1.0,0.1606958647467674,1.0,2.0
20.404525756835938,-27.997549057006836,1.5461418628692627,-0.0,-0.0,-1.0,0.1534098053932743,2.0,2.0
20.738901138305664,-28.811607360839844,1.5396474599838257,-0.6352389469384745,0.6536640551885506,-0.4113329347948665,0.1889180593618014,3.0,2.0
21.034351348876953,-29.019392013549805,1.5497770309448242,-0.0,-0.0,-1.0,0.1824652270490943,2.0,2.0
21.12439346313477,-29.24738311767578,1.546544313430786,-0.3999178582747644,-0.3716900288585946,-0.837802022604399,0.1884713838042587,3.0,2.0
22.634601593017575,-26.989177703857425,0.9786895513534546,-0.7823157998531826,-0.5269087780245264,0.3321883937478485,0.194894256586524,3.0,1.0
20.423263549804688,-28.492446899414062,1.2025609016418457,-0.0,-0.0,-1.0,0.1537919946539304,2.0,2.0
20.500141143798828,-27.88545036315918,1.233601450920105,-0.0262679825347901,-0.9996352136337836,-0.0062795506918773,0.2395844684094362,3.0,2.0
20.854557037353516,-28.417123794555664,1.240585207939148,-0.0,-0.0,-1.0,0.1818170413195101,1.0,2.0
21.022201538085938,-28.776979446411133,1.237789273262024,-0.0,-0.0,-1.0,0.1993511589150675,2.0,2.0
21.12238121032715,-29.064733505249023,1.2320576906204224,-0.5560408466189457,0.5949140345840559,-0.5804273152998632,0.1358362147012408,4.0,2.0
21.073633193969727,-27.974308013916016,1.2771095037460327,-0.0,-0.0,-1.0,0.0851806454610002,2.0,2.0
21.458925247192383,-29.102407455444336,1.2560774087905884,-0.0,-0.0,-1.0,0.1766101369194374,1.0,2.0
21.583560943603516,-29.32746696472168,1.254151701927185,-0.5189693665218926,0.3261286640087104,-0.7901334641209419,0.1207511626800072,3.0,2.0
22.11966896057129,-27.68272399902344,1.3739696741104126,-0.0,-0.0,-1.0,0.1322399623030037,1.0,2.0
22.24060440063477,-28.008899688720703,1.3688678741455078,-0.0,-0.0,-1.0,0.2022378407981794,1.0,2.0
22.24704360961914,-27.32052993774414,1.3997573852539062,-0.0,-0.0,-1.0,0.111020938490804,1.0,2.0
20.576339721679688,-28.85485076904297,1.7583673000335691,-0.0,-0.0,-1.0,0.1729568072548349,1.0,2.0
20.723411560058594,-29.34776306152344,1.7523174285888672,-0.0,-0.0,-1.0,0.1430678112971215,2.0,2.0
20.842254638671875,-28.86667251586914,1.7712595462799072,-0.0224973609094344,-0.1819874963207599,-0.9830434476334258,0.2050254600894731,3.0,2.0
21.068592071533203,-28.9775390625,1.7793549299240112,-0.5313526770837338,0.6014910079134527,0.5965508360192011,0.2294785150129948,3.0,2.0
20.954933166503903,-28.347496032714844,1.7902250289916992,-0.0,-0.0,-1.0,0.2387798056788206,2.0,2.0
20.30683135986328,-28.291183471679688,1.148939609527588,-0.0,-0.0,-1.0,0.1100487748404849,2.0,2.0
20.65271377563477,-27.81534194946289,1.1931124925613403,-0.0,-0.0,-1.0,0.2160103427176046,2.0,2.0
20.847728729248047,-28.646472930908203,1.1929725408554075,-0.0,-0.0,-1.0,0.1490776264217576,2.0,2.0
20.869409561157227,-26.94580841064453,1.231189846992493,-0.0,-0.0,-1.0,0.2443630906308449,1.0,2.0
21.13920211791992,-28.063091278076172,1.2352564334869385,-0.0,-0.0,-1.0,0.0712027401164397,2.0,2.0
21.20217514038086,-29.03559684753418,1.2165510654449463,-0.0,-0.0,-1.0,0.1256867523301315,1.0,2.0
21.33826065063477,-27.389427185058594,1.269451141357422,-0.0,-0.0,-1.0,0.1707865451446059,1.0,2.0
21.444904327392575,-28.96830940246582,1.241359829902649,-0.0,-0.0,-1.0,0.0956167446813514,1.0,2.0
21.588661193847656,-29.343849182128903,1.2440400123596191,-0.5189693665218926,0.3261286640087104,-0.7901334641209419,0.1207511626800072,3.0,2.0
21.827472686767575,-27.750185012817383,1.3094145059585571,-0.0,-0.0,-1.0,0.2145726499091307,1.0,2.0
22.31887435913086,-27.947202682495117,1.351962327957153,-0.0,-0.0,-1.0,0.2245488243263447,1.0,2.0
20.71595001220703,-28.841642379760746,1.7241179943084717,0.394345081578835,-0.1622910120948568,-0.904518426582792,0.2410765320285513,4.0,2.0
20.797758102416992,-28.930891036987305,1.7287176847457886,-0.0708573452966612,-0.7364011368187354,-0.6728243472925038,0.1586353573116246,3.0,2.0
21.051517486572266,-28.95853614807129,1.7449861764907837,-0.7565947217334787,0.2256070050459813,0.6137311352043523,0.2125859322535446,4.0,2.0
22.25336456298828,-27.628719329833984,1.3534607887268066,-0.0,-0.0,-1.0,0.1773131446507103,1.0,2.0
22.501495361328125,-26.970800399780273,1.3926657438278198,-0.0,-0.0,-1.0,0.0941870067913656,2.0,2.0
22.372398376464844,-27.174766540527344,1.3755779266357422,-0.0,-0.0,-1.0,0.1038285612445418,1.0,2.0
22.55660629272461,-27.622406005859375,1.383015275001526,-0.0,-0.0,-1.0,0.1965796910215509,1.0,2.0
21.06581115722656,-28.30145263671875,1.751226782798767,-0.0,-0.0,-1.0,0.1776621567527493,1.0,2.0
21.242326736450195,-29.009737014770508,1.7569003105163574,-0.0,-0.0,-1.0,0.1621385488541536,1.0,2.0
22.20446014404297,-27.033180236816406,0.9533560276031494,-0.0,-0.0,-1.0,0.1110689236536879,1.0,1.0
20.24067497253418,-27.11474609375,1.2281227111816406,-0.0,-0.0,-1.0,0.0422215057021347,1.0,2.0
20.6756534576416,-27.83307647705078,1.2610300779342651,-0.0,-0.0,-1.0,0.127694281543136,2.0,2.0
20.541988372802734,-28.79134178161621,1.2309575080871582,0.0824778629630703,0.0693516818346713,-0.9941769190379284,0.1287244700276829,3.0,2.0
20.5720157623291,-29.022640228271484,1.2290630340576172,-0.0,-0.0,-1.0,0.1859955915524158,2.0,2.0
20.930692672729492,-28.376930236816406,1.276132583618164,-0.0,-0.0,-1.0,0.2549207685511384,2.0,2.0
20.7756290435791,-28.66641616821289,1.2556824684143066,-0.0,-0.0,-1.0,0.2467542528646909,2.0,2.0
20.951122283935547,-29.075912475585938,1.263586163520813,-0.0,-0.0,-1.0,0.1517285636106339,2.0,2.0
21.041481018066406,-29.31109046936035,1.2667460441589355,-0.1586073412651496,0.9205949128628462,0.3568595209712765,0.1894080359264606,3.0,2.0
21.155864715576172,-29.15084648132324,1.2810945510864258,-0.0,-0.0,-1.0,0.1380552709383856,1.0,2.0
21.518829345703125,-29.361587524414062,1.3098251819610596,-0.0,-0.0,-1.0,0.1291208478552302,2.0,2.0
22.06399154663086,-28.361873626708984,1.3840399980545044,-0.0,-0.0,-1.0,0.0776187485184539,2.0,2.0
21.987274169921875,-29.27666473388672,1.3551117181777954,-0.0,-0.0,-1.0,0.1641549212082263,1.0,2.0
22.01817321777344,-29.347267150878903,1.3561112880706787,-0.0,-0.0,-1.0,0.1543758167377366,1.0,2.0
22.658672332763672,-27.068260192871097,1.010920524597168,-0.0,-0.0,-1.0,0.139315659416612,2.0,2.0
20.48210334777832,-28.80041885375977,1.7727081775665283,-0.9447183658553464,-0.0328285467913774,-0.3262353379558556,0.1662287515979913,3.0,2.0
20.727643966674805,-28.852195739746097,1.7882436513900757,0.2225681573642653,0.8435173567997245,-0.4888168206036717,0.2246180900942621,3.0,2.0
20.810890197753903,-28.92892837524414,1.7932391166687012,0.2561347417003672,-0.5669314280790921,-0.7829327876326851,0.1658636321673302,3.0,2.0
22.42169189453125,-26.917400360107425,1.4453225135803225,-0.0,-0.0,-1.0,0.1336546773370279,2.0,2.0
21.026195526123047,-28.333393096923828,1.8092013597488403,-0.0,-0.0,-1.0,0.2362867630608396,2.0,2.0
21.18582534790039,-28.867122650146484,1.8173751831054688,0.7000684581186079,0.6860328922550233,0.1981489961913574,0.2107225039999562,3.0,2.0
20.633647918701172,-27.729358673095703,1.2450886964797974,-0.0,-0.0,-1.0,0.1186535448148527,1.0,2.0
20.522436141967773,-27.94750213623047,1.2317256927490234,-0.4608572404541695,-0.6580446780901749,-0.5954727580319404,0.1841342871150269,4.0,2.0
20.60214614868164,-28.630224227905273,1.2318832874298096,-0.0,-0.0,-1.0,0.1324160439479976,1.0,2.0
20.702468872070312,-28.962326049804688,1.2372572422027588,-0.0,-0.0,-1.0,0.201191579116357,1.0,2.0
20.95358657836914,-28.36944007873535,1.270520806312561,-0.0,-0.0,-1.0,0.2498225109035102,2.0,2.0
20.87683868408203,-28.696975708007812,1.2584433555603027,-0.0,-0.0,-1.0,0.2554358503770999,1.0,2.0
21.002246856689453,-29.099411010742188,1.264682412147522,-0.0,-0.0,-1.0,0.111933764387066,2.0,2.0
21.058210372924805,-29.308197021484375,1.2667171955108645,-0.1586073412651496,0.9205949128628462,0.3568595209712765,0.1797450109506221,3.0,2.0
21.334327697753903,-28.572107315063477,1.3057359457015991,-0.0,-0.0,-1.0,0.223860141121635,1.0,2.0
21.367149353027344,-29.30755043029785,1.2968711853027344,-0.0,-0.0,-1.0,0.2130968582641802,1.0,2.0
22.300018310546875,-27.04275131225586,0.9648735523223876,-0.0,-0.0,-1.0,0.1563645171995079,1.0,1.0
22.02578353881836,-28.37266540527344,1.377260446548462,-0.0,-0.0,-1.0,0.0804608737807338,2.0,2.0
22.457347869873047,-26.890804290771484,1.4386695623397827,-0.0,-0.0,-1.0,0.128293822152341,2.0,2.0
21.876585006713867,-27.96808433532715,1.3681862354278564,-0.0,-0.0,-1.0,0.2429438560997716,2.0,2.0
20.88341903686523,-27.710630416870117,1.7789877653121948,-0.0,-0.0,-1.0,0.0594104833440985,1.0,2.0
20.93992042541504,-28.24084091186523,1.7849233150482178,-0.0,-0.0,-1.0,0.2297287167939753,1.0,2.0
20.537166595458984,-28.816125869750977,1.7587084770202637,-0.0,-0.0,-1.0,0.1813445790370977,2.0,2.0
21.043359756469727,-28.35773468017578,1.7923552989959717,-0.0,-0.0,-1.0,0.2362867630608395,2.0,2.0
21.081945419311523,-28.79577255249023,1.795781135559082,0.2939462949186027,0.6099539281608918,-0.7359020187665771,0.2332463342502179,4.0,2.0
20.823436737060547,-28.9027156829834,1.77836275100708,0.8733678747533028,-0.4761673193391416,-0.1024365137159386,0.189734775796198,3.0,2.0
21.21853828430176,-28.8969783782959,1.8051657676696775,-0.0,-0.0,-1.0,0.2246636134113708,2.0,2.0
20.44321632385254,-26.870725631713867,1.0667606592178345,-0.0,-0.0,-1.0,0.0534729965266827,1.0,2.0
20.82522964477539,-27.072452545166016,1.110464334487915,-0.0,-0.0,-1.0,0.0791130312139811,2.0,2.0
21.109214782714844,-27.348140716552734,1.1413700580596924,-0.0,-0.0,-1.0,0.170356686598928,1.0,2.0
20.916412353515625,-27.6036434173584,1.116870403289795,-0.0,-0.0,-1.0,0.0565477803539508,1.0,2.0
20.99116897583008,-27.895904541015625,1.1221647262573242,-0.0,-0.0,-1.0,0.0888403242486445,1.0,2.0
21.652339935302734,-27.13694190979004,1.2057701349258425,-0.0,-0.0,-1.0,0.1820213579961735,1.0,2.0
21.206972122192383,-28.13011360168457,1.143341064453125,-0.0,-0.0,-1.0,0.064974521505877,2.0,2.0
21.56970977783203,-28.353111267089844,1.180309534072876,-0.0,-0.0,-1.0,0.0966494612376901,2.0,2.0
21.575096130371097,-28.67550277709961,1.174862265586853,-0.0,-0.0,-1.0,0.0577375369587429,1.0,2.0
21.863006591796875,-28.472095489501953,1.2105660438537598,-0.0,-0.0,-1.0,0.1554458373065913,1.0,2.0
21.73751640319824,-28.937299728393555,1.1870309114456177,-0.0,-0.0,-1.0,0.0373117298981416,1.0,2.0
21.96537399291992,-29.25909423828125,1.203934907913208,-0.0,-0.0,-1.0,0.147709569545817,1.0,2.0
20.644363403320312,-28.785860061645508,1.590136170387268,-0.0,-0.0,-1.0,0.2394226457769834,2.0,2.0
20.77696228027344,-28.788732528686523,1.6006265878677368,-0.0,-0.0,-1.0,0.1931028153877986,1.0,2.0
22.397964477539062,-27.119171142578125,1.291433811187744,-0.0,-0.0,-1.0,0.1514601917348238,1.0,2.0
22.11687469482422,-27.28576278686523,1.2573697566986084,-0.0,-0.0,-1.0,0.1538786112131952,2.0,2.0
22.106216430664062,-27.58700180053711,1.2525027990341189,-0.0,-0.0,-1.0,0.1948456359919701,2.0,2.0
21.163623809814453,-29.065488815307617,1.6300803422927856,-0.0,-0.0,-1.0,0.1075179691077631,1.0,2.0
22.516387939453125,-27.11370086669922,1.3050048351287842,-0.0,-0.0,-1.0,0.1080741892758859,1.0,2.0
22.359525680541992,-27.96454811096191,1.2749568223953247,-0.0,-0.0,-1.0,0.2120360488554777,1.0,2.0
22.371337890625,-28.109329223632812,1.27362859249115,-0.0,-0.0,-1.0,0.2007145084356774,1.0,2.0
20.677490234375,-27.82319450378418,1.255707025527954,-0.0,-0.0,-1.0,0.127694281543136,2.0,2.0
20.51828956604004,-27.94392204284668,1.2367286682128906,-0.4608572404541695,-0.6580446780901749,-0.5954727580319404,0.1423086106076318,4.0,2.0
20.49640655517578,-28.582761764526367,1.2160011529922483,-0.0,-0.0,-1.0,0.0831759744111599,1.0,2.0
22.621896743774418,-26.952787399291992,1.0521793365478516,-0.0,-0.0,-1.0,0.1640595896170855,1.0,2.0
22.358001708984375,-27.103458404541016,1.0113766193389893,-0.0,-0.0,-1.0,0.1765757186181492,2.0,2.0
20.80067253112793,-28.787353515625,1.238684892654419,-0.0,-0.0,-1.0,0.1740482498376864,2.0,2.0
21.084924697875977,-29.08361434936523,1.255279779434204,-0.6212430830023855,0.5663677417875854,-0.5415575803957712,0.1119241977102724,3.0,2.0
21.51791763305664,-29.32046127319336,1.286662459373474,-0.3352514761114413,-0.4679633264958198,-0.8176899001577965,0.1482273191746483,3.0,2.0
22.50014877319336,-26.968578338623047,1.4588847160339355,-0.0,-0.0,-1.0,0.1341266876363579,2.0,2.0
22.13238525390625,-27.420665740966797,1.410433292388916,-0.0,-0.0,-1.0,0.1152687416439842,2.0,2.0
20.74215316772461,-28.8270320892334,1.7351150512695312,0.4438286830745676,-0.1284649660134973,-0.8868555984981131,0.1994520094677172,3.0,2.0
21.902400970458984,-27.95454216003418,1.3720979690551758,-0.0,-0.0,-1.0,0.2171014210999632,2.0,2.0
21.0450496673584,-28.97090530395508,1.7516968250274658,-0.7565947217334787,0.2256070050459813,0.6137311352043523,0.2542073252527944,4.0,2.0
21.16964340209961,-28.28075408935547,1.7723820209503174,-0.0,-0.0,-1.0,0.1242811155684888,1.0,2.0
20.210105895996097,-27.440610885620117,1.2738263607025146,-0.0,-0.0,-1.0,0.08545032994624,1.0,2.0
20.55574607849121,-27.891969680786133,1.2895371913909912,-0.436229892259918,-0.4762443142172003,-0.7634754968397408,0.1560841472348589,4.0,2.0
22.48389434814453,-27.04419708251953,1.1018866300582886,-0.0,-0.0,-1.0,0.1787265281499895,2.0,2.0
21.979293823242188,-27.061410903930664,1.036553144454956,-0.0,-0.0,-1.0,0.1816567154519542,2.0,2.0
20.573326110839844,-28.01127052307129,1.2863415479660034,-0.0,-0.0,-1.0,0.2039259033385612,1.0,2.0
22.56450080871582,-27.274280548095703,1.0997542142868042,-0.0,-0.0,-1.0,0.0805453040720941,2.0,2.0
22.316848754882812,-27.512998580932617,1.0551270246505735,-0.0,-0.0,-1.0,0.0957674404014687,2.0,2.0
22.05341339111328,-27.642114639282227,1.0148929357528689,-0.0,-0.0,-1.0,0.1419770972555463,1.0,2.0
21.041704177856445,-28.443857192993164,1.310841083526611,-0.94645156140748,0.1596800227149705,0.2805917537189743,0.2302611507311517,3.0,2.0
20.666095733642575,-28.640789031982425,1.2673766613006592,-0.0,-0.0,-1.0,0.2293233693527873,2.0,2.0
20.345378875732425,-28.949562072753903,1.22371244430542,-0.0,-0.0,-1.0,0.1903802730052551,1.0,2.0
22.49140357971191,-27.848861694335938,1.057038426399231,-0.0,-0.0,-1.0,0.1023088025884007,2.0,2.0
20.953758239746097,-29.029401779174805,1.2747094631195068,0.0174244247953891,0.3739274413378602,-0.927294267228624,0.1997510351765984,4.0,2.0
20.510711669921875,-29.03331756591797,1.2346971035003662,-0.0,-0.0,-1.0,0.1577714161650325,1.0,2.0
21.14831924438477,-29.275564193725582,1.2793384790420532,-0.8323758137887977,0.1747516780996928,0.5259394980611152,0.2114079095047305,3.0,2.0
21.62731552124023,-27.17279815673828,1.4187177419662476,-0.0,-0.0,-1.0,0.2454431239451424,1.0,2.0
22.14317321777344,-27.691402435302734,1.4459681510925293,-0.0,-0.0,-1.0,0.184717953927428,1.0,2.0
20.53539276123047,-28.833232879638672,1.7342227697372437,-0.22686488690313,0.6601401141642522,-0.7160637909862767,0.2441460084627728,4.0,2.0
21.434001922607425,-28.48769187927246,1.3445159196853638,-0.0,-0.0,-1.0,0.2166203015515859,1.0,2.0
20.833141326904297,-28.772287368774418,1.7537720203399658,-0.0,-0.0,-1.0,0.1378571826998607,1.0,2.0
21.05791473388672,-28.820680618286133,1.7653671503067017,-0.652679651354666,0.018804215086966,0.7574006035134344,0.2444810090020137,5.0,2.0
20.926929473876953,-28.936983108520508,1.7537610530853271,0.1105989575175316,0.879738542939362,-0.4624153616208741,0.1251511615356481,3.0,2.0
22.106868743896484,-27.02070426940918,0.998489499092102,-0.0,-0.0,-1.0,0.1708369736735108,2.0,1.0
22.31823348999023,-27.22967529296875,1.0213838815689087,-0.0,-0.0,-1.0,0.2177269564078097,2.0,2.0
22.649810791015625,-27.72764778137207,1.0474518537521362,-0.0,-0.0,-1.0,0.1306545564671475,1.0,2.0
20.471351623535156,-28.408166885375977,1.1809070110321045,-0.0,-0.0,-1.0,0.0870870402124244,1.0,2.0
22.499040603637695,-26.987892150878903,1.438513994216919,0.9964142240389258,-0.0814244127294449,0.0229947634162755,0.1391017340508623,3.0,2.0
22.32101821899414,-27.0942325592041,1.416496992111206,-0.0,-0.0,-1.0,0.0854557603609201,1.0,2.0
21.386558532714844,-27.358734130859375,1.3075501918792725,-0.0,-0.0,-1.0,0.1980568888726856,1.0,2.0
21.11942481994629,-28.03692626953125,1.2613377571105957,-0.0,-0.0,-1.0,0.0734681431455351,2.0,2.0
20.548564910888672,-27.93492126464844,1.2018725872039795,-0.793897494856837,0.0041206426930571,-0.6080376534095849,0.2336628606297186,5.0,2.0
22.62576675415039,-27.545700073242188,1.4378585815429688,-0.0,-0.0,-1.0,0.134263522949012,1.0,2.0
22.332767486572266,-27.867082595825195,1.3968303203582764,-0.0,-0.0,-1.0,0.2512798305102181,1.0,2.0
21.042404174804688,-28.330854415893555,1.244619369506836,-0.0,-0.0,-1.0,0.1810593276731517,1.0,2.0
21.356508255004883,-28.813573837280273,1.2624104022979736,-0.0,-0.0,-1.0,0.133040681547371,1.0,2.0
20.911190032958984,-28.76720809936523,1.2169684171676636,-0.0,-0.0,-1.0,0.1652089605123613,2.0,2.0
21.51683807373047,-29.17439842224121,1.265937089920044,-0.472271318590873,0.2401447922641986,-0.848109828020418,0.1591625797155743,3.0,2.0
21.127471923828125,-29.0776309967041,1.229077935218811,0.3936317323059312,0.3516019052457051,-0.8493704489499395,0.127238229124575,3.0,2.0
20.736713409423828,-27.775588989257812,1.67378830909729,-0.0,-0.0,-1.0,0.0629114338562461,1.0,2.0
20.9971923828125,-28.437591552734375,1.684420108795166,-0.0,-0.0,-1.0,0.1675729010507015,1.0,2.0
20.73261451721191,-28.631694793701172,1.6614809036254885,-0.0,-0.0,-1.0,0.1520494982607236,1.0,2.0
21.1342830657959,-28.91410446166992,1.6862221956253052,0.1380318831163648,0.1416946192514895,-0.9802396819750392,0.1727907104160893,3.0,2.0
20.884693145751953,-28.818012237548828,1.6695481538772583,-0.0,-0.0,-1.0,0.2634255765680495,1.0,2.0
20.541595458984375,-28.897890090942383,1.6427509784698486,-0.0,-0.0,-1.0,0.2121830589568218,2.0,2.0
21.072227478027344,-29.11986541748047,1.677640438079834,-0.0,-0.0,-1.0,0.151025965175664,1.0,2.0
22.029541015625,-27.026153564453125,0.9715272188186646,-0.0,-0.0,-1.0,0.1708022148792324,2.0,1.0
21.708576202392575,-26.89586067199707,1.30938458442688,-0.0,-0.0,-1.0,0.1161107659145676,1.0,2.0
20.334796905517575,-27.281063079833984,1.1301236152648926,-0.0,-0.0,-1.0,0.0453536882861868,1.0,2.0
22.42529296875,-27.072824478149418,1.199647068977356,-0.0,-0.0,-1.0,0.1957954686845581,2.0,2.0
21.572099685668945,-27.29429054260254,1.264858365058899,-0.0,-0.0,-1.0,0.1344256495109966,1.0,2.0
20.817440032958984,-27.322473526000977,1.1803274154663086,-0.0,-0.0,-1.0,0.0824451556268096,1.0,2.0
20.515548706054688,-27.60206413269043,1.12646484375,-0.0,-0.0,-1.0,0.0901629195519345,1.0,2.0
21.82843017578125,-27.83422088623047,1.2500115633010864,-0.0163174386359484,0.9800568620383248,0.1980461773626385,0.2596194745103595,3.0,2.0
20.80062484741211,-27.85698890686035,1.13798987865448,-0.0,-0.0,-1.0,0.0589807082764094,2.0,2.0
22.235427856445312,-28.04804039001465,1.2749674320220947,-0.0,-0.0,-1.0,0.2576789645582897,1.0,2.0
21.41082763671875,-28.281402587890625,1.1685651540756226,-0.0,-0.0,-1.0,0.0794191061841119,1.0,2.0
21.08055877685547,-28.162670135498047,1.1434861421585083,-0.0,-0.0,-1.0,0.0629432564217248,1.0,2.0
21.840965270996097,-28.577194213867188,1.1877392530441284,-0.0,-0.0,-1.0,0.0773452563158543,1.0,2.0
21.747119903564453,-28.51485824584961,1.1834875345230105,-0.0,-0.0,-1.0,0.0790462570179234,1.0,2.0
22.349742889404297,-28.920625686645508,1.207984447479248,-0.0,-0.0,-1.0,0.0487543703236617,2.0,2.0
21.99266815185547,-28.90157699584961,1.1737533807754517,-0.0,-0.0,-1.0,0.0409570721104982,1.0,2.0
22.45673942565918,-28.966930389404297,1.214268922805786,0.2758096455945985,-0.7543069764144383,-0.5957768245991866,0.0871372797498966,4.0,2.0
22.26319122314453,-29.28768539428711,1.164246678352356,-0.0,-0.0,-1.0,0.1189505021554465,2.0,2.0
20.600271224975582,-27.80131721496582,1.5379116535186768,-0.0,-0.0,-1.0,0.0724613393311958,2.0,2.0
20.944660186767575,-28.321517944335938,1.5292609930038452,-0.0,-0.0,-1.0,0.0823563382648521,1.0,2.0
21.964168548583984,-28.31479263305664,1.6042778491973877,-0.0,-0.0,-1.0,0.1613990195533172,1.0,2.0
20.809165954589844,-28.760406494140625,1.4888544082641602,-0.2310585286245901,0.8182591668634828,-0.526368589672407,0.2738156418489946,4.0,2.0
20.94276237487793,-29.147869110107425,1.4706568717956543,-0.0,-0.0,-1.0,0.1225404217337951,1.0,2.0
21.445327758789062,-29.32589530944824,1.492968201637268,-0.0,-0.0,-1.0,0.1604600335840488,1.0,2.0
20.559478759765625,-29.119945526123047,1.880143165588379,-0.0,-0.0,-1.0,0.1258049560335186,2.0,2.0
20.696487426757812,-27.07419776916504,1.1210614442825315,-0.0,-0.0,-1.0,0.0634788777440323,1.0,2.0
20.428302764892575,-27.00874710083008,1.0877506732940674,-0.0,-0.0,-1.0,0.0505119975633038,1.0,2.0
22.334728240966797,-27.08674430847168,1.034543514251709,-0.4946281331002831,-0.8602511800210191,0.1237372911380117,0.1606160449426567,3.0,2.0
21.9855899810791,-26.989730834960938,0.9830527305603028,-0.0,-0.0,-1.0,0.1496740993898644,2.0,1.0
20.837799072265625,-27.329256057739254,1.121533751487732,-0.0,-0.0,-1.0,0.0824451556268096,1.0,2.0
22.261613845825195,-27.246217727661133,1.006483554840088,-0.0,-0.0,-1.0,0.1526971991031789,2.0,2.0
20.966121673583984,-27.734519958496097,1.10638427734375,-0.0,-0.0,-1.0,0.0426415956000886,1.0,2.0
20.86086654663086,-26.86566734313965,1.5189696550369265,-0.0,-0.0,-1.0,0.1757080806547142,1.0,2.0
22.33023452758789,-27.045578002929688,1.3529465198516846,-0.0,-0.0,-1.0,0.1157441982208898,1.0,2.0
22.044809341430664,-26.97822952270508,1.318425536155701,-0.0,-0.0,-1.0,0.1835703842952014,1.0,2.0
21.61191749572754,-27.081836700439453,1.249699354171753,-0.0,-0.0,-1.0,0.1735586153794619,1.0,2.0
22.10399627685547,-27.325531005859375,1.2982525825500488,-0.0,-0.0,-1.0,0.1375343264488218,1.0,2.0
21.714794158935547,-27.682964324951172,1.2139252424240112,-0.0,-0.0,-1.0,0.1646170933656687,1.0,2.0
21.14976501464844,-27.652137756347656,1.1388766765594482,-0.0,-0.0,-1.0,0.0649253124728074,1.0,2.0
20.533533096313477,-27.75929832458496,1.425204515457153,-0.0,-0.0,-1.0,0.1652780846325318,1.0,2.0
20.359142303466797,-27.912517547607425,1.3960617780685425,-0.0,-0.0,-1.0,0.1859830006159496,2.0,2.0
22.49058532714844,-27.589284896850582,1.327847957611084,-0.0,-0.0,-1.0,0.244969257361012,1.0,2.0
21.759666442871097,-28.08148765563965,1.1838319301605225,-0.0,-0.0,-1.0,0.1294740493191749,2.0,2.0
21.567689895629883,-27.907085418701172,1.1738688945770264,-0.0,-0.0,-1.0,0.1173084364587349,1.0,2.0
20.899972915649418,-28.325803756713867,1.421872854232788,-0.1112546585627815,0.9485348050750888,-0.2964862973380765,0.2380879107519959,3.0,2.0
20.27739143371582,-28.379135131835938,1.3535239696502686,-0.0,-0.0,-1.0,0.1780668763677116,1.0,2.0
22.185346603393555,-28.151094436645508,1.2339544296264648,-0.0,-0.0,-1.0,0.1513231229018156,1.0,2.0
21.924596786499023,-28.27090835571289,1.1876113414764404,-0.0,-0.0,-1.0,0.1449713565184504,1.0,2.0
20.84584045410156,-28.674636840820312,1.3889561891555786,-0.0,-0.0,-1.0,0.2094689837848556,1.0,2.0
22.0853214263916,-28.61725616455078,1.1740840673446655,-0.0,-0.0,-1.0,0.0555159430974453,1.0,2.0
20.89632797241211,-29.01128196716309,1.3665372133255005,-0.0,-0.0,-1.0,0.1553223071905556,2.0,2.0
22.451461791992188,-28.944114685058594,1.186198115348816,0.2758096455945985,-0.7543069764144383,-0.5957768245991866,0.058798180404665,4.0,2.0
22.196460723876953,-28.87578010559082,1.1613636016845703,-0.0,-0.0,-1.0,0.0420958152898036,2.0,2.0
21.05653381347656,-29.339614868164062,1.3544213771820068,-0.0,-0.0,-1.0,0.2376404721454366,2.0,2.0
22.343341827392575,-27.06291961669922,1.664970874786377,0.7015632861349224,-0.3077253942089757,-0.6427394785653823,0.192983525283543,3.0,2.0
20.744518280029297,-27.708330154418945,1.8208541870117188,-0.0,-0.0,-1.0,0.0669891549065748,1.0,2.0
20.80152130126953,-28.81339454650879,1.7571110725402832,-0.0,-0.0,-1.0,0.175400229690029,2.0,2.0
20.49736976623535,-28.85548210144043,1.733296036720276,-0.5388267434819386,0.4035843600337758,-0.7394493930248214,0.1860238069314422,4.0,2.0
20.902156829833984,-28.999053955078125,1.751764178276062,-0.0,-0.0,-1.0,0.194879123877867,1.0,2.0
20.79419708251953,-29.245908737182617,1.7278392314910889,-0.0,-0.0,-1.0,0.0869929992486156,2.0,2.0
21.052310943603516,-29.34632873535156,1.7383220195770264,-0.0,-0.0,-1.0,0.1141018462561758,1.0,2.0
20.81549835205078,-29.322315216064453,1.7240737676620483,-0.0,-0.0,-1.0,0.145378769025054,1.0,2.0
22.61642074584961,-29.313833236694336,1.5055193901062012,-0.0,-0.0,-1.0,0.1463089885339626,1.0,2.0
21.302753448486328,-26.947673797607425,1.138608455657959,-0.0,-0.0,-1.0,0.0390044045237769,1.0,2.0
20.97692108154297,-26.921003341674805,1.07383131980896,-0.0,-0.0,-1.0,0.1430331016792674,2.0,2.0
22.47845458984375,-27.030956268310547,1.0888266563415527,-0.0,-0.0,-1.0,0.2028627633481154,2.0,2.0
22.297691345214844,-27.12876892089844,1.0347800254821775,-0.0,-0.0,-1.0,0.2166250468125852,1.0,2.0
21.99893569946289,-27.025728225708008,0.9757344722747804,-0.1325994168491323,0.1500228421885715,-0.9797502444362712,0.1591934999416938,3.0,1.0
21.33060836791992,-27.349773406982425,1.1061097383499146,-0.0,-0.0,-1.0,0.1743740761421298,1.0,2.0
22.664417266845703,-27.37721824645996,1.090499758720398,-0.0,-0.0,-1.0,0.0613459603615721,1.0,2.0
22.501493453979492,-27.590530395507812,1.0277605056762695,-0.0,-0.0,-1.0,0.1294633429211042,1.0,2.0
21.570064544677734,-27.65217399597168,1.1227970123291016,-0.0,-0.0,-1.0,0.1298477337534195,1.0,2.0
22.543346405029297,-27.765396118164062,1.0136268138885498,-0.0,-0.0,-1.0,0.1141301238903014,1.0,2.0
21.585704803466797,-27.969404220581055,1.0932965278625488,-0.0711024506022772,0.1288655788837301,-0.9891097533121954,0.0635992337016967,3.0,2.0
21.41753387451172,-27.038251876831055,1.1538187265396118,-0.0,-0.0,-1.0,0.0984346573970691,1.0,2.0
22.26454734802246,-27.094308853149418,1.3204621076583862,-0.340901945531827,-0.8171418155601093,-0.4648280507840978,0.1041174439621383,3.0,2.0
22.049705505371097,-27.30995178222656,1.2550257444381714,-0.0,-0.0,-1.0,0.23633477630972,1.0,2.0
21.503108978271484,-27.32537078857422,1.1431045532226562,-0.0,-0.0,-1.0,0.2163786267123022,1.0,2.0
21.10750961303711,-27.407529830932617,1.3837645053863523,-0.967318786051148,0.2135773330647647,-0.1366714635667432,0.1600352298160081,3.0,2.0
20.357973098754883,-27.81444549560547,1.222230076789856,-0.0,-0.0,-1.0,0.153846734748729,1.0,2.0
21.899282455444336,-27.536865234375,1.2007606029510498,-0.0,-0.0,-1.0,0.1321522640715773,1.0,2.0
21.69149398803711,-27.72327423095703,1.139161229133606,-0.0,-0.0,-1.0,0.1409109724272856,2.0,2.0
20.85924530029297,-28.087961196899418,1.27978515625,-0.0,-0.0,-1.0,0.0865430061549016,1.0,2.0
20.353775024414062,-28.02447509765625,1.202311873435974,-0.0,-0.0,-1.0,0.1702525887932821,1.0,2.0
22.14756202697754,-28.10245132446289,1.1857671737670898,-0.0,-0.0,-1.0,0.1813305597255685,2.0,2.0
21.827346801757812,-28.017972946166992,1.2907860279083252,-0.0,-0.0,-1.0,0.2267891298119367,1.0,2.0
20.94211196899414,-28.440420150756836,1.2608922719955444,-0.0,-0.0,-1.0,0.2731433421015705,1.0,2.0
20.527050018310547,-28.46094512939453,1.1902016401290894,-0.0,-0.0,-1.0,0.0626668098500523,2.0,2.0
20.33035659790039,-28.509939193725582,1.1550157070159912,-0.0,-0.0,-1.0,0.1634844064945666,1.0,2.0
22.057401657104492,-28.39875030517578,1.2869631052017212,-0.0,-0.0,-1.0,0.1580850234892416,1.0,2.0
21.38106346130371,-28.486801147460938,1.32599675655365,-0.0,-0.0,-1.0,0.2201240401992646,1.0,2.0
20.775970458984375,-28.781543731689453,1.1978435516357422,-0.0,-0.0,-1.0,0.1252485114309128,2.0,2.0
22.36954116821289,-28.780508041381836,1.136401891708374,-0.0,-0.0,-1.0,0.0137569945462,1.0,2.0
21.416362762451172,-29.181983947753903,1.2517071962356567,-0.0,-0.0,-1.0,0.2084101310187104,2.0,2.0
21.06848526000977,-29.097503662109375,1.208135962486267,-0.0,-0.0,-1.0,0.0843444513147654,2.0,2.0
22.51969337463379,-29.19512939453125,1.259899377822876,-0.0,-0.0,-1.0,0.1384762510031145,1.0,2.0
22.2183895111084,-27.09274101257324,1.597839117050171,-0.0,-0.0,-1.0,0.1960953666967591,1.0,2.0
22.23076629638672,-27.606630325317383,1.55165696144104,-0.0,-0.0,-1.0,0.1360617743086341,1.0,2.0
22.09502601623535,-27.52583885192871,1.5373133420944214,-0.0,-0.0,-1.0,0.1605771182186839,2.0,2.0
20.380586624145508,-28.010263442993164,1.5643407106399536,-0.0,-0.0,-1.0,0.1664698308025617,2.0,2.0
21.044872283935547,-28.399215698242188,1.621555209159851,-0.0,-0.0,-1.0,0.1569950225806121,1.0,2.0
21.027742385864254,-28.824914932250977,1.5801490545272827,-0.0,-0.0,-1.0,0.2578372338223431,2.0,2.0
20.70142364501953,-28.729490280151367,1.547839879989624,-0.0,-0.0,-1.0,0.1659095310742431,1.0,2.0
21.07672119140625,-29.09844970703125,1.559709072113037,-0.0,-0.0,-1.0,0.2086837828065507,1.0,2.0
20.77587890625,-29.142019271850582,1.6993658542633057,-0.200841053855839,-0.6328726498066399,-0.7477533551999601,0.1508539707724847,3.0,2.0
20.827953338623047,-26.927261352539062,1.009335994720459,-0.0,-0.0,-1.0,0.1343751667789091,1.0,2.0
21.482337951660156,-27.133893966674805,1.1513363122940063,-0.0,-0.0,-1.0,0.2333803312264329,2.0,2.0
21.0939884185791,-27.166833877563477,1.0526084899902344,-0.0,-0.0,-1.0,0.0471153006041281,1.0,2.0
20.224773406982425,-27.439067840576172,1.1371506452560425,-0.0,-0.0,-1.0,0.0450272247046111,1.0,2.0
21.584726333618164,-27.580156326293945,1.1271421909332275,-0.0,-0.0,-1.0,0.1248193562756122,1.0,2.0
21.34900283813477,-27.512062072753903,1.0780956745147705,-0.0,-0.0,-1.0,0.1311549800763687,1.0,2.0
20.386375427246097,-27.88381576538086,1.1287826299667358,-0.0,-0.0,-1.0,0.1453684329523182,2.0,2.0
20.250965118408203,-27.83426856994629,1.1057426929473877,-0.0,-0.0,-1.0,0.207455806445303,1.0,2.0
21.684837341308594,-27.838134765625,1.1192779541015625,-0.0,-0.0,-1.0,0.1358354539377138,1.0,2.0
20.569482803344727,-28.165056228637695,1.1368670463562012,-0.0,-0.0,-1.0,0.0800050272516882,1.0,2.0
21.881969451904297,-28.15109634399414,1.123831272125244,-0.0,-0.0,-1.0,0.0779643625037482,1.0,2.0
20.669233322143555,-28.39318466186523,1.1318203210830688,-0.0,-0.0,-1.0,0.0435696468323834,1.0,2.0
22.513097763061523,-29.186826705932617,1.0996639728546145,-0.0,-0.0,-1.0,0.1120355746707044,1.0,2.0
22.354516983032227,-26.933135986328125,1.385136365890503,-0.0,-0.0,-1.0,0.1439702123311411,1.0,2.0
21.57970809936523,-27.162410736083984,1.4461026191711426,-0.3301500481942916,0.7826240017832461,-0.5277315771394441,0.2207090737393217,3.0,2.0
22.424949645996097,-27.054546356201172,1.3892167806625366,-0.0,-0.0,-1.0,0.1468676647582701,1.0,2.0
22.13564682006836,-27.442298889160156,1.5333194732666016,-0.0,-0.0,-1.0,0.16152327114478,2.0,2.0
21.287452697753903,-27.37019157409668,1.3657076358795166,-0.0,-0.0,-1.0,0.1416538285006226,1.0,2.0
20.51942443847656,-27.85394859313965,1.3166309595108032,-0.0,-0.0,-1.0,0.0968295495130954,2.0,2.0
21.80927085876465,-27.841827392578125,1.2860747575759888,-0.0,-0.0,-1.0,0.2603645595999271,2.0,2.0
20.8928165435791,-28.193618774414062,1.3521134853363037,-0.0,-0.0,-1.0,0.1070411341521376,1.0,2.0
20.525203704833984,-28.01720809936523,1.460179328918457,-0.0,-0.0,-1.0,0.1675647078012761,2.0,2.0
22.142913818359375,-28.12092399597168,1.1880180835723877,-0.0,-0.0,-1.0,0.1473043348888761,2.0,2.0
21.985963821411133,-28.33629035949707,1.260960340499878,-0.0,-0.0,-1.0,0.2019184137520957,1.0,2.0
21.333003997802734,-28.518787384033203,1.2484921216964722,-0.0,-0.0,-1.0,0.2498750796561265,1.0,2.0
20.98734664916992,-28.45724296569824,1.340100646018982,-0.0,-0.0,-1.0,0.2698172016150876,1.0,2.0
20.81171417236328,-28.56467056274414,1.2995320558547974,-0.0,-0.0,-1.0,0.1947653238950011,1.0,2.0
22.208148956298828,-28.52959442138672,1.1421802043914795,-0.0,-0.0,-1.0,0.0641743892889083,1.0,2.0
22.13458251953125,-28.519872665405273,1.1275969743728638,-0.0,-0.0,-1.0,0.0868628124955359,1.0,2.0
21.120044708251953,-28.842941284179688,1.322286605834961,-0.0,-0.0,-1.0,0.1933689223942086,1.0,2.0
20.933027267456055,-28.91844940185547,1.436662673950195,0.8738443682174889,-0.2960460406248148,-0.3856847961288445,0.2664649780423525,4.0,2.0
22.421979904174805,-28.889877319335938,1.1309765577316284,-0.0,-0.0,-1.0,0.0492692338113664,1.0,2.0
21.57761573791504,-29.21732711791992,1.2020280361175537,0.2994606322685823,0.22330238992317,-0.9276094934701248,0.0521630530450399,4.0,2.0
21.37711524963379,-29.13667106628418,1.331088662147522,-0.0,-0.0,-1.0,0.2134392848270948,2.0,2.0
20.96575927734375,-29.210161209106445,1.4088499546051023,-0.0,-0.0,-1.0,0.1227476186059748,1.0,2.0
22.69365501403809,-29.271390914916992,1.2578680515289309,-0.0,-0.0,-1.0,0.1430956005577885,1.0,2.0
22.170194625854492,-27.046554565429688,1.5800914764404297,-0.0,-0.0,-1.0,0.1757649358855047,1.0,2.0
20.860456466674805,-28.23784446716309,1.80023455619812,-0.0,-0.0,-1.0,0.2297287167939754,1.0,2.0
20.95050811767578,-28.35729598999023,1.80222487449646,-0.0,-0.0,-1.0,0.2638383947172054,2.0,2.0
21.04912567138672,-28.904346466064453,1.7657023668289185,0.0505796942693531,0.5330909291326894,-0.8445447032597292,0.2380266255325507,4.0,2.0
20.886688232421875,-28.887327194213867,1.7461425065994265,-0.0,-0.0,-1.0,0.2296805251363688,2.0,2.0
20.56688690185547,-28.860719680786133,1.7068212032318115,-0.0,-0.0,-1.0,0.230045283062251,2.0,2.0
21.955760955810547,-29.20277976989746,1.5640093088150024,-0.0,-0.0,-1.0,0.1234666514409898,1.0,2.0
20.867107391357425,-29.35294532775879,1.698662281036377,-0.0,-0.0,-1.0,0.0752755663852405,2.0,2.0
21.92354202270508,-29.333881378173828,1.5423575639724731,-0.0,-0.0,-1.0,0.1178028121579777,1.0,2.0
20.27140998840332,-27.31549072265625,1.1136412620544434,-0.0,-0.0,-1.0,0.04343434132526,1.0,2.0
20.23646545410156,-27.50080108642578,1.0872442722320557,-0.0,-0.0,-1.0,0.0465825239891264,1.0,2.0
20.523441314697266,-27.914329528808594,1.113689422607422,-0.0,-0.0,-1.0,0.2188848691980097,1.0,2.0
20.313007354736328,-27.73840713500977,1.08194899559021,-0.0,-0.0,-1.0,0.1204979133457371,1.0,2.0
20.591039657592773,-28.017133712768555,1.1183192729949951,-0.0,-0.0,-1.0,0.1396932894548795,2.0,2.0
20.849836349487305,-26.863422393798828,1.2980901002883911,-0.0,-0.0,-1.0,0.1330413943651859,1.0,2.0
21.552684783935547,-27.17425537109375,1.4454429149627686,0.2887005041023681,0.2545949015203134,-0.922948240721494,0.1992474854818658,4.0,2.0
21.19145393371582,-27.38275718688965,1.3350824117660522,-0.0,-0.0,-1.0,0.1537852790380148,1.0,2.0
20.576465606689453,-27.795822143554688,1.2788546085357666,-0.0,-0.0,-1.0,0.0987576331089366,1.0,2.0
20.361425399780273,-27.8519344329834,1.3653411865234375,-0.0,-0.0,-1.0,0.2290897798788566,1.0,2.0
21.742944717407227,-27.979663848876953,1.3972371816635132,-0.0,-0.0,-1.0,0.1385264024881998,1.0,2.0
20.962358474731445,-28.218334197998047,1.316838026046753,-0.0,-0.0,-1.0,0.1456143041365562,1.0,2.0
20.638019561767575,-28.12116241455078,1.257601976394653,-0.0,-0.0,-1.0,0.2283963912187777,1.0,2.0
20.23633575439453,-28.33814811706543,1.2892014980316162,-0.0,-0.0,-1.0,0.1132372889292275,1.0,2.0
21.932167053222656,-28.38295555114746,1.3839794397354126,-0.0,-0.0,-1.0,0.1293205730378745,1.0,2.0
21.034467697143555,-28.468502044677734,1.300457000732422,-0.0163693730371494,0.3923149857298146,-0.919685269860394,0.2166579012972734,3.0,2.0
20.914073944091797,-28.569660186767575,1.2624919414520264,-0.0,-0.0,-1.0,0.1662707900509993,2.0,2.0
20.27269744873047,-28.698822021484375,1.2553797960281372,-0.0,-0.0,-1.0,0.1290649277035597,1.0,2.0
21.346189498901367,-28.83687210083008,1.182905197143555,-0.0,-0.0,-1.0,0.0728741857069082,1.0,2.0
20.92325210571289,-28.97417449951172,1.3493000268936155,-0.0,-0.0,-1.0,0.1473120959809629,2.0,2.0
20.257183074951172,-28.94342041015625,1.2229589223861694,-0.0,-0.0,-1.0,0.2464781222979854,2.0,2.0
21.66345596313477,-29.24870491027832,1.1861639022827148,-0.149713057281351,0.6322218525435442,-0.7601851943085185,0.1245547471250925,3.0,2.0
21.520198822021484,-29.08905029296875,1.1818033456802368,-0.0,-0.0,-1.0,0.0771049286845184,2.0,2.0
21.01817512512207,-29.32615852355957,1.3192030191421509,-0.0,-0.0,-1.0,0.1894080359264605,1.0,2.0
22.33444595336914,-27.052875518798828,1.6504520177841189,0.7015632861349224,-0.3077253942089757,-0.6427394785653823,0.1664833669158119,3.0,2.0
22.13920021057129,-27.439882278442383,1.5594693422317505,-0.0,-0.0,-1.0,0.1863410388233207,2.0,2.0
20.698474884033203,-27.73810577392578,1.713212490081787,-0.0,-0.0,-1.0,0.0669891549065745,2.0,2.0
21.979475021362305,-28.24985694885254,1.6493338346481323,-0.9172689984018284,-0.3812709994393002,-0.1151086858471754,0.2533453122053571,4.0,2.0
21.03964614868164,-28.335739135742188,1.715601921081543,-0.0,-0.0,-1.0,0.1776621567527493,1.0,2.0
