x,y,z,nx,ny,nz,curvature,density,label
11.768054008483888,23.256359100341797,-1.085090160369873,-0.0,-0.0,-1.0,0.2227562979072353,2.0,0.0
10.749043464660645,24.547746658325195,-0.7415990829467773,-0.0,-0.0,-1.0,0.1270139219683656,1.0,0.0
10.334392547607422,23.510223388671875,-0.7565033435821533,-0.0,-0.0,-1.0,0.1467590824314294,1.0,0.0
11.936538696289062,23.163406372070312,-1.0539355278015137,-0.0,-0.0,-1.0,0.1292522188522793,1.0,0.0
12.64408016204834,25.256450653076172,-1.1075215339660645,-0.0,-0.0,-1.0,0.2007107845918778,2.0,0.0
12.303423881530762,25.102325439453125,-1.139240026473999,-0.0,-0.0,-1.0,0.0507411271607042,1.0,0.0
10.6131010055542,24.463132858276367,-0.7786004543304443,-0.0,-0.0,-1.0,0.1883780996048535,1.0,0.0
12.22720432281494,24.806406021118164,-1.1222138404846191,-0.0,-0.0,-1.0,0.025142136229025,1.0,0.0
12.013758659362791,24.591609954833984,-1.1329824924468994,-0.0,-0.0,-1.0,0.0615408603449363,2.0,0.0
12.63497257232666,23.9814510345459,-0.989738941192627,-0.0,-0.0,-1.0,0.080795988987764,1.0,0.0
11.579011917114258,23.89343643188477,-1.1377418041229248,-0.612373307467219,-0.4502565856258873,-0.6498214673294328,0.1124174927172935,5.0,0.0
11.485133171081545,23.70652198791504,-1.137260913848877,-0.0,-0.0,-1.0,0.0765195771912044,1.0,0.0
11.825602531433104,23.27095413208008,-1.0521459579467771,-0.0,-0.0,-1.0,0.2396490746758165,2.0,0.0
11.513992309570312,23.257158279418945,-1.099013328552246,-0.0,-0.0,-1.0,0.092593253670688,2.0,0.0
12.394268035888672,23.16059684753418,-0.9573180675506592,-0.0,-0.0,-1.0,0.1030362823078405,2.0,0.0
12.560028076171877,25.463653564453125,-1.1002744436264038,-0.0,-0.0,-1.0,0.0873973703324964,1.0,0.0
12.205265998840332,25.167314529418945,-1.100791096687317,-0.6383059536286999,0.6381341865632209,-0.4305232508256115,0.1063674932653123,3.0,0.0
11.840243339538574,24.99536895751953,-1.120977520942688,-0.0,-0.0,-1.0,0.0875614284756403,2.0,0.0
11.518096923828123,24.85222816467285,-1.1416422128677368,-0.0,-0.0,-1.0,0.088984432421208,1.0,0.0
11.04712200164795,24.376976013183594,-1.1453081369400024,-0.0,-0.0,-1.0,0.2127950640344978,1.0,0.0
11.579721450805664,24.436647415161133,-1.0861111879348757,-0.0,-0.0,-1.0,0.1251628251637383,1.0,0.0
11.336410522460938,24.36167907714844,-1.1075469255447388,-0.0,-0.0,-1.0,0.1168170440632667,1.0,0.0
11.060991287231444,24.151926040649418,-1.1192210912704468,-0.0,-0.0,-1.0,0.1742853944307757,1.0,0.0
12.48359489440918,25.26799201965332,-1.0829027891159058,-0.0,-0.0,-1.0,0.1266347983425657,2.0,0.0
12.684518814086914,25.202091217041016,-1.052681565284729,-0.0,-0.0,-1.0,0.1662317990801831,2.0,0.0
11.802172660827637,24.337800979614254,-1.047721028327942,-0.4774016109004652,-0.1635747174571789,-0.8633255548855511,0.1645765751398006,3.0,0.0
11.55522346496582,24.231250762939453,-1.0658773183822632,-0.0,-0.0,-1.0,0.179155302893435,1.0,0.0
11.527430534362791,23.96588134765625,-1.040105938911438,-0.0,-0.0,-1.0,0.1340476107380503,1.0,0.0
11.00930404663086,23.26505470275879,-1.0354069471359253,-0.0,-0.0,-1.0,0.1340530699656229,1.0,0.0
11.99010944366455,23.309423446655273,-0.910873532295227,-0.0,-0.0,-1.0,0.1862268247143439,1.0,0.0
12.609153747558594,25.603679656982425,-1.1286003589630127,-0.0,-0.0,-1.0,0.090131813580875,2.0,0.0
12.12139892578125,25.12640953063965,-1.1283819675445557,-0.0,-0.0,-1.0,0.1149837028116303,1.0,0.0
11.917994499206545,24.991744995117188,-1.1379258632659912,-0.0,-0.0,-1.0,0.1003107161015608,2.0,0.0
11.596818923950195,24.826824188232425,-1.160071611404419,-0.0,-0.0,-1.0,0.1321923861055697,1.0,0.0
11.145771980285645,24.273963928222656,-1.161191701889038,-0.0,-0.0,-1.0,0.1684413141131734,2.0,0.0
12.614601135253906,25.523029327392575,-1.117915391921997,-0.0,-0.0,-1.0,0.0815681130268092,2.0,0.0
12.316088676452637,25.165042877197266,-1.109485387802124,-0.0,-0.0,-1.0,0.0564838593696972,1.0,0.0
12.05345630645752,24.942283630371097,-1.115593194961548,-0.0,-0.0,-1.0,0.0705779906324549,1.0,0.0
11.59904670715332,24.624481201171875,-1.13763689994812,-0.0,-0.0,-1.0,0.169761757022307,1.0,0.0
11.345935821533203,24.260499954223633,-1.132674217224121,-0.0,-0.0,-1.0,0.1132074987938473,1.0,0.0
11.119851112365724,24.139591217041016,-1.1511671543121338,-0.0,-0.0,-1.0,0.1142246705260104,2.0,0.0
12.52861213684082,25.219263076782227,-1.0907418727874756,0.7874028479156503,-0.6152868015248302,-0.0376683814845715,0.1706234647638474,3.0,0.0
11.62884521484375,24.19856834411621,-1.0882785320281982,-0.0,-0.0,-1.0,0.1633542333162024,2.0,0.0
11.827770233154297,24.269676208496097,-1.06949782371521,-0.0,-0.0,-1.0,0.156382121510431,2.0,0.0
11.834476470947266,24.167272567749023,-1.0576813220977783,-0.0,-0.0,-1.0,0.1563928770509552,2.0,0.0
11.47199535369873,23.8292236328125,-1.0716345310211182,-0.0,-0.0,-1.0,0.0921902377431606,1.0,0.0
11.178464889526367,23.393970489501953,-1.070739507675171,-0.0,-0.0,-1.0,0.0507270768064582,1.0,0.0
10.838420867919922,23.179637908935547,-1.100532054901123,-0.0,-0.0,-1.0,0.1379387297361124,2.0,0.0
11.782615661621094,23.260671615600582,-0.972342014312744,-0.8416178832011831,0.5127372372521025,0.1696462914744695,0.203829574390829,3.0,0.0
11.01620864868164,24.198192596435547,-1.160264492034912,-0.0,-0.0,-1.0,0.1124683168534314,1.0,0.0
12.415781021118164,25.16662216186523,-1.154587984085083,-0.0,-0.0,-1.0,0.0308076078730189,2.0,0.0
12.036731719970703,24.899635314941406,-1.1508409976959229,-0.0,-0.0,-1.0,0.0645962545155287,1.0,0.0
11.762703895568848,24.635143280029297,-1.1404831409454346,-0.0,-0.0,-1.0,0.1635482010378596,1.0,0.0
11.572633743286133,24.339916229248047,-1.1196203231811523,-0.0,-0.0,-1.0,0.1185188110938545,1.0,0.0
11.298379898071287,24.11119842529297,-1.118351936340332,-0.0,-0.0,-1.0,0.1101828831163478,1.0,0.0
10.811431884765623,23.479799270629883,-1.0937469005584717,-0.0,-0.0,-1.0,0.0677968574249162,1.0,0.0
12.49490737915039,25.027246475219727,-1.1269214153289795,-0.0,-0.0,-1.0,0.0945721818955369,1.0,0.0
11.599422454833984,24.187740325927734,-1.096381902694702,-0.0,-0.0,-1.0,0.1808552731038319,2.0,0.0
11.460617065429688,24.025848388671875,-1.0897529125213623,-0.0,-0.0,-1.0,0.1321777755538986,1.0,0.0
11.124743461608888,23.520309448242188,-1.062504529953003,-0.0,-0.0,-1.0,0.0477378029579871,1.0,0.0
10.685928344726562,23.141891479492188,-1.0684983730316162,-0.0,-0.0,-1.0,0.0494186739929471,1.0,0.0
11.948543548583984,24.087486267089844,-1.0469379425048828,-0.0,-0.0,-1.0,0.1348752497931094,1.0,0.0
11.72751235961914,23.19348526000977,-0.9535067081451416,-0.0,-0.0,-1.0,0.1301148944903825,1.0,0.0
10.496846199035645,24.89300537109375,-1.1714848279953003,-0.0,-0.0,-1.0,0.071782291147178,1.0,0.0
10.21939468383789,24.480470657348633,-1.13288676738739,-0.0,-0.0,-1.0,0.1088557414731999,1.0,0.0
10.55782699584961,24.900745391845703,-1.168239712715149,-0.0,-0.0,-1.0,0.0516063422084467,1.0,0.0
10.582365036010742,24.572057723999023,-1.1188195943832395,-0.0,-0.0,-1.0,0.0959849691938563,1.0,0.0
10.443603515625,24.01036071777344,-1.0494049787521362,-0.0,-0.0,-1.0,0.0605934914610769,1.0,0.0
11.61050510406494,25.111644744873047,-1.1294633150100708,-0.0,-0.0,-1.0,0.0268192826135865,1.0,0.0
11.387118339538574,25.07531356811523,-1.138048768043518,-0.0,-0.0,-1.0,0.073044460061592,2.0,0.0
10.771523475646973,24.258129119873047,-1.059653639793396,-0.0,-0.0,-1.0,0.2152703196116663,2.0,0.0
10.699793815612791,24.144519805908203,-1.0487498044967651,-0.0,-0.0,-1.0,0.1550141223177517,2.0,0.0
11.92535400390625,24.988216400146484,-1.0912503004074097,-0.0,-0.0,-1.0,0.0993516578792362,2.0,0.0
11.728719711303713,24.785579681396484,-1.072156548500061,-0.0,-0.0,-1.0,0.1681555179100899,1.0,0.0
11.389273643493652,24.41722869873047,-1.0390480756759644,-0.0,-0.0,-1.0,0.1748725870263769,2.0,0.0
11.33098030090332,24.23149871826172,-1.0155173540115356,-0.0,-0.0,-1.0,0.1977743862096722,1.0,0.0
12.666952133178713,25.53238868713379,-1.1364790201187134,-0.0,-0.0,-1.0,0.073805866188967,1.0,0.0
12.514937400817873,25.201801300048828,-1.091366410255432,-0.0,-0.0,-1.0,0.1740080048208508,2.0,0.0
12.178317070007324,25.072704315185547,-1.0895215272903442,-0.0,-0.0,-1.0,0.0827478686258973,1.0,0.0
10.98991584777832,23.711952209472656,-0.9652920961380004,-0.0,-0.0,-1.0,0.0864998985389746,2.0,0.0
10.731951713562012,23.570358276367188,-0.9654065370559692,0.4324696616727203,-0.3456302633857702,-0.8327723054740511,0.0971239676400186,3.0,0.0
10.545477867126465,23.22515869140625,-0.9330414533615112,-0.0,-0.0,-1.0,0.0853668159034568,2.0,0.0
12.511731147766112,24.98891258239746,-1.057552456855774,-0.0,-0.0,-1.0,0.0972748002855178,1.0,0.0
11.689539909362791,24.24384307861328,-0.9928487539291382,-0.0,-0.0,-1.0,0.1245200269263705,1.0,0.0
10.930228233337402,24.250099182128903,-1.0564069747924805,-0.0,-0.0,-1.0,0.2408440914382476,1.0,0.0
10.72390842437744,23.675617218017575,-0.9785258769989014,-0.0,-0.0,-1.0,0.1172541251293896,1.0,0.0
10.466266632080078,23.274742126464844,-0.9329836368560792,-0.0,-0.0,-1.0,0.1159477977332225,1.0,0.0
11.23875617980957,24.22175407409668,-1.0388383865356443,-0.0,-0.0,-1.0,0.1896172254072259,2.0,0.0
11.045559883117676,23.7604923248291,-0.9757423400878906,-0.0,-0.0,-1.0,0.0674525769220005,2.0,0.0
10.850833892822266,23.64788055419922,-0.9680888652801514,-0.0,-0.0,-1.0,0.052550805531409,2.0,0.0
10.625925064086914,23.26670265197754,-0.9231431484222412,-0.0,-0.0,-1.0,0.0722827146210687,1.0,0.0
11.76097297668457,24.391992568969727,-1.0461344718933103,-0.0,-0.0,-1.0,0.1393382229031926,1.0,0.0
11.585607528686523,24.131546020507812,-1.010667324066162,-0.0,-0.0,-1.0,0.1482429522917954,1.0,0.0
12.506132125854492,24.89281463623047,-1.1075973510742188,-0.0,-0.0,-1.0,0.039173907037683,2.0,0.0
12.356841087341309,24.752716064453125,-1.08754301071167,-0.0,-0.0,-1.0,0.0285334319930399,2.0,0.0
11.920541763305664,24.08360290527344,-0.9906213283538818,-0.0,-0.0,-1.0,0.1409937296969338,1.0,0.0
11.691329956054688,23.540767669677734,-1.0374726057052612,-0.0,-0.0,-1.0,0.1202478479643177,1.0,0.0
11.945261001586914,23.511852264404297,-1.0374263525009155,-0.0,-0.0,-1.0,0.1609903302743598,1.0,0.0
11.97227954864502,23.200233459472656,-0.975519061088562,-0.0,-0.0,-1.0,0.155552778439816,1.0,0.0
11.0474214553833,24.370872497558594,-0.6270009279251099,-0.0,-0.0,-1.0,0.0391675310758569,1.0,0.0
11.98173713684082,25.172630310058594,-1.0107725858688354,-0.0,-0.0,-1.0,0.0826511169269706,2.0,0.0
12.583476066589355,25.127910614013672,-0.9869605302810668,0.1090194726283444,-0.0813314303409114,-0.9907067946807164,0.1537991181383801,5.0,0.0
12.030784606933594,25.36117935180664,-1.0327647924423218,-0.0,-0.0,-1.0,0.0598398100604035,1.0,0.0
12.349871635437012,25.508548736572266,-1.041636347770691,-0.0,-0.0,-1.0,0.1403947719566328,2.0,0.0
10.715831756591797,23.19987678527832,-1.0664526224136353,-0.0,-0.0,-1.0,0.0703276549369935,1.0,0.0
10.900230407714844,23.20886611938477,-1.0583351850509644,-0.0,-0.0,-1.0,0.1675685163166242,2.0,0.0
10.567785263061523,24.191864013671875,-1.117794632911682,-0.0,-0.0,-1.0,0.0847453953896107,1.0,0.0
11.842618942260742,24.964590072631836,-1.1129900217056274,-0.0,-0.0,-1.0,0.0967278608686103,2.0,0.0
10.779695510864258,23.30842399597168,-1.0633023977279663,-0.0,-0.0,-1.0,0.1501924709717579,2.0,0.0
12.02729606628418,25.152252197265625,-1.1169079542160034,-0.0,-0.0,-1.0,0.1105214757485431,2.0,0.0
11.93479347229004,25.058584213256836,-1.1149436235427856,-0.0,-0.0,-1.0,0.0962504356093924,1.0,0.0
10.979230880737305,23.305130004882812,-1.055538535118103,-0.0,-0.0,-1.0,0.1771676204459558,2.0,0.0
10.88250732421875,24.352508544921875,-0.994873046875,-0.8333559953478764,0.4613197571949501,-0.3044698123613281,0.1659234345685328,3.0,0.0
12.305988311767578,25.52353858947754,-1.02059006690979,0.2423729726065077,-0.8570292564827617,-0.4547045146933217,0.1560034221018142,3.0,0.0
12.115129470825195,25.259550094604492,-1.0105540752410889,-0.0,-0.0,-1.0,0.0934531875746472,1.0,0.0
11.423419952392578,24.366960525512695,-0.9797711372375488,-0.0,-0.0,-1.0,0.1703676472608258,1.0,0.0
10.879255294799805,23.62857437133789,-0.9556677341461182,-0.0,-0.0,-1.0,0.0722521570139961,2.0,0.0
10.650106430053713,23.320297241210938,-0.946218490600586,-0.0,-0.0,-1.0,0.0916210612577171,1.0,0.0
12.579862594604492,25.61130714416504,-1.0184059143066406,-0.0,-0.0,-1.0,0.0839072809414616,2.0,0.0
12.06105613708496,25.0206298828125,-0.998403549194336,-0.0,-0.0,-1.0,0.0832641258531893,1.0,0.0
11.55238914489746,24.572742462158203,-0.9600344896316528,-0.0,-0.0,-1.0,0.1786365656931746,1.0,0.0
10.921344757080078,23.733116149902344,-0.9556540250778198,-0.0,-0.0,-1.0,0.0905845752828645,1.0,0.0
10.835567474365234,23.241775512695312,-0.9406310319900512,-0.0,-0.0,-1.0,0.1320579913883244,1.0,0.0
12.223274230957031,24.10811996459961,-1.152567982673645,-0.0,-0.0,-1.0,0.0477047718635574,1.0,0.0
11.319869995117188,24.4893741607666,-0.8146244287490845,-0.0,-0.0,-1.0,0.2089202528432105,2.0,0.0
10.815139770507812,24.360464096069336,-0.8385878801345825,-0.8385726720096882,-0.2828853570915794,-0.4655875304405196,0.1725581837704082,3.0,0.0
10.480640411376951,23.312942504882812,-0.8236597776412964,-0.0,-0.0,-1.0,0.1126834509165115,1.0,0.0
11.844614028930664,24.01213836669922,-1.2386891841888428,-0.0,-0.0,-1.0,0.1049200495758186,2.0,0.0
11.144620895385742,23.214508056640625,-1.1717989444732666,-0.0,-0.0,-1.0,0.0562341987981751,1.0,0.0
10.898941040039062,23.17572021484375,-1.16896653175354,-0.0,-0.0,-1.0,0.0996939952524252,1.0,0.0
11.384496688842772,24.512163162231445,-0.8185756206512451,-0.0,-0.0,-1.0,0.1683855469102453,1.0,0.0
12.63858127593994,25.49981689453125,-1.1056311130523682,-0.0,-0.0,-1.0,0.0855504548617598,2.0,0.0
11.676950454711914,25.506370544433594,-1.0555152893066406,-0.0,-0.0,-1.0,0.1070065559070827,1.0,0.0
11.434198379516602,24.502531051635746,-0.9320967197418212,-0.0,-0.0,-1.0,0.1456283912635729,1.0,0.0
10.917810440063477,24.302486419677734,-0.8838608264923096,-0.3142193755297776,-0.7870854989519545,-0.5308131511004878,0.1245855779529109,3.0,0.0
11.401016235351562,25.60503578186035,-1.0722477436065674,-0.0,-0.0,-1.0,0.1000988601836962,1.0,0.0
10.821910858154297,25.01006507873535,-1.0827724933624268,-0.0,-0.0,-1.0,0.1105163239050337,1.0,0.0
12.612648010253906,25.106246948242188,-0.969008207321167,0.8693451477578412,-0.2433297822011065,-0.4301507075012887,0.1144889465177091,5.0,0.0
12.166427612304688,25.56576919555664,-1.0201566219329834,-0.0,-0.0,-1.0,0.0717676375721211,2.0,0.0
11.667228698730469,24.404155731201172,-0.9977118968963624,-0.0,-0.0,-1.0,0.1346192700947066,2.0,0.0
11.30048370361328,24.45965576171875,-1.024834394454956,-0.0,-0.0,-1.0,0.1782026308256039,1.0,0.0
10.880538940429688,23.414173126220703,-1.0047190189361572,-0.0,-0.0,-1.0,0.1507050501191739,2.0,0.0
10.880678176879885,24.347768783569336,-1.047898769378662,-0.0,-0.0,-1.0,0.203088800500903,2.0,0.0
10.704952239990234,23.314516067504883,-1.0121853351593018,-0.0,-0.0,-1.0,0.1232780030718544,2.0,0.0
12.617359161376951,25.19339370727539,-0.8859057426452637,0.3880505693688162,-0.3636721366243771,0.8468526038547665,0.1753738799109407,5.0,0.0
11.434806823730469,25.511260986328125,-0.976564645767212,-0.0,-0.0,-1.0,0.079524909511593,1.0,0.0
11.251399040222168,24.487796783447266,-0.927562952041626,-0.0,-0.0,-1.0,0.2026652161835844,1.0,0.0
10.717220306396484,24.389301300048828,-0.9554121494293212,-0.0,-0.0,-1.0,0.1919102649778475,2.0,0.0
10.43423843383789,23.219009399414062,-0.9063971042633056,-0.0,-0.0,-1.0,0.1180630384040055,1.0,0.0
11.25648307800293,24.48685646057129,-1.039090633392334,-0.0,-0.0,-1.0,0.1601976786282549,1.0,0.0
12.190857887268066,23.919567108154297,-1.2071644067764282,-0.0,-0.0,-1.0,0.0383723583757279,1.0,0.0
11.91932773590088,23.75516128540039,-1.219563126564026,-0.0,-0.0,-1.0,0.0515915520627004,1.0,0.0
12.42520809173584,23.28050994873047,-1.141083836555481,-0.0,-0.0,-1.0,0.0902236718406229,1.0,0.0
12.139413833618164,23.861474990844727,-1.2075830698013306,-0.0,-0.0,-1.0,0.0446362959073408,1.0,0.0
11.980757713317873,23.409832000732425,-1.1897388696670532,-0.0,-0.0,-1.0,0.1874804385377578,1.0,0.0
11.346662521362305,24.59266662597656,-0.8488131761550903,-0.2501929165499096,0.4204318803195516,-0.8721470853699027,0.1762352344323342,4.0,0.0
10.650022506713867,24.43243408203125,-0.8556910753250122,-0.8940180729022081,-0.0558487681429359,-0.4445363881856455,0.1988335865794873,4.0,0.0
11.295820236206056,24.462722778320312,-0.8380275964736938,-0.0,-0.0,-1.0,0.1936804609073034,2.0,0.0
12.309154510498049,23.24761009216309,-1.0551103353500366,-0.0,-0.0,-1.0,0.1220528818455483,1.0,0.0
11.96997356414795,23.945785522460938,-1.147379755973816,-0.0,-0.0,-1.0,0.0864012749151773,1.0,0.0
11.4696626663208,23.348464965820312,-1.1044009923934937,-0.0,-0.0,-1.0,0.0674558258076124,1.0,0.0
11.608449935913086,23.868030548095703,-1.1550430059432983,-0.678166173701094,-0.3432855415418808,-0.6498043381017975,0.0935254254283502,3.0,0.0
12.302569389343262,23.171232223510746,-1.1623666286468506,-0.0,-0.0,-1.0,0.0899676702435758,1.0,0.0
12.335705757141112,23.35074806213379,-1.1812551021575928,-0.0,-0.0,-1.0,0.0904785841827409,1.0,0.0
12.524480819702148,23.253782272338867,-1.1319423913955688,-0.0,-0.0,-1.0,0.0887596904427363,1.0,0.0
12.153379440307615,23.222789764404297,-1.156044840812683,-0.0,-0.0,-1.0,0.1152391581247212,1.0,0.0
12.542016983032228,25.265052795410156,-0.9807841777801514,0.6725628114523748,0.5195302630378718,0.5270176187178913,0.1541454300231604,3.0,0.0
12.628771781921388,25.523229598999023,-0.995457887649536,-0.0,-0.0,-1.0,0.0868633389587882,1.0,0.0
12.181683540344238,25.320756912231445,-1.0148169994354248,-0.0,-0.0,-1.0,0.0716973134961178,1.0,0.0
11.478228569030762,23.841285705566406,-0.952082633972168,-0.0,-0.0,-1.0,0.097453189135247,2.0,0.0
11.497657775878906,24.19437026977539,-0.978954553604126,-0.0,-0.0,-1.0,0.218513054277747,1.0,0.0
11.38778018951416,24.48706817626953,-1.0119576454162598,-0.0,-0.0,-1.0,0.1862830399209621,2.0,0.0
11.56898021697998,24.783586502075195,-1.0209872722625732,-0.0,-0.0,-1.0,0.1313235216371004,1.0,0.0
11.622410774230955,25.474613189697266,-1.073516607284546,-0.0,-0.0,-1.0,0.1107933907972402,1.0,0.0
11.77496337890625,25.617074966430664,-1.0728094577789309,-0.0,-0.0,-1.0,0.0873374573773713,2.0,0.0
10.527353286743164,23.183502197265625,-0.9815230369567872,-0.0,-0.0,-1.0,0.0815687611478533,2.0,0.0
10.791951179504396,23.535457611083984,-0.9863166809082032,-0.0,-0.0,-1.0,0.0629321601933081,1.0,0.0
10.75244140625,23.88391494750977,-1.0173461437225342,-0.0,-0.0,-1.0,0.0925119944867629,1.0,0.0
10.813064575195312,24.284927368164062,-1.0442144870758057,-0.0,-0.0,-1.0,0.2341523876173355,1.0,0.0
10.46617317199707,23.147544860839844,-0.9840326309204102,-0.0,-0.0,-1.0,0.1076164554010098,1.0,0.0
10.36467742919922,24.51721572875977,-1.100996732711792,-0.0,-0.0,-1.0,0.1157059384756559,1.0,0.0
10.52358341217041,24.93951416015625,-1.121445894241333,-0.0,-0.0,-1.0,0.1101049782746925,2.0,0.0
12.613913536071776,25.14080810546875,-0.9366786479949952,0.8508527780969622,-0.4225203625369288,0.3122916797584332,0.1383434838395223,9.0,0.0
12.113444328308104,25.525623321533203,-1.0152482986450195,-0.0,-0.0,-1.0,0.0609491298637948,2.0,0.0
11.812870025634766,24.205535888671875,-0.9602959156036376,-0.0,-0.0,-1.0,0.1422988918343748,1.0,0.0
11.907432556152344,25.500911712646484,-1.035362720489502,-0.0,-0.0,-1.0,0.0530161379583241,1.0,0.0
11.460272789001465,23.842819213867188,-0.9752013683319092,-0.0,-0.0,-1.0,0.0972413996816834,2.0,0.0
11.373437881469728,24.388612747192383,-1.0195395946502686,-0.0,-0.0,-1.0,0.1576716344466461,2.0,0.0
11.540199279785156,25.535982131958008,-1.076629400253296,-0.0,-0.0,-1.0,0.1182191857951626,1.0,0.0
10.679609298706056,23.252925872802734,-1.0239007472991943,-0.0,-0.0,-1.0,0.0727554970477517,1.0,0.0
10.854314804077148,23.400373458862305,-1.013733148574829,-0.0,-0.0,-1.0,0.114259554288676,2.0,0.0
10.784425735473633,23.746091842651367,-1.0429227352142334,-0.0,-0.0,-1.0,0.0972316572510871,1.0,0.0
10.675821304321287,24.28857421875,-1.0889127254486084,-0.0,-0.0,-1.0,0.1209597353324842,2.0,0.0
10.601369857788086,24.85458755493164,-1.13299822807312,-0.0,-0.0,-1.0,0.0658427265135553,1.0,0.0
10.461980819702148,24.84130859375,-1.1472711563110352,-0.0,-0.0,-1.0,0.0760095158499257,2.0,0.0
11.219958305358888,24.47229766845703,-0.8136324882507324,-0.0,-0.0,-1.0,0.1427558290338882,1.0,0.0
11.144927978515623,24.372529983520508,-0.818474292755127,-0.0,-0.0,-1.0,0.1162514447220491,1.0,0.0
10.706037521362305,24.288516998291016,-0.8671422004699707,-0.0,-0.0,-1.0,0.1777966980720299,1.0,0.0
10.368321418762209,23.254962921142575,-0.868152379989624,-0.0,-0.0,-1.0,0.1387250819455681,1.0,0.0
12.69332504272461,25.186420440673828,-1.0900338888168335,0.0636480821945817,-0.9148221935671004,0.3988098240891647,0.1045734206856599,3.0,0.0
12.263898849487305,24.692405700683594,-1.100170016288757,-0.0,-0.0,-1.0,0.030032397369442,1.0,0.0
12.353888511657717,24.96998405456543,-1.1129704713821411,-0.0,-0.0,-1.0,0.0316653925008259,2.0,0.0
12.178564071655272,24.653722763061523,-1.1078203916549685,-0.0,-0.0,-1.0,0.0463440514404463,2.0,0.0
11.783166885375977,24.093120574951172,-1.1153196096420288,-0.0,-0.0,-1.0,0.1961398451116853,2.0,0.0
11.586976051330566,23.84956741333008,-1.1228779554367063,-0.678166173701094,-0.3432855415418808,-0.6498043381017975,0.0832397933212179,3.0,0.0
12.184494972229004,23.2142333984375,-0.9990338087081908,-0.0,-0.0,-1.0,0.121078143828706,1.0,0.0
11.771642684936523,23.92074966430664,-1.1040571928024292,-0.0,-0.0,-1.0,0.1560980862518374,1.0,0.0
11.796273231506348,23.268463134765625,-1.053932547569275,-0.1460615484199059,0.97234557830636,-0.1822363861067539,0.2396490746758164,4.0,0.0
11.865201950073242,23.354419708251953,-1.0509289503097534,-0.0,-0.0,-1.0,0.2557293053069815,1.0,0.0
11.650606155395508,23.87193298339844,-1.116214632987976,-0.0,-0.0,-1.0,0.0902481175871143,1.0,0.0
12.6470947265625,24.83877944946289,-1.1727906465530396,-0.0,-0.0,-1.0,0.0738038099740028,2.0,0.0
12.529000282287598,24.201271057128903,-1.1313549280166626,-0.0,-0.0,-1.0,0.0935112988235983,2.0,0.0
12.48330020904541,24.622589111328125,-1.1748443841934204,-0.0,-0.0,-1.0,0.1327612445598135,1.0,0.0
12.22402286529541,23.15465927124023,-1.0848597288131714,-0.0,-0.0,-1.0,0.0968277044402322,1.0,0.0
11.867725372314451,23.625471115112305,-1.1728719472885132,-0.0,-0.0,-1.0,0.0959498133436374,1.0,0.0
11.802687644958496,23.284893035888672,-1.1542872190475464,-0.0,-0.0,-1.0,0.2520096064274769,2.0,0.0
11.740277290344238,23.460220336914062,-1.1771339178085327,-0.0,-0.0,-1.0,0.1124637830945578,1.0,0.0
11.261441230773926,24.587112426757812,-0.7667140960693359,-0.4598886485166179,0.6498268226601459,-0.605167358271229,0.1240818525269943,6.0,0.0
11.223310470581056,24.503337860107425,-0.7656034231185913,-0.0,-0.0,-1.0,0.1703444266611894,2.0,0.0
10.774394989013672,24.423322677612305,-0.8098458051681519,-0.5166215255888488,0.5135068015572436,-0.6851371863011819,0.1685056429745481,4.0,0.0
12.662609100341797,25.18414306640625,-0.8605316877365112,0.9270787704954182,0.3744584277234417,0.017488259021173,0.1259736627025352,6.0,0.0
11.796595573425291,25.582618713378903,-1.0107945203781128,-0.0,-0.0,-1.0,0.0800232085266994,1.0,0.0
11.63012981414795,24.792152404785156,-0.9885071516036988,-0.0,-0.0,-1.0,0.140717323510675,1.0,0.0
11.48304557800293,25.51714515686035,-1.0526031255722046,-0.0,-0.0,-1.0,0.1182191857951626,2.0,0.0
11.65807819366455,24.13187599182129,-0.947888731956482,-0.0,-0.0,-1.0,0.1748601671218,1.0,0.0
11.41732406616211,24.469009399414062,-1.0025230646133425,-0.0,-0.0,-1.0,0.1790165348447207,2.0,0.0
11.443678855895996,24.57701110839844,-1.0044444799423218,0.2021090444226789,0.2289657217420904,-0.952221944942289,0.1169676426648362,3.0,0.0
10.999655723571776,25.07317352294922,-1.0986930131912231,-0.0,-0.0,-1.0,0.0548501282246847,1.0,0.0
10.967135429382324,24.30616569519043,-1.0623952150344849,-0.0,-0.0,-1.0,0.209481539823526,1.0,0.0
10.728527069091797,24.804397583007812,-1.1249576807022097,-0.0,-0.0,-1.0,0.1134250537647097,1.0,0.0
10.855260848999023,25.11773681640625,-1.1228581666946411,-0.0,-0.0,-1.0,0.0513372941357085,2.0,0.0
10.974713325500488,23.954822540283203,-1.0434731245040894,-0.0,-0.0,-1.0,0.1314556682856871,1.0,0.0
10.763541221618652,24.256696701049805,-1.0911937952041626,-0.0,-0.0,-1.0,0.2315446959522832,2.0,0.0
10.627330780029297,24.712650299072266,-1.135486721992493,-0.0,-0.0,-1.0,0.1212129704377873,1.0,0.0
10.804605484008787,23.29438018798828,-1.0386244058609009,-0.0,-0.0,-1.0,0.1242095928172192,2.0,0.0
12.569530487060549,24.9775390625,-1.1590673923492432,-0.0,-0.0,-1.0,0.085792520560485,2.0,0.0
12.505077362060549,24.169042587280273,-1.1035854816436768,-0.0,-0.0,-1.0,0.0938009380425733,2.0,0.0
12.350811004638672,24.567794799804688,-1.1623528003692627,-0.0,-0.0,-1.0,0.0939350689420942,2.0,0.0
12.397727012634276,24.70452117919922,-1.1654584407806396,-0.0,-0.0,-1.0,0.0292950398767781,1.0,0.0
11.809691429138184,23.373779296875,-1.169365644454956,-0.0,-0.0,-1.0,0.2303161585684603,1.0,0.0
11.72657585144043,23.680423736572266,-1.205704689025879,-0.0,-0.0,-1.0,0.0622975065328482,1.0,0.0
12.690947532653809,23.917715072631836,-1.0512902736663818,-0.611871485354787,-0.7448110914923924,0.2662136799633665,0.105549595684938,5.0,0.0
11.307462692260742,24.569320678710938,-0.8487718105316162,0.5423777977894091,-0.7195369614638656,-0.4336967668226945,0.1617941763484669,6.0,0.0
10.936715126037598,24.298864364624023,-0.8896808624267578,-0.3142193755297776,-0.7870854989519545,-0.5308131511004878,0.1229162204703508,3.0,0.0
10.763182640075684,24.441200256347656,-0.92311692237854,-0.0,-0.0,-1.0,0.1393904753626949,2.0,0.0
10.767863273620604,24.28949928283691,-0.9146077632904052,-0.0,-0.0,-1.0,0.2406515959149434,1.0,0.0
10.623005867004396,23.685697555541992,-0.9072468280792236,-0.4001110161030513,-0.4877913049675506,-0.7758677835759378,0.1325183345984821,3.0,0.0
10.38339138031006,23.244613647460938,-0.9246938228607178,-0.3301829919863455,-0.0153940463805809,-0.9437914044633896,0.1419604413548121,3.0,0.0
10.367966651916504,23.491453170776367,-0.9377448558807372,-0.0,-0.0,-1.0,0.1837362161117251,2.0,0.0
12.035512924194336,25.30605697631836,-1.080277919769287,-0.0,-0.0,-1.0,0.0790892933455505,1.0,0.0
11.739033699035645,25.006267547607425,-1.109748601913452,-0.0,-0.0,-1.0,0.0673702433405284,1.0,0.0
11.60942840576172,25.21273422241211,-1.1479732990264893,-0.0,-0.0,-1.0,0.0329260268261839,1.0,0.0
11.547829627990724,24.630718231201172,-1.1170120239257812,-0.0,-0.0,-1.0,0.1297662607360648,1.0,0.0
11.435370445251465,24.890132904052734,-1.1555161476135254,-0.0,-0.0,-1.0,0.0886027707897336,1.0,0.0
11.26428508758545,24.169404983520508,-1.1379692554473877,-0.0,-0.0,-1.0,0.1116068022030611,1.0,0.0
11.19620418548584,24.002620697021484,-1.1400458812713623,-0.0,-0.0,-1.0,0.0425343848960084,1.0,0.0
12.535409927368164,25.28491973876953,-0.9919371604919434,0.6725628114523748,0.5195302630378718,0.5270176187178913,0.1438835200756646,3.0,0.0
11.668719291687012,24.292240142822266,-1.0718300342559814,0.3447118935699187,0.4928504972713606,-0.7989193312036038,0.1287857731356282,4.0,0.0
11.666558265686035,24.47835922241211,-1.084928274154663,-0.0,-0.0,-1.0,0.127382913291894,1.0,0.0
12.116998672485352,23.369911193847656,-0.9296157360076904,-0.0,-0.0,-1.0,0.1050401753106051,1.0,0.0
11.531448364257812,24.128887176513672,-1.0861990451812744,-0.0,-0.0,-1.0,0.1441808776655082,1.0,0.0
11.80451202392578,23.30041885375977,-0.9838454723358154,-0.8416178832011831,0.5127372372521025,0.1696462914744695,0.2441671063142248,3.0,0.0
11.387167930603027,23.477964401245117,-1.0727081298828125,-0.0,-0.0,-1.0,0.0409036270521745,1.0,0.0
11.307687759399414,23.830041885375977,-1.1086921691894531,-0.0,-0.0,-1.0,0.0588986119015801,1.0,0.0
10.62857437133789,24.341812133789062,-0.7892847061157227,-0.0,-0.0,-1.0,0.1701883421547271,1.0,0.0
12.562478065490724,25.606863021850582,-1.037635087966919,-0.0,-0.0,-1.0,0.0792515839500316,2.0,0.0
12.612860679626465,25.152265548706055,-0.9773759841918944,0.3542434440886222,-0.9107544417596638,0.2122214153549879,0.1652608848802269,12.0,0.0
12.491405487060549,25.391204833984375,-1.0249583721160889,-0.0,-0.0,-1.0,0.1220819284652297,1.0,0.0
12.10740566253662,25.371980667114254,-1.0888545513153076,-0.0,-0.0,-1.0,0.066044806729824,2.0,0.0
12.038359642028809,25.11326789855957,-1.0729544162750244,-0.0,-0.0,-1.0,0.0978779078988291,1.0,0.0
11.87838649749756,25.154258728027344,-1.1056230068206787,-0.0,-0.0,-1.0,0.0959676055693553,1.0,0.0
12.40627098083496,24.380434036254883,-0.9313170909881592,-0.0,-0.0,-1.0,0.0758257441387971,1.0,0.0
11.574274063110352,24.865188598632812,-1.1302664279937744,-0.0,-0.0,-1.0,0.1052973035301594,1.0,0.0
11.640666007995604,24.3107967376709,-1.0641944408416748,0.001245540840032,0.382130961622503,-0.9241073405170402,0.1156552761857138,3.0,0.0
11.490559577941896,24.534767150878903,-1.113150119781494,-0.0,-0.0,-1.0,0.1626998908033427,2.0,0.0
12.24277400970459,23.206073760986328,-1.0400505065917969,-0.0,-0.0,-1.0,0.1164330809881888,1.0,0.0
11.361238479614258,24.113204956054688,-1.098134994506836,-0.0,-0.0,-1.0,0.0932711988645321,1.0,0.0
11.126713752746582,24.119155883789062,-1.1427035331726074,-0.0,-0.0,-1.0,0.1156092886586114,2.0,0.0
11.805392265319824,23.28809928894043,-0.9422440528869628,-0.8416178832011831,0.5127372372521025,0.1696462914744695,0.2333688169525008,3.0,0.0
11.382620811462402,23.581642150878903,-1.0478169918060305,-0.0,-0.0,-1.0,0.0354874844958709,2.0,0.0
11.244775772094728,23.831010818481445,-1.0952472686767578,-0.0,-0.0,-1.0,0.0597181440518661,2.0,0.0
10.905658721923828,23.216049194335938,-1.1114253997802734,-0.0,-0.0,-1.0,0.1606422301048417,1.0,0.0
10.851447105407717,23.153764724731445,-1.1174447536468506,-0.0,-0.0,-1.0,0.1097513874189638,2.0,0.0
11.230213165283203,24.606746673583984,-0.7373695373535156,0.062827516464221,0.8493749100728294,-0.5240371793238632,0.1222319547899637,5.0,0.0
10.681669235229492,24.442018508911133,-0.8112874031066895,-0.0,-0.0,-1.0,0.2402742241998157,2.0,0.0
10.256887435913086,23.2440128326416,-0.805192232131958,-0.0,-0.0,-1.0,0.166011878423036,1.0,0.0
12.11195945739746,25.569360733032227,-0.994502067565918,-0.861846374613586,0.1931754200143451,-0.4689393176816162,0.0681676148528005,3.0,0.0
11.757256507873535,25.625770568847656,-1.0756738185882568,-0.0,-0.0,-1.0,0.0999336009368625,2.0,0.0
12.55933952331543,24.739173889160156,-1.198369026184082,-0.0,-0.0,-1.0,0.0930077547278321,1.0,0.0
11.72035026550293,25.313417434692383,-1.0607528686523438,-0.0,-0.0,-1.0,0.0490378169120308,1.0,0.0
11.491565704345703,25.41271209716797,-1.1187028884887695,-0.0,-0.0,-1.0,0.0727033168318743,2.0,0.0
12.635208129882812,24.15460968017578,-1.126126050949097,-0.0,-0.0,-1.0,0.0812427356585075,1.0,0.0
12.472169876098633,24.523391723632812,-1.2001969814300537,-0.0,-0.0,-1.0,0.18792902931419,1.0,0.0
11.564950942993164,24.68314552307129,-1.0539617538452148,-0.0,-0.0,-1.0,0.1911159799499466,1.0,0.0
11.319759368896484,25.060041427612305,-1.1335878372192385,-0.0,-0.0,-1.0,0.0672469339585696,2.0,0.0
11.074164390563965,25.322528839111328,-1.2061381340026855,-0.0,-0.0,-1.0,0.0759417235815652,1.0,0.0
12.683006286621094,23.914241790771484,-1.0935192108154297,-0.9152241619464774,-0.3087557749295477,0.258910418556347,0.111562447423461,4.0,0.0
11.378750801086426,24.49522590637207,-1.086052417755127,-0.0,-0.0,-1.0,0.1670953771051232,2.0,0.0
11.3375883102417,24.79681396484375,-1.1130585670471191,-0.0,-0.0,-1.0,0.0866236058674462,1.0,0.0
12.230958938598633,23.34235191345215,-1.1717941761016846,-0.0,-0.0,-1.0,0.1259757854014224,1.0,0.0
11.217731475830078,24.185123443603516,-1.107394456863403,-0.0,-0.0,-1.0,0.1392400195533899,1.0,0.0
11.023594856262209,24.253097534179688,-1.156618356704712,-0.0,-0.0,-1.0,0.1367652196160841,1.0,0.0
11.209388732910156,23.84339141845703,-1.093044996261597,-0.0,-0.0,-1.0,0.0512494637630476,2.0,0.0
12.592187881469728,25.197290420532227,-0.8617391586303711,0.6652320272899531,-0.1865208505138477,0.7229635690622939,0.1359129120988123,3.0,0.0
11.67152214050293,24.383960723876953,-1.011613130569458,-0.0,-0.0,-1.0,0.1314477311879965,2.0,0.0
11.190713882446287,24.609966278076172,-0.7389934062957764,0.0767813675844515,0.8423248965269289,-0.5334729517817747,0.1204493544944888,4.0,0.0
11.793766021728516,23.71640396118164,-0.9474635124206544,-0.0,-0.0,-1.0,0.1369076771345285,1.0,0.0
10.716556549072266,24.34914779663086,-0.8271045684814453,-0.0,-0.0,-1.0,0.1882179760710634,1.0,0.0
10.645834922790527,24.39149284362793,-0.8429675102233887,-0.0,-0.0,-1.0,0.196565270481034,2.0,0.0
11.366748809814451,23.566808700561523,-1.0432350635528564,-0.0,-0.0,-1.0,0.0358806336400113,2.0,0.0
10.494162559509276,23.98561668395996,-0.8638179302215576,-0.0,-0.0,-1.0,0.0864585610581655,1.0,0.0
10.502524375915527,23.665821075439453,-0.8555045127868652,-0.0,-0.0,-1.0,0.0946820271644767,2.0,0.0
10.262746810913086,23.29132843017578,-0.9010703563690186,-0.0,-0.0,-1.0,0.1824591397475664,1.0,0.0
10.864161491394045,25.44308853149414,-1.244215726852417,-0.0,-0.0,-1.0,0.0576544669596813,1.0,0.0
11.416142463684082,25.616209030151367,-1.128009796142578,-0.0,-0.0,-1.0,0.1034517730819395,1.0,0.0
11.099285125732422,25.50841903686523,-1.1932613849639893,-0.0,-0.0,-1.0,0.0605571852862311,2.0,0.0
11.459915161132812,24.895761489868164,-1.058356523513794,-0.0,-0.0,-1.0,0.1018355528372812,2.0,0.0
11.305814743041992,24.94517517089844,-1.0994088649749756,-0.0,-0.0,-1.0,0.0831454911398768,1.0,0.0
10.963052749633787,25.07441520690918,-1.192410945892334,-0.0,-0.0,-1.0,0.0528423198411233,1.0,0.0
11.716483116149902,24.59697151184082,-0.973618745803833,-0.0,-0.0,-1.0,0.1420106698767354,1.0,0.0
11.32850456237793,24.57543182373047,-1.0672194957733154,-0.0,-0.0,-1.0,0.2201414610401811,1.0,0.0
11.147865295410156,24.746631622314453,-1.1238601207733154,-0.0,-0.0,-1.0,0.1304966026036467,1.0,0.0
10.866280555725098,25.034656524658203,-1.2132461071014404,-0.0,-0.0,-1.0,0.0442636304644705,1.0,0.0
11.351869583129885,24.33622360229492,-1.045427322387695,-0.0,-0.0,-1.0,0.1373979168094531,2.0,0.0
10.866701126098633,24.414981842041016,-1.1726124286651611,-0.0,-0.0,-1.0,0.1815164875681428,1.0,0.0
10.633743286132812,24.546340942382812,-1.2393386363983154,-0.0,-0.0,-1.0,0.1425789593959263,1.0,0.0
11.416133880615234,23.905223846435547,-1.0029792785644531,-0.0,-0.0,-1.0,0.1079124951610933,1.0,0.0
11.046544075012209,23.841705322265625,-1.094710350036621,-0.0,-0.0,-1.0,0.0645249531600652,1.0,0.0
10.896440505981444,24.13306427001953,-1.148693561553955,-0.0,-0.0,-1.0,0.0918634976907913,1.0,0.0
11.135054588317873,23.58616065979004,-1.0591657161712646,-0.0,-0.0,-1.0,0.0491524322633947,2.0,0.0
10.773069381713867,23.186967849731445,-1.1393179893493652,-0.0,-0.0,-1.0,0.1128442694341876,1.0,0.0
10.64803695678711,24.44118881225586,-0.8539614677429199,-0.8822416839167347,-0.1096353929929564,-0.4578533518093365,0.1967722437469371,3.0,0.0
10.49225902557373,23.753448486328125,-0.8668804168701172,-0.0,-0.0,-1.0,0.1126859245385737,1.0,0.0
10.296037673950195,23.332378387451172,-0.9038527011871338,-0.0,-0.0,-1.0,0.1825648520107383,2.0,0.0
10.269489288330078,23.53307723999023,-0.8293197154998779,-0.0,-0.0,-1.0,0.1657677908426732,1.0,0.0
10.271380424499512,23.172353744506836,-0.8105363845825195,-0.0,-0.0,-1.0,0.1770338193293324,1.0,0.0
12.367790222167969,23.997852325439453,-1.1710752248764038,-0.0,-0.0,-1.0,0.065503951810129,1.0,0.0
12.301335334777832,24.258071899414062,-1.1282751560211182,-0.0,-0.0,-1.0,0.0909705942250788,1.0,0.0
12.70132541656494,23.885845184326172,-1.072450876235962,-0.9152241619464774,-0.3087557749295477,0.258910418556347,0.1144191843849135,4.0,0.0
12.54666233062744,23.853870391845703,-1.0795371532440186,-0.0,-0.0,-1.0,0.1253712281175077,1.0,0.0
12.18083381652832,24.057151794433594,-1.1194045543670654,-0.0,-0.0,-1.0,0.0638519887686684,1.0,0.0
11.999610900878906,24.14404296875,-1.1380913257598877,-0.321160619500888,0.2962131268497066,-0.8995074429729448,0.1307871053006457,3.0,0.0
12.25749397277832,24.485822677612305,-1.165727615356445,-0.0,-0.0,-1.0,0.0993088566170104,1.0,0.0
12.014080047607422,24.1276798248291,-1.1486458778381348,-0.321160619500888,0.2962131268497066,-0.8995074429729448,0.1248515202654663,3.0,0.0
12.592408180236816,23.71893882751465,-1.2296106815338137,-0.0,-0.0,-1.0,0.0790418059622899,1.0,0.0
12.35498046875,23.715330123901367,-1.2423479557037354,-0.0,-0.0,-1.0,0.0568225340762898,1.0,0.0
12.358675956726074,24.8255558013916,-1.1938791275024414,-0.0,-0.0,-1.0,0.0312427537586582,1.0,0.0
11.78848361968994,24.21335792541504,-1.1676669120788574,-0.0,-0.0,-1.0,0.2186977504581629,1.0,0.0
12.559885025024414,25.26435661315918,-1.1373512744903564,-0.0,-0.0,-1.0,0.1371468005608702,2.0,0.0
12.344501495361328,25.421098709106445,-1.167079210281372,-0.0,-0.0,-1.0,0.0910296347642282,2.0,0.0
12.110836029052734,25.20256996154785,-1.1575148105621338,-0.0,-0.0,-1.0,0.1037962432768821,1.0,0.0
12.094721794128418,25.3154354095459,-1.1706812381744385,-0.0,-0.0,-1.0,0.1043709623165178,1.0,0.0
10.780288696289062,23.45408058166504,-1.0521390438079834,-0.0,-0.0,-1.0,0.069297157123102,1.0,0.0
11.26671028137207,24.52350425720215,-0.8549652099609375,-0.2150088617115473,0.1298799350851627,-0.9679371838336304,0.2158628174848553,6.0,0.0
10.794194221496582,24.317583084106445,-0.8579871654510498,-0.0,-0.0,-1.0,0.1778167305075199,2.0,0.0
10.661593437194824,24.44808578491211,-0.88173508644104,-0.6700743755582168,0.7416112047571037,-0.0318300518218708,0.232865780369251,4.0,0.0
12.578941345214844,23.9093074798584,-1.235311508178711,-0.0,-0.0,-1.0,0.1042638260036316,1.0,0.0
12.677797317504885,23.774585723876953,-1.1600396633148191,-0.0,-0.0,-1.0,0.0855349017529489,2.0,0.0
12.459460258483888,23.92938232421875,-1.195936918258667,-0.0,-0.0,-1.0,0.0859727853551091,1.0,0.0
11.684381484985352,23.36029052734375,-1.1510565280914309,-0.0,-0.0,-1.0,0.1668196891908485,1.0,0.0
11.577582359313965,23.674808502197266,-1.2064030170440674,-0.0,-0.0,-1.0,0.0357357575418617,1.0,0.0
11.365426063537598,23.35485076904297,-1.169356107711792,-0.0,-0.0,-1.0,0.0575137947056704,1.0,0.0
11.104249000549316,23.16978454589844,-1.156684637069702,-0.0,-0.0,-1.0,0.0818420512675526,1.0,0.0
12.639546394348145,23.86094665527344,-1.17040753364563,-0.0,-0.0,-1.0,0.1216819949992739,2.0,0.0
11.69968318939209,23.529767990112305,-1.1661324501037598,-0.0,-0.0,-1.0,0.1026586141915285,1.0,0.0
11.278560638427734,23.213245391845703,-1.1403188705444336,-0.0,-0.0,-1.0,0.0411405200860452,1.0,0.0
12.56875705718994,24.936927795410156,-1.153059482574463,-0.0,-0.0,-1.0,0.0645432865157421,2.0,0.0
12.17309856414795,24.60743522644043,-1.118051290512085,-0.0,-0.0,-1.0,0.0458753236538425,2.0,0.0
12.311311721801758,24.863889694213867,-1.1516127586364746,-0.0,-0.0,-1.0,0.0264160239575188,1.0,0.0
11.840312957763672,24.487831115722656,-1.113326072692871,-0.0,-0.0,-1.0,0.1292231965131563,1.0,0.0
11.678507804870604,24.624282836914062,-1.140796184539795,-0.0,-0.0,-1.0,0.1891574381422067,1.0,0.0
11.401043891906738,24.46946144104004,-1.1293721199035645,-0.0,-0.0,-1.0,0.1772683458055618,2.0,0.0
11.17551612854004,24.373716354370117,-1.1249408721923828,-0.0,-0.0,-1.0,0.1163926854883937,1.0,0.0
10.873458862304688,23.359216690063477,-0.9851510524749756,-0.0,-0.0,-1.0,0.1446463282377559,1.0,0.0
10.561773300170898,23.235944747924805,-0.9817609786987304,-0.0,-0.0,-1.0,0.0827349617350695,1.0,0.0
10.409906387329102,23.160167694091797,-0.977956771850586,-0.0,-0.0,-1.0,0.1289226438384096,1.0,0.0
12.63516902923584,25.067663192749023,-1.1769003868103027,0.4425745873205333,0.7922735852090589,0.4200360708773042,0.1610815786533966,3.0,0.0
12.620821952819824,24.903324127197266,-1.150052547454834,-0.0,-0.0,-1.0,0.055595080856963,1.0,0.0
12.046549797058104,24.61729621887207,-1.1163311004638672,0.6305227979044962,-0.3587306351861086,-0.6882974158760561,0.0497976892748957,3.0,0.0
11.727486610412598,24.3832950592041,-1.0861172676086426,-0.0,-0.0,-1.0,0.1704427438490394,1.0,0.0
11.461517333984377,24.62105941772461,-1.133061408996582,-0.0,-0.0,-1.0,0.1549864509853404,1.0,0.0
11.100289344787598,24.096324920654297,-1.05733323097229,-0.0,-0.0,-1.0,0.2529572441112098,1.0,0.0
10.90731143951416,23.16971015930176,-0.9103312492370604,-0.0,-0.0,-1.0,0.1444882187894087,1.0,0.0
10.688982963562012,23.55591583251953,-0.9817266464233398,0.2032006096465196,0.580348254173524,-0.7886097996582502,0.0640729248042888,4.0,0.0
10.321737289428713,23.29798698425293,-0.9524784088134766,-0.0,-0.0,-1.0,0.0929854359409921,2.0,0.0
12.55030632019043,24.85831642150879,-1.173262357711792,-0.0,-0.0,-1.0,0.040620558581923,2.0,0.0
12.035823822021484,24.64249610900879,-1.1392905712127686,0.7588255618737018,-0.2316161456801579,-0.6087181020039807,0.0486255740406341,3.0,0.0
11.751571655273438,24.331850051879883,-1.088148593902588,-0.0,-0.0,-1.0,0.1524013144718045,2.0,0.0
11.50680923461914,24.56517791748047,-1.1311678886413574,-0.0,-0.0,-1.0,0.1944617865664251,2.0,0.0
11.253475189208984,23.949216842651367,-1.0278160572052002,-0.0,-0.0,-1.0,0.1116536630844586,1.0,0.0
11.273383140563965,24.377918243408203,-1.1018221378326416,-0.0,-0.0,-1.0,0.1291551307070471,1.0,0.0
11.02244758605957,23.72256088256836,-0.99190354347229,-0.6161050672247231,0.5952062446383031,-0.5158915317036978,0.079264319627203,3.0,0.0
10.882104873657228,23.711679458618164,-0.9922330379486084,-0.0,-0.0,-1.0,0.0874684171697271,1.0,0.0
10.735668182373049,23.598344802856445,-0.9750919342041016,-0.0,-0.0,-1.0,0.0723930663001605,2.0,0.0
10.666122436523438,23.668926239013672,-0.9885494709014891,-0.0,-0.0,-1.0,0.1356469858646825,1.0,0.0
10.936182022094728,23.347043991088867,-0.928217887878418,-0.0,-0.0,-1.0,0.1617310607315271,2.0,0.0
10.30580711364746,23.316343307495117,-0.9344263076782228,0.6474573290230774,0.7402136997081196,-0.1813358372157036,0.1122279059621525,3.0,0.0
12.499215126037598,23.868385314941406,-1.1775994300842283,-0.0,-0.0,-1.0,0.1055759014837589,1.0,0.0
12.687142372131348,23.7287540435791,-1.1467247009277344,-0.0,-0.0,-1.0,0.0623602892178013,2.0,0.0
11.480710983276367,23.513059616088867,-1.1399214267730713,-0.0,-0.0,-1.0,0.0442674827999174,1.0,0.0
11.636902809143066,23.70501136779785,-1.1712298393249512,-0.0,-0.0,-1.0,0.0758837006794657,1.0,0.0
11.267467498779297,23.427637100219727,-1.1309237480163574,-0.0,-0.0,-1.0,0.0396918366247227,2.0,0.0
10.98746109008789,23.26818084716797,-1.1106743812561035,-0.0,-0.0,-1.0,0.0964116014505357,1.0,0.0
12.582669258117676,23.329408645629883,-1.2231483459472656,-0.0,-0.0,-1.0,0.083383197463685,1.0,0.0
11.747178077697754,23.153728485107425,-1.1984355449676514,-0.0,-0.0,-1.0,0.1617518599792515,1.0,0.0
12.673912048339844,25.224201202392575,-0.8672165870666504,0.8847394267697851,-0.4437962504843007,0.1424114980440406,0.1439876290131668,5.0,0.0
11.25917625427246,24.633094787597656,-0.7957203388214111,0.8085349556693388,0.291424419208346,-0.5112172076034399,0.0901333655943308,3.0,0.0
12.691736221313477,23.318445205688477,-1.2731966972351074,-0.0,-0.0,-1.0,0.0761694614316662,1.0,0.0
12.707640647888184,25.12784194946289,-0.9674909114837646,-0.0,-0.0,-1.0,0.110964948022812,2.0,0.0
12.251007080078123,25.539745330810547,-1.0608563423156738,-0.4840523531629707,-0.7365546066827668,-0.4724199728756028,0.1325266639809135,6.0,0.0
12.222548484802246,25.575353622436523,-1.0685656070709229,-0.8101820673431938,-0.5705593483335409,-0.134413718737017,0.1325266639809135,5.0,0.0
12.07369327545166,25.53407859802246,-1.066530466079712,-0.0,-0.0,-1.0,0.0531963224405531,2.0,0.0
11.433842658996582,24.64759826660156,-0.9261620044708252,-0.0,-0.0,-1.0,0.1205465413108841,1.0,0.0
11.534563064575195,25.6328125,-1.1073360443115234,-0.0,-0.0,-1.0,0.1391863490764622,2.0,0.0
11.327352523803713,24.55624008178711,-0.9136183261871338,0.1514823182052745,-0.7058492925006253,-0.6919753489449769,0.1940250211799855,3.0,0.0
10.820034980773926,24.34247779846191,-0.8967549800872803,-0.0,-0.0,-1.0,0.1680253252507397,2.0,0.0
12.516366958618164,23.92721366882324,-1.222609281539917,-0.0,-0.0,-1.0,0.0949930297713823,1.0,0.0
11.90603256225586,23.930402755737305,-1.226834774017334,-0.0,-0.0,-1.0,0.0813307728215654,1.0,0.0
11.507558822631836,23.64345932006836,-1.1671130657196045,-0.0,-0.0,-1.0,0.0405317871908414,1.0,0.0
11.776905059814451,23.87827491760254,-1.2164437770843506,-0.0,-0.0,-1.0,0.0347656530039344,1.0,0.0
11.424800872802734,23.484291076660156,-1.132601976394653,-0.0,-0.0,-1.0,0.0530111348472953,1.0,0.0
12.632736206054688,25.300626754760746,-1.0266385078430176,-0.0,-0.0,-1.0,0.244463096907805,2.0,0.0
12.678160667419434,23.52159309387207,-1.2553799152374268,-0.0,-0.0,-1.0,0.0459364864474146,1.0,0.0
12.344822883605955,25.394886016845703,-1.0418224334716797,-0.0,-0.0,-1.0,0.0669165992911037,2.0,0.0
11.806110382080078,23.217361450195312,-1.164715051651001,-0.0,-0.0,-1.0,0.2687562192446912,1.0,0.0
11.600384712219238,23.388263702392575,-1.2026262283325195,-0.0,-0.0,-1.0,0.083624676755324,1.0,0.0
11.539079666137695,23.346445083618164,-1.1920232772827148,-0.0,-0.0,-1.0,0.0644682840450377,1.0,0.0
11.430559158325195,24.613269805908203,-0.8787095546722412,-0.0,-0.0,-1.0,0.1573388494976019,1.0,0.0
11.278176307678224,24.54789924621582,-0.865506649017334,0.4857447592065443,-0.503496057517682,-0.7145234418600468,0.1986384406237039,8.0,0.0
12.128092765808104,25.580097198486328,-1.0197300910949707,-0.3019978001884888,-0.7922150994480398,-0.5302759327820245,0.0681676148528005,3.0,0.0
12.031131744384766,23.925939559936523,-1.2245714664459229,-0.0,-0.0,-1.0,0.0809021844572183,1.0,0.0
11.697265625,23.330577850341797,-1.072486400604248,-0.0,-0.0,-1.0,0.1986121349226063,1.0,0.0
11.58938217163086,23.72397232055664,-1.1717333793640137,-0.0,-0.0,-1.0,0.0840937434554896,1.0,0.0
11.644638061523438,23.88027000427246,-1.2112855911254885,-0.0,-0.0,-1.0,0.0463117031731226,1.0,0.0
11.478662490844728,25.518959045410156,-1.0102462768554688,-0.0,-0.0,-1.0,0.0848885351673332,2.0,0.0
11.276010513305664,23.430248260498047,-1.0974631309509275,-0.0,-0.0,-1.0,0.04409367119735,2.0,0.0
10.899057388305664,23.233741760253903,-1.049549579620361,-0.0,-0.0,-1.0,0.176522297182409,2.0,0.0
10.943347930908203,23.288740158081055,-1.0630638599395752,-0.0,-0.0,-1.0,0.1557093291826291,2.0,0.0
10.496332168579102,23.143945693969727,-1.0310351848602295,-0.0,-0.0,-1.0,0.1018780576252177,1.0,0.0
11.276575088500977,24.57990264892578,-0.8078024387359619,0.2882638823617561,-0.9055201885068098,-0.3113472696721778,0.1749684441789536,6.0,0.0
11.213778495788574,24.533475875854492,-0.7983498573303223,0.5576886545901725,-0.5047814972852412,-0.6589226089153971,0.1703444266611896,4.0,0.0
10.69761085510254,24.388416290283203,-0.7738499641418457,-0.0,-0.0,-1.0,0.2000983803424484,2.0,0.0
11.898422241210938,24.06949234008789,-1.1622467041015625,-0.0,-0.0,-1.0,0.1309635344914149,1.0,0.0
11.543927192687988,23.896270751953125,-1.1136822700500488,-0.0,-0.0,-1.0,0.1146285656633472,2.0,0.0
11.473934173583984,23.996536254882812,-1.1394248008728027,-0.0,-0.0,-1.0,0.119399069422784,1.0,0.0
11.202407836914062,23.747718811035156,-1.0731196403503418,-0.0,-0.0,-1.0,0.0487364619529587,1.0,0.0
11.067020416259766,23.99543571472168,-1.1381711959838867,-0.0,-0.0,-1.0,0.0950567804561127,1.0,0.0
10.86118507385254,23.633075714111328,-1.0431365966796875,-0.0,-0.0,-1.0,0.0570098659517883,1.0,0.0
12.685861587524414,25.171489715576172,-0.8814325332641602,0.5701200223322326,0.7492770090816748,0.3369675411631133,0.142562354390515,5.0,0.0
11.95709228515625,23.24099922180176,-0.9473264217376708,-0.0,-0.0,-1.0,0.1657712042845549,1.0,0.0
11.43214225769043,25.61449432373047,-0.9775667190551758,-0.0,-0.0,-1.0,0.1306666724330625,2.0,0.0
11.035608291625977,23.516307830810547,-1.0120933055877686,-0.0,-0.0,-1.0,0.0586981249692073,1.0,0.0
10.828892707824709,23.33304786682129,-0.9642038345336914,-0.0,-0.0,-1.0,0.1964765149075128,1.0,0.0
10.685545921325684,23.520219802856445,-1.0142042636871338,-0.7788107364939204,0.4615029874045028,-0.4248162300789805,0.0636025462184052,3.0,0.0
10.371606826782228,23.312931060791016,-0.9620406627655028,-0.0,-0.0,-1.0,0.1211201924089628,1.0,0.0
10.493667602539062,23.443958282470703,-0.9954233169555664,-0.0,-0.0,-1.0,0.1022952727128678,1.0,0.0
12.438657760620115,24.199867248535156,-1.1719989776611328,-0.0,-0.0,-1.0,0.0959303717731474,1.0,0.0
