x,y,z,nx,ny,nz,curvature,density,label
27.759855270385746,-13.62222385406494,0.0340156555175781,-0.0,-0.0,-1.0,0.1030694926015854,1.0,1.0
28.38260078430176,-13.789645195007324,0.0566006898880004,-0.0,-0.0,-1.0,0.0451083869206214,1.0,1.0
27.89051055908203,-13.88352108001709,0.0236380100250244,-0.0,-0.0,-1.0,0.0136253202751722,2.0,1.0
28.59922790527344,-14.101367950439451,0.0461717844009399,0.6277223636656274,0.6993407753232445,-0.34188757527047,0.0707090470259278,3.0,1.0
28.732919692993164,-12.701371192932127,0.1498917341232299,0.254345120658968,-0.8761882519962915,-0.4093930955214785,0.0802297919101095,7.0,1.0
28.23707389831543,-12.766618728637695,0.1176624298095703,-0.0,-0.0,-1.0,0.1486656353497198,1.0,1.0
28.140043258666992,-12.976836204528809,0.0982613563537597,-0.3470453268167549,-0.8497536114890687,-0.3968354078153013,0.1816474504263631,3.0,1.0
30.002826690673828,-13.404752731323242,0.1661804914474487,-0.5607034400569422,0.4227667073096009,-0.7119550291267763,0.216126409029654,6.0,1.0
29.444137573242188,-12.095329284667969,-0.1026839017868042,-0.0,-0.0,-1.0,0.0250899702893236,2.0,0.0
29.172008514404297,-12.033411979675291,-0.1171727180480957,-0.0,-0.0,-1.0,0.0420738855214211,2.0,0.0
29.846023559570312,-12.400487899780272,-0.1026040315628051,-0.0,-0.0,-1.0,0.0189841573611928,2.0,0.0
29.61339569091797,-12.218252182006836,-0.1018232107162475,-0.0,-0.0,-1.0,0.0168834335426042,2.0,0.0
30.05535888671875,-12.459417343139648,-0.0940281152725219,-0.3162932577204663,0.926319456594546,-0.2046725175859227,0.0256389015132899,3.0,0.0
28.493656158447266,-12.877697944641112,0.2091100215911865,-0.2613938215121004,-0.9118581050149284,-0.3165249854180294,0.1470686207200963,5.0,1.0
28.121768951416016,-13.22144889831543,0.1684671640396118,-0.0,-0.0,-1.0,0.1467316209226516,1.0,1.0
29.986713409423828,-13.383777618408203,0.2449767589569091,-0.961654856225689,0.1906693535278953,0.1971424234476265,0.1234262875802111,4.0,1.0
30.064456939697266,-13.200851440429688,0.6851850748062134,-0.9343582713401244,-0.1621513797498586,-0.3173035625761418,0.0986011408251806,4.0,1.0
29.448043823242188,-11.869998931884766,-0.1426088809967041,-0.9799879221013782,-0.1907713774114568,-0.0568326851024879,0.021895681213414,3.0,0.0
29.99222946166992,-12.105956077575684,-0.1517548561096191,0.8050897747829314,-0.2624754783183921,-0.5319182999498134,0.0170886524476766,3.0,0.0
29.633214950561523,-12.03561782836914,-0.1568198204040527,-0.0,-0.0,-1.0,0.0214010056178412,1.0,0.0
27.988414764404297,-13.987545013427734,-0.0293501615524292,-0.0,-0.0,-1.0,0.0160085546126239,1.0,0.0
28.85135841369629,-12.913634300231934,0.1068512201309204,-0.0,-0.0,-1.0,0.1829389845974495,1.0,1.0
28.331802368164062,-13.164032936096191,0.0674548149108886,-0.0,-0.0,-1.0,0.225902882377754,1.0,1.0
28.06359481811523,-13.261499404907228,0.0502568483352661,-0.0,-0.0,-1.0,0.182442157781176,1.0,1.0
30.15153694152832,-13.539331436157228,0.0586751699447631,-0.0,-0.0,-1.0,0.1698262567913223,2.0,1.0
28.25848388671875,-13.324846267700195,0.0484737157821655,-0.0,-0.0,-1.0,0.1192208584807615,1.0,1.0
27.818727493286133,-13.371500015258787,0.0322018861770629,-0.0,-0.0,-1.0,0.1615233933896893,1.0,1.0
28.49646759033203,-13.90218734741211,-0.0089207887649536,-0.0,-0.0,-1.0,0.0573990008528557,1.0,0.0
28.24748992919922,-13.91291618347168,-0.015336275100708,-0.0,-0.0,-1.0,0.0273365819078046,1.0,0.0
28.865234375,-14.32894229888916,-0.0497561693191528,-0.0,-0.0,-1.0,0.0278217814451537,1.0,0.0
28.589458465576172,-14.133387565612791,-0.0326472520828247,-0.0,-0.0,-1.0,0.061724128212022,2.0,0.0
29.152746200561523,-11.900733947753906,-0.0885224342346191,-0.0,-0.0,-1.0,0.0347282468065532,1.0,0.0
29.92499542236328,-12.503867149353027,-0.0869170427322387,-0.0,-0.0,-1.0,0.0249630992143466,2.0,0.0
29.57610511779785,-12.273107528686523,-0.0907942056655883,-0.0,-0.0,-1.0,0.011823098609087,1.0,0.0
29.263355255126953,-12.14863395690918,-0.1033697128295898,-0.0,-0.0,-1.0,0.0160790859477221,1.0,0.0
29.007179260253903,-12.829002380371094,0.2222845554351806,-0.0,-0.0,-1.0,0.1021403658146281,1.0,1.0
28.87148094177246,-12.9359769821167,0.2070450782775879,-0.0,-0.0,-1.0,0.1142273840811924,1.0,1.0
28.73075294494629,-12.948148727416992,0.1980651617050171,-0.0,-0.0,-1.0,0.1121110799575853,1.0,1.0
28.280431747436523,-12.972805976867676,0.1699965000152588,-0.0,-0.0,-1.0,0.1856948435431375,1.0,1.0
28.152149200439453,-13.301301956176758,0.1399798393249511,-0.0,-0.0,-1.0,0.167581277999129,1.0,1.0
27.785181045532227,-13.304198265075684,0.1180232763290405,-0.0,-0.0,-1.0,0.1930250646426125,1.0,1.0
28.93332290649414,-13.787050247192385,0.1508810520172119,-0.0,-0.0,-1.0,0.0496872912880602,1.0,1.0
27.878955841064453,-14.157891273498535,0.0650515556335449,-0.0,-0.0,-1.0,0.0121086898445882,1.0,1.0
27.743099212646484,-13.97537612915039,0.0697429180145263,-0.0,-0.0,-1.0,0.0122424830748911,1.0,1.0
29.729238510131836,-11.983572006225586,-0.0742208957672119,-0.4953526220511867,-0.8395808050909315,0.2230019092964857,0.019871578049234,3.0,0.0
29.452251434326172,-11.90170669555664,-0.080716848373413,-0.976626451294324,-0.2146200876807657,-0.0117895121254255,0.0230725040212811,3.0,0.0
29.925212860107425,-12.18079662322998,-0.0868184566497802,-0.0,-0.0,-1.0,0.0171374693094896,2.0,0.0
28.69395446777344,-12.796273231506348,0.1834268569946289,-0.5830864298431266,0.1960171439692776,-0.788408203028687,0.0659910513448244,7.0,1.0
28.556781768798828,-12.803293228149414,0.1776776313781738,-0.0,-0.0,-1.0,0.1142372776835255,2.0,1.0
28.14499855041504,-12.873714447021484,0.1557762622833252,-0.5210670883857631,-0.631154307495742,-0.5745723013953543,0.1604268432760898,6.0,1.0
28.22693634033203,-13.074081420898438,0.1411662101745605,-0.0,-0.0,-1.0,0.2534601898537174,1.0,1.0
27.98833465576172,-13.116466522216797,0.1283085346221923,-0.0,-0.0,-1.0,0.1124772329818388,2.0,1.0
30.067310333251953,-13.482293128967283,0.1680703163146972,-0.0,-0.0,-1.0,0.1077349136691731,2.0,1.0
28.441104888916016,-13.935433387756348,0.0717048645019531,0.0068213217190087,-0.1728314140441161,-0.984927800343516,0.0664096628468692,4.0,1.0
27.993064880371097,-13.965250968933104,0.0528833866119384,-0.0,-0.0,-1.0,0.0155478053688433,2.0,1.0
28.73686981201172,-14.329973220825195,0.0460555553436279,-0.0,-0.0,-1.0,0.0299632968906346,1.0,1.0
28.637903213500977,-14.19816780090332,0.0547336339950561,-0.6641984685945233,0.6112882357209588,0.4303104544231381,0.0403453647459955,3.0,1.0
29.970930099487305,-13.343910217285156,0.5787836313247681,-0.0,-0.0,-1.0,0.0986011408251806,1.0,1.0
28.183378219604492,-11.903396606445312,0.1431094408035278,-0.3676227685327138,-0.1376704612095504,-0.91972840782847,0.105925794875476,3.0,1.0
29.70852851867676,-11.943893432617188,-0.0991966724395752,0.7175330026431005,-0.6641465900162414,-0.2098944903702201,0.0198657446559106,4.0,0.0
27.71013641357422,-12.670988082885742,0.046432614326477,-0.0,-0.0,-1.0,0.044021719644443,2.0,1.0
30.132665634155273,-12.241172790527344,-0.1014411449432373,-0.0,-0.0,-1.0,0.0132300129441948,2.0,0.0
29.900413513183594,-12.140544891357422,-0.1071333885192871,-0.1998262797263303,-0.0642586188295037,-0.9777219890320862,0.0167597676102484,3.0,0.0
28.84151268005371,-12.670564651489258,0.1216164827346801,-0.279568705314554,-0.562679667048166,-0.777967178805963,0.0654524490455275,5.0,1.0
28.17346954345703,-12.798698425292969,0.0669946670532226,-0.8588130440975659,0.1059816889792743,-0.5012065810511402,0.2450033137519576,3.0,1.0
27.807640075683594,-12.738752365112305,0.0474573373794555,-0.0,-0.0,-1.0,0.0453270932556765,1.0,1.0
28.295488357543945,-13.09768295288086,0.0492466688156127,-0.0,-0.0,-1.0,0.2371531882583556,1.0,1.0
28.180614471435547,-13.433164596557615,0.0126031637191772,-0.0,-0.0,-1.0,0.118439878531757,2.0,1.0
28.401851654052734,-13.663623809814451,0.0061841011047363,-0.0,-0.0,-1.0,0.020359823652233,1.0,1.0
28.176740646362305,-13.507040023803713,0.0058872699737548,-0.0,-0.0,-1.0,0.0684263963751964,2.0,1.0
30.03292465209961,-13.428668975830078,0.1225526332855224,-0.8838565920539114,0.0906116656368382,-0.4588976473391026,0.2297268453615461,9.0,1.0
28.65632438659668,-13.971363067626951,-0.0058530569076538,-0.0,-0.0,-1.0,0.07306335237803,1.0,0.0
28.927825927734375,-14.32795524597168,-0.0225447416305542,-0.0,-0.0,-1.0,0.0150197732677418,2.0,0.0
28.795673370361328,-14.212993621826172,-0.0196061134338378,-0.0,-0.0,-1.0,0.0420829151800944,2.0,0.0
28.475751876831055,-12.110344886779783,-0.0949312448501586,-0.0,-0.0,-1.0,0.0436763213081425,1.0,0.0
29.008148193359375,-12.36534309387207,-0.0942417383193969,-0.0,-0.0,-1.0,0.0416464704858311,2.0,0.0
28.76368522644043,-12.311737060546877,-0.1021525859832763,-0.1396260913902919,-0.9756466275699888,0.1691691837019295,0.0453642107194437,3.0,0.0
28.10981178283691,-12.841915130615234,0.1572672128677368,-0.3333086461772364,-0.2202630415224974,-0.9167276252643184,0.1474393139237322,5.0,1.0
29.538101196289062,-12.570289611816406,-0.0914639234542846,0.0800619626243833,0.1732759018596884,-0.9816137447975368,0.0180185087963553,3.0,0.0
29.23711395263672,-12.475690841674805,-0.0954405069351196,-0.0,-0.0,-1.0,0.0418066732146185,2.0,0.0
28.48627471923828,-12.869409561157228,0.1704162359237671,-0.0818968189532806,-0.991131677558217,0.1046465899395114,0.1888364694276985,6.0,1.0
28.024019241333008,-13.175392150878906,0.1205700635910034,-0.0,-0.0,-1.0,0.2074959510830446,1.0,1.0
30.073606491088867,-12.68525505065918,-0.0801595449447631,-0.0,-0.0,-1.0,0.0377500080383232,1.0,0.0
29.753238677978516,-12.654232025146484,-0.0915884971618652,-0.0,-0.0,-1.0,0.0163133225796568,2.0,0.0
28.48942756652832,-13.994102478027344,0.056090235710144,-0.0,-0.0,-1.0,0.0588904735537997,2.0,1.0
28.125553131103516,-14.011022567749023,0.0406011343002319,-0.0,-0.0,-1.0,0.0159994030699721,2.0,1.0
27.88420295715332,-14.07888126373291,0.0242166519165039,-0.0,-0.0,-1.0,0.0135747364467245,1.0,1.0
30.00035095214844,-13.45469856262207,0.1628321409225464,-0.4185813272813448,-0.2008734013404493,-0.8856859201123762,0.1994992233953229,7.0,1.0
28.586517333984375,-14.307697296142578,0.027122139930725,-0.0,-0.0,-1.0,0.037742552377491,2.0,1.0
29.714466094970703,-11.924915313720703,-0.1060932874679565,0.3085269425536981,-0.4086691635700115,-0.8589532236772,0.0198657446559105,3.0,0.0
29.44998359680176,-11.889801025390623,-0.1095870733261108,0.6495565911010049,-0.6493948553637641,-0.3954270562117849,0.0230725040212811,5.0,0.0
30.017797470092773,-12.082096099853516,-0.124829888343811,0.8050897747829314,-0.2624754783183921,-0.5319182999498134,0.0171519192779503,3.0,0.0
28.177433013916016,-11.869394302368164,0.1403961181640625,-0.3676227685327138,-0.1376704612095504,-0.91972840782847,0.0758449411684867,3.0,1.0
27.834962844848633,-12.494818687438965,0.042486548423767,-0.0,-0.0,-1.0,0.0408484353285754,1.0,1.0
28.14731788635254,-12.694660186767578,0.0244959592819213,-0.0,-0.0,-1.0,0.0983541479792668,1.0,1.0
27.954673767089844,-12.630372047424316,0.0275624990463256,-0.8742364763638785,-0.3499605750048474,0.3365088101924614,0.0741259144658766,3.0,1.0
28.351593017578125,-12.885766983032228,0.0030456781387329,-0.1953010566098125,-0.8621307445853172,-0.4675340378281108,0.1513373973549899,3.0,1.0
28.050735473632812,-13.21913242340088,0.2942757606506347,-0.3540661284739038,-0.2529367906242126,-0.9003666789793059,0.1675123415107866,4.0,1.0
27.85390853881836,-13.358384132385254,0.2768942713737488,-0.5582185153156521,0.6699791351127746,-0.4894078541179409,0.1123251202183311,4.0,1.0
28.649837493896484,-13.179597854614258,-0.032143235206604,-0.0,-0.0,-1.0,0.0622930238556702,1.0,0.0
29.17142868041992,-13.390199661254885,-0.053261399269104,-0.5366611320922663,0.4887792376533048,-0.6878151540497646,0.0289601035641091,3.0,0.0
28.958375930786133,-13.302497863769531,-0.0438635349273681,-0.428481306528408,0.8789862297753062,0.2092533818629973,0.0310440449530063,3.0,0.0
29.84425926208496,-13.43908405303955,-0.0525404214859008,-0.0,-0.0,-1.0,0.1704495331833778,1.0,0.0
29.426916122436523,-13.539434432983398,-0.0721509456634521,0.0981901821231967,0.377473520577275,-0.9207998856416147,0.0147422194556471,3.0,0.0
30.09494400024414,-13.50017547607422,-0.0602692365646362,-0.0,-0.0,-1.0,0.1892693209907652,2.0,0.0
29.96168327331543,-13.380793571472168,0.4360405206680298,-0.8578333973655745,0.4965780586411687,-0.1324088140585975,0.0544587786276861,3.0,1.0
30.189563751220703,-13.42888069152832,0.2704060077667236,-0.918227523278275,-0.130923746622801,0.3737876242794744,0.0643623727214889,3.0,1.0
28.2830753326416,-13.901363372802734,0.06100594997406,-0.0,-0.0,-1.0,0.0301842878331187,1.0,1.0
28.045087814331055,-14.010040283203123,0.0414283275604248,-0.968945532535996,-0.1870028042373057,0.1617853707413578,0.0169380308871884,3.0,1.0
28.627635955810547,-14.18382453918457,0.018510103225708,-0.6641984685945233,0.6112882357209588,0.4303104544231381,0.0569870680240306,3.0,1.0
28.895875930786133,-14.358972549438477,-0.0110400915145874,-0.0,-0.0,-1.0,0.0205342104194883,2.0,0.0
28.49591064453125,-12.891512870788574,0.2163773775100708,-0.4806879063922301,-0.6004153414226616,-0.6390935412226934,0.1348222976548786,4.0,1.0
28.316070556640625,-13.02241325378418,0.1933774948120117,0.4833201208089516,-0.8483555176778679,-0.2160892788796732,0.0812787043630749,3.0,1.0
27.792760848999023,-13.178482055664062,0.1569867134094238,0.3115473067511697,0.9499358318487512,0.0236683549473564,0.1190623548374185,3.0,1.0
28.638607025146484,-12.840985298156738,0.2264645099639892,0.3583058357424721,-0.6980134362681892,-0.6199952990644065,0.1249566596916855,5.0,1.0
28.44081115722656,-13.904216766357422,0.0619356632232666,-0.1118662812054522,-0.2977490128069054,-0.9480672236195998,0.0657793762715214,3.0,1.0
28.75751304626465,-13.829402923583984,0.074897289276123,-0.0,-0.0,-1.0,0.0867453062912546,1.0,1.0
28.542369842529297,-14.010761260986328,0.0458319187164306,-0.0,-0.0,-1.0,0.0716525470627313,2.0,1.0
30.00208282470703,-13.446989059448242,0.1212002038955688,-0.1219314349193363,0.8239219869243756,0.5534304695633415,0.2139435672812017,15.0,1.0
30.05033302307129,-14.22663688659668,-0.0149121284484863,-0.0,-0.0,-1.0,0.0216699411129318,2.0,0.0
29.807695388793945,-14.359130859375,-0.0294690132141113,-0.0,-0.0,-1.0,0.0173867564492926,2.0,0.0
29.9536075592041,-14.333026885986328,-0.0298600196838378,-0.0,-0.0,-1.0,0.0182740000842578,2.0,0.0
29.99103546142578,-13.339488983154297,0.4242578744888305,-0.6995516042203387,0.7129446983678861,-0.0483467693013176,0.0539094365324049,3.0,1.0
30.04888153076172,-13.24514389038086,0.7131206393241882,-0.5175088610809835,0.8518045081361748,0.0813244036040392,0.0986011408251806,3.0,1.0
28.56684684753418,-11.991374969482422,-0.1507779359817505,-0.0,-0.0,-1.0,0.0443502389924132,1.0,0.0
29.471927642822266,-12.103797912597656,-0.0710209608078002,-0.7620957814014034,-0.2065356388146501,0.613639185409153,0.0272107053186206,3.0,0.0
29.29432678222656,-12.010539054870604,-0.0747511386871337,-0.0,-0.0,-1.0,0.0126746152408622,1.0,0.0
28.795948028564453,-12.175262451171877,-0.1538670063018798,-0.0,-0.0,-1.0,0.0540302983269369,1.0,0.0
29.737041473388672,-12.239776611328123,-0.0665663480758667,-0.0,-0.0,-1.0,0.0142385230907103,1.0,0.0
30.00996208190918,-12.41877555847168,-0.0699822902679443,-0.0,-0.0,-1.0,0.0218134974726103,2.0,0.0
28.20388412475586,-11.953362464904783,0.0749485492706298,0.7424432815059978,0.2837662728017841,-0.6068399098335484,0.0924787920400763,3.0,1.0
28.108312606811523,-12.681106567382812,-0.0284616947174072,-0.0,-0.0,-1.0,0.0849158054043332,1.0,0.0
27.896745681762695,-12.65018081665039,-0.0451741218566894,-0.0,-0.0,-1.0,0.0572703250649013,1.0,0.0
28.566890716552734,-12.951260566711426,0.1176502704620361,-0.0,-0.0,-1.0,0.2331050624048649,1.0,1.0
28.35740852355957,-12.95310878753662,0.1024284362792968,0.489219204146455,-0.6370222145147876,-0.5957073681842329,0.102755916955043,3.0,1.0
27.996994018554688,-13.234405517578123,0.1895468235015869,0.268982803153665,-0.1406727816298514,-0.9528165721250426,0.154890305470188,3.0,1.0
28.891752243041992,-13.161805152893066,-0.0227560997009277,-0.3483240834929624,0.6945451498480684,-0.6295056534148935,0.0242281957616609,3.0,0.0
29.283397674560547,-13.415653228759766,-0.0229039192199707,-0.0,-0.0,-1.0,0.0208260934802695,1.0,0.0
29.139558792114254,-13.25949478149414,-0.0139086246490478,-0.0,-0.0,-1.0,0.0246688084372419,1.0,0.0
27.913837432861328,-14.19283390045166,0.0820386409759521,-0.0,-0.0,-1.0,0.0116251716052499,1.0,1.0
29.964109420776367,-13.49822235107422,0.1606245040893554,-0.0,-0.0,-1.0,0.2372353423798107,1.0,1.0
29.57575798034668,-13.73835563659668,-0.043026328086853,-0.0,-0.0,-1.0,0.0192962551118905,1.0,0.0
30.17673110961914,-13.890546798706056,-0.0171895027160644,-0.0,-0.0,-1.0,0.0273301069142839,1.0,0.0
27.748430252075195,-13.101335525512695,-0.0067152976989746,-0.0,-0.0,-1.0,0.0636484573454455,1.0,0.0
28.38237762451172,-12.901063919067385,0.0183936357498168,0.0735571325126241,-0.8801147171261946,-0.4690281792754017,0.1803292007178011,4.0,1.0
28.180683135986328,-12.888648986816406,0.0280482769012451,-0.0,-0.0,-1.0,0.1316924387523353,1.0,1.0
27.73581314086914,-12.829792022705078,0.0519212484359741,-0.0,-0.0,-1.0,0.0429800589215839,1.0,1.0
30.189132690429688,-12.660870552062988,-0.0463262796401977,-0.0,-0.0,-1.0,0.0314091762121309,1.0,0.0
29.80145263671875,-12.91694450378418,-0.0729399919509887,-0.0,-0.0,-1.0,0.0212252553261359,1.0,0.0
29.59856414794922,-12.99663543701172,-0.0751677751541137,-0.0,-0.0,-1.0,0.0173575292288414,1.0,0.0
28.94505500793457,-13.174033164978027,-0.0718889236450195,-0.0,-0.0,-1.0,0.0281579194928371,2.0,0.0
28.61613655090332,-13.094600677490234,0.0973705053329467,-0.0,-0.0,-1.0,0.0988491469621539,1.0,1.0
28.428064346313477,-13.205560684204102,0.2192977666854858,-0.0,-0.0,-1.0,0.133219767662643,1.0,1.0
29.40188217163086,-13.104848861694336,-0.0861333608627319,-0.0,-0.0,-1.0,0.0147594607228829,1.0,0.0
29.08781623840332,-13.166346549987791,-0.0790549516677856,-0.0,-0.0,-1.0,0.0204375359572584,1.0,0.0
28.84585189819336,-13.203269958496094,-0.0729221105575561,-0.0,-0.0,-1.0,0.0198850690939357,2.0,0.0
28.204158782958984,-13.42057991027832,0.1901512145996093,-0.0,-0.0,-1.0,0.083800548323404,1.0,1.0
28.035364151000977,-13.546991348266602,0.1747888326644897,-0.0,-0.0,-1.0,0.0853575332855663,1.0,1.0
30.128501892089844,-13.534067153930664,0.0113916397094726,-0.0,-0.0,-1.0,0.229235943153099,2.0,1.0
28.628063201904297,-14.02740478515625,0.044175386428833,-0.0,-0.0,-1.0,0.0731116527431392,2.0,1.0
29.91129493713379,-13.959515571594238,-0.0549887418746948,-0.0,-0.0,-1.0,0.0300679703238448,1.0,0.0
29.67923164367676,-14.065351486206056,-0.0534565448760986,-0.0,-0.0,-1.0,0.0178648911188307,2.0,0.0
29.296831130981445,-14.17178726196289,-0.0393000841140747,-0.0,-0.0,-1.0,0.0088290885151752,1.0,0.0
28.88062858581543,-14.186139106750488,-0.0070748329162597,-0.0,-0.0,-1.0,0.0279358248463609,1.0,0.0
28.4300479888916,-14.268657684326172,0.0097371339797973,-0.0,-0.0,-1.0,0.0281857541062285,1.0,1.0
28.196258544921875,-14.346087455749512,0.0100166797637939,-0.0,-0.0,-1.0,0.0074404695470152,1.0,1.0
30.130510330200195,-13.482177734375,0.284258484840393,-0.0,-0.0,-1.0,0.0634921662646372,1.0,1.0
30.11467933654785,-13.482833862304688,0.5453786849975586,-0.0,-0.0,-1.0,0.0997134345126195,1.0,1.0
28.03997802734375,-12.190706253051758,-0.1157630681991577,-0.0,-0.0,-1.0,0.0580576671113403,1.0,0.0
27.814716339111328,-12.812591552734377,0.0370317697525024,-0.0,-0.0,-1.0,0.0338676605374587,1.0,1.0
30.17769432067871,-12.617961883544922,-0.1415790319442749,-0.0,-0.0,-1.0,0.0292742090649962,1.0,0.0
30.009538650512695,-12.547739028930664,-0.1432656049728393,-0.0,-0.0,-1.0,0.0359514250400436,1.0,0.0
30.062652587890625,-14.052202224731444,-0.1020352840423584,-0.0,-0.0,-1.0,0.0255545191498009,1.0,0.0
29.78964614868164,-14.02726936340332,-0.1210395097732544,-0.0,-0.0,-1.0,0.0245830851472534,1.0,0.0
29.9573974609375,-13.382129669189451,-0.0124368667602539,-0.9756291538416612,0.2123152389974431,0.05540752172461,0.2653496284209845,5.0,0.0
29.95322036743164,-13.176368713378906,0.5691671371459961,-0.0,-0.0,-1.0,0.0715218074342283,1.0,1.0
29.389915466308594,-12.05747413635254,-0.1340757608413696,-0.0,-0.0,-1.0,0.0154186296657421,2.0,0.0
29.18507194519043,-12.045644760131836,-0.1425613164901733,-0.0,-0.0,-1.0,0.0425985130919272,2.0,0.0
28.85260772705078,-11.945783615112305,-0.1439915895462036,-0.0,-0.0,-1.0,0.0425987886625417,1.0,0.0
28.917821884155273,-13.378384590148926,-0.0877320766448974,-0.0,-0.0,-1.0,0.0234951053070379,1.0,0.0
28.662988662719727,-13.130796432495115,-0.0652847290039062,-0.0,-0.0,-1.0,0.0690166340985247,1.0,0.0
28.56264305114746,-13.136238098144531,-0.0720441341400146,-0.0,-0.0,-1.0,0.071759095729827,1.0,0.0
29.33500099182129,-13.407181739807127,-0.0003106594085693,-0.0,-0.0,-1.0,0.0136188193224824,1.0,0.0
29.07017517089844,-13.27658462524414,0.0196895599365234,-0.0,-0.0,-1.0,0.0264816186308729,2.0,1.0
28.716110229492188,-13.206497192382812,0.0316277742385864,-0.0,-0.0,-1.0,0.0524258572099694,1.0,1.0
28.50008201599121,-12.96074676513672,0.0624653100967407,-0.0,-0.0,-1.0,0.2523138127822917,1.0,1.0
28.44584274291992,-13.1326322555542,0.0415093898773193,-0.0,-0.0,-1.0,0.1690542643662238,1.0,1.0
28.022274017333984,-12.57777976989746,0.0997754335403442,-0.0,-0.0,-1.0,0.0809285345434205,1.0,1.0
29.83196258544922,-13.339982986450195,-0.0146857500076293,-0.0,-0.0,-1.0,0.1662609886355786,1.0,0.0
29.617835998535156,-13.961946487426758,-0.0092300176620483,-0.0,-0.0,-1.0,0.0202416370254772,1.0,0.0
29.814849853515625,-13.812576293945312,-0.0190579891204834,-0.0,-0.0,-1.0,0.0580977564968407,1.0,0.0
28.270671844482425,-12.762103080749512,0.0349996089935302,-0.0,-0.0,-1.0,0.1247539547853364,2.0,1.0
29.76056671142578,-12.882102012634276,-0.1669696569442749,-0.0,-0.0,-1.0,0.0133270373103668,1.0,0.0
29.87065315246582,-13.290604591369627,-0.1706262826919555,-0.0,-0.0,-1.0,0.059224778166601,1.0,0.0
29.894174575805664,-13.5548677444458,-0.1664237976074218,-0.0,-0.0,-1.0,0.0631921503358646,1.0,0.0
29.957921981811523,-14.007760047912598,-0.1624329090118408,-0.0,-0.0,-1.0,0.0288757055050456,1.0,0.0
28.04051971435547,-12.88514232635498,0.0927999019622802,0.7058312756768439,-0.1262358306165426,-0.6970414086300403,0.0794287000674422,4.0,1.0
29.813270568847656,-14.347229957580566,-0.0647875070571899,-0.8775706000604563,0.4789029770820505,0.022842514123442,0.0194224254161048,3.0,0.0
28.16481590270996,-12.79356861114502,0.0829073190689086,-0.5475496182914635,0.467990582386502,-0.6936672331214837,0.2450033137519576,6.0,1.0
28.391557693481445,-12.917803764343262,0.0631557703018188,0.5027807941536492,-0.7707492894762215,-0.3913527894395611,0.1196486472101799,3.0,1.0
29.967594146728516,-14.077826499938965,-0.0766521692276001,-0.0,-0.0,-1.0,0.0258228870543046,2.0,0.0
29.890953063964844,-13.481915473937988,-0.067277193069458,-0.0,-0.0,-1.0,0.1717269299120179,2.0,0.0
27.78188133239746,-11.980916023254396,0.0251983404159545,-0.2442594884906694,-0.0606101082549493,-0.9678138855480428,0.0961646138261768,3.0,1.0
28.07294464111328,-12.249056816101074,-0.0058873891830444,-0.0,-0.0,-1.0,0.0593529447573524,2.0,0.0
28.741127014160156,-12.4125337600708,-0.068945288658142,0.2308860185147022,0.772881362441643,-0.5910550279329144,0.0475534805301118,3.0,0.0
28.923046112060547,-12.404343605041504,-0.08524751663208,-0.0,-0.0,-1.0,0.0490825473809456,2.0,0.0
30.04407501220703,-13.451207160949709,0.1486485004425048,0.1979887974821545,0.6804266611329244,0.7055636008830607,0.1459596602993726,8.0,1.0
27.84810256958008,-13.337267875671388,0.2933653593063354,-0.3557298384974628,0.5120401517475265,-0.7818383240804581,0.1123251202183311,3.0,1.0
28.060577392578125,-13.191046714782717,0.2808399796485901,0.125934524316732,-0.5163151474418566,-0.8470886400532192,0.1208096185133732,4.0,1.0
29.96367645263672,-13.409432411193848,0.1344163417816162,-0.8727811516547335,-0.0686020360499247,0.4832668227449945,0.2424017719193853,5.0,1.0
27.94432830810547,-12.695433616638184,0.0176867246627807,-0.0,-0.0,-1.0,0.0742444917148785,1.0,1.0
28.64185333251953,-13.422423362731934,-0.0420595407485961,-0.0,-0.0,-1.0,0.0182051971670431,2.0,0.0
28.82423973083496,-13.513869285583496,-0.0526669025421142,-0.0,-0.0,-1.0,0.0216374176941266,1.0,0.0
28.96414566040039,-13.440043449401855,-0.0533841848373413,-0.0,-0.0,-1.0,0.0219516394291002,2.0,0.0
29.8112850189209,-13.41207790374756,-0.0803966522216796,-0.0,-0.0,-1.0,0.1336274253216356,2.0,0.0
29.805055618286133,-12.80296230316162,-0.0490658283233642,-0.0,-0.0,-1.0,0.0220637054725127,1.0,0.0
30.04531478881836,-13.02782154083252,-0.0689553022384643,0.3943197993765237,0.418792091314334,-0.81800066019058,0.0147544921869677,3.0,0.0
27.876283645629883,-13.495840072631836,0.2668656706809997,-0.0,-0.0,-1.0,0.1763205013684578,1.0,1.0
28.05993270874023,-13.35444450378418,0.2716343998908996,-0.0,-0.0,-1.0,0.1455060749930336,1.0,1.0
30.0489501953125,-13.45931625366211,0.2408298254013061,-0.0,-0.0,-1.0,0.1013632878784258,2.0,1.0
27.81261825561523,-11.991679191589355,0.0181149244308471,-0.0,-0.0,-1.0,0.0957183554255843,2.0,1.0
28.03537368774414,-12.251227378845217,-0.009752869606018,-0.0,-0.0,-1.0,0.0606873418159557,2.0,0.0
28.63868522644043,-12.475991249084473,-0.0577994585037231,-0.0,-0.0,-1.0,0.0227982982901134,2.0,0.0
28.745765686035156,-12.407164573669434,-0.0601123571395874,0.2308860185147022,0.772881362441643,-0.5910550279329144,0.0505490518915131,3.0,0.0
28.867982864379883,-12.48294162750244,-0.0717314481735229,-0.0,-0.0,-1.0,0.0561808607339251,1.0,0.0
29.769466400146484,-11.940400123596191,-0.0953458547592163,0.1636360542479425,0.0541042467832815,-0.9850360258539674,0.0191685906569627,3.0,0.0
29.59981346130371,-12.11403751373291,-0.0947530269622802,-0.0,-0.0,-1.0,0.0242193113587792,1.0,0.0
30.095169067382812,-12.098895072937012,-0.1246986389160156,-0.0,-0.0,-1.0,0.0170368824019119,1.0,0.0
28.06910514831543,-13.258481979370115,0.2966154813766479,0.6718799126910545,0.4614707635823993,-0.57932902333729,0.1904419662678816,4.0,1.0
28.405458450317383,-12.99473762512207,0.2771832942962646,-0.6519600478255455,-0.5438260759176372,-0.5283950181363726,0.1452647086818348,6.0,1.0
29.95674514770508,-13.445981979370115,0.1235487461090087,-0.9371727819458046,0.1626410386388688,0.3086341998716788,0.1623769171624532,10.0,1.0
30.105287551879883,-13.484748840332031,0.1087172031402587,0.3026800721789689,-0.0428051843073241,-0.9521305005628956,0.120155167713283,4.0,1.0
27.906076431274418,-13.342259407043455,0.2636885643005371,0.5311869926449497,0.4033384737360201,-0.7450895613609897,0.0977446850190872,3.0,1.0
28.181550979614254,-13.149527549743652,0.250441312789917,-0.0154229302769936,0.8488334403222382,-0.52843535443078,0.0985186789181572,3.0,1.0
28.4180908203125,-12.968036651611328,0.2395581007003784,-0.6539820732985072,-0.5454695272651301,-0.5241855040244258,0.1248061609483381,5.0,1.0
29.98925018310547,-13.41757869720459,0.0908588171005249,-0.7591424277911727,-0.6362581742937974,-0.1373983623324804,0.1472900133516082,6.0,1.0
30.07262802124023,-13.227581977844238,0.6802855134010315,-0.7886716695503435,-0.116526996856263,-0.6036708181222064,0.0986011408251806,5.0,1.0
29.084819793701172,-13.220937728881836,-0.0558686256408691,-0.0,-0.0,-1.0,0.0240356900970115,2.0,0.0
28.94510269165039,-13.307376861572266,-0.0505480766296386,-0.428481306528408,0.8789862297753062,0.2092533818629973,0.0313203392499657,3.0,0.0
29.227235794067383,-13.182855606079102,-0.0646364688873291,-0.0,-0.0,-1.0,0.01660554210627,1.0,0.0
29.30828857421875,-13.211660385131836,-0.0729016065597534,-0.0,-0.0,-1.0,0.0109634955686582,2.0,0.0
28.052501678466797,-12.686971664428713,0.0586323738098144,-0.0,-0.0,-1.0,0.0972017303717159,1.0,1.0
29.82733917236328,-12.715438842773438,-0.0827524662017822,-0.0,-0.0,-1.0,0.0309081014602325,1.0,0.0
30.204744338989254,-12.339244842529297,-0.0899146795272827,-0.0,-0.0,-1.0,0.014111487715292,1.0,0.0
29.98758316040039,-12.55577278137207,-0.0857059955596923,-0.0,-0.0,-1.0,0.0378500764895881,1.0,0.0
28.730220794677734,-12.911392211914062,-0.0468937158584594,-0.0,-0.0,-1.0,0.1564612739311129,2.0,0.0
28.821285247802734,-12.88184928894043,-0.0542316436767578,-0.0,-0.0,-1.0,0.1860198944413669,1.0,0.0
27.769426345825195,-12.502297401428224,0.0791964530944824,-0.2881837535204031,-0.957143567054852,-0.028745717114123,0.0408484353285754,3.0,1.0
28.09483528137207,-12.607965469360352,0.0393565893173217,-0.0,-0.0,-1.0,0.0684288175122267,1.0,1.0
28.931291580200195,-12.562338829040527,-0.0432466268539428,-0.0,-0.0,-1.0,0.1069231626331878,1.0,0.0
28.753726959228516,-12.831683158874512,-0.0436773300170898,-0.0,-0.0,-1.0,0.2160075109339308,2.0,0.0
29.12251091003418,-12.467381477355955,-0.0567883253097534,0.9226561360684202,0.0339265178029439,0.3841284237921729,0.0553197628030107,4.0,0.0
29.669086456298828,-11.912919998168944,-0.077981948852539,-0.0,-0.0,-1.0,0.0190019867883985,1.0,0.0
29.965476989746097,-13.4535493850708,0.3017287254333496,-0.0,-0.0,-1.0,0.1243078223449999,2.0,1.0
30.199237823486328,-13.472970008850098,0.2787280082702636,-0.0,-0.0,-1.0,0.063227246060082,2.0,1.0
28.84926986694336,-13.612066268920898,-0.0155611038208007,-0.0,-0.0,-1.0,0.050331895586945,2.0,0.0
28.849632263183594,-13.463624000549316,0.0017561912536621,-0.0,-0.0,-1.0,0.0198930592432772,1.0,1.0
29.086580276489254,-13.582967758178713,-0.032227873802185,-0.0,-0.0,-1.0,0.0140431006143839,2.0,0.0
29.458208084106445,-13.507942199707031,-0.0559041500091552,-0.0,-0.0,-1.0,0.0142040673082001,2.0,0.0
29.823707580566406,-13.284939765930176,-0.063437819480896,-0.0,-0.0,-1.0,0.0836394132914375,1.0,0.0
30.08368873596191,-13.048384666442873,-0.06098473072052,0.3438051571050542,0.1853973863391264,-0.9205573437253056,0.0224679249498147,4.0,0.0
27.812782287597656,-13.184059143066406,0.1172817945480346,-0.0,-0.0,-1.0,0.0998737883302346,2.0,1.0
28.13591957092285,-12.815895080566406,0.1360626220703125,-0.5562640811020096,0.7884689466713369,0.2624633159333494,0.2109009003436185,5.0,1.0
28.11688995361328,-12.976813316345217,0.1184606552124023,-0.0425006302018506,-0.9987786455953108,-0.0251974906536722,0.1794132429829655,4.0,1.0
28.43827438354492,-12.91613483428955,0.0998985767364502,-0.0,-0.0,-1.0,0.1173384409999027,1.0,1.0
27.755950927734375,-11.879068374633787,-0.0428053140640258,-0.0,-0.0,-1.0,0.1020202396533407,1.0,0.0
28.110857009887695,-12.880188941955566,0.1694326400756836,-0.4560833616013858,-0.4005607202562502,-0.7946943290713565,0.1295708596646844,4.0,1.0
27.945106506347656,-13.184771537780762,0.1466373205184936,-0.0,-0.0,-1.0,0.178382847584602,1.0,1.0
28.121177673339844,-13.697174072265623,0.0653891563415527,-0.0,-0.0,-1.0,0.032244588492273,1.0,1.0
28.224008560180664,-13.907623291015623,0.0292530059814453,-0.0,-0.0,-1.0,0.0238712800296643,1.0,1.0
28.16468811035156,-12.850841522216797,0.1679528951644897,-0.3039956353924187,-0.1644711085305236,-0.9383687484784968,0.1982814916021806,4.0,1.0
28.57693099975586,-13.727882385253906,0.017990231513977,-0.0,-0.0,-1.0,0.0328990671871888,1.0,1.0
28.349018096923828,-13.878347396850586,0.021113634109497,-0.0,-0.0,-1.0,0.0499739821600951,2.0,1.0
28.64568328857422,-12.972625732421877,0.1053813695907592,-0.0,-0.0,-1.0,0.2028614144931896,1.0,1.0
28.87541961669922,-13.6895112991333,-0.0068756341934204,-0.0,-0.0,-1.0,0.0523950032183523,1.0,0.0
29.31011199951172,-13.602584838867188,-0.0407360792160034,-0.0,-0.0,-1.0,0.0135085221250208,1.0,0.0
29.249753952026367,-13.72303867340088,-0.0492078065872192,-0.0,-0.0,-1.0,0.0110911490098176,1.0,0.0
29.650482177734375,-13.45847988128662,-0.0593334436416626,-0.0,-0.0,-1.0,0.0284948532150016,2.0,0.0
30.075082778930664,-13.027268409729004,-0.0543223619461059,0.3438051571050542,0.1853973863391264,-0.9205573437253056,0.0229927246283168,4.0,0.0
29.91321563720703,-13.24836540222168,-0.0626531839370727,-0.0,-0.0,-1.0,0.0807258628663348,1.0,0.0
30.017868041992188,-13.435545921325684,0.3514356613159179,-0.136566237185374,-0.0561521767006092,-0.9890382176199318,0.1259019015092538,3.0,1.0
27.87075424194336,-13.423236846923828,0.2551707029342651,-0.0,-0.0,-1.0,0.0768886497811135,2.0,1.0
27.730396270751953,-12.306574821472168,0.0562119483947753,-0.0,-0.0,-1.0,0.0228891791042249,2.0,1.0
27.96650123596191,-12.45134449005127,-0.0004791021347045,-0.0,-0.0,-1.0,0.0347502273735244,1.0,0.0
28.08955192565918,-13.253751754760742,0.244971752166748,-0.0,-0.0,-1.0,0.2019852764998435,1.0,1.0
28.391862869262695,-11.923345565795898,0.01127290725708,-0.0,-0.0,-1.0,0.0652187297807789,2.0,1.0
28.148571014404297,-12.407422065734863,-0.0215150117874145,-0.0,-0.0,-1.0,0.0308919302046975,2.0,0.0
28.46512794494629,-12.95723819732666,0.2260888814926147,-0.0,-0.0,-1.0,0.1332409034868668,2.0,1.0
28.362300872802734,-13.053525924682615,0.2298768758773803,-0.0,-0.0,-1.0,0.2279349295113892,1.0,1.0
28.729143142700195,-12.270791053771973,-0.0941075086593627,-0.4699224445444496,-0.4050516092340023,-0.7842869946456554,0.0811010026110446,3.0,0.0
29.11256217956543,-11.869309425354004,-0.1019833087921142,-0.0,-0.0,-1.0,0.0334873489209558,1.0,0.0
28.948253631591797,-12.13141918182373,-0.1106773614883422,-0.0,-0.0,-1.0,0.0814953980210532,1.0,0.0
29.485002517700195,-14.131205558776855,-0.0561205148696899,-0.0,-0.0,-1.0,0.0185979289304752,1.0,0.0
29.928510665893555,-13.46465301513672,-0.0527222156524658,0.2653017607929747,0.2152197807951594,-0.9398379762888022,0.165336152556987,3.0,0.0
29.803512573242188,-13.817094802856444,-0.0709004402160644,-0.0,-0.0,-1.0,0.0279635342951452,1.0,0.0
29.686908721923828,-14.027229309082031,-0.0755301713943481,-0.0,-0.0,-1.0,0.0217677306440325,2.0,0.0
30.161937713623047,-13.307307243347168,-0.0739334821701049,-0.0,-0.0,-1.0,0.1318992574585754,1.0,0.0
29.987974166870117,-13.403783798217772,0.3537601232528686,-0.0249532698405338,-0.2842383949913609,-0.9584288544993834,0.1259019015092538,4.0,1.0
30.030515670776367,-13.401311874389648,0.3477456569671631,-0.1023222373168004,0.0745225734295034,-0.9919559192826708,0.1259019015092538,4.0,1.0
27.761247634887695,-13.130522727966309,0.0572808980941772,-0.0,-0.0,-1.0,0.074826364129839,1.0,1.0
27.86699676513672,-11.953208923339844,-0.0541762113571167,-0.0,-0.0,-1.0,0.1111910886178523,2.0,0.0
28.075719833374023,-12.821228981018066,0.0783075094223022,-0.0,-0.0,-1.0,0.1678291044725488,2.0,1.0
28.29497718811035,-12.834338188171388,0.0526051521301269,-0.0,-0.0,-1.0,0.1047868008045065,2.0,1.0
28.53250312805176,-13.049555778503418,-0.0102055072784423,-0.0,-0.0,-1.0,0.1186885710963183,1.0,0.0
28.71005630493164,-13.163135528564451,-0.0494890213012695,-0.2770342789549148,0.6745524117525354,0.6842741059566467,0.0509232902546335,4.0,0.0
29.03127670288086,-13.065234184265137,-0.0715177059173584,-0.0297825901386184,0.2280903681354248,-0.9731843511321382,0.0177590670204934,3.0,0.0
28.916812896728516,-13.11970329284668,-0.0666382312774658,-0.0,-0.0,-1.0,0.0163177433594127,1.0,0.0
29.389965057373047,-12.890469551086426,-0.0879498720169067,-0.0,-0.0,-1.0,0.0206358734227143,1.0,0.0
29.22213363647461,-13.0405912399292,-0.0909610986709594,-0.0,-0.0,-1.0,0.0128980054220019,1.0,0.0
29.69898223876953,-12.63706398010254,-0.0884804725646972,-0.0,-0.0,-1.0,0.0163133225796568,2.0,0.0
29.965463638305664,-13.45963191986084,0.1209710836410522,-0.4789745470684217,0.6996590588117033,0.5301514733388198,0.1299994983762253,9.0,1.0
30.11168098449707,-12.354043006896973,-0.102330207824707,-0.0,-0.0,-1.0,0.0124386734900613,1.0,0.0
29.94861602783203,-12.483354568481444,-0.098920464515686,-0.0,-0.0,-1.0,0.0246623783615269,2.0,0.0
30.151634216308594,-13.508939743041992,0.0923547744750976,-0.6448411063140618,0.5440753799907939,-0.5368071613675902,0.1574882671457728,4.0,1.0
27.79823875427246,-13.484529495239258,0.3435856103897095,-0.0,-0.0,-1.0,0.1132118721392374,2.0,1.0
28.21272850036621,-13.192249298095703,0.3454065322875976,-0.0,-0.0,-1.0,0.0910059676801123,2.0,1.0
28.034961700439453,-13.310953140258787,0.3460220098495483,-0.0,-0.0,-1.0,0.13853555469395,2.0,1.0
29.985321044921875,-13.37619972229004,0.4989755153656006,-0.9311555416098672,-0.1682795516113618,0.3234676952011029,0.0936283178420762,4.0,1.0
27.795879364013672,-14.012556076049805,0.0465220212936401,-0.0,-0.0,-1.0,0.0119873008251361,1.0,1.0
27.984647750854492,-11.877237319946287,0.0377954244613647,-0.0,-0.0,-1.0,0.0448683648400016,2.0,1.0
27.905031204223633,-12.477790832519531,0.0449755191802978,-0.0,-0.0,-1.0,0.0401930356603498,1.0,1.0
28.020349502563477,-12.588778495788574,0.0094661712646484,-0.0,-0.0,-1.0,0.0754481457824914,1.0,1.0
28.053936004638672,-13.271467208862305,0.165097951889038,-0.0,-0.0,-1.0,0.1732858539007011,2.0,1.0
28.17783546447754,-13.948741912841797,0.0290360450744628,-0.0,-0.0,-1.0,0.022287914348478,1.0,1.0
28.385269165039062,-12.620742797851562,-0.0339702367782592,-0.0,-0.0,-1.0,0.0100358724182029,2.0,0.0
28.378332138061523,-13.017681121826172,0.1839702129364013,-0.0,-0.0,-1.0,0.0860192220752683,1.0,1.0
28.5914363861084,-13.88331413269043,0.0059103965759277,-0.0,-0.0,-1.0,0.0752252361557008,1.0,1.0
28.793352127075195,-12.580192565917969,-0.0701375007629394,-0.0,-0.0,-1.0,0.0886526773838362,2.0,0.0
28.6730899810791,-12.89932632446289,0.1778985261917114,-0.0,-0.0,-1.0,0.1761081950761676,2.0,1.0
29.135454177856445,-13.922042846679688,-0.052498459815979,-0.0,-0.0,-1.0,0.0255955638019826,2.0,0.0
29.1870059967041,-12.435800552368164,-0.0873562097549438,-0.0,-0.0,-1.0,0.0456167124880952,1.0,0.0
29.45746803283691,-13.862180709838867,-0.0749034881591796,-0.0,-0.0,-1.0,0.0169826650369677,1.0,0.0
29.309404373168945,-13.917387008666992,-0.0693112611770629,-0.0,-0.0,-1.0,0.0127532805209424,1.0,0.0
29.58578109741211,-12.199273109436035,-0.0915415287017822,-0.0,-0.0,-1.0,0.0191990986073015,2.0,0.0
29.39031219482422,-12.307750701904297,-0.0869872570037841,-0.0,-0.0,-1.0,0.016415146407287,2.0,0.0
29.77331161499023,-13.653623580932615,-0.0727362632751464,-0.0,-0.0,-1.0,0.1088512626768254,1.0,0.0
29.931039810180664,-12.044204711914062,-0.1100213527679443,-0.0,-0.0,-1.0,0.0177031596365509,1.0,0.0
29.99283790588379,-13.388153076171877,-0.0518887042999267,-0.0,-0.0,-1.0,0.1677894148428689,2.0,0.0
30.17389678955078,-13.415775299072266,-0.078517198562622,-0.0,-0.0,-1.0,0.2012808823090674,1.0,0.0
28.562740325927734,-12.858465194702148,0.1959224939346313,0.364141258536848,-0.8669721539378324,-0.3402358419208593,0.161555177549324,5.0,1.0
28.76714324951172,-12.732150077819824,0.1986709833145141,-0.1264856571487533,-0.4273512302237857,-0.89519400386836,0.0569656009060442,4.0,1.0
30.09225082397461,-13.42690658569336,0.2656846046447754,-0.0,-0.0,-1.0,0.0888763436221245,2.0,1.0
30.009254455566406,-13.315027236938477,0.6172890663146973,-0.4968869495256571,0.0742731670548698,-0.8646310519792395,0.0986011408251806,4.0,1.0
27.88911819458008,-12.562616348266602,0.025736927986145,-0.0,-0.0,-1.0,0.0466985579343183,2.0,1.0
27.948827743530273,-12.644224166870115,-0.0020310878753662,-0.0,-0.0,-1.0,0.0686281368665752,2.0,0.0
27.8386173248291,-13.267145156860352,0.1191805601119995,-0.0,-0.0,-1.0,0.1572249512395211,2.0,1.0
28.017276763916016,-13.58095359802246,0.0322444438934326,-0.0,-0.0,-1.0,0.0847311876456238,1.0,1.0
28.131946563720703,-11.95330810546875,0.1523041725158691,-0.0,-0.0,-1.0,0.1034253266785782,1.0,1.0
28.301637649536133,-12.542783737182615,-0.0184478759765625,-0.0,-0.0,-1.0,0.0173983110093441,2.0,0.0
28.17559051513672,-12.772876739501951,0.0688204765319824,0.0859650345267082,0.3725902629412124,-0.9240056865627072,0.2188608795576961,5.0,1.0
28.10826873779297,-13.316513061523438,0.0820698738098144,-0.0,-0.0,-1.0,0.2012037100884034,1.0,1.0
28.33416748046875,-13.577472686767578,0.0008143186569213,-0.0,-0.0,-1.0,0.0537411029640463,1.0,1.0
28.752042770385746,-12.533361434936523,-0.0769175291061401,-0.0,-0.0,-1.0,0.0494673643921499,1.0,0.0
28.722759246826172,-12.70734977722168,0.0165972709655761,-0.0,-0.0,-1.0,0.1151141503141697,1.0,1.0
28.665802001953125,-13.511381149291992,-0.0214967727661132,-0.0,-0.0,-1.0,0.0382774109518236,2.0,0.0
29.094594955444336,-12.4180326461792,-0.1000623703002929,-0.0,-0.0,-1.0,0.04901237708871,2.0,0.0
29.18197250366211,-13.336149215698242,-0.0473297834396362,-0.0,-0.0,-1.0,0.0268209224898081,1.0,0.0
28.98359107971191,-13.512603759765623,-0.0596433877944946,0.6158865719235049,-0.135523283938053,-0.776090954743682,0.0260229921483256,3.0,0.0
29.552894592285156,-12.155174255371094,-0.1134004592895507,-0.0,-0.0,-1.0,0.0246576775020963,1.0,0.0
29.351083755493164,-12.287376403808594,-0.1099026203155517,-0.0,-0.0,-1.0,0.0145654696903541,2.0,0.0
29.51339340209961,-13.288698196411133,-0.0823792219161987,-0.0,-0.0,-1.0,0.0191132651502755,2.0,0.0
29.862464904785156,-11.968961715698242,-0.126846432685852,-0.0,-0.0,-1.0,0.0211193119926605,2.0,0.0
30.000682830810547,-12.91851043701172,-0.0786395072937011,-0.0,-0.0,-1.0,0.021599935875759,1.0,0.0
29.82701301574707,-13.09013557434082,-0.0867296457290649,-0.0,-0.0,-1.0,0.0249019977331764,1.0,0.0
29.958650588989254,-13.532270431518556,0.1073981523513794,-0.0,-0.0,-1.0,0.2031882733209332,2.0,1.0
30.14768409729004,-11.866573333740234,-0.1584043502807617,-0.0,-0.0,-1.0,0.0151130510754205,2.0,0.0
30.198253631591797,-14.269203186035156,-0.0502172708511352,-0.0,-0.0,-1.0,0.0219240583072152,1.0,0.0
28.264551162719727,-13.222526550292969,0.3549842834472656,-0.0,-0.0,-1.0,0.094190966672448,1.0,1.0
29.973772048950195,-13.48289966583252,0.411535382270813,-0.0,-0.0,-1.0,0.1192008599269708,1.0,1.0
27.85882568359375,-13.27816104888916,0.1112027168273925,-0.0,-0.0,-1.0,0.1573789075836811,2.0,1.0
27.86024284362793,-13.587335586547852,0.0313701629638671,-0.0,-0.0,-1.0,0.0982097048288952,1.0,1.0
28.17202377319336,-13.405553817749023,0.0428346395492553,-0.0,-0.0,-1.0,0.1446605741461638,2.0,1.0
28.21735954284668,-13.573663711547852,-0.0056661367416381,-0.0,-0.0,-1.0,0.0687779513647179,1.0,0.0
28.810468673706055,-12.717767715454102,0.1258035898208618,-0.6355650906657911,-0.5296489224536781,-0.5617197116628911,0.075743948391028,6.0,1.0
28.659852981567383,-12.775789260864258,0.1344803571701049,0.3580624998827937,0.7407334439685681,-0.5684234435384846,0.0924659594937294,3.0,1.0
28.690244674682617,-13.448196411132812,-0.035099983215332,-0.0,-0.0,-1.0,0.0180991001819514,1.0,0.0
28.47025680541992,-13.54875373840332,-0.0305899381637573,-0.0,-0.0,-1.0,0.0106754890507908,2.0,0.0
28.566164016723633,-14.32526969909668,0.0399219989776611,-0.7059844883547188,0.3844598325447109,-0.5947911729020686,0.037742552377491,3.0,1.0
29.011749267578125,-13.393884658813477,-0.0681533813476562,-0.0,-0.0,-1.0,0.0237034543218015,1.0,0.0
29.551910400390625,-13.172192573547363,-0.1017069816589355,-0.0,-0.0,-1.0,0.0138713942624493,1.0,0.0
29.292543411254883,-13.293619155883787,-0.0870692729949951,-0.8772454462480436,0.4799942541469739,0.0067781282785853,0.0167507006359475,3.0,0.0
30.04024887084961,-12.787171363830566,-0.1026840209960937,-0.0,-0.0,-1.0,0.0336812465818566,1.0,0.0
29.819570541381836,-12.991086959838867,-0.1067044734954834,-0.0,-0.0,-1.0,0.0185639534090081,1.0,0.0
30.03774642944336,-13.405281066894531,0.0340253114700317,-0.0,-0.0,-1.0,0.1482342150108204,2.0,1.0
29.841569900512695,-14.12473964691162,-0.0797433853149414,-0.0,-0.0,-1.0,0.0294680620466461,1.0,0.0
29.60707092285156,-14.2365083694458,-0.0698509216308593,-0.8808479878209677,0.4723705967073697,0.0311904106750108,0.0174475265633478,3.0,0.0
30.082515716552734,-13.971990585327148,-0.0845810174942016,-0.0,-0.0,-1.0,0.0342239192349529,1.0,0.0
27.921960830688477,-13.38911247253418,0.3135946989059448,-0.0,-0.0,-1.0,0.0898644062813274,1.0,1.0
28.49114227294922,-13.02021598815918,0.3308699131011963,-0.0,-0.0,-1.0,0.1120727105554089,1.0,1.0
28.24765396118164,-13.17850112915039,0.324869155883789,-0.0,-0.0,-1.0,0.1235929959127063,2.0,1.0
30.046215057373047,-13.36246395111084,0.3082541227340698,-0.0,-0.0,-1.0,0.0944331876594314,2.0,1.0
30.05430793762207,-13.276617050170898,0.5820411443710327,-0.0,-0.0,-1.0,0.0986011408251806,1.0,1.0
27.835693359375,-13.96993923187256,0.0261250734329223,-0.0,-0.0,-1.0,0.0124922089551302,1.0,1.0
28.43367576599121,-13.725961685180664,-0.0020122528076171,-0.0,-0.0,-1.0,0.0259423698628466,2.0,0.0
28.165754318237305,-13.889663696289062,-0.0014624595642089,-0.0,-0.0,-1.0,0.0219656549062123,1.0,0.0
28.698894500732425,-13.63620376586914,-0.0252798795700073,-0.0,-0.0,-1.0,0.048781855597328,1.0,0.0
29.464242935180664,-13.276206016540527,-0.0866981744766235,-0.0,-0.0,-1.0,0.0157247657281139,1.0,0.0
29.232065200805664,-13.382555961608888,-0.0644105672836303,-0.0,-0.0,-1.0,0.025042662800561,1.0,0.0
30.113773345947266,-12.56574821472168,-0.0773106813430786,-0.0,-0.0,-1.0,0.0260671676883691,2.0,0.0
29.875608444213867,-12.851741790771484,-0.0818982124328613,-0.0,-0.0,-1.0,0.0202192856378796,2.0,0.0
29.60682678222656,-13.120878219604492,-0.0814872980117797,-0.0,-0.0,-1.0,0.017794447393828,1.0,0.0
29.56733131408691,-14.15158462524414,-0.0523287057876586,-0.0,-0.0,-1.0,0.0188512768426763,1.0,0.0
29.31757926940918,-14.311389923095703,-0.0439577102661132,-0.0,-0.0,-1.0,0.0085611463806371,1.0,0.0
30.035118103027344,-13.799785614013672,-0.0658658742904663,-0.0,-0.0,-1.0,0.059674434160155,1.0,0.0
29.808046340942383,-14.02552604675293,-0.06927490234375,-0.0,-0.0,-1.0,0.0255063537766481,1.0,0.0
28.020288467407227,-13.23005485534668,0.1954805850982666,0.4352263209490376,-0.3754170618707348,-0.8183153910378999,0.1291291950021958,4.0,1.0
27.91353988647461,-13.406522750854492,0.3750064373016357,-0.0,-0.0,-1.0,0.0838895585734979,2.0,1.0
28.83142471313477,-12.667234420776367,0.1881150007247924,-0.0,-0.0,-1.0,0.0722974125389227,1.0,1.0
28.607465744018555,-12.84759521484375,0.1885286569595337,0.2918294547161654,-0.8923790298869563,-0.3442313704154233,0.1079495067438724,5.0,1.0
28.44427490234375,-13.01115894317627,0.1787675619125366,-0.0,-0.0,-1.0,0.1075469609107652,1.0,1.0
28.23861312866211,-13.61574935913086,0.0591152906417846,-0.0,-0.0,-1.0,0.0730244682660781,2.0,1.0
28.926374435424805,-12.87344741821289,0.1196180582046508,-0.0,-0.0,-1.0,0.1728441932592932,1.0,1.0
30.04034423828125,-13.451683044433594,0.1266720294952392,-0.0495596727704593,0.8356409328105785,0.5470357120393061,0.1595473418817144,8.0,1.0
29.980506896972656,-13.570051193237305,-0.0093532800674438,-0.0,-0.0,-1.0,0.2693305186355918,1.0,0.0
29.98812484741211,-13.339577674865724,0.5192861557006836,-0.8797046882808278,0.2803616431946016,-0.3840794324641117,0.0669543547337453,3.0,1.0
29.118745803833008,-12.665218353271484,-0.1183058023452758,-0.0,-0.0,-1.0,0.036391845963481,1.0,0.0
29.139110565185547,-12.72809600830078,-0.1264787912368774,-0.0,-0.0,-1.0,0.0306949289443486,1.0,0.0
29.93401336669922,-12.11863136291504,-0.1154407262802124,-0.1998262797263303,-0.0642586188295037,-0.9777219890320862,0.0188942274847089,3.0,0.0
29.92729949951172,-12.416414260864258,-0.1166250705718994,-0.0,-0.0,-1.0,0.0260472324144215,2.0,0.0
29.884788513183594,-12.263724327087402,-0.1023128032684326,-0.7109495370733969,0.220525943774853,-0.6677717153768443,0.0140143863973598,3.0,0.0
29.886638641357425,-12.360437393188477,-0.1040459871292114,-0.0,-0.0,-1.0,0.0181025879804467,1.0,0.0
29.28141975402832,-12.565773963928224,-0.1160740852355957,-0.0,-0.0,-1.0,0.0411471483062836,1.0,0.0
29.30799102783203,-12.666501998901367,-0.1202867031097412,-0.0,-0.0,-1.0,0.0301721391494728,1.0,0.0
30.169734954833984,-12.154610633850098,-0.1227555274963378,-0.0,-0.0,-1.0,0.0125188423665996,1.0,0.0
30.172317504882812,-12.39263153076172,-0.1134414672851562,-0.0,-0.0,-1.0,0.0170185930361138,2.0,0.0
29.10584831237793,-13.330538749694824,-0.0590190887451171,-0.0,-0.0,-1.0,0.0263655713971791,1.0,0.0
29.08831024169922,-13.560404777526855,-0.0458171367645263,0.141357793567148,-0.5186821435997309,-0.8432003368764838,0.0198731391281804,3.0,0.0
29.99812889099121,-12.735702514648438,-0.0581274032592773,-0.4509893307306329,-0.222493419157242,-0.8643525334022313,0.0308571633730169,3.0,0.0
30.03920555114746,-12.961015701293944,-0.0605418682098388,-0.0,-0.0,-1.0,0.0149773161582503,1.0,0.0
30.0709171295166,-13.071369171142578,-0.0656452178955078,-0.7249974098204855,0.3249959107178901,-0.6072531710664313,0.0224679249498147,4.0,0.0
