x,y,z,nx,ny,nz,curvature,density,label
41.97689056396485,-0.506561279296875,-0.930274486541748,-0.0,-0.0,-1.0,0.0916000761176504,1.0,0.0
41.9201545715332,-1.022817611694336,-0.9944403171539308,-0.0,-0.0,-1.0,0.0676996715956811,2.0,0.0
41.811248779296875,-1.4876813888549805,-1.0578091144561768,-0.0,-0.0,-1.0,0.0407094809357656,1.0,0.0
41.998924255371094,-1.6359825134277344,-1.058711051940918,-0.0,-0.0,-1.0,0.0478363463866744,1.0,0.0
42.57106018066406,-0.989084243774414,-0.933375597000122,-0.0,-0.0,-1.0,0.1632409547724417,2.0,0.0
42.40401077270508,-1.7276792526245115,-1.035081386566162,0.2137883166293298,-0.7721344202991273,-0.5984170725022205,0.1034620473307636,5.0,0.0
42.69203567504883,-1.7423763275146484,-1.0130643844604492,-0.0,-0.0,-1.0,0.0790161960364571,1.0,0.0
40.31546401977539,-0.1132936477661132,-1.0565953254699707,-0.0,-0.0,-1.0,0.0241476748114075,1.0,0.0
40.67888641357422,-0.3780679702758789,-1.0536093711853027,-0.0,-0.0,-1.0,0.0184186265362242,2.0,0.0
40.4541015625,-0.3395452499389648,-1.0699944496154783,-0.0,-0.0,-1.0,0.01449907961201,2.0,0.0
41.30696868896485,-0.2952327728271484,-0.986402988433838,-0.0,-0.0,-1.0,0.0251303094588128,2.0,0.0
40.988525390625,-0.388279914855957,-1.0264251232147217,-0.0,-0.0,-1.0,0.028080240364164,1.0,0.0
41.800987243652344,-0.2650823593139648,-0.939340591430664,-0.0,-0.0,-1.0,0.090737065644272,1.0,0.0
41.50115585327149,-0.3386440277099609,-0.9745745658874512,0.5035665622924395,0.4329529516124935,-0.7476446074379223,0.1014736603597314,3.0,0.0
41.892852783203125,-0.36376953125,-0.9438412189483644,-0.0,-0.0,-1.0,0.073428080728994,2.0,0.0
42.01045227050781,-0.5661048889160156,-0.9595608711242676,-0.0,-0.0,-1.0,0.099545386601543,1.0,0.0
42.089088439941406,-0.8808078765869141,-0.9932739734649658,-0.0,-0.0,-1.0,0.0600781994474187,1.0,0.0
42.10249328613281,-1.2017669677734375,-1.0336058139801023,-0.0,-0.0,-1.0,0.0734778327854667,1.0,0.0
42.599586486816406,-0.9881410598754884,-0.9668211936950684,-0.6911296316699223,-0.4017135501023914,-0.6008045072167242,0.1429471397938651,3.0,0.0
42.348140716552734,-1.3164796829223633,-1.0293638706207275,-0.0,-0.0,-1.0,0.0286938380781991,1.0,0.0
42.61473846435547,-1.5769424438476562,-1.043452262878418,0.6610485234077592,0.2103663105737044,-0.7202505571507933,0.1407475518265383,3.0,0.0
40.23561096191406,0.2211875915527343,-1.1028693914413452,-0.0,-0.0,-1.0,0.0436908935386144,1.0,0.0
40.4410400390625,0.1353387832641601,-1.093279242515564,-0.0,-0.0,-1.0,0.0629013120771349,2.0,0.0
40.77177429199219,-0.0595951080322265,-1.0861862897872925,-0.0,-0.0,-1.0,0.0247572445039612,1.0,0.0
40.58511734008789,0.0199451446533203,-1.09390127658844,0.4901256115902377,-0.6636888655441273,-0.5650610361863969,0.027437391821605,3.0,0.0
41.506126403808594,-0.0851306915283203,-1.020837664604187,-0.9130779738651162,-0.3232363450456993,0.2486098929726486,0.1348243318857233,4.0,0.0
41.12972640991211,-0.1402883529663086,-1.062909722328186,-0.0,-0.0,-1.0,0.0420410701649942,2.0,0.0
41.903507232666016,-0.236154556274414,-1.005834937095642,-0.0,-0.0,-1.0,0.0559756989872681,1.0,0.0
41.752960205078125,-0.1743593215942382,-1.0107358694076538,-0.0,-0.0,-1.0,0.0930647146811202,1.0,0.0
42.030662536621094,-0.3865890502929687,-1.015466332435608,-0.0,-0.0,-1.0,0.0660558523146824,1.0,0.0
42.06200408935547,-0.608088493347168,-1.0434962511062622,-0.0,-0.0,-1.0,0.0876752260087372,2.0,0.0
42.3962287902832,-0.8187341690063477,-1.0454519987106323,-0.0,-0.0,-1.0,0.0337055694472631,2.0,0.0
42.252708435058594,-0.8299884796142578,-1.0587342977523804,-0.0,-0.0,-1.0,0.0654245628177373,1.0,0.0
42.69748306274414,-1.0447473526000977,-1.0537914037704468,-0.0,-0.0,-1.0,0.1354562975243371,1.0,0.0
42.13272857666016,0.5338764190673828,-1.1795934438705444,-0.0,-0.0,-1.0,0.0209104119359428,1.0,0.0
42.64667892456055,0.1451272964477539,-1.1788450479507446,-0.0,-0.0,-1.0,0.0317580215101798,2.0,0.0
42.45937728881836,0.2867488861083984,-1.1784855127334597,-0.0,-0.0,-1.0,0.0171495876035955,2.0,0.0
40.477664947509766,-0.7593040466308594,-1.0185567140579224,-0.0,-0.0,-1.0,0.0147212887505754,2.0,0.0
40.2892951965332,-0.6097402572631836,-1.0209630727767944,-0.9538468993512343,-0.0377371894148924,-0.2979127340902048,0.0221374922653697,3.0,0.0
40.961917877197266,-0.9593620300292968,-0.9933089017868042,-0.0,-0.0,-1.0,0.0533664324371271,2.0,0.0
40.640525817871094,-0.8614683151245117,-1.0138083696365356,-0.0,-0.0,-1.0,0.0174857171647,2.0,0.0
41.530555725097656,-1.5413789749145508,-1.009555459022522,0.2337204132090312,0.3623801661176883,-0.90225017797389,0.0425169997468863,3.0,0.0
41.87982177734375,-1.8336896896362305,-1.0146592855453491,-0.0,-0.0,-1.0,0.0433577066890659,2.0,0.0
41.71489334106445,-1.777369499206543,-1.0221041440963743,-0.0,-0.0,-1.0,0.0497557091192358,1.0,0.0
41.82326126098633,-0.5000524520874023,-0.8557080030441284,-0.3939684650634189,0.0092378080360092,-0.9190775328764508,0.1166411924639864,3.0,0.0
41.546688079833984,-0.506439208984375,-0.8827773332595825,-0.3557351318089932,-0.6180361794938098,-0.7010590537419319,0.1451011019561687,5.0,0.0
41.04402923583984,-0.8847036361694336,-0.976521134376526,-0.0,-0.0,-1.0,0.1585766351549197,2.0,0.0
42.38935470581055,-1.684682846069336,-0.9521418809890748,-0.0,-0.0,-1.0,0.1327716404116232,2.0,0.0
42.52687072753906,-1.7373476028442385,-0.9473553895950316,-0.0,-0.0,-1.0,0.1142942090348446,2.0,0.0
42.461952209472656,0.2239532470703125,-1.1620848178863523,-0.0,-0.0,-1.0,0.0443268606194081,1.0,0.0
42.11035919189453,0.3280096054077148,-1.1870272159576416,-0.0,-0.0,-1.0,0.0355921270616777,1.0,0.0
41.90390396118164,0.4514837265014648,-1.1929569244384766,-0.0,-0.0,-1.0,0.0370636380949349,1.0,0.0
42.63837814331055,0.0301904678344726,-1.1726486682891846,-0.0,-0.0,-1.0,0.0265407300931735,1.0,0.0
40.55043029785156,-0.8464393615722656,-1.018359899520874,-0.0,-0.0,-1.0,0.0123238489531259,1.0,0.0
40.25785827636719,-0.6917705535888672,-1.0311074256896973,-0.7807256780973851,0.587888708693727,-0.2117882946477463,0.0250542590528285,3.0,0.0
42.35504913330078,-0.8280963897705078,-0.8401901721954346,-0.0,-0.0,-1.0,0.1930646607021459,1.0,0.0
41.937747955322266,-0.9748563766479492,-0.8970613479614258,-0.0,-0.0,-1.0,0.1180963105332858,1.0,0.0
41.4556884765625,-1.1657981872558594,-0.9665591716766356,-0.0,-0.0,-1.0,0.0344830648111008,2.0,0.0
41.061771392822266,-1.186600685119629,-1.0075502395629885,-0.0,-0.0,-1.0,0.0936556172378825,2.0,0.0
40.73711395263672,-0.998952865600586,-1.0173962116241455,-0.0,-0.0,-1.0,0.0890515461008698,2.0,0.0
41.54215240478515,-1.301860809326172,-0.97533917427063,-0.0,-0.0,-1.0,0.0192502529422531,1.0,0.0
41.22955322265625,-1.288095474243164,-1.0035624504089355,-0.3771909718916003,-0.2268678307910956,-0.8979186812154054,0.046601750965344,4.0,0.0
42.01537322998047,-1.855452537536621,-1.002427101135254,-0.0924164946159608,-0.6271144229371565,-0.7734252983107647,0.1002108082352843,3.0,0.0
40.6450080871582,0.5267486572265625,-1.1366809606552124,-0.0,-0.0,-1.0,0.088530684978517,2.0,0.0
41.93572616577149,0.1397991180419922,-1.0560203790664673,-0.8993609259537326,0.047769495487743,-0.434589461639938,0.0776895658672753,3.0,0.0
41.487586975097656,0.0697517395019531,-1.111876368522644,-0.0,-0.0,-1.0,0.0314920316402276,1.0,0.0
41.104305267333984,0.1652498245239257,-1.1380292177200315,-0.0,-0.0,-1.0,0.0680031590308829,1.0,0.0
40.83650207519531,0.3506336212158203,-1.140295386314392,-0.0,-0.0,-1.0,0.0804218671511265,2.0,0.0
42.4983024597168,-0.390268325805664,-1.0856715440750122,-0.0,-0.0,-1.0,0.0130962878338704,1.0,0.0
42.29203796386719,-0.2423257827758789,-1.0811816453933716,-0.0,-0.0,-1.0,0.0543614906823124,1.0,0.0
41.92001724243164,-0.1259479522705078,-1.0983463525772097,-0.0,-0.0,-1.0,0.0488175519151077,1.0,0.0
41.64815139770508,-0.0622816085815429,-1.1153758764266968,-0.0,-0.0,-1.0,0.0536183936461797,1.0,0.0
42.69704055786133,0.1072702407836914,-1.1593530178070068,-0.0,-0.0,-1.0,0.0266486120663876,1.0,0.0
42.466609954833984,0.1157617568969726,-1.1472070217132568,-0.0,-0.0,-1.0,0.0384172513220787,2.0,0.0
42.10088348388672,0.3646163940429687,-1.097935914993286,-0.0,-0.0,-1.0,0.0348437835171251,1.0,0.0
41.75636291503906,0.395115852355957,-1.0791230201721191,-0.0,-0.0,-1.0,0.060277306172882,1.0,0.0
41.45416641235352,0.4021720886230469,-1.0658040046691897,-0.0,-0.0,-1.0,0.0887802871797787,1.0,0.0
41.26765823364258,0.3825321197509765,-1.0612013339996338,-0.0,-0.0,-1.0,0.0366938286385659,2.0,0.0
41.09627151489258,0.4036140441894531,-1.05171799659729,-0.0,-0.0,-1.0,0.0423234516830055,1.0,0.0
41.64826965332031,0.4384098052978515,-1.095749855041504,-0.0,-0.0,-1.0,0.1066892556389515,2.0,0.0
41.35613250732422,0.507258415222168,-1.0799615383148191,-0.0,-0.0,-1.0,0.0832485439883133,1.0,0.0
40.97620391845703,0.5797195434570312,-1.0624821186065674,-0.0,-0.0,-1.0,0.0725951805813932,1.0,0.0
40.64300537109375,0.5654773712158203,-1.0590784549713137,-0.0,-0.0,-1.0,0.088530684978517,1.0,0.0
40.94529342651367,-1.0129356384277344,-1.0001144409179688,-0.0,-0.0,-1.0,0.0542675056236035,2.0,0.0
40.71744155883789,-1.10418701171875,-1.0025455951690674,0.2344995287150129,-0.2910729358377281,-0.9275163163283122,0.0983552812603908,3.0,0.0
40.488521575927734,-1.2646598815917969,-1.0130939483642578,-0.0,-0.0,-1.0,0.0828400881960917,1.0,0.0
41.63899993896485,-0.6394062042236328,-0.8480805158615112,-0.0,-0.0,-1.0,0.1441716909410432,2.0,0.0
41.55617141723633,-0.5238571166992188,-0.8338724374771118,0.2427109215309885,0.7781898939421449,-0.5792338884560291,0.1533205265967983,4.0,0.0
41.562644958496094,-0.8554286956787109,-0.8655060529708862,-0.1847001165628303,-0.0438591582275969,-0.9818157878040278,0.1389735052420974,5.0,0.0
41.427696228027344,-1.859296798706055,-0.9564169645309448,-0.0,-0.0,-1.0,0.0613691638646282,2.0,0.0
40.51104736328125,-0.5415687561035156,-1.0318856239318848,-0.0,-0.0,-1.0,0.0117856904618964,1.0,0.0
40.225379943847656,-0.4669113159179687,-1.0115368366241455,-0.0,-0.0,-1.0,0.0177733552021208,1.0,0.0
41.54391098022461,-0.5842151641845703,-0.9062260389328004,-0.7889851904266487,-0.2790179871856824,-0.5474041761936742,0.2519778910414553,6.0,0.0
42.57298278808594,-0.8964176177978516,-0.9760218858718872,-0.0,-0.0,-1.0,0.1237823802432461,1.0,0.0
41.55136489868164,-0.7788639068603516,-0.9242068529129028,-0.0,-0.0,-1.0,0.1489604356168875,2.0,0.0
41.71586990356445,-0.2406959533691406,-0.8820537328720093,-0.0016103663855314,-0.3693199374991514,-0.9293009149278436,0.1119159371156997,4.0,0.0
41.62217330932617,-0.3734264373779297,-0.8902651071548462,0.2194396730273134,0.0675453441746595,-0.9732850848451302,0.175790098449573,11.0,0.0
41.52693939208984,-0.3239994049072265,-0.94872784614563,0.5075449297379501,0.1441595514788431,-0.8494799397364943,0.1089683623247158,5.0,0.0
41.21137237548828,-0.5806846618652344,-0.9606378078460692,-0.0,-0.0,-1.0,0.0319319627340976,2.0,0.0
41.7615966796875,-0.2480068206787109,-0.8960871696472168,-0.0925747787239262,0.7269891344652759,-0.6803798267979766,0.0998952101660419,3.0,0.0
41.65159606933594,-0.3747444152832031,-0.9002022743225098,0.205242651607496,-0.873582679812391,-0.4412808125138972,0.1662787142423049,14.0,0.0
41.53675079345703,-0.6183013916015625,-0.9131827354431152,0.0351072130225119,-0.4078026036169074,-0.9123949364595704,0.1630320269215749,6.0,0.0
41.07647705078125,0.3272876739501953,-1.1358983516693115,-0.0,-0.0,-1.0,0.0638881053324493,1.0,0.0
41.067527770996094,0.0980739593505859,-1.1358904838562012,-0.0,-0.0,-1.0,0.0697087178915124,1.0,0.0
40.51013946533203,-1.446615219116211,-1.030142068862915,-0.0,-0.0,-1.0,0.0487775736638431,1.0,0.0
41.31560516357422,0.1446809768676757,-1.0992820262908936,-0.0,-0.0,-1.0,0.018959741209815,1.0,0.0
41.21179962158203,-0.0358867645263671,-1.089768648147583,-0.0,-0.0,-1.0,0.0395265565757445,1.0,0.0
41.54255676269531,0.2687606811523437,-1.1225543022155762,-0.0,-0.0,-1.0,0.0538177288286405,1.0,0.0
41.82256317138672,0.3716592788696289,-1.1517796516418457,-0.0,-0.0,-1.0,0.0373089530323192,2.0,0.0
42.37564468383789,0.4904937744140625,-1.2103984355926514,-0.0,-0.0,-1.0,0.0302372236247504,2.0,0.0
41.56964111328125,-0.613347053527832,-0.9577904939651488,-0.0,-0.0,-1.0,0.1698609954056202,2.0,0.0
41.61956024169922,-0.3618526458740234,-0.96656334400177,-0.3520787140611401,0.3033278306665566,-0.8854562700936588,0.2153623202506671,4.0,0.0
42.16811752319336,-0.126011848449707,-1.0311318635940552,-0.4758205467996352,-0.4024934023555015,-0.7820446715524556,0.1536808966726628,3.0,0.0
42.5958251953125,-1.823652267456055,-0.9433727264404296,-0.0,-0.0,-1.0,0.0991259321946552,1.0,0.0
41.66510009765625,-0.8782873153686523,-0.8530106544494629,-0.0,-0.0,-1.0,0.1350062456377106,1.0,0.0
42.663330078125,-1.6675662994384766,-0.9535079002380372,-0.0,-0.0,-1.0,0.1368561328821216,2.0,0.0
41.07848358154297,-0.7782211303710938,-0.7879753112792969,-0.0,-0.0,-1.0,0.1771255700264108,2.0,0.0
41.612606048583984,-0.7133035659790039,-0.8498265743255615,-0.0,-0.0,-1.0,0.1752135951223779,2.0,0.0
41.64829635620117,-0.4811611175537109,-0.8580067157745361,0.091146141292933,0.7471836641058186,-0.658338023374628,0.1300324544287091,4.0,0.0
42.24323654174805,-1.662531852722168,-0.9195520877838136,-0.5420623263948403,-0.3755214987317009,-0.7517659464844831,0.1466810217939465,3.0,0.0
42.466365814208984,-1.7914037704467771,-0.944471836090088,-0.0,-0.0,-1.0,0.1181416219450659,1.0,0.0
41.612396240234375,-0.851933479309082,-0.8662247657775879,0.0570337668118729,-0.9004794840830118,-0.4311424917458749,0.150198563424744,3.0,0.0
41.596641540527344,-0.580052375793457,-0.874953031539917,-0.0,-0.0,-1.0,0.2421475182309742,2.0,0.0
41.68162536621094,-0.2424383163452148,-0.900348424911499,0.424263812083555,-0.2467353007912972,-0.8712760234849561,0.1095604121958081,4.0,0.0
42.17574691772461,-0.2854604721069336,-0.965728759765625,-0.0,-0.0,-1.0,0.1166576511501876,2.0,0.0
42.20672607421875,-0.0861597061157226,-0.9786262512207032,-0.0,-0.0,-1.0,0.1132188129211721,1.0,0.0
40.69989013671875,-0.0649175643920898,-1.0538157224655151,-0.0,-0.0,-1.0,0.0180839645945399,2.0,0.0
40.815155029296875,0.135019302368164,-1.0672801733016968,-0.0,-0.0,-1.0,0.0772779389125049,2.0,0.0
40.94346618652344,0.3485784530639648,-1.08259117603302,-0.0,-0.0,-1.0,0.0539911857977117,1.0,0.0
41.0571403503418,0.5986289978027344,-1.0963302850723269,-0.0,-0.0,-1.0,0.0512079694597708,1.0,0.0
40.87730026245117,-0.4414386749267578,-1.0649999380111694,-0.0,-0.0,-1.0,0.0240154072066307,1.0,0.0
40.82767868041992,-0.3305034637451172,-1.05606210231781,-0.0,-0.0,-1.0,0.0441224164986528,1.0,0.0
40.99446868896485,-0.1998052597045898,-1.075036644935608,-0.0,-0.0,-1.0,0.0436844375061268,1.0,0.0
41.166725158691406,0.0829706192016601,-1.092136263847351,-0.0,-0.0,-1.0,0.0804885621158754,1.0,0.0
41.44770812988281,0.2266273498535156,-1.1269007921218872,-0.7700910308568713,-0.0722073632238335,-0.6338342850383395,0.035173460331826,4.0,0.0
41.69725036621094,0.3454351425170898,-1.158432126045227,-0.0,-0.0,-1.0,0.0796388595319925,2.0,0.0
41.89335250854492,0.5594415664672852,-1.1818560361862185,-0.0,-0.0,-1.0,0.0474355576493729,1.0,0.0
41.1731071472168,-0.6692838668823242,-1.0081942081451416,0.4811919689621069,0.1231696792937,-0.867919074055328,0.0322576318976388,4.0,0.0
41.24317169189453,-0.3183698654174804,-1.0108757019042969,-0.0,-0.0,-1.0,0.0285980840349195,1.0,0.0
41.40592193603515,-0.17181396484375,-1.0307557582855225,-0.9284893396252448,0.2290546844852949,-0.29230377643407,0.0749178565972173,3.0,0.0
41.595333099365234,-0.0265216827392578,-1.0547728538513184,-0.0,-0.0,-1.0,0.0904897044066598,2.0,0.0
41.85527420043945,0.0365781784057617,-1.0902955532073977,0.4973724428834474,-0.8675370662406305,-0.00030291707017,0.0778269011987092,4.0,0.0
42.40528106689453,0.0762386322021484,-1.1675209999084473,-0.0,-0.0,-1.0,0.0390011258954571,1.0,0.0
41.646976470947266,0.4297294616699219,-1.055757999420166,0.7151131802374318,-0.6875389802327383,-0.126108247594012,0.1066892556389515,3.0,0.0
42.54255676269531,0.3516359329223633,-1.184237003326416,-0.0,-0.0,-1.0,0.0146651099180115,2.0,0.0
42.64632797241211,0.4238853454589844,-1.198437213897705,-0.0,-0.0,-1.0,0.0206873946565444,1.0,0.0
41.93729782104492,-1.2748517990112305,-0.7009438276290894,-0.993778466303793,0.0927453116248057,-0.0616657691308452,0.1721090405808234,4.0,0.0
40.555721282958984,-0.4814834594726562,-1.09124493598938,-0.0,-0.0,-1.0,0.0213255152236922,2.0,0.0
40.60294342041016,-0.3387832641601562,-1.0913269519805908,-0.0,-0.0,-1.0,0.0217304815260237,1.0,0.0
40.74370574951172,-0.2175941467285156,-1.106604814529419,0.4060887666887267,-0.6650732742819371,-0.6267132146405818,0.0286611853871215,3.0,0.0
40.86592102050781,0.1261148452758789,-1.109544038772583,-0.0,-0.0,-1.0,0.086389304916052,1.0,0.0
41.044681549072266,0.4045038223266601,-1.124980926513672,-0.23789952453896,-0.5189990521718754,-0.8210017052776638,0.0503973665402029,4.0,0.0
41.29996109008789,0.5632858276367188,-1.1580231189727783,-0.0,-0.0,-1.0,0.0469227789608589,1.0,0.0
41.62204360961914,0.6129331588745117,-1.2062525749206543,-0.0,-0.0,-1.0,0.190036826925169,2.0,0.0
41.97838592529297,-1.2190685272216797,-0.7063207626342773,-0.7561212170355198,0.6379066099916305,-0.1461364502022333,0.181331539565147,4.0,0.0
41.9843635559082,-1.3565616607666016,-0.8131908178329468,-0.0,-0.0,-1.0,0.1308963190805285,1.0,0.0
40.25564956665039,-0.1240053176879882,-1.0805894136428833,-0.0,-0.0,-1.0,0.0212414199097301,2.0,0.0
40.443790435791016,0.0421915054321289,-1.0980037450790403,-0.0,-0.0,-1.0,0.0381098766153572,2.0,0.0
40.712181091308594,0.1354274749755859,-1.132710337638855,-0.0,-0.0,-1.0,0.0330699047038379,2.0,0.0
40.84389114379883,0.3697643280029297,-1.1386278867721558,-0.0,-0.0,-1.0,0.0639579934283358,2.0,0.0
41.88785552978515,-1.774126052856445,-0.9979130029678344,-0.0,-0.0,-1.0,0.0457661582608747,2.0,0.0
42.15591812133789,-1.7959270477294922,-1.0349265336990356,0.7475588170459065,-0.6047967008508046,-0.2745482939245963,0.1438945076687841,4.0,0.0
41.48133850097656,-0.8448619842529297,-0.8868900537490845,-0.3763538580599054,-0.8419279025754248,-0.386671928627319,0.0917659310800679,6.0,0.0
42.49868392944336,-0.9504003524780272,-1.0325437784194946,-0.1640896866200651,-0.5390725947463688,-0.8261206403052438,0.1427440361768205,3.0,0.0
41.6031608581543,-0.4928188323974609,-0.8829828500747681,0.4787389764138313,-0.0555374578620359,-0.8761989404447255,0.1849540396778098,9.0,0.0
42.11817169189453,-0.3346509933471679,-0.9458693265914916,-0.0,-0.0,-1.0,0.1214549893248647,1.0,0.0
42.30199432373047,-0.5592126846313477,-0.9837380647659302,-0.2022026886538542,-0.8170379711647449,-0.5399657640778255,0.0492464537811642,3.0,0.0
42.1656494140625,-0.1591157913208007,-0.943311333656311,-0.0,-0.0,-1.0,0.1553228706796392,1.0,0.0
41.07715606689453,-0.825770378112793,-0.8314143419265747,-0.0,-0.0,-1.0,0.1418117934940237,2.0,0.0
42.53497695922851,-1.0706758499145508,-0.979956865310669,0.6370155703628217,-0.7496790278765858,-0.1794227362330281,0.1954088635592842,3.0,0.0
40.36997985839844,0.0429887771606445,-1.0819473266601562,0.0853818874188916,0.2926147021189655,-0.9524109246562728,0.0350585237574798,5.0,0.0
40.59139633178711,0.1843643188476562,-1.1042463779449463,-0.0,-0.0,-1.0,0.0543110269934483,1.0,0.0
40.77305603027344,0.3841114044189453,-1.1154918670654297,-0.0,-0.0,-1.0,0.0608387217646048,1.0,0.0
40.97998809814453,0.5666360855102539,-1.1337921619415283,-0.0,-0.0,-1.0,0.0656150387721398,2.0,0.0
41.05497741699219,-0.8109455108642578,-0.760591983795166,0.1583510025265706,-0.6980716769907511,-0.6982985706573874,0.1461386459872373,3.0,0.0
41.601131439208984,-0.9574041366577148,-0.8439862728118896,-0.0,-0.0,-1.0,0.105550341800177,1.0,0.0
41.6523551940918,-0.6172637939453125,-0.8284201622009277,-0.0,-0.0,-1.0,0.0986950264566664,2.0,0.0
40.42401123046875,-1.29229736328125,-1.0107836723327637,-0.0,-0.0,-1.0,0.0782175067967846,1.0,0.0
40.61424255371094,-1.0795936584472656,-1.0112953186035156,-0.0,-0.0,-1.0,0.0468456322732442,2.0,0.0
40.814903259277344,-0.8870162963867188,-1.0167429447174072,0.5690786604445552,-0.5635280572931313,-0.5988201790772087,0.0447160982639727,3.0,0.0
41.01580047607422,-0.6921148300170898,-1.0228636264801023,0.3437491268800544,-0.3164737396033139,-0.8841272023361202,0.0488194805717258,3.0,0.0
40.91181564331055,-0.6372308731079102,-1.0025110244750977,-0.0,-0.0,-1.0,0.0361270865622441,1.0,0.0
41.1611213684082,-0.5109386444091797,-1.023913860321045,-0.0,-0.0,-1.0,0.079355069303308,1.0,0.0
41.39916229248047,-0.191598892211914,-1.0247879028320312,-0.94739989370958,0.2735896872255776,-0.1660786694397777,0.0721085263395723,3.0,0.0
41.716270446777344,-0.0280227661132812,-1.0550997257232666,-0.0926281686181165,0.5957739938675111,-0.7977928118312477,0.0850077725592376,3.0,0.0
41.88899993896485,0.0591945648193359,-1.0724668502807615,0.7513206986982881,-0.651519805311728,-0.1050673640769802,0.0853977100145169,4.0,0.0
42.12921905517578,0.0478076934814453,-1.1101665496826172,-0.0,-0.0,-1.0,0.0294274472491634,2.0,0.0
42.57476806640625,0.1413593292236328,-1.1705479621887207,-0.0,-0.0,-1.0,0.0355209216432381,2.0,0.0
41.938385009765625,-1.260091781616211,-0.698511004447937,-0.993778466303793,0.0927453116248057,-0.0616657691308452,0.181331539565147,4.0,0.0
41.99046325683594,-1.167440414428711,-0.6975154876708984,-0.9133596823877048,-0.0705512602034142,-0.4009945264867612,0.1050982081140326,3.0,0.0
40.441307067871094,-1.7755451202392578,-0.9722163677215576,-0.0,-0.0,-1.0,0.0101535889774849,1.0,0.0
40.65122985839844,-1.6765851974487305,-0.985832691192627,-0.2682576030818716,-0.2608223834048288,-0.9273669946163676,0.0400575638568592,3.0,0.0
40.94108963012695,-1.572214126586914,-1.0099215507507324,-0.0,-0.0,-1.0,0.0095119325258323,1.0,0.0
41.10313415527344,-1.139592170715332,-0.980280876159668,-0.0,-0.0,-1.0,0.0844843765188782,2.0,0.0
41.2231330871582,-1.2457504272460938,-1.0084073543548584,-0.7048943009032179,0.2471866626997602,-0.6648479362512291,0.0580022389227836,4.0,0.0
41.16857147216797,-0.8987665176391602,-0.9614195823669434,-0.0,-0.0,-1.0,0.100814684469819,2.0,0.0
41.413108825683594,-0.7768125534057617,-0.9810783863067628,-0.0,-0.0,-1.0,0.1105950777380857,2.0,0.0
41.606163024902344,-0.4429340362548828,-0.9714317321777344,0.2277742238608136,-0.7104705941637267,-0.6658456561195283,0.2472153378181463,6.0,0.0
41.97277069091797,-0.4668159484863281,-1.026564598083496,-0.0,-0.0,-1.0,0.0715356468851211,2.0,0.0
42.29530715942383,-0.602752685546875,-1.087949514389038,-0.0,-0.0,-1.0,0.0536169487949001,2.0,0.0
42.70287322998047,-0.6038827896118164,-1.148627758026123,-0.0,-0.0,-1.0,0.015274272550628,1.0,0.0
40.22017288208008,0.2950868606567383,-1.1129493713378906,-0.0,-0.0,-1.0,0.0340963020568104,1.0,0.0
41.65571975708008,-0.2233772277832031,-0.9549314975738524,0.8688256976591286,-0.2552081030315778,-0.4242767154041706,0.1133861109880532,4.0,0.0
42.129634857177734,-0.1674537658691406,-1.018491268157959,0.2119593617542062,0.2304168901853091,-0.9497269532250208,0.1484359592038807,4.0,0.0
40.42936325073242,0.4037485122680664,-1.130333662033081,-0.0,-0.0,-1.0,0.0480620313661247,1.0,0.0
40.68619537353515,0.5121726989746094,-1.1566929817199707,-0.0,-0.0,-1.0,0.0709328277741107,2.0,0.0
41.96746444702149,-1.3290414810180664,-0.6250109672546387,-0.1424948469274661,0.8908216417017271,-0.4314302044073382,0.1677138622734882,3.0,0.0
42.1039924621582,-1.234726905822754,-0.6333792209625244,-0.0,-0.0,-1.0,0.1304637048011355,2.0,0.0
40.216426849365234,-1.7398576736450195,-0.979277491569519,-0.0,-0.0,-1.0,0.0139688062876302,2.0,0.0
40.65261459350586,-1.5824050903320312,-1.0036619901657104,-0.0,-0.0,-1.0,0.0469545804237982,2.0,0.0
40.89813232421875,-1.4367055892944336,-1.010598063468933,-0.0,-0.0,-1.0,0.0144572942031299,1.0,0.0
41.05707931518555,-1.1779193878173828,-0.9931167364120485,-0.0,-0.0,-1.0,0.0773840170561655,2.0,0.0
41.25767517089844,-0.9201421737670898,-0.9799619913101196,0.8272607591723536,-0.5137740121283765,0.2273233397499961,0.0795100744156546,3.0,0.0
41.35329055786133,-0.8854408264160156,-0.9861050844192504,0.5132886746961615,0.7754075933998161,0.3678013057706068,0.0999628785609379,3.0,0.0
42.07084655761719,-0.7363662719726562,-1.0587102174758911,-0.0,-0.0,-1.0,0.0705452339085953,1.0,0.0
42.24166488647461,-0.7844762802124023,-1.087687849998474,-0.0,-0.0,-1.0,0.0191158805883142,1.0,0.0
42.32356262207031,-0.6301870346069336,-1.079137921333313,-0.0,-0.0,-1.0,0.0280979870899748,2.0,0.0
40.45550537109375,0.2129859924316406,-1.129470944404602,-0.0,-0.0,-1.0,0.0564038608224916,2.0,0.0
40.663536071777344,0.3463449478149414,-1.1354418992996216,-0.0,-0.0,-1.0,0.0669841094848975,1.0,0.0
40.91627883911133,0.4875469207763672,-1.1501799821853638,-0.0,-0.0,-1.0,0.0669668366927089,2.0,0.0
41.34335708618164,0.596527099609375,-1.1986232995986938,-0.0,-0.0,-1.0,0.0583881057201974,1.0,0.0
42.598201751708984,-1.861466407775879,-0.773680567741394,-0.0,-0.0,-1.0,0.1587916419483345,1.0,0.0
41.28700256347656,-0.7831649780273438,-0.965112805366516,-0.0,-0.0,-1.0,0.0707223723046242,2.0,0.0
41.43904113769531,-0.6641197204589844,-0.9672623872756958,0.4053065751467706,-0.4010235100495272,-0.8215270686534629,0.1799416285378703,8.0,0.0
41.597999572753906,-0.458470344543457,-0.9605945348739624,0.5811349857647591,-0.8064478176365659,-0.1091972790385087,0.2299203163754525,7.0,0.0
42.046478271484375,-0.2045183181762695,-0.9876950979232788,-0.0,-0.0,-1.0,0.087645971205821,1.0,0.0
42.52450180053711,-1.7752418518066406,-0.9376230239868164,-0.0,-0.0,-1.0,0.1124214810476517,2.0,0.0
40.526004791259766,-0.9289894104003906,-1.0269997119903564,-0.0,-0.0,-1.0,0.0507226820154828,1.0,0.0
41.87287521362305,-1.2895288467407229,-0.8008437156677246,-0.0,-0.0,-1.0,0.1064234153952918,1.0,0.0
40.67840576171875,-0.8237743377685547,-1.0265634059906006,-0.0,-0.0,-1.0,0.0134309789525288,1.0,0.0
40.976287841796875,-0.6314401626586914,-1.029752492904663,-0.0,-0.0,-1.0,0.0372779290445175,2.0,0.0
41.16831970214844,-0.4446725845336914,-1.0229277610778809,-0.0,-0.0,-1.0,0.0630002010082817,2.0,0.0
41.33189010620117,-0.2942018508911133,-1.0195837020874023,-0.0,-0.0,-1.0,0.0253294367941516,2.0,0.0
41.52488708496094,-0.1189336776733398,-1.0173072814941406,-0.0,-0.0,-1.0,0.1390293927467971,2.0,0.0
41.84357070922851,-0.094329833984375,-1.0572497844696045,0.0078103261315603,-0.0655673805364839,-0.9978175772230627,0.0753367435031145,3.0,0.0
42.2620964050293,-0.1229362487792968,-1.1214146614074707,-0.0,-0.0,-1.0,0.0918208553014561,1.0,0.0
42.66964340209961,-0.056105613708496,-1.1719672679901123,-0.0,-0.0,-1.0,0.0180092792443707,1.0,0.0
40.351619720458984,0.5050563812255859,-1.1366655826568604,-0.0,-0.0,-1.0,0.0516445671582889,1.0,0.0
40.60652923583984,0.6246566772460938,-1.149285078048706,-0.0,-0.0,-1.0,0.0715997039578366,1.0,0.0
41.90806198120117,0.3649749755859375,-1.1712390184402466,-0.0,-0.0,-1.0,0.0281974747835664,1.0,0.0
42.03548049926758,0.3675107955932617,-1.1867600679397583,-0.0,-0.0,-1.0,0.0366514136765999,2.0,0.0
42.3358039855957,0.4380292892456054,-1.2117701768875122,-0.0,-0.0,-1.0,0.0214508812417406,2.0,0.0
40.42030334472656,-1.5569086074829102,-1.0034815073013306,-0.4486081852569603,-0.1728126118958156,-0.8768617321392254,0.012702814576426,3.0,0.0
40.73267364501953,-1.4756479263305664,-1.011532425880432,-0.0,-0.0,-1.0,0.0194987646385805,1.0,0.0
40.988956451416016,-1.2362680435180664,-0.9878195524215698,-0.0,-0.0,-1.0,0.0305180387047508,2.0,0.0
41.180999755859375,-1.188100814819336,-0.9949909448623656,-0.0,-0.0,-1.0,0.104982380784795,1.0,0.0
41.350189208984375,-0.8970298767089844,-0.957344651222229,0.5132886746961615,0.7754075933998161,0.3678013057706068,0.1110495256849771,3.0,0.0
42.29322814941406,-1.2164545059204102,-1.102033257484436,-0.0,-0.0,-1.0,0.0292876026823422,1.0,0.0
40.453392028808594,-0.1112279891967773,-1.1113437414169312,-0.0,-0.0,-1.0,0.0155004559107661,1.0,0.0
40.72532272338867,-0.1052379608154296,-1.1362634897232056,-0.0,-0.0,-1.0,0.0241397973974692,1.0,0.0
41.51850128173828,-0.5630865097045898,-0.9134026765823364,-0.3783035479711884,-0.8173728740102771,-0.4344974228054643,0.2124345223046057,8.0,0.0
42.042205810546875,-0.8806085586547852,-1.019004464149475,-0.0,-0.0,-1.0,0.0281753258699012,1.0,0.0
42.365577697753906,-0.9642133712768556,-1.0658074617385864,-0.0,-0.0,-1.0,0.0525726852232794,2.0,0.0
40.6514892578125,0.0039634704589843,-1.105563759803772,-0.0,-0.0,-1.0,0.0331711229462295,2.0,0.0
40.93527603149414,0.130706787109375,-1.1078027486801147,-0.5312019008095844,0.635480210202842,-0.5603476090935304,0.1040146921742837,4.0,0.0
41.661170959472656,-0.3712186813354492,-0.8931804895401001,0.1877075907464193,-0.9502822045169724,-0.2484544065911044,0.1934285353641381,15.0,0.0
41.1607780456543,0.2400264739990234,-1.1089807748794556,-0.0,-0.0,-1.0,0.0490536524410713,1.0,0.0
41.45243453979492,0.2713832855224609,-1.1356762647628784,-0.0,-0.0,-1.0,0.0378311053774467,2.0,0.0
41.7968864440918,0.3397684097290039,-1.1626182794570925,-0.0,-0.0,-1.0,0.0378380867346521,2.0,0.0
42.55781173706055,-1.8014955520629885,-0.7755733728408813,-0.0,-0.0,-1.0,0.1821843530005151,1.0,0.0
41.95994186401367,-1.3488426208496094,-0.6634119749069214,-0.0,-0.0,-1.0,0.1535126144552505,2.0,0.0
40.21760940551758,0.563359260559082,-1.1354269981384275,-0.0,-0.0,-1.0,0.0496300294079462,1.0,0.0
40.48274612426758,0.5937042236328125,-1.1526994705200195,-0.0,-0.0,-1.0,0.0434581919482034,1.0,0.0
42.36695098876953,-0.07452392578125,-1.142423391342163,-0.0,-0.0,-1.0,0.0564926977701643,1.0,0.0
42.61225509643555,-0.0749425888061523,-1.1705005168914795,-0.0,-0.0,-1.0,0.0193030274866157,1.0,0.0
41.251708984375,-1.854262351989746,-0.9863696098327636,-0.0,-0.0,-1.0,0.0366744167838277,2.0,0.0
40.440696716308594,-0.5375347137451172,-1.0602312088012695,-0.0,-0.0,-1.0,0.01952894979181,2.0,0.0
41.91916275024414,-1.8390522003173828,-1.030947208404541,-0.0,-0.0,-1.0,0.0285259828091109,2.0,0.0
40.657859802246094,-0.4812374114990234,-1.064366340637207,-0.0,-0.0,-1.0,0.0191716685292349,2.0,0.0
40.98299026489258,-0.602168083190918,-0.9250059127807616,-0.0,-0.0,-1.0,0.1564329208022056,1.0,0.0
41.714698791503906,-0.9132537841796876,-0.8494212627410889,-0.0,-0.0,-1.0,0.1108172789985228,1.0,0.0
42.41056060791016,-1.7151031494140625,-1.047926902770996,0.2137883166293298,-0.7721344202991273,-0.5984170725022205,0.0990356585122501,5.0,0.0
42.553367614746094,-1.6607236862182615,-1.050459861755371,-0.0,-0.0,-1.0,0.0491366667282616,1.0,0.0
41.17960739135742,-0.2368612289428711,-1.0555009841918943,-0.9986290410240988,-0.019631427429772,0.0485246893896108,0.0904386861418346,4.0,0.0
41.55547332763672,-0.6603727340698242,-0.7918105125427246,-0.2303434690978804,-0.9412770675690108,0.2468590049251549,0.1835477938004352,3.0,0.0
41.73527145385742,-0.7384796142578125,-0.8199794292449951,-0.0,-0.0,-1.0,0.0977948794696084,2.0,0.0
42.47600555419922,-1.0409679412841797,-0.9356122016906738,-0.0,-0.0,-1.0,0.212730043699828,2.0,0.0
41.47574996948242,-0.0247650146484375,-1.0383806228637695,-0.0739357385955967,0.7881381229632558,-0.6110415744368622,0.1223081227075938,7.0,0.0
41.759281158447266,-0.0022563934326171,-1.06201434135437,-0.0,-0.0,-1.0,0.0627149788942516,1.0,0.0
41.91508102416992,0.0098419189453125,-1.075761079788208,0.2107803192253008,-0.1440637531180217,-0.9668594996507146,0.0984736251449008,5.0,0.0
42.13402557373047,-0.0968437194824218,-0.9311258792877196,-0.0,-0.0,-1.0,0.1230991568631702,1.0,0.0
41.43067169189453,0.5410184860229492,-1.2068812847137451,-0.0,-0.0,-1.0,0.1000919624664549,1.0,0.0
41.63240051269531,0.6259880065917969,-1.212355136871338,-0.0,-0.0,-1.0,0.1849658746004023,2.0,0.0
40.36785507202149,-0.6741867065429688,-1.0425636768341064,-0.0,-0.0,-1.0,0.0233088819011945,1.0,0.0
40.61918258666992,-0.6630229949951172,-1.060150384902954,-0.0,-0.0,-1.0,0.0148697668480979,1.0,0.0
40.42575454711914,0.3446254730224609,-1.143337965011597,-0.0,-0.0,-1.0,0.0508578884550652,1.0,0.0
41.00065231323242,-0.4913244247436523,-1.054912567138672,-0.0,-0.0,-1.0,0.0469423034383644,1.0,0.0
42.0349235534668,-1.8237123489379885,-1.03049898147583,0.9210011874396828,-0.2598904828561873,0.2901960538247749,0.1002108082352842,4.0,0.0
42.31254196166992,-1.8092174530029297,-1.0522029399871826,-0.0,-0.0,-1.0,0.1168546915236153,1.0,0.0
40.770782470703125,0.4493284225463867,-1.152397632598877,-0.0,-0.0,-1.0,0.0970777064851112,2.0,0.0
41.33824920654297,-0.2134103775024414,-1.0264322757720947,-0.0,-0.0,-1.0,0.0465601295154658,1.0,0.0
42.65245819091797,-1.6148357391357422,-1.048445463180542,-0.0,-0.0,-1.0,0.0863492092409574,1.0,0.0
41.06682586669922,0.5608711242675781,-1.1576485633850098,-0.0,-0.0,-1.0,0.0495590481590264,2.0,0.0
41.25859069824219,0.5925726890563965,-1.1727657318115234,-0.0,-0.0,-1.0,0.0395454313397642,1.0,0.0
41.560001373291016,-0.0596752166748046,-1.0160455703735352,-0.0,-0.0,-1.0,0.1352523418601797,2.0,0.0
41.829872131347656,-0.1102933883666992,-1.056308031082153,-0.0,-0.0,-1.0,0.0620583731984278,2.0,0.0
42.09079360961914,-0.1721267700195312,-1.098747730255127,0.0965343199818669,0.131236292972616,-0.9866398332078652,0.1329261684062275,3.0,0.0
42.10649490356445,-0.1283740997314453,-1.0913918018341064,0.0965343199818669,0.131236292972616,-0.9866398332078652,0.1254644408131673,3.0,0.0
42.396095275878906,-0.1602163314819336,-1.13248610496521,-0.0,-0.0,-1.0,0.0323984614016744,2.0,0.0
42.6760368347168,-0.2116222381591797,-1.1773147583007812,-0.0,-0.0,-1.0,0.0058650610993565,1.0,0.0
40.97088241577149,-0.7532262802124023,-0.7458977699279785,-0.0,-0.0,-1.0,0.1467438426734858,2.0,0.0
41.69094467163086,-0.7430505752563477,-0.8028037548065186,0.175589308980899,-0.9646672209601984,0.1964320426420749,0.0670813523083315,3.0,0.0
42.02836608886719,0.1745586395263672,-1.1559818983078003,-0.0,-0.0,-1.0,0.0395551910035533,2.0,0.0
42.255882263183594,0.1932411193847656,-1.181000828742981,-0.758502481051766,-0.0613952038253018,-0.6487716202066525,0.0220037526005198,3.0,0.0
42.6285400390625,0.3171448707580566,-1.2028685808181765,-0.0,-0.0,-1.0,0.0145591787944287,2.0,0.0
40.38092422485352,-1.3661174774169922,-1.0194400548934937,-0.0,-0.0,-1.0,0.0577727211051836,1.0,0.0
40.25990676879883,-0.294748306274414,-1.0943862199783323,-0.0,-0.0,-1.0,0.0144805621466615,1.0,0.0
40.46189498901367,-1.1326370239257812,-0.9715932607650756,-0.5045862623183986,0.2390676236885157,-0.829601937789127,0.0792980569052849,3.0,0.0
40.74899673461914,-1.252924919128418,-1.017748475074768,-0.0,-0.0,-1.0,0.0222949905110022,1.0,0.0
40.66975021362305,-0.2139387130737304,-1.1069377660751345,-0.0,-0.0,-1.0,0.0213583966972579,1.0,0.0
41.077171325683594,-0.956796646118164,-0.9759193658828736,-0.0,-0.0,-1.0,0.08876156393301,2.0,0.0
41.10406875610352,-1.0621538162231443,-1.001423716545105,-0.0,-0.0,-1.0,0.1191520570792971,1.0,0.0
41.02910614013672,-0.0402841567993164,-1.096314549446106,-0.0,-0.0,-1.0,0.0503999072601053,2.0,0.0
41.397308349609375,-0.7242774963378906,-0.9515036344528198,-0.919674259749962,0.2724512688356871,-0.2827889001767639,0.1133006325794128,5.0,0.0
41.270938873291016,-0.8981828689575195,-0.9786001443862916,0.6435166689665748,0.3089940774939489,-0.7002920511014152,0.0692926726888905,5.0,0.0
41.38020706176758,0.1143054962158203,-1.094326138496399,-0.0,-0.0,-1.0,0.0272122070576827,1.0,0.0
41.59188461303711,0.1360697746276855,-1.1126140356063845,-0.0,-0.0,-1.0,0.0341674533194736,1.0,0.0
41.63362121582031,-0.4230766296386719,-0.9080051183700562,-0.732031115240645,0.1743359174611102,-0.6585874537239006,0.1657122115315706,4.0,0.0
42.06781768798828,-0.8366708755493164,-1.037680983543396,-0.0,-0.0,-1.0,0.0311896938042846,1.0,0.0
41.79542541503906,0.1831693649291992,-1.1253582239151,-0.5502875835759504,-0.8340427718254355,-0.0394490827255367,0.0517730666418259,3.0,0.0
42.20783615112305,-0.7684001922607422,-1.0373557806015017,-0.0,-0.0,-1.0,0.0578672862384006,1.0,0.0
42.355690002441406,-0.9049835205078124,-1.0813242197036743,0.608546285060192,-0.3817428472148796,0.6956607057608738,0.0324714969032621,3.0,0.0
41.90647888183594,-1.1892004013061523,-0.7263475656509399,-0.0,-0.0,-1.0,0.1424015839454709,1.0,0.0
40.242393493652344,-1.4875006675720217,-0.9658329486846924,-0.0,-0.0,-1.0,0.0242380511303725,1.0,0.0
40.46461486816406,-0.382577896118164,-1.0551247596740725,-0.0,-0.0,-1.0,0.0168556173050926,2.0,0.0
40.62069320678711,-1.3020634651184082,-0.9690792560577391,-0.0,-0.0,-1.0,0.0276105438237699,1.0,0.0
40.94942092895508,-0.0743994712829589,-1.048941135406494,-0.0,-0.0,-1.0,0.024980216841534,1.0,0.0
40.816200256347656,-0.2186322212219238,-1.0647568702697754,0.9989190979137064,0.0371201590434593,0.0279773053715924,0.0560374800510876,4.0,0.0
41.08206558227539,-0.8075661659240723,-0.9202001094818116,-0.0,-0.0,-1.0,0.196991155557308,1.0,0.0
40.96543502807617,-1.0844731330871582,-0.9651575088500975,-0.3004119059528496,-0.0260673742115843,-0.9534532913381176,0.0641576523511255,4.0,0.0
41.18241882324219,0.0365171432495117,-1.0592308044433594,-0.1261292654720369,0.1070415314844679,-0.9862218406266128,0.055983018498112,3.0,0.0
41.36594009399414,-0.685661792755127,-0.934262752532959,-0.6729901707762038,-0.0022009294971472,-0.7396481501010903,0.0763448220676566,5.0,0.0
41.260135650634766,-0.8553299903869629,-0.9554786682128906,0.6643909191735627,0.5247322484165917,-0.5322036959580198,0.0582119301855484,5.0,0.0
41.67132568359375,0.452798843383789,-1.0434563159942627,0.6072757344156698,-0.2365135751980112,-0.7584705077568697,0.0927940211131644,3.0,0.0
41.5350341796875,0.2173151969909668,-1.0754592418670654,-0.0,-0.0,-1.0,0.0292540659774684,1.0,0.0
41.60535430908203,-0.3184690475463867,-0.8919270038604736,0.0315683585904532,-0.4389013688041484,-0.8979805271818257,0.1454104112259178,6.0,0.0
41.67036056518555,-0.4730663299560547,-0.934748649597168,-0.0,-0.0,-1.0,0.1906185873143113,1.0,0.0
41.94960021972656,0.3169031143188476,-1.1275839805603027,-0.0,-0.0,-1.0,0.0580984741506916,2.0,0.0
42.13200759887695,-0.598330020904541,-1.033829927444458,-0.0,-0.0,-1.0,0.0392269939504973,1.0,0.0
42.15047454833984,-0.7070565223693848,-1.0592072010040283,-0.0,-0.0,-1.0,0.0692682401638267,1.0,0.0
42.39592361450195,-1.7601475715637207,-0.9373335838317872,-0.0,-0.0,-1.0,0.1351317184969146,2.0,0.0
42.49862289428711,0.5998415946960449,-1.1708898544311523,-0.0,-0.0,-1.0,0.0269684162257257,2.0,0.0
42.34064865112305,0.4124889373779297,-1.1815240383148191,-0.0,-0.0,-1.0,0.0194352971773367,2.0,0.0
42.52320098876953,-0.574617862701416,-1.0940468311309814,-0.0,-0.0,-1.0,0.0235486569843533,2.0,0.0
42.57513427734375,-0.6236844062805176,-1.112741470336914,-0.0,-0.0,-1.0,0.0248136712792469,1.0,0.0
42.254188537597656,-1.7025742530822754,-0.907447099685669,-0.5420623263948403,-0.3755214987317009,-0.7517659464844831,0.1429544090519349,3.0,0.0
40.49822998046875,-1.0749249458312988,-1.0318480730056765,-0.0,-0.0,-1.0,0.062164074342061,2.0,0.0
40.9379768371582,-0.803779125213623,-1.033413290977478,-0.4082636626789881,0.579368121857363,-0.7054455054158394,0.0325080260271842,3.0,0.0
40.772705078125,-0.9800581932067872,-1.0503462553024292,-0.4659491947768516,-0.4796971373901974,-0.7434931097639396,0.1017498689395712,3.0,0.0
41.392677307128906,-0.3440589904785156,-1.0014694929122925,-0.8871812731664864,-0.0305665308840293,-0.4604075105082534,0.0260370773094687,3.0,0.0
41.232566833496094,-0.5550522804260254,-1.0234588384628296,-0.0,-0.0,-1.0,0.0855281664068622,1.0,0.0
41.45026016235352,-1.5332918167114258,-0.973591446876526,-0.0,-0.0,-1.0,0.0235576146804493,1.0,0.0
41.37286758422851,-1.7567152976989746,-1.009520411491394,-0.0,-0.0,-1.0,0.0537206578249997,2.0,0.0
41.58429336547851,-0.2462801933288574,-1.014837384223938,0.7397745638511443,0.5123868078857541,-0.4361116299567082,0.1128332013258771,3.0,0.0
41.683162689208984,-1.7039694786071775,-1.046460747718811,-0.0,-0.0,-1.0,0.0525383358671775,1.0,0.0
41.99937438964844,-0.2019720077514648,-1.0870343446731567,-0.0,-0.0,-1.0,0.058695016791743,1.0,0.0
42.31215286254883,-1.3194680213928225,-1.0725058317184448,-0.0,-0.0,-1.0,0.0194430885266389,2.0,0.0
42.38933944702149,-0.137035846710205,-1.154162049293518,-0.0,-0.0,-1.0,0.042417468949992,2.0,0.0
42.519744873046875,-1.0250473022460938,-1.0510858297348022,-0.0,-0.0,-1.0,0.1524109432786117,2.0,0.0
42.45365905761719,-1.2124767303466797,-1.0764137506484983,-0.0,-0.0,-1.0,0.0463726008625897,1.0,0.0
40.98515701293945,-0.8456478118896484,-0.7552677392959595,-0.1963273183758671,0.172463028695081,-0.9652523441010962,0.186164871989944,4.0,0.0
41.01996612548828,-0.8596649169921875,-0.7635771036148071,-0.1455960956897207,0.2000714017173392,-0.9689030968754142,0.1403859948781383,4.0,0.0
41.690582275390625,-0.7035346031188965,-0.8394705057144165,-0.0,-0.0,-1.0,0.1011833573775669,2.0,0.0
41.550880432128906,-1.0004949569702148,-0.8774961233139038,-0.2920801497462842,0.9173235175217488,-0.270567459842668,0.1610375263635133,3.0,0.0
41.905784606933594,-1.3225483894348145,-0.6809841394424438,-0.0,-0.0,-1.0,0.1721090405808234,2.0,0.0
41.982391357421875,-1.2060704231262207,-0.6723332405090332,-0.6723840244553497,0.1985564128938519,-0.7130743822042367,0.1813315395651471,5.0,0.0
41.13606643676758,-1.7600698471069336,-1.004086971282959,-0.0,-0.0,-1.0,0.0241889249750429,2.0,0.0
41.52911758422851,-1.582416534423828,-1.0264103412628174,0.8294475471761505,0.1871007145813029,-0.526317479366431,0.0478756072081269,3.0,0.0
41.72835159301758,-1.5921630859375,-1.0638740062713623,-0.0,-0.0,-1.0,0.0522645176669321,1.0,0.0
42.377655029296875,-1.145350456237793,-1.084195613861084,0.7197786289257495,-0.4771427932566435,0.5042355403826828,0.0517477668353787,4.0,0.0
42.31449890136719,-1.3031978607177734,-1.107292890548706,-0.0,-0.0,-1.0,0.0195311232842864,2.0,0.0
42.61598205566406,-0.9785189628601074,-1.0964655876159668,-0.0,-0.0,-1.0,0.1538908522094921,2.0,0.0
41.01300430297851,-0.8800144195556641,-0.7664258480072021,-0.1553936427951547,0.1889005382432279,-0.969623330180473,0.1285312482458937,3.0,0.0
41.54954528808594,-0.8319439888000488,-0.8504073619842529,-0.4829008136047505,0.2668482998019837,-0.8340256525507238,0.1149020371169121,3.0,0.0
41.512786865234375,-1.0154566764831543,-0.8870995044708252,0.0616484312704957,0.9340890190294422,-0.3516776584466259,0.0946429406509045,5.0,0.0
41.709197998046875,-0.6746153831481934,-0.84395432472229,-0.0,-0.0,-1.0,0.1196149927220792,2.0,0.0
41.93999481201172,-1.2747983932495115,-0.7369420528411865,-0.8127863196515366,0.5517245943179945,-0.1870250534339031,0.1555953904046991,5.0,0.0
41.9105110168457,-1.3889117240905762,-0.7550499439239502,-0.0,-0.0,-1.0,0.0878974826528605,1.0,0.0
42.66206741333008,-1.750709056854248,-0.9580225944519044,-0.0,-0.0,-1.0,0.0905002213906417,2.0,0.0
42.40991973876953,-1.7872285842895508,-0.965511918067932,-0.0,-0.0,-1.0,0.135429414402786,2.0,0.0
41.895713806152344,-1.3263120651245115,-0.7601727247238159,-0.0,-0.0,-1.0,0.0920049053190888,1.0,0.0
42.262752532958984,-1.697275161743164,-0.9162691831588744,-0.5420623263948403,-0.3755214987317009,-0.7517659464844831,0.1429544090519349,3.0,0.0
41.0428466796875,0.174875259399414,-1.2341687679290771,-0.0,-0.0,-1.0,0.1654968716742006,1.0,0.0
40.82097244262695,0.4690914154052734,-1.2356889247894287,-0.0,-0.0,-1.0,0.0555722935437608,1.0,0.0
41.19784927368164,-0.2855300903320312,-1.2036283016204834,-0.0,-0.0,-1.0,0.1439027582812569,1.0,0.0
41.09403991699219,-0.090982437133789,-1.2097136974334717,-0.0,-0.0,-1.0,0.1331853039167878,1.0,0.0
40.85758590698242,0.1896190643310547,-1.2053067684173584,-0.0,-0.0,-1.0,0.1251009275444732,1.0,0.0
41.18743896484375,-0.5209503173828125,-1.174083948135376,-0.0,-0.0,-1.0,0.105786035077913,1.0,0.0
41.110107421875,-0.9622492790222168,-1.1102139949798584,-0.0,-0.0,-1.0,0.0954460632693562,1.0,0.0
42.21346282958984,0.4949254989624023,-1.2073012590408323,-0.0,-0.0,-1.0,0.0280353584090305,1.0,0.0
42.46640396118164,0.0824799537658691,-1.1913377046585083,-0.0,-0.0,-1.0,0.0350530175271008,2.0,0.0
42.329254150390625,0.2068405151367187,-1.186961054801941,-0.0,-0.0,-1.0,0.0245252422821734,1.0,0.0
42.08309173583984,0.3901119232177734,-1.1750777959823608,-0.0,-0.0,-1.0,0.0382852833420176,1.0,0.0
41.700340270996094,-0.5663528442382812,-0.9989911317825316,-0.0,-0.0,-1.0,0.1835606883821161,1.0,0.0
42.43901443481445,-1.3716425895690918,-1.0196079015731812,-0.0,-0.0,-1.0,0.0171314887780419,1.0,0.0
41.74462890625,-0.8629631996154785,-0.9702306985855104,-0.0,-0.0,-1.0,0.1017610123016849,1.0,0.0
41.70265197753906,-0.6809248924255371,-0.985486388206482,-0.0,-0.0,-1.0,0.1306754369749254,1.0,0.0
41.80701446533203,-1.3887081146240234,-0.9199587106704712,-0.0,-0.0,-1.0,0.0714022914992584,1.0,0.0
41.65998840332031,-1.2400298118591309,-0.9140363931655884,-0.0,-0.0,-1.0,0.0520637002062003,2.0,0.0
40.280399322509766,-1.4802594184875488,-1.0426713228225708,-0.0,-0.0,-1.0,0.0246324569368783,1.0,0.0
40.25605773925781,-1.6755423545837402,-1.011802315711975,-0.0,-0.0,-1.0,0.0136937670220486,2.0,0.0
42.58177947998047,-1.5665006637573242,-1.0706523656845093,0.4385786044454684,0.8892928241960522,-0.1296421249288782,0.0807715359024728,4.0,0.0
42.313194274902344,-1.2582101821899414,-1.068099856376648,0.7805016449646034,-0.5544417473268138,0.2888105452173417,0.0295294680102664,3.0,0.0
42.397090911865234,-1.7904465198516846,-1.0160447359085083,-0.0,-0.0,-1.0,0.1478091727154849,1.0,0.0
41.0942497253418,-0.0675110816955566,-1.0589951276779177,-0.0,-0.0,-1.0,0.0504692229672104,2.0,0.0
40.95860290527344,0.2009344100952148,-1.0826834440231323,0.0943738009967405,0.3316037474918837,-0.9386866038965116,0.0907313092310214,5.0,0.0
40.7777099609375,0.5472531318664551,-1.1149805784225464,-0.0,-0.0,-1.0,0.0947586585920591,2.0,0.0
42.293792724609375,-1.7706356048583984,-1.002562403678894,-0.8135314286450955,-0.4736667219095389,-0.3373521174709614,0.1142148505982557,3.0,0.0
41.695045471191406,-1.160996437072754,-0.9885307550430298,0.933562867610923,-0.3307731387664966,-0.138019936562187,0.0331964575489223,4.0,0.0
41.37419509887695,-0.996568202972412,-0.9635607004165648,0.8008414102893008,-0.5257981936811416,-0.2866867542937634,0.1515228007962375,3.0,0.0
41.199310302734375,-0.6384725570678711,-0.988700032234192,0.4889020923328278,0.1390553227875972,-0.8611842783731137,0.0292434558819117,5.0,0.0
41.11543655395508,-0.304110050201416,-1.0259398221969604,0.0010426706089246,0.2160958088351362,-0.9763716066344256,0.0177160472982995,3.0,0.0
41.65846252441406,-1.761115312576294,-0.907006859779358,-0.0,-0.0,-1.0,0.0596266613346612,2.0,0.0
41.499000549316406,-1.629322528839111,-0.8991464376449585,-0.0,-0.0,-1.0,0.068013990381954,1.0,0.0
41.92440032958984,-1.1875157356262207,-0.5854671001434326,-0.0,-0.0,-1.0,0.1259225514426213,1.0,0.0
41.71132278442383,-0.3896760940551758,-0.765119194984436,-0.0,-0.0,-1.0,0.1122648374750557,1.0,0.0
40.996734619140625,0.1877889633178711,-1.1289392709732056,-0.0,-0.0,-1.0,0.1259838777900042,1.0,0.0
41.02391815185547,-0.0025734901428222,-1.1149829626083374,-0.0,-0.0,-1.0,0.0634116130253268,2.0,0.0
40.45357894897461,-0.1878304481506347,-1.016661524772644,-0.0,-0.0,-1.0,0.0158703534670049,1.0,0.0
40.29452133178711,-0.0183067321777343,-1.005952000617981,-0.0,-0.0,-1.0,0.0331582272783251,1.0,0.0
40.61445236206055,-1.1785340309143066,-0.9582687616348268,-0.0,-0.0,-1.0,0.0494003309892059,1.0,0.0
40.45330047607422,-0.8596088886260986,-0.9554306268692015,-0.0,-0.0,-1.0,0.0253560416304851,2.0,0.0
40.2475700378418,-0.5327353477478027,-0.947945237159729,-0.0,-0.0,-1.0,0.0192675203898407,1.0,0.0
40.62512969970703,-1.7606172561645508,-0.9178394079208374,-0.0,-0.0,-1.0,0.028870410236615,1.0,0.0
40.60968399047851,-1.4457910060882568,-0.9370485544204712,-0.0,-0.0,-1.0,0.0493779659724825,1.0,0.0
41.592498779296875,-0.7038757801055908,-0.7253608703613281,-0.0,-0.0,-1.0,0.0864193737643045,1.0,0.0
41.50535202026367,-0.6417746543884277,-0.7170165777206421,-0.0,-0.0,-1.0,0.201264667283261,1.0,0.0
41.585296630859375,-0.5662391185760498,-0.8185756206512451,0.6473585359736947,0.079500022195804,-0.7580281474805941,0.1520555376231082,4.0,0.0
41.95868682861328,-1.1928389072418213,-0.8067747354507446,-0.0,-0.0,-1.0,0.0856895821150818,1.0,0.0
41.63483810424805,-0.7658839225769043,-0.8052968978881836,-0.0,-0.0,-1.0,0.1327406546568068,2.0,0.0
40.217926025390625,-1.0278635025024414,-1.0180954933166504,-0.0,-0.0,-1.0,0.0596986427242781,2.0,0.0
