x,y,z,nx,ny,nz,curvature,density,label
34.080284118652344,12.612764358520508,-0.8564590215682983,0.5190858011527858,0.232131972195668,-0.8225963034965087,0.1888516925415484,3.0,0.0
33.78211975097656,12.588953018188477,-0.8402734994888306,-0.0,-0.0,-1.0,0.1702639601949455,1.0,0.0
33.53712844848633,12.032573699951172,-0.7641469240188599,-0.1621670159611321,0.9864604732472756,0.0244457287685004,0.241972893049418,5.0,0.0
33.32141876220703,11.9296875,-0.7433117628097534,-0.7259550674379659,0.6636827323581017,-0.1803176941701033,0.1989037624043279,4.0,0.0
34.722076416015625,12.64085578918457,-0.8914180994033813,-0.0,-0.0,-1.0,0.1750236863127236,2.0,0.0
32.86433410644531,11.201316833496094,-0.64033043384552,-0.6280061429713796,-0.6148914040721184,0.4769872593565056,0.1773542361920493,4.0,0.0
35.15729522705078,12.408153533935549,-0.8872982263565063,-0.0,-0.0,-1.0,0.1648949605438828,2.0,0.0
35.0948371887207,12.394454956054688,-0.8822132349014282,-0.0,-0.0,-1.0,0.1906415679077267,2.0,0.0
33.11308670043945,11.612106323242188,-1.003283143043518,-0.0,-0.0,-1.0,0.195203919139085,1.0,0.0
33.354156494140625,11.601993560791016,-1.0304077863693235,-0.0,-0.0,-1.0,0.2145689237719001,1.0,0.0
33.25211715698242,11.23670768737793,-0.970220685005188,-0.0,-0.0,-1.0,0.2409563682105203,1.0,0.0
32.83926773071289,11.00572395324707,-0.8912867307662964,-0.0,-0.0,-1.0,0.2400629880230528,2.0,0.0
34.925025939941406,12.730825424194336,-1.217294216156006,-0.0,-0.0,-1.0,0.1592554765439929,1.0,0.0
33.99589538574219,12.52134895324707,-1.2162256240844729,-0.0,-0.0,-1.0,0.2566367904520165,1.0,0.0
34.981292724609375,12.184301376342772,-1.142289638519287,-0.0,-0.0,-1.0,0.1564052282799124,1.0,0.0
33.32905960083008,11.177448272705078,-1.0582261085510254,-0.0,-0.0,-1.0,0.2215072277165591,1.0,0.0
33.210418701171875,11.199478149414062,-1.0660955905914309,-0.0,-0.0,-1.0,0.2455793260494093,1.0,0.0
32.76499938964844,11.181100845336914,-1.0832798480987549,-0.0,-0.0,-1.0,0.1216907391313606,1.0,0.0
32.905941009521484,10.78227424621582,-1.0224401950836182,-0.0,-0.0,-1.0,0.1322776625375282,1.0,0.0
34.89137649536133,10.846036911010742,-0.964216947555542,-0.0,-0.0,-1.0,0.2090831034872678,1.0,0.0
34.7546272277832,12.739520072937012,-1.1542481184005735,-0.0,-0.0,-1.0,0.172776355350416,1.0,0.0
33.893802642822266,12.577542304992676,-0.9959388971328736,-0.0,-0.0,-1.0,0.1138284714643316,1.0,0.0
35.070011138916016,12.246142387390137,-1.1558371782302856,0.407201942875747,0.2548532314480531,-0.8770612339732625,0.1762918906372682,3.0,0.0
34.849308013916016,12.322897911071776,-1.1268168687820437,-0.0,-0.0,-1.0,0.1700282191332927,1.0,0.0
33.368648529052734,11.958134651184082,-0.8464964628219604,-0.4818611015415882,0.1984659074816341,-0.8534759295894747,0.1595012884480127,9.0,0.0
35.15007400512695,11.630881309509276,-1.1057106256484983,-0.0,-0.0,-1.0,0.1940669114261028,2.0,0.0
32.75583267211914,11.782649993896484,-1.1729379892349243,-0.0,-0.0,-1.0,0.073918208201314,1.0,0.0
34.23561096191406,11.318513870239258,-1.1988595724105835,-0.0,-0.0,-1.0,0.0854623521830308,1.0,0.0
33.42243576049805,11.520196914672852,-1.1771918535232544,-0.0,-0.0,-1.0,0.2001929721147901,1.0,0.0
35.207454681396484,10.716804504394531,-1.183367371559143,-0.0,-0.0,-1.0,0.145386464968751,1.0,0.0
35.15631103515625,10.76547622680664,-1.1861759424209597,-0.0,-0.0,-1.0,0.1213051114736419,1.0,0.0
34.23919677734375,10.796398162841797,-1.1349068880081177,-0.0,-0.0,-1.0,0.188596031664313,2.0,0.0
33.851417541503906,12.350509643554688,-0.6445304155349731,-0.0,-0.0,-1.0,0.0673109165033223,1.0,0.0
33.334537506103516,11.57063102722168,-0.5490919351577759,-0.0,-0.0,-1.0,0.087698099776846,1.0,0.0
33.23887252807617,11.555673599243164,-0.5428575277328491,-0.0,-0.0,-1.0,0.1264951619472852,1.0,0.0
33.534210205078125,11.110687255859377,-1.295440673828125,-0.0,-0.0,-1.0,0.0612978872780177,1.0,0.0
34.81953430175781,11.87302017211914,-0.7788393497467041,-0.0,-0.0,-1.0,0.0885092101682695,1.0,0.0
34.704246520996094,11.960922241210938,-0.7855796813964844,-0.0,-0.0,-1.0,0.1018636586793864,1.0,0.0
33.809268951416016,12.012588500976562,-0.7747452259063721,-0.0,-0.0,-1.0,0.2050802808680308,1.0,0.0
33.9774284362793,11.162225723266602,-0.6890630722045898,-0.0,-0.0,-1.0,0.0989526920921836,1.0,0.0
34.808589935302734,10.95652198791504,-1.3390556573867798,-0.0,-0.0,-1.0,0.0920371147632466,1.0,0.0
34.958641052246094,12.49648666381836,-0.8913341760635376,-0.0,-0.0,-1.0,0.1848561354689115,1.0,0.0
34.51628875732422,11.875642776489258,-0.8240708112716675,-0.0,-0.0,-1.0,0.1355604409066826,1.0,0.0
34.35576629638672,11.955047607421877,-0.8343223333358765,-0.0,-0.0,-1.0,0.194668468120033,2.0,0.0
33.493839263916016,11.992046356201172,-0.847286581993103,-0.2077166478939716,0.8918401733761863,-0.4018393949577689,0.1063184749456172,3.0,0.0
33.435699462890625,12.050249099731444,-0.8546334505081177,0.6237873701693754,0.6097752029245418,-0.4889412221479272,0.2207653616634751,5.0,0.0
33.67274475097656,11.191125869750977,-0.7541182041168213,-0.0,-0.0,-1.0,0.1143690439133576,1.0,0.0
33.60956954956055,11.079341888427734,-0.7420792579650879,-0.0,-0.0,-1.0,0.1478553485154964,1.0,0.0
32.82298278808594,10.797134399414062,-0.7201730012893677,0.1051287141376553,0.3158358177509659,-0.942971733239837,0.2094473224178843,3.0,0.0
35.062896728515625,12.468303680419922,-0.9558323621749878,0.18347794681809,-0.98301904214973,0.0030668880718503,0.20149258474433,3.0,0.0
34.93764877319336,12.770477294921877,-1.00175940990448,-0.0,-0.0,-1.0,0.2396166637671633,2.0,0.0
34.72389221191406,12.875205993652344,-1.025863528251648,0.6777544715855298,0.5664307660064881,-0.4688337269940403,0.2184703724610217,3.0,0.0
34.07560729980469,12.619993209838867,-1.023264765739441,-0.0,-0.0,-1.0,0.1643977032034906,2.0,0.0
33.84209442138672,12.592145919799805,-1.0312575101852417,-0.1618029176842311,-0.3419869027090359,-0.9256699056382628,0.1913342053653055,5.0,0.0
35.156288146972656,11.685718536376951,-0.8480795621871948,-0.0,-0.0,-1.0,0.0923537868802951,2.0,0.0
33.38291549682617,11.365476608276367,-0.8911772966384888,-0.0,-0.0,-1.0,0.181937027871717,1.0,0.0
33.22718048095703,11.332721710205078,-0.8949185609817505,-0.0,-0.0,-1.0,0.1977233880321768,2.0,0.0
32.92586898803711,11.31342315673828,-0.9084728956222534,-0.0,-0.0,-1.0,0.2451530045400838,1.0,0.0
32.809288024902344,11.18793487548828,-0.8979719877243042,-0.0,-0.0,-1.0,0.1529371876973661,1.0,0.0
35.05353546142578,10.681078910827637,-1.2209635972976685,-0.0,-0.0,-1.0,0.1503852220627801,1.0,0.0
35.15692901611328,12.575881958007812,-0.8825279474258423,-0.0,-0.0,-1.0,0.1325883027817982,2.0,0.0
34.89622116088867,12.706451416015623,-0.8995882272720337,-0.0,-0.0,-1.0,0.2421772133251102,1.0,0.0
34.77989959716797,13.078605651855469,-0.9469958543777466,-0.9302000172080862,0.3180111888575242,0.183294330920245,0.2208810212976211,5.0,0.0
35.18018341064453,11.74197006225586,-0.7780464887619019,0.8453880657924139,-0.4672762984700173,-0.258789256160144,0.122328937140091,3.0,0.0
34.03278350830078,12.579584121704102,-0.8884283304214478,0.7885172939995915,-0.2935665572872373,-0.5404249749096359,0.2115499620153105,3.0,0.0
33.52869415283203,12.012123107910156,-0.8207453489303589,0.5288612328047868,0.178687067034035,-0.8296847163296279,0.1751442492793464,3.0,0.0
33.30424499511719,11.964597702026367,-0.81725013256073,0.5466796379201647,0.5244991343263865,-0.6527189529762012,0.2492310378757067,6.0,0.0
32.72511291503906,12.049346923828123,-0.8365710973739624,-0.0,-0.0,-1.0,0.1773588994396583,2.0,0.0
32.97908401489258,11.222009658813477,-0.7259935140609741,-0.5902208329457855,0.3611485318700854,-0.7219495178230019,0.2321671712329478,3.0,0.0
32.86309814453125,11.111547470092772,-0.7133957147598267,-0.3747376182041234,0.6053322423733105,-0.7022425463086103,0.2139234698203163,3.0,0.0
34.94707107543945,12.86477756500244,-1.0013973712921145,-0.0,-0.0,-1.0,0.214345027124707,2.0,0.0
35.060157775878906,12.327143669128418,-0.9398813247680664,-0.6417076695509407,0.4225393325608548,-0.6400560751047739,0.2137927735223598,5.0,0.0
34.87980651855469,12.594260215759276,-0.9671950340270996,-0.0,-0.0,-1.0,0.153153667015338,1.0,0.0
34.477195739746094,12.82508945465088,-0.9848170280456544,-0.0,-0.0,-1.0,0.116543842313175,1.0,0.0
34.155181884765625,12.634085655212402,-0.9539952278137208,-0.0,-0.0,-1.0,0.1510600944499886,1.0,0.0
34.012393951416016,12.577387809753418,-0.9437651634216307,-0.9296641522555912,-0.1324352219075709,-0.3437811455114807,0.1696107945998506,3.0,0.0
34.42589569091797,11.853642463684082,-0.8665978908538818,-0.8891572002392848,-0.1858152642170466,-0.4181771883383718,0.155369379416929,5.0,0.0
33.35155487060547,11.818191528320312,-0.8367559909820557,-0.0,-0.0,-1.0,0.2100466365267393,1.0,0.0
33.51023864746094,11.357114791870115,-0.784522294998169,-0.0,-0.0,-1.0,0.1314122370949166,1.0,0.0
33.285430908203125,11.334945678710938,-0.7767233848571777,0.2830645994089146,-0.3477261765779349,-0.8938461493366529,0.1770158269216911,6.0,0.0
32.85541915893555,11.080127716064451,-0.7363817691802979,-0.8153491786659323,-0.1555874519791301,0.5576721811561267,0.1755161982041951,6.0,0.0
32.77631378173828,11.41714096069336,-0.7756640911102295,-0.3396052350488303,0.5632018577539731,-0.7533073421584993,0.168181786121061,3.0,0.0
34.3974609375,12.138187408447266,-1.3361077308654783,-0.0,-0.0,-1.0,0.0755873667418887,2.0,0.0
34.369693756103516,12.298917770385742,-1.355804443359375,-0.9616608351066224,0.0452054353866124,-0.2704901233567328,0.0623208544492325,3.0,0.0
34.04643249511719,12.113056182861328,-1.3060755729675293,-0.0,-0.0,-1.0,0.0472348479476417,1.0,0.0
33.95742416381836,11.666101455688477,-1.238577365875244,-0.0,-0.0,-1.0,0.0328417061470709,1.0,0.0
33.37012481689453,11.250104904174805,-1.1378872394561768,-0.0,-0.0,-1.0,0.2618823810548851,1.0,0.0
32.92793273925781,10.920930862426758,-1.0602476596832275,-0.0,-0.0,-1.0,0.1619413943818501,1.0,0.0
35.04850769042969,12.637306213378906,-0.8416850566864014,-0.0,-0.0,-1.0,0.139714653851437,1.0,0.0
34.85284423828125,12.717855453491213,-0.837700366973877,0.5203540132125235,-0.0622525119205299,-0.851678534244703,0.1858325334380635,3.0,0.0
35.181434631347656,11.674623489379885,-0.7512632608413696,-0.0,-0.0,-1.0,0.0956673337832883,2.0,0.0
33.4742546081543,12.096284866333008,-0.6880607604980469,0.1026687803823768,0.7481768112959576,-0.6555078798716372,0.223517630110219,6.0,0.0
33.014644622802734,11.28615951538086,-0.5761443376541138,-0.458091463955913,0.0550147029551195,-0.8872009880007392,0.1775669106343234,4.0,0.0
32.93644332885742,11.30929183959961,-0.5737361907958984,-0.1147991087004327,0.96574450012337,-0.2327202722648986,0.1391691178747679,5.0,0.0
35.12186813354492,12.19415283203125,-1.196946382522583,-0.0,-0.0,-1.0,0.1486935016113379,1.0,0.0
35.06459045410156,12.407858848571776,-1.2150967121124268,-0.0,-0.0,-1.0,0.1465827009949741,1.0,0.0
34.6412467956543,12.47117805480957,-1.1793992519378662,-0.0,-0.0,-1.0,0.1639240880169877,1.0,0.0
34.27244567871094,12.535250663757324,-1.149764060974121,-0.0,-0.0,-1.0,0.1295154142687063,1.0,0.0
34.366153717041016,11.732264518737791,-1.06829571723938,-0.0,-0.0,-1.0,0.1484775741876193,2.0,0.0
34.02593231201172,12.424201965332031,-1.112675666809082,-0.0,-0.0,-1.0,0.2148213240472797,1.0,0.0
33.365699768066406,11.907224655151367,-0.9888620376586914,-0.0,-0.0,-1.0,0.1664999460860145,1.0,0.0
33.462100982666016,11.281660079956056,-0.927053928375244,-0.0,-0.0,-1.0,0.1516232061108762,1.0,0.0
33.30940246582031,11.185837745666504,-0.9011020660400392,-0.0,-0.0,-1.0,0.1838760679510958,2.0,0.0
32.9157600402832,10.89055347442627,-0.8288612365722656,-0.0531178387628211,0.5497254476386635,-0.8336548610927895,0.2216003568829605,4.0,0.0
32.78969955444336,11.1277437210083,-0.8437387943267822,-0.0,-0.0,-1.0,0.1537318546762765,2.0,0.0
34.96831512451172,12.74815559387207,-0.9890869855880736,-0.0,-0.0,-1.0,0.2397257660866338,2.0,0.0
34.62266540527344,12.890012741088867,-1.0031155347824097,-0.0,-0.0,-1.0,0.1532447181180456,1.0,0.0
35.039649963378906,12.299259185791016,-0.9242650270462036,-0.6188074243546597,0.0534708095657851,-0.7837207692079697,0.2025267201020626,4.0,0.0
34.87495040893555,12.312602996826172,-0.9223605394363404,-0.0,-0.0,-1.0,0.2106395265872135,1.0,0.0
34.385616302490234,11.884748458862305,-0.8480147123336792,0.4422424542209475,0.1257164599024006,-0.8880410933026925,0.1585093557325985,7.0,0.0
34.115638732910156,12.595396041870115,-0.9494138956069946,-0.0,-0.0,-1.0,0.1783226402132514,1.0,0.0
33.96902084350586,12.613809585571287,-0.9497400522232056,0.0938958832510926,0.9911818336278267,0.0934993892743496,0.1484494756100699,5.0,0.0
33.2978515625,11.306150436401367,-0.7410620450973511,0.3833546783931325,-0.6487657265000836,-0.6573752525558874,0.1375766870407912,3.0,0.0
32.91667175292969,10.929826736450195,-0.6782501935958862,-0.3320204830943385,-0.8639018471340482,-0.3787294513556889,0.1332890121131091,3.0,0.0
32.814945220947266,11.129446029663086,-0.7073737382888794,-0.0,-0.0,-1.0,0.1928243957449822,1.0,0.0
33.004817962646484,12.963417053222656,-1.4533014297485352,-0.0367330822482987,0.0981730423568722,-0.9944911937382532,0.1838339400339765,3.0,0.0
35.057796478271484,12.503270149230955,-0.9194695949554444,-0.0,-0.0,-1.0,0.1953007690560475,1.0,0.0
35.08418655395508,12.873153686523438,-0.972369909286499,-0.0,-0.0,-1.0,0.2739682928408684,1.0,0.0
34.87445831298828,12.720181465148926,-0.9428098201751708,-0.0,-0.0,-1.0,0.1922488047030965,2.0,0.0
34.782249450683594,12.885347366333008,-0.9627959728240968,0.6849707575713525,0.3485860031971304,-0.639767816982988,0.2199591941916047,4.0,0.0
34.34894561767578,10.750177383422852,-1.1264002323150637,-0.0,-0.0,-1.0,0.1302570948088713,1.0,0.0
34.070762634277344,11.256142616271973,-1.1967833042144775,-0.0,-0.0,-1.0,0.182105573616374,2.0,0.0
34.0583381652832,11.411917686462402,-1.2229576110839844,-0.0,-0.0,-1.0,0.057982387630816,1.0,0.0
34.01044464111328,11.905037879943848,-1.3063533306121826,-0.4583299440909589,-0.3629769018688483,-0.811283816589035,0.0280147012193579,3.0,0.0
33.79021453857422,11.479278564453123,-1.2206590175628662,-0.0,-0.0,-1.0,0.0206988903028913,1.0,0.0
33.471805572509766,10.77713394165039,-1.08174467086792,-0.0,-0.0,-1.0,0.0742397603408575,2.0,0.0
33.20160675048828,11.420832633972168,-1.1825551986694336,-0.0,-0.0,-1.0,0.146598074784956,1.0,0.0
32.8742561340332,10.687820434570312,-1.037410020828247,-0.0,-0.0,-1.0,0.1789445552889645,1.0,0.0
32.8558235168457,10.85960578918457,-1.0672338008880615,-0.0,-0.0,-1.0,0.1545238090182892,1.0,0.0
33.10153579711914,11.270554542541504,-1.1512649059295654,-0.0,-0.0,-1.0,0.2199425712154479,1.0,0.0
32.88447952270508,11.680060386657717,-1.2157738208770752,-0.0,-0.0,-1.0,0.0313805822466223,2.0,0.0
35.18310546875,11.800126075744627,-0.8273847103118896,-0.0,-0.0,-1.0,0.08610973051427,2.0,0.0
35.10795211791992,12.327537536621094,-0.8970112800598145,0.7582894796590927,0.5902899919635024,-0.2766853635920603,0.2035507786588865,3.0,0.0
34.50318145751953,12.643779754638672,-0.9184577465057372,-0.0,-0.0,-1.0,0.1435177294503653,1.0,0.0
34.02577209472656,12.566366195678713,-0.8914783000946045,0.7885172939995915,-0.2935665572872373,-0.5404249749096359,0.2115499620153104,3.0,0.0
33.57854080200195,12.062955856323242,-0.8048732280731201,-0.3619591911348226,0.9184636331955476,0.1594054530129372,0.2211721985848979,3.0,0.0
33.40705108642578,11.940643310546877,-0.782057523727417,0.1523596720059718,0.5367757910176013,-0.8298543730822058,0.2167797663325376,6.0,0.0
32.78189468383789,11.145344734191896,-0.6484717130661011,-0.65264383390451,-0.1420421190987973,-0.7442311888575652,0.1780435391599591,4.0,0.0
32.94275665283203,11.281699180603027,-0.6727802753448486,0.6607979235984093,-0.6920160925161475,-0.2906197375725085,0.2057616774428451,3.0,0.0
33.973060607910156,10.7205171585083,-1.2241791486740112,-0.0,-0.0,-1.0,0.0866727894803458,1.0,0.0
32.82012176513672,11.352761268615724,-1.2854396104812622,-0.0,-0.0,-1.0,0.194294042115376,1.0,0.0
35.065940856933594,12.412750244140623,-1.1044996976852417,-0.0,-0.0,-1.0,0.2222622616248551,2.0,0.0
34.75111389160156,12.959619522094728,-1.1815983057022097,-0.0,-0.0,-1.0,0.205055928947314,1.0,0.0
34.6351318359375,12.522814750671388,-1.103742241859436,-0.0,-0.0,-1.0,0.1952354902319183,2.0,0.0
34.479488372802734,12.805561065673828,-1.144837498664856,-0.0,-0.0,-1.0,0.2265110730726288,1.0,0.0
34.52964401245117,10.715340614318848,-0.8022912740707397,-0.0,-0.0,-1.0,0.1679511160008744,1.0,0.0
34.36060333251953,11.856199264526367,-0.9810525178909302,-0.1033742518527618,-0.0954775295433119,-0.9900493954375142,0.1641440317090065,3.0,0.0
34.171348571777344,12.56714153289795,-1.0926660299301147,-0.0,-0.0,-1.0,0.1849291256243805,1.0,0.0
33.29032897949219,11.39479160308838,-0.860944390296936,-0.9741405502855608,-0.2240478527960892,0.0292018483457277,0.2507428881905463,4.0,0.0
32.86715316772461,12.027353286743164,-0.956318736076355,-0.0,-0.0,-1.0,0.227769783242785,1.0,0.0
34.42353820800781,10.642614364624023,-0.7851959466934204,-0.1676910776425984,-0.9847104726972986,-0.0471697725172256,0.1399888119624243,8.0,0.0
33.283851623535156,11.323162078857422,-0.848530650138855,-0.0,-0.0,-1.0,0.2084730779624375,1.0,0.0
32.87997817993164,11.011622428894045,-0.7810782194137573,0.1650830742040988,-0.5512904683674608,-0.8178180715162202,0.1409007428160224,3.0,0.0
32.79899215698242,11.268406867980955,-0.8226333856582642,-0.8481461530485589,-0.0293439436233975,0.5289489919090091,0.1523141224286382,8.0,0.0
34.851295471191406,10.931031227111816,-1.037808537483215,-0.0,-0.0,-1.0,0.1801342530205385,1.0,0.0
34.65976333618164,12.399772644042969,-1.2788771390914917,-0.0,-0.0,-1.0,0.1777440928454331,2.0,0.0
34.4887580871582,12.56178092956543,-1.296317458152771,-0.0,-0.0,-1.0,0.1797624332923995,1.0,0.0
34.33061218261719,11.601635932922363,-1.113458275794983,-0.0,-0.0,-1.0,0.1588114452043616,1.0,0.0
34.393619537353516,11.796175003051758,-1.1524828672409058,-0.0,-0.0,-1.0,0.1582605231444352,2.0,0.0
32.83606719970703,11.103453636169434,-1.338940978050232,-0.0,-0.0,-1.0,0.1741300948440219,2.0,0.0
35.1671257019043,12.055731773376465,-0.7707599401473999,-0.0,-0.0,-1.0,0.0695518987848967,1.0,0.0
35.05868148803711,12.752963066101074,-0.8672486543655396,-0.0,-0.0,-1.0,0.1856185848803127,1.0,0.0
35.1712760925293,11.728768348693848,-0.723922848701477,-0.0,-0.0,-1.0,0.1141652703242649,2.0,0.0
35.12730026245117,11.858492851257324,-0.7400394678115845,0.717117770383636,0.2419854826607517,-0.653594009750277,0.1422021822875956,4.0,0.0
35.05708312988281,12.458503723144531,-0.8236368894577026,-0.389011516237727,-0.0487501356250084,-0.9199420984556403,0.133100662914495,3.0,0.0
34.84748077392578,12.77733325958252,-0.8604139089584351,-0.0,-0.0,-1.0,0.2409725524124741,2.0,0.0
34.79398727416992,13.079180717468262,-0.9031165838241576,0.7267440054363755,0.2793187836505547,-0.6275541153257366,0.1896520418666839,6.0,0.0
34.68657684326172,10.83487319946289,-1.0079926252365112,-0.0,-0.0,-1.0,0.1780842105771064,1.0,0.0
34.13430404663086,11.090025901794434,-1.0088931322097778,-0.2942262528134033,-0.3720064494505732,-0.8803647617451312,0.1795768929077203,4.0,0.0
34.06591796875,11.171671867370604,-1.0182045698165894,0.3405278431763225,-0.5013734119275327,-0.7954027217918143,0.1731426193521455,3.0,0.0
33.34262466430664,11.257488250732422,-0.9838162660598756,-0.0833794543699383,-0.9681402751571756,-0.2361191949155342,0.2658186460852499,3.0,0.0
32.99099349975586,10.902993202209473,-0.8965169191360474,-0.0,-0.0,-1.0,0.2078458660999741,1.0,0.0
33.010406494140625,11.327396392822266,-0.9761813879013062,-0.0,-0.0,-1.0,0.2149125403949296,2.0,0.0
32.86626434326172,10.924038887023926,-0.8926194906234741,-0.3227833428600304,-0.7106893794927157,-0.6250852097501293,0.2827631303912378,5.0,0.0
32.80138397216797,11.23228645324707,-0.9459964036941528,-0.0,-0.0,-1.0,0.134089840120136,1.0,0.0
33.0058479309082,11.360422134399414,-0.5613207817077637,0.2362318181093508,0.9474451234486428,0.2157365665948565,0.2303026188855537,3.0,0.0
32.87544250488281,11.474729537963867,-0.5738310813903809,-0.2375903856051637,0.917479884252884,-0.3190320840594315,0.1883902587725532,4.0,0.0
35.11040115356445,12.833200454711914,-1.1431944370269775,-0.0,-0.0,-1.0,0.2148858188806246,1.0,0.0
35.092498779296875,11.98122215270996,-0.9981610774993896,0.898350962960014,0.3831303414777224,0.2148876189732184,0.0864649478454081,4.0,0.0
35.00564956665039,12.39118194580078,-1.0602047443389893,0.700404667156004,0.0366937940773662,-0.7128021238059659,0.2266212211004696,4.0,0.0
34.733280181884766,12.53302764892578,-1.0645811557769775,-0.0,-0.0,-1.0,0.2348144583618525,1.0,0.0
34.82081604003906,12.992181777954102,-1.1501543521881104,-0.0,-0.0,-1.0,0.2230226154505521,1.0,0.0
34.744808197021484,10.664108276367188,-1.1742615699768066,-0.0,-0.0,-1.0,0.2029587946169433,1.0,0.0
34.864830017089844,10.902467727661133,-1.2317678928375244,0.3591037955532051,0.1980391635936335,-0.9120443814324036,0.1627280175265368,3.0,0.0
34.300750732421875,11.032272338867188,-1.1960899829864502,-0.6432723422895302,-0.0958261851729764,-0.7596170323791691,0.1134720365007171,6.0,0.0
34.11756896972656,11.289459228515623,-1.227752447128296,-0.0,-0.0,-1.0,0.0838141625760235,1.0,0.0
33.87969970703125,10.775455474853516,-1.103304386138916,-0.0,-0.0,-1.0,0.0777688160877923,1.0,0.0
33.99238204956055,11.291275024414062,-1.2158997058868408,-0.0,-0.0,-1.0,0.0846394267848847,1.0,0.0
33.829959869384766,11.588367462158203,-1.25990629196167,-0.0,-0.0,-1.0,0.0268637592933644,1.0,0.0
33.47275161743164,10.825727462768556,-1.0732004642486572,-0.0,-0.0,-1.0,0.0595602183046311,2.0,0.0
33.29553985595703,11.242189407348633,-1.1410315036773682,-0.0,-0.0,-1.0,0.2359780172714908,2.0,0.0
33.32692337036133,11.374990463256836,-1.171036720275879,-0.0,-0.0,-1.0,0.1700639375232867,1.0,0.0
33.00113296508789,11.226285934448242,-1.112309217453003,-0.0,-0.0,-1.0,0.1698491489258821,1.0,0.0
33.008697509765625,11.575176239013672,-1.1857116222381592,-0.0,-0.0,-1.0,0.1182782264038245,1.0,0.0
32.854331970214844,11.776233673095703,-1.215839147567749,-0.1150272138162658,-0.3309771481111108,-0.9366017656986896,0.0418749501620308,4.0,0.0
32.77239227294922,11.26324462890625,-1.100783348083496,-0.0,-0.0,-1.0,0.0997842629604619,2.0,0.0
34.58206558227539,10.69976043701172,-0.7472482919692993,-0.0,-0.0,-1.0,0.1880894416401526,1.0,0.0
34.392669677734375,11.866113662719728,-0.9254803657531738,-0.5743344768170204,0.289462499164001,-0.7657358358579346,0.1362086050574226,4.0,0.0
34.49026870727539,10.690757751464844,-0.7380586862564087,0.7888197849791068,-0.0645947086814497,-0.6112208033402284,0.1943467838476322,6.0,0.0
34.50991439819336,10.855070114135742,-0.7662563323974609,-0.0,-0.0,-1.0,0.1522589186473243,2.0,0.0
34.22413635253906,11.828128814697266,-0.9067060947418212,-0.0,-0.0,-1.0,0.1757700654655178,1.0,0.0
33.320133209228516,11.336965560913086,-0.7584798336029053,0.3833546783931325,-0.6487657265000836,-0.6573752525558874,0.1331086431614787,3.0,0.0
33.396453857421875,11.392717361450195,-0.7734124660491943,-0.0,-0.0,-1.0,0.1455822537811832,1.0,0.0
33.283348083496094,11.97121238708496,-0.8691432476043701,0.8233187358007382,0.5293362340768797,-0.2048155525656709,0.1284487433584679,4.0,0.0
32.934898376464844,11.164785385131836,-0.7028943300247192,0.3314023207525852,-0.4386889366869566,-0.8352990593962552,0.1963803161238963,3.0,0.0
32.791053771972656,11.289466857910156,-0.716154932975769,-0.0,-0.0,-1.0,0.127878671623978,1.0,0.0
35.18287658691406,12.290435791015623,-1.0375173091888428,0.7883436385125597,0.5252991506208793,0.3202734924619284,0.2000313546375716,4.0,0.0
35.013336181640625,12.428506851196287,-1.0410716533660889,0.6315458770007492,0.0680750469188524,-0.772344219393368,0.2560349804982424,4.0,0.0
35.009220123291016,12.864398956298828,-1.108978271484375,-0.0,-0.0,-1.0,0.2017597248030346,1.0,0.0
35.06026077270508,10.880895614624023,-1.2309691905975342,-0.0,-0.0,-1.0,0.0827043159475258,1.0,0.0
34.862491607666016,11.504566192626951,-1.30884051322937,-0.0073186593669501,0.4200386843850773,-0.9074766888714684,0.1418370011463973,4.0,0.0
34.77198028564453,12.916618347167969,-1.09385347366333,-0.0,-0.0,-1.0,0.2320124406258489,2.0,0.0
34.681983947753906,10.662154197692873,-1.1404540538787842,0.1038288564643031,0.9225463791155778,0.3716554142563395,0.1140425682385544,4.0,0.0
34.784637451171875,10.698551177978516,-1.161184787750244,0.7231458998879547,0.4651694369844333,0.510565766939799,0.2302087280446424,3.0,0.0
34.45453643798828,11.728713989257812,-1.2942895889282229,-0.0,-0.0,-1.0,0.2299799704991999,1.0,0.0
34.463356018066406,12.057180404663086,-1.3551323413848877,-0.0,-0.0,-1.0,0.0495705305542642,2.0,0.0
34.15175247192383,12.538402557373049,-1.4068143367767334,-0.0,-0.0,-1.0,0.1034547334443157,2.0,0.0
34.21452713012695,10.903352737426758,-1.1162450313568115,-0.3893372695065596,-0.8509372101929891,-0.3525937533226436,0.1609884074868807,4.0,0.0
34.1756706237793,11.136581420898438,-1.1519131660461426,-0.3988060382300198,-0.8661281447248511,-0.3012901936452024,0.2306318898109093,4.0,0.0
33.96489334106445,11.760866165161133,-1.2378602027893066,-0.0,-0.0,-1.0,0.0263410541612387,2.0,0.0
33.6983757019043,12.701164245605469,-1.3859755992889404,-0.0,-0.0,-1.0,0.104449623711929,1.0,0.0
33.262725830078125,12.044622421264648,-1.208383560180664,-0.5677569505890548,-0.6901981036184899,-0.4486408617360413,0.195273272347472,4.0,0.0
32.970516204833984,10.732942581176758,-1.2853314876556396,-0.0,-0.0,-1.0,0.2133125858372647,1.0,0.0
32.82994842529297,10.841654777526855,-1.2880682945251465,-0.0,-0.0,-1.0,0.1865876028808137,1.0,0.0
32.784481048583984,10.75705623626709,-1.2631306648254397,-0.0,-0.0,-1.0,0.2124398386826355,2.0,0.0
34.88371658325195,12.35550308227539,-1.016275405883789,0.1997918172201777,-0.6066598586737315,-0.7694459341927975,0.2811527041616653,5.0,0.0
34.47576141357422,10.649945259094238,-0.7160825729370117,0.3815193744993836,-0.8747601102387081,-0.298726825740111,0.1424283229558593,5.0,0.0
34.5384635925293,10.905158996582031,-0.7601561546325684,-0.0,-0.0,-1.0,0.2130857439554798,1.0,0.0
34.39454650878906,11.796850204467772,-0.8789529800415039,0.7314517225304779,0.6658476643606818,-0.1470553143297511,0.1816501100164594,5.0,0.0
34.473777770996094,12.667551040649414,-1.0247018337249756,-0.0,-0.0,-1.0,0.1316301024852102,2.0,0.0
34.42121124267578,10.65233039855957,-0.7102144956588745,0.2523581399836666,-0.9377809578359454,-0.2384999880592889,0.1531712875768119,4.0,0.0
33.36790084838867,12.25035285949707,-0.8526856899261475,-0.0,-0.0,-1.0,0.219471821414708,1.0,0.0
33.56475067138672,12.556135177612305,-0.9215641021728516,-0.972789765927126,0.2301912581108861,-0.0263069571933863,0.1562393277236412,4.0,0.0
33.27487564086914,11.17954444885254,-1.0443265438079834,-0.0,-0.0,-1.0,0.2776663936896903,1.0,0.0
33.25589370727539,11.991994857788086,-0.7994344234466553,-0.0,-0.0,-1.0,0.1822102617490784,2.0,0.0
32.903133392333984,10.953523635864258,-0.9566397666931152,-0.0,-0.0,-1.0,0.2788349273177584,2.0,0.0
32.89574432373047,11.317487716674805,-1.0252389907836914,-0.0,-0.0,-1.0,0.1703008194966212,1.0,0.0
32.93965148925781,11.169393539428713,-0.6344784498214722,-0.0,-0.0,-1.0,0.1704041402408554,1.0,0.0
32.8196907043457,11.244468688964844,-0.635551929473877,0.5808970355047816,0.2473653879379195,-0.7754798507969625,0.1252715612013862,5.0,0.0
35.02772903442383,12.848989486694336,-1.057302713394165,-0.0,-0.0,-1.0,0.2455637970130284,1.0,0.0
35.146751403808594,12.297212600708008,-1.0174281597137451,-0.0,-0.0,-1.0,0.2317556466124979,2.0,0.0
34.993614196777344,12.692296981811523,-1.0348291397094729,-0.0,-0.0,-1.0,0.2005228543318232,2.0,0.0
34.93171310424805,12.4044828414917,-0.9939193725585938,0.993387095189286,-0.0996517513297819,-0.0570228688185651,0.2742098531589012,8.0,0.0
34.86310958862305,12.837682723999023,-1.030551195144653,0.7595590466551244,-0.2489413578245197,-0.6009145155584477,0.1918503417892247,4.0,0.0
34.7948112487793,12.92742156982422,-1.0303020477294922,-0.0,-0.0,-1.0,0.2817198859850529,1.0,0.0
34.419090270996094,11.852102279663086,-0.853438138961792,-0.3490116522873402,0.3611422393160544,-0.8647353060615983,0.1553693794169289,7.0,0.0
33.84245681762695,12.609075546264648,-0.8510410785675049,-0.3014055675008917,-0.4091769432212873,-0.8612368507069057,0.1853218054082177,3.0,0.0
34.47038269042969,10.722110748291016,-0.7532453536987305,-0.0,-0.0,-1.0,0.1377204902615215,2.0,0.0
34.464107513427734,10.850804328918455,-0.7634966373443604,-0.0,-0.0,-1.0,0.1288870395409914,2.0,0.0
34.44083786010742,10.658880233764648,-0.7425839900970459,-9.039682593229193e-05,-0.9999815686856828,0.0060707592058365,0.1424283229558592,10.0,0.0
32.992408752441406,11.261123657226562,-0.5653934478759766,-0.0,-0.0,-1.0,0.1508790156548557,2.0,0.0
32.90411376953125,11.411409378051758,-0.5697822570800781,0.4910013733000166,-0.6349666028862899,-0.5964352979465103,0.141773869690374,5.0,0.0
34.94963836669922,11.22200870513916,-1.2333966493606567,-0.0,-0.0,-1.0,0.049647732850644,1.0,0.0
34.85220718383789,11.105960845947266,-1.1973057985305786,-0.136634786116652,0.2604161096958811,-0.9557794646432406,0.05308829038238,3.0,0.0
34.77406311035156,11.3986234664917,-1.234514832496643,-0.0,-0.0,-1.0,0.1040183062937809,2.0,0.0
34.64435577392578,11.89419937133789,-1.302851319313049,-0.0,-0.0,-1.0,0.1256679823096396,1.0,0.0
34.36680603027344,12.323902130126951,-1.3413623571395874,-0.9616608351066224,0.0452054353866124,-0.2704901233567328,0.0721406254776627,3.0,0.0
34.2803955078125,12.54731559753418,-1.3726221323013306,-0.0,-0.0,-1.0,0.21078941725448,2.0,0.0
34.04533386230469,13.021612167358398,-1.4355591535568235,0.3046785030474171,0.4792572195203504,-0.823093875155445,0.2169474570378076,3.0,0.0
33.643836975097656,12.961767196655272,-1.367376446723938,-0.0,-0.0,-1.0,0.2336250344253945,1.0,0.0
33.049312591552734,13.100210189819336,-1.3191081285476685,-0.0,-0.0,-1.0,0.1658728564890293,2.0,0.0
35.140865325927734,12.772909164428713,-1.1112273931503296,-0.0,-0.0,-1.0,0.2195052991479928,1.0,0.0
35.092586517333984,11.951557159423828,-0.9695528745651244,0.936925723347972,0.2440637567962207,0.2502060581748463,0.0546628321139069,3.0,0.0
34.94511413574219,12.423873901367188,-1.0277470350265503,0.440930535732532,-0.6308291449674611,-0.6384628826472565,0.2307533490408141,5.0,0.0
34.98240661621094,12.685711860656738,-1.0766555070877075,0.3151569360804584,0.9208892376790336,-0.2294321633235106,0.199320179419614,3.0,0.0
34.697479248046875,10.835067749023438,-1.125397562980652,-0.0,-0.0,-1.0,0.1497386946880419,2.0,0.0
34.5460090637207,10.705155372619627,-1.0778638124465942,-0.990847404372399,0.0984361483273027,0.0923674507116291,0.1607933395502404,3.0,0.0
34.20860290527344,11.066102981567385,-1.0825563669204712,-0.0,-0.0,-1.0,0.2066717493753309,2.0,0.0
34.377262115478516,11.818065643310549,-0.8545361757278442,-0.9278994748262168,-0.1733431246791781,-0.3300829073788728,0.1721518085676115,4.0,0.0
33.96599578857422,12.627793312072754,-0.9437390565872192,0.3985236658861429,0.91027229831515,0.1121750001057486,0.1488944402758718,5.0,0.0
34.108184814453125,11.037009239196776,-1.0608621835708618,-0.0,-0.0,-1.0,0.2229768365568804,2.0,0.0
34.09088134765625,11.224847793579102,-1.0913933515548706,0.5407210374539341,-0.6275449067616062,0.5601858170752881,0.1913550488733066,3.0,0.0
33.61760330200195,12.542462348937988,-0.8879848718643188,0.0015425183207222,0.4453095251643616,-0.8953753667792751,0.1717899632602556,3.0,0.0
33.33137130737305,11.163558959960938,-0.9588390588760376,-0.0,-0.0,-1.0,0.1981869988293687,1.0,0.0
33.05546569824219,13.05694580078125,-1.3102904558181765,-0.0,-0.0,-1.0,0.1851491363447419,2.0,0.0
33.074554443359375,11.131872177124023,-0.9129399061203004,-0.0,-0.0,-1.0,0.1394025975164628,2.0,0.0
33.49723434448242,12.270957946777344,-0.8247956037521362,-0.0,-0.0,-1.0,0.1889014666942872,1.0,0.0
33.59784698486328,12.405494689941406,-0.8607925176620483,-0.0,-0.0,-1.0,0.2107704184226585,1.0,0.0
33.34016418457031,11.980108261108398,-0.7542215585708618,0.8725539513082551,0.0301515385890967,-0.487586389039995,0.2442736479027473,5.0,0.0
32.92955017089844,11.298016548156738,-0.5848798751831055,-0.1147991087004327,0.96574450012337,-0.2327202722648986,0.1701411534668337,5.0,0.0
32.854881286621094,11.404658317565918,-0.594450831413269,-0.0,-0.0,-1.0,0.1260479363230248,2.0,0.0
33.48491668701172,13.034213066101074,-1.4803229570388794,-0.0,-0.0,-1.0,0.1339157727757754,1.0,0.0
34.89374542236328,11.929557800292969,-1.1389392614364624,-0.0,-0.0,-1.0,0.139334486123903,1.0,0.0
34.97809600830078,12.249067306518556,-1.2023831605911257,-0.0,-0.0,-1.0,0.2148541459129193,1.0,0.0
34.677528381347656,12.518657684326172,-1.1951338052749634,0.2206438417186678,0.4343904130619268,-0.8732818927193645,0.1142057373102855,3.0,0.0
34.37015914916992,10.738067626953123,-1.2425919771194458,-0.0,-0.0,-1.0,0.1537147944764572,1.0,0.0
34.4586181640625,10.83725357055664,-1.2766021490097046,-0.0,-0.0,-1.0,0.0941143837330271,1.0,0.0
34.41062927246094,11.614835739135742,-1.0088664293289185,-0.0,-0.0,-1.0,0.1249632220020746,1.0,0.0
34.384098052978516,11.744987487792969,-1.0242215394973757,-0.0,-0.0,-1.0,0.1177277680853961,2.0,0.0
34.641300201416016,12.541576385498049,-1.1928869485855105,-0.0,-0.0,-1.0,0.1404005025782331,2.0,0.0
34.07667541503906,10.995630264282228,-1.2224503755569458,-0.0,-0.0,-1.0,0.1705187693144086,1.0,0.0
33.9261474609375,11.441822052001951,-1.2663501501083374,-0.0,-0.0,-1.0,0.0289976948758366,1.0,0.0
33.882415771484375,12.617308616638184,-1.082701325416565,0.4194324921168093,0.7922411371953962,-0.4432046537346242,0.1950235021129315,6.0,0.0
33.835533142089844,11.119497299194336,-1.193273425102234,-0.0,-0.0,-1.0,0.0571155704353236,2.0,0.0
33.84861755371094,11.224836349487305,-1.2136482000350952,-0.0,-0.0,-1.0,0.0339676208622582,2.0,0.0
33.81383514404297,11.699333190917969,-1.2890490293502808,-0.6673819504202744,-0.5557906357568785,-0.4956794341690957,0.0349411498520091,3.0,0.0
33.624725341796875,12.579343795776367,-1.225479245185852,-0.0,-0.0,-1.0,0.1575446329344586,2.0,0.0
33.48031997680664,12.798473358154297,-1.43231999874115,-0.0,-0.0,-1.0,0.0683358460272457,2.0,0.0
33.256778717041016,11.261995315551758,-1.1010733842849731,-0.0,-0.0,-1.0,0.1923135626268088,1.0,0.0
33.333091735839844,12.57293701171875,-1.3606194257736206,-0.5050082610422735,0.8444635659454655,-0.1784599172635905,0.1684922335111156,3.0,0.0
32.90749740600586,10.86136245727539,-1.126020073890686,-0.0,-0.0,-1.0,0.1662839776656224,1.0,0.0
32.85132598876953,12.54896640777588,-1.2678543329238892,-0.0,-0.0,-1.0,0.1282936714269557,1.0,0.0
35.197872161865234,11.763839721679688,-0.7597509622573853,0.8453880657924139,-0.4672762984700173,-0.258789256160144,0.1002727787743148,3.0,0.0
35.108116149902344,12.52892780303955,-0.8500362634658813,0.1056928241317115,0.6050523964113527,-0.7891391667658768,0.1677866024805995,3.0,0.0
34.93147277832031,12.46630859375,-0.8173700571060181,-0.0,-0.0,-1.0,0.1557756840695454,1.0,0.0
34.87492370605469,12.664287567138672,-0.8375662565231323,-0.0,-0.0,-1.0,0.1449439039431143,2.0,0.0
34.7894401550293,12.941715240478516,-0.8657852411270142,-0.7242533902785312,0.6721088692031115,-0.154034718841463,0.1391269580710645,3.0,0.0
34.40279006958008,10.6936616897583,-0.8741828203201294,-0.9885038244652784,0.1341348262460104,0.0697713222281992,0.1639590405417229,4.0,0.0
34.198974609375,11.15509033203125,-0.90396249294281,-0.0,-0.0,-1.0,0.2169915632717609,1.0,0.0
33.363739013671875,11.310298919677734,-0.7849034070968628,-0.432635493887288,-0.849519499772905,-0.301899236392701,0.1598165717341705,4.0,0.0
33.31146240234375,11.938785552978516,-0.8774446249008179,0.6141440212086595,0.7559095621754419,-0.2267771042794868,0.1069929390258445,6.0,0.0
33.33258819580078,12.126498222351074,-0.9121724367141724,0.2783859217001885,0.3987675448224967,-0.8737767013347142,0.1830058366241115,4.0,0.0
32.816917419433594,10.907294273376465,-0.7894281148910522,0.3244302593625544,-0.9379293924924018,-0.1226110170775039,0.1975335803765183,3.0,0.0
32.783016204833984,11.188020706176758,-0.6687406301498413,-0.3703373877414852,-0.3088334439930363,-0.8760548630720638,0.2378665850016582,4.0,0.0
32.7204475402832,12.004880905151367,-0.7944222688674927,-0.0,-0.0,-1.0,0.189688732589499,2.0,0.0
34.76987075805664,11.655803680419922,-1.348863959312439,-0.0,-0.0,-1.0,0.0884802542529926,1.0,0.0
34.712890625,11.828354835510254,-1.365991234779358,0.3844910629143248,0.5709405341077396,-0.7253919830352289,0.130262189403276,4.0,0.0
34.48996353149414,12.08456039428711,-1.36558997631073,-0.0,-0.0,-1.0,0.0563534154103591,2.0,0.0
34.42708969116211,12.274418830871582,-1.386690974235535,-0.0,-0.0,-1.0,0.1007683670884529,1.0,0.0
34.224178314208984,13.06141471862793,-1.494088053703308,-0.0,-0.0,-1.0,0.2329331667295335,1.0,0.0
34.089351654052734,12.852582931518556,-1.4288734197616575,0.5995635079741413,-0.1266819687248803,-0.7902374824732944,0.100746348726192,3.0,0.0
34.093196868896484,13.099735260009766,-1.477295994758606,-0.0,-0.0,-1.0,0.1763665140970133,1.0,0.0
32.814476013183594,12.628802299499512,-1.4967416524887085,-0.0,-0.0,-1.0,0.1389741088217343,2.0,0.0
35.04911804199219,12.371139526367188,-1.1192682981491089,-0.0,-0.0,-1.0,0.1676673512606938,2.0,0.0
34.88927459716797,10.703006744384766,-1.226958155632019,0.6934936511719654,0.6613897190586829,-0.2857099846131611,0.1817099931869135,4.0,0.0
34.65553283691406,11.295621871948242,-1.267964243888855,-0.0,-0.0,-1.0,0.023935194883726,2.0,0.0
34.68006134033203,11.580520629882812,-1.3185354471206665,-0.0,-0.0,-1.0,0.1229877632034486,2.0,0.0
34.74512481689453,12.439908981323242,-1.0807729959487915,-0.6067123981898881,0.2387663408039036,-0.7582154709459503,0.1427332834454006,3.0,0.0
34.79935836791992,12.896608352661133,-1.1639355421066284,-0.0,-0.0,-1.0,0.2561684759927446,1.0,0.0
34.54216003417969,10.797136306762695,-1.1686774492263794,-0.0,-0.0,-1.0,0.19273921478144,1.0,0.0
34.414546966552734,11.077736854553224,-1.1849316358566284,0.5900317111625158,-0.7448511606822864,-0.3115434612584323,0.1043093108167631,3.0,0.0
34.50328063964844,11.52983856201172,-1.2748383283615112,-0.0,-0.0,-1.0,0.1914743846385225,2.0,0.0
34.268516540527344,12.43740463256836,-1.3853965997695925,-0.588992390377653,0.1957858364216346,-0.784063690227968,0.0826407899225058,3.0,0.0
34.24135208129883,10.847713470458984,-1.1141213178634644,-0.0,-0.0,-1.0,0.1577745026855378,1.0,0.0
34.086639404296875,11.17070484161377,-1.13288676738739,-0.0,-0.0,-1.0,0.1923834427565348,2.0,0.0
34.15652847290039,12.197166442871094,-1.3204461336135864,-0.0,-0.0,-1.0,0.0295043920538417,1.0,0.0
33.46202087402344,11.87645149230957,-1.1286166906356812,-0.0,-0.0,-1.0,0.2184876374858705,1.0,0.0
33.80207443237305,12.60191535949707,-1.3273571729660034,-0.0,-0.0,-1.0,0.2416149616253374,2.0,0.0
33.25131607055664,10.66343116760254,-1.2077125310897827,-0.0,-0.0,-1.0,0.0493063661261739,2.0,0.0
33.320560455322266,11.076351165771484,-1.13017475605011,-0.0,-0.0,-1.0,0.1065230660251792,1.0,0.0
33.213890075683594,11.313563346862791,-0.9815622568130492,-0.0,-0.0,-1.0,0.1734785905083229,1.0,0.0
33.24473190307617,11.981451034545898,-1.1059483289718628,-0.0,-0.0,-1.0,0.150313304777286,1.0,0.0
32.71249771118164,11.982864379882812,-1.0056549310684204,-0.0,-0.0,-1.0,0.0356206078981047,1.0,0.0
35.180511474609375,11.882672309875488,-0.6698864698410034,0.0471183797417879,0.9618157772723076,-0.2696113292882474,0.109480104455729,4.0,0.0
35.17686080932617,12.663228034973145,-0.7774795293807983,-0.0,-0.0,-1.0,0.0848346513854114,1.0,0.0
34.90513610839844,12.7970552444458,-0.7618440389633179,-0.63975933367792,-0.7537978957691718,-0.1499890906231283,0.2508571612188327,4.0,0.0
34.44967269897461,10.645527839660645,-0.7672213315963745,-0.0138601599345699,-0.9903992581133172,-0.1375398323947608,0.1379722548329275,10.0,0.0
34.406089782714844,11.715897560119627,-0.9122718572616576,-0.0,-0.0,-1.0,0.1323869574452021,1.0,0.0
34.37734603881836,11.800163269042969,-0.92035710811615,0.9192568878731628,-0.1692123280185473,-0.3554348915684716,0.1752166645321658,4.0,0.0
34.045772552490234,12.60421657562256,-0.9959882497787476,-0.7146871334390934,0.1855881205131885,-0.6743733022747815,0.1293658289936591,3.0,0.0
33.447017669677734,11.91104793548584,-0.7862311601638794,-0.2731502241980829,-0.3491838281555571,-0.8963590849515428,0.2020285432462228,6.0,0.0
33.6457405090332,12.496747016906738,-0.9150315523147584,-0.5889199380862242,-0.6488266904413705,-0.4818684802883622,0.2172128653466553,3.0,0.0
33.341007232666016,11.99897575378418,-0.7836872339248657,0.9912241647652252,-0.0908534006395745,-0.0960224701708231,0.2403753342422687,8.0,0.0
33.334136962890625,12.16497039794922,-0.8101102113723755,-0.5184417210547979,0.854411742306418,-0.0346230628144035,0.2332473599634268,3.0,0.0
32.878780364990234,11.17667293548584,-0.7328270673751831,-0.6612653799266212,-0.5882006313610975,-0.46556214899507,0.1785442668156289,5.0,0.0
32.87509536743164,11.360107421875,-0.6055253744125366,0.1284701915086422,-0.647327666378728,-0.7513070625479326,0.1290900182004264,5.0,0.0
35.154972076416016,11.004971504211426,-1.2352049350738523,-0.0,-0.0,-1.0,0.1119594237636076,1.0,0.0
35.07748794555664,11.208717346191406,-1.239600658416748,-0.0,-0.0,-1.0,0.1062352831853173,1.0,0.0
34.90878677368164,12.14387035369873,-1.313709020614624,-0.0,-0.0,-1.0,0.0766792076327764,1.0,0.0
34.73612976074219,12.31098175048828,-1.2984132766723633,-0.0,-0.0,-1.0,0.1530470875266716,1.0,0.0
33.665504455566406,10.905407905578612,-1.2265384197235107,-0.0,-0.0,-1.0,0.0719696570987013,1.0,0.0
33.473350524902344,12.897178649902344,-1.4724252223968506,-0.0,-0.0,-1.0,0.0696599160639191,2.0,0.0
33.44845199584961,13.088455200195312,-1.5001041889190674,-0.0853444534055223,-0.9390468402479925,-0.3330275605609457,0.1593325630839992,3.0,0.0
33.290122985839844,12.386377334594728,-1.3425273895263672,-0.6492700922324889,-0.7535378546027677,0.1030972793679514,0.1902265814123832,4.0,0.0
35.17473602294922,11.206141471862791,-1.0653984546661377,-0.0,-0.0,-1.0,0.1418899964812647,1.0,0.0
35.09067153930664,12.406254768371582,-0.99180269241333,-0.0,-0.0,-1.0,0.1995687867756639,2.0,0.0
35.18817138671875,12.700567245483398,-1.044907569885254,-0.0,-0.0,-1.0,0.1173775246154284,1.0,0.0
34.86195373535156,10.867310523986816,-1.1554648876190186,-0.0,-0.0,-1.0,0.2525273606070963,2.0,0.0
34.84796905517578,11.555841445922852,-1.2281086444854736,-0.0,-0.0,-1.0,0.1588296683266866,2.0,0.0
34.70170974731445,12.185056686401367,-1.274317502975464,-0.0,-0.0,-1.0,0.1461137725160037,1.0,0.0
34.91799545288086,12.40721321105957,-0.9608049392700196,-0.4686380266904409,-0.3426061338552445,-0.8142477737055547,0.1725483944945287,5.0,0.0
34.71068572998047,12.907323837280272,-0.9862205982208252,-0.0,-0.0,-1.0,0.1772597334038996,1.0,0.0
34.4771728515625,10.77924346923828,-1.060556173324585,-0.0,-0.0,-1.0,0.1945186281610181,1.0,0.0
34.28684997558594,11.06200885772705,-1.0479018688201904,-0.0,-0.0,-1.0,0.2109776007354125,1.0,0.0
34.12517547607422,10.885129928588867,-0.9927849769592284,0.0572452688106614,-0.9558977624851244,0.2880667403132965,0.1789127769074223,4.0,0.0
34.14544677734375,11.11104965209961,-1.0219826698303225,-0.1886405972184561,-0.4265670528143342,-0.8845650199585993,0.1836129887910853,4.0,0.0
33.9864501953125,12.502073287963867,-1.165191411972046,-0.0,-0.0,-1.0,0.2897875696495261,2.0,0.0
34.10150146484375,12.989564895629885,-1.2610359191894531,-0.0,-0.0,-1.0,0.1473112195621083,1.0,0.0
33.61003494262695,10.78728485107422,-1.1982276439666748,-0.0,-0.0,-1.0,0.1120115522462536,1.0,0.0
33.43741989135742,12.029285430908203,-0.9827797412872314,-0.2393816714353969,0.8336080194714608,0.4977891976064411,0.184559136480619,3.0,0.0
33.69341278076172,12.49730110168457,-1.1030092239379885,-0.5800711032774599,-0.5580386474659114,-0.593388896994953,0.2495604570249594,3.0,0.0
33.750335693359375,12.692703247070312,-1.1435396671295166,-0.0,-0.0,-1.0,0.2437835309072777,1.0,0.0
33.19318771362305,11.030111312866213,-1.120579719543457,-0.0,-0.0,-1.0,0.2015662281250251,1.0,0.0
33.24371337890625,12.05473518371582,-1.1112141609191897,-0.0,-0.0,-1.0,0.1590603168090684,1.0,0.0
33.11836624145508,12.298467636108398,-1.2864668369293213,-0.0,-0.0,-1.0,0.1255381077158018,1.0,0.0
33.318904876708984,13.107939720153809,-1.1194195747375488,-0.0,-0.0,-1.0,0.1180597827566628,1.0,0.0
32.7408447265625,12.64913558959961,-1.2551331520080566,-0.0,-0.0,-1.0,0.0982454913296667,1.0,0.0
34.01520538330078,12.529382705688477,-0.8144268989562988,0.5433457269422008,0.6406640874733472,-0.5425172329388213,0.2083354384293358,3.0,0.0
33.470211029052734,12.124882698059082,-0.6663172245025635,-0.4360385514541312,0.5047981196871717,-0.7450162682828335,0.223517630110219,3.0,0.0
33.0932731628418,11.24133014678955,-0.8056447505950928,-0.0,-0.0,-1.0,0.1917705328375547,2.0,0.0
32.84626770019531,10.900933265686035,-0.7109616994857788,-0.1379971604671319,0.0602460001009862,-0.9885986056913296,0.1954719625722228,5.0,0.0
32.86326599121094,11.196935653686523,-0.7500405311584473,-0.0176976752606591,0.9928982343984496,0.1176430551235793,0.1486196432494854,9.0,0.0
34.51576614379883,10.902024269104004,-1.2059751749038696,-0.0,-0.0,-1.0,0.1164682252065619,1.0,0.0
34.80550765991211,11.499703407287598,-1.3305948972702026,-0.0,-0.0,-1.0,0.1214414857219598,2.0,0.0
34.71443176269531,11.844347953796388,-1.342232584953308,-0.0056564110736819,0.8895988573085198,-0.4567076505699697,0.1588610607889245,5.0,0.0
34.67432403564453,12.018281936645508,-1.3507713079452517,-0.0,-0.0,-1.0,0.0961541356387963,1.0,0.0
34.72063446044922,13.067734718322754,-1.489894986152649,-0.0,-0.0,-1.0,0.195046579803501,2.0,0.0
34.15153884887695,11.043411254882812,-1.125991702079773,0.882267122166676,0.171328600113149,-0.4384646347506261,0.1990397189214915,5.0,0.0
34.50697708129883,12.20595359802246,-1.3305267095565796,-0.0,-0.0,-1.0,0.1329787201470809,2.0,0.0
34.52708435058594,12.711341857910156,-1.3965822458267212,-0.0310612876978412,-0.951211618600981,0.3069717463302671,0.1343585207625016,3.0,0.0
33.84739685058594,12.572805404663086,-1.2145992517471311,-0.0,-0.0,-1.0,0.1733444211697264,2.0,0.0
33.97810363769531,13.100723266601562,-1.3174749612808228,-0.0,-0.0,-1.0,0.1205534654666708,1.0,0.0
35.04373550415039,12.264724731445312,-1.0859376192092896,-0.0,-0.0,-1.0,0.1838627556078843,1.0,0.0
35.187679290771484,12.5534086227417,-0.9513548612594604,-0.0,-0.0,-1.0,0.0822220680840048,1.0,0.0
34.40626907348633,10.680956840515137,-0.8124698400497437,0.0494637141571594,-0.6784537893075533,-0.732975986479776,0.1458359627296801,5.0,0.0
34.917091369628906,12.711654663085938,-0.730746865272522,0.1696802817498842,-0.5097570202502671,-0.843419458093568,0.1736923754486934,5.0,0.0
34.87286376953125,12.871336936950684,-0.7397474050521851,-0.1736769730450656,-0.171345841542978,-0.969781888684168,0.1956765035687196,3.0,0.0
34.45042419433594,12.595294952392578,-0.9979349374771118,-0.0,-0.0,-1.0,0.1490085324225066,2.0,0.0
34.329505920410156,12.844717025756836,-1.002111554145813,-0.0,-0.0,-1.0,0.0890898051696597,1.0,0.0
33.92331314086914,12.5761137008667,-0.886795163154602,-0.0,-0.0,-1.0,0.187755514561826,1.0,0.0
33.269126892089844,11.178229331970217,-0.9167639017105104,-0.0,-0.0,-1.0,0.2159307572912321,2.0,0.0
33.44647979736328,11.959835052490234,-0.8796666860580444,-0.0,-0.0,-1.0,0.1793343456207781,2.0,0.0
33.71875762939453,12.680561065673828,-0.8570646047592163,-0.0,-0.0,-1.0,0.2202048955089099,2.0,0.0
32.83613586425781,10.913311958312988,-0.7846089601516724,0.3587985184673008,-0.9271083371642628,-0.1083224552259841,0.1921233095252405,4.0,0.0
32.94282531738281,11.202259063720703,-0.8377741575241089,-0.0,-0.0,-1.0,0.1796489446446368,2.0,0.0
33.03478240966797,11.457393646240234,-0.8857334852218628,-0.0,-0.0,-1.0,0.2148330835086534,2.0,0.0
33.25725555419922,12.016383171081545,-1.0024181604385376,0.05234439030409,0.9329315353755844,0.3562285995052172,0.1336334127785373,4.0,0.0
33.2922248840332,12.117830276489258,-1.0230258703231812,-0.6641972994912847,0.7285822805086841,-0.1673613093795851,0.1589250609957827,3.0,0.0
32.767356872558594,10.90248203277588,-0.7664057016372681,-0.0,-0.0,-1.0,0.1452377067556257,1.0,0.0
