x,y,z,nx,ny,nz,curvature,density
35.877803802490234,15.09056282043457,-1.4970308542251587,-0.0,-0.0,-1.0,0.1411656224981059,1.0
37.632266998291016,14.953102111816406,-1.537523627281189,-0.0,-0.0,-1.0,0.0832748825917426,1.0
36.52386474609375,15.375466346740724,-1.3614002466201782,-0.0,-0.0,-1.0,0.1460697314626232,1.0
36.73099136352539,15.27202606201172,-1.3882800340652466,0.3562435228281897,-0.3921641376248407,-0.8481142856973495,0.2193997960623433,3.0
37.6817741394043,15.233628273010254,-1.4041186571121216,-0.0,-0.0,-1.0,0.0990582065302786,2.0
37.59444808959961,15.604972839355469,-1.6368154287338257,-0.0,-0.0,-1.0,0.2434464290554051,1.0
35.97825622558594,13.679977416992188,-0.9548221826553344,-0.0,-0.0,-1.0,0.1877014653530014,1.0
35.95301818847656,13.767322540283203,-0.9625107049942015,-0.9325501800771896,0.3564990161239363,-0.0570842635116476,0.2303234183305256,3.0
36.27458953857422,14.361101150512695,-1.1316488981246948,-0.0,-0.0,-1.0,0.1611056063533091,1.0
36.08807373046875,14.542879104614258,-1.11994469165802,-0.0,-0.0,-1.0,0.2427904856104824,2.0
36.14316940307617,14.54408073425293,-1.1324537992477417,0.4111867116839168,-0.1750444257987114,-0.8945864615180392,0.2967802129538744,5.0
37.146236419677734,14.568877220153809,-1.016602635383606,0.8211633195927159,-0.2081256504562159,0.5313892322748438,0.208506759707051,4.0
37.54920959472656,14.969303131103516,-1.1525124311447144,-0.0938388557782222,-0.2200584397338991,-0.9709626935408568,0.1855996613310783,4.0
36.4102668762207,15.40749740600586,-0.9996682405471802,0.3179505796661174,0.3321994282293223,-0.8880039238506164,0.2171304351308115,3.0
36.787899017333984,15.395885467529297,-1.0686253309249878,-0.0,-0.0,-1.0,0.1529307226624894,2.0
37.409202575683594,15.315199851989746,-1.1751068830490112,-0.0,-0.0,-1.0,0.1510603621880009,2.0
37.49947738647461,15.25754737854004,-1.184301257133484,-0.0,-0.0,-1.0,0.2332945627270165,2.0
36.927616119384766,15.49921417236328,-0.7565051317214966,0.5578146578408977,0.2153987332037709,-0.801527412651653,0.145503715027304,5.0
37.4676399230957,15.002103805541992,-1.5583559274673462,-0.0,-0.0,-1.0,0.0374236113185014,1.0
37.18497467041016,15.470511436462402,-1.5935508012771606,-0.0,-0.0,-1.0,0.1233242130060469,1.0
37.444950103759766,15.55691146850586,-1.672167420387268,-0.0,-0.0,-1.0,0.1452395924471084,1.0
36.70661926269531,14.03203582763672,-1.175986409187317,-0.0,-0.0,-1.0,0.2498192324055027,1.0
37.453369140625,13.941888809204102,-1.344396471977234,-0.0,-0.0,-1.0,0.1807725981525048,2.0
36.27396774291992,14.441314697265623,-1.158023476600647,-0.7979984880115975,-0.4684802635816789,-0.3791103477427716,0.1530848017905797,3.0
36.6055793762207,14.261905670166016,-1.1989036798477173,-0.4102869061405939,-0.3672679673688339,-0.8347328283914228,0.1695947233308894,3.0
36.4205322265625,14.555024147033691,-1.2165883779525757,-0.0,-0.0,-1.0,0.2260915254828401,2.0
37.580421447753906,14.489036560058594,-1.4811993837356567,0.1948005950085081,0.8410353273862212,-0.5046903072902071,0.1574725573523085,3.0
35.861846923828125,15.031293869018556,-1.1986371278762815,-0.0,-0.0,-1.0,0.0891649057251579,1.0
36.70140075683594,15.131885528564451,-1.408060908317566,-0.4116600921035638,0.2425868646161074,-0.8784575013539423,0.1012857557242902,3.0
37.487796783447266,15.061150550842283,-1.2334717512130735,-0.0,-0.0,-1.0,0.116936487708942,1.0
36.463401794433594,15.400667190551758,-1.416126370429993,-0.0,-0.0,-1.0,0.1600228704269608,1.0
36.71953582763672,15.417688369750977,-1.3131927251815796,0.440602547794708,0.897351408994155,0.0250966860963082,0.260073693080984,5.0
37.141265869140625,15.463064193725586,-1.2410322427749634,-0.0,-0.0,-1.0,0.2448709093850578,1.0
37.51322937011719,15.28818416595459,-1.2816063165664673,-0.0,-0.0,-1.0,0.2070410870316243,2.0
36.02482604980469,13.790401458740234,-0.9615317583084106,-0.0,-0.0,-1.0,0.2090596146322103,1.0
37.15023040771485,14.587987899780272,-1.075356125831604,-0.0,-0.0,-1.0,0.2096035010981924,2.0
36.642112731933594,15.089554786682127,-1.0675078630447388,-0.0,-0.0,-1.0,0.0956363985232948,2.0
37.61341094970703,14.997747421264648,-0.9099127054214478,-0.2693002662451117,-0.0788025038657183,-0.9598268239556575,0.1034215021323183,6.0
36.41866683959961,15.403657913208008,-1.087751030921936,-0.3133551424428179,-0.1424261787664402,-0.9388947429326844,0.1720396040949587,4.0
36.76273727416992,15.371036529541016,-0.985242486000061,-0.4507054336053308,-0.8788349477441594,-0.1565686646240283,0.1277619448684326,3.0
36.95110321044922,15.333099365234377,-0.8509718179702759,-0.3478594266147795,0.4847527529309193,-0.8025014565975144,0.079100407162828,4.0
37.101192474365234,14.540199279785156,-1.146132230758667,0.3475565468164788,-0.7962974619128936,-0.4950906976666888,0.1525207859901566,3.0
37.10072708129883,14.78276824951172,-1.2004389762878418,-0.0,-0.0,-1.0,0.1834030787670473,1.0
37.25746154785156,14.657184600830078,-1.208601713180542,-0.0,-0.0,-1.0,0.145812674768346,2.0
36.327491760253906,15.408571243286133,-1.1847174167633057,-0.0,-0.0,-1.0,0.1138179758242764,1.0
36.661285400390625,15.302485466003418,-1.227318525314331,-0.6771738917317628,-0.2537323957768531,-0.6906919658503327,0.2166589429209536,3.0
37.0672607421875,15.318572998046877,-1.317802906036377,-0.0,-0.0,-1.0,0.2250150479117043,2.0
37.35786437988281,15.204812049865724,-1.3550925254821775,-0.0,-0.0,-1.0,0.1091464271857055,1.0
37.00812530517578,15.604058265686035,-1.374450445175171,-0.0,-0.0,-1.0,0.1496306871030995,1.0
37.42982482910156,15.494207382202148,-1.4389190673828125,-0.0,-0.0,-1.0,0.2500316561742827,1.0
36.34147644042969,15.42616844177246,-0.9036929607391356,-0.0,-0.0,-1.0,0.1353892453598887,2.0
36.762943267822266,15.367714881896973,-0.9671907424926758,-0.9743001044427412,-0.223252293976824,-0.0299619711793006,0.1150834983576237,3.0
37.4135856628418,15.22732925415039,-1.0624439716339111,-0.0,-0.0,-1.0,0.1783728124759222,1.0
36.62147521972656,15.501409530639648,-0.9704859256744384,-0.0,-0.0,-1.0,0.1632594877339145,1.0
37.447261810302734,15.35707950592041,-1.095059156417847,-0.0,-0.0,-1.0,0.199177010144635,2.0
36.844276428222656,15.581459999084473,-0.7291690111160278,0.2848793248640513,-0.5663600021054087,-0.7733563979693733,0.091291680077591,4.0
37.45846176147461,15.320840835571287,-1.0663082599639893,0.8903567913682142,-0.0803507199846493,-0.4481166654593944,0.2614708216128519,3.0
37.516475677490234,14.91798973083496,-0.9791853427886964,-0.0,-0.0,-1.0,0.2433396602207966,2.0
36.28050994873047,15.420835494995115,-0.8828775882720947,-0.0,-0.0,-1.0,0.2032978984123563,1.0
36.732383728027344,15.430686950683594,-0.9612843990325928,-0.7198280243005412,0.6153036702438052,-0.3213238379206902,0.100684626957594,5.0
36.89237976074219,15.351188659667969,-0.96876859664917,-0.0,-0.0,-1.0,0.0979475431195322,2.0
37.454586029052734,15.19058322906494,-1.033804178237915,-0.0,-0.0,-1.0,0.1711774893226307,1.0
36.876033782958984,15.484222412109377,-0.8837990760803223,-0.0,-0.0,-1.0,0.0639367248758919,1.0
37.6778450012207,15.154783248901367,-0.9289236068725586,-0.0,-0.0,-1.0,0.1280155800187549,2.0
36.86153793334961,15.423460006713867,-1.6062246561050415,-0.0,-0.0,-1.0,0.1910895475708922,1.0
37.18853759765625,14.874031066894531,-1.5227614641189575,-0.0,-0.0,-1.0,0.0569601095428654,2.0
37.019012451171875,14.623373031616213,-1.4806641340255735,-0.0,-0.0,-1.0,0.1547529766325022,1.0
37.12229537963867,14.21392059326172,-1.4167543649673462,-0.0,-0.0,-1.0,0.2094642063771219,1.0
36.5530891418457,15.524948120117188,-0.963281750679016,-0.0,-0.0,-1.0,0.1429904157148508,1.0
37.090553283691406,14.69191837310791,-1.5042833089828491,-0.0,-0.0,-1.0,0.138960406006629,1.0
37.03776550292969,14.412137031555176,-1.4606834650039673,-0.0,-0.0,-1.0,0.1968265708221809,1.0
37.158653259277344,14.325467109680176,-1.447232365608215,-0.0,-0.0,-1.0,0.227640501187132,1.0
36.77061080932617,15.33147144317627,-0.946466326713562,-0.0,-0.0,-1.0,0.1183569753011573,2.0
36.3884162902832,15.17862606048584,-0.928968071937561,-0.0,-0.0,-1.0,0.1297335910695951,1.0
37.21574783325195,15.33403491973877,-0.9470034837722778,-0.0,-0.0,-1.0,0.0855863714595671,1.0
37.593257904052734,14.98902416229248,-0.9067386388778688,0.2204941157012289,-0.9561041763427552,-0.1929952043991634,0.1423812598842359,8.0
37.52962493896485,14.921971321105955,-0.8984009027481079,0.2159533442764513,0.7108101828481146,-0.6694124566029874,0.214457197565137,3.0
37.415164947509766,14.100170135498049,-1.5440788269042969,-0.0,-0.0,-1.0,0.0848568960966899,1.0
37.20309066772461,13.830110549926758,-1.4987380504608154,-0.0,-0.0,-1.0,0.098711506060327,2.0
36.60456466674805,15.411766052246094,-1.0796558856964111,0.273658491625504,0.3874834652110056,-0.8803224376041573,0.212127183169329,4.0
36.6573600769043,15.17801284790039,-1.5239084959030151,-0.0,-0.0,-1.0,0.1486236525591131,2.0
37.44983673095703,14.53499984741211,-1.4765337705612185,-0.0,-0.0,-1.0,0.1856861550417412,2.0
37.39328384399414,13.840415954589844,-1.370503306388855,-0.0,-0.0,-1.0,0.1738583189839442,1.0
36.67398452758789,15.470844268798828,-0.8898745775222778,-0.0,-0.0,-1.0,0.1218300666931739,2.0
37.65571212768555,15.020849227905272,-0.8965955972671509,0.8254020242256226,-0.2638741322359861,-0.4990810963570449,0.0724259200571176,3.0
37.600677490234375,13.767617225646973,-1.5691256523132324,-0.0,-0.0,-1.0,0.178570721062596,1.0
37.438385009765625,13.647957801818848,-1.5510129928588867,-0.0,-0.0,-1.0,0.1812504212024599,2.0
37.28926467895508,13.63906955718994,-1.5512712001800537,-0.0,-0.0,-1.0,0.1412306341295863,1.0
36.8185920715332,15.394721031188965,-1.1737573146820068,-0.0,-0.0,-1.0,0.2073719756124014,1.0
37.04771423339844,14.75723361968994,-1.086536169052124,-0.0,-0.0,-1.0,0.1764279424158132,1.0
36.37267303466797,15.409111976623535,-1.489391565322876,-0.0,-0.0,-1.0,0.1912758715689373,1.0
37.53961944580078,14.024266242980955,-1.2957639694213867,-0.0,-0.0,-1.0,0.1414331229022733,2.0
36.283695220947266,14.036829948425291,-1.290623903274536,-0.0,-0.0,-1.0,0.2176172885546964,1.0
37.47283935546875,13.722929954528809,-1.2514612674713137,-0.0,-0.0,-1.0,0.1834491346683784,1.0
36.4411506652832,15.400816917419434,-0.8122484683990479,-0.0,-0.0,-1.0,0.1189193260043127,1.0
36.11333084106445,15.542960166931152,-0.8285024166107178,-0.0,-0.0,-1.0,0.1057001949082639,1.0
37.60292434692383,14.460050582885742,-1.330022931098938,-0.0,-0.0,-1.0,0.148727073114768,1.0
36.97499084472656,15.396982192993164,-0.7644573450088501,-0.2011073670405519,0.5833561300063175,-0.7869253157104991,0.1256187210626123,3.0
37.06752014160156,15.426968574523926,-0.6766737699508667,-0.0,-0.0,-1.0,0.0958531743894645,1.0
36.57792282104492,15.470221519470217,-0.9418193101882936,-0.0,-0.0,-1.0,0.1268158484331357,1.0
36.8480339050293,15.263001441955566,-0.9717696905136108,-0.3807750548667676,0.4065043672730685,-0.8305206541556521,0.1653940347319526,3.0
36.71162033081055,15.375718116760254,-0.9571634531021118,-0.9446260056871596,0.3198242882968537,-0.0734447683292224,0.1914868447774567,3.0
37.524261474609375,14.836325645446776,-1.0540024042129517,-0.0,-0.0,-1.0,0.1829945929966623,1.0
37.59184265136719,14.807904243469238,-1.0632578134536743,-0.0,-0.0,-1.0,0.1510315341331451,1.0
37.69655990600586,15.07969093322754,-1.1866148710250854,-0.0,-0.0,-1.0,0.1521856740813787,1.0
37.58857727050781,14.50295352935791,-1.2708141803741455,-0.0,-0.0,-1.0,0.1453178060497758,1.0
36.919891357421875,15.596039772033691,-0.6362054347991943,-0.0,-0.0,-1.0,0.0760967122996888,1.0
36.8732795715332,15.222976684570312,-1.0046555995941162,-0.0,-0.0,-1.0,0.1602187467496442,2.0
36.71776580810547,15.383081436157228,-1.0041403770446775,-0.6371533642583856,-0.6906139507917001,-0.3421811821040136,0.1451040967119347,5.0
36.55311584472656,14.900386810302734,-0.9511117935180664,-0.0,-0.0,-1.0,0.1602307671224645,1.0
36.87419128417969,15.398448944091797,-0.7296468019485474,-0.0,-0.0,-1.0,0.1037676506412187,1.0
36.647125244140625,15.541208267211914,-0.7443488836288452,-0.0,-0.0,-1.0,0.1114872516859717,1.0
36.701927185058594,15.525667190551758,-1.407935380935669,-0.0,-0.0,-1.0,0.148276848304155,2.0
36.974369049072266,15.44284439086914,-0.7414431571960449,0.0151600696144338,-0.4881812990155167,-0.8726105612361154,0.1124051917992798,3.0
37.69221496582031,14.968594551086426,-1.0050243139266968,-0.1718041248294167,-0.286722658212963,-0.9424826045921968,0.1180448755669927,3.0
37.47018814086914,15.36047077178955,-1.0501152276992798,0.1266678632601307,0.3428538076766513,-0.9308096040430258,0.2179663053130685,3.0
36.64022445678711,15.179343223571776,-1.0032769441604614,-0.0,-0.0,-1.0,0.1495770669787746,2.0
36.69587707519531,15.491168975830078,-1.046871542930603,-0.0,-0.0,-1.0,0.1982955413894493,1.0
35.73441696166992,14.322185516357422,-1.6980692148208618,-0.0,-0.0,-1.0,0.1359384893715356,1.0
35.82415771484375,14.987025260925291,-1.2398337125778198,-0.0,-0.0,-1.0,0.1085149937538811,2.0
36.84611129760742,15.510579109191896,-0.7528711557388306,-0.2819503327035156,-0.5255655703850692,-0.8026735582502977,0.1029026598322563,4.0
37.44498443603515,15.285982131958008,-1.1313464641571045,-0.72726041613902,0.2625285309847994,-0.6341695810556219,0.2295896719747912,3.0
36.67591094970703,15.296783447265623,-1.094595432281494,-0.5386628376740793,-0.0377550858034568,-0.8416750565419425,0.2318892053455307,3.0
36.580020904541016,15.085302352905272,-1.0592951774597168,-0.0,-0.0,-1.0,0.0997378564750922,1.0
36.47539520263672,15.40811538696289,-1.1015233993530271,-0.0,-0.0,-1.0,0.1658554824448708,1.0
36.10870742797851,14.408199310302734,-0.9384589195251464,-0.0,-0.0,-1.0,0.1296001767806073,2.0
36.64825439453125,15.293685913085938,-1.6592252254486084,0.3616121039877296,-0.1596512461118757,-0.9185576551662352,0.1597864129660838,4.0
37.406959533691406,14.806081771850586,-1.0903422832489014,-0.0,-0.0,-1.0,0.0934779144008004,1.0
37.44883728027344,15.24880599975586,-1.1511547565460205,-0.72726041613902,0.2625285309847994,-0.6341695810556219,0.1829566081038698,3.0
37.023380279541016,14.566324234008787,-1.0292015075683594,0.1011510363577475,-0.9948068475719102,-0.0113050372751261,0.2121360640130121,4.0
36.92851257324219,15.339969635009766,-1.1240358352661133,-0.0,-0.0,-1.0,0.1644059781182119,1.0
36.414886474609375,15.419288635253906,-1.0977683067321775,-0.4711442381509769,-0.5679263919367226,-0.6748945993256071,0.1720396040949587,4.0
36.43181228637695,15.354902267456056,-1.5604205131530762,-0.0,-0.0,-1.0,0.2187778540611314,2.0
37.45304489135742,15.279428482055664,-1.143303155899048,-0.72726041613902,0.2625285309847994,-0.6341695810556219,0.1983105466959068,3.0
37.039024353027344,14.57586669921875,-1.0288803577423096,0.3356595462204664,-0.9044953523791832,0.2630985111237387,0.2121360640130119,4.0
37.03042984008789,15.499544143676758,-1.110365629196167,-0.0,-0.0,-1.0,0.2068452648533947,1.0
36.56585311889648,15.03596305847168,-1.010165452957153,-0.4852899568980042,0.2038579601220073,-0.85025619070303,0.1512067050181778,3.0
36.73902130126953,15.427505493164062,-1.0680582523345947,-0.1750468328471204,-0.8770188144416468,-0.447433353054464,0.2062597974121091,3.0
36.3934326171875,15.36717414855957,-1.0207805633544922,0.649989405884697,0.1401633642756997,-0.7469056189054788,0.187207763282127,4.0
36.33271026611328,15.465167999267578,-1.7338260412216189,-0.0,-0.0,-1.0,0.0933950166794432,1.0
35.91503143310547,15.488698959350586,-1.6928080320358276,-0.0,-0.0,-1.0,0.0294201519906907,1.0
37.665557861328125,14.906333923339844,-1.240610957145691,-0.0,-0.0,-1.0,0.1541265041775952,2.0
37.60563659667969,15.40001106262207,-1.3095515966415403,-0.0,-0.0,-1.0,0.1242694023931637,1.0
36.982757568359375,15.58783721923828,-1.2828816175460815,-0.0,-0.0,-1.0,0.1716018619965041,1.0
37.107643127441406,14.534143447875977,-1.131863713264465,0.3475565468164788,-0.7962974619128936,-0.4950906976666888,0.1726676636641848,3.0
36.762107849121094,15.224409103393556,-1.2061046361923218,-0.0,-0.0,-1.0,0.1681627028863931,2.0
36.69550323486328,15.51064109802246,-1.2457531690597534,-0.0,-0.0,-1.0,0.2579022508544023,1.0
35.92689895629883,13.71646499633789,-1.3703917264938354,0.2723372468487129,0.4807704909356234,-0.8334819488293569,0.1499790326206394,3.0
37.06119155883789,14.339139938354492,-1.0983983278274536,-0.0,-0.0,-1.0,0.1270907633035171,1.0
36.14393615722656,14.497556686401367,-1.0372408628463743,-0.1004800930066272,0.5866568570335726,-0.8035779259069218,0.1990197761539229,5.0
35.96348571777344,13.778114318847656,-0.9102777242660522,-0.0,-0.0,-1.0,0.1990651932821445,2.0
36.93790435791016,15.378814697265623,-0.7123013734817505,0.9862522957985164,0.1165404348003394,0.1171526187872214,0.1124051917992798,3.0
36.62684631347656,15.616863250732422,-0.7254742383956909,-0.6615979288956967,-0.7059944487386776,0.2527053992915382,0.0751136963628158,3.0
37.50801086425781,15.569466590881348,-1.6065226793289185,-0.0,-0.0,-1.0,0.2197138335942461,1.0
36.09577178955078,13.709381103515623,-1.6210814714431765,-0.0,-0.0,-1.0,0.1156936216033518,1.0
37.5373649597168,15.00499153137207,-1.5268021821975708,-0.0,-0.0,-1.0,0.0763607983245747,1.0
37.02842712402344,15.33672332763672,-1.5102416276931765,-0.0,-0.0,-1.0,0.2262035031732557,1.0
36.76896667480469,15.20041275024414,-1.4566270112991333,-0.0,-0.0,-1.0,0.1671169057732062,1.0
36.64383316040039,15.506540298461914,-1.4876781702041626,-0.0,-0.0,-1.0,0.2462946486642888,1.0
36.3048210144043,14.403767585754396,-1.2778750658035278,-0.7721112449079017,-0.4439246643414249,0.4547253213491893,0.1937386137361593,3.0
36.095829010009766,14.457579612731934,-1.258883357048035,0.8524436199006139,0.2922728736204052,-0.4334933012589794,0.1643036651891916,4.0
35.80430603027344,14.939556121826172,-1.2953897714614868,-0.0,-0.0,-1.0,0.1187148175075151,2.0
37.674957275390625,14.965871810913086,-1.0010501146316528,-0.1718041248294167,-0.286722658212963,-0.9424826045921968,0.1507662475241655,3.0
37.37589645385742,15.29391098022461,-1.0119887590408323,-0.0,-0.0,-1.0,0.207226901778305,1.0
37.31453704833984,15.316778182983398,-1.0087603330612185,-0.0,-0.0,-1.0,0.1971540020869994,1.0
36.87272262573242,15.303633689880373,-0.9632011651992798,-0.3481071589356083,0.3911722881936419,-0.8519422790583463,0.1084843200522802,3.0
36.681373596191406,15.472970008850098,-0.9664736986160278,-0.0,-0.0,-1.0,0.1284784218504868,1.0
36.35987854003906,15.40834903717041,-0.9268165826797484,-0.0,-0.0,-1.0,0.1377420670924699,2.0
36.25553131103515,14.91526985168457,-1.7386282682418823,-0.0,-0.0,-1.0,0.0933305976883728,2.0
36.11167907714844,14.41634750366211,-1.628271460533142,-0.0,-0.0,-1.0,0.2216047133180619,1.0
35.96207046508789,14.757805824279783,-1.666357159614563,-0.0,-0.0,-1.0,0.2047663925623473,2.0
35.94815444946289,15.087875366210938,-1.7241729497909546,-0.0,-0.0,-1.0,0.0824096657921711,1.0
37.66238784790039,14.505998611450195,-1.364693522453308,0.3929740727589554,0.7914527458051788,0.4681601534696023,0.130889515863942,3.0
37.537200927734375,15.52207088470459,-1.5042883157730105,-0.0,-0.0,-1.0,0.2468568031480854,1.0
37.111114501953125,14.504976272583008,-1.2949844598770142,-0.0,-0.0,-1.0,0.1768590447832186,1.0
37.18512344360352,14.632225036621094,-1.3234814405441284,-0.0,-0.0,-1.0,0.2160786712414147,2.0
37.0667610168457,15.311448097229004,-1.4139422178268433,-0.0,-0.0,-1.0,0.2361018988850315,1.0
36.670188903808594,15.309436798095703,-1.365885853767395,-0.0,-0.0,-1.0,0.2121068769221968,2.0
36.72991943359375,15.615880012512209,-1.422331929206848,-0.0,-0.0,-1.0,0.1365991060359715,2.0
36.282470703125,14.447181701660156,-1.183171629905701,-0.7083463204034025,-0.2554825197100442,-0.6580077298129308,0.2079569557800518,4.0
36.033966064453125,14.47787857055664,-1.1574550867080688,-0.0,-0.0,-1.0,0.2037467669189309,2.0
35.82444763183594,14.988378524780272,-1.2134519815444946,-0.0,-0.0,-1.0,0.1078076822088198,2.0
37.55140686035156,14.967668533325195,-0.9010645151138306,0.1508960690190695,-0.5192216320506775,-0.841212977292447,0.2461832882998549,3.0
36.750640869140625,15.42498016357422,-0.8897815942764282,-0.0,-0.0,-1.0,0.0929957661509345,1.0
36.55759048461914,15.470170974731444,-0.8787895441055298,-0.0,-0.0,-1.0,0.1416391020682362,2.0
36.02418518066406,13.699487686157228,-1.0373615026474,-0.0,-0.0,-1.0,0.1966110858971231,2.0
37.002662658691406,14.587953567504885,-1.6110928058624268,-0.2279250180884952,-0.9736780376198888,-0.0011248048903372,0.1124528718134042,5.0
37.07067108154297,15.237751007080078,-1.7144889831542969,-0.0,-0.0,-1.0,0.1028236115702265,1.0
36.61607360839844,14.276914596557615,-1.501577854156494,-0.0,-0.0,-1.0,0.2244386793978111,1.0
36.64606475830078,15.253125190734863,-1.6452529430389404,0.1553448654031742,-0.2814427792494006,-0.9469202367682524,0.1572197646868398,4.0
36.393409729003906,14.069218635559082,-1.434729814529419,-0.0,-0.0,-1.0,0.2295605373991884,1.0
36.18805694580078,14.457086563110352,-1.4528188705444336,-0.0,-0.0,-1.0,0.2183073883073241,1.0
36.4860725402832,14.920076370239258,-1.5696516036987305,-0.0,-0.0,-1.0,0.1472494433048505,1.0
36.50591278076172,15.325457572937012,-1.6325342655181885,-0.0450665493416364,0.9835398897693752,-0.1749808314155664,0.1712051188139051,4.0
35.9517707824707,14.40804672241211,-1.4055252075195312,0.0153323266617403,0.896258307552569,-0.4432673751835817,0.1486727299716967,3.0
35.948211669921875,15.131677627563477,-1.5108025074005127,-0.0,-0.0,-1.0,0.156577032435711,1.0
37.70399475097656,13.868127822875977,-1.1421396732330322,0.2444353300611745,0.6753784092350443,-0.6957839993539843,0.0948468117615912,4.0
37.53741836547851,15.626054763793944,-1.3290023803710938,-0.0,-0.0,-1.0,0.1495054877862122,1.0
37.07997131347656,14.519779205322266,-1.1281862258911133,0.3475565468164788,-0.7962974619128936,-0.4950906976666888,0.195993857197066,3.0
37.10768127441406,14.688005447387695,-1.152412176132202,-0.0,-0.0,-1.0,0.1558911461029436,2.0
37.138919830322266,15.294601440429688,-1.2321202754974363,-0.0,-0.0,-1.0,0.1161930122599497,1.0
36.72718811035156,15.32938003540039,-1.1803369522094729,-0.9540514160202974,-0.1718016575847562,-0.2454996660706397,0.2772038481273355,3.0
36.2809944152832,14.378859519958496,-0.9989721775054932,-0.0,-0.0,-1.0,0.1546203485296254,2.0
35.887237548828125,13.67553997039795,-1.2936863899230957,-0.7161525658899082,0.6223929874980955,-0.3158361465736563,0.1242451758079673,4.0
35.7723388671875,13.82619285583496,-1.293853759765625,-0.0,-0.0,-1.0,0.1618746849091943,1.0
35.76814270019531,14.384232521057127,-1.3708524703979492,-0.0,-0.0,-1.0,0.1143938418355371,1.0
36.93514633178711,15.41837215423584,-0.7284336090087891,0.6053678640966352,-0.5920133117362351,-0.532024424106801,0.1124051917992798,4.0
36.77482986450195,15.622958183288574,-0.734675407409668,-0.0,-0.0,-1.0,0.0541845941827387,2.0
36.20981216430664,14.392196655273438,-0.990675687789917,-0.0,-0.0,-1.0,0.1515051196192621,2.0
36.108184814453125,14.386974334716797,-0.9758732318878174,0.5967631586672175,0.7658940424946631,-0.2393325053742347,0.2301487092000529,4.0
36.55449676513672,14.038853645324709,-1.6040438413619995,-0.0,-0.0,-1.0,0.0554680405871786,2.0
36.59601974487305,14.400646209716797,-1.659575343132019,-0.0,-0.0,-1.0,0.0821873894539612,1.0
36.4437141418457,14.997514724731444,-1.712199568748474,-0.0,-0.0,-1.0,0.0702248259550098,1.0
36.34139251708984,14.453454971313477,-1.6158441305160522,-0.0,-0.0,-1.0,0.1680584396701409,2.0
36.22962951660156,14.759660720825195,-1.6361771821975708,-0.0,-0.0,-1.0,0.2086874693886878,2.0
36.45125198364258,15.292612075805664,-1.7567912340164185,-0.0,-0.0,-1.0,0.1599519870717791,1.0
36.30621719360352,15.541496276855469,-1.766382336616516,-0.0,-0.0,-1.0,0.0651024834063672,1.0
37.5078239440918,13.992443084716797,-1.3104747533798218,-0.0,-0.0,-1.0,0.115725689417438,2.0
37.622589111328125,15.290843963623049,-1.4822694063186646,-0.0,-0.0,-1.0,0.2797501140824676,1.0
37.02240753173828,14.421890258789062,-1.2772265672683716,-0.0,-0.0,-1.0,0.1441200025477058,2.0
37.12504959106445,14.582767486572266,-1.3134101629257202,-0.0,-0.0,-1.0,0.1922099140008714,1.0
36.899471282958984,15.477712631225586,-1.388588786125183,-0.0,-0.0,-1.0,0.1886304235817468,1.0
36.5037727355957,13.974405288696287,-1.3587881326675415,-0.0,-0.0,-1.0,0.1667053814669234,2.0
36.61453628540039,14.196324348449709,-1.182496190071106,-0.5494768222537341,0.633179951730757,-0.5451223445541141,0.1398298823404746,3.0
36.65233612060547,15.28520965576172,-1.3234344720840454,-0.790206440653757,-0.4515602824515711,-0.4143272769943801,0.2240657788441679,3.0
36.68351745605469,15.59369659423828,-1.3693619966506958,-0.0,-0.0,-1.0,0.1984654784051527,1.0
36.05097198486328,14.409309387207031,-1.551995873451233,-0.6199751154103595,-0.1080636006226671,-0.7771442044385174,0.1579526816634348,3.0
35.80337142944336,13.698212623596191,-1.408281922340393,-0.0,-0.0,-1.0,0.0805669958067524,1.0
35.76140594482422,14.375848770141602,-1.489829421043396,-0.0,-0.0,-1.0,0.1368973580967906,2.0
35.74018859863281,14.884160041809082,-1.5583959817886353,-0.0,-0.0,-1.0,0.106466434021082,2.0
35.787620544433594,15.09170913696289,-1.5983952283859253,-0.0,-0.0,-1.0,0.1614471049720696,1.0
37.59928894042969,14.890713691711426,-0.9392150640487672,-0.0,-0.0,-1.0,0.1360034757657828,2.0
37.581207275390625,14.985690116882324,-0.946980595588684,0.5493507290569649,0.8030170703112384,-0.2310354112973524,0.1653371310268607,3.0
37.38566589355469,15.36326026916504,-0.9627281427383424,-0.0,-0.0,-1.0,0.1634890191162733,1.0
36.887969970703125,15.338481903076172,-0.8951865434646606,-0.0,-0.0,-1.0,0.0687801670354516,1.0
36.635833740234375,15.447186470031738,-0.8751929998397827,-0.0,-0.0,-1.0,0.1094028561526959,2.0
36.19245147705078,14.442426681518556,-1.1415525674819946,-0.3722653927774822,-0.4722881649817713,-0.7989758235130636,0.1757536635981397,5.0
35.868194580078125,13.740995407104492,-1.004486918449402,0.7152603386637354,0.2547368010180068,-0.6507778500700148,0.2437363227005862,5.0
36.87501907348633,14.119976997375488,-1.5989675521850586,-0.0,-0.0,-1.0,0.0189823828927772,1.0
37.013336181640625,14.55356216430664,-1.6801798343658447,-0.0,-0.0,-1.0,0.0760007490063289,1.0
37.05311584472656,15.067745208740234,-1.7550055980682373,-0.0,-0.0,-1.0,0.0767362728809287,2.0
36.94758605957031,15.169387817382812,-1.7472810745239258,-0.0,-0.0,-1.0,0.0835520919088093,1.0
36.74380111694336,15.142253875732422,-1.7021164894104004,-0.2540146469150266,-0.2446910299893607,-0.9357365328955476,0.2654960476398152,3.0
36.631141662597656,15.314374923706056,-1.7035439014434814,0.1473950710726702,0.8534734341240272,-0.4998577700386605,0.1768630488000512,4.0
37.48412322998047,13.854822158813477,-1.2329368591308594,-0.0,-0.0,-1.0,0.1888664162059711,2.0
37.40177917480469,13.925436973571776,-1.2254550457000732,-0.0,-0.0,-1.0,0.1936189133264961,1.0
37.2208251953125,14.486778259277344,-1.253258466720581,-0.0,-0.0,-1.0,0.2394802206242292,1.0
37.50965118408203,15.32151985168457,-1.400498628616333,-0.0,-0.0,-1.0,0.2064453573747421,1.0
37.441524505615234,15.609865188598633,-1.4251980781555176,-0.0,-0.0,-1.0,0.2533644320389462,2.0
36.79460525512695,13.8440523147583,-1.5505642890930176,-0.0,-0.0,-1.0,0.1206528681393121,2.0
37.093109130859375,15.291873931884766,-1.3263332843780518,-0.6640928955585149,-0.4528661522729386,-0.5948889595497727,0.1646259264163728,3.0
36.687950134277344,13.986053466796877,-1.5441572666168213,-0.0,-0.0,-1.0,0.0387308790075549,1.0
36.69425201416016,15.306394577026367,-1.2610759735107422,-0.6771738917317628,-0.2537323957768531,-0.6906919658503327,0.2335002704469068,3.0
35.888343811035156,13.659449577331545,-1.3386154174804688,-0.6668709543654228,0.6859557428825999,-0.291114838217036,0.1395288395273619,4.0
36.03370666503906,14.339813232421877,-1.4502921104431152,-0.0,-0.0,-1.0,0.1704641318367777,1.0
36.19639587402344,14.71384048461914,-1.5324087142944336,-0.0,-0.0,-1.0,0.2615508793756511,2.0
35.72815704345703,13.792157173156738,-1.3202779293060305,-0.0,-0.0,-1.0,0.0794489150481885,2.0
35.8460578918457,14.384868621826172,-1.4172520637512207,-0.2393391014398854,0.9665068392952612,-0.0926354366181347,0.108972822572347,4.0
35.72854995727539,14.473819732666016,-1.4046807289123535,0.3610373866992435,0.723616196186583,0.5882445121051638,0.1609872032674786,3.0
37.66754913330078,14.935663223266602,-0.9054930210113524,-0.0,-0.0,-1.0,0.1169493111734746,1.0
36.93482208251953,15.328737258911133,-0.8482840061187744,-0.2981483508618587,0.7455317739410569,-0.5960620227146287,0.0734473936231451,3.0
36.63804626464844,14.119699478149414,-1.111710786819458,-0.0,-0.0,-1.0,0.1415280402315885,2.0
35.938270568847656,13.73102569580078,-0.9482667446136476,-0.7510399998897098,0.6501759885018713,-0.114935210189387,0.2628696336619648,4.0
36.25740814208984,14.387934684753418,-1.0754187107086182,0.4378983518873863,0.6327756294008271,-0.6386235481492191,0.1300057072193514,3.0
36.22065734863281,14.440988540649414,-1.0751874446868896,-0.3881918531318495,0.2211881376481057,-0.8946412090474166,0.1309848395675018,5.0
36.557273864746094,15.503456115722656,-0.8178963661193848,-0.0,-0.0,-1.0,0.1342319272998437,2.0
37.59554290771485,13.80075454711914,-1.2821440696716309,0.8255076291366701,0.2715863852272773,-0.4947504316282451,0.1262365706916488,4.0
37.43518829345703,14.428115844726562,-1.297919750213623,-0.0,-0.0,-1.0,0.2271863323670389,2.0
37.41535949707031,15.312854766845703,-1.3738303184509275,0.050093357905056,0.859788085091656,-0.5081880599032401,0.179975543843462,3.0
37.395896911621094,15.532974243164062,-1.3924744129180908,-0.0,-0.0,-1.0,0.2520531406206533,1.0
37.13511657714844,14.457255363464355,-1.24306321144104,-0.1977058495347847,-0.9799448298452056,0.024910389787795,0.2074715534081389,3.0
37.09143829345703,15.271851539611816,-1.3092257976531982,-0.9832726485675262,0.158589638181798,0.0895780399448922,0.1646259264163727,3.0
36.75474548339844,15.268227577209473,-1.2460668087005615,-0.6935312593679742,0.5821833621594897,-0.4243547161327937,0.2612454820291522,3.0
37.64151382446289,15.02440071105957,-0.921955108642578,0.765817881058041,-0.4862255259179978,-0.4208416697494898,0.0683000031541909,5.0
37.55109405517578,14.914854049682615,-0.8990323543548584,0.2159533442764513,0.7108101828481146,-0.6694124566029874,0.2184808609457015,3.0
36.912933349609375,15.32871437072754,-0.8373639583587646,-0.2981483508618587,0.7455317739410569,-0.5960620227146287,0.0730704532164577,3.0
36.639034271240234,14.09467315673828,-1.1191461086273191,-0.5741896212562052,0.212257509441304,-0.7907294281405182,0.1415280402315885,3.0
36.508018493652344,14.37392807006836,-1.116544485092163,-0.0,-0.0,-1.0,0.063306445131813,1.0
36.626373291015625,15.253297805786133,-1.2208349704742432,-0.0,-0.0,-1.0,0.1661384386530955,2.0
36.53884506225586,15.63082504272461,-1.2447984218597412,-0.0455532651102705,0.5968871383331633,-0.8010309882459236,0.1724126040764534,3.0
36.16005325317383,14.462320327758787,-1.05798077583313,0.2653328235234979,0.2794680202350074,-0.9227654731441648,0.1977108359810371,7.0
36.79291534423828,15.424163818359377,-0.8280801773071289,-0.0,-0.0,-1.0,0.0825513337056997,2.0
36.53849029541016,15.522933959960938,-0.7992458343505859,-0.0,-0.0,-1.0,0.1105168857333467,2.0
37.577667236328125,15.00780200958252,-1.1638383865356443,-0.1550872297033906,-0.6009873331372717,-0.7840677117389018,0.1652807752150392,5.0
37.49726867675781,15.30477523803711,-1.1637604236602783,0.7785123261020959,0.3419449138777852,-0.5263005167964572,0.2176350960012651,3.0
37.11840057373047,14.55915069580078,-1.0596418380737305,-0.2784063123801408,-0.2178788885412181,-0.9354243503110954,0.2289106551376511,4.0
37.084861755371094,14.491572380065918,-1.050863265991211,-0.0,-0.0,-1.0,0.2278058251765275,1.0
36.601097106933594,14.98488712310791,-0.9830284118652344,-0.0,-0.0,-1.0,0.2346215396357905,2.0
36.76837158203125,15.34531593322754,-1.03281831741333,-0.0,-0.0,-1.0,0.1258040293503237,2.0
36.47705078125,15.37075424194336,-0.9812130928039552,-0.0,-0.0,-1.0,0.1988208403780451,1.0
37.10197448730469,14.880552291870115,-1.676181435585022,-0.0,-0.0,-1.0,0.0652154916498948,1.0
37.120750427246094,15.109140396118164,-1.6852439641952517,-0.0,-0.0,-1.0,0.1004540970334358,1.0
36.69129180908203,15.57295036315918,-1.5994359254837036,-0.0,-0.0,-1.0,0.2131491130187435,2.0
36.741451263427734,15.206742286682127,-1.599890112876892,0.6544795551283797,-0.5526242917707334,-0.5160066899409868,0.2665262556958627,4.0
36.55870056152344,15.31562614440918,-1.5606919527053833,0.0972870195993605,-0.0307783121284945,-0.9947803432517124,0.1675347870316962,6.0
36.646358489990234,14.150639533996582,-1.562259554862976,-0.0,-0.0,-1.0,0.099858638467753,1.0
36.47243881225586,14.654745101928713,-1.526265025138855,-0.0,-0.0,-1.0,0.1681852050365563,1.0
37.01828384399414,15.629201889038086,-1.212941288948059,-0.0,-0.0,-1.0,0.1785583355816705,2.0
37.578216552734375,13.818929672241213,-1.2996667623519895,0.8255076291366701,0.2715863852272773,-0.4947504316282451,0.1438829820574937,4.0
37.68399429321289,13.95598602294922,-1.3200677633285522,-0.0,-0.0,-1.0,0.1461018457042327,1.0
37.364898681640625,14.352288246154783,-1.258344054222107,-0.0,-0.0,-1.0,0.1566660419937849,2.0
37.10579299926758,14.714591979980469,-1.2109390497207642,-0.0,-0.0,-1.0,0.1918095261898263,1.0
36.75410461425781,15.249475479125977,-1.1516872644424438,-0.0,-0.0,-1.0,0.1598761737731573,2.0
36.65254211425781,15.38813018798828,-1.13528573513031,0.1599811114510949,0.7219538182519701,-0.6731929354132246,0.1886999906882702,4.0
36.56732177734375,14.13553237915039,-1.320429444313049,-0.0,-0.0,-1.0,0.2073333488829558,1.0
36.32958984375,14.397418022155762,-1.4903210401535034,-0.0,-0.0,-1.0,0.1359434878866542,1.0
36.18545150756836,14.594852447509766,-1.4587761163711548,-0.0,-0.0,-1.0,0.2059189506428911,2.0
35.99626159667969,14.403762817382812,-1.41264808177948,-0.0,-0.0,-1.0,0.0912649412798426,2.0
36.03815078735352,14.746864318847656,-1.426952242851257,-0.0,-0.0,-1.0,0.2175507047491763,2.0
35.86003112792969,15.01193904876709,-1.3911539316177368,-0.0,-0.0,-1.0,0.0976624000026944,1.0
35.79511260986328,13.721968650817873,-1.364651083946228,-0.0,-0.0,-1.0,0.0777680351689648,1.0
36.9451904296875,15.335205078125,-0.7375994920730591,-0.0,-0.0,-1.0,0.1254249578572016,1.0
36.86888885498047,15.476195335388184,-0.7284470796585083,0.0386828489510472,-0.5615131303056122,-0.8265631504558029,0.0856100590386584,3.0
36.61882019042969,14.070232391357422,-1.1110283136367798,-0.0,-0.0,-1.0,0.2220382414035461,2.0
36.13577651977539,14.425736427307127,-1.017943024635315,-0.0,-0.0,-1.0,0.1609734623117594,1.0
35.9205322265625,13.689274787902832,-0.97502601146698,-0.9366198594805224,-0.3349962959266038,-0.1025705637214769,0.1822989102042233,6.0
37.022254943847656,15.057976722717283,-1.7485045194625854,-0.0,-0.0,-1.0,0.0713031952119,2.0
36.955955505371094,14.816133499145508,-1.73037588596344,-0.0,-0.0,-1.0,0.0487416942123491,1.0
36.60948181152344,15.268773078918455,-1.6588696241378784,-0.3246676223979753,-0.0061472743584219,-0.9458081972495312,0.2257041828321901,4.0
36.547882080078125,15.561073303222656,-1.651936173439026,-0.0,-0.0,-1.0,0.1472972209608646,1.0
36.52791213989258,14.190299987792969,-1.630872368812561,-0.0,-0.0,-1.0,0.0833381276668971,1.0
36.501670837402344,13.971914291381836,-1.6259995698928833,-0.0,-0.0,-1.0,0.0600688725290601,1.0
36.446022033691406,14.117837905883787,-1.6126903295516968,-0.0,-0.0,-1.0,0.1403702443345257,1.0
36.16914749145508,14.51602554321289,-1.550110936164856,-0.0,-0.0,-1.0,0.1966522920786098,2.0
36.0068359375,14.795372009277344,-1.515187382698059,-0.0,-0.0,-1.0,0.1334845036239355,1.0
36.028160095214844,13.814754486083984,-1.5205844640731812,-0.0,-0.0,-1.0,0.1699394750438103,2.0
37.1541748046875,14.797255516052246,-1.2922276258468628,-0.0,-0.0,-1.0,0.1390463343189529,1.0
36.78638458251953,15.354558944702148,-1.2307356595993042,-0.0,-0.0,-1.0,0.2295161949380783,2.0
37.43882369995117,13.887279510498049,-1.34426748752594,-0.0,-0.0,-1.0,0.2042139648751728,1.0
36.660926818847656,15.194173812866213,-1.204003930091858,-0.0,-0.0,-1.0,0.1694523285038807,2.0
36.48089599609375,15.40635585784912,-1.1738439798355105,-0.0,-0.0,-1.0,0.1531844814014596,2.0
36.69313430786133,14.093958854675291,-1.2020436525344849,-0.0,-0.0,-1.0,0.1942573449363719,2.0
36.60115051269531,14.142934799194336,-1.184487223625183,-0.5949806611372956,0.0732877247512707,-0.8003917305128835,0.2058708128049636,4.0
36.36360549926758,14.411850929260254,-1.1395443677902222,-0.4211962589542047,-0.4630490033136955,-0.7798585333079175,0.1539961029045023,4.0
36.16181945800781,14.53089427947998,-1.1017223596572876,0.6909325198456114,-0.0590526421777288,-0.7205033230122001,0.2461928459099592,4.0
35.76620864868164,15.08215045928955,-1.4645785093307495,-0.0,-0.0,-1.0,0.0824387393480553,2.0
35.75577926635742,14.450745582580566,-1.4561811685562134,0.4393662651527315,0.7122334803698039,-0.5474310499835169,0.166143083759815,6.0
37.645511627197266,15.110115051269531,-0.8953074216842651,0.7726452536989578,0.287713410065503,-0.5658977872416119,0.0843938119033819,3.0
36.89850234985352,15.474628448486328,-0.7866314649581909,0.6083583855104262,0.1329078106981019,-0.7824548476650811,0.1540313323559768,5.0
36.08673477172851,14.504339218139648,-1.08730947971344,-0.0,-0.0,-1.0,0.2421126473663175,1.0
36.003173828125,13.64836311340332,-1.0745795965194702,-0.0,-0.0,-1.0,0.1306631728635192,2.0
35.87487030029297,13.783592224121094,-1.0488866567611694,0.0355903011465209,0.9989410653604026,0.0291561040079733,0.2535761265613808,3.0
37.06220245361328,15.056139945983888,-1.679928183555603,-0.0,-0.0,-1.0,0.0856273428483044,1.0
36.99860000610352,14.828615188598633,-1.6740883588790894,-0.0,-0.0,-1.0,0.0713638276904096,2.0
37.70467376708984,15.094451904296877,-1.293798327445984,-0.0,-0.0,-1.0,0.0743505749995222,1.0
37.45885467529297,15.202401161193848,-1.247207760810852,-0.0,-0.0,-1.0,0.2096541498157209,1.0
36.5941276550293,15.25771427154541,-1.573883891105652,-0.5717447580542874,0.292699156140004,-0.7664431718218734,0.1750432815555051,3.0
36.52783203125,15.538050651550291,-1.5527163743972778,-0.0,-0.0,-1.0,0.1496188590811268,1.0
36.46026611328125,14.071629524230955,-1.5931743383407593,-0.0,-0.0,-1.0,0.1711352885668665,2.0
36.1602668762207,14.469369888305664,-1.5102394819259644,-0.0,-0.0,-1.0,0.1666482008624323,2.0
36.04296875,14.742481231689451,-1.4736753702163696,-0.0,-0.0,-1.0,0.1432391004443048,2.0
36.06996536254883,13.724040985107422,-1.5302294492721558,-0.0,-0.0,-1.0,0.1419700461582527,2.0
35.795413970947266,13.766468048095703,-1.469746708869934,-0.0,-0.0,-1.0,0.0922514028371501,2.0
36.78855514526367,15.363222122192385,-1.1240953207015991,-0.0,-0.0,-1.0,0.2157146915935367,1.0
37.07786560058594,14.638510704040527,-1.1977580785751345,-0.0,-0.0,-1.0,0.1350944604956812,2.0
37.009735107421875,14.748806953430176,-1.181662678718567,-0.0,-0.0,-1.0,0.1568578109042473,1.0
36.49870300292969,15.10151481628418,-1.07976496219635,-0.0,-0.0,-1.0,0.1931642434226114,1.0
36.520633697509766,15.439571380615234,-1.074710488319397,-0.0,-0.0,-1.0,0.1112941907716381,1.0
36.563018798828125,14.277195930480955,-1.121280074119568,-0.0,-0.0,-1.0,0.1150323402543872,1.0
35.998085021972656,14.556567192077637,-1.0099705457687378,-0.0,-0.0,-1.0,0.1314130118887295,1.0
36.38821792602539,15.527175903320312,-1.786760330200195,-0.0,-0.0,-1.0,0.0682806204570534,1.0
36.27761459350586,15.315673828125,-1.7710998058319092,-0.0,-0.0,-1.0,0.0728693362959223,1.0
36.10753631591797,15.126543045043944,-1.742326736450195,-0.0,-0.0,-1.0,0.0421821274900868,1.0
36.501426696777344,13.65052604675293,-1.5233204364776611,-0.0,-0.0,-1.0,0.1340571637982126,1.0
36.92903137207031,14.162398338317873,-1.5535035133361816,-0.0,-0.0,-1.0,0.0588561358757224,2.0
35.793052673339844,13.91336441040039,-1.4295613765716553,-0.0,-0.0,-1.0,0.1357123020029334,1.0
36.418121337890625,13.662960052490234,-1.51302170753479,-0.0,-0.0,-1.0,0.096222946817472,1.0
37.05169677734375,14.124885559082031,-1.540529489517212,-0.0,-0.0,-1.0,0.0898507212939566,1.0
37.11800765991211,14.974365234375,-1.6048591136932373,-0.0,-0.0,-1.0,0.0877996026872719,2.0
37.07318878173828,14.449214935302734,-1.5645604133605957,-0.0,-0.0,-1.0,0.1961846841424909,1.0
37.29396057128906,15.391942024230955,-1.6541242599487305,-0.0,-0.0,-1.0,0.1386206355034887,2.0
37.211158752441406,15.141799926757812,-1.6273484230041504,-0.9136533633376962,-0.3899502231534381,-0.1147883056948725,0.0894756625013166,3.0
35.765380859375,13.85153102874756,-1.366016864776611,-0.0,-0.0,-1.0,0.1451363747265861,1.0
35.83446502685547,14.65441608428955,-1.4274160861968994,-0.0,-0.0,-1.0,0.0837417015623087,1.0
36.014122009277344,13.810967445373535,-1.3936123847961426,-0.0,-0.0,-1.0,0.1134072355370055,1.0
36.2570915222168,14.860458374023438,-1.4925260543823242,-0.0,-0.0,-1.0,0.1066152740520884,1.0
36.20548248291016,14.55010223388672,-1.465648174285889,-0.0,-0.0,-1.0,0.254828594566489,2.0
36.49153900146485,14.3198881149292,-1.4852290153503418,-0.0,-0.0,-1.0,0.1914586384432737,1.0
36.60731506347656,13.686372756958008,-1.4576232433319092,-0.0,-0.0,-1.0,0.0989864971253452,1.0
36.695556640625,14.242904663085938,-1.5049729347229004,-0.0,-0.0,-1.0,0.2843602728450422,1.0
36.611061096191406,15.551085472106934,-1.5816948413848877,0.1734696762699991,0.7943577141060403,-0.5821546989031421,0.1796197535443782,3.0
37.21565246582031,15.01052474975586,-1.6305885314941406,-0.0,-0.0,-1.0,0.0863476124407793,2.0
37.28141021728515,15.134252548217772,-1.6403532028198242,-0.0,-0.0,-1.0,0.0649933679487082,1.0
35.87566375732422,13.893372535705566,-1.449514627456665,-0.0,-0.0,-1.0,0.1734616017665364,1.0
35.816619873046875,14.45328140258789,-1.4462292194366455,-0.0,-0.0,-1.0,0.1659522983053503,2.0
35.88068389892578,15.129683494567873,-1.461296319961548,-0.0,-0.0,-1.0,0.0927762370545457,1.0
36.46507263183594,14.239806175231934,-1.5274016857147217,0.949513249202519,0.0719823004375539,-0.3053573939052281,0.1661087507464335,3.0
36.5895881652832,14.089105606079102,-1.5421788692474363,-0.0,-0.0,-1.0,0.1703809679390437,2.0
36.89861679077149,14.24605941772461,-1.5829033851623535,-0.0,-0.0,-1.0,0.1220966647778007,1.0
36.64911651611328,15.491165161132812,-1.5638844966888428,0.6953812850846158,-0.4621845839134033,-0.5503001714944877,0.195958962346992,4.0
36.687644958496094,15.256757736206056,-1.5658934116363523,0.9235805812431438,-0.379936830446645,-0.0514481760680983,0.225566346495999,4.0
37.11173248291016,14.809051513671877,-1.6152105331420898,-0.6236677334322825,0.5928461185831031,0.509482127219777,0.0695637352033447,3.0
36.70956039428711,15.56971263885498,-0.784233570098877,-0.9763860877746416,0.113920852400316,-0.1835544796198539,0.0765326283339337,3.0
36.05485153198242,13.81057357788086,-0.996516227722168,-0.0,-0.0,-1.0,0.2651411369915805,2.0
36.08058166503906,13.700838088989258,-0.9924039840698242,-0.0,-0.0,-1.0,0.1913419794422641,1.0
36.19956970214844,14.434120178222656,-1.0506739616394043,-0.151247302850692,0.0275465640584871,-0.9881120585181432,0.1599297479604082,7.0
36.54002380371094,13.64233112335205,-1.0365452766418457,-0.0,-0.0,-1.0,0.2183784241743035,1.0
36.213096618652344,14.581436157226562,-1.061464786529541,-0.0,-0.0,-1.0,0.1786262825076277,2.0
36.32949447631836,14.515674591064451,-1.0693533420562744,-0.0,-0.0,-1.0,0.1404439611528605,1.0
37.704322814941406,14.02060317993164,-1.1809563636779783,-0.0,-0.0,-1.0,0.1026694291050033,1.0
36.725677490234375,15.31147003173828,-1.1619329452514648,-0.9286143798685432,-0.2249197847539259,-0.2951040899879365,0.2329826031437161,3.0
37.61515045166016,15.295950889587402,-1.253120183944702,-0.0,-0.0,-1.0,0.1807876918747589,1.0
35.86185073852539,13.78462028503418,-1.068217158317566,-0.0,-0.0,-1.0,0.2112951560958315,2.0
36.16956329345703,14.434857368469238,-1.1333225965499878,0.1262911666861737,-0.5868998809117971,-0.7997493801202746,0.1406336621614296,5.0
36.135650634765625,14.574515342712402,-1.1360334157943726,0.0567596646835296,-0.1027808406348406,-0.9930832992571212,0.2283747054234083,3.0
36.33202362060547,14.44829273223877,-1.1524714231491089,-0.4211962589542047,-0.4630490033136955,-0.7798585333079175,0.2205117410151253,4.0
36.739524841308594,14.123943328857422,-1.183876872062683,-0.0,-0.0,-1.0,0.124057152395186,1.0
37.505271911621094,14.40307331085205,-1.2841590642929075,-0.0,-0.0,-1.0,0.1394536111192109,2.0
37.644493103027344,13.893991470336914,-1.2766603231430054,-0.0,-0.0,-1.0,0.0786913023160731,1.0
36.474586486816406,15.393689155578612,-1.214218020439148,-0.0,-0.0,-1.0,0.1884315718791237,2.0
36.8078498840332,15.259944915771484,-1.24557363986969,-0.0,-0.0,-1.0,0.2321419504170875,2.0
37.037940979003906,15.61720085144043,-1.289349913597107,-0.0,-0.0,-1.0,0.1607442290552748,1.0
37.57853698730469,15.170047760009766,-1.328935980796814,-0.0,-0.0,-1.0,0.1066608363870009,1.0
37.69297409057617,15.02907943725586,-1.33517587184906,-0.0,-0.0,-1.0,0.0859704836367644,2.0
35.828189849853516,13.661832809448242,-1.0880464315414429,-0.7527519623255686,0.4325340719568888,-0.496264808153267,0.1564878312909553,4.0
35.94013595581055,13.804954528808594,-1.1069129705429075,-0.0,-0.0,-1.0,0.2470280146236054,2.0
36.020240783691406,14.54663372039795,-1.1445039510726929,-0.0,-0.0,-1.0,0.2624159326024807,2.0
36.22089767456055,14.438718795776367,-1.1648319959640503,-0.4183992870809452,0.6661814783861436,-0.6173688317573289,0.1556746896808468,3.0
36.616817474365234,14.180330276489258,-1.2033733129501345,-0.9147996669518602,0.3620200944911508,-0.1791173373221706,0.1462382634909716,6.0
36.600364685058594,14.281976699829102,-1.2051714658737185,-0.4102869061405939,-0.3672679673688339,-0.8347328283914228,0.1618916800786526,3.0
37.064208984375,14.409643173217772,-1.2665616273880005,0.3609006751482862,0.6464848580584143,-0.6721666690477168,0.1967935758203816,3.0
36.584434509277344,15.533990859985352,-1.2523831129074097,-0.0,-0.0,-1.0,0.1895090682098704,1.0
36.813507080078125,15.292685508728027,-1.2704275846481323,-0.0,-0.0,-1.0,0.2399911727974077,2.0
37.435821533203125,15.327223777770996,-1.347502827644348,0.050093357905056,0.859788085091656,-0.5081880599032401,0.2044846514734176,3.0
36.21986389160156,13.78455638885498,-1.580889105796814,-0.0,-0.0,-1.0,0.1081846046193494,2.0
36.010231018066406,14.594173431396484,-1.5724767446517944,-0.0,-0.0,-1.0,0.2663167896395971,1.0
36.083030700683594,14.412412643432615,-1.5780025720596311,-0.6199751154103595,-0.1080636006226671,-0.7771442044385174,0.2200261564843942,3.0
36.490684509277344,14.25118637084961,-1.635558009147644,-0.0,-0.0,-1.0,0.1303832931779687,1.0
36.390350341796875,14.930234909057615,-1.6411758661270142,-0.0,-0.0,-1.0,0.1036936944760367,1.0
36.56499481201172,15.30274772644043,-1.6801453828811646,-0.0,-0.0,-1.0,0.2289975892564696,2.0
36.63526916503906,15.552663803100586,-1.6994744539260864,0.4675758972551039,0.7408482381575835,-0.4821998219876167,0.2106162515880526,3.0
37.04949188232422,15.130611419677734,-1.7481790781021118,-0.0,-0.0,-1.0,0.0784263939109313,1.0
35.83531188964844,13.732622146606444,-1.520485520362854,-0.0,-0.0,-1.0,0.2021478789212681,2.0
35.78501892089844,14.36069679260254,-1.5308924913406372,-0.0,-0.0,-1.0,0.0847437158123019,2.0
35.96604919433594,14.65070915222168,-1.567546010017395,-0.0,-0.0,-1.0,0.2217732553965639,1.0
35.81758117675781,15.075203895568848,-1.5587149858474731,-0.0,-0.0,-1.0,0.15581439216339,1.0
36.4935417175293,15.412601470947266,-1.0049787759780884,-0.0,-0.0,-1.0,0.1298018803630754,1.0
37.079978942871094,14.581186294555664,-1.0527573823928833,-0.3175557952446827,-0.5853782399352327,-0.7459829978738431,0.2313960209853019,5.0
37.146217346191406,14.524100303649902,-1.0591849088668823,0.6420353062491517,0.5019791062765114,-0.5794891218921999,0.1955831180711585,3.0
36.75922393798828,15.407119750976562,-1.0360037088394165,-0.4722636023552762,-0.7307926426530336,-0.4928581979987886,0.1852818502695507,5.0
37.496429443359375,14.93368148803711,-1.1104532480239868,-0.0,-0.0,-1.0,0.1717361498485708,1.0
37.51591491699219,15.325506210327148,-1.1227093935012815,-0.0,-0.0,-1.0,0.2127139540885433,2.0
36.60603332519531,15.32443618774414,-1.7302266359329224,-0.1266359489091356,0.9307517295429708,-0.3430226732982105,0.2044645501462381,4.0
36.64876937866211,15.607394218444824,-1.75178325176239,-0.0,-0.0,-1.0,0.2106162515880525,2.0
