x,y,z,nx,ny,nz,curvature,density
24.66777229309082,16.70673179626465,-1.4140338897705078,-0.0,-0.0,-1.0,0.0889569173829432,1.0
24.790084838867188,17.88498306274414,-1.4171013832092283,-0.0,-0.0,-1.0,0.0533087150282674,1.0
24.45294189453125,16.161691665649414,-1.382880449295044,-0.0,-0.0,-1.0,0.0500267476760014,1.0
24.541358947753903,16.58307456970215,-1.387939691543579,-0.0,-0.0,-1.0,0.0764748869519714,2.0
24.532886505126953,16.980653762817383,-1.373420238494873,-0.0,-0.0,-1.0,0.1637988279727424,2.0
24.394777297973633,17.351741790771484,-1.330941677093506,0.3305001121275098,-0.4522594952546818,-0.8283906233388233,0.1799885942806473,4.0
24.501501083374023,17.660053253173828,-1.350752592086792,-0.381513257094525,0.0057054699805208,-0.924345759049842,0.1480590368452742,3.0
23.97802734375,15.976306915283203,-1.2773473262786863,-0.6164923394719799,-0.7220795706691098,0.3139080900433743,0.2014285183449811,3.0
23.73586654663086,16.00617790222168,-1.2180986404418943,-0.0,-0.0,-1.0,0.2622238878575398,2.0
23.764902114868164,16.46600341796875,-1.205686092376709,-0.1109827386356316,0.8846545827763228,-0.4528455596533828,0.1667997311087802,3.0
24.06491470336914,16.217269897460938,-0.7303857803344727,0.1465991830756579,0.7862688676665038,-0.6002415740849545,0.0634370890084791,4.0
24.934907913208008,15.922143936157228,-1.3656463623046875,-0.0,-0.0,-1.0,0.0321677691052228,2.0
25.124412536621097,16.55096435546875,-1.3858342170715332,0.8795308734767644,0.3720373559487179,0.2966709429315358,0.0806828975132524,3.0
25.18447494506836,17.17730712890625,-1.3827800750732422,0.0950924906580671,0.0010719562939087,-0.9954678644387016,0.0437488249231915,3.0
25.11390686035156,17.516315460205078,-1.3599839210510254,-0.4673039552600013,0.8018216212823758,-0.3724367074315596,0.0409462326642761,3.0
24.608932495117188,16.884559631347656,-1.2568464279174805,-0.0,-0.0,-1.0,0.1062284519971739,2.0
24.47789764404297,17.340999603271484,-1.2156901359558103,-0.0,-0.0,-1.0,0.232534129834844,1.0
24.019683837890625,15.990983963012695,-1.15360689163208,-0.0,-0.0,-1.0,0.1617883711439269,1.0
24.230487823486328,16.435239791870117,-1.1839909553527832,-0.0,-0.0,-1.0,0.1313625668634212,1.0
24.365253448486328,16.99784278869629,-1.1974782943725586,0.6349254488263943,-0.173603463355582,-0.7528157224338163,0.1750258388191528,4.0
24.322784423828125,17.37541961669922,-1.1789534091949463,-0.8162026458308765,0.5523296759365931,-0.1695440061413401,0.2137343725574295,3.0
24.15070343017578,17.54875946044922,-1.1357929706573486,-0.0,-0.0,-1.0,0.1360020894517639,2.0
23.92255592346191,16.16754150390625,-1.1238188743591309,-0.0,-0.0,-1.0,0.0851293138778564,2.0
23.855083465576172,16.416786193847656,-1.098487377166748,-0.4022602980641301,0.6351520971120562,-0.6593697491813786,0.1596007446355743,5.0
24.311613082885746,18.065025329589844,-1.4681451320648191,-0.0,-0.0,-1.0,0.0785900993731804,1.0
23.924720764160156,16.92622947692871,-1.426065444946289,-0.0,-0.0,-1.0,0.06084783290917,2.0
24.05941390991211,17.16769027709961,-1.4458601474761963,-0.0,-0.0,-1.0,0.1279751273718968,1.0
24.156108856201172,17.58054542541504,-1.4495306015014648,-0.0,-0.0,-1.0,0.1506402918091988,2.0
24.25069046020508,17.966833114624023,-1.456794500350952,-0.0,-0.0,-1.0,0.0816687428336261,2.0
23.586273193359375,16.391414642333984,-1.3773212432861328,-0.0,-0.0,-1.0,0.0953078357017377,2.0
23.69076156616211,16.69864273071289,-1.382878303527832,-0.0,-0.0,-1.0,0.0978039345945292,2.0
23.447629928588867,15.920503616333008,-1.3775362968444824,-0.0,-0.0,-1.0,0.1272650808308979,2.0
23.508872985839844,16.20041275024414,-1.3717517852783203,-0.0,-0.0,-1.0,0.0704980364540277,2.0
24.959571838378903,16.785533905029297,-1.0868995189666748,-0.3515360708415526,0.2042181476967932,-0.9136286658421864,0.2729851570991736,5.0
24.881711959838867,17.142154693603516,-1.054502248764038,0.4838630052753599,0.3916488166429675,-0.7826159955866352,0.0954677520382929,7.0
23.606748580932617,16.757888793945312,-1.3588206768035889,-0.7014704894694606,0.260433863862771,0.6634103970823662,0.1429480328452531,4.0
23.442134857177734,16.021461486816406,-1.368905544281006,-0.0,-0.0,-1.0,0.1108116773616453,2.0
24.165061950683594,16.4565372467041,-0.93980073928833,-0.0,-0.0,-1.0,0.1526819835810446,1.0
24.479087829589844,17.86635398864746,-1.4082849025726318,-0.6142033003108786,-0.7668116910758662,0.1864246129581472,0.1880736679433875,3.0
24.6702823638916,18.107423782348633,-1.4326012134552002,0.5791110472295683,0.3339135179246416,-0.7437285509672618,0.1355438217333066,4.0
24.086097717285156,17.077068328857422,-1.3909828662872314,-0.0,-0.0,-1.0,0.1330474078335331,2.0
24.186010360717773,17.329099655151367,-1.3894374370574951,-0.0,-0.0,-1.0,0.117679973679237,1.0
24.310462951660156,17.68398094177246,-1.385429859161377,-0.5574738734727012,0.7389933560256935,-0.3783010707693346,0.1575439152706662,3.0
23.686180114746097,16.58395767211914,-1.3522350788116455,-0.4139626569422422,-0.8017311030099704,0.4311173356798999,0.0852233023170826,3.0
23.919368743896484,16.903825759887695,-1.3708553314208984,-0.0,-0.0,-1.0,0.0692991973285174,1.0
23.356983184814453,15.853723526000977,-1.3635764122009275,-0.0,-0.0,-1.0,0.0834116675429941,2.0
23.479751586914062,16.09347915649414,-1.3619751930236816,-0.0,-0.0,-1.0,0.1102837095002731,1.0
23.617551803588867,16.457273483276367,-1.350961685180664,-0.167384996752263,-0.8063124588585248,-0.5673116264909127,0.0963738276455853,3.0
23.633920669555664,16.73891830444336,-1.3239140510559082,-0.5155285712751331,-0.8555581315584989,-0.047440233169224,0.1555715346087623,5.0
23.16041374206543,15.649738311767578,-1.3461699485778809,-0.0,-0.0,-1.0,0.0810421152022295,1.0
24.148422241210938,16.497493743896484,-0.885225772857666,-0.0,-0.0,-1.0,0.1228696096556497,1.0
23.99947166442871,16.11419677734375,-0.8951940536499023,-0.5312476096093233,0.7509275352818271,0.3922802748545234,0.1302325830006987,3.0
24.076156616210938,18.06285095214844,-1.439711570739746,-0.0,-0.0,-1.0,0.053077476283396,1.0
23.887920379638672,17.47979164123535,-1.4493920803070068,-0.0,-0.0,-1.0,0.0251938330144527,1.0
24.032093048095703,17.854446411132812,-1.4478182792663574,-0.0,-0.0,-1.0,0.0362984946461432,1.0
23.349950790405273,16.710952758789062,-1.4071762561798096,-0.0,-0.0,-1.0,0.0425584063618659,1.0
22.90718460083008,15.905477523803713,-1.404713153839111,-0.0,-0.0,-1.0,0.0080342215080029,2.0
23.115921020507812,16.25623321533203,-1.4076077938079834,-0.0,-0.0,-1.0,0.0181592339915134,2.0
23.257349014282227,16.521743774414062,-1.40775465965271,-0.0,-0.0,-1.0,0.0684281372524846,1.0
22.83417320251465,15.967683792114258,-1.3811748027801514,-0.0,-0.0,-1.0,0.0127439137277256,1.0
22.888595581054688,16.08402442932129,-1.378542423248291,-0.0,-0.0,-1.0,0.0138537161207164,2.0
24.842445373535156,17.245941162109375,-1.0829014778137207,0.4647565468279827,-0.4934499634762867,-0.7351928221397298,0.0819900954803307,3.0
23.818775177001953,16.011396408081055,-1.0034475326538086,0.362151211979672,-0.0347098627355864,-0.9314728794176084,0.1798571535143375,6.0
23.7147274017334,17.566326141357422,-1.4331386089324951,-0.0,-0.0,-1.0,0.0206587452475556,2.0
23.942218780517575,17.970787048339844,-1.44183611869812,-0.0,-0.0,-1.0,0.0518911748705273,1.0
23.618804931640625,17.429040908813477,-1.4268786907196045,-0.0,-0.0,-1.0,0.0587998280419098,1.0
22.973613739013672,16.4779052734375,-1.4005098342895508,-0.0,-0.0,-1.0,0.0122601925910056,1.0
23.12619400024414,16.644378662109375,-1.4120821952819824,-0.0,-0.0,-1.0,0.0291645845489942,1.0
22.76797866821289,16.315082550048828,-1.378140211105347,-0.0,-0.0,-1.0,0.0132610164680749,1.0
24.844615936279297,17.446861267089844,-1.0819783210754397,-0.0,-0.0,-1.0,0.0977245131585973,1.0
24.609596252441406,16.66822052001953,-1.1124653816223145,0.0181062874175672,-0.8478246594518463,-0.5299674604929184,0.1989988331778329,3.0
24.808425903320312,17.18645668029785,-1.099130630493164,-0.9398472732540792,0.1870206916286345,-0.2858502472617775,0.0911425354817362,5.0
23.76858139038086,17.46245002746582,-1.4613947868347168,-0.090573994995008,0.2093276989298812,-0.9736417543898604,0.0207004790778005,3.0
23.920352935791016,17.725526809692383,-1.4631636142730713,-0.0,-0.0,-1.0,0.0264487297195191,2.0
24.021339416503903,18.04576110839844,-1.4493408203125,-0.0,-0.0,-1.0,0.0382132709738416,2.0
23.637126922607425,17.30740737915039,-1.4524757862091064,-0.0,-0.0,-1.0,0.0578094566114131,1.0
23.06430435180664,16.528396606445312,-1.434974193572998,-0.0,-0.0,-1.0,0.0425204096415284,1.0
22.712661743164062,16.344924926757812,-1.390324592590332,-0.0,-0.0,-1.0,0.0098985351205279,1.0
24.81436538696289,17.214111328125,-1.0792887210845947,-0.756002502008118,0.4851876000666472,-0.4393782080383973,0.0763547031002,4.0
25.060794830322266,16.052902221679688,-1.4307069778442385,0.1497407287790874,-0.373736917880656,-0.9153679207607048,0.0520014039957018,3.0
25.131668090820312,16.356739044189453,-1.4181406497955322,-0.0,-0.0,-1.0,0.0308040201043513,2.0
24.78726577758789,16.029876708984375,-1.379917860031128,-0.0,-0.0,-1.0,0.0891559115088191,2.0
24.93735122680664,16.375751495361328,-1.3785197734832764,-0.0,-0.0,-1.0,0.042593567714487,1.0
24.422561645507812,15.965059280395508,-1.315960168838501,0.7291139610261274,-0.317526862384932,-0.606275121954358,0.1528674515047083,5.0
23.76659393310547,15.730216026306152,-1.2144296169281006,-0.0,-0.0,-1.0,0.1605430493764934,2.0
24.535160064697266,17.292898178100586,-1.2235593795776367,-0.0,-0.0,-1.0,0.2280100912793937,2.0
24.664241790771484,17.62700653076172,-1.2237582206726074,-0.0,-0.0,-1.0,0.1134696375043191,1.0
24.36950302124023,17.010231018066406,-1.2136905193328855,0.6349254488263943,-0.173603463355582,-0.7528157224338163,0.1750258388191528,4.0
24.300880432128903,17.547510147094727,-1.1569676399230957,-0.0,-0.0,-1.0,0.1862083034343003,2.0
23.84192657470703,16.07647705078125,-1.194993495941162,-0.0,-0.0,-1.0,0.1731713414829097,2.0
23.851423263549805,16.523317337036133,-1.155216932296753,-0.8926415075443438,0.0059436394380693,0.4507280911582851,0.1627763226996106,3.0
23.62094497680664,15.757978439331056,-1.1844587326049805,-0.0,-0.0,-1.0,0.1738534618103868,2.0
23.660388946533203,16.08572006225586,-1.1597661972045898,-0.0,-0.0,-1.0,0.1322884465350653,1.0
24.34205436706543,18.012584686279297,-1.422978401184082,-0.014698559250759,-0.6275982602198799,-0.7783985972012871,0.0939147524217358,3.0
24.030488967895508,17.508068084716797,-1.4153518676757812,-0.0,-0.0,-1.0,0.1414190181529492,2.0
24.198013305664062,17.858379364013672,-1.4105522632598877,-0.0,-0.0,-1.0,0.0728851445399088,1.0
23.830150604248047,17.203773498535156,-1.4109363555908203,0.7115982110644744,-0.4253262533017258,-0.5592187087912527,0.02613096296024,4.0
23.200515747070312,16.428115844726562,-1.387441635131836,0.3478937026638513,-0.32349834239886,-0.8799538590812731,0.0812447425001485,3.0
22.854982376098633,16.033849716186523,-1.3769593238830566,-0.0,-0.0,-1.0,0.0126492910055697,1.0
22.886486053466797,16.120986938476562,-1.370960712432861,0.4399293903121832,0.0353003279985554,-0.8973382965095974,0.0125041791018083,4.0
24.144256591796875,16.31704330444336,-0.9203548431396484,-0.0,-0.0,-1.0,0.2233809018381829,1.0
23.915264129638672,16.138269424438477,-0.9032754898071288,-0.0,-0.0,-1.0,0.130055459702232,1.0
22.92804718017578,17.55126953125,-1.20046067237854,-0.0,-0.0,-1.0,0.0897398876013556,1.0
25.10745620727539,17.376638412475586,-1.3612637519836426,-0.0,-0.0,-1.0,0.0402133115680248,2.0
25.1534366607666,17.692453384399414,-1.3427798748016355,-0.0,-0.0,-1.0,0.0490696410202152,1.0
24.611412048339844,16.630016326904297,-1.3412280082702637,-0.0,-0.0,-1.0,0.2342575392409805,1.0
24.664276123046875,16.867321014404297,-1.327974796295166,-0.0,-0.0,-1.0,0.179296219175413,1.0
24.748945236206055,17.221702575683594,-1.310318946838379,-0.0,-0.0,-1.0,0.2019965430098213,2.0
24.375167846679688,16.28064727783203,-1.3345613479614258,-0.0,-0.0,-1.0,0.0686205867511867,1.0
24.42168426513672,16.48880386352539,-1.3219101428985596,-0.0,-0.0,-1.0,0.1121888173925814,1.0
24.36453628540039,17.073978424072266,-1.2553610801696775,-0.2348322281203964,-0.9680731003968704,-0.0876829340521897,0.1308634443444547,3.0
24.40542221069336,17.420658111572266,-1.230560541152954,0.2131538232515944,-0.9739037772187826,-0.0779543478724297,0.2451735713388325,7.0
24.46478843688965,17.60785484313965,-1.2244184017181396,-0.0,-0.0,-1.0,0.1710205047088919,1.0
23.810049057006836,16.421695709228516,-1.2232017517089844,-0.9300866856859468,0.1224305816069663,0.3463372775158782,0.2004343390581124,6.0
24.12529754638672,17.529539108276367,-1.1704607009887695,0.2553719800090476,0.7678608048154947,-0.5875159029799615,0.1518173527334054,5.0
23.46841812133789,15.733813285827637,-1.2392849922180176,-0.7486027341530982,0.4451280191833178,-0.4913807006348963,0.2415980686878415,3.0
23.598766326904297,16.10927963256836,-1.2202026844024658,-0.0,-0.0,-1.0,0.1762378601444361,1.0
23.72750663757324,16.289247512817383,-1.2228541374206543,-0.0,-0.0,-1.0,0.155708686611747,1.0
23.970996856689453,17.730619430541992,-1.4197337627410889,-0.0,-0.0,-1.0,0.0558173397616972,1.0
24.08637237548828,18.016273498535156,-1.4134602546691897,-0.0,-0.0,-1.0,0.0560921647179524,1.0
23.63174057006836,17.236854553222656,-1.408228635787964,-0.0,-0.0,-1.0,0.0544032305398863,2.0
23.841825485229492,17.516494750976562,-1.417508602142334,0.433933394095881,-0.8526714700668794,-0.2909521844262656,0.0210948198635418,3.0
23.374866485595703,16.95343017578125,-1.392653226852417,-0.0,-0.0,-1.0,0.0191086787126284,1.0
23.4252986907959,17.143173217773438,-1.381211519241333,-0.0,-0.0,-1.0,0.052633772954627,1.0
22.920909881591797,16.348392486572266,-1.381612777709961,-0.0,-0.0,-1.0,0.013883049350111,2.0
23.117488861083984,17.44053077697754,-1.2945683002471924,0.1363200863289654,0.9370566909451458,-0.3214678708956722,0.1598712040687812,3.0
23.902515411376953,16.075164794921875,-0.8798673152923584,0.8349044702673488,0.2864915193981958,-0.4699543965540817,0.1361431957961394,4.0
25.172378540039062,17.924510955810547,-1.370025396347046,-0.0,-0.0,-1.0,0.0384339729365552,1.0
24.626678466796875,17.339048385620117,-1.3313350677490234,-0.0,-0.0,-1.0,0.2402112164095584,1.0
24.795120239257812,17.5421142578125,-1.3407189846038818,-0.1036998991011548,-0.983361837636446,0.1491503510109255,0.173806655815831,3.0
24.40793228149414,16.663509368896484,-1.3590192794799805,-0.0,-0.0,-1.0,0.151232681508859,2.0
24.374370574951172,17.144453048706055,-1.3085520267486572,-0.2096315205832893,0.4472335568465425,-0.8695037499679504,0.2798965828463734,3.0
24.40298843383789,17.426172256469727,-1.2872979640960691,0.3488184678416927,-0.7361402510902771,-0.5800200058767953,0.2018892595803503,9.0
23.77583694458008,16.519134521484375,-1.2743067741394043,-0.0,-0.0,-1.0,0.2241814973353505,2.0
23.88916778564453,16.743412017822266,-1.2699673175811768,-0.0,-0.0,-1.0,0.1062350203562197,2.0
24.091094970703125,17.107107162475586,-1.2668828964233398,-0.0,-0.0,-1.0,0.1558916736974333,1.0
23.719968795776367,16.38791275024414,-1.2787723541259766,-0.0,-0.0,-1.0,0.1657826127519531,2.0
25.18412399291992,15.874679565429688,-1.410377025604248,-0.3814485012936669,0.7269225008330146,-0.571034778838812,0.0440361905307162,3.0
25.173564910888672,16.4490966796875,-1.3618383407592771,-0.0,-0.0,-1.0,0.0534127772795245,2.0
24.665767669677734,16.040225982666016,-1.3160111904144287,0.7502761509800839,0.6606863003409202,0.0240688556507735,0.2676199381424293,4.0
24.92888641357422,16.657390594482422,-1.306335687637329,-0.0,-0.0,-1.0,0.1728792947733042,2.0
24.861038208007812,17.67209243774414,-1.2158782482147217,-0.0,-0.0,-1.0,0.1452623170211522,1.0
24.415264129638672,15.81007480621338,-1.2970011234283447,-0.0,-0.0,-1.0,0.1064394266150608,1.0
24.50881576538086,16.033222198486328,-1.2923500537872314,-0.0,-0.0,-1.0,0.1184063924486506,2.0
24.392120361328125,17.030555725097656,-1.1915500164031982,0.6349254488263943,-0.173603463355582,-0.7528157224338163,0.1518168621276196,4.0
24.51308250427246,17.399925231933594,-1.181194543838501,-0.0,-0.0,-1.0,0.1859991705793135,1.0
24.55061912536621,17.557294845581055,-1.1748638153076172,-0.0,-0.0,-1.0,0.2166819281287225,2.0
23.82182502746582,15.663448333740234,-1.2197391986846924,-0.0,-0.0,-1.0,0.1342451759968376,1.0
23.9102725982666,16.09049415588379,-1.1957030296325684,0.2551250468959348,0.125646183224374,-0.958709678206856,0.1919596432078201,3.0
23.85469436645508,16.536365509033203,-1.1489107608795166,-0.8926415075443438,0.0059436394380693,0.4507280911582851,0.2058383032678343,3.0
24.253314971923828,17.52529525756836,-1.12994122505188,-0.0,-0.0,-1.0,0.1405146010153243,2.0
23.947357177734375,16.53116798400879,-0.983973264694214,-0.0,-0.0,-1.0,0.1158286750174358,2.0
25.15352249145508,16.323060989379883,-1.442023754119873,-0.0631398476056731,0.5497254870533159,-0.832955730233202,0.0270172100924982,3.0
24.68183326721191,16.037025451660156,-1.3992087841033936,-0.0,-0.0,-1.0,0.1369029321968922,1.0
24.95103454589844,16.25823974609375,-1.417980432510376,0.5321600674978625,-0.3663997077293212,-0.7632541626067547,0.0520475694769132,3.0
24.06753921508789,16.033649444580078,-1.31109356880188,-0.3878324516309955,-0.2618831412005994,-0.8837438598467308,0.1219165305376955,4.0
24.37214469909668,15.976667404174805,-1.3601243495941162,0.2540419422373571,0.4330775219275978,-0.8648159061819585,0.1218995216977825,7.0
23.343666076660156,15.654809951782228,-1.2474660873413086,-0.9806972669035708,-0.1137315986759681,0.1590534317469269,0.1730660239775502,3.0
23.711750030517575,16.09067726135254,-1.2551705837249756,0.2854728981830834,0.7849273643673594,-0.5499038616615284,0.1778785462710739,4.0
24.466623306274418,17.285673141479492,-1.2526342868804932,-0.0,-0.0,-1.0,0.1822971836628657,2.0
24.844539642333984,17.63471221923828,-1.2791845798492432,-0.0,-0.0,-1.0,0.1939477580845556,1.0
23.42657470703125,15.845211029052734,-1.2397139072418213,-0.0,-0.0,-1.0,0.1499595311804167,2.0
23.77284049987793,16.523757934570312,-1.2217607498168943,-0.0,-0.0,-1.0,0.149675522166166,2.0
24.08585548400879,17.55661392211914,-1.171316623687744,0.2561400831575886,0.764572207974595,-0.5914571806926313,0.1518173527334054,4.0
23.307371139526367,16.589879989624023,-1.3884201049804688,-0.0,-0.0,-1.0,0.0599119176473151,2.0
23.452381134033203,16.779512405395508,-1.3898351192474363,-0.0,-0.0,-1.0,0.0458612054072397,1.0
23.79746437072754,17.094871520996094,-1.4089405536651611,-0.0,-0.0,-1.0,0.0349028832209455,1.0
24.040063858032227,17.423831939697266,-1.4123682975769043,-0.0,-0.0,-1.0,0.1199065735626195,2.0
24.279281616210938,17.789077758789062,-1.41279935836792,-0.0,-0.0,-1.0,0.1186640364900102,1.0
24.51607894897461,18.096580505371097,-1.419900894165039,-0.0,-0.0,-1.0,0.1290289653516481,1.0
23.181718826293945,17.362457275390625,-1.287018060684204,-0.0,-0.0,-1.0,0.1521392444019192,2.0
22.823402404785156,17.44967269897461,-1.223714828491211,-0.0,-0.0,-1.0,0.1557437205451358,1.0
24.255191802978516,16.381908416748047,-0.7641110420227051,-0.750997831077358,-0.6230911698823208,0.21853981726858,0.1419678879783216,3.0
23.33295249938965,15.913177490234377,-1.3406965732574463,-0.0,-0.0,-1.0,0.0628433661798385,2.0
23.51533317565918,16.23261260986328,-1.3224539756774902,-0.0,-0.0,-1.0,0.0723301034529179,1.0
23.823270797729492,16.466466903686523,-1.3310763835906982,-0.0,-0.0,-1.0,0.2106101147492983,2.0
24.107872009277344,16.80107307434082,-1.3256127834320068,-0.0,-0.0,-1.0,0.0628179537594087,2.0
24.288047790527344,16.994251251220703,-1.325082302093506,-0.0,-0.0,-1.0,0.1779825027963764,2.0
24.80089569091797,17.31851577758789,-1.352815866470337,-0.0,-0.0,-1.0,0.2307928194625532,1.0
25.06057929992676,17.50079345703125,-1.365783452987671,-0.0382668160321821,0.4823614863655822,-0.8751360164351284,0.0570149657465022,3.0
24.355928421020508,17.257369995117188,-1.302360773086548,-0.159246295081334,0.8959597146120059,-0.4146043985478709,0.1823206466732352,4.0
22.932693481445312,16.145336151123047,-1.3976335525512695,-0.0,-0.0,-1.0,0.0125768248993276,2.0
23.107418060302734,16.34092140197754,-1.3921658992767334,-0.0,-0.0,-1.0,0.0235879723525606,2.0
23.29721450805664,16.451906204223633,-1.400665044784546,-0.0,-0.0,-1.0,0.0882086675827528,2.0
23.562835693359375,16.60161781311035,-1.4139893054962158,-0.0,-0.0,-1.0,0.0631656645471182,1.0
23.87335968017578,16.900840759277344,-1.413801193237305,-0.0,-0.0,-1.0,0.0672361659791974,2.0
24.18811798095703,17.213762283325195,-1.4137852191925049,-0.0,-0.0,-1.0,0.2050433628955154,2.0
24.55497932434082,17.400482177734375,-1.4385194778442385,-0.0,-0.0,-1.0,0.0703989777906871,1.0
24.87826156616211,17.643230438232422,-1.4514079093933103,-0.0,-0.0,-1.0,0.1168328785899568,1.0
25.195579528808594,17.83893585205078,-1.4705162048339844,-0.0,-0.0,-1.0,0.0590238884170645,1.0
23.665990829467773,15.766069412231444,-1.2030925750732422,-0.0,-0.0,-1.0,0.1810219930633313,2.0
24.604257583618164,15.961057662963867,-1.3195607662200928,-0.0,-0.0,-1.0,0.1919948986422946,2.0
23.890056610107425,16.091487884521484,-1.2009525299072266,0.2551250468959348,0.125646183224374,-0.958709678206856,0.1796547547442941,3.0
24.241424560546875,16.05510711669922,-1.2561297416687012,-0.0,-0.0,-1.0,0.1989142262003204,1.0
24.815675735473633,16.119924545288086,-1.335219383239746,-0.0,-0.0,-1.0,0.0638033548777665,1.0
25.107955932617188,16.187822341918945,-1.3727877140045166,-0.0,-0.0,-1.0,0.039278952818757,1.0
24.037782669067383,16.51287078857422,-1.1788947582244873,-0.0,-0.0,-1.0,0.1689570139941076,1.0
24.492189407348633,17.12349510192871,-1.18607759475708,-0.0,-0.0,-1.0,0.0900805975668282,1.0
24.620952606201172,17.082202911376953,-1.209946870803833,-0.5455121824751793,-0.5598424941830155,-0.6236929055858397,0.176039983272033,4.0
24.792556762695312,17.38821029663086,-1.206989288330078,-0.0,-0.0,-1.0,0.2165179690940834,1.0
24.59156036376953,17.572154998779297,-1.1578319072723389,0.0225158804353062,-0.7795074664712854,0.62598813474677,0.1303981174612391,3.0
24.326601028442383,17.608610153198242,-1.1130776405334473,-0.7476414197785056,-0.0783200658017129,-0.6594681756721821,0.2002507471739976,3.0
23.474123001098633,15.747112274169922,-1.235929012298584,-0.7486027341530982,0.4451280191833178,-0.4913807006348963,0.2620051905349535,3.0
23.543109893798828,15.84267234802246,-1.2305879592895508,0.0536869682366014,0.2300245283376222,-0.971702848511116,0.2133473394392788,3.0
23.941795349121097,16.04468536376953,-1.24761962890625,-0.0,-0.0,-1.0,0.1950542165434035,1.0
24.187114715576172,16.084110260009766,-1.2699496746063232,-0.0,-0.0,-1.0,0.1195942720368875,1.0
24.576644897460938,16.002647399902344,-1.3248889446258545,0.2810881007080991,0.7486739582985447,-0.6003971883727491,0.1360799987615621,3.0
25.01776885986328,15.795122146606444,-1.4024882316589355,-0.0,-0.0,-1.0,0.0468146856811677,2.0
24.594158172607425,16.835575103759766,-1.2195956707000732,-0.0,-0.0,-1.0,0.107552912795951,2.0
25.017892837524418,16.54266357421875,-1.3068571090698242,-0.0,-0.0,-1.0,0.1649884761810671,1.0
24.583499908447266,17.0861873626709,-1.1864640712738037,-0.0,-0.0,-1.0,0.1457144439668387,2.0
24.44001579284668,17.605684280395508,-1.10369873046875,-0.0,-0.0,-1.0,0.132587323700913,1.0
24.81863594055176,17.42972183227539,-1.1712992191314695,-0.0,-0.0,-1.0,0.1982781208549456,1.0
22.80678939819336,15.680055618286133,-1.3493995666503906,-0.0,-0.0,-1.0,0.0086135905268346,2.0
23.356792449951172,16.06450653076172,-1.3712918758392334,-0.5531090972821031,0.3635617169900721,0.7495953604732407,0.0554783020927927,4.0
23.53436279296875,16.360078811645508,-1.3566875457763672,-0.4341066252360672,-0.2401901129653003,-0.8682512007246918,0.086964418863077,3.0
23.78238296508789,16.763195037841797,-1.33907151222229,0.2876059106492694,-0.1125682355712944,-0.9511105259116684,0.0696328568401835,4.0
24.03717613220215,17.03352165222168,-1.3411872386932373,0.92190155587284,-0.2919411865921391,-0.2546917054998265,0.1181522825552326,4.0
24.210243225097656,17.314796447753906,-1.3310425281524658,-0.0,-0.0,-1.0,0.1773160976478999,2.0
24.35065460205078,17.352703094482422,-1.3471641540527344,0.0396669140324496,-0.6302464199147111,-0.7753811876205357,0.1565514699574129,7.0
24.455337524414062,17.695213317871094,-1.3205912113189695,-0.5795319021894725,-0.7292341279289456,0.3638136349951193,0.1313327577006,3.0
24.476806640625,17.53304672241211,-1.3437376022338867,-0.0992197241999451,0.5328384933319974,-0.8403800249609538,0.1308841797031814,4.0
24.54050064086914,17.886228561401367,-1.3101601600646973,-0.0,-0.0,-1.0,0.241167345123276,1.0
24.984355926513672,17.830284118652344,-1.385375738143921,-0.0,-0.0,-1.0,0.0542330491676931,1.0
25.193523406982425,18.116352081298828,-1.3841547966003418,-0.0,-0.0,-1.0,0.1058614383285482,1.0
24.90228843688965,16.02936363220215,-1.4244074821472168,-0.0,-0.0,-1.0,0.0305480905435886,1.0
23.335208892822266,15.687471389770508,-1.276257038116455,-0.0912289125441743,-0.6607374641320112,-0.7450525411059321,0.1960661409786049,6.0
23.56714630126953,16.0696964263916,-1.2503633499145508,-0.2497112628640676,0.9486351152532552,-0.1942567973257987,0.1326723413221577,3.0
23.892635345458984,15.984611511230469,-1.3021240234375,-0.0,-0.0,-1.0,0.1750756281262232,2.0
23.703981399536133,16.508642196655273,-1.2062854766845703,-0.0,-0.0,-1.0,0.1073849172942204,2.0
24.06774139404297,15.977169036865234,-1.3249495029449463,-0.0,-0.0,-1.0,0.1071751923865169,2.0
24.339927673339844,15.95562744140625,-1.3621203899383545,-0.0671548589470537,0.3704686167256457,-0.9264141778606304,0.1129578672356115,4.0
24.60468292236328,16.07016372680664,-1.3804030418395996,-0.0,-0.0,-1.0,0.1505410102196814,2.0
24.314842224121097,16.999563217163086,-1.2180140018463137,-0.0,-0.0,-1.0,0.1882524058165925,1.0
24.986087799072266,16.27678871154785,-1.402444839477539,0.2048286247139802,-0.957398983549752,0.2035495536612186,0.0518462706668585,4.0
24.342914581298828,17.40865707397461,-1.1675832271575928,-0.8162026458308765,0.5523296759365931,-0.1695440061413401,0.2077608406680587,3.0
24.61644172668457,17.32571029663086,-1.2150986194610596,-0.0,-0.0,-1.0,0.1753520549660106,2.0
22.84130096435547,17.615036010742188,-1.31945538520813,0.6791391115561785,-0.4505506494555764,-0.579460248360354,0.0768012191766209,4.0
23.379743576049805,17.4340763092041,-1.4243083000183103,-0.0,-0.0,-1.0,0.093024515643452,2.0
23.63017463684082,17.574888229370117,-1.438765048980713,-0.0,-0.0,-1.0,0.0251732803225945,1.0
24.012893676757812,18.072208404541016,-1.4200983047485352,-0.0,-0.0,-1.0,0.0452288969746852,2.0
23.901206970214844,17.85430145263672,-1.4361786842346191,-0.0,-0.0,-1.0,0.0445290917743324,2.0
23.727216720581055,16.0125732421875,-0.9905047416687012,-0.0,-0.0,-1.0,0.1081647283125308,1.0
23.933895111083984,16.42782211303711,-0.9623572826385498,-0.0,-0.0,-1.0,0.1051103682078648,1.0
23.295597076416016,15.70647430419922,-1.262897491455078,-0.0,-0.0,-1.0,0.1808600170795568,2.0
23.64306640625,16.25879669189453,-1.2368218898773191,-0.1147331444878314,0.992177700708812,-0.0491906065434196,0.0964673117933197,3.0
23.569805145263672,16.013233184814453,-1.2599897384643557,-0.0,-0.0,-1.0,0.2359373658587651,2.0
23.4582576751709,15.696781158447266,-1.2877535820007324,-0.0,-0.0,-1.0,0.1934928152361913,2.0
23.795181274414062,16.456077575683594,-1.2324974536895752,-0.7127320061785647,-0.6218831883613398,-0.3244601476332844,0.1451206808217356,5.0
24.147188186645508,17.34402084350586,-1.1666598320007324,-0.0,-0.0,-1.0,0.1432756929664476,1.0
24.232011795043945,17.017375946044922,-1.2232136726379397,-0.0,-0.0,-1.0,0.1715330059588725,1.0
24.185741424560547,16.493453979492188,-1.286423683166504,-0.0,-0.0,-1.0,0.1189278929500247,1.0
24.376930236816406,16.36883544921875,-1.3323493003845217,-0.0,-0.0,-1.0,0.0837728225966178,1.0
24.381990432739254,17.30661392211914,-1.2082483768463137,-0.1976207225363574,-0.7487617243915161,-0.6326941837178934,0.2083073837830702,4.0
24.495525360107425,16.496253967285156,-1.3334553241729736,-0.0,-0.0,-1.0,0.113519126162712,1.0
24.995702743530273,16.83112335205078,-1.3672194480895996,-0.713864245805609,-0.4281201351581951,-0.5541759543976249,0.2098483521984642,3.0
24.863571166992188,17.980600357055664,-1.1976900100708008,-0.0,-0.0,-1.0,0.2025385170733464,1.0
25.1629581451416,17.262664794921875,-1.3379364013671875,-0.0,-0.0,-1.0,0.0438101471900035,1.0
25.131160736083984,16.929105758666992,-1.3759050369262695,0.0828914895585493,-0.8763694329255527,-0.474452967102652,0.0941156284372957,3.0
23.192888259887695,16.39143180847168,-1.3769710063934326,-0.0,-0.0,-1.0,0.0561342324159103,2.0
23.103212356567383,17.413246154785156,-1.2169358730316162,-0.0,-0.0,-1.0,0.1568190317426223,2.0
23.361976623535156,16.625486373901367,-1.3738887310028076,-0.0,-0.0,-1.0,0.0529640863160609,2.0
23.70625686645508,16.972978591918945,-1.387648105621338,-0.0,-0.0,-1.0,0.0501327814307013,1.0
24.11492919921875,17.426164627075195,-1.402001142501831,-0.0,-0.0,-1.0,0.0768415912804924,1.0
23.983943939208984,17.20511245727539,-1.4071943759918213,-0.0,-0.0,-1.0,0.0695792630818328,1.0
24.423994064331055,17.896535873413086,-1.399075984954834,0.1002565042612147,-0.9632345209532024,0.2492546709640072,0.1423553373867619,3.0
24.292747497558594,17.635967254638672,-1.407956600189209,-0.7811441563900648,0.2989566856948319,-0.5481228940812594,0.127049713396086,3.0
24.66351318359375,18.07236099243164,-1.4231486320495603,0.5791110472295683,0.3339135179246416,-0.7437285509672618,0.1484478715859779,4.0
22.76482391357422,17.490169525146484,-1.1454005241394043,-0.0,-0.0,-1.0,0.2176355402494528,2.0
23.926956176757812,15.973316192626951,-0.9095699787139891,-0.0,-0.0,-1.0,0.0805467477579587,2.0
24.16967010498047,16.398380279541016,-0.9016265869140624,-0.0,-0.0,-1.0,0.2111888157293163,2.0
22.99013900756836,15.645254135131836,-1.3457772731781006,-0.0,-0.0,-1.0,0.0298508033664003,2.0
23.364877700805664,15.948018074035645,-1.3595173358917236,-0.0,-0.0,-1.0,0.0909384580615607,1.0
23.6506404876709,16.43701934814453,-1.331937551498413,0.0516602849596502,-0.7656941670124984,-0.6411268654181663,0.1341852536005906,4.0
23.520488739013672,16.1812744140625,-1.3491361141204834,-0.0,-0.0,-1.0,0.1012279550089794,2.0
23.94851303100586,16.784862518310547,-1.33075213432312,-0.0,-0.0,-1.0,0.1095408377838352,1.0
23.876705169677734,16.641586303710938,-1.3398056030273438,-0.0,-0.0,-1.0,0.0834645730762167,2.0
25.039995193481445,17.664798736572266,-1.402388334274292,-0.0,-0.0,-1.0,0.0734011740686211,2.0
25.16085624694824,17.845172882080078,-1.4001171588897705,-0.0,-0.0,-1.0,0.0651419635810103,2.0
24.0349063873291,17.004867553710938,-1.3131046295166016,0.7518397788229184,-0.6473762790173342,-0.1250635852083894,0.1063088741863845,5.0
24.32452964782715,17.327768325805664,-1.317650556564331,-0.7727216120269151,-0.2515787539598896,-0.582760191556111,0.2104347616244453,6.0
24.194786071777344,17.170467376708984,-1.3171753883361816,-0.7305181785633889,0.417720948515439,-0.5402336531166769,0.2068577451355328,4.0
24.56126594543457,17.466835021972656,-1.3409154415130615,-0.5309962356047325,0.8361039245060953,-0.1377433308698059,0.1909992500243725,3.0
24.91294288635254,17.69213104248047,-1.374445915222168,-0.0,-0.0,-1.0,0.1418905001299114,1.0
24.15508270263672,16.453641891479492,-0.804607629776001,-0.9854969660433816,0.126989689659999,-0.1125582011198975,0.1791897189969042,8.0
23.98672103881836,16.07524871826172,-0.8254876136779785,0.6298083990275648,0.6157992555703163,-0.4734265068132326,0.0920364104207278,11.0
22.863542556762695,16.947010040283203,-1.4425156116485596,-0.0,-0.0,-1.0,0.015562306866604,1.0
22.93929672241211,17.54271697998047,-1.3539493083953855,-0.0,-0.0,-1.0,0.1429365643224573,2.0
23.465530395507812,17.551490783691406,-1.4635047912597656,-0.0,-0.0,-1.0,0.0474388989049637,1.0
23.431180953979492,17.470104217529297,-1.4698035717010498,-0.0,-0.0,-1.0,0.0413044450505554,2.0
23.69227600097656,17.782432556152344,-1.4737682342529297,-0.0,-0.0,-1.0,0.0226108896098122,2.0
24.71240234375,15.891806602478027,-1.3970913887023926,-0.0,-0.0,-1.0,0.0708361823341515,1.0
25.018089294433594,16.04491424560547,-1.434431552886963,-0.0,-0.0,-1.0,0.0379067182835575,2.0
23.85104751586914,16.052570343017578,-1.2131562232971191,0.5377418520136439,0.3912525211125361,-0.7468300779401034,0.2484449907905856,4.0
23.839603424072266,15.677411079406738,-1.2655901908874512,-0.0,-0.0,-1.0,0.1250180144062568,1.0
23.97789001464844,16.256134033203125,-1.2073848247528076,-0.0,-0.0,-1.0,0.1757685301781072,1.0
24.32778549194336,15.970744132995604,-1.313391923904419,-0.0,-0.0,-1.0,0.1529489279920035,2.0
24.45648193359375,17.328815460205078,-1.1500999927520752,-0.9353908551915384,0.2178616711682672,-0.2785322966189242,0.1708354151904164,3.0
24.47884750366211,17.214332580566406,-1.1699340343475342,-0.0,-0.0,-1.0,0.1419655679077396,1.0
24.41607666015625,16.863204956054688,-1.2055420875549316,-0.6695797798218247,-0.5083657710658473,-0.5415045348493244,0.1426214421551471,3.0
24.49644470214844,15.935598373413086,-1.350052833557129,-0.2505490678154535,0.657667066554917,-0.7104218424188949,0.0819071614520053,5.0
24.687829971313477,17.534717559814453,-1.168558120727539,-0.0,-0.0,-1.0,0.1798207826366029,1.0
24.6689510345459,17.202312469482422,-1.2089531421661377,-0.1108358521157133,0.8724635134703661,-0.4759441475096919,0.187217744516384,3.0
22.877124786376953,15.657082557678224,-1.3301994800567627,-0.0,-0.0,-1.0,0.0088466261250708,1.0
23.139793395996097,15.859885215759276,-1.3465077877044678,-0.0,-0.0,-1.0,0.0985909325461852,1.0
23.532302856445312,16.325876235961914,-1.346195936203003,-0.0,-0.0,-1.0,0.0831118507010288,2.0
23.385902404785156,16.088489532470703,-1.356515884399414,-0.4895502181852008,0.803250898042264,-0.3393060250999365,0.0627852092348711,3.0
23.78943252563477,16.727375030517578,-1.3331890106201172,-0.0007558589292401,-0.1621980028315495,-0.9867579422303808,0.0731248749054379,3.0
23.641681671142575,16.513296127319336,-1.337419509887695,-0.0,-0.0,-1.0,0.0968327261738201,2.0
24.205890655517575,17.2947998046875,-1.3320889472961426,-0.0,-0.0,-1.0,0.187838314790481,2.0
24.10258102416992,16.96145248413086,-1.362694263458252,-0.0,-0.0,-1.0,0.0894819323525917,2.0
24.415895462036133,17.47113800048828,-1.3516418933868408,-0.9469863877873228,0.3212213568523199,-0.0057983831774968,0.176259274863301,3.0
24.70398712158203,17.781055450439453,-1.3698773384094238,-0.0,-0.0,-1.0,0.0656223439299044,1.0
24.595806121826172,17.67913055419922,-1.3603992462158203,-0.0,-0.0,-1.0,0.1445048448775026,2.0
25.06012725830078,18.02103042602539,-1.4175207614898682,0.6243491118868496,0.5975287360494592,-0.5031377506023952,0.0766341123144796,3.0
24.174285888671875,16.079797744750977,-0.9656214714050292,-0.0,-0.0,-1.0,0.1205404824673774,1.0
24.932783126831055,17.203777313232422,-0.9657700061798096,-0.87870234835532,-0.416419537544051,-0.233402981442921,0.0740723114109448,4.0
22.81882095336914,17.582067489624023,-1.3423855304718018,0.6391737993789502,0.0949722683268737,-0.7631756825504373,0.0857986340445349,3.0
23.318031311035156,15.64885711669922,-1.3547396659851074,-0.3847595970615928,-0.1097495125060625,-0.916468819422506,0.1525542429243819,3.0
23.07637596130371,17.887535095214844,-1.3384459018707275,-0.0,-0.0,-1.0,0.0389805018027287,1.0
23.244810104370117,17.586902618408203,-1.4410853385925293,-0.0,-0.0,-1.0,0.1042783025502886,1.0
23.52280044555664,15.81613540649414,-1.3632078170776367,-0.0,-0.0,-1.0,0.1791225731329856,2.0
23.57567596435547,17.798446655273438,-1.4770324230194092,-0.0,-0.0,-1.0,0.0206544266389055,2.0
23.28110122680664,15.67501735687256,-1.3423681259155271,-0.3847595970615928,-0.1097495125060625,-0.916468819422506,0.0942861590503518,3.0
23.7252197265625,16.376821517944336,-1.299513816833496,-0.0,-0.0,-1.0,0.1697640371138027,2.0
23.630046844482425,16.109966278076172,-1.3296291828155518,-0.0,-0.0,-1.0,0.1481867900021775,2.0
23.922624588012695,16.542987823486328,-1.3103179931640625,-0.0,-0.0,-1.0,0.1078683316571614,2.0
24.12948989868164,17.504749298095703,-1.184396505355835,-0.4913651082043989,0.4952067300350432,-0.7164709519354424,0.1681933900663297,4.0
24.3743896484375,16.998050689697266,-1.3259472846984863,-0.0,-0.0,-1.0,0.2457419749718564,2.0
24.3331298828125,16.676956176757812,-1.3735361099243164,-0.6096304628085838,-0.586950489509292,-0.5327661979523424,0.0854516476826856,3.0
24.52965927124023,17.242210388183594,-1.31797194480896,-0.9136192197865224,-0.2560410769547163,-0.3158209748394409,0.2634568125395617,3.0
24.55713653564453,16.90172004699707,-1.3826603889465332,-0.0,-0.0,-1.0,0.1639053947758057,2.0
24.875953674316406,17.973751068115234,-1.2746944427490234,-0.0,-0.0,-1.0,0.1801829258105613,2.0
25.05595588684082,17.573577880859375,-1.3812429904937744,-0.0,-0.0,-1.0,0.0559974902508242,2.0
24.954036712646484,17.275304794311523,-1.407526969909668,-0.0,-0.0,-1.0,0.0474878440340661,1.0
22.76883125305176,15.713787078857422,-1.3587183952331543,-0.0,-0.0,-1.0,0.008785408699195,1.0
23.097923278808594,15.960174560546877,-1.3810474872589111,-0.0425167590236028,0.8806004676669387,-0.4719482403260954,0.0562057492187544,3.0
23.422534942626953,16.35165786743164,-1.3766820430755615,-0.0,-0.0,-1.0,0.0735091146263239,1.0
23.27470970153809,16.12264060974121,-1.388204574584961,-0.0,-0.0,-1.0,0.0218642160118555,1.0
23.738624572753903,16.743614196777344,-1.3754949569702148,-0.0,-0.0,-1.0,0.0964406683091857,1.0
23.597267150878903,16.578903198242188,-1.3731162548065186,-0.0,-0.0,-1.0,0.0677990521576474,2.0
24.20048713684082,17.275657653808594,-1.3911712169647217,-0.0,-0.0,-1.0,0.1576439556908788,2.0
24.06015396118164,16.991825103759766,-1.408351182937622,-0.0,-0.0,-1.0,0.0778407314904554,1.0
24.50141143798828,17.69107437133789,-1.3952713012695312,-0.3367743891917769,-0.9173275501876894,-0.212351539789939,0.1287247615500259,3.0
24.36246109008789,17.50418472290039,-1.391930341720581,-0.0,-0.0,-1.0,0.2101396819714381,1.0
24.705154418945312,17.8212947845459,-1.4273362159729004,-0.0,-0.0,-1.0,0.0685626612556176,2.0
25.023422241210938,18.10877799987793,-1.4657106399536133,-0.0,-0.0,-1.0,0.1265873497558933,1.0
23.93212127685547,16.384946823120117,-1.0206701755523682,0.5490374746488706,0.515941631536699,-0.6575424581564602,0.142438854706493,3.0
23.87861061096191,15.988844871520996,-1.0763068199157717,0.2690657962685243,-0.3359678242899136,-0.9026235197025873,0.141529031835071,6.0
24.662538528442383,16.707080841064453,-1.132082462310791,-0.0,-0.0,-1.0,0.1478784503652006,2.0
24.791736602783203,17.44562530517578,-1.04817795753479,-0.0,-0.0,-1.0,0.0974551396708752,2.0
24.84249496459961,17.127452850341797,-1.1084249019622805,-0.0295416648508039,-0.9806116522847153,-0.193721649387165,0.1144957286067697,7.0
25.006301879882812,16.75296401977539,-1.2043848037719729,-0.9668470905117872,-0.2008405321849106,0.157701566893211,0.2174469432652502,4.0
24.860015869140625,15.80329132080078,-1.3229703903198242,-0.0,-0.0,-1.0,0.0751623677444693,1.0
24.99344253540039,16.774036407470703,-1.199962854385376,-0.9668470905117872,-0.2008405321849106,0.157701566893211,0.2920689749425469,4.0
23.96438217163086,16.368396759033203,-1.0067188739776611,-0.0515047750236218,-0.9913784993980104,0.1204820695419653,0.1223641895285278,4.0
23.849634170532227,15.95015811920166,-1.052156686782837,0.6938252745754158,-0.5868774366999137,0.4173504075149414,0.2210729606124559,6.0
24.643848419189453,16.611799240112305,-1.1356360912322998,-0.0,-0.0,-1.0,0.1493308393384799,2.0
24.77593994140625,17.473224639892578,-1.0366322994232178,-0.0,-0.0,-1.0,0.1253066476092945,2.0
24.79831314086914,17.137985229492188,-1.0930044651031494,-0.5796771680937873,-0.2937344654458018,-0.7600621320655542,0.1004290765611052,6.0
24.01468086242676,16.074003219604492,-0.8432202339172363,-0.6326546047459504,0.702743261034738,0.3254228943452003,0.0878445303061932,10.0
24.33291244506836,16.342681884765625,-0.8842365741729736,-0.0,-0.0,-1.0,0.1836936956629812,1.0
22.89812660217285,17.396697998046875,-1.369404435157776,0.5415917535403957,0.6681987051192233,-0.5100871131228787,0.0613322438279197,3.0
23.719554901123047,16.032621383666992,-1.238728165626526,0.621617201668834,-0.2061178622224878,-0.7557165351255979,0.266888336147164,3.0
23.67380142211914,15.707009315490724,-1.2309540510177612,-0.0,-0.0,-1.0,0.1762072612658794,2.0
22.86452293395996,17.889083862304688,-1.3943239450454712,-0.0,-0.0,-1.0,0.0770253015158318,1.0
23.171411514282227,17.1732177734375,-1.3347994089126587,-0.0,-0.0,-1.0,0.1311546721847336,1.0
23.917949676513672,16.529394149780273,-1.2397669553756714,-0.0,-0.0,-1.0,0.2176588636511186,1.0
23.81586265563965,16.25761604309082,-1.238467574119568,-0.0,-0.0,-1.0,0.120610620513036,2.0
24.066633224487305,16.744022369384766,-1.2348562479019165,-0.0,-0.0,-1.0,0.0743264665344071,1.0
24.431814193725582,16.842329025268555,-1.205403447151184,-0.0,-0.0,-1.0,0.1251559653340807,2.0
24.239709854125977,16.51913833618164,-1.3392504453659058,-0.0,-0.0,-1.0,0.0945695435251487,2.0
24.171977996826172,16.004459381103516,-1.3310667276382446,-0.0,-0.0,-1.0,0.0939454791867862,2.0
24.152767181396484,17.903995513916016,-1.3932420015335083,-0.0,-0.0,-1.0,0.0587874601296768,2.0
24.15546226501465,17.7598819732666,-1.3878463506698608,-0.0,-0.0,-1.0,0.1335788014079476,2.0
24.435956954956055,16.917064666748047,-1.3326128721237185,-0.0,-0.0,-1.0,0.2626655969565898,1.0
24.285688400268555,16.655160903930664,-1.3389121294021606,-0.0,-0.0,-1.0,0.0601958816730141,2.0
22.72052764892578,18.005403518676758,-1.2599472999572754,-0.0,-0.0,-1.0,0.0723399823724654,1.0
23.706743240356445,15.77187156677246,-1.1128227710723877,-0.0,-0.0,-1.0,0.1215257785541591,1.0
24.240726470947266,17.324241638183594,-1.1090750694274902,-0.0,-0.0,-1.0,0.1494020106168059,1.0
22.75548553466797,17.91471290588379,-1.2784030437469482,-0.0,-0.0,-1.0,0.0597063896854808,1.0
24.36711883544922,17.348726272583008,-1.1208398342132568,-0.0,-0.0,-1.0,0.2088321893298952,2.0
24.311805725097656,16.39432716369629,-0.801050066947937,0.3703403328365678,-0.440161423343529,-0.8179889725874663,0.2165678771671812,3.0
24.1267032623291,16.050537109375,-0.813564658164978,-0.0,-0.0,-1.0,0.1304224255718714,1.0
22.74742317199707,18.037986755371097,-1.3062995672225952,-0.0,-0.0,-1.0,0.0766672250554097,2.0
22.7423095703125,17.687721252441406,-1.2961519956588743,-0.0,-0.0,-1.0,0.1314937847360469,1.0
23.09315490722656,17.4566593170166,-1.2578736543655396,-0.8032470575535071,-0.1570041063514017,-0.5745814782260484,0.1448892888168184,5.0
24.50244140625,17.5123291015625,-1.1333411931991575,-0.0,-0.0,-1.0,0.1557884949071268,1.0
24.0029296875,16.390607833862305,-1.1461769342422483,-0.0,-0.0,-1.0,0.1888163678860515,1.0
23.610572814941406,15.70814323425293,-1.1643394231796265,-0.0,-0.0,-1.0,0.1123831616420718,1.0
22.999996185302734,17.80858039855957,-1.3961544036865234,-0.0,-0.0,-1.0,0.0372966326070522,1.0
22.90447998046875,17.977476119995117,-1.4104840755462646,-0.0,-0.0,-1.0,0.0777618729131933,1.0
24.413759231567383,17.220081329345703,-1.2429683208465576,-0.0,-0.0,-1.0,0.2257971580357118,2.0
24.2127742767334,17.224498748779297,-1.2623515129089355,-0.0,-0.0,-1.0,0.2132462882400168,2.0
24.413530349731445,16.896339416503906,-1.2335002422332764,-0.8552276750161582,-0.3650201047346795,-0.3678939344783229,0.2079449863343535,4.0
24.008033752441406,16.805065155029297,-1.2699453830718994,-0.0,-0.0,-1.0,0.0723681413434466,2.0
23.83635711669922,16.404281616210938,-1.2755496501922607,-0.2605869922142223,-0.3093214324952136,-0.9145570900101612,0.2339054628433492,4.0
24.613494873046875,16.13303565979004,-1.1932191848754885,-0.0,-0.0,-1.0,0.2651103509466256,2.0
24.198400497436523,16.03392219543457,-1.2308008670806885,-0.0,-0.0,-1.0,0.1590518068186514,1.0
23.899478912353516,15.953670501708984,-1.2577104568481443,-0.0,-0.0,-1.0,0.2044325687501318,1.0
23.50011825561523,15.795583724975586,-1.2924962043762207,-0.8949949421180979,-0.3924633994237114,-0.2120295585426873,0.2346340108320642,3.0
24.258481979370117,16.516542434692383,-0.9034246206283568,-0.0,-0.0,-1.0,0.1020278619980222,1.0
24.458162307739254,17.197235107421875,-1.656611680984497,-0.0,-0.0,-1.0,0.1664729576200736,1.0
24.327287673950195,16.951894760131836,-1.683143138885498,-0.0,-0.0,-1.0,0.2239774962287354,1.0
24.538333892822266,16.34014129638672,-1.6771559715270996,-0.0,-0.0,-1.0,0.2275436257458042,1.0
24.44318199157715,16.570037841796875,-1.6812775135040283,-0.0,-0.0,-1.0,0.1767867973990609,1.0
24.86097526550293,15.821989059448242,-1.6541829109191897,-0.0,-0.0,-1.0,0.1865273424343889,1.0
24.595701217651367,16.037391662597656,-1.6818742752075195,-0.0,-0.0,-1.0,0.2201847352167049,1.0
24.646127700805664,15.77956199645996,-1.686263084411621,-0.0,-0.0,-1.0,0.2137559240536508,1.0
25.07814598083496,16.129587173461914,-1.403365135192871,-0.3022738836952341,-0.3477506273466756,-0.8875246477793131,0.0428302093114884,3.0
24.37544631958008,17.292339324951172,-1.2752785682678225,-0.805715545344047,-0.0089551216713012,0.5922349751465182,0.2738603514777175,3.0
24.398595809936523,17.457077026367188,-1.273249864578247,0.4054483830711479,-0.5285410755162947,-0.7458256767885307,0.2010235798498069,11.0
24.248138427734375,17.04181671142578,-1.289250135421753,-0.2893396080040324,-0.6332373537153738,-0.7178391498794305,0.2483575842232413,4.0
24.081701278686523,16.621484756469727,-1.3078646659851074,0.7690989192315608,-0.4997305465586245,-0.3984422583926856,0.0908173523124717,3.0
24.02988052368164,16.059600830078125,-1.3139865398406982,-0.6397322726605824,-0.6529648162826672,-0.40543750198208,0.0840227944338668,4.0
24.01799964904785,16.26536750793457,-1.3152010440826416,-0.0,-0.0,-1.0,0.1310549708053404,1.0
24.420053482055664,17.25905418395996,-1.2700445652008057,-0.0,-0.0,-1.0,0.262882738524391,2.0
24.27669334411621,15.777498245239258,-1.2857038974761963,-0.0,-0.0,-1.0,0.0603559049550909,1.0
24.24962997436523,15.862032890319824,-1.2886881828308103,-0.0,-0.0,-1.0,0.0730432826832017,2.0
22.9428653717041,17.502914428710938,-1.283884048461914,-0.0,-0.0,-1.0,0.1138099881459122,1.0
23.80950355529785,16.405101776123047,-1.1914722919464111,-0.7829195663159249,0.4155657610731323,0.4629708963891706,0.1891594796601097,7.0
23.663299560546875,16.093151092529297,-1.2133543491363523,-0.4672922181143996,0.774724635016393,-0.4259574189850921,0.1733137893877378,4.0
23.625110626220703,16.360164642333984,-1.2143371105194092,-0.0,-0.0,-1.0,0.1207851696781435,1.0
23.602914810180664,15.988850593566896,-1.2221596240997314,-0.0,-0.0,-1.0,0.2079756750789458,1.0
23.500926971435547,15.82553482055664,-1.2369754314422607,0.0857504744918955,0.2485177164400389,-0.9648242330807428,0.1839068000681642,4.0
23.878015518188477,16.395538330078125,-1.047505021095276,-0.8907148930884072,-0.4375658138689251,0.1231386932029589,0.1142616304160264,3.0
25.156728744506836,15.808588027954102,-1.4234281778335571,-0.0,-0.0,-1.0,0.0392052786379604,2.0
24.029281616210938,16.384784698486328,-0.9367402791976928,-0.0761751084980362,-0.9940429164530284,-0.077948913365549,0.0966767930006211,3.0
23.83583068847656,15.947948455810549,-0.960846781730652,0.7700047259098909,-0.3791398365418196,-0.5131721995816569,0.186888755961768,3.0
24.53400421142578,17.53431510925293,-1.318299651145935,-0.0,-0.0,-1.0,0.1759921961855071,2.0
24.341968536376953,17.356203079223633,-1.3461579084396362,-0.8842235961075285,-0.0409588960804103,-0.4652644419236704,0.1565514699574129,6.0
24.282217025756836,16.963172912597656,-1.3525890111923218,-0.0,-0.0,-1.0,0.2171571944152694,2.0
24.25507164001465,16.56517791748047,-1.3550161123275757,-0.0,-0.0,-1.0,0.095069966979801,2.0
24.44183349609375,16.056320190429688,-1.325454831123352,-0.0,-0.0,-1.0,0.0992279869723123,2.0
24.253171920776367,16.210710525512695,-1.3546737432479858,-0.0,-0.0,-1.0,0.0678354192341769,1.0
24.396013259887695,15.669441223144531,-1.3332008123397827,-0.0,-0.0,-1.0,0.0987298042710343,1.0
24.110090255737305,16.485973358154297,-0.7533212900161743,-0.0,-0.0,-1.0,0.1272476915008654,2.0
23.056625366210938,17.99178695678711,-1.501254677772522,-0.0,-0.0,-1.0,0.0475644560301137,1.0
24.697410583496097,17.15387535095215,-1.2335108518600464,-0.0,-0.0,-1.0,0.1804551634732168,2.0
24.43283462524414,17.466873168945312,-1.2770012617111206,0.2501030367883095,-0.6622466301934468,-0.7063128710328662,0.1461421669297591,6.0
