x,y,z,nx,ny,nz,curvature,density
40.080963134765625,2.8425679206848145,-1.1586852073669434,0.8483098578359418,0.5046613259472176,0.1602726776202368,0.0437939811191367,3.0
40.195838928222656,3.085516452789306,-1.1947903633117676,-0.539226527146914,0.4165753893455901,-0.7319150889363113,0.0247088747743076,3.0
38.47438430786133,0.8883256912231445,-0.7667045593261719,0.8506907063747701,-0.4955073174114143,-0.175493078152212,0.1897591775355332,5.0
37.93498611450195,0.7559342384338379,-0.9766297340393066,-0.0,-0.0,-1.0,0.1436314745699637,1.0
37.98429107666016,1.0590078830718994,-1.0001335144042969,-0.0,-0.0,-1.0,0.0770057928513766,2.0
38.60687255859375,1.4906084537506104,-1.13214111328125,0.8100938913160568,-0.1719618621486044,0.5605149464722534,0.0252240954684334,3.0
38.602970123291016,1.7054691314697266,-1.1427483558654783,-0.0,-0.0,-1.0,0.0127536884077207,1.0
38.675838470458984,1.8205695152282717,-1.1618051528930664,-0.0,-0.0,-1.0,0.0144777090639255,2.0
37.87781524658203,2.047490119934082,-1.033294677734375,-0.5854301939655409,0.8015355187578342,0.1217057934655478,0.1652622004836318,7.0
38.63242721557617,2.2715461254119873,-1.179123878479004,-0.0,-0.0,-1.0,0.057466697436491,2.0
37.86756134033203,2.3197150230407715,-1.0468854904174805,-0.0656122372121549,0.0953600370071902,-0.9932781572500236,0.0963034919327316,4.0
38.23427200317383,2.4592535495758057,-1.1196517944335938,-0.0,-0.0,-1.0,0.0263751034216545,2.0
38.32356262207031,2.6867899894714355,-1.1488056182861328,-0.0,-0.0,-1.0,0.0847354627912745,2.0
38.60009002685547,2.9343316555023193,-1.2124052047729492,-0.0,-0.0,-1.0,0.0738397794203721,1.0
38.78395080566406,1.2663670778274536,-1.0838422775268557,0.6226067228461292,0.318128923596975,-0.7149509470151317,0.0878722759181359,6.0
38.10806655883789,0.8555048108100891,-0.9239530563354492,-0.5162859902758201,-0.7050679064433804,0.4861358077209127,0.0470425076427575,4.0
38.88521957397461,1.491133689880371,-1.1249103546142578,-0.2932557875700055,0.2565484364676974,-0.9209690238019276,0.0272839874523248,3.0
38.813350677490234,1.711087703704834,-1.1356348991394043,-0.5043276320257806,-0.3326973994578364,-0.7968475889210317,0.0285985543665974,3.0
38.60289001464844,2.2501654624938965,-1.1567344665527344,0.045510439900854,-0.7517668808832633,-0.6578566383848995,0.0587296646679891,3.0
37.86741638183594,2.036242961883545,-1.006119728088379,-0.4558986804727493,0.8655710445105207,-0.2072273149181172,0.1389468043239565,8.0
38.2442626953125,2.4435088634490967,-1.1155071258544922,-0.0,-0.0,-1.0,0.0565756742421049,2.0
37.913333892822266,2.41906476020813,-1.0554943084716797,-0.2429248052907715,0.097425085738202,-0.965140348158414,0.1851771102634083,5.0
38.19939422607422,2.7211034297943115,-1.1381096839904783,-0.0,-0.0,-1.0,0.1882601757713543,2.0
37.99827575683594,2.975327968597412,-1.131373405456543,-0.0,-0.0,-1.0,0.0398126542992687,2.0
37.877464294433594,0.7605894804000854,-1.025521755218506,-0.842122138799698,0.5392864121529645,-0.0006848434896566,0.161855427489222,4.0
37.93091583251953,0.9675103425979614,-1.0596561431884766,-0.0,-0.0,-1.0,0.0477745731373433,1.0
37.945533752441406,1.2185282707214355,-1.092236042022705,-0.0,-0.0,-1.0,0.0457693612347167,2.0
38.33551406860352,0.7370331287384033,-0.7698516845703125,-0.0,-0.0,-1.0,0.1251309866923528,1.0
39.02505874633789,3.090073823928833,-1.2527961730957031,-0.0,-0.0,-1.0,0.0334990811083024,2.0
38.61307907104492,2.8487296104431152,-1.2255792617797852,-0.0,-0.0,-1.0,0.0686902676423393,2.0
38.06731033325195,2.622811794281006,-1.1711745262145996,-0.0,-0.0,-1.0,0.1512615057811733,1.0
37.78289794921875,2.3776490688323975,-1.0722324848175049,0.032107585611806,-0.0216241856339365,-0.9992504678717192,0.0721968675733468,3.0
38.00992584228515,2.7584619522094727,-1.112640619277954,-0.0,-0.0,-1.0,0.100246904154429,1.0
38.27276992797851,0.8499021530151367,-0.8435690402984619,-0.7945306036097498,0.4131015912520375,-0.4450485313227775,0.1477180654699145,9.0
39.297325134277344,3.1134185791015625,-1.284454345703125,-0.0,-0.0,-1.0,0.0216806035654564,1.0
39.154319763183594,2.969801902770996,-1.2743797302246094,-0.0,-0.0,-1.0,0.030982537737438,2.0
39.01390075683594,2.888511657714844,-1.260995388031006,-0.0,-0.0,-1.0,0.0412777533962352,1.0
38.47835540771485,2.5993123054504395,-1.2092037200927734,-0.0,-0.0,-1.0,0.0280809170696009,1.0
38.700836181640625,2.8338708877563477,-1.223557949066162,-0.0,-0.0,-1.0,0.064734149854201,1.0
38.02131652832031,2.412364959716797,-1.161612033843994,-0.0,-0.0,-1.0,0.1316685802592576,2.0
37.86784744262695,2.3398513793945312,-1.1463632583618164,-0.0,-0.0,-1.0,0.1024259553323293,2.0
38.32793426513672,0.8387117385864258,-0.7075369358062744,-0.2104284586309953,-0.9762852822118028,-0.0508616902472175,0.1351223786780146,6.0
38.6220588684082,0.9913253784179688,-0.8677587509155273,-0.7056812421246532,0.6269125950799808,-0.3301432759325727,0.0953053327358858,4.0
38.26760482788086,0.8891391754150391,-0.8331167697906494,-0.9118331057431356,-0.0666241568692336,-0.4051192528037777,0.2140983882883724,4.0
37.73064041137695,2.5040969848632812,-1.1458773612976074,0.7433669823873988,0.2802861501896957,-0.6073262743436119,0.0631811129419482,5.0
37.859619140625,2.9682540893554688,-1.1467666625976562,-0.0,-0.0,-1.0,0.0368244905065814,1.0
38.32917785644531,0.8358011245727539,-0.5644264221191406,-0.9045028881687444,-0.4257426347185415,-0.0248542607476909,0.1860260859347924,3.0
39.05974960327149,3.098025321960449,-1.258981704711914,-0.0,-0.0,-1.0,0.0270158587910538,2.0
38.744754791259766,2.9844188690185547,-1.231562614440918,-0.0,-0.0,-1.0,0.0446835390517414,1.0
38.38220977783203,2.8950958251953125,-1.1985223293304443,-0.0,-0.0,-1.0,0.0893365202660473,1.0
38.11174774169922,2.6541824340820312,-1.1813974380493164,-0.0,-0.0,-1.0,0.1051560315346647,2.0
38.20406723022461,2.735184669494629,-1.1872482299804688,-0.0,-0.0,-1.0,0.0775307687514447,2.0
37.814090728759766,2.544562339782715,-1.1562459468841553,-0.0,-0.0,-1.0,0.0603718816029347,1.0
39.830596923828125,3.0725059509277344,-1.1994447708129885,-0.0,-0.0,-1.0,0.0410669068882659,1.0
39.384727478027344,2.8280344009399414,-1.1778268814086914,-0.0947171552749308,-0.9478525100070796,-0.3043095131110824,0.0115350184267915,3.0
39.56267166137695,2.941838264465332,-1.1852903366088867,-0.0,-0.0,-1.0,0.0251348311550327,2.0
38.915409088134766,2.467757225036621,-1.1628198623657229,-0.0,-0.0,-1.0,0.0339054419599178,1.0
38.90393829345703,2.8665056228637695,-1.134657382965088,-0.0,-0.0,-1.0,0.0406447146447962,1.0
37.84676361083984,2.4452381134033203,-1.0754528045654297,0.9083373914056584,-0.0983175541321466,-0.4065179478495829,0.114493410450582,6.0
38.20108413696289,0.699951171875,-0.7368621826171875,-0.8655390274630591,-0.1258990169208594,-0.4847593521291394,0.1683751454173298,4.0
38.39693069458008,0.9283885955810548,-0.7379660606384277,-0.0,-0.0,-1.0,0.1264974255739597,2.0
39.13037109375,3.0576305389404297,-1.2060260772705078,-0.0,-0.0,-1.0,0.0297382019548071,1.0
39.72059631347656,3.1367263793945312,-1.1359248161315918,-0.0,-0.0,-1.0,0.0435752160209657,1.0
38.26653289794922,0.71282958984375,-0.7470698356628418,-0.4651331604461836,0.7028546282429676,-0.5381881776951111,0.111494455397456,8.0
38.48793029785156,0.8029632568359375,-0.7630448341369629,-0.0,-0.0,-1.0,0.2311200237622333,1.0
38.50078201293945,1.2645225524902344,-1.0591511726379397,-0.0,-0.0,-1.0,0.0716684904999173,2.0
38.83120346069336,1.4115447998046875,-1.0817158222198486,0.618871629292371,-0.0725771782800197,-0.7821319963087535,0.0584566705697392,3.0
39.485557556152344,1.5506935119628906,-1.132847547531128,-0.6706198323863106,0.0393617674428966,-0.7407561620897447,0.0358879171777609,3.0
39.723236083984375,1.7130985260009766,-1.1474132537841797,-0.0,-0.0,-1.0,0.0511715948712322,2.0
40.060279846191406,1.5512161254882812,-1.1828420162200928,-0.0,-0.0,-1.0,0.0138339859851608,1.0
37.91062927246094,1.092092514038086,-1.015928030014038,0.4586469376544547,0.8859962967208329,-0.0682169244188034,0.0629938356668109,3.0
38.08797454833984,1.428476333618164,-1.0176446437835691,-0.0,-0.0,-1.0,0.0901783898964196,1.0
38.08329772949219,2.7395782470703125,-0.9665799140930176,-0.0,-0.0,-1.0,0.1058108586310122,1.0
38.078800201416016,0.7597618103027344,-0.8415637016296387,-0.0,-0.0,-1.0,0.1561926812682897,1.0
38.40833282470703,0.908832550048828,-0.8576323986053467,0.4520769620164208,-0.89155408808495,0.027526867475548,0.1662698293266662,4.0
37.71622467041016,2.738727569580078,-1.1412453651428225,-0.0,-0.0,-1.0,0.0237926738673191,2.0
38.431884765625,2.94195556640625,-1.1981325149536133,-0.0,-0.0,-1.0,0.1112448914419121,1.0
38.46343994140625,2.9011001586914062,-1.202934980392456,0.1440316168319002,-0.782099145621036,-0.6062803145176612,0.0967324927350537,3.0
38.913368225097656,2.9975414276123047,-1.2404251098632812,-0.8900249979962448,0.0809152103933303,-0.4486738589095506,0.0374071914873017,5.0
38.28238677978515,0.750152587890625,-0.7283577919006348,-0.9784371917169712,0.202833862111264,-0.0389754569701948,0.121368445394146,7.0
38.50220489501953,0.914020538330078,-0.7466216087341309,0.2600821713902283,-0.9042966138659566,0.3385334522251955,0.2166760394419483,6.0
38.23754119873047,0.703369140625,-0.8463525772094727,-0.9533177505003918,-0.2753734768513829,-0.123914142968643,0.1702158466874047,3.0
38.67742156982422,1.0089492797851562,-0.8759133815765381,-0.1524955007954235,-0.0158689706120717,-0.9881767544366068,0.1146137970152074,5.0
38.42502975463867,0.9191951751708984,-0.8240361213684082,0.4771353930469129,-0.862683766872773,0.1676858225258491,0.1164351011647136,5.0
38.69300842285156,1.0078868865966797,-0.8492293357849121,-0.1888468522051807,-0.2505394351165181,-0.9495087455435524,0.1302324991228176,6.0
38.32918930053711,0.7935276031494141,-0.6073014736175537,0.6380628195291295,-0.3240151411682986,-0.6984912502159386,0.1450977727502381,11.0
38.73309326171875,0.8378448486328125,-0.647573709487915,-0.421654154203916,-0.3077054943118218,-0.8529508209814312,0.1186071165916423,3.0
38.23980712890625,0.8425674438476562,-0.8940567970275879,-0.5638404706327749,-0.686792211023732,-0.4586942146503971,0.1385525656177973,9.0
38.71577453613281,1.0656585693359375,-0.930128812789917,-0.7447826558549753,0.0139728517092589,0.6671608164098973,0.2027367076676804,6.0
38.48122024536133,0.9195308685302734,-0.7140004634857178,-0.1480414781511199,-0.8967160803759643,-0.4171138836600843,0.1828585332268801,6.0
38.328407287597656,0.8120231628417969,-0.7022838592529297,-0.5729929054149814,0.8145022832099702,0.0909129308175927,0.1888404651637383,11.0
38.7716064453125,0.9525508880615234,-0.741891622543335,-0.9428204931376368,-0.0594955053486229,0.3279478656174101,0.2281088972754901,4.0
37.84318542480469,2.6076889038085938,-1.1010286808013916,-0.0,-0.0,-1.0,0.0578777275164551,1.0
38.09144592285156,2.899433135986328,-1.1184990406036377,-0.0,-0.0,-1.0,0.027470291593174,1.0
38.199649810791016,2.788637161254883,-1.1357009410858154,-0.0,-0.0,-1.0,0.1770037343861847,1.0
38.65552520751953,2.9571590423583984,-1.1830649375915527,-0.4673146732611432,-0.5681261039476984,-0.6773844744072893,0.0593026114746754,3.0
38.798397064208984,2.9720230102539062,-1.1994926929473877,-0.0,-0.0,-1.0,0.0291315586855825,1.0
38.91551208496094,3.012279510498047,-1.2119038105010986,0.8392552763573727,-0.469024766954487,-0.2750751698892489,0.0374071914873017,6.0
37.76144027709961,2.6271533966064453,-1.095991611480713,-0.0,-0.0,-1.0,0.0370285659814484,2.0
38.09608459472656,3.0312938690185547,-1.1237120628356934,-0.0,-0.0,-1.0,0.0464581230249523,2.0
37.927223205566406,2.8435802459716797,-1.109062671661377,-0.840176204309434,0.099598065424862,-0.5330892712068186,0.0394689977946376,4.0
38.50921249389648,3.083322525024414,-1.1743431091308594,-0.0,-0.0,-1.0,0.072980981930902,1.0
38.73320770263672,3.0891075134277344,-1.202690601348877,-0.0,-0.0,-1.0,0.0344736231555966,2.0
38.357025146484375,0.9921875,-0.9105122089385986,0.2960498562473302,0.2020701500321811,-0.9335534998498516,0.1092041246174676,7.0
38.70201110839844,1.0252723693847656,-0.9514987468719482,-0.2210745773507474,0.2854630258516277,-0.9325432387406072,0.1492415977133987,8.0
38.50066757202149,0.8632049560546875,-0.5768969058990479,-0.0,-0.0,-1.0,0.164077381289213,2.0
38.3809700012207,0.7610092163085938,-0.5664868354797363,-0.5352823919784332,-0.1948945811509658,-0.8218812950030169,0.1565392193099802,8.0
37.821632385253906,3.1131725311279297,-1.1849215030670166,-0.0,-0.0,-1.0,0.037892923082733,1.0
38.144813537597656,2.7156429290771484,-1.169184923171997,-0.0,-0.0,-1.0,0.1342909072669194,2.0
38.01411437988281,2.4638824462890625,-1.1531422138214111,-0.0,-0.0,-1.0,0.1557402638849132,2.0
37.882286071777344,2.206796646118164,-1.137218713760376,-0.0,-0.0,-1.0,0.0785575335077986,1.0
38.31847381591797,2.762002944946289,-1.195671319961548,-0.0,-0.0,-1.0,0.046669257558293,1.0
38.61772918701172,3.0016937255859375,-1.23871111869812,-0.0,-0.0,-1.0,0.0546209520137973,1.0
38.16226959228515,0.7163543701171875,-0.8538637161254883,-0.9140405161687256,-0.0643207142211961,0.4004906747030259,0.1637077043462149,4.0
38.414207458496094,0.81927490234375,-0.8871822357177734,-0.0,-0.0,-1.0,0.1299390745010539,1.0
37.73203659057617,2.099299430847168,-1.0310389995574951,-0.7617294821223373,-0.0068563298748212,-0.6478589250803629,0.1030146592318189,3.0
37.880653381347656,2.3612289428710938,-1.0449483394622805,-0.0,-0.0,-1.0,0.1259923105047185,2.0
38.21751022338867,2.3044471740722656,-1.0987117290496826,-0.0,-0.0,-1.0,0.021265406979164,2.0
38.49687194824219,2.5114192962646484,-1.1354002952575684,-0.0,-0.0,-1.0,0.0691910720461269,2.0
38.65057373046875,2.886808395385742,-1.1479742527008057,0.5089880475850145,-0.7733491330226583,0.3779712765127759,0.0693246667748428,3.0
38.30419158935547,0.795318603515625,-0.6696398258209229,-0.2257482703363338,0.8697659511143411,0.4387993946239205,0.2228983534733237,15.0
38.349876403808594,0.7576999664306641,-0.6772067546844482,-0.1197445580598638,-0.3474096780566234,-0.9300364274627316,0.1958423817198245,7.0
38.62599182128906,0.8598518371582031,-0.7202596664428711,0.7370926839797834,-0.0626177980174222,-0.6728843783258223,0.2407550106145032,5.0
38.21894073486328,0.7481555938720703,-0.8751018047332764,-0.9607028560715726,0.1859910256324755,0.2060518398852648,0.1023444510964301,4.0
38.34162902832031,0.9071826934814452,-0.8901979923248291,-0.939334718837672,0.0572952169080869,0.3381827081706083,0.093470342438959,5.0
38.7484245300293,0.9855833053588868,-0.9536635875701904,-0.1206448583933095,-0.2663476513229123,-0.9562968925903848,0.102726297938354,4.0
39.50750350952149,0.8236312866210938,-1.081157684326172,-0.0,-0.0,-1.0,0.011607383005239,1.0
39.73162078857422,1.0229835510253906,-1.1132912635803225,-0.0,-0.0,-1.0,0.0116201907369528,1.0
39.91670227050781,1.1913204193115234,-1.140101671218872,-0.0,-0.0,-1.0,0.0092865984306123,2.0
40.05362319946289,1.3833322525024414,-1.1588988304138184,-0.0,-0.0,-1.0,0.0064663589253416,1.0
40.10675811767578,2.0163583755493164,-1.1557655334472656,-0.0,-0.0,-1.0,0.0184415884701969,2.0
40.197967529296875,2.211361885070801,-1.1679368019104004,0.7842429932469471,-0.0955346801369761,-0.6130546895948146,0.0149282022683187,3.0
40.200679779052734,2.6188268661499023,-1.1620185375213623,-0.0,-0.0,-1.0,0.0384926840834681,1.0
38.37968444824219,2.85244083404541,-0.8500182628631592,-0.0,-0.0,-1.0,0.0805975654208578,2.0
38.462860107421875,0.7238121032714844,-0.5937900543212891,-0.0,-0.0,-1.0,0.1367247918159989,2.0
38.207069396972656,0.7227745056152344,-0.7422127723693848,-0.8655390274630591,-0.1258990169208594,-0.4847593521291394,0.2134229014793633,4.0
38.47039031982422,0.8616361618041992,-0.772402286529541,0.6858205883450341,-0.7058836796472199,-0.1771393559031203,0.2148448256716446,5.0
38.308799743652344,0.7632665634155273,-0.6540215015411377,-0.3902579487293165,-0.8362725809339976,-0.3851582841268986,0.2025966369920076,14.0
38.53870391845703,0.8424224853515625,-0.6833620071411133,-0.8875195514226426,-0.4543595842119701,-0.0765925197214262,0.175268845529247,4.0
37.83244323730469,1.0279722213745115,-1.0289487838745115,-0.0,-0.0,-1.0,0.0630651013902184,2.0
38.14569854736328,1.3051509857177734,-1.05599045753479,0.8396537526196867,0.4784622161864627,-0.2570126132967342,0.0544236505974882,4.0
38.58978271484375,1.4621267318725586,-1.1161797046661377,0.8612062662339235,-0.5080167425752516,0.0155806374277508,0.032665702374394,3.0
38.82063293457031,1.5438690185546875,-1.148108959197998,-0.0,-0.0,-1.0,0.0483594515868027,2.0
38.983551025390625,1.7792434692382812,-1.1572825908660889,-0.0,-0.0,-1.0,0.0266520366714496,2.0
37.870452880859375,2.0845260620117188,-0.946338415145874,-0.0,-0.0,-1.0,0.1544027756637578,1.0
39.15828704833984,2.054507255554199,-1.1659233570098877,-0.0,-0.0,-1.0,0.0177488235868831,1.0
39.31793212890625,2.2399330139160156,-1.179703950881958,-0.0,-0.0,-1.0,0.0172333587871638,1.0
38.11042022705078,2.663806915283203,-0.940316915512085,-0.4975313172125961,0.1551957410697804,-0.853449981162634,0.0945840909312227,5.0
39.511478424072266,2.539374351501465,-1.191781997680664,-0.4861001785656031,-0.1333482580851733,-0.8636694150334019,0.0143409147061411,3.0
39.68841171264648,2.7136926651000977,-1.2107203006744385,0.8458740668057718,-0.3464136549498612,-0.4055793914509749,0.0220033450122626,3.0
39.81041717529297,2.8873443603515625,-1.2205231189727783,-0.0,-0.0,-1.0,0.0256579146891566,1.0
37.86210632324219,0.6442375183105469,-0.9732582569122314,-0.0,-0.0,-1.0,0.1802119344721401,1.0
38.05931091308594,0.9544296264648438,-0.9761917591094972,-0.0,-0.0,-1.0,0.0453848906911365,2.0
38.458343505859375,1.0548219680786133,-1.0316133499145508,-0.0,-0.0,-1.0,0.134939866322743,2.0
38.667945861816406,1.121403694152832,-1.0600783824920654,-0.0,-0.0,-1.0,0.0838373415947052,1.0
38.82696533203125,1.2369565963745115,-1.0764353275299072,0.0544458034662267,0.4653716185501656,-0.8834392515237911,0.1218629605302215,3.0
39.25935363769531,1.2716827392578125,-1.1458675861358645,0.0489564577248234,-0.9756303503818492,-0.2138894215729896,0.0275867372872384,3.0
39.38871383666992,1.4973745346069336,-1.1490938663482666,-0.0,-0.0,-1.0,0.0181118726850022,2.0
39.60918045043945,1.672926902770996,-1.1727688312530518,-0.0,-0.0,-1.0,0.0432633541322559,2.0
39.894142150878906,1.8298263549804688,-1.209810495376587,-0.0,-0.0,-1.0,0.0257652633424628,2.0
39.975303649902344,2.162135124206543,-1.198516845703125,-0.0,-0.0,-1.0,0.0222745016053348,2.0
40.081912994384766,2.482912063598633,-1.1934340000152588,-0.0,-0.0,-1.0,0.0195353413913497,1.0
40.13782501220703,2.910183906555176,-1.1723949909210205,-0.9720747658147476,0.1448776143692549,-0.1846107432433917,0.0375268929531775,4.0
38.2244758605957,3.113478660583496,-1.1865699291229248,-0.0,-0.0,-1.0,0.0768653737550263,2.0
38.35783767700195,0.8527297973632812,-0.7688465118408203,0.5022683888839262,0.7251887758401091,-0.4709858861191802,0.178450222866847,3.0
38.62569808959961,0.908184051513672,-0.8061268329620361,-0.0355598505989256,-0.7653293664553632,-0.6426557849007621,0.1573748509054737,4.0
37.946022033691406,2.9833898544311523,-1.1480717658996582,0.2166950966039841,0.2173566462584907,-0.9517349018687142,0.0318816435289992,3.0
38.210243225097656,3.130823135375977,-1.1819536685943604,-0.0,-0.0,-1.0,0.0763310097911694,2.0
38.05975341796875,0.8359003067016602,-0.9517998695373536,-0.8621707701699832,0.2702014524553654,0.4285472414512878,0.0869692318785435,3.0
38.350284576416016,0.984050750732422,-0.9778802394866944,-0.0,-0.0,-1.0,0.1237562280109639,1.0
38.66124725341797,1.0243301391601562,-1.0208158493041992,-0.9452520565555774,-0.2803844811193571,-0.1669823114131559,0.0995768968489802,3.0
38.838470458984375,1.1632452011108398,-1.0324959754943848,-0.3825962972825941,0.7535936703087714,0.5345246985651865,0.1340417229443856,5.0
39.18714904785156,1.131302833557129,-1.0914325714111328,-0.0,-0.0,-1.0,0.0281625421839413,1.0
39.53862380981445,1.238811492919922,-1.136385202407837,-0.0,-0.0,-1.0,0.0209196989515367,1.0
39.848915100097656,1.3700714111328125,-1.1732416152954102,-0.0,-0.0,-1.0,0.0087542336337439,2.0
40.050148010253906,1.484174728393555,-1.1948435306549072,-0.0,-0.0,-1.0,0.0089405129849515,2.0
37.8305778503418,1.0490264892578125,-1.0355533361434937,-0.0,-0.0,-1.0,0.0620623902663018,2.0
37.99759292602539,1.2482118606567385,-1.033779263496399,-0.0,-0.0,-1.0,0.1236753441474131,2.0
38.27830505371094,1.2850770950317385,-1.063724160194397,-0.4777598269004666,0.10097188879228,-0.8726684510590239,0.0256854992608528,4.0
38.72537612915039,1.3618860244750977,-1.1110106706619265,-0.0,-0.0,-1.0,0.0358797009736347,2.0
38.941680908203125,1.4851255416870115,-1.125709891319275,-0.0463281014550829,-0.4953457917636634,-0.867459655314065,0.0240041983957798,3.0
39.2344856262207,1.662766456604004,-1.1457377672195437,0.1585333741573487,0.1438212041071837,-0.9768227221596792,0.0056844740903676,3.0
39.527870178222656,1.7830696105957031,-1.1727176904678345,-0.0,-0.0,-1.0,0.0291801494595381,1.0
39.75278854370117,1.8447513580322263,-1.1969596147537231,-0.0,-0.0,-1.0,0.0396547600379858,1.0
37.88483810424805,2.135848045349121,-0.9259604215621948,-0.0,-0.0,-1.0,0.1670340303580431,2.0
39.89507293701172,2.117759704589844,-1.1904877424240112,-0.0,-0.0,-1.0,0.0315199545871866,2.0
40.07583236694336,2.40463924407959,-1.1887251138687134,-0.0,-0.0,-1.0,0.013003889992067,1.0
40.16151809692383,2.5435733795166016,-1.188074231147766,-0.0,-0.0,-1.0,0.0267552400861036,2.0
40.147369384765625,2.846649169921875,-1.1585136651992798,0.5331707850291236,0.7833243574077011,-0.3195807645701476,0.045645417808345,6.0
38.16384506225586,2.7696056365966797,-0.8955763578414917,-0.0001840992621162,0.9715749851639296,-0.2367319461145279,0.0990575707726346,4.0
38.21321868896485,2.798276901245117,-0.8990300893783569,-0.4446072785262163,0.1799929193483986,-0.8774547947706209,0.1048261768088472,3.0
39.02812194824219,1.0573015213012695,-1.055875301361084,-0.0,-0.0,-1.0,0.0468531794122735,1.0
39.31342315673828,0.8742389678955078,-1.10567045211792,-0.0,-0.0,-1.0,0.0146608360375905,1.0
39.62909698486328,1.021379470825195,-1.132352352142334,-0.0,-0.0,-1.0,0.0076995825445022,2.0
39.9495849609375,1.1630096435546875,-1.1610538959503174,-0.0,-0.0,-1.0,0.012903377011788,2.0
40.061466217041016,1.2367525100708008,-1.1694254875183103,-0.0,-0.0,-1.0,0.0048887601808951,1.0
37.978660583496094,0.7117099761962891,-0.9639177322387696,-0.0,-0.0,-1.0,0.1067693817237655,2.0
38.135215759277344,0.9695167541503906,-0.958876371383667,0.5265535293005759,-0.6199021838954671,-0.5817754405118334,0.0514752533297133,3.0
38.455780029296875,1.026472091674805,-0.9908449649810792,-0.0,-0.0,-1.0,0.1422261266846334,2.0
38.745304107666016,1.1136474609375,-1.0173604488372805,-0.8355462697841355,0.1992311464345117,0.5120247858651048,0.0865420387245063,4.0
37.74652862548828,2.1622438430786133,-1.0532455444335938,-0.5288514432144094,-0.0811172015470515,-0.8448290659199713,0.0409994458824802,5.0
38.137603759765625,2.2263031005859375,-1.0965003967285156,-0.0,-0.0,-1.0,0.023179850509847,2.0
38.537872314453125,2.14443302154541,-1.158153772354126,-0.0,-0.0,-1.0,0.0566481940340548,1.0
38.841068267822266,2.297445297241211,-1.1834347248077393,-0.0,-0.0,-1.0,0.0325306851435077,1.0
37.86559295654297,2.4186525344848633,-1.0407190322875977,-0.2059115333821131,-0.8829650135592062,-0.4218687298800628,0.1383632558068793,4.0
37.91545486450195,2.43215274810791,-1.045706033706665,-0.1851919881266839,-0.3499310836900293,-0.9182876260743188,0.1809731233077618,5.0
39.006683349609375,2.45113754272461,-1.1908042430877686,-0.0,-0.0,-1.0,0.0175135472477649,1.0
39.18460464477539,2.665002822875977,-1.1944856643676758,-0.109040819818444,-0.525895263325221,-0.8435308362030509,0.014812002948706,3.0
38.36040115356445,2.962038993835449,-1.04917311668396,-0.0,-0.0,-1.0,0.0751059750605104,1.0
39.38862609863281,2.8369932174682617,-1.2069449424743652,-0.0947171552749308,-0.9478525100070796,-0.3043095131110824,0.0111336320312044,3.0
39.552391052246094,2.986461639404297,-1.2164020538330078,0.1556468207416282,-0.6747380204577914,-0.7214587104898831,0.0206045252826515,3.0
38.34787368774414,0.800633430480957,-0.666348934173584,-0.7143458421403043,-0.5605664106162337,-0.4188977406309221,0.1921776644500818,11.0
38.528594970703125,0.8377285003662109,-0.6836622953414917,-0.8875195514226426,-0.4543595842119701,-0.0765925197214262,0.1832293758755463,4.0
39.28391647338867,1.3324737548828125,-1.1685028076171875,-0.0,-0.0,-1.0,0.0172587442345569,1.0
37.724483489990234,0.9453678131103516,-1.0385620594024658,-0.0,-0.0,-1.0,0.0750932835190072,2.0
37.91110610961914,1.089895248413086,-1.041260004043579,0.4586469376544547,0.8859962967208329,-0.0682169244188034,0.0468100922394757,3.0
38.37411117553711,1.1842222213745115,-1.0803098678588867,-0.0,-0.0,-1.0,0.0617035931655311,1.0
38.118839263916016,1.2562074661254885,-1.0442960262298584,-0.0,-0.0,-1.0,0.0928127308583851,2.0
38.46087265014648,1.2314386367797852,-1.0846374034881592,-0.0,-0.0,-1.0,0.0619428990875418,2.0
38.74535369873047,1.317061424255371,-1.107123613357544,0.1306253996576914,-0.0277228858204219,-0.991044119384226,0.0542796650174849,3.0
39.216346740722656,1.401468276977539,-1.1530232429504397,-0.0,-0.0,-1.0,0.0231789671791101,1.0
39.4140739440918,1.5911054611206057,-1.156296730041504,-0.0,-0.0,-1.0,0.0175785286617189,2.0
39.598297119140625,1.6689224243164062,-1.1707556247711182,-0.3610289467084785,0.640390794223843,-0.6779068743654408,0.0458361419977737,3.0
39.98674774169922,1.7412004470825195,-1.212291955947876,-0.0,-0.0,-1.0,0.0166389198104063,1.0
40.180320739746094,2.0286312103271484,-1.207597732543945,-0.0,-0.0,-1.0,0.0135026393372887,1.0
38.13011932373047,2.5875959396362305,-0.8955004215240479,-0.0,-0.0,-1.0,0.1180703009187185,1.0
38.23672866821289,2.8596668243408203,-0.877575159072876,0.1650462487783544,-0.9426103782798784,-0.2902505995226509,0.072103637877528,4.0
38.27995300292969,2.8944244384765625,-0.8787791728973389,0.7400956902059483,-0.5974477423078804,-0.3087305695097223,0.0754794856200586,5.0
37.94184875488281,1.1343765258789062,-1.0301196575164795,-0.0,-0.0,-1.0,0.1044328007642414,2.0
38.17169952392578,1.272382736206055,-1.037766695022583,0.6908828423885837,0.1555471281313504,-0.7060354021032947,0.0724102750300939,3.0
38.49574279785156,1.2879304885864258,-1.071671485900879,0.6724912072486579,-0.2312678228479347,-0.7030439319761029,0.0509515053468027,3.0
38.90202713012695,1.4243707656860352,-1.101876974105835,0.1980091770124828,-0.6450253468897376,-0.7380614254170264,0.0486699849886351,5.0
39.22244644165039,1.5283946990966797,-1.1276018619537354,-0.0,-0.0,-1.0,0.0135368325519668,2.0
39.40555191040039,1.6620140075683594,-1.1342625617980957,-0.0,-0.0,-1.0,0.0248664115698728,1.0
39.70265197753906,1.7340002059936523,-1.163177251815796,0.7236520214696349,0.2190491314665371,-0.6544808857611252,0.0397496165799173,3.0
39.93510437011719,1.8267946243286133,-1.1822450160980225,-0.0,-0.0,-1.0,0.0265033137509689,2.0
40.1147346496582,2.132953643798828,-1.1711974143981934,-0.0,-0.0,-1.0,0.0146003214923021,1.0
38.415733337402344,0.6620464324951172,-0.5514916181564331,-0.0,-0.0,-1.0,0.1402487600513635,2.0
38.272674560546875,2.8620119094848633,-0.8563461303710938,0.6478081955152533,-0.4783670304638839,-0.5928823879897576,0.0779105861512448,6.0
38.28227233886719,2.810370445251465,-1.1808700561523438,-0.0,-0.0,-1.0,0.0444132377042658,1.0
38.46346282958984,2.888974189758301,-1.1872870922088623,0.1634837003809812,-0.7702775696260591,-0.6163972302344596,0.0996500215282558,4.0
38.84633255004883,2.950606346130371,-1.2188596725463867,-0.0,-0.0,-1.0,0.0325754448582862,2.0
39.17289352416992,3.112882614135742,-1.2309298515319824,-0.0,-0.0,-1.0,0.0272839691011231,1.0
38.15203475952149,0.8908014297485352,-0.9013872146606444,-0.0,-0.0,-1.0,0.0934418096366709,1.0
38.38273620605469,0.9735164642333984,-0.9106175899505616,0.2007859616605608,0.015034910805676,-0.9795197542965166,0.0802128708539041,7.0
38.70357894897461,1.0365209579467771,-0.9309983253479004,-0.2983385889751695,0.2393985223587122,-0.9239493675633796,0.2080812715383983,7.0
37.79781723022461,2.8656625747680664,-1.1249375343322754,-0.1552032283270375,0.5233809245256368,-0.8378450726474167,0.0283727780392171,3.0
38.03343963623047,2.9021453857421875,-1.1418349742889404,-0.0,-0.0,-1.0,0.0484559389028517,1.0
38.00324249267578,2.426279067993164,-1.1417375802993774,-0.4402013084608689,0.0250169172545564,-0.8975505344438371,0.1709340105495015,4.0
38.396968841552734,2.4345645904541016,-1.176272988319397,-0.0,-0.0,-1.0,0.0342586230479731,2.0
37.97500228881836,2.522146224975586,-1.1241031885147097,0.7978158702487498,-0.5259926741192891,-0.2946549574537466,0.2242804720016394,3.0
38.30052947998047,2.4820289611816406,-1.1596094369888306,-0.0,-0.0,-1.0,0.0610078799420628,1.0
38.787261962890625,2.532756805419922,-1.1986438035964966,-0.0,-0.0,-1.0,0.015140139288248,1.0
39.19272232055664,2.6964826583862305,-1.2151609659194946,0.2545394976005251,-0.0936603282102052,-0.9625161749710128,0.0160984021818544,4.0
39.472557067871094,2.764206886291504,-1.235209584236145,-0.0,-0.0,-1.0,0.0158334544246296,1.0
39.603492736816406,2.8396615982055664,-1.2383733987808228,-0.0,-0.0,-1.0,0.0227360352226877,1.0
38.22161102294922,0.7762184143066406,-0.8595393896102905,-0.8824068178267005,-0.2897220805890776,-0.3707011247246119,0.1204568744538889,5.0
38.442176818847656,0.934682846069336,-0.8577321767807007,0.5952146244807058,-0.8035208877994621,0.0085868314445076,0.1118435713700642,5.0
38.681251525878906,0.9789066314697266,-0.872468113899231,-0.918816585084442,0.2587824563931912,0.2980062469762521,0.1297109757220702,4.0
37.85216522216797,2.5232133865356445,-1.1130586862564087,-0.0,-0.0,-1.0,0.0514715923251401,1.0
37.88995742797851,1.195281982421875,-1.086172580718994,-0.0,-0.0,-1.0,0.0435295080098612,2.0
38.58723831176758,1.239943504333496,-1.1057188510894775,-0.0,-0.0,-1.0,0.0335183834425766,2.0
39.65231704711914,1.1985502243041992,-1.1666321754455566,-0.0,-0.0,-1.0,0.0097654357160035,2.0
38.108154296875,1.3572883605957031,-1.068361520767212,-0.0,-0.0,-1.0,0.0588520081339464,1.0
38.381248474121094,1.3088150024414062,-1.0864667892456057,-0.0,-0.0,-1.0,0.0311417017900614,2.0
38.78443908691406,1.3209199905395508,-1.1020798683166504,0.149795853384608,-0.9434216179163294,-0.2958324748179483,0.066168636903878,4.0
39.2153434753418,1.266408920288086,-1.131885051727295,0.1512085719550348,-0.9828866384961372,0.1052132293634327,0.0336706381302495,3.0
39.57723617553711,1.2762718200683594,-1.15043306350708,-0.0,-0.0,-1.0,0.0191444270408692,2.0
39.99197006225586,1.2604503631591797,-1.1781840324401855,-0.0,-0.0,-1.0,0.0057185298504076,1.0
37.94954299926758,2.0562620162963867,-0.9534783363342284,-0.0,-0.0,-1.0,0.1042499592552913,2.0
38.34908676147461,0.7443943023681641,-0.615088939666748,0.7376713167169281,0.1925857788872124,-0.647110304556742,0.2362392766365052,5.0
38.66533279418945,0.676365852355957,-0.6348890066146851,-0.0,-0.0,-1.0,0.0822356913151522,2.0
38.186981201171875,2.6111040115356445,-0.8756530284881592,-0.0,-0.0,-1.0,0.1401183352921658,1.0
37.86464309692383,1.5599946975708008,-1.0795373916625977,-0.0,-0.0,-1.0,0.0549171879138866,1.0
38.25082015991211,1.473069190979004,-1.098846435546875,-0.3026808247062191,0.1193828433517127,-0.945585562002944,0.1101571956994923,3.0
38.65889358520508,1.4154348373413086,-1.1161222457885742,0.0583353673483575,-0.1720940270335061,-0.9833517329906544,0.038027911995981,4.0
39.044288635253906,1.4327278137207031,-1.1231491565704346,-0.0,-0.0,-1.0,0.0530269654927164,2.0
39.456634521484375,1.398956298828125,-1.1416645050048828,-0.0,-0.0,-1.0,0.0180241169360335,1.0
39.85332107543945,1.373823165893555,-1.160630702972412,-0.0,-0.0,-1.0,0.0088306882817106,2.0
37.8740348815918,2.0354185104370117,-1.0018212795257568,-0.4558986804727493,0.8655710445105207,-0.2072273149181172,0.1446755286428343,8.0
38.32828140258789,0.7856359481811523,-0.6577358245849609,-0.3091233314231492,0.9416658609418608,-0.13307205682065,0.22882933084314,15.0
38.60152816772461,0.8232946395874023,-0.6576850414276123,-0.0985420997850435,0.8320121457464339,-0.5459352011918351,0.1846411105200464,6.0
38.26858139038086,2.801882743835449,-0.8819763660430908,0.8643883469221995,-0.5027785782111635,-0.0068181373606265,0.0690320921309358,5.0
37.77644348144531,1.6480598449707031,-1.080230951309204,-0.0,-0.0,-1.0,0.0893714593587466,2.0
38.1463508605957,1.516667366027832,-1.1080830097198486,-0.0,-0.0,-1.0,0.0730438506046539,2.0
38.50228500366211,1.5061721801757812,-1.1176824569702148,-0.0,-0.0,-1.0,0.0134790138497507,1.0
38.90821838378906,1.496877670288086,-1.1306335926055908,-0.1419279312698936,-0.4984669450222647,-0.8552117673685382,0.0272839874523249,4.0
39.28798294067383,1.5358753204345703,-1.1371378898620603,-0.0,-0.0,-1.0,0.0105352644276858,1.0
39.69621658325195,1.5213518142700195,-1.1560466289520264,-0.0,-0.0,-1.0,0.0289106336553536,2.0
40.091758728027344,1.4739141464233398,-1.1823792457580566,-0.0,-0.0,-1.0,0.005988357207958,2.0
38.00468444824219,2.0636558532714844,-1.014791488647461,0.0687108936118332,0.9976255742382564,-0.0046932637739693,0.1587025227838541,3.0
37.95986557006836,2.131488800048828,-1.002833366394043,-0.7806641687590873,0.5426909964781131,0.3099192442512653,0.1942344269692467,5.0
38.1973876953125,0.6806039810180664,-0.6907138824462891,-0.7943650316185226,0.3945160411905135,0.4618888283830519,0.1232567276562738,3.0
38.471702575683594,0.8557233810424805,-0.6744461059570312,-0.1432809598199519,-0.8367940075505095,-0.5284376552448088,0.1335187006437436,6.0
38.20632553100586,2.7679214477539062,-0.901764154434204,0.0996623991240149,0.569725219707006,-0.8157699309429401,0.0989418542447649,5.0
37.810001373291016,1.2214069366455078,-1.071681022644043,-0.0752155715519993,0.9404672670819778,-0.3314572933930733,0.0657862831444395,3.0
38.39041519165039,1.2762680053710938,-1.0691239833831787,0.1803879461902312,-0.4224936895904662,-0.888233793055356,0.0474623424094058,3.0
38.5689697265625,1.2390899658203125,-1.0779664516448977,-0.0304468306293573,-0.9982474911816828,-0.0507438356266407,0.0538958508878791,3.0
39.18743896484375,1.1961097717285156,-1.0988028049468994,-0.0,-0.0,-1.0,0.0293331539850761,2.0
39.52153778076172,1.167893409729004,-1.113368272781372,-0.0,-0.0,-1.0,0.0175129462161225,1.0
39.90996551513672,1.111414909362793,-1.1361815929412842,0.0568848708388967,0.9981835410041996,0.0198426293106386,0.0158707354145378,3.0
38.039451599121094,1.360487937927246,-1.0513582229614258,-0.0,-0.0,-1.0,0.056950513689583,2.0
38.28769302368164,1.3281946182250977,-1.059389352798462,-0.023594286089757,0.0412596771402732,-0.9988698357174448,0.0244285812418606,4.0
38.78232955932617,1.312368392944336,-1.0703585147857666,0.1031056659247947,-0.1410449417301337,-0.9846194930360396,0.1074607139383549,6.0
39.011383056640625,1.2880754470825195,-1.0794203281402588,-0.0,-0.0,-1.0,0.1024463248562052,2.0
38.37039566040039,0.8002920150756836,-0.5919610261917114,0.213188568043473,-0.7303776529052958,-0.6489215041837686,0.1887228263540299,12.0
38.614627838134766,0.6955680847167969,-0.6099462509155273,-0.0,-0.0,-1.0,0.0819852399980013,2.0
38.58331298828125,1.3290691375732422,-1.1170687675476074,0.0717123621979989,-0.5521346664107974,-0.8306651836061388,0.0568857413896998,3.0
39.14356994628906,1.2530460357666016,-1.134612798690796,-0.0,-0.0,-1.0,0.0484574094939758,2.0
39.43946838378906,1.240095138549805,-1.1414203643798828,-0.0,-0.0,-1.0,0.0212137318864279,2.0
39.803462982177734,1.1692848205566406,-1.1606557369232178,-0.7850309716276644,0.6037606728551379,-0.1385619843205065,0.0079224340373503,3.0
37.818450927734375,1.4456911087036133,-1.0990095138549805,-0.0,-0.0,-1.0,0.020371316462766,2.0
38.237796783447266,1.4275712966918943,-1.100421905517578,0.4208703462772585,-0.0892115887672897,-0.9027233485703562,0.0181478347960742,3.0
38.65964889526367,1.367201805114746,-1.1113710403442385,0.0583353673483575,-0.1720940270335061,-0.9833517329906544,0.0424879504287108,4.0
38.96428680419922,1.3839540481567385,-1.1109898090362549,0.5242108859267353,0.0399402359399247,-0.8506513531576673,0.047454806649625,5.0
37.760215759277344,1.994943618774414,-1.0111629962921145,0.2181766491272683,-0.3648412205868979,-0.9051463050448028,0.1178313084584256,3.0
38.300758361816406,0.7816705703735352,-0.645726203918457,-0.2470752307825551,0.9672118495950724,-0.058779829334783,0.2180045246747138,14.0
38.570804595947266,0.8383140563964844,-0.6410635709762573,-0.0888703367066848,0.4610935130785473,-0.8828900472032313,0.2596415933228854,7.0
38.31039810180664,2.9315481185913086,-0.8566055297851562,-0.6716891023077881,-0.7130859530133986,0.2008536120061835,0.0754794856200586,6.0
38.60862350463867,1.3328771591186523,-1.1174148321151731,0.0717123621979989,-0.5521346664107974,-0.8306651836061388,0.0650348187397995,3.0
38.68292617797851,1.321223258972168,-1.1194556951522827,-0.0,-0.0,-1.0,0.0405676141471375,2.0
39.28511428833008,1.2699823379516602,-1.132215142250061,-0.0,-0.0,-1.0,0.0222722510661656,2.0
39.67170333862305,1.2127761840820312,-1.1472057104110718,-0.0,-0.0,-1.0,0.0108608620300924,2.0
40.045894622802734,1.149580001831055,-1.1652766466140747,-0.0,-0.0,-1.0,0.0115187539147585,1.0
38.084346771240234,1.4490022659301758,-1.1000622510910034,-0.5119311915196191,0.201871142278823,-0.8349697581735198,0.0389508942582234,3.0
38.40807342529297,1.4052352905273438,-1.1057990789413452,-0.0,-0.0,-1.0,0.0097721561116095,1.0
38.901573181152344,1.372950553894043,-1.1120842695236206,-0.2681531987733445,0.8582132651609854,-0.4376800812115432,0.0538786596514666,4.0
37.79746627807617,2.0196533203125,-1.0121439695358276,0.2975632823744049,-0.5190888457654463,-0.8012508116591625,0.1270110433034611,6.0
38.50840377807617,0.8301477432250977,-0.6350605487823486,0.0821924442423539,-0.3491142281724526,-0.933468616396406,0.1639136380238959,5.0
38.71971130371094,0.7796087265014648,-0.6437102556228638,-0.3095923550896587,-0.5422842379047151,-0.7810764232712065,0.0869881847863334,3.0
38.36479187011719,2.901923179626465,-0.8665343523025513,0.9037921057320402,-0.3795386386144499,0.1977631194513645,0.1948120986978773,5.0
37.75553512573242,1.331660270690918,-1.1122233867645264,-0.0,-0.0,-1.0,0.0221340839083812,1.0
37.8911247253418,1.3917055130004885,-1.1007211208343506,0.5725961147925118,-0.4842312507884187,-0.6615540681489337,0.0368120782679794,3.0
38.24470901489258,1.4005985260009766,-1.0945336818695068,-0.0,-0.0,-1.0,0.0210213036911513,2.0
38.61017608642578,1.3143014907836914,-1.104933738708496,0.0717123621979989,-0.5521346664107974,-0.8306651836061388,0.0584035235123384,3.0
39.0556640625,1.278883934020996,-1.1092636585235596,-0.4492296328847943,0.0857840259609786,-0.8892883884478191,0.0807862286380679,3.0
39.430301666259766,1.181997299194336,-1.1258611679077148,-0.0,-0.0,-1.0,0.0119661441021435,2.0
39.81196975708008,1.0642290115356443,-1.1482315063476562,-0.0,-0.0,-1.0,0.0124038686243754,2.0
38.06858825683594,1.4631938934326172,-1.0869693756103516,0.4442998883711238,0.2855169732917484,-0.8491629214442459,0.0523580643860317,4.0
37.828369140625,2.0423736572265625,-1.00193190574646,-0.1642961813476094,0.8672652766206881,-0.4699550029126561,0.1352227533682911,7.0
38.17482376098633,2.6866655349731445,-0.8967292308807373,-0.0,-0.0,-1.0,0.1160807770941629,2.0
38.39317321777344,0.8260574340820312,-0.6084995269775391,0.0253011406970501,-0.5288154739996082,-0.848359621114771,0.1542356154100252,9.0
38.53582763671875,0.8096694946289062,-0.611098051071167,0.4349902183736073,0.5746468245921343,-0.693227622722478,0.1764525399259395,7.0
39.61430740356445,1.0513935089111328,-1.15274977684021,-0.0,-0.0,-1.0,0.0076265709494696,2.0
39.84166717529297,1.048487663269043,-1.1517791748046875,-0.0,-0.0,-1.0,0.0119069859263768,2.0
40.1887092590332,0.981165885925293,-1.161481857299805,-0.0,-0.0,-1.0,0.0159067541652853,1.0
37.94337463378906,1.5203018188476562,-1.1145126819610596,-0.0,-0.0,-1.0,0.0363140410062758,1.0
38.2904167175293,1.4703121185302734,-1.1118693351745603,-0.2295594244132546,-0.8199484039529131,-0.5243921104651802,0.0552028575600783,3.0
38.639137268066406,1.3970880508422852,-1.114302158355713,0.0583353673483575,-0.1720940270335061,-0.9833517329906544,0.0427060569729812,4.0
39.08027648925781,1.3174686431884766,-1.1179747581481934,-0.0,-0.0,-1.0,0.0651336676251438,2.0
39.43227767944336,1.1974430084228516,-1.131728172302246,-0.9434486446717592,0.2161709880543159,0.2513458947161092,0.0119311582532627,3.0
39.8617057800293,1.1142644882202148,-1.1411786079406738,0.1182389152124182,0.4522525690045198,-0.8840176314747367,0.0124486275388769,3.0
37.87602233886719,1.6302309036254885,-1.1005306243896484,-0.0,-0.0,-1.0,0.0369287549542696,1.0
38.18583679199219,1.5194740295410156,-1.107323408126831,-0.0,-0.0,-1.0,0.0743897147086136,2.0
38.94199752807617,1.4420156478881836,-1.101109743118286,0.0324869817219514,-0.3745465833598061,-0.9266387931184908,0.034352590506611,6.0
37.78799819946289,2.0308351516723633,-1.0444960594177246,-0.3831055052102534,-0.6566346079179213,-0.6496623458090163,0.1147208479271516,5.0
38.30521774291992,2.9218435287475586,-0.8953521251678467,-0.2984780222685053,0.7705086716140087,-0.563229311373527,0.1948120986978774,7.0
38.676570892333984,0.6605424880981445,-0.6348743438720703,-0.0,-0.0,-1.0,0.0771517132853676,2.0
38.360565185546875,0.8608112335205078,-0.6137505769729614,0.4732624339419088,-0.1262197092092784,-0.8718321246814122,0.2672491763052667,6.0
38.543888092041016,0.8634719848632812,-0.6116359233856201,0.5088666844811225,0.719704928379487,-0.472312940211749,0.1880140395993887,5.0
39.81502914428711,1.4408769607543943,-1.1588979959487915,-0.0,-0.0,-1.0,0.0070875117438597,2.0
40.18151092529297,1.3237829208374023,-1.167911410331726,-0.0,-0.0,-1.0,0.0049054884739973,1.0
38.59519577026367,1.8587188720703125,-1.1402817964553833,-0.0,-0.0,-1.0,0.0149344831201527,1.0
38.899375915527344,1.732590675354004,-1.145959973335266,-0.0,-0.0,-1.0,0.0272935509774157,2.0
39.33937072753906,1.6616315841674805,-1.1398850679397583,-0.0,-0.0,-1.0,0.0149735038818855,1.0
39.69780349731445,1.5387306213378906,-1.1471291780471802,-0.0,-0.0,-1.0,0.0284178163257197,2.0
38.31037139892578,2.142043113708496,-1.1119896173477173,-0.0,-0.0,-1.0,0.0599059668062837,2.0
38.39085388183594,2.064962387084961,-1.1193207502365112,-0.9538524524615808,0.2865696045934154,-0.089684784976057,0.0386151338549321,3.0
38.11220169067383,1.083395004272461,-0.6779788732528687,-0.0,-0.0,-1.0,0.1756018801719715,1.0
38.56305313110352,0.916728973388672,-0.684402585029602,-0.0,-0.0,-1.0,0.1563180408553922,2.0
38.77049255371094,0.9351301193237304,-0.6768312454223633,-0.0,-0.0,-1.0,0.1429844155865433,2.0
40.02732467651367,1.4441919326782229,-1.1526390314102173,-0.0,-0.0,-1.0,0.0065625093444566,1.0
39.10600280761719,1.8082857131958008,-1.1261438131332395,-0.0,-0.0,-1.0,0.0087148446246851,1.0
39.29153823852539,1.735858917236328,-1.1303871870040894,-0.0,-0.0,-1.0,0.0085497596900551,1.0
39.64395523071289,1.600107192993164,-1.139198899269104,-0.0,-0.0,-1.0,0.0398190641220842,1.0
38.184356689453125,2.2517642974853516,-1.102502942085266,-0.0,-0.0,-1.0,0.0229208205312941,1.0
37.86681365966797,2.411942481994629,-1.096793532371521,-0.7644782000670948,-0.0483323062527517,-0.6428351808935672,0.1429159245769977,3.0
38.01376724243164,2.39407730102539,-1.091086745262146,-0.0,-0.0,-1.0,0.2470388018104384,2.0
40.13355255126953,1.5055656433105469,-1.1774613857269287,-0.0,-0.0,-1.0,0.0146766467430311,1.0
39.31463623046875,1.9598064422607424,-1.151719331741333,-0.0,-0.0,-1.0,0.0065962639941949,2.0
39.68505096435547,1.7878084182739258,-1.1569552421569824,-0.0,-0.0,-1.0,0.034882600211258,2.0
39.95983123779297,1.5929746627807615,-1.172266960144043,-0.0,-0.0,-1.0,0.0148061248541482,1.0
38.55615234375,2.2479934692382812,-1.1574857234954834,0.0379698671573352,-0.5224070570286494,-0.8518504305068579,0.0645620274883569,3.0
38.89067459106445,2.052701950073242,-1.1634869575500488,-0.0,-0.0,-1.0,0.027089720201169,2.0
39.22460174560547,2.036954879760742,-1.1456356048583984,-0.0,-0.0,-1.0,0.0141601398032655,2.0
38.14371490478515,2.646644592285156,-1.1316158771514893,-0.0,-0.0,-1.0,0.164221246156405,2.0
38.37518310546875,2.479787826538086,-1.1376795768737793,-0.0,-0.0,-1.0,0.0793237620018423,1.0
37.97734832763672,2.8804025650024414,-1.1126184463500977,-0.0,-0.0,-1.0,0.0341396200391897,2.0
38.52508544921875,0.9177932739257812,-0.730618953704834,-0.0621113301790067,-0.9863088365647588,-0.1527647262219479,0.1606754164227256,5.0
38.77363586425781,0.9483757019042968,-0.7167060375213623,-0.9931978439157298,0.0898189492025764,-0.0740985776198873,0.1977266012461172,5.0
39.420223236083984,0.7116518020629883,-1.0745247602462769,-0.0,-0.0,-1.0,0.0104307085200762,1.0
38.364295959472656,1.250138282775879,-1.0619996786117554,-0.0,-0.0,-1.0,0.0420450088238944,2.0
38.67277526855469,1.228571891784668,-1.0475293397903442,-0.0,-0.0,-1.0,0.0810386562811779,1.0
39.031951904296875,0.950702667236328,-1.0633140802383425,-0.0,-0.0,-1.0,0.0381633203717003,1.0
37.96199798583984,1.4651269912719729,-1.0593942403793335,0.669324104393071,0.7294415341211525,-0.1411392630609673,0.048077115836202,3.0
38.20753479003906,1.4008455276489258,-1.052592635154724,-0.0,-0.0,-1.0,0.0909056957291071,1.0
38.81604766845703,1.2924461364746094,-1.031739354133606,-0.9083823488557576,0.3953089892756967,0.1362802674092009,0.1354349290228046,4.0
38.222190856933594,2.9936113357543945,-0.8612626791000366,-0.0,-0.0,-1.0,0.068331742852174,1.0
38.0850715637207,0.6700925827026367,-0.962975263595581,-0.0,-0.0,-1.0,0.0833272423803688,1.0
37.75491714477539,1.1540050506591797,-0.9382290840148926,-0.0,-0.0,-1.0,0.1318159258840589,1.0
38.187347412109375,1.1674127578735352,-0.9104063510894777,-0.0,-0.0,-1.0,0.0938593421387063,2.0
38.48530578613281,0.8720302581787109,-0.9180142879486084,-0.0,-0.0,-1.0,0.1502139517141497,2.0
38.82395935058594,0.85064697265625,-0.9018785953521729,-0.0,-0.0,-1.0,0.2080141604154643,1.0
39.556297302246094,2.663179397583008,-1.2282109260559082,-0.0,-0.0,-1.0,0.0140647875739661,2.0
39.860084533691406,2.5699729919433594,-1.2185161113739014,-0.0,-0.0,-1.0,0.018503114746695,1.0
39.5865478515625,3.073083877563477,-1.1754910945892334,-0.0,-0.0,-1.0,0.0364023602883234,2.0
40.17048645019531,2.7208032608032227,-1.1745615005493164,-0.0,-0.0,-1.0,0.0475832806755623,2.0
37.930389404296875,0.781163215637207,-0.8868732452392578,-0.7551279012983266,-0.5496495355051026,-0.3573055286443373,0.1802178360470916,4.0
38.3411750793457,0.9025049209594728,-0.8541200160980225,-0.9298723733358832,0.10790348764692,0.351701871846487,0.1173276883919326,5.0
38.512081146240234,0.9220781326293944,-0.8442330360412598,-0.0436606012128301,-0.8768832575247997,-0.4787165179669801,0.1594976073788122,3.0
38.77149963378906,0.8586950302124023,-0.8403546810150146,-0.0,-0.0,-1.0,0.1881215431385946,1.0
38.68015670776367,2.947026252746582,-1.1915593147277832,-0.0,-0.0,-1.0,0.0574991283122496,2.0
39.04343795776367,2.8355112075805664,-1.1801362037658691,-0.0,-0.0,-1.0,0.0364334588261398,2.0
39.2604866027832,2.6413774490356445,-1.1918535232543943,-0.0,-0.0,-1.0,0.0107652291247971,1.0
39.1537971496582,2.8228845596313477,-1.1739084720611572,-0.0,-0.0,-1.0,0.0218735388851967,1.0
39.538795471191406,2.6281280517578125,-1.1747503280639648,-0.0,-0.0,-1.0,0.0138865055860197,2.0
39.83727264404297,2.491125106811523,-1.17488431930542,-0.0,-0.0,-1.0,0.0153277173344427,1.0
38.12789535522461,3.091189384460449,-1.149711012840271,-0.0,-0.0,-1.0,0.0591205520726137,2.0
38.41686248779297,2.809419631958008,-1.1436728239059448,0.0969551373255623,-0.5087849480544212,-0.8554166107689524,0.0872811658603236,3.0
38.60564041137695,2.425448417663574,-1.1606203317642212,-0.0,-0.0,-1.0,0.0366745844742699,1.0
38.916282653808594,2.163105010986328,-1.1540902853012085,0.9506003929379436,-0.2311795143727848,-0.2071591781229839,0.0358109800877077,3.0
39.26383590698242,1.9774246215820312,-1.137534737586975,-0.0,-0.0,-1.0,0.0067410536544803,1.0
39.58704376220703,1.7003183364868164,-1.135104060173035,0.4007708357271074,0.7466141270685923,-0.5309897197613151,0.0423008647430159,3.0
39.87805938720703,1.413102149963379,-1.1389440298080444,-0.0,-0.0,-1.0,0.0077634653132622,1.0
