x,y,z,nx,ny,nz,curvature,density
14.221721649169922,19.931425094604492,-1.1820464134216309,-0.0,-0.0,-1.0,0.084124420331238,1.0
14.040155410766602,20.091154098510746,-1.1939678192138672,-0.0,-0.0,-1.0,0.1130598019983968,1.0
15.551721572875977,21.253759384155273,-1.0612125396728516,0.6224433503614726,-0.752220893980876,-0.2161666076187442,0.1906553143111434,4.0
14.237493515014648,19.778156280517575,-1.0849604606628418,-0.0,-0.0,-1.0,0.0805422005611776,1.0
13.997774124145508,19.930984497070312,-1.1105408668518066,-0.0,-0.0,-1.0,0.041372848129036,1.0
13.946441650390623,19.820484161376953,-1.1317672729492188,-0.0,-0.0,-1.0,0.0438397479729479,1.0
15.495500564575195,21.410131454467773,-1.033926486968994,-0.0,-0.0,-1.0,0.0905790124564746,2.0
14.14345645904541,20.633195877075195,-0.8221774101257324,0.8269594722453673,0.5621847100248613,-0.0092942497237292,0.085664101266813,3.0
14.139108657836914,19.706693649291992,-1.0755386352539062,-0.0,-0.0,-1.0,0.0753730119315106,1.0
15.583256721496582,21.21056747436523,-1.0323195457458496,0.8702546233593642,0.4885814916401977,0.062809366724168,0.267072793266701,4.0
15.494279861450195,21.36193466186523,-1.066868782043457,0.7012408233231014,0.1224208911265324,0.7023349863995987,0.1589423465900839,3.0
14.545788764953612,21.545534133911133,-1.0502939224243164,-0.0,-0.0,-1.0,0.2338242283834378,1.0
14.336841583251951,19.821836471557617,-1.1191871166229248,-0.0,-0.0,-1.0,0.0766750758092312,1.0
14.17082405090332,19.96866226196289,-1.1520779132843018,-0.0,-0.0,-1.0,0.1329462062708617,1.0
14.15804672241211,19.846492767333984,-1.1552302837371826,-0.0,-0.0,-1.0,0.0515606236187844,2.0
15.578365325927734,20.66130828857422,-0.7914848327636719,-0.0,-0.0,-1.0,0.1055081093259834,2.0
15.500537872314451,21.38559913635254,-0.8755683898925781,-0.5762380273981945,0.214320092838439,-0.7886803113974384,0.1113020873069586,4.0
15.097793579101562,19.778718948364254,-1.1065983772277832,-0.0,-0.0,-1.0,0.0307358720915252,1.0
14.703554153442385,19.974306106567383,-1.1223359107971191,-0.0,-0.0,-1.0,0.0144707330016196,2.0
14.518367767333984,20.034059524536133,-1.1231098175048828,-0.0,-0.0,-1.0,0.0714823419105453,1.0
14.342157363891602,20.232885360717773,-1.1586570739746094,-0.0,-0.0,-1.0,0.1551967422720361,1.0
13.864778518676758,20.05359649658203,-1.0846679210662842,-0.0,-0.0,-1.0,0.1449971052914109,1.0
13.961416244506836,20.27696228027344,-1.144924879074097,-0.0,-0.0,-1.0,0.2526645762591628,1.0
15.672014236450195,21.01557159423828,-0.8314259052276611,-0.0,-0.0,-1.0,0.0917423818978828,1.0
15.530292510986328,21.3821964263916,-0.8978414535522461,0.7843869215158986,0.4029553276837954,0.4715550458282219,0.1145894324102631,4.0
15.56043815612793,19.67217254638672,-1.116417646408081,-0.0,-0.0,-1.0,0.18746307296592,1.0
15.117321968078612,19.672603607177734,-1.0463995933532717,-0.0,-0.0,-1.0,0.0245518024400457,1.0
15.278313636779783,21.56670379638672,-0.6901538372039795,-0.5178340421853092,0.6971368667445508,-0.4958307108072411,0.0715745827426963,3.0
15.63741683959961,19.679595947265625,-0.8898961544036865,-0.0,-0.0,-1.0,0.18746307296592,1.0
15.537749290466309,20.933420181274418,-1.2970373630523682,-0.0,-0.0,-1.0,0.072430481075068,1.0
14.744571685791016,20.664915084838867,-1.2341229915618896,-0.0,-0.0,-1.0,0.0727893286589972,1.0
15.046123504638672,20.82756805419922,-1.2425439357757568,-0.0,-0.0,-1.0,0.0326809925660318,1.0
15.350784301757812,20.894012451171875,-1.2754573822021484,-0.0,-0.0,-1.0,0.0765615090324065,1.0
15.636316299438477,21.31437873840332,-1.227386474609375,-0.0,-0.0,-1.0,0.1680040618403666,2.0
13.911613464355469,20.393497467041016,-1.1807546615600586,-0.0,-0.0,-1.0,0.1400886568063139,1.0
14.103799819946287,20.56367874145508,-1.1661436557769775,-0.0,-0.0,-1.0,0.1247874525069854,1.0
14.361875534057615,20.764402389526367,-1.154747486114502,-0.0,-0.0,-1.0,0.1535610593437943,1.0
14.815362930297852,20.854032516479492,-1.2006537914276123,-0.0,-0.0,-1.0,0.033985976052297,1.0
14.005134582519531,20.55204200744629,-1.155346155166626,-0.0,-0.0,-1.0,0.1228268794422224,1.0
14.31382942199707,20.895099639892575,-1.1168816089630127,-0.0,-0.0,-1.0,0.2428182710564871,1.0
14.423749923706056,21.11220932006836,-1.0816962718963623,-0.0,-0.0,-1.0,0.1373136786059138,2.0
15.64398193359375,20.644874572753903,-0.8705871105194092,-0.0,-0.0,-1.0,0.1261708110197998,1.0
15.54852294921875,21.382875442504883,-0.7137103080749512,-0.0,-0.0,-1.0,0.1038676954302293,1.0
14.810144424438477,20.81915283203125,-1.246924638748169,-0.0,-0.0,-1.0,0.0342966066262111,1.0
15.078973770141602,20.890628814697266,-1.2611052989959717,-0.0,-0.0,-1.0,0.0293284019387559,1.0
15.428382873535156,21.005950927734375,-1.276026487350464,-0.0,-0.0,-1.0,0.0544322696564172,1.0
15.621175765991213,21.134206771850582,-1.2695198059082031,-0.9268292438894828,-0.0850068257582584,-0.3657340457843024,0.1720431938755135,3.0
13.86927318572998,20.620391845703125,-1.1969728469848633,-0.0,-0.0,-1.0,0.1123413371589509,2.0
14.127007484436035,20.7271671295166,-1.1954572200775146,-0.0,-0.0,-1.0,0.1040189813407935,1.0
14.473960876464844,20.911205291748047,-1.185621976852417,-0.0,-0.0,-1.0,0.1005839101292614,1.0
15.500421524047852,20.484420776367188,-0.9019062519073486,-0.0,-0.0,-1.0,0.1288552197703284,1.0
14.147956848144531,20.255268096923828,-0.815396785736084,0.4233996797951974,0.0069389749689245,-0.9059164209659216,0.1826328422203159,3.0
14.33002471923828,20.230369567871097,-0.8374969959259033,-0.0,-0.0,-1.0,0.1886736329154761,1.0
15.49994659423828,20.9736328125,-0.7975368499755859,-0.0,-0.0,-1.0,0.1326206473736588,1.0
14.46886920928955,21.266193389892575,-0.6236283779144287,-0.0,-0.0,-1.0,0.0744314006774582,1.0
15.415166854858398,19.649173736572266,-1.1386041641235352,-0.0,-0.0,-1.0,0.1040640011942441,2.0
15.10533618927002,20.892860412597656,-1.313899278640747,-0.0,-0.0,-1.0,0.0321687909984371,1.0
13.765188217163086,20.805583953857425,-1.1929891109466553,-0.0,-0.0,-1.0,0.0910173729937636,1.0
14.17416000366211,20.916418075561523,-1.2035291194915771,-0.0,-0.0,-1.0,0.2389229964842943,2.0
14.585526466369627,20.951303482055664,-1.2383058071136477,-0.0,-0.0,-1.0,0.0833306857730793,1.0
14.945934295654297,20.957324981689453,-1.278024435043335,-0.0,-0.0,-1.0,0.0294641892650632,1.0
15.27718734741211,21.05343246459961,-1.2929704189300537,-0.0,-0.0,-1.0,0.0430752537378211,1.0
15.496467590332031,20.432214736938477,-0.9694094657897948,-0.0,-0.0,-1.0,0.1380311166601424,1.0
13.911050796508787,20.25500869750977,-0.853938102722168,-0.0,-0.0,-1.0,0.1776236461193877,1.0
14.20233917236328,20.3192081451416,-0.8645455837249756,0.6875139769563813,0.668554775407714,0.2834767076307367,0.1538429519447793,3.0
15.601633071899414,20.846689224243164,-0.8877098560333252,-0.0,-0.0,-1.0,0.1063509990663868,1.0
15.663108825683594,20.94624137878418,-0.8724730014801025,-0.0,-0.0,-1.0,0.0710403898355983,1.0
15.335660934448242,21.09534072875977,-0.8013789653778076,-0.0,-0.0,-1.0,0.1158004214872554,1.0
13.763909339904783,20.41521644592285,-1.1786036491394043,-0.0,-0.0,-1.0,0.1463724019837245,1.0
14.025381088256836,20.48986434936523,-1.1757614612579346,-0.0,-0.0,-1.0,0.1252552684278836,1.0
14.26705837249756,20.716800689697266,-1.1327829360961914,-0.0,-0.0,-1.0,0.2035020017101568,1.0
14.657651901245115,20.645814895629883,-1.1820168495178225,-0.0,-0.0,-1.0,0.1513972348906526,2.0
15.051461219787598,20.607852935791016,-1.2257130146026611,-0.0,-0.0,-1.0,0.0731678464379815,2.0
15.355223655700684,20.652463912963867,-1.2419898509979248,-0.0,-0.0,-1.0,0.0859940303639622,1.0
15.528397560119627,20.69211196899414,-1.2486155033111572,-0.0,-0.0,-1.0,0.1199764592965126,1.0
15.559818267822266,21.272804260253903,-1.101449489593506,0.699737859041621,0.5809446808665073,0.4157766304120049,0.1713034573315007,3.0
15.544782638549805,20.732114791870117,-0.7511417865753174,-0.0,-0.0,-1.0,0.1061347807531984,2.0
15.480974197387695,20.748973846435547,-0.7239444255828857,-0.0,-0.0,-1.0,0.1061347807531985,1.0
14.290986061096191,20.373363494873047,-0.8322393894195557,-0.0,-0.0,-1.0,0.151302046202668,2.0
15.36194896697998,21.49822998046875,-0.6206538677215576,-0.0243858909877491,0.1356396673367163,-0.990458080367624,0.0715745827426964,5.0
15.439492225646973,19.68313217163086,-1.076850414276123,-0.0,-0.0,-1.0,0.1679784988594078,1.0
15.620543479919434,19.771284103393555,-1.0735223293304443,-0.0,-0.0,-1.0,0.1811446645249461,1.0
14.144182205200195,20.393394470214844,-0.7554395198822021,-0.0,-0.0,-1.0,0.119826493017956,1.0
14.305907249450684,20.38489532470703,-0.7718770503997803,-0.0,-0.0,-1.0,0.1287347159375992,1.0
15.418546676635742,21.424983978271484,-0.604672908782959,-0.0,-0.0,-1.0,0.071951092671925,2.0
15.562457084655762,20.75377082824707,-0.8023293018341064,-0.0,-0.0,-1.0,0.1095409463541271,1.0
15.66590404510498,21.015979766845703,-0.744368314743042,-0.0,-0.0,-1.0,0.0876448115951984,1.0
14.17352294921875,19.804487228393555,-0.9736026525497437,-0.0,-0.0,-1.0,0.0899648990004729,1.0
14.412578582763672,20.02585792541504,-0.9695206880569458,-0.0,-0.0,-1.0,0.1498510972652554,1.0
14.318733215332031,20.59848976135254,-1.121355652809143,-0.0,-0.0,-1.0,0.2138626223129299,1.0
14.433830261230469,20.12828063964844,-1.0992811918258667,-0.0,-0.0,-1.0,0.1160057207274513,2.0
14.621002197265623,19.69611358642578,-1.0743910074234009,-0.0,-0.0,-1.0,0.1043584524092472,1.0
15.481666564941406,20.823427200317383,-1.0584017038345337,-0.0,-0.0,-1.0,0.1881999635222723,1.0
15.587295532226562,20.231475830078125,-1.0324527025222778,-0.0,-0.0,-1.0,0.0891284619795339,1.0
15.12125015258789,20.778518676757812,-1.2512050867080688,-0.0,-0.0,-1.0,0.0523614558928109,1.0
15.574623107910156,20.871971130371097,-1.2211278676986694,-0.0,-0.0,-1.0,0.1113682436997479,1.0
15.651351928710938,20.412376403808594,-1.209860920906067,-0.7120566884043918,-0.3252626376559819,-0.6222374860482482,0.0943354093805987,4.0
14.49288558959961,20.376808166503903,-0.8312679529190063,-0.0,-0.0,-1.0,0.1788103637666216,1.0
15.594398498535156,21.33370590209961,-0.97871732711792,-0.0,-0.0,-1.0,0.1179493101814959,2.0
14.63800048828125,20.573719024658203,-1.0194342136383057,-0.0,-0.0,-1.0,0.1403235986901211,1.0
14.586105346679688,20.457744598388672,-1.019991159439087,-0.0,-0.0,-1.0,0.157393019906184,2.0
14.405891418457031,20.306934356689453,-1.027690887451172,-0.0,-0.0,-1.0,0.1877316583484003,2.0
14.052238464355469,20.146533966064453,-1.0459187030792236,-0.0,-0.0,-1.0,0.164637036737359,1.0
13.95050048828125,19.97559356689453,-1.048452854156494,-0.0,-0.0,-1.0,0.1115315965881207,2.0
14.937740325927734,21.2104434967041,-1.6325786113739014,-0.0,-0.0,-1.0,0.1364917454196067,1.0
14.274269104003906,20.903953552246097,-1.7097008228302002,-0.0,-0.0,-1.0,0.2127039632929634,1.0
14.592292785644531,20.691558837890625,-1.6847143173217771,-0.0,-0.0,-1.0,0.1936446396513598,1.0
15.430194854736328,20.822975158691406,-1.595313310623169,-0.0,-0.0,-1.0,0.1700810163620107,1.0
15.406566619873049,20.70868682861328,-1.601496696472168,-0.0,-0.0,-1.0,0.1860694941069684,1.0
15.591316223144531,20.17730712890625,-1.6011998653411863,-0.0,-0.0,-1.0,0.1711237504318793,1.0
15.480438232421877,20.127220153808594,-1.614396095275879,-0.0,-0.0,-1.0,0.1683115827039783,1.0
15.491809844970703,19.66764259338379,-1.6305334568023682,-0.0,-0.0,-1.0,0.2019365360343394,1.0
15.410831451416016,19.866641998291016,-1.631171941757202,-0.0,-0.0,-1.0,0.2638782704273645,1.0
15.518314361572266,21.36612319946289,-1.176539659500122,0.986738772321222,-0.1487330354421489,-0.0650006105061518,0.21851937479254,4.0
15.586126327514648,21.175830841064453,-1.1712892055511477,-0.0,-0.0,-1.0,0.1724334841627262,2.0
15.704931259155272,20.270767211914062,-1.163360834121704,-0.0,-0.0,-1.0,0.0497622647658384,2.0
15.086227416992188,21.080875396728516,-1.211627960205078,-0.0,-0.0,-1.0,0.0487187658094979,2.0
13.80850601196289,19.880172729492188,-1.043075442314148,0.7515710754890393,0.0776736310683463,-0.655063146211804,0.1540389169965572,4.0
15.684768676757812,21.225141525268555,-0.8745285272598267,-0.0,-0.0,-1.0,0.1340371590769911,1.0
14.504890441894531,20.40669631958008,-0.9786452054977416,-0.0,-0.0,-1.0,0.1839301211700176,2.0
14.278209686279297,20.156919479370117,-1.0008901357650757,0.0073998620614174,0.8675988073676701,-0.4972097660903981,0.1020803855777173,3.0
14.157022476196287,21.49103546142578,-1.1889925003051758,-0.0,-0.0,-1.0,0.0438875546584495,1.0
14.37103271484375,21.139720916748047,-1.1754586696624756,-0.0,-0.0,-1.0,0.1814744725179128,1.0
13.967979431152344,21.42831039428711,-1.205838918685913,-0.0,-0.0,-1.0,0.0329471268448978,1.0
15.029544830322266,20.466747283935547,-1.1287527084350586,-0.0,-0.0,-1.0,0.1342553205459618,1.0
14.314249038696287,20.870262145996097,-1.183943748474121,-0.6724428574191303,-0.7400877223949349,-0.0095271541539585,0.2458881107692761,3.0
15.113824844360352,20.115163803100582,-1.1266415119171145,-0.0,-0.0,-1.0,0.0279489397314995,1.0
15.588218688964844,21.203937530517575,-1.0713896751403809,0.970132122316046,0.2273351169741871,0.0846310217408294,0.2059397964355959,3.0
15.627201080322266,20.63458251953125,-1.0755908489227295,0.6550146348450033,0.7522352418316548,-0.0714000636227926,0.2143652738205208,4.0
15.18208122253418,19.989173889160156,-1.122685194015503,-0.0,-0.0,-1.0,0.0350135471779233,1.0
15.16607666015625,20.212013244628903,-1.1207740306854248,-0.0,-0.0,-1.0,0.032111273069552,1.0
14.363691329956056,21.117300033569336,-1.061284422874451,-0.0,-0.0,-1.0,0.157896871211329,2.0
14.399724960327148,20.837343215942383,-1.063827395439148,-0.0,-0.0,-1.0,0.1341322103430367,1.0
14.197786331176758,20.941917419433594,-1.079098343849182,0.17632944336813,-0.7089378982346546,-0.682872597083904,0.2244863758591614,3.0
14.488525390625,20.434741973876953,-1.0644527673721311,-0.0,-0.0,-1.0,0.1129836192312888,1.0
14.822126388549805,19.71547508239746,-1.0510245561599731,-0.0,-0.0,-1.0,0.0432159331331577,1.0
14.573068618774414,19.989545822143555,-1.0666195154190063,-0.4892329073233418,-0.0533406069066379,-0.870520500647045,0.1020634132377486,3.0
15.537376403808594,21.319923400878903,-0.9963785409927368,0.2302972963452271,0.1938287959937245,-0.9536212839171015,0.194731704014948,4.0
15.601863861083984,20.581148147583008,-0.9907411336898804,-0.0,-0.0,-1.0,0.2052562419439055,2.0
14.352739334106444,21.076086044311523,-1.0974408388137815,0.4892108124648748,-0.8648257176063573,-0.1129126172493842,0.1942122752637788,3.0
14.457355499267578,20.572982788085938,-1.0887924432754517,-0.0,-0.0,-1.0,0.173675103788784,1.0
14.59034538269043,20.019367218017575,-1.078156352043152,-0.5703327330820309,-0.2072581398855623,-0.7948362328343858,0.0824056824693153,4.0
14.405435562133787,20.270736694335938,-1.093605637550354,-0.0,-0.0,-1.0,0.1882246355795098,2.0
14.630115509033203,19.804502487182617,-1.075172781944275,-0.0,-0.0,-1.0,0.1133388529163324,2.0
14.489078521728516,20.499433517456055,-0.9206241369247437,0.3667104255215613,0.9233287675542908,0.1139624974299441,0.1186381200844779,4.0
14.384292602539062,20.375194549560547,-0.929965615272522,0.1137846779939044,-0.5250867911158985,-0.8434079136748908,0.1354571909018226,6.0
14.214149475097656,20.266143798828125,-0.9447592496871948,-0.0,-0.0,-1.0,0.1263619976046582,2.0
14.131338119506836,20.18524932861328,-0.9521132707595824,0.0673925230477233,0.9324236272466622,0.3550273611842336,0.1137980989748632,6.0
14.502201080322266,20.417701721191406,-1.00259268283844,-0.0,-0.0,-1.0,0.1488851396846087,2.0
14.372169494628906,20.2098445892334,-1.0165396928787231,0.3900913497881846,0.0165108135645749,-0.920628118110602,0.1426554178175928,3.0
15.498394012451172,21.316003799438477,-1.062970519065857,0.4653256900301181,-0.3257725809951471,-0.8230092512662021,0.169621992142038,4.0
15.212074279785156,21.584228515625,-1.0885862112045288,-0.0,-0.0,-1.0,0.1599016450613156,1.0
15.65134620666504,20.77851104736328,-1.0558170080184937,-0.0,-0.0,-1.0,0.0799493645579196,2.0
14.176549911499023,21.421531677246097,-1.1987229585647583,-0.0,-0.0,-1.0,0.0445139999339721,1.0
13.9119873046875,21.49622344970703,-1.2250241041183472,0.5215909843807961,0.2532086993590344,-0.8147565277931673,0.0297593618413793,3.0
15.604551315307615,20.65773582458496,-1.0627931356430054,0.6550146348450033,0.7522352418316548,-0.0714000636227926,0.1785977905104875,4.0
15.012968063354492,20.589675903320312,-1.125850796699524,-0.0,-0.0,-1.0,0.1163074010595532,1.0
15.123842239379885,20.24979591369629,-1.1206568479537964,-0.0,-0.0,-1.0,0.0404284728343301,2.0
15.578243255615234,19.88309860229492,-1.0801764726638794,-0.0,-0.0,-1.0,0.0730542077318487,1.0
15.648679733276367,21.387451171875,-1.2895842790603638,-0.0,-0.0,-1.0,0.1360644911406527,1.0
15.648862838745115,21.172100067138672,-1.2903465032577517,-0.1098880250922307,0.4357898255048736,-0.8933150899474167,0.1539412408242801,3.0
14.250572204589844,21.226593017578125,-1.1842155456542969,0.5874285119976924,-0.4628267761430389,0.6638667927959782,0.1650751758455885,3.0
13.919713973999023,21.49483299255371,-1.2205097675323486,0.5215909843807961,0.2532086993590344,-0.8147565277931673,0.0297593618413793,3.0
14.656524658203123,20.643404006958008,-1.1398980617523191,-0.0,-0.0,-1.0,0.192248159318362,2.0
14.296730041503906,20.937416076660156,-1.1790785789489746,-0.0,-0.0,-1.0,0.2150809965073126,1.0
14.99156379699707,20.308982849121097,-1.1036767959594729,-0.0,-0.0,-1.0,0.0570700810499357,1.0
14.975435256958008,19.942323684692383,-1.1062636375427246,-0.0,-0.0,-1.0,0.030656750470389,1.0
15.52285385131836,21.324237823486328,-1.0462405681610107,0.7394555644900243,-0.520800217039718,-0.4265824680833966,0.1990813702652891,4.0
15.452255249023438,21.428504943847656,-1.0541648864746094,-0.0,-0.0,-1.0,0.0882791457392329,1.0
15.63149642944336,20.63825225830078,-1.0335047245025637,0.3851484235412126,0.8688823052449256,-0.3109730397895976,0.1867245424699223,5.0
15.158069610595703,19.832984924316406,-1.0865771770477295,-0.0,-0.0,-1.0,0.0318079837972668,2.0
15.456747055053713,21.3465633392334,-0.8005168437957764,-0.0,-0.0,-1.0,0.183369771153879,2.0
14.51515007019043,20.40180206298828,-0.9050984382629396,-0.2007424216686565,0.1663934756778423,-0.9654095977327192,0.2012209095151575,3.0
14.458269119262695,20.415760040283203,-0.9109370708465576,-0.3585550703205946,0.7102858504818148,-0.6057493476288017,0.1501252103717744,3.0
14.336645126342772,20.2429256439209,-0.9253158569335938,0.4839146082592047,-0.3274992589929018,-0.8115238057336582,0.1957786897351511,6.0
15.55316925048828,21.295276641845703,-1.2122950553894043,0.2517327426030306,0.9209030352415836,0.2976041430901047,0.2151318280808558,7.0
15.708433151245115,20.695995330810547,-1.1876862049102783,0.172434875051596,0.6882512489829582,-0.7046817949538207,0.1870965064528684,4.0
15.148933410644531,20.961225509643555,-1.2591793537139893,-0.0,-0.0,-1.0,0.0510518388761616,2.0
15.076061248779297,21.133195877075195,-1.2696678638458252,-0.0,-0.0,-1.0,0.0550797120773141,1.0
15.656414031982422,20.382747650146484,-1.192169189453125,-0.7120566884043918,-0.3252626376559819,-0.6222374860482482,0.0621081691602631,4.0
15.632761001586914,20.098529815673828,-1.1937789916992188,-0.0,-0.0,-1.0,0.0574137779270299,2.0
15.078582763671877,21.156517028808594,-1.216447353363037,-0.0,-0.0,-1.0,0.0454530990821691,1.0
14.926809310913086,21.273895263671875,-1.2372322082519531,-0.0,-0.0,-1.0,0.0371698962792843,2.0
15.107183456420898,21.04019546508789,-1.2118844985961914,-0.0,-0.0,-1.0,0.0367431377787469,2.0
15.582853317260742,21.257143020629883,-1.151209592819214,0.9785910247974172,0.1686710711333972,0.117939289249398,0.2267137481791853,3.0
15.361701965332031,20.860763549804688,-1.1772747039794922,-0.0,-0.0,-1.0,0.1002640390687575,1.0
15.580190658569336,20.349620819091797,-1.1460859775543213,-0.0,-0.0,-1.0,0.0947689946506066,1.0
15.458423614501951,20.487083435058594,-1.1626439094543457,-0.0,-0.0,-1.0,0.1136697807460143,2.0
15.64759635925293,19.99187660217285,-1.13628888130188,-0.0,-0.0,-1.0,0.0511189779918241,2.0
14.439130783081056,20.523868560791016,-0.9187183380126952,0.5743063549830164,0.758984596794114,-0.3067810171040533,0.1406631772480211,3.0
14.297811508178713,20.280298233032227,-0.940028190612793,0.4132414912547953,0.8529945040075138,-0.3187975000505627,0.1822898746848277,3.0
15.491607666015623,21.319252014160156,-1.0039726495742798,0.1510696493173274,0.3118415179609979,-0.9380473488747356,0.1526648934834137,3.0
14.2677001953125,21.267276763916016,-1.1710079908370972,-0.0,-0.0,-1.0,0.0978118275160707,2.0
13.910245895385742,21.512027740478516,-1.2212272882461548,0.5215909843807961,0.2532086993590344,-0.8147565277931673,0.0294552234677222,3.0
15.58779525756836,20.65113067626953,-0.9871381521224976,-0.0,-0.0,-1.0,0.1571691404836467,2.0
14.971378326416016,20.52796936035156,-1.0717657804489136,-0.0,-0.0,-1.0,0.1889119548080398,1.0
14.234010696411133,20.847314834594727,-1.1740626096725464,-0.0,-0.0,-1.0,0.2354333391234087,1.0
14.981246948242188,20.082012176513672,-1.070398449897766,-0.0,-0.0,-1.0,0.0195608607909044,1.0
14.838996887207031,20.331253051757812,-1.0899661779403689,-0.019242552124312,0.723298037290223,-0.6902678273249119,0.0807271156873743,3.0
14.982074737548828,19.843441009521484,-1.0708609819412231,-0.0,-0.0,-1.0,0.0229429528164016,2.0
14.884180068969728,19.98051071166992,-1.0840610265731812,-0.0,-0.0,-1.0,0.0242735514885123,1.0
15.552139282226562,21.385387420654297,-1.11883544921875,-0.0,-0.0,-1.0,0.1241862665251385,1.0
14.913625717163086,21.249069213867188,-1.2061023712158203,-0.0,-0.0,-1.0,0.0329655256505517,2.0
14.95258331298828,21.041358947753903,-1.194047451019287,-0.0,-0.0,-1.0,0.035785734147653,1.0
15.19856071472168,20.394315719604492,-1.139928102493286,-0.0,-0.0,-1.0,0.0760965857600984,1.0
15.112286567687988,20.55653381347656,-1.1568455696105957,-0.0287052145517343,-0.1305009896278801,-0.9910325435441982,0.1382619563946414,4.0
15.18729019165039,20.118806838989254,-1.134509563446045,-0.0,-0.0,-1.0,0.0346104265634693,1.0
15.55760669708252,21.22351455688477,-1.112642765045166,0.6237840940715461,-0.0685870063044162,-0.7785815477838779,0.1640353590060852,4.0
15.655978202819824,20.73828125,-1.0832254886627195,-0.5957698505650736,0.4632070239713608,-0.6561231120005339,0.1086272066455781,4.0
15.478248596191406,19.823448181152344,-1.084956407546997,0.3440820541935258,-0.8582948090654958,-0.3807066596648756,0.1124377329338553,3.0
15.25290298461914,19.95780563354492,-1.121049404144287,-0.0,-0.0,-1.0,0.0503248296604997,1.0
15.313663482666016,21.51929473876953,-0.5711621046066284,-0.0,-0.0,-1.0,0.0715745827426964,2.0
15.675823211669922,21.442956924438477,-1.30760395526886,-0.0,-0.0,-1.0,0.07815169707834,1.0
15.485424995422363,21.622657775878903,-1.3449889421463013,-0.0,-0.0,-1.0,0.1068505591112788,2.0
14.538902282714844,20.46371841430664,-0.9140244722366332,0.09071371169901,0.899984151075571,0.4263795847863413,0.1646340795694126,3.0
14.508268356323242,20.468870162963867,-0.9183810949325562,0.5292926577509899,0.7754781323493106,0.344213521958274,0.151172215399938,4.0
14.359889030456545,20.27141571044922,-0.9383805990219116,0.0915647185639863,0.987669728094603,0.1269819298948893,0.1754668551231868,4.0
14.075411796569824,21.618993759155273,-1.2572013139724731,-0.0,-0.0,-1.0,0.0197294277744546,2.0
14.381424903869627,21.20816421508789,-1.1969486474990845,-0.0,-0.0,-1.0,0.1372478923199639,1.0
14.30308723449707,20.880643844604492,-1.2025948762893677,-0.6724428574191303,-0.7400877223949349,-0.0095271541539585,0.2662239471614678,3.0
15.501005172729492,21.37667465209961,-1.0192052125930786,-0.0,-0.0,-1.0,0.0904322449894328,2.0
15.625402450561523,20.99871826171875,-0.9888259172439576,-0.0,-0.0,-1.0,0.1016973217980405,2.0
15.624248504638672,20.643310546875,-0.9804710149765016,-0.0,-0.0,-1.0,0.1324731833383665,2.0
15.043638229370115,20.507328033447266,-1.0732582807540894,-0.0,-0.0,-1.0,0.2042201177557689,1.0
14.344940185546877,20.705360412597656,-1.1922835111618042,-0.0,-0.0,-1.0,0.152138164822236,1.0
14.73382568359375,20.33027076721191,-1.121479868888855,-0.0,-0.0,-1.0,0.1666657777895127,1.0
14.94354248046875,19.88825225830078,-1.0804156064987185,-0.0,-0.0,-1.0,0.023030532175821,1.0
15.561490058898926,21.27659034729004,-1.2099494934082031,0.3348533170748879,0.1016922758575535,-0.9367667463541048,0.1818389314789871,7.0
15.425885200500488,21.45926284790039,-1.242614507675171,-0.0,-0.0,-1.0,0.1626069288862227,1.0
15.509366035461426,21.182544708251953,-1.2162635326385498,-0.0,-0.0,-1.0,0.2196480423252051,1.0
15.185694694519045,21.08767890930176,-1.274437427520752,-0.0,-0.0,-1.0,0.0458148749484908,1.0
15.030682563781738,21.256200790405273,-1.309687852859497,-0.0,-0.0,-1.0,0.0542383496818981,2.0
15.616003036499023,20.56195831298828,-1.1756608486175537,-0.0858945212982955,0.9961876468293728,0.0152415063393761,0.1471820441620873,3.0
15.537759780883787,20.18288803100586,-1.1809179782867432,-0.0,-0.0,-1.0,0.0555923658538997,1.0
15.673062324523926,19.91629409790039,-1.1487863063812256,-0.0,-0.0,-1.0,0.0690122149732573,1.0
14.452059745788574,21.454139709472656,-0.9178366661071776,-0.0,-0.0,-1.0,0.1010687125350033,1.0
15.47103500366211,20.660722732543945,-0.7413525581359863,-0.0,-0.0,-1.0,0.0974827238979616,1.0
14.296246528625488,20.6571102142334,-0.9271283149719238,-0.0,-0.0,-1.0,0.1217422063793976,2.0
14.370023727416992,20.33144187927246,-0.9111509323120116,-0.1578515291448673,-0.7373344577059314,-0.6568263029341371,0.1344280310050643,6.0
15.00969409942627,21.27533912658691,-1.3114508390426636,-0.0,-0.0,-1.0,0.1385111008247306,2.0
15.13905429840088,20.99907875061035,-1.2765017747879028,-0.0,-0.0,-1.0,0.0459418782101387,2.0
15.12705898284912,21.095170974731445,-1.2816218137741089,-0.0,-0.0,-1.0,0.0554589438736782,1.0
15.559382438659668,21.30824279785156,-1.1977204084396362,0.3347125349098437,0.1025814041330737,-0.9367201153494644,0.2154787999398057,6.0
15.506721496582031,21.248022079467773,-1.2066997289657593,-0.0,-0.0,-1.0,0.1842672104464504,1.0
15.622268676757812,20.77943992614746,-1.1688061952590942,-0.0,-0.0,-1.0,0.1726760532559464,2.0
15.651443481445312,20.56473922729492,-1.157694935798645,-0.1850736957504328,0.9812359636498452,-0.0540713489884987,0.2247309168091747,4.0
15.420526504516602,20.518131256103516,-1.2058097124099731,0.1537003833809367,0.1260932414776136,-0.9800391250364554,0.059473060502269,4.0
14.453567504882812,20.500160217285156,-0.9503473043441772,0.3819108700635774,0.8146987301019201,-0.4363600193619943,0.1317187195415548,3.0
15.55887222290039,20.01674461364746,-1.168359637260437,-0.0,-0.0,-1.0,0.0607665863055182,1.0
15.47061252593994,20.230710983276367,-1.1902090311050415,-0.0,-0.0,-1.0,0.0549598002171568,1.0
14.392521858215332,20.334720611572266,-0.960863471031189,-0.8713886981549606,0.3457685958271966,-0.3480313417890573,0.1437364042624784,5.0
14.244772911071776,20.236846923828125,-0.9876085519790648,0.7859460889091392,0.596148429419074,0.1639993763085657,0.2055847675535912,4.0
13.737446784973145,20.138063430786133,-1.080140233039856,-0.0,-0.0,-1.0,0.1456718312362583,2.0
13.786846160888672,19.90196228027344,-1.072372317314148,0.7515710754890393,0.0776736310683463,-0.655063146211804,0.1720760613724005,4.0
15.465703964233398,21.395347595214844,-0.7822552919387817,0.2985260117610125,0.7069153539059988,-0.6412120575238897,0.1300534003975937,5.0
15.495281219482422,19.785663604736328,-0.7608550786972046,-0.0,-0.0,-1.0,0.1780030276245855,2.0
14.270541191101074,21.403148651123047,-1.2525043487548828,-0.0,-0.0,-1.0,0.1110217937945101,1.0
14.088735580444336,21.523765563964844,-1.2943711280822754,-0.0,-0.0,-1.0,0.0279167177499313,1.0
15.69050407409668,21.2985897064209,-1.3533930778503418,-0.0,-0.0,-1.0,0.0780885827874467,1.0
15.567214012145996,21.275054931640625,-0.9776513576507568,-0.0,-0.0,-1.0,0.2237282108089693,2.0
14.370119094848633,21.000158309936523,-1.2202506065368652,-0.0,-0.0,-1.0,0.1413929451522302,1.0
14.24388599395752,20.87015914916992,-1.243990421295166,-0.0,-0.0,-1.0,0.223645148052803,1.0
15.47783374786377,20.695823669433594,-0.9773445129394532,-0.0,-0.0,-1.0,0.1201652024820325,2.0
14.455371856689451,20.647987365722656,-1.194157361984253,-0.0,-0.0,-1.0,0.0938043538029477,1.0
14.165499687194824,20.854042053222656,-1.2603964805603027,-0.0,-0.0,-1.0,0.1764690343771483,1.0
14.98353099822998,20.434118270874023,-1.0767033100128174,-0.0,-0.0,-1.0,0.1735149723559133,1.0
14.59214210510254,20.347881317138672,-1.159627914428711,-0.0,-0.0,-1.0,0.2050314762302645,2.0
14.747401237487791,19.95911407470703,-1.1213412284851074,-0.0,-0.0,-1.0,0.0153541414408982,2.0
15.517899513244627,19.70480155944824,-0.9510741233825684,-0.0,-0.0,-1.0,0.1924739618566327,1.0
14.776850700378418,19.726593017578125,-1.1132872104644775,-0.0,-0.0,-1.0,0.0436823428789076,2.0
15.359264373779297,21.478599548339844,-0.6202466487884521,-0.0079036662672886,0.0335418558762737,-0.999406061600544,0.0715745827426962,4.0
14.151273727416992,20.508235931396484,-0.8202946186065674,-0.0,-0.0,-1.0,0.154153467229861,2.0
14.102335929870604,20.389787673950195,-0.8287768363952637,-0.0,-0.0,-1.0,0.1859994197027532,2.0
15.000741004943848,21.354900360107425,-1.2643027305603027,-0.0,-0.0,-1.0,0.0976523852491719,1.0
14.989642143249512,21.130680084228516,-1.2491509914398191,-0.0,-0.0,-1.0,0.0430812163203178,1.0
14.992338180541992,20.80225944519043,-1.224402904510498,-0.0,-0.0,-1.0,0.0372619712332783,2.0
14.463003158569336,21.46980857849121,-0.9802415370941162,-0.0,-0.0,-1.0,0.1947155571972648,1.0
15.624932289123535,21.290451049804688,-1.1206445693969729,0.7876425914094062,-0.4636058863456115,-0.4058185929002946,0.1634183713819015,3.0
15.54049301147461,21.235179901123047,-1.1345624923706057,0.2181604419644583,0.1874315212382244,-0.9577449798397258,0.1805684748827401,4.0
15.657055854797363,20.686309814453125,-1.0649657249450684,-0.0,-0.0,-1.0,0.1247477084285243,2.0
15.066696166992188,20.62601852416992,-1.1954376697540283,-0.0,-0.0,-1.0,0.097891542433881,2.0
14.466962814331056,20.40970993041992,-0.9231772422790528,-0.3585550703205946,0.7102858504818148,-0.6057493476288017,0.1501252103717743,3.0
15.116909980773926,20.251352310180664,-1.1602396965026855,-0.0,-0.0,-1.0,0.0404284728343301,2.0
15.04761028289795,20.03814697265625,-1.1643106937408447,-0.0,-0.0,-1.0,0.0212273244528514,1.0
14.29241180419922,20.21470642089844,-0.9500460624694824,0.4141339891825595,0.8248395543546784,-0.3848801743084656,0.184199505136337,8.0
15.146180152893066,19.82434844970703,-1.1302478313446045,-0.1448007290206732,0.9774225313436552,-0.1538763922661392,0.0288667663533191,3.0
15.088859558105469,19.867088317871097,-1.145829439163208,-0.0,-0.0,-1.0,0.0337585218221831,1.0
15.501988410949709,21.390491485595703,-0.7781035900115967,0.2985260117610125,0.7069153539059988,-0.6412120575238897,0.1587174507245561,5.0
14.486117362976074,21.50118827819824,-1.2791082859039309,-0.0,-0.0,-1.0,0.2075915378158424,2.0
14.491379737854004,21.453264236450195,-1.272667407989502,0.9937112520870556,0.1033129387641205,-0.0431785150219114,0.1954232159139746,3.0
14.481087684631348,21.395902633666992,-1.2686185836791992,-0.0,-0.0,-1.0,0.1936421288142052,1.0
15.559124946594238,21.248966217041016,-1.0208394527435305,0.7889464353461475,0.5923641572941806,-0.1633040945835789,0.2266400011915987,4.0
14.597966194152832,21.142169952392575,-1.2158730030059814,-0.0,-0.0,-1.0,0.0878757272909059,1.0
14.467963218688965,20.96285057067871,-1.226327896118164,-0.0,-0.0,-1.0,0.0643756245355063,1.0
15.704971313476562,20.891908645629883,-0.9481756687164308,-0.0,-0.0,-1.0,0.1039509241865614,1.0
15.551956176757812,20.684141159057617,-0.9582791328430176,-0.0,-0.0,-1.0,0.1500054034824865,1.0
14.535748481750488,20.481597900390625,-1.1649081707000732,0.5654174755296812,-0.0982992287387989,-0.8189263336802645,0.1708979654196663,3.0
13.8451566696167,20.393585205078125,-0.927326202392578,-0.0,-0.0,-1.0,0.1200351740294531,1.0
14.619251251220703,20.054107666015625,-1.1086256504058838,-0.0,-0.0,-1.0,0.0418815846633508,2.0
14.64290714263916,19.754743576049805,-1.0793468952178955,-0.0,-0.0,-1.0,0.1087893561308221,2.0
14.576345443725586,19.82448387145996,-1.10017991065979,-0.0,-0.0,-1.0,0.1148387248448402,2.0
15.448214530944824,21.424564361572266,-0.7106624841690063,-0.4220073517019465,0.5601111291587361,-0.7128711791775817,0.0908184217387218,3.0
14.228496551513672,20.62975311279297,-0.8690178394317627,-0.0,-0.0,-1.0,0.1068123340639099,1.0
15.434854507446287,20.84410285949707,-0.6573935747146606,-0.0,-0.0,-1.0,0.1872397319824673,1.0
14.257891654968262,20.417325973510746,-0.8478002548217773,-0.0,-0.0,-1.0,0.1450663010588182,1.0
15.401622772216797,21.481311798095703,-0.6197623014450073,0.0128712023865957,-0.0224975213923645,-0.9996640404057372,0.071951092671925,3.0
15.427303314208984,21.42885971069336,-0.6281282901763916,-0.0,-0.0,-1.0,0.071951092671925,2.0
14.388248443603516,21.31175994873047,-1.1254757642745972,-0.0,-0.0,-1.0,0.1429972780069243,1.0
14.121620178222656,20.908672332763672,-1.071466326713562,-0.0,-0.0,-1.0,0.2244374843520954,1.0
14.313360214233398,20.97591781616211,-1.063472867012024,-0.0,-0.0,-1.0,0.1740554515249297,1.0
14.26222801208496,20.926368713378903,-1.0590068101882937,-0.0,-0.0,-1.0,0.206737451253742,1.0
14.075203895568848,20.16437530517578,-0.929017186164856,0.8186502584117309,-0.1175550552897976,0.5621321582850594,0.111544528589041,3.0
13.9517822265625,20.157506942749023,-0.943414568901062,0.2523726664867277,0.3503784604336502,-0.9019661699168788,0.2127518950845053,4.0
14.340251922607422,20.208160400390625,-0.9049381017684937,0.6091753277202797,-0.5303650770955787,-0.5895916426598078,0.1696091543389631,5.0
15.43280792236328,21.235034942626953,-1.0068479776382446,-0.0,-0.0,-1.0,0.1459118767060421,2.0
15.520397186279297,21.04766273498535,-0.9572609663009644,-0.0,-0.0,-1.0,0.1258380249002179,1.0
15.370929718017578,21.273256301879883,-0.8055446147918701,-0.0,-0.0,-1.0,0.1347575799623807,1.0
15.38673210144043,21.090320587158203,-0.7670092582702637,-0.0,-0.0,-1.0,0.1387737357088637,1.0
13.793874740600586,20.201549530029297,-0.8033546209335327,-0.0,-0.0,-1.0,0.2010449298810825,1.0
13.961874008178713,20.17491912841797,-0.7977594137191772,-0.0,-0.0,-1.0,0.2155406716623688,1.0
15.67393970489502,21.197649002075195,-1.2428160905838013,-0.0,-0.0,-1.0,0.1168288277407698,2.0
15.52809715270996,21.63243865966797,-1.3238545656204224,-0.0,-0.0,-1.0,0.1326069564126164,2.0
14.393043518066406,20.246809005737305,-0.9148852825164796,0.7827020288006621,0.6203144699226272,-0.0508674013090631,0.2221047986882853,4.0
15.573427200317385,21.163434982299805,-1.1838196516036987,-0.0,-0.0,-1.0,0.1203204701665039,2.0
15.692214965820312,20.5385799407959,-1.1383205652236938,0.8161826210745652,-0.557774205578254,-0.1507775336295199,0.1380739372196891,3.0
14.08851432800293,20.185754776000977,-0.9439306259155272,0.5709736339301859,0.1425228223424095,0.8085025383189048,0.1175685909640614,6.0
15.29965591430664,20.966333389282227,-0.8842465877532959,-0.0,-0.0,-1.0,0.1694430604891272,1.0
15.18996238708496,20.724319458007812,-0.8716118335723877,-0.0,-0.0,-1.0,0.0725437147931196,1.0
15.025382995605469,20.473548889160156,-0.8597362041473389,-0.0,-0.0,-1.0,0.2035407889887304,1.0
14.809429168701172,20.50881576538086,-0.8667900562286377,-0.0,-0.0,-1.0,0.1259466449229762,1.0
14.289825439453123,20.49157333374023,-0.877690315246582,-0.0,-0.0,-1.0,0.0652823558927243,1.0
13.722959518432615,19.844636917114254,-0.8518280982971191,-0.0,-0.0,-1.0,0.1825345160379502,1.0
15.616019248962402,21.02650451660156,-0.9792461395263672,0.9353000616366258,0.3441788737647099,-0.0821869670725262,0.122195936698081,3.0
14.455857276916504,20.28634262084961,-0.9167888164520264,-0.96664757955215,-0.0366647967841881,-0.2534721870792611,0.23530322818178,3.0
14.276019096374512,20.299049377441406,-0.918104887008667,0.4132414912547953,0.8529945040075138,-0.3187975000505627,0.176271566417752,3.0
15.298114776611328,21.47900390625,-0.6200463771820068,-0.1438815766450484,0.2819500935030983,-0.94857906190034,0.0715745827426964,3.0
15.630074501037598,20.70620346069336,-1.0878335237503052,0.4925732448861876,-0.2793668736908936,-0.8242121985911566,0.1533123271115342,3.0
15.54483127593994,21.183530807495117,-1.1302577257156372,0.8391015601853828,-0.3176850571656276,-0.4415708053620945,0.1350451950500242,4.0
15.006440162658691,20.540679931640625,-1.1169031858444214,-0.0,-0.0,-1.0,0.1300925744125882,1.0
14.013815879821776,20.386539459228516,-0.8783231973648071,0.3781920162004847,-0.9095004954272388,0.1725678060931986,0.1286601589698487,3.0
15.49401569366455,21.173992156982425,-0.8260685205459595,-0.0,-0.0,-1.0,0.1726914550700628,1.0
14.282230377197266,20.31254768371582,-0.8546243906021118,0.0194112683627846,0.1325821379350308,-0.9909819268589738,0.1679955396943956,3.0
14.3414888381958,20.330902099609375,-0.8651893138885498,-0.0,-0.0,-1.0,0.1859353628327516,2.0
14.069098472595217,20.368635177612305,-0.8893215656280518,-0.0,-0.0,-1.0,0.1056043501646831,1.0
15.685680389404297,20.614900588989254,-1.134645700454712,-0.2566544247571565,0.5510382976219023,-0.794031045241009,0.1734910595506061,6.0
15.594046592712402,21.245298385620117,-1.1989328861236572,0.5596310429120183,0.2549846907654708,-0.7885403624954426,0.1986276194278111,5.0
15.245772361755373,20.65417861938477,-1.17289400100708,-0.0,-0.0,-1.0,0.100206426093731,1.0
15.129854202270508,21.231199264526367,-1.2338907718658447,-0.0,-0.0,-1.0,0.1208047817532803,1.0
15.144872665405272,20.678497314453125,-1.1831109523773191,-0.0,-0.0,-1.0,0.0769746513283824,1.0
15.03235149383545,21.18658447265625,-1.2375836372375488,-0.0,-0.0,-1.0,0.05190544564605,1.0
14.303560256958008,21.18193626403809,-1.3136775493621826,-0.0,-0.0,-1.0,0.1295138451761691,1.0
15.585980415344238,20.637916564941406,-1.113405704498291,-0.0,-0.0,-1.0,0.225822877343242,2.0
15.473957061767578,21.310047149658203,-1.1709885597229004,-0.0,-0.0,-1.0,0.1856278846769768,1.0
14.329317092895508,21.058609008789062,-1.065060257911682,0.4492555191839906,-0.8557086999393592,0.2567724660683353,0.1561126068354612,4.0
14.436175346374512,21.295135498046875,-1.0890098810195925,-0.0,-0.0,-1.0,0.182957142954213,1.0
15.600875854492188,21.062183380126953,-1.002165913581848,-0.0,-0.0,-1.0,0.1116381914718866,2.0
15.603858947753906,21.16873550415039,-1.0155586004257202,-0.0,-0.0,-1.0,0.2002416097959755,2.0
14.123805046081545,20.203960418701172,-0.9708877801895142,0.5318876601840148,0.7404674168258383,0.410857057336544,0.1637649443542882,6.0
13.95745849609375,20.25899314880371,-0.986679196357727,0.492536786769097,-0.522575648256937,0.695932615651843,0.2384309354751283,3.0
15.600844383239746,20.155344009399418,-1.1278940439224243,-0.0,-0.0,-1.0,0.0596342842688486,1.0
15.668350219726562,20.513254165649418,-1.1738160848617554,-0.0,-0.0,-1.0,0.1251614490583261,2.0
15.67410659790039,21.267333984375,-1.2801331281661987,-0.4401598659580789,-0.0293913721067532,-0.8974382650887186,0.0816560154316408,4.0
15.495089530944824,19.752445220947266,-1.0786722898483276,-0.0,-0.0,-1.0,0.2081981428787579,1.0
15.435595512390137,20.00562286376953,-1.1177862882614136,-0.0,-0.0,-1.0,0.0526367633978652,1.0
15.545429229736328,19.84017562866211,-1.1048481464385986,-0.0,-0.0,-1.0,0.073530970123618,1.0
15.640338897705078,20.382301330566406,-1.1761295795440674,-0.7120566884043918,-0.3252626376559819,-0.6222374860482482,0.0609035565660305,4.0
15.650465965270996,21.06529998779297,-1.276151418685913,-0.0,-0.0,-1.0,0.0911355569754401,1.0
15.462084770202637,21.391765594482425,-0.7719242572784424,0.2614096957895973,0.8610181326021041,-0.4362484914330086,0.1300534003975936,6.0
15.695363998413086,20.628116607666016,-1.1177312135696411,-0.1434331783955484,0.2998914253546763,-0.9431288651791392,0.1180508460144221,6.0
15.652195930480955,20.601428985595703,-1.1180740594863892,-0.4842348646044651,0.1651686564624433,-0.8592065588808588,0.1700668514367181,4.0
15.571352005004885,21.20951461791992,-1.211248517036438,0.3442885854131828,0.2917090363984344,-0.8923963290140127,0.1714969488606167,4.0
15.532045364379885,21.54313850402832,-1.2622662782669067,-0.0,-0.0,-1.0,0.1151745055635463,1.0
15.076017379760742,20.193254470825195,-1.1176835298538208,-0.0,-0.0,-1.0,0.0286049763790725,1.0
15.105201721191406,20.532665252685547,-1.1611193418502808,-0.0,-0.0,-1.0,0.1503968855380735,2.0
15.064708709716797,20.99985122680664,-1.229561448097229,-0.0,-0.0,-1.0,0.0341422420638959,1.0
15.054587364196776,21.620758056640625,-1.3173655271530151,-0.0,-0.0,-1.0,0.114675585547767,2.0
14.418368339538574,20.361412048339844,-0.9292898178100586,-0.9798024086393524,0.032136024607855,0.1973689842577256,0.1648805676779966,5.0
14.462594032287598,21.448740005493164,-1.037930250167847,-0.0,-0.0,-1.0,0.1494906971058993,2.0
14.090893745422363,20.218284606933594,-0.95180344581604,0.765027373102377,-0.0118869242044598,0.643888048838487,0.1507584250523483,5.0
15.631633758544922,20.855880737304688,-1.2561774253845217,-0.0,-0.0,-1.0,0.1243189965799845,1.0
15.627388954162598,21.163259506225582,-1.292017698287964,0.1566069045883632,-0.6423060407662184,-0.750278100060555,0.1728908183509649,5.0
15.63731575012207,20.021289825439453,-1.1624031066894531,-0.0,-0.0,-1.0,0.0586125538579872,2.0
15.654082298278809,20.41769790649414,-1.2034251689910889,-0.7120566884043918,-0.3252626376559819,-0.6222374860482482,0.1033042370078038,4.0
14.421107292175291,20.53363800048828,-0.9282891750335692,0.5116963602381414,0.8542677753691839,-0.0916155166160431,0.1026812501859523,3.0
14.033490180969238,20.22886657714844,-0.9569799900054932,-0.0,-0.0,-1.0,0.1665950784647591,2.0
15.532790184020996,21.22213363647461,-0.8375823497772217,-0.0,-0.0,-1.0,0.2127213060773458,1.0
14.39291000366211,20.333057403564453,-0.9154713153839112,-0.8004097366189569,0.4646572302283222,-0.3787319790064153,0.1390365043297698,6.0
14.629239082336426,21.059833526611328,-1.203411340713501,0.5716854183775352,0.6326777172228097,-0.5223932317174841,0.0569247454871792,3.0
14.47085666656494,21.33156394958496,-1.2537035942077637,-0.0,-0.0,-1.0,0.1363143174695652,1.0
14.474519729614258,20.83817481994629,-1.212768316268921,-0.0,-0.0,-1.0,0.1165885727606754,1.0
14.52712059020996,20.91305160522461,-1.209468126296997,-0.0,-0.0,-1.0,0.0790882290765803,1.0
15.601835250854492,20.546430587768555,-0.9901199340820312,-0.0,-0.0,-1.0,0.1546877195475618,2.0
15.665538787841797,20.792251586914062,-0.9998440742492676,-0.0,-0.0,-1.0,0.0819638423643882,1.0
15.497779846191406,21.187522888183594,-1.062969207763672,-0.0,-0.0,-1.0,0.152067959060944,1.0
14.846357345581056,19.876291275024418,-1.0711784362792969,-0.0,-0.0,-1.0,0.0468075323857528,1.0
14.83653163909912,20.315135955810547,-1.106785774230957,-0.019242552124312,0.723298037290223,-0.6902678273249119,0.0474186999096267,3.0
14.67350959777832,20.83866500854492,-1.1775436401367188,-0.0,-0.0,-1.0,0.0562384058771566,1.0
14.77460765838623,19.92508316040039,-1.087801456451416,-0.0,-0.0,-1.0,0.0145899299813691,1.0
14.629602432250977,20.55624008178711,-1.1627016067504885,-0.0,-0.0,-1.0,0.2056798452811242,1.0
15.453431129455566,21.26993179321289,-1.2740648984909058,-0.0,-0.0,-1.0,0.1007528892202106,2.0
15.199206352233888,21.372100830078125,-1.3332675695419312,-0.0,-0.0,-1.0,0.1073351930559141,1.0
15.350760459899902,20.05905532836914,-1.1557475328445437,-0.0,-0.0,-1.0,0.0527531443650272,1.0
15.40966510772705,20.419097900390625,-1.1837023496627808,-0.0,-0.0,-1.0,0.0797368423057107,2.0
15.402024269104004,20.771499633789062,-1.2248727083206177,-0.0,-0.0,-1.0,0.1200677974461876,1.0
15.294817924499512,19.889453887939453,-1.1489475965499878,-0.0,-0.0,-1.0,0.0475598753173561,1.0
15.627159118652344,21.385509490966797,-0.8351372480392456,-0.0,-0.0,-1.0,0.1276399904361822,2.0
15.632857322692873,20.66197395324707,-0.7640703916549683,-0.0,-0.0,-1.0,0.1055081093259834,1.0
15.63278579711914,21.164989471435547,-0.812404990196228,-0.0,-0.0,-1.0,0.1224003026573665,1.0
14.534382820129396,20.36008071899414,-0.9162884950637816,-0.2236651113815914,0.1798448927254579,-0.9579299204593352,0.2370682537649208,4.0
14.280474662780762,20.227294921875,-0.947766661643982,0.3568961962707957,0.92215702835971,-0.149169434316239,0.1926838712052688,7.0
15.599696159362791,21.194129943847656,-1.2164090871810913,0.8022098733855626,0.534814448805251,-0.2653918318107305,0.1866888239892966,4.0
15.43529987335205,21.300004959106445,-1.26211678981781,-0.0,-0.0,-1.0,0.0964110544373183,2.0
15.27320671081543,20.450454711914062,-1.190290093421936,-0.0,-0.0,-1.0,0.06547001332069,1.0
15.257914543151855,20.787878036499023,-1.2333673238754272,-0.0,-0.0,-1.0,0.0730505518539254,1.0
15.104084968566896,21.25350570678711,-1.3211668729782104,-0.0,-0.0,-1.0,0.0511176231626199,1.0
15.141233444213867,20.03644561767578,-1.170507550239563,-0.0,-0.0,-1.0,0.0303328361870949,1.0
15.198277473449709,20.197959899902344,-1.1766372919082642,-0.0,-0.0,-1.0,0.0296368577173578,1.0
15.58352756500244,20.87391471862793,-0.8024784326553345,-0.0,-0.0,-1.0,0.0984916881043052,1.0
15.485762596130373,21.36440658569336,-0.8701730966567993,-0.0,-0.0,-1.0,0.1822769251077141,2.0
15.376338005065918,20.170669555664062,-1.1369441747665403,-0.0,-0.0,-1.0,0.0654486687869182,1.0
15.175504684448242,19.82704162597656,-1.140735745429993,-0.0,-0.0,-1.0,0.0294858791816186,2.0
15.268446922302246,20.19650650024414,-1.1620343923568726,-0.0,-0.0,-1.0,0.0302076481748079,1.0
14.466093063354492,21.416574478149418,-1.046507477760315,-0.0,-0.0,-1.0,0.0873266788551241,2.0
14.464707374572754,20.38717269897461,-0.9482687711715698,-0.3585550703205946,0.7102858504818148,-0.6057493476288017,0.18115767969701,3.0
14.291916847229004,21.06099510192871,-1.0413883924484253,0.1532239790146822,-0.92939899226514,0.3357676658516279,0.1858284214485809,3.0
14.300710678100586,20.20770263671875,-0.9613593816757202,0.788007707264733,-0.4608120308876484,-0.4082843684009707,0.1828454988269857,7.0
13.732117652893066,19.90964698791504,-1.0386611223220823,-0.0,-0.0,-1.0,0.1720760613724005,2.0
15.641307830810549,21.264223098754883,-1.2288450002670288,0.9114792519843116,-0.3765412969272849,-0.165596572761751,0.1553379036423409,3.0
15.70745086669922,20.59971618652344,-1.1387547254562378,0.141749938098768,0.6612899227767175,-0.7366156345632087,0.1317452438022554,5.0
15.534245491027832,20.65242576599121,-1.1876071691513062,-0.0,-0.0,-1.0,0.1092627989842445,1.0
15.313172340393066,21.180213928222656,-1.2991098165512085,-0.0,-0.0,-1.0,0.065368233523315,1.0
15.495656967163086,19.845556259155273,-1.1190649271011353,-0.0,-0.0,-1.0,0.0560680587904312,2.0
15.412524223327637,20.255857467651367,-1.1784533262252808,-0.0,-0.0,-1.0,0.0660894913037159,1.0
15.368043899536133,20.545570373535156,-1.2180894613265991,-0.0,-0.0,-1.0,0.0870646597870316,2.0
14.47108268737793,21.444488525390625,-1.144145369529724,-0.0,-0.0,-1.0,0.2058196964180509,1.0
15.397300720214844,19.68667221069336,-1.1308444738388062,-0.0,-0.0,-1.0,0.105945130786836,2.0
14.348132133483888,20.984485626220703,-1.1327985525131226,0.4490132742951957,-0.8276180728978828,-0.3368017293891202,0.1151869375994413,3.0
14.189746856689451,21.35722923278809,-1.1980046033859253,-0.0,-0.0,-1.0,0.0508242024241998,1.0
13.982329368591309,21.584209442138672,-1.262527585029602,-0.0,-0.0,-1.0,0.0214101967072435,1.0
13.95675277709961,20.92537498474121,-1.215175747871399,-0.0,-0.0,-1.0,0.0701991112223659,2.0
14.005606651306152,21.09526824951172,-1.2173982858657837,-0.0,-0.0,-1.0,0.0891428314770954,1.0
13.983924865722656,19.881181716918945,-1.1377159357070925,-0.0,-0.0,-1.0,0.051651008358848,1.0
14.048718452453612,20.12826156616211,-1.1382824182510376,-0.0,-0.0,-1.0,0.1739430315392446,1.0
15.52687644958496,21.282169342041016,-0.9032176733016968,-0.0,-0.0,-1.0,0.1547117283308532,1.0
15.56464958190918,20.657054901123047,-0.8387609720230103,-0.0,-0.0,-1.0,0.1113145746332802,2.0
15.54106330871582,19.773693084716797,-0.7745298147201538,-0.0,-0.0,-1.0,0.1841250275845324,2.0
14.530223846435549,21.481096267700195,-0.7504512071609497,-0.0,-0.0,-1.0,0.0792653328274168,1.0
14.550250053405762,20.525724411010746,-1.0523890256881714,-0.0,-0.0,-1.0,0.1567063946481036,1.0
14.30834674835205,20.257083892822266,-1.0877243280410769,-0.0,-0.0,-1.0,0.1409425561622393,2.0
14.115474700927734,19.861167907714844,-1.1061118841171265,-0.0,-0.0,-1.0,0.1035098821482478,1.0
