x,y,z,nx,ny,nz,curvature,density
52.83512115478515,25.01932907104492,-2.7258472442626953,-0.0,-0.0,-1.0,0.2067975731653346,2.0
53.90046691894531,24.313980102539062,-2.840292453765869,-0.6655660549111085,0.6328786529322606,-0.3955836665140644,0.0534985185143732,3.0
54.17570495605469,24.083179473876953,-2.8674540519714355,-0.0,-0.0,-1.0,0.0181971544134033,1.0
53.948036193847656,23.219467163085938,-2.7123823165893555,0.7110278486228305,-0.1504273426521516,-0.6868850071630631,0.0757159312905816,4.0
54.431396484375,24.773826599121097,-2.8583531379699707,-0.4761228776312998,0.6409551186909918,-0.6020660605115575,0.210038931006194,3.0
54.06508255004883,23.504562377929688,-2.6500301361083984,-0.0,-0.0,-1.0,0.0418479072279192,1.0
54.40138244628906,24.558605194091797,-2.8884663581848145,-0.0,-0.0,-1.0,0.1275494434913122,2.0
54.01026153564453,23.510528564453125,-2.699863910675049,-0.0,-0.0,-1.0,0.0859165364702768,1.0
52.73574447631836,25.11001205444336,-2.642076015472412,-0.0,-0.0,-1.0,0.2328484308771029,1.0
54.81565856933594,23.85331916809082,-2.797762155532837,-0.0,-0.0,-1.0,0.0647058505485606,1.0
54.52317810058594,24.565380096435547,-2.8153584003448486,0.2840038539518039,0.9489328089609554,0.1373620581455933,0.136686596258143,3.0
54.01625061035156,25.49327087402344,-2.8530452251434326,-0.0,-0.0,-1.0,0.1955604005605777,2.0
53.543094635009766,24.060157775878903,-2.8090033531188965,-0.0,-0.0,-1.0,0.010454868297074,1.0
54.20732879638672,25.340532302856445,-2.7166152000427246,-0.4113925091632793,0.7336023299651726,-0.5409101818916064,0.2293845506525318,5.0
54.78607940673828,24.5374755859375,-2.684873342514038,-0.0,-0.0,-1.0,0.046071924016777,2.0
54.395057678222656,24.735349655151367,-2.6647987365722656,-0.0,-0.0,-1.0,0.1530225555787946,1.0
54.35026550292969,23.38492202758789,-2.538377523422241,-0.0,-0.0,-1.0,0.0499291618329285,1.0
53.98713684082031,24.640689849853516,-2.703965187072754,-0.0,-0.0,-1.0,0.143248061177673,1.0
54.64473342895508,23.237884521484375,-2.651247262954712,-0.0,-0.0,-1.0,0.0747776389030152,1.0
53.124752044677734,23.18598747253418,-2.796337604522705,-0.0,-0.0,-1.0,0.00995305767763,2.0
53.228057861328125,24.06376075744629,-2.8621625900268555,-0.0,-0.0,-1.0,0.0149847924308671,1.0
53.04598236083984,25.06178855895996,-2.9028658866882324,-0.0,-0.0,-1.0,0.2047532192357371,1.0
52.92972183227539,25.219680786132812,-2.899240493774414,-0.0,-0.0,-1.0,0.1961475068039596,2.0
54.164180755615234,23.246721267700195,-2.70084810256958,-0.0,-0.0,-1.0,0.1033546411983119,2.0
54.530616760253906,24.487520217895508,-2.871326446533203,-0.0,-0.0,-1.0,0.1676140727840664,1.0
54.89149475097656,24.34069442749023,-2.890575408935547,-0.0,-0.0,-1.0,0.145567963514957,1.0
54.44260787963867,24.75090217590332,-2.8916244506835938,-0.0,-0.0,-1.0,0.1582740607320791,2.0
55.19291305541992,25.58264541625977,-3.0562663078308105,-0.0,-0.0,-1.0,0.1700012826635286,1.0
54.76502227783203,24.313993453979492,-2.9864234924316406,-0.0,-0.0,-1.0,0.1056131753914892,1.0
55.11355209350586,24.279382705688477,-3.0158796310424805,-0.0,-0.0,-1.0,0.1441872097856313,1.0
54.49420166015625,24.49233055114746,-2.981935501098633,-0.0,-0.0,-1.0,0.1484197722824365,1.0
54.16699981689453,25.27755355834961,-3.046055793762207,-0.0,-0.0,-1.0,0.2096818061879762,1.0
54.30765151977539,23.15823745727539,-2.802639961242676,-0.0,-0.0,-1.0,0.1500592227537122,1.0
55.111846923828125,24.49489402770996,-3.0119123458862305,-0.0,-0.0,-1.0,0.2021172328684182,1.0
54.67283630371094,24.598129272460938,-2.960331439971924,-0.0,-0.0,-1.0,0.1532212151717207,1.0
54.16191482543945,23.252437591552734,-2.875222682952881,-0.0,-0.0,-1.0,0.1957887506514438,1.0
54.1807746887207,25.23659896850586,-2.9712398052215576,-0.8314108402339011,-0.3744706551241101,-0.4105213066242459,0.1543770215896937,3.0
54.17245101928711,25.581737518310547,-2.973932981491089,-0.0,-0.0,-1.0,0.1987268731343451,1.0
53.78014373779297,23.84282684326172,-2.908406019210815,-0.0,-0.0,-1.0,0.0094562810411046,1.0
53.68974304199219,24.146015167236328,-2.8989436626434326,-0.0,-0.0,-1.0,0.0319298835396839,1.0
52.82024765014648,25.122390747070312,-2.909221649169922,-0.0,-0.0,-1.0,0.2118024715835622,1.0
52.93070983886719,25.2110652923584,-2.9062511920928955,-0.0,-0.0,-1.0,0.1961475068039596,2.0
55.17811965942383,24.963367462158203,-2.9279978275299072,-0.0,-0.0,-1.0,0.101494565159684,1.0
54.51605224609375,24.6527042388916,-2.8422529697418213,0.4970712884269186,0.7117512373793156,-0.4963167439353786,0.1182843844682602,3.0
54.45804214477539,24.811307907104492,-2.83952260017395,0.5213269777020642,0.0571483663614338,-0.8514412760386069,0.1544468533371933,3.0
54.036094665527344,23.338285446166992,-2.754829168319702,-0.0,-0.0,-1.0,0.1510893044371033,2.0
53.86713790893555,24.44965553283691,-2.8517820835113525,-0.0,-0.0,-1.0,0.0967506801065709,1.0
53.54635238647461,23.24615478515625,-2.7867043018341064,-0.0,-0.0,-1.0,0.0057790452593175,1.0
53.833499908447266,24.295055389404297,-2.8440940380096436,-0.0,-0.0,-1.0,0.032825787138402,1.0
54.23360061645508,23.36299514770508,-2.6393346786499023,-0.0,-0.0,-1.0,0.0402982380952443,1.0
54.32583999633789,23.59272575378418,-2.6525344848632812,-0.0,-0.0,-1.0,0.0935408472879453,1.0
54.643680572509766,24.774497985839844,-2.704501152038574,-0.0,-0.0,-1.0,0.163051358564782,1.0
54.464324951171875,23.413589477539062,-2.595684289932251,-0.0,-0.0,-1.0,0.0608021349725984,2.0
54.69807434082031,23.532554626464844,-2.6189396381378174,-0.0,-0.0,-1.0,0.061359420686138,1.0
53.722923278808594,25.152271270751953,-2.4843857288360596,-0.0,-0.0,-1.0,0.1102592982999344,1.0
53.83380889892578,25.57271957397461,-2.756760597229004,-0.0,-0.0,-1.0,0.1169266948336307,1.0
54.31561279296875,23.22992515563965,-2.574568271636963,-0.0,-0.0,-1.0,0.0410975830857601,2.0
55.027198791503906,24.445472717285156,-2.6409382820129395,-0.0,-0.0,-1.0,0.0591145517013001,1.0
55.183231353759766,24.56916046142578,-2.6576952934265137,-0.0,-0.0,-1.0,0.0558256689528824,1.0
54.36214447021485,23.541406631469727,-2.586611270904541,-0.0,-0.0,-1.0,0.0439246162703705,2.0
54.54720306396485,23.335853576660156,-2.590750217437744,0.5191574115470953,-0.5658512273272112,-0.6405372515068962,0.0645641418951035,3.0
54.62165832519531,24.712787628173828,-2.733560562133789,-0.0,-0.0,-1.0,0.1878193086885534,1.0
54.98784637451172,24.61241912841797,-2.770481586456299,-0.0,-0.0,-1.0,0.0611797072778064,1.0
54.505226135253906,24.93209457397461,-2.7403550148010254,-0.0,-0.0,-1.0,0.1661997395525011,1.0
54.191856384277344,25.54074478149414,-2.7612204551696777,-0.0,-0.0,-1.0,0.2069577489426684,1.0
54.219520568847656,25.42297744750977,-2.752899169921875,-0.0,-0.0,-1.0,0.2382711209362686,1.0
53.93083953857422,23.246248245239254,-2.7331912517547607,0.7110278486228305,-0.1504273426521516,-0.6868850071630631,0.0722643618227132,4.0
54.01349639892578,23.587072372436523,-2.7773349285125732,-0.0,-0.0,-1.0,0.0537761521841497,2.0
53.901573181152344,24.223188400268555,-2.8195064067840576,-0.0,-0.0,-1.0,0.0320751056393738,2.0
54.082969665527344,24.036191940307617,-2.8299949169158936,-0.1137176219510158,0.576033330993426,-0.8094775500546164,0.022703870012579,3.0
53.90785217285156,24.327903747558594,-2.830442190170288,-0.6655660549111085,0.6328786529322606,-0.3955836665140644,0.0534985185143732,3.0
53.499725341796875,24.85556983947754,-2.8183114528656006,-0.0,-0.0,-1.0,0.2454341467426359,2.0
54.40642929077149,24.783803939819336,-2.9513514041900635,-0.0,-0.0,-1.0,0.1235385748918437,2.0
54.136009216308594,25.268674850463867,-2.95694899559021,0.3521017462545077,0.0184197715513879,-0.9357804615937017,0.1697807423374605,4.0
54.61167907714844,25.061199188232425,-3.009927988052368,-0.0,-0.0,-1.0,0.0587967806312837,1.0
53.963836669921875,25.541614532470703,-2.957543134689331,-0.0,-0.0,-1.0,0.1404775778168983,1.0
54.10890197753906,24.68004989624023,-2.881068468093872,-0.0,-0.0,-1.0,0.065806986567467,1.0
54.20245361328125,24.862293243408203,-2.9137332439422607,-0.0,-0.0,-1.0,0.1234417675143866,1.0
54.010196685791016,25.232215881347656,-2.919750928878784,-0.0,-0.0,-1.0,0.1257193451064453,2.0
53.873382568359375,25.509870529174805,-2.925917863845825,-0.0,-0.0,-1.0,0.1108082671167409,1.0
53.935447692871094,23.22736167907715,-2.716081380844116,0.7110278486228305,-0.1504273426521516,-0.6868850071630631,0.0757159312905816,4.0
53.991737365722656,23.600961685180664,-2.7596185207366943,-0.6806798500487392,-0.1523453594179682,-0.7165653028171514,0.0569204812510666,3.0
54.0269775390625,23.9744930267334,-2.8003337383270264,-0.0,-0.0,-1.0,0.0790792085438471,2.0
53.890380859375,24.411623001098633,-2.8202903270721436,-0.0,-0.0,-1.0,0.106088091142768,1.0
52.87641143798828,25.037303924560547,-2.720796823501587,-0.0,-0.0,-1.0,0.2067975731653346,2.0
53.56343078613281,24.886594772338867,-2.8146626949310303,-0.4909824314692489,-0.8467152084919642,-0.2049624543592168,0.1397818244276843,3.0
54.96643829345703,25.238462448120117,-2.995163679122925,-0.0,-0.0,-1.0,0.1293449151792941,1.0
54.252777099609375,23.173654556274418,-2.669083833694458,-0.0,-0.0,-1.0,0.0895625981471497,1.0
54.18408966064453,23.51059341430664,-2.691275835037231,-0.3078916765373887,-0.6285657019255007,-0.7142183656851022,0.0747886343407338,3.0
54.66735076904297,23.789213180541992,-2.7975003719329834,-0.0,-0.0,-1.0,0.0496927496687843,1.0
54.66585159301758,23.996103286743164,-2.8181240558624268,-0.0,-0.0,-1.0,0.0575525621456682,1.0
54.65791320800781,24.35660743713379,-2.853600263595581,-0.0,-0.0,-1.0,0.1412567947839946,1.0
54.61181640625,24.811595916748047,-2.8932931423187256,-0.0,-0.0,-1.0,0.1022538370619566,1.0
54.19499969482422,25.364904403686523,-2.884974241256714,-0.0,-0.0,-1.0,0.1217287771237983,1.0
54.63069915771485,23.23749732971191,-2.521731376647949,0.1947995274341782,0.567536208470419,-0.7999723721394645,0.0606965688957065,3.0
55.15852737426758,24.564699172973633,-2.7198643684387207,-0.0,-0.0,-1.0,0.0563899092685188,2.0
54.99321746826172,24.608165740966797,-2.7012624740600586,-0.0,-0.0,-1.0,0.0627026319872112,2.0
54.16018295288086,25.428142547607425,-2.6683459281921387,-0.0,-0.0,-1.0,0.2298257179169427,2.0
53.8826789855957,23.454835891723633,-2.7764856815338135,-0.0,-0.0,-1.0,0.030719809494067,1.0
53.91811752319336,23.771095275878903,-2.815650701522827,-0.0,-0.0,-1.0,0.0663957558645712,1.0
53.80778121948242,24.11429023742676,-2.8358356952667236,-0.0,-0.0,-1.0,0.0342588414271153,1.0
53.83428192138672,24.556882858276367,-2.8885915279388428,-0.0,-0.0,-1.0,0.0918716019587263,2.0
53.503387451171875,24.946212768554688,-2.8820016384124756,-0.0,-0.0,-1.0,0.2239496685472647,2.0
53.821754455566406,24.90350341796875,-2.925532579421997,-0.0,-0.0,-1.0,0.0570961310018553,1.0
53.11346435546875,25.57019424438477,-2.8951661586761475,-0.0,-0.0,-1.0,0.0686279892394634,1.0
53.51375198364258,25.43281364440918,-2.93937087059021,-0.0,-0.0,-1.0,0.0392808854553003,2.0
53.67756652832031,25.24044609069824,-2.9419219493865967,-0.0,-0.0,-1.0,0.0194956669571078,1.0
53.813819885253906,23.26511573791504,-2.745870351791382,-0.0,-0.0,-1.0,0.0344615610451483,1.0
53.76691436767578,23.2150936126709,-2.7397420406341553,-0.0,-0.0,-1.0,0.0344615610451484,2.0
53.808380126953125,23.609779357910156,-2.787121534347534,-0.0,-0.0,-1.0,0.0199600423436092,1.0
53.87085723876953,23.822092056274418,-2.8194892406463623,-0.0,-0.0,-1.0,0.0638351227642244,1.0
53.71466064453125,24.072359085083008,-2.8202831745147705,-0.0,-0.0,-1.0,0.0295457886262495,1.0
53.85865020751953,23.89961814880371,-2.8256123065948486,-0.0,-0.0,-1.0,0.0129527075951345,1.0
53.779823303222656,24.499755859375,-2.8767130374908447,-0.0,-0.0,-1.0,0.1015639855455111,1.0
53.62092208862305,24.83395767211914,-2.8873493671417236,-0.0,-0.0,-1.0,0.1459146947093133,1.0
53.49102020263672,25.43572998046875,-2.9334867000579834,-0.0,-0.0,-1.0,0.0434170196083604,2.0
53.59861755371094,25.226585388183594,-2.9273197650909424,-0.0,-0.0,-1.0,0.0368564282809669,1.0
53.34481048583984,25.501720428466797,-2.9174773693084717,-0.0,-0.0,-1.0,0.0402835905334888,2.0
55.161766052246094,24.578596115112305,-2.71312952041626,-0.0,-0.0,-1.0,0.0558256689528823,2.0
54.683101654052734,24.68319320678711,-2.652498960494995,-0.0,-0.0,-1.0,0.0787212825369938,1.0
55.03810119628906,24.660024642944336,-2.7034311294555664,0.3107361536694163,0.457798245762459,-0.8329848792022291,0.0576537541594645,3.0
54.43840789794922,23.34639358520508,-2.535455226898194,-0.0,-0.0,-1.0,0.0487868866279831,2.0
54.6212158203125,23.18614959716797,-2.5478382110595703,-0.0,-0.0,-1.0,0.055880523963411,2.0
54.513458251953125,23.52645492553711,-2.5674047470092773,-0.0,-0.0,-1.0,0.087154151551422,1.0
54.501808166503906,24.610496520996097,-2.6877589225769043,-0.0,-0.0,-1.0,0.176820023555165,2.0
54.69351959228515,24.532670974731445,-2.7095947265625,-0.0,-0.0,-1.0,0.1181229644919126,2.0
55.130741119384766,24.436279296875,-2.7690353393554688,-0.0,-0.0,-1.0,0.1311227670709263,1.0
54.512725830078125,24.734718322753903,-2.70389986038208,0.2856505323482231,0.9482487554438448,0.1386653207127721,0.2150921977622583,5.0
54.14397430419922,25.411235809326172,-2.725133895874023,0.9750470386595224,0.0016982908163059,0.2219918651878899,0.2604085053295785,3.0
54.241668701171875,25.377601623535156,-2.736565113067627,-0.0,-0.0,-1.0,0.2699460227092758,2.0
54.65703582763672,23.24510955810547,-2.509917736053467,0.2420378519359817,0.5675978999380737,-0.7869245848339627,0.0684297168270191,4.0
54.56354522705078,24.615272521972656,-2.6803536415100098,0.5793862226664566,0.5322594683838415,0.6172612601646451,0.1489118567652905,4.0
54.81032943725586,24.53917694091797,-2.7091355323791504,-0.5035533439915302,0.7365068565212946,-0.4516543811943696,0.0314902703822335,3.0
55.02436065673828,24.484952926635746,-2.735896110534668,-0.0,-0.0,-1.0,0.057408259570284,2.0
53.547454833984375,24.98758316040039,-2.573126792907715,-0.0,-0.0,-1.0,0.1062945142856424,1.0
54.208038330078125,25.328229904174805,-2.726369857788086,-0.2814184559063491,0.8901067270957655,-0.358488029164365,0.1970806201121887,6.0
54.178672790527344,25.46855354309082,-2.742345809936523,-0.0,-0.0,-1.0,0.2238108238375132,2.0
53.97693634033203,23.29852294921875,-2.7141668796539307,-0.0,-0.0,-1.0,0.0833886218684607,2.0
54.03165435791016,23.39148330688477,-2.7380073070526123,-0.0,-0.0,-1.0,0.0995187407769601,1.0
53.99006271362305,23.643970489501953,-2.767171621322632,-0.0,-0.0,-1.0,0.0400791065851621,2.0
54.03890228271485,23.841899871826172,-2.8056795597076416,-0.0,-0.0,-1.0,0.0830990173939655,1.0
53.883087158203125,24.18555450439453,-2.8289473056793213,-0.5225854001944418,0.8519442073342794,-0.033099351854403,0.0324461532514079,4.0
54.05278015136719,23.9525146484375,-2.8248345851898193,-0.0,-0.0,-1.0,0.0771939152376488,2.0
53.841835021972656,24.58932876586914,-2.883965253829956,-0.0,-0.0,-1.0,0.09131001439837,2.0
53.58598327636719,24.971345901489254,-2.8984434604644775,-0.0,-0.0,-1.0,0.0918422248226887,1.0
53.83048248291016,24.835620880126953,-2.9207942485809326,-0.0,-0.0,-1.0,0.0737068690311968,1.0
53.18733215332031,25.446826934814453,-2.9054958820343018,-0.0,-0.0,-1.0,0.0477306571346509,1.0
53.477073669433594,25.31845474243164,-2.9356133937835693,-0.0,-0.0,-1.0,0.0353993345949388,2.0
53.61542510986328,23.3646240234375,-2.7812631130218506,-0.0,-0.0,-1.0,0.0087439985923197,1.0
53.35869598388672,23.911113739013672,-2.81235671043396,-0.0,-0.0,-1.0,0.0078843335363581,1.0
53.49358367919922,23.752843856811523,-2.8152568340301514,-0.0,-0.0,-1.0,0.0065273696299073,2.0
53.27730178833008,24.195878982543945,-2.840909719467163,-0.0,-0.0,-1.0,0.0162020632235759,2.0
52.979976654052734,24.725982666015625,-2.8676154613494873,-0.0,-0.0,-1.0,0.0707298219806493,1.0
53.128055572509766,24.54601669311523,-2.8674747943878174,-0.0,-0.0,-1.0,0.0589055501876941,1.0
52.85131072998047,24.990684509277344,-2.886603593826294,-0.0,-0.0,-1.0,0.1598563814325599,1.0
52.71489715576172,25.212202072143555,-2.8974978923797607,-0.0,-0.0,-1.0,0.1988651531776663,1.0
53.70354843139648,23.361305236816406,-2.7549736499786377,-0.0,-0.0,-1.0,0.0099574745044739,1.0
53.74044418334961,23.235794067382812,-2.742825746536255,-0.0,-0.0,-1.0,0.0306569700274845,2.0
53.67958450317383,23.722333908081055,-2.8084185123443604,-0.0,-0.0,-1.0,0.0061088974874075,1.0
53.44322204589844,24.076038360595703,-2.817739248275757,-0.0,-0.0,-1.0,0.0116508757485356,1.0
53.224998474121094,24.54410171508789,-2.8527700901031494,0.4197136142547946,0.4584727271118675,-0.7833538411878661,0.0548695665331827,4.0
53.44297790527344,24.417560577392575,-2.8756635189056396,-0.0,-0.0,-1.0,0.0109348070129671,1.0
52.94833755493164,25.064647674560547,-2.888791799545288,-0.0,-0.0,-1.0,0.2067975731653346,1.0
53.093658447265625,24.84575843811035,-2.8790595531463623,-0.0,-0.0,-1.0,0.0806627607959036,1.0
52.768062591552734,25.30972671508789,-2.8974316120147705,-0.0,-0.0,-1.0,0.1384634850547225,1.0
53.48404312133789,25.06335830688477,-2.3983356952667236,-0.0,-0.0,-1.0,0.1384432109450673,1.0
54.32821273803711,23.147239685058594,-2.628866195678711,-0.0,-0.0,-1.0,0.0599886779100574,1.0
54.19113540649414,23.32391357421875,-2.6271207332611084,-0.0,-0.0,-1.0,0.0750640414838118,2.0
54.47527313232422,23.808534622192383,-2.7649693489074707,-0.0,-0.0,-1.0,0.040651286936409,1.0
54.51884460449219,24.149621963500977,-2.829697608947754,-0.0,-0.0,-1.0,0.0552950266512838,1.0
54.44413757324219,24.56131935119629,-2.882427215576172,-0.0,-0.0,-1.0,0.1275494434913122,2.0
52.91539764404297,25.15081024169922,-2.6742660999298096,-0.0,-0.0,-1.0,0.2020733860829344,2.0
53.54314041137695,24.888168334960938,-2.7532644271850586,-0.0,-0.0,-1.0,0.1450360813502323,2.0
54.379417419433594,25.03648376464844,-2.950047016143799,-0.0,-0.0,-1.0,0.1221426700141629,1.0
54.45064163208008,24.961692810058594,-2.951747417449951,-0.0,-0.0,-1.0,0.1339332127538414,1.0
53.96427536010742,25.482460021972656,-2.943906307220459,-0.0,-0.0,-1.0,0.0808951736479141,2.0
54.161598205566406,25.24735450744629,-2.942213535308838,0.0879414871050182,0.5030122336152867,-0.8597935727133101,0.151060000269295,5.0
53.130767822265625,23.167400360107425,-2.798628330230713,-0.0,-0.0,-1.0,0.00995305767763,2.0
54.483123779296875,23.194828033447266,-2.609133243560791,-0.0,-0.0,-1.0,0.0508170689259946,1.0
52.8698844909668,23.55561256408691,-2.808009624481201,-0.0,-0.0,-1.0,0.0086791127064727,1.0
52.99266052246094,23.330711364746097,-2.7949647903442383,-0.0,-0.0,-1.0,0.0098625620878461,1.0
54.380882263183594,23.422107696533203,-2.622941493988037,-0.0,-0.0,-1.0,0.0600813395042429,2.0
52.741180419921875,23.89028549194336,-2.8427672386169434,-0.0,-0.0,-1.0,0.0120266980085602,1.0
54.793575286865234,23.91333770751953,-2.7950634956359863,-0.0,-0.0,-1.0,0.0564934573703135,1.0
54.728126525878906,24.24545669555664,-2.8361449241638184,-0.0,-0.0,-1.0,0.0798269616980799,1.0
54.532745361328125,24.62929916381836,-2.8590989112854004,0.1763044035077809,0.8980849642936362,-0.4029393927298052,0.199463648573575,4.0
54.57673645019531,24.464521408081055,-2.8402037620544434,-0.0,-0.0,-1.0,0.1337292266819386,1.0
53.55480194091797,24.955148696899418,-2.708498001098633,-0.0,-0.0,-1.0,0.2343747237970407,1.0
54.19222259521485,25.23424530029297,-2.8932833671569824,0.2101941883544595,-0.5766235483370432,-0.7895085095711177,0.1680820269053005,3.0
54.28481674194336,25.23594665527344,-2.9131569862365723,-0.0,-0.0,-1.0,0.1551078543589915,1.0
54.74158477783203,25.10235595703125,-2.986656665802002,-0.0,-0.0,-1.0,0.0524165458368756,1.0
54.12324523925781,25.466583251953125,-2.9210715293884277,-0.0,-0.0,-1.0,0.1318093191954046,1.0
54.70279693603515,25.34165954589844,-3.020801544189453,-0.0,-0.0,-1.0,0.1401996557883604,1.0
54.33184814453125,23.308639526367188,-2.5935215950012207,-0.0,-0.0,-1.0,0.0441606583020046,1.0
53.578369140625,23.55185317993164,-2.80639386177063,-0.0,-0.0,-1.0,0.0065722284669449,1.0
53.62206268310547,23.41443252563477,-2.7903034687042236,-0.0,-0.0,-1.0,0.0067167976607243,1.0
53.40725326538086,23.87863540649414,-2.829216241836548,-0.0,-0.0,-1.0,0.0077188556279856,1.0
53.129398345947266,24.373395919799805,-2.863466501235962,-0.0,-0.0,-1.0,0.0169419257921358,1.0
53.24981689453125,24.219701766967773,-2.8605453968048096,-0.0,-0.0,-1.0,0.0167962916248234,2.0
55.14686584472656,24.35967254638672,-2.81145977973938,-0.0,-0.0,-1.0,0.1691510145049623,1.0
52.82536315917969,24.840740203857425,-2.891305685043335,-0.0,-0.0,-1.0,0.1018321157933075,1.0
53.010494232177734,24.633071899414062,-2.890336275100708,-0.0,-0.0,-1.0,0.053512099327267,1.0
54.646881103515625,24.60141372680664,-2.7435085773468018,-0.0,-0.0,-1.0,0.2094985185377566,1.0
54.94401168823242,24.448951721191406,-2.7819483280181885,-0.0,-0.0,-1.0,0.0613586547557073,1.0
54.206886291503906,25.250411987304688,-2.7670295238494873,-0.0,-0.0,-1.0,0.1833194141297761,2.0
54.21118927001953,25.385467529296875,-2.7933237552642822,-0.0,-0.0,-1.0,0.2300265065558623,1.0
54.974853515625,25.42782211303711,-2.964768171310425,-0.0,-0.0,-1.0,0.1889281764220193,1.0
54.69719696044922,23.216951370239254,-2.5161900520324707,0.2847949268490493,0.576749368238195,-0.7656709579694708,0.0684297168270191,3.0
54.62139129638672,23.311267852783203,-2.5145320892333984,-0.0,-0.0,-1.0,0.0693117172459217,2.0
54.53111267089844,24.581050872802734,-2.714308261871338,0.4556163926725218,0.8019005828971257,-0.3864830628595882,0.1718462603747756,3.0
53.4837646484375,24.973663330078125,-2.5614664554595947,-0.0,-0.0,-1.0,0.0982592523738028,2.0
53.18451690673828,23.347158432006836,-2.786212921142578,-0.0,-0.0,-1.0,0.0101368069686746,1.0
53.37483215332031,23.162586212158203,-2.796022415161133,-0.0,-0.0,-1.0,0.0130572229851642,1.0
54.32418441772461,23.26160049438477,-2.610360622406006,-0.0,-0.0,-1.0,0.0423736597290495,2.0
53.06428146362305,23.52215576171875,-2.795102119445801,-0.0,-0.0,-1.0,0.0093894692899565,1.0
54.251556396484375,23.465200424194336,-2.632795810699463,-0.0,-0.0,-1.0,0.0966796883571977,1.0
52.75408172607422,24.074941635131836,-2.847318649291992,-0.0,-0.0,-1.0,0.0138947750168729,1.0
52.906982421875,23.91090965270996,-2.8469276428222656,-0.0,-0.0,-1.0,0.0132843025781031,1.0
54.51143264770508,23.974475860595703,-2.800719738006592,-0.0,-0.0,-1.0,0.0658815849865136,1.0
54.40156555175781,24.4354248046875,-2.8697423934936523,-0.0,-0.0,-1.0,0.1218962882542922,1.0
54.50086975097656,24.27766227722168,-2.8607983589172363,-0.0,-0.0,-1.0,0.0910833953762184,1.0
53.42276382446289,24.901844024658203,-2.7402381896972656,-0.0,-0.0,-1.0,0.1852156998950527,2.0
54.37656784057617,24.716129302978516,-2.9234914779663086,-0.0,-0.0,-1.0,0.1211568225492294,1.0
52.84270477294922,25.16903305053711,-2.6701250076293945,-0.0,-0.0,-1.0,0.2328484308771028,1.0
52.89278793334961,25.126087188720703,-2.671300172805786,-0.0628211986176376,-0.1634787982904195,-0.9845446559266696,0.2020733860829345,4.0
53.979862213134766,25.235836029052734,-2.943599224090576,-0.0,-0.0,-1.0,0.0962780253689613,2.0
54.206295013427734,25.06412124633789,-2.9586005210876465,-0.0,-0.0,-1.0,0.1160785820066701,1.0
53.80998992919922,25.52000617980957,-2.968571186065674,-0.0,-0.0,-1.0,0.0442199367350757,2.0
54.216949462890625,25.456104278564453,-2.5343923568725586,-0.0,-0.0,-1.0,0.1850379171266872,1.0
54.357215881347656,23.954914093017575,-2.8219070434570312,-0.0,-0.0,-1.0,0.0396040733404367,1.0
54.076171875,24.326576232910156,-2.8397507667541504,-0.0,-0.0,-1.0,0.0592706027774007,1.0
54.31097030639648,24.219911575317383,-2.8733339309692383,-0.0,-0.0,-1.0,0.0229308983702552,1.0
53.74970626831055,24.94250106811523,-2.913389205932617,-0.0,-0.0,-1.0,0.0590498663894117,1.0
54.01762008666992,24.80958366394043,-2.94506311416626,-0.0,-0.0,-1.0,0.1081164422116238,1.0
53.057334899902344,25.29551696777344,-2.8423333168029785,-0.0,-0.0,-1.0,0.1123595468049499,1.0
53.49982833862305,25.31825256347656,-2.9511399269104004,-0.0,-0.0,-1.0,0.0348351911853786,2.0
53.69850158691406,25.130756378173828,-2.9495339393615723,-0.0,-0.0,-1.0,0.0487880086029332,1.0
53.32045364379883,25.452133178710938,-2.9447760581970215,-0.0,-0.0,-1.0,0.0396594045109291,2.0
54.198001861572266,23.290924072265625,-2.624795436859131,0.8473977521468967,0.1402826203407908,-0.5120916286044013,0.067210438790142,3.0
54.18641662597656,23.480224609375,-2.6655521392822266,-0.3267466032279356,-0.5230656335754073,-0.7871715189533752,0.0797203216708041,4.0
55.06473922729492,24.681156158447266,-2.681880474090576,-0.4575816906267175,0.8483646958591674,-0.2662636648568049,0.0556260413311926,3.0
54.23305130004883,25.419925689697266,-2.659946918487549,-0.0,-0.0,-1.0,0.2318788414119012,1.0
54.52909851074219,25.556446075439453,-2.7549304962158203,-0.0,-0.0,-1.0,0.1074927775418047,1.0
54.91033935546875,24.525266647338867,-2.757608413696289,-0.0,-0.0,-1.0,0.0476669202612319,1.0
54.55889129638672,24.79415702819824,-2.7427783012390137,-0.0,-0.0,-1.0,0.2061493824006254,1.0
54.351322174072266,25.404773712158203,-2.8561363220214844,-0.0,-0.0,-1.0,0.1844731573821886,1.0
54.887718200683594,25.33190155029297,-2.959317207336426,-0.0,-0.0,-1.0,0.1858661136435115,1.0
54.418487548828125,25.567970275878903,-2.915060520172119,-0.0,-0.0,-1.0,0.1667928696031248,1.0
54.79515838623047,25.51809310913086,-2.986941337585449,-0.0,-0.0,-1.0,0.1487176662835434,2.0
54.60325622558594,24.60169219970703,-2.7036027908325195,0.5585916071423509,0.5442022007554971,0.6259547756212099,0.1853524014571693,5.0
54.71932220458984,24.57083511352539,-2.723289966583252,-0.0,-0.0,-1.0,0.0899642506666484,2.0
54.55062484741211,24.695220947265625,-2.715250015258789,0.9620870373807116,0.2452927637973593,-0.1192476101758774,0.2099995184843417,5.0
54.18364334106445,25.319501876831055,-2.7257776260375977,-0.3345083477691292,0.881883954878551,-0.332242163791011,0.1970806201121887,5.0
54.114871978759766,25.358108520507812,-2.731110095977783,-0.0,-0.0,-1.0,0.1641919521423253,1.0
53.46723556518555,25.0069522857666,-2.59338903427124,-0.0,-0.0,-1.0,0.0794320547230009,2.0
55.187259674072266,24.76321792602539,-2.662443161010742,-0.0,-0.0,-1.0,0.129951771256819,1.0
54.26407623291016,25.410900115966797,-2.793199300765991,-0.0,-0.0,-1.0,0.2069041361187742,1.0
54.14448165893555,25.378341674804688,-2.775560140609741,-0.0,-0.0,-1.0,0.1841945693367616,2.0
52.79348373413086,25.13408660888672,-2.623321533203125,-0.0,-0.0,-1.0,0.2328484308771029,1.0
53.414913177490234,24.941631317138672,-2.6086504459381104,-0.0,-0.0,-1.0,0.0794320547230009,1.0
54.98013687133789,24.700292587280273,-2.6692159175872803,-0.0,-0.0,-1.0,0.0575235066527177,1.0
54.57518768310547,24.702926635742188,-2.6336817741394043,-0.0,-0.0,-1.0,0.1153878171579706,2.0
54.56605911254883,25.426570892333984,-3.029644012451172,-0.0,-0.0,-1.0,0.1092730588249603,1.0
53.773414611816406,25.534210205078125,-2.979771137237549,-0.0,-0.0,-1.0,0.0333238848054178,2.0
53.42314910888672,25.542116165161133,-2.9505257606506348,-0.0,-0.0,-1.0,0.0383090454661444,2.0
52.874176025390625,25.63336181640625,-2.929960250854492,-0.0,-0.0,-1.0,0.1125447749029694,1.0
54.56716537475586,25.32678604125977,-3.003744125366211,-0.0,-0.0,-1.0,0.0525553368067111,1.0
54.15336227416992,25.27019691467285,-2.9463701248168945,0.2692576918519089,0.4790926388998983,-0.83544631109995,0.1590282306441698,6.0
53.913326263427734,25.438623428344727,-2.967405319213867,-0.0,-0.0,-1.0,0.0545567056966221,1.0
53.31219482421875,25.497966766357425,-2.9290590286254883,0.2760731722738953,0.3559051044102181,-0.8928130600553398,0.0403466595501132,3.0
53.08365249633789,25.505887985229492,-2.912095069885254,-0.0,-0.0,-1.0,0.0686279892394634,1.0
54.48923873901367,24.717105865478516,-2.8363804817199707,-0.0,-0.0,-1.0,0.1201521264942673,1.0
53.52862548828125,24.900371551513672,-2.7882003784179688,-0.4455940797352465,-0.8865307918448952,-0.1245354215304301,0.1397818244276844,3.0
53.40567398071289,24.85578155517578,-2.765106201171875,-0.0,-0.0,-1.0,0.2011344962759605,1.0
54.843563079833984,24.452281951904297,-2.8077898025512695,-0.0,-0.0,-1.0,0.0515246807373752,1.0
54.56248092651367,24.50217056274414,-2.78866195678711,-0.0,-0.0,-1.0,0.1783547594693751,1.0
53.76555633544922,24.68006134033203,-2.752129077911377,-0.0,-0.0,-1.0,0.1536838655006172,1.0
54.61409759521485,23.356613159179688,-2.500361442565918,-0.0,-0.0,-1.0,0.0693117172459217,2.0
54.36677169799805,25.388700485229492,-2.5882411003112793,-0.0,-0.0,-1.0,0.227520685543774,1.0
54.43251419067383,25.51358985900879,-2.734553337097168,-0.0,-0.0,-1.0,0.2180678582578015,1.0
54.29361724853515,25.26949882507324,-2.672330379486084,-0.0,-0.0,-1.0,0.1438807120739807,1.0
54.159969329833984,25.38673210144043,-2.6695432662963867,0.9176703061314342,0.0067531096932152,-0.3972852939061696,0.2164140379286044,3.0
55.034156799316406,24.597137451171875,-2.6931285858154297,0.0222143787829204,-0.5387010933127473,-0.8422040450145915,0.057841106144005,3.0
53.76808547973633,25.60332489013672,-2.9922947883605957,-0.0,-0.0,-1.0,0.0322276259739872,1.0
54.228309631347656,25.029945373535156,-3.003146171569824,-0.0,-0.0,-1.0,0.114658283995334,1.0
54.005977630615234,25.23159408569336,-2.9865150451660156,-0.0,-0.0,-1.0,0.1108598868160462,1.0
54.18627166748047,24.80545997619629,-2.964269638061523,-0.0,-0.0,-1.0,0.0801223402874915,1.0
53.472442626953125,24.876821517944336,-2.830361843109131,0.5048530326681354,0.1680225031426243,-0.8466946638803587,0.21243538286573,3.0
52.81135559082031,25.07563018798828,-2.7295432090759277,-0.0,-0.0,-1.0,0.2315964565433322,1.0
53.925567626953125,24.335369110107425,-2.848304748535156,-0.6655660549111085,0.6328786529322606,-0.3955836665140644,0.0772725899597296,3.0
54.09031677246094,24.020950317382812,-2.8418731689453125,-0.1137176219510158,0.576033330993426,-0.8094775500546164,0.0200531207180549,3.0
54.03289031982422,23.5194091796875,-2.7668986320495605,-0.0,-0.0,-1.0,0.0742601167501052,2.0
53.98809051513672,23.316219329833984,-2.732598781585694,-0.5934218360112546,-0.3703112792791743,-0.7146468225519884,0.0854397442994559,3.0
53.98308563232422,23.174291610717773,-2.71450138092041,-0.0,-0.0,-1.0,0.1188809696074513,1.0
54.74711990356445,25.394512176513672,-2.9908251762390137,-0.0,-0.0,-1.0,0.152896121763791,1.0
54.71160507202149,25.08839988708496,-2.9490575790405273,-0.0,-0.0,-1.0,0.0564988290096221,1.0
54.14642333984375,25.270248413085938,-2.859127998352051,-0.0,-0.0,-1.0,0.1207997312079503,2.0
53.999977111816406,25.479042053222656,-2.855729579925537,-0.0,-0.0,-1.0,0.1489913996084815,2.0
54.43376541137695,24.62652015686035,-2.842611789703369,-0.0,-0.0,-1.0,0.1231588924143364,1.0
54.575435638427734,24.234216690063477,-2.8291807174682617,-0.0,-0.0,-1.0,0.0915820078268518,1.0
54.503604888916016,24.41025161743164,-2.833265781402588,-0.0,-0.0,-1.0,0.1042635183867931,2.0
53.503944396972656,24.944416046142575,-2.696214199066162,-0.0,-0.0,-1.0,0.1297944893970866,1.0
54.51615905761719,24.083263397216797,-2.801413059234619,-0.0,-0.0,-1.0,0.0446897596273161,1.0
54.47554397583008,23.872467041015625,-2.7715277671813965,-0.0,-0.0,-1.0,0.0501521578751195,1.0
54.457916259765625,23.97154998779297,-2.778014659881592,-0.0,-0.0,-1.0,0.0607450641525255,1.0
54.04052734375,23.42198181152344,-2.6367197036743164,-0.0,-0.0,-1.0,0.0592111956095873,1.0
54.092803955078125,23.242176055908203,-2.6299314498901367,-0.0,-0.0,-1.0,0.0895037305617357,1.0
54.67074203491211,25.519027709960938,-3.0503854751586914,-0.0,-0.0,-1.0,0.1328015430647355,1.0
54.73949432373047,25.281352996826172,-3.0354199409484863,-0.0,-0.0,-1.0,0.1401996557883604,1.0
54.64548110961914,25.097713470458984,-2.996291160583496,-0.0,-0.0,-1.0,0.0490152938767962,1.0
54.09281921386719,25.291484832763672,-2.9148316383361816,-0.8671841268360819,0.2988118119967712,-0.3983756909937514,0.1473531326130491,3.0
54.03751373291016,25.409671783447266,-2.918832302093506,-0.0,-0.0,-1.0,0.0761891495260454,1.0
54.41741943359375,24.796710968017575,-2.9183382987976074,-0.0,-0.0,-1.0,0.2150102689025579,2.0
54.46121597290039,24.365875244140625,-2.8788952827453613,-0.0,-0.0,-1.0,0.0945143799219818,1.0
53.69908905029297,24.7197265625,-2.7727746963500977,-0.0,-0.0,-1.0,0.1227406546150611,1.0
54.42490005493164,24.00329208374023,-2.832932472229004,-0.0,-0.0,-1.0,0.0423533523898938,1.0
54.30603790283203,23.748600006103516,-2.7828989028930664,-0.0,-0.0,-1.0,0.042271268131067,1.0
52.8005256652832,25.08060073852539,-2.650106906890869,-0.0,-0.0,-1.0,0.2020733860829344,1.0
53.14352798461914,24.866191864013672,-2.6863584518432617,-0.0,-0.0,-1.0,0.0601379850794227,1.0
54.06041717529297,23.253564834594727,-2.684018611907959,-0.0,-0.0,-1.0,0.0942284011524092,1.0
54.637916564941406,24.29228401184082,-2.6935863494873047,-0.0,-0.0,-1.0,0.0700226010779722,1.0
54.95995330810547,24.15465927124023,-2.7101080417633057,-0.0,-0.0,-1.0,0.0716019173758774,1.0
54.28082275390625,25.02012062072754,-2.7215869426727295,-0.0,-0.0,-1.0,0.0783944904327718,1.0
54.71766662597656,23.93814468383789,-2.800827741622925,-0.0,-0.0,-1.0,0.0575525621456683,1.0
55.012916564941406,23.80326271057129,-2.8063290119171143,-0.0,-0.0,-1.0,0.0427497019612403,1.0
54.71356201171875,24.069992065429688,-2.8165924549102783,-0.0,-0.0,-1.0,0.0628037718385727,1.0
54.49700164794922,24.64590072631836,-2.871089220046997,0.4970712884269186,0.7117512373793156,-0.4963167439353786,0.1263512682846187,3.0
53.60091018676758,25.366744995117188,-2.8932459354400635,-0.0,-0.0,-1.0,0.0367796662504142,1.0
54.08583068847656,25.268230438232425,-2.9170615673065186,0.5778566790344273,-0.0959411987250597,-0.8104794537078049,0.1644544136175617,3.0
54.50275421142578,24.73969841003418,-2.7213025093078613,0.3136786591092102,0.9451830375591864,0.09074538186507,0.2092846525192336,3.0
54.80099868774414,24.63910675048828,-2.7352094650268555,-0.0,-0.0,-1.0,0.0640933164809985,1.0
55.07270050048828,24.58261489868164,-2.751804828643799,-0.0,-0.0,-1.0,0.0584295542606857,1.0
54.1356201171875,25.498842239379883,-2.7747368812561035,-0.0,-0.0,-1.0,0.1645154201234099,1.0
54.56300354003906,23.332069396972656,-2.5746009349823,0.5191574115470953,-0.5658512273272112,-0.6405372515068962,0.0645641418951035,3.0
54.38481903076172,23.500349044799805,-2.577413558959961,-0.0,-0.0,-1.0,0.0542275109182554,2.0
54.18193435668945,23.261722564697266,-2.6593830585479736,0.9259307060314772,-0.0698278561049625,-0.3711824324235114,0.0683157239165772,3.0
54.126914978027344,23.517745971679688,-2.677290916442871,-0.0,-0.0,-1.0,0.0735753884467939,2.0
54.75720977783203,24.512338638305664,-2.8341095447540283,-0.0,-0.0,-1.0,0.0999315678664983,1.0
54.9893798828125,24.334213256835938,-2.8410794734954834,-0.0,-0.0,-1.0,0.1596945238002385,1.0
54.475120544433594,24.782360076904297,-2.8310086727142334,-0.0,-0.0,-1.0,0.1696871591537831,2.0
54.129669189453125,25.313377380371097,-2.84700083732605,-0.0,-0.0,-1.0,0.0785939550495406,2.0
54.315673828125,25.299617767333984,-2.864307641983032,-0.0,-0.0,-1.0,0.1320101180051443,1.0
54.19383239746094,25.475727081298828,-2.8690788745880127,-0.0,-0.0,-1.0,0.1696406622027604,1.0
54.530174255371094,23.296707153320312,-2.56997013092041,0.5191574115470953,-0.5658512273272112,-0.6405372515068962,0.0635238212817915,3.0
54.68803405761719,23.208415985107425,-2.5799665451049805,-0.0,-0.0,-1.0,0.0684297168270191,1.0
54.39740753173828,23.39717483520508,-2.563722610473633,-0.0,-0.0,-1.0,0.0645174712036788,1.0
54.55860900878906,24.72188186645508,-2.6889166831970215,0.6289034808768862,0.6164779290562374,-0.4737461078757992,0.1910971691362581,5.0
54.89036560058594,24.608234405517575,-2.7147064208984375,-0.0,-0.0,-1.0,0.0530837972495881,1.0
54.179100036621094,25.33245277404785,-2.700131416320801,-0.4196584022230655,0.7346778107823094,-0.5330434689476056,0.2293845506525318,4.0
54.18824005126953,25.460037231445312,-2.711916923522949,-0.0,-0.0,-1.0,0.2199466261211825,2.0
53.42901611328125,25.153594970703125,-2.372702121734619,-0.0,-0.0,-1.0,0.1451608121111828,1.0
54.01819610595703,25.08960723876953,-2.9640722274780273,-0.0,-0.0,-1.0,0.1190975859180621,1.0
54.08634948730469,24.905345916748047,-2.951040267944336,-0.0,-0.0,-1.0,0.0773437432005129,1.0
53.16638946533203,25.53221893310547,-2.917806625366211,-0.0,-0.0,-1.0,0.0341807412300521,1.0
53.41836929321289,25.506183624267575,-2.9433302879333496,-0.0,-0.0,-1.0,0.0401554430800548,2.0
53.77381896972656,25.427513122558594,-2.974747657775879,-0.0,-0.0,-1.0,0.0350021218966799,1.0
53.65849685668945,25.572345733642575,-2.978339672088623,-0.0,-0.0,-1.0,0.0271370371133001,1.0
53.87177276611328,23.30351448059082,-2.747921943664551,-0.0,-0.0,-1.0,0.0448373675816161,1.0
53.91474914550781,23.22582244873047,-2.7445974349975586,0.7110278486228305,-0.1504273426521516,-0.6868850071630631,0.0722643618227132,4.0
53.961463928222656,23.67509651184082,-2.799224376678467,-0.0,-0.0,-1.0,0.016803168786691,1.0
53.52335357666016,24.237831115722656,-2.8102636337280273,-0.0,-0.0,-1.0,0.0087203929651847,2.0
53.85566329956055,24.19801139831543,-2.8446969985961914,-0.0,-0.0,-1.0,0.0310423133745359,2.0
54.04427337646485,23.99944305419922,-2.8447890281677246,-0.0,-0.0,-1.0,0.0271817420762699,2.0
53.64876556396485,24.44047164916992,-2.84767484664917,-0.0,-0.0,-1.0,0.0555049206795906,1.0
53.48515319824219,24.927141189575195,-2.88405704498291,-0.0,-0.0,-1.0,0.2239496685472648,2.0
53.01446914672851,25.587173461914062,-2.907109260559082,-0.0,-0.0,-1.0,0.0815464665968358,1.0
53.79254150390625,23.14605140686035,-2.735307216644287,-0.0,-0.0,-1.0,0.0348686353632376,1.0
53.740779876708984,23.472957611083984,-2.7657699584960938,-0.0,-0.0,-1.0,0.0075849978294583,1.0
53.64677429199219,24.028141021728516,-2.817782402038574,-0.0,-0.0,-1.0,0.0097548280990099,1.0
53.79719543457031,23.87460708618164,-2.8183369636535645,-0.0,-0.0,-1.0,0.0109747778546255,1.0
53.22026062011719,24.574731826782227,-2.8306121826171875,-0.2477693232430674,0.5423925949976833,-0.8027581425008105,0.0612061455190291,3.0
53.4593505859375,24.21307373046875,-2.816705226898194,-0.0,-0.0,-1.0,0.0088306941957374,1.0
53.5244255065918,24.776987075805664,-2.890571117401123,-0.0,-0.0,-1.0,0.111323315367945,2.0
53.786170959472656,24.782421112060547,-2.922208786010742,-0.0,-0.0,-1.0,0.0826768211853253,1.0
52.895408630371094,25.309362411499023,-2.8803935050964355,-0.0,-0.0,-1.0,0.1548192162970851,1.0
53.34114074707031,24.992218017578125,-2.8943734169006348,-0.0,-0.0,-1.0,0.1947434170989659,1.0
52.71575164794922,25.557348251342773,-2.8898205757141113,-0.0,-0.0,-1.0,0.1177929667982669,1.0
55.19660186767578,24.61923599243164,-2.6704301834106445,-0.0,-0.0,-1.0,0.0571473657327899,1.0
55.06146240234375,24.685853958129883,-2.661281108856201,-0.0,-0.0,-1.0,0.0556260413311926,2.0
54.14117813110352,25.398223876953125,-2.7127528190612793,0.87765946566782,0.4717756390159157,-0.0845080395867869,0.2604085053295785,4.0
54.38178634643555,25.59437561035156,-2.723015546798706,-0.0,-0.0,-1.0,0.2452405041654904,1.0
54.05107879638672,25.478593826293945,-2.6695644855499268,-0.0,-0.0,-1.0,0.146842836068985,1.0
54.47199249267578,24.72880172729492,-2.654839515686035,-0.0,-0.0,-1.0,0.1428327498362692,1.0
54.1201286315918,25.43971824645996,-2.8454036712646484,0.6453507766254393,0.2583750911380326,-0.7188634692264976,0.144888492080745,3.0
54.34360122680664,24.90399169921875,-2.80185604095459,-0.0,-0.0,-1.0,0.2189325677874488,1.0
54.37101745605469,24.730419158935547,-2.785280227661133,-0.0,-0.0,-1.0,0.1323652664253499,1.0
54.218467712402344,24.057607650756836,-2.824845314025879,-0.0,-0.0,-1.0,0.0273994027795742,1.0
54.08735275268555,25.119600296020508,-2.9388957023620605,-0.0,-0.0,-1.0,0.163332341218244,1.0
53.52509689331055,25.030906677246097,-2.9009766578674316,-0.0,-0.0,-1.0,0.1162557794974646,1.0
54.040077209472656,23.90201187133789,-2.7981510162353516,-0.0,-0.0,-1.0,0.0906967883983645,1.0
53.95302963256836,23.416675567626953,-2.7391886711120605,-0.0,-0.0,-1.0,0.0544762057154735,1.0
53.85021209716797,24.149394989013672,-2.8163294792175293,-0.0,-0.0,-1.0,0.031673773234523,2.0
53.265045166015625,24.533056259155273,-2.8307886123657227,-0.0,-0.0,-1.0,0.0284187978415717,2.0
53.08376693725586,24.19502639770508,-2.7958829402923584,-0.0,-0.0,-1.0,0.0137936028804196,1.0
53.13363265991211,24.513866424560547,-2.8162190914154053,-0.0,-0.0,-1.0,0.049630715308058,1.0
52.95674514770508,25.10767936706543,-2.8240654468536377,-0.0,-0.0,-1.0,0.2118024715835622,1.0
52.97954177856445,25.42447280883789,-2.8423540592193604,-0.0,-0.0,-1.0,0.1336194373554729,2.0
52.937015533447266,24.084863662719727,-2.7737014293670654,-0.0,-0.0,-1.0,0.0155734157795107,1.0
55.11170959472656,24.50295066833496,-2.738863468170166,-0.0,-0.0,-1.0,0.0592094485005683,1.0
54.6024169921875,23.234392166137695,-2.574911117553711,-0.0,-0.0,-1.0,0.058542271617601,1.0
54.85334014892578,24.55894470214844,-2.724853515625,-0.0,-0.0,-1.0,0.051349325297513,2.0
54.59929656982422,24.60789680480957,-2.7105579376220703,0.5196367299122406,0.7322837814892472,0.4401569405268091,0.1853524014571693,4.0
54.404903411865234,23.32092666625977,-2.568182945251465,-0.0,-0.0,-1.0,0.0530408811604397,2.0
54.25402069091797,25.30924415588379,-2.755568027496338,-0.0,-0.0,-1.0,0.1970367380732129,2.0
54.15098571777344,25.38593864440918,-2.7557363510131836,0.9905186716582068,-0.0779291597851289,0.1131362327092687,0.1919613143400398,4.0
55.19413375854492,24.454505920410156,-2.7205886840820312,-0.0,-0.0,-1.0,0.1353945263160703,1.0
54.991004943847656,24.49698257446289,-2.7028603553771973,-0.0,-0.0,-1.0,0.0587422880807125,2.0
54.63030624389648,23.15665054321289,-2.568029403686523,-0.0,-0.0,-1.0,0.0551209595044403,2.0
54.487205505371094,23.393516540527344,-2.569582462310791,-0.0,-0.0,-1.0,0.0603168592675628,2.0
54.583099365234375,24.57741928100586,-2.6671159267425537,0.5496725990464083,0.5164676660531038,0.6565981905086443,0.1380861383816923,4.0
54.28681182861328,25.399600982666016,-2.7024712562561035,-0.0,-0.0,-1.0,0.2319041212967621,1.0
54.447811126708984,23.26569366455078,-2.556436777114868,-0.0,-0.0,-1.0,0.047639380010201,1.0
55.025428771972656,24.36545181274414,-2.779449939727783,-0.0,-0.0,-1.0,0.1531137275437705,2.0
54.67312240600586,24.48336601257324,-2.7444400787353516,-0.0,-0.0,-1.0,0.112404123098288,1.0
54.54232025146485,24.728519439697266,-2.7416324615478516,0.6132841558747514,0.6475945995932443,0.4522209401726762,0.1390371733547271,4.0
54.32990264892578,25.3554744720459,-2.7501063346862793,-0.0,-0.0,-1.0,0.2504627853351133,1.0
54.39262390136719,23.581132888793945,-2.668739318847656,-0.0,-0.0,-1.0,0.071202375288866,1.0
54.14102935791016,23.26997756958008,-2.625190258026123,-0.0,-0.0,-1.0,0.070195403281584,2.0
55.059810638427734,24.36935043334961,-2.784574031829834,-0.1711020182245364,0.8466400471039707,-0.5039094462294562,0.1597023248620442,3.0
54.79874801635742,24.4653263092041,-2.7609333992004395,-0.0,-0.0,-1.0,0.0509541004690696,1.0
54.23827362060547,25.33011245727539,-2.750171661376953,-0.5680695217010541,0.1627672703719852,-0.8067241376145806,0.252709210396388,5.0
54.54512023925781,24.56155014038086,-2.7382564544677734,-0.0,-0.0,-1.0,0.1705649870775924,2.0
54.50484848022461,24.660079956054688,-2.7394914627075195,-0.0,-0.0,-1.0,0.1480248656153131,1.0
54.220672607421875,23.54897689819336,-2.645810127258301,-0.2301245696450049,-0.4774677205284337,-0.8479783359845242,0.075401838348002,3.0
54.14496994018555,23.299888610839844,-2.6241416931152344,-0.0,-0.0,-1.0,0.0744625837185969,2.0
54.470245361328125,25.326141357421875,-2.6022591590881348,-0.0,-0.0,-1.0,0.1965865732553915,1.0
54.30907440185547,23.863065719604492,-2.5863873958587646,-0.0,-0.0,-1.0,0.0551796212067076,1.0
54.88124084472656,25.27997589111328,-2.6413722038269043,-0.0,-0.0,-1.0,0.1594018869474192,1.0
55.16118621826172,25.197566986083984,-2.668004989624023,-0.0,-0.0,-1.0,0.0730765746128434,1.0
54.640357971191406,23.390060424804688,-2.5486629009246826,-0.0,-0.0,-1.0,0.0750565212236743,2.0
54.37059783935547,23.439294815063477,-2.58424711227417,-0.0,-0.0,-1.0,0.0615862842105791,2.0
54.558204650878906,24.695405960083008,-2.680192470550537,0.9980742137357882,0.0562414967974848,-0.0261678794262421,0.1651384650857762,5.0
54.68376541137695,24.619260787963867,-2.6897950172424316,-0.0,-0.0,-1.0,0.1040163838765014,1.0
54.924896240234375,24.712417602539062,-2.706099033355713,-0.0,-0.0,-1.0,0.027647898351762,2.0
55.047760009765625,24.63213539123535,-2.715155601501465,-0.8184273565296606,-0.0425443311415469,-0.573032845456166,0.0577427857422283,3.0
54.551849365234375,24.66531753540039,-2.65002703666687,0.8677963942515254,-0.431091599989728,-0.2471628016962649,0.2007884505382218,3.0
54.349266052246094,24.85949325561523,-2.6574695110321045,-0.0,-0.0,-1.0,0.1079062430792152,1.0
54.84857177734375,25.466642379760746,-3.2699573040008545,-0.0,-0.0,-1.0,0.1414027056928021,1.0
54.16656494140625,25.099775314331055,-3.1444904804229736,-0.0,-0.0,-1.0,0.1230509835266603,1.0
54.17094039916992,25.45356559753418,-3.124016523361206,-0.0,-0.0,-1.0,0.1639121786111101,1.0
54.588584899902344,24.60894775390625,-2.800992965698242,-0.0,-0.0,-1.0,0.1513259191423654,1.0
54.7557487487793,24.352609634399418,-2.8574867248535156,-0.0,-0.0,-1.0,0.0986440828733079,1.0
54.55908966064453,24.63919448852539,-2.8658671379089355,-0.3985467001367546,0.876611110184245,-0.2696543886378438,0.1786905576532,3.0
54.12355041503906,25.599367141723633,-2.915243625640869,-0.0,-0.0,-1.0,0.1343629656231358,1.0
54.15978240966797,25.208208084106445,-2.882903575897217,-0.0,-0.0,-1.0,0.1512526588243972,2.0
54.131465911865234,23.32442283630371,-2.7148332595825195,-0.0,-0.0,-1.0,0.1942143274050494,1.0
54.60776138305664,24.596759796142575,-2.7023332118988037,0.320635679284552,0.7108759555026849,0.6259777448582965,0.1853524014571693,4.0
54.38804626464844,23.14981460571289,-2.564497232437134,-0.0,-0.0,-1.0,0.054250757464542,1.0
54.013858795166016,23.336193084716797,-2.8045663833618164,-0.0,-0.0,-1.0,0.1546453470656702,2.0
54.60642623901367,23.14556312561035,-2.627230167388916,-0.0,-0.0,-1.0,0.0548049279619193,1.0
55.03858184814453,25.3243350982666,-2.955343246459961,-0.0,-0.0,-1.0,0.1598887610817813,1.0
54.08721160888672,25.42947578430176,-2.878635883331299,-0.0,-0.0,-1.0,0.1083161004133375,2.0
54.0328483581543,23.52462577819824,-2.743978500366211,-0.0,-0.0,-1.0,0.0742601167501052,2.0
54.499210357666016,23.982393264770508,-2.864297151565552,-0.0,-0.0,-1.0,0.0638040207855472,1.0
54.49708938598633,24.71295928955078,-2.9343950748443604,-0.0,-0.0,-1.0,0.211627111362628,1.0
54.11133575439453,25.285099029541016,-2.959928274154663,0.3544957891677993,0.9337204081919042,-0.0499893467475162,0.1525650659315871,4.0
54.01213836669922,23.33873748779297,-2.764235734939575,0.3772667997077585,-0.9177527323356344,-0.1240954637718238,0.1536504331072977,4.0
53.9498176574707,24.19908142089844,-2.8413541316986084,-0.0,-0.0,-1.0,0.031648171671139,1.0
54.48462677001953,23.331981658935547,-2.512516975402832,-0.0,-0.0,-1.0,0.0465867248750627,2.0
54.36418151855469,23.480884552001953,-2.5036191940307617,-0.0,-0.0,-1.0,0.0583171669980171,1.0
53.40925216674805,23.429187774658203,-2.7775986194610596,-0.0,-0.0,-1.0,0.0125508266204694,1.0
54.66681671142578,23.2164363861084,-2.5278780460357666,0.2420378519359817,0.5675978999380737,-0.7869245848339627,0.0684297168270191,4.0
53.03696060180664,24.997777938842773,-2.7020397186279297,-0.0,-0.0,-1.0,0.1892574450688714,1.0
53.026180267333984,25.330154418945312,-2.7176589965820312,-0.0,-0.0,-1.0,0.0994109474048532,1.0
52.969844818115234,24.323728561401367,-2.6567325592041016,-0.0,-0.0,-1.0,0.0191019288507913,1.0
53.21208190917969,24.536354064941406,-2.854018211364746,-0.2477693232430674,0.5423925949976833,-0.8027581425008105,0.0546361207007711,3.0
53.33741760253906,25.234901428222656,-2.8747053146362305,-0.0,-0.0,-1.0,0.0682968345409099,1.0
52.79753112792969,23.797550201416016,-2.783742904663086,-0.0,-0.0,-1.0,0.014311486535029,1.0
53.05013275146485,24.27932357788086,-2.826505661010742,-0.0,-0.0,-1.0,0.0157835510758829,1.0
53.52069854736328,23.583324432373047,-2.8061676025390625,-0.0,-0.0,-1.0,0.0071662728793766,1.0
53.67302703857422,23.82513427734375,-2.8236608505249023,-0.0,-0.0,-1.0,0.0083024091821295,1.0
54.4140625,24.85874366760254,-2.915480613708496,-0.0,-0.0,-1.0,0.1889611671767682,1.0
54.64794921875,25.11693000793457,-2.947530746459961,-0.0,-0.0,-1.0,0.0561343072881713,1.0
53.77819061279297,24.289196014404297,-2.8227243423461914,-0.0,-0.0,-1.0,0.032825787138402,1.0
