x,y,z,nx,ny,nz,curvature,density
40.52440643310547,-13.887563705444336,-0.1806983947753906,-0.2816466194908784,0.5017937240956156,-0.8178497662698286,0.1754426973501591,4.0
40.913429260253906,-12.825384140014648,-0.1231929063796997,0.4079367821773239,0.7032485555246266,-0.5822620122413419,0.1769345124653967,3.0
41.22285842895508,-13.279289245605469,-0.1481016874313354,-0.7869609758165484,0.0536409554723357,-0.6146666335810658,0.2112243299695724,6.0
41.3796272277832,-13.132734298706056,-0.1403306722640991,-0.0,-0.0,-1.0,0.1315470649781949,1.0
41.49656677246094,-13.09884262084961,-0.1386871337890625,-0.0,-0.0,-1.0,0.1684325165600361,1.0
40.006690979003906,-14.110390663146973,-0.1649996042251587,-0.0,-0.0,-1.0,0.2176527003673465,2.0
39.79010772705078,-14.22554874420166,-0.1719845533370971,-0.0,-0.0,-1.0,0.1401690399310148,1.0
40.304744720458984,-13.922652244567873,-0.1538736820220947,0.5668662921277524,-0.5974097315001079,-0.567242646103326,0.1960579931847947,3.0
40.64925003051758,-14.001021385192873,-0.157133936882019,-0.0,-0.0,-1.0,0.1598501738415893,1.0
40.9117431640625,-12.797896385192873,-0.091174840927124,0.8137487692743194,0.4614839333082454,-0.3533348550636936,0.2085285176151941,3.0
40.969085693359375,-12.903986930847168,-0.0967632532119751,-0.3405506013505179,0.5975613440708423,-0.7259102754418406,0.208630622147475,3.0
41.470245361328125,-13.229765892028809,-0.1133824586868286,-0.0,-0.0,-1.0,0.1220091885820866,2.0
40.90861129760742,-12.72236442565918,0.1057918071746826,-0.0,-0.0,-1.0,0.1594457117998947,1.0
40.410667419433594,-13.701963424682615,0.0546462535858154,0.3766236580646834,-0.284454265803826,-0.8816123812946272,0.1866527171172035,3.0
40.000850677490234,-14.063596725463867,0.0330116748809814,0.9762651376481548,-0.1151514471562185,0.1834298918678685,0.1911003162957445,3.0
39.86924362182617,-12.791864395141602,-0.1893600225448608,-0.0,-0.0,-1.0,0.1015135199898753,2.0
39.726829528808594,-12.886735916137695,-0.1969488859176635,-0.0,-0.0,-1.0,0.1434535471378049,2.0
40.88399124145508,-12.868692398071287,-0.1786950826644897,-0.5150006805506242,-0.3338264922206927,-0.7895151500281817,0.1884724972466499,3.0
41.24420547485352,-13.205026626586914,-0.1930912733078003,-0.3673213883556189,-0.3877473230047366,-0.8454152891680874,0.1475453148341296,3.0
40.268341064453125,-13.927770614624023,-0.2477450370788574,-0.0,-0.0,-1.0,0.1989193286984215,2.0
39.939300537109375,-14.100893020629885,-0.2623506784439087,-0.0,-0.0,-1.0,0.2014728356809906,1.0
39.71085739135742,-14.147333145141602,-0.2683682441711426,-0.0,-0.0,-1.0,0.2356099437916243,1.0
41.65464401245117,-13.200233459472656,-0.1876140832901001,0.911659185134386,0.4088239803698097,0.041719099159649,0.1739811389622277,3.0
41.42247009277344,-13.119434356689451,-0.1858665943145752,-0.0,-0.0,-1.0,0.2156149397164525,2.0
40.83533477783203,-13.766298294067385,-0.2306839227676391,-0.9650107720767904,0.0858964102949314,-0.2477418343239624,0.1030829723022463,4.0
40.589237213134766,-14.012371063232422,-0.2480932474136352,-0.0,-0.0,-1.0,0.1420713595394291,2.0
40.730934143066406,-12.781877517700195,0.1711586713790893,-0.0,-0.0,-1.0,0.1769913453803715,1.0
40.17552947998047,-13.711050033569336,0.1217679977416992,-0.0,-0.0,-1.0,0.2201259943753186,1.0
39.841102600097656,-14.161260604858398,0.0962667465209961,-0.0,-0.0,-1.0,0.2026664122804504,2.0
41.1926155090332,-14.33063507080078,0.06448495388031,-0.0,-0.0,-1.0,0.0836786558638436,1.0
41.64266586303711,-13.068717002868652,-0.2150591611862182,-0.0,-0.0,-1.0,0.2117781097116708,2.0
41.399715423583984,-13.114882469177246,-0.2280721664428711,-0.11391068337383,0.9793482874495708,0.1670367866157046,0.1575302498004679,3.0
41.36463928222656,-13.214288711547852,-0.2363302707672119,-0.0,-0.0,-1.0,0.1698918276267961,1.0
41.23906326293945,-14.233705520629885,-0.2972418069839477,-0.0,-0.0,-1.0,0.09155307385753,1.0
40.28804016113281,-14.149396896362305,-0.3103294372558594,-0.0,-0.0,-1.0,0.1183824974376742,2.0
40.15812301635742,-14.185182571411133,0.0802196264266967,-0.0,-0.0,-1.0,0.2230198063504423,2.0
41.582611083984375,-13.257661819458008,0.0595512390136718,-0.0,-0.0,-1.0,0.1563467343116279,2.0
40.308990478515625,-14.141202926635742,-0.2868688106536865,-0.0,-0.0,-1.0,0.1420715945043369,2.0
40.138206481933594,-14.152851104736328,-0.2893909215927124,-0.0,-0.0,-1.0,0.1501983284891266,1.0
41.5704460144043,-13.088228225708008,-0.0913468599319458,-0.0,-0.0,-1.0,0.1099482044127565,1.0
41.41433334350586,-13.16001319885254,-0.0945178270339965,-0.0,-0.0,-1.0,0.1118879924952093,2.0
41.05481719970703,-14.14378833770752,0.0261182785034179,-0.0,-0.0,-1.0,0.0965867819055028,1.0
39.865272521972656,-12.877836227416992,-0.0859472751617431,-0.0,-0.0,-1.0,0.1138555089937845,1.0
39.78144073486328,-12.948261260986328,-0.0791800022125244,-0.0,-0.0,-1.0,0.1241733694169879,2.0
39.95060729980469,-14.032733917236328,-0.0854750871658325,-0.0,-0.0,-1.0,0.1606274768765453,1.0
40.298736572265625,-14.01289176940918,-0.1118494272232055,-0.0,-0.0,-1.0,0.177443384747216,2.0
41.08116149902344,-12.68446159362793,-0.1793971061706543,-0.0,-0.0,-1.0,0.1298725898402341,1.0
41.630165100097656,-12.964599609375,-0.2193570137023925,-0.0,-0.0,-1.0,0.2157165983511466,1.0
39.78187561035156,-12.978752136230469,-0.0775696039199829,-0.0,-0.0,-1.0,0.124173369416988,2.0
39.754730224609375,-13.11821174621582,-0.075382113456726,-0.0,-0.0,-1.0,0.097160791664605,1.0
39.92948913574219,-14.212379455566406,-0.0859204530715942,-0.0,-0.0,-1.0,0.2321506761036394,1.0
40.075340270996094,-14.213214874267578,-0.0962660312652587,-0.0,-0.0,-1.0,0.1640110116129187,2.0
40.312347412109375,-14.06315803527832,-0.1133557558059692,-0.0,-0.0,-1.0,0.2449158521971991,1.0
41.10315704345703,-12.81399917602539,-0.1722917556762695,-0.0,-0.0,-1.0,0.174555901560424,1.0
41.187469482421875,-13.07878303527832,-0.1777420043945312,-0.0,-0.0,-1.0,0.1395280911311368,2.0
41.53033447265625,-13.03696632385254,-0.2024117708206176,-0.0,-0.0,-1.0,0.1928505512386024,1.0
39.84259796142578,-14.21047592163086,-0.1816568374633789,-0.0,-0.0,-1.0,0.207802644207921,1.0
40.18909454345703,-14.204885482788086,-0.2072776556015014,-0.0495678864361708,-0.4668863481261294,-0.8829270426075404,0.1946288205250086,3.0
40.54729080200195,-14.01938247680664,-0.2339808940887451,-0.0,-0.0,-1.0,0.1597124660555298,2.0
41.275413513183594,-13.133644104003906,-0.2900081872940063,-0.1993703073342045,0.4865799948367669,-0.8505829701905139,0.1970776675525078,3.0
41.35919189453125,-13.573997497558594,-0.2955280542373657,-0.0,-0.0,-1.0,0.1857784889441054,1.0
41.453243255615234,-13.001049041748049,-0.3038234710693359,-0.0,-0.0,-1.0,0.1179457243191859,1.0
39.83807373046875,-14.150472640991213,0.1946080923080444,-0.0,-0.0,-1.0,0.2197007799794132,2.0
40.711151123046875,-13.62612533569336,0.097808837890625,-0.0,-0.0,-1.0,0.194401927956239,1.0
39.72809600830078,-14.207358360290527,0.3736164569854736,-0.7048459146501905,-0.6531066518737838,-0.2768464156877455,0.0810307542845357,3.0
39.735103607177734,-14.19936180114746,0.336910605430603,-0.7048459146501905,-0.6531066518737838,-0.2768464156877455,0.0810307542845357,3.0
41.29483795166016,-14.136696815490724,-0.2898122072219848,-0.0,-0.0,-1.0,0.1041999293224966,1.0
40.84998321533203,-13.755045890808104,-0.2742503881454468,-0.2187685875832916,0.9315626765134594,0.2903984931329563,0.0998663354069869,4.0
41.231651306152344,-13.755070686340332,-0.2585004568099975,-0.0,-0.0,-1.0,0.0756540673567803,1.0
41.64490509033203,-13.178034782409668,-0.1923307180404663,-0.1032318056147985,-0.1860549382348809,-0.9771011996041776,0.2255039774424146,4.0
40.61621856689453,-13.714621543884276,-0.2806230783462524,-0.0,-0.0,-1.0,0.2110699760532473,2.0
41.14427185058594,-13.430253028869627,-0.233301043510437,-0.0171998080234259,0.2544360537460207,-0.9669366376128838,0.1505157150206305,3.0
41.477081298828125,-13.17360782623291,-0.1981114149093628,-0.0,-0.0,-1.0,0.1890686221930567,2.0
39.84125900268555,-12.827149391174316,-0.2342461347579956,-0.0,-0.0,-1.0,0.1263183614496368,2.0
39.94416046142578,-14.31264591217041,-0.1591428518295288,-0.0,-0.0,-1.0,0.1671807898442865,2.0
40.29391098022461,-14.074788093566896,-0.1750593185424804,-0.4345948733562705,-0.3925336063913113,-0.8105829161201699,0.2098105643405863,4.0
40.363792419433594,-13.79441738128662,-0.1721336841583252,-0.0,-0.0,-1.0,0.2225846238210533,1.0
40.74756622314453,-13.84394359588623,-0.1985800266265869,-0.0,-0.0,-1.0,0.1198373057949028,2.0
39.73143768310547,-13.472525596618652,-0.1227530241012573,-0.0,-0.0,-1.0,0.0644803103299087,1.0
40.44729232788086,-13.664719581604004,-0.1741650104522705,-0.0,-0.0,-1.0,0.2137231336190316,1.0
41.29826736450195,-13.199334144592283,-0.219226598739624,-0.0,-0.0,-1.0,0.2321044211471827,2.0
41.541778564453125,-13.157721519470217,-0.2349203824996948,0.8848436563890748,-0.2199309408252551,-0.4107092463236383,0.1533115862782196,4.0
39.863914489746094,-14.32821559906006,-0.0292950868606567,-0.0,-0.0,-1.0,0.1661171091602788,2.0
40.1953239440918,-14.191039085388184,-0.0421837568283081,0.0906664082688953,-0.9958811904407086,0.0005068905354255,0.1171530094705582,5.0
40.3212890625,-13.911944389343262,-0.0398650169372558,-0.0,-0.0,-1.0,0.1986926597712434,1.0
41.3193244934082,-13.416176795959473,-0.0795958042144775,-0.0,-0.0,-1.0,0.1055311369188469,2.0
41.50528717041016,-13.291504859924316,-0.0864917039871215,-0.0,-0.0,-1.0,0.1269202694813975,2.0
40.20143127441406,-14.186774253845217,-0.0907825231552124,0.9756552950051997,0.2059656231867293,-0.0753319812139506,0.2063408560160924,5.0
40.27762222290039,-13.886101722717283,-0.0842757225036621,-0.0,-0.0,-1.0,0.2396756828977064,1.0
40.34394836425781,-13.813862800598145,-0.0854400396347045,-0.0,-0.0,-1.0,0.1847871411864081,2.0
41.31584167480469,-13.212912559509276,-0.1211903095245361,0.9525000684262598,-0.1239796071845541,-0.278159444654201,0.1382815885949204,3.0
40.96308898925781,-12.820374488830566,-0.0866360664367675,-0.0,-0.0,-1.0,0.1914279706248187,1.0
39.74052047729492,-14.241459846496582,-0.0340230464935302,-0.0,-0.0,-1.0,0.2619838788326157,1.0
39.858436584472656,-14.330977439880373,-0.0426188707351684,-0.0,-0.0,-1.0,0.1400012260218102,2.0
40.13458251953125,-14.190608024597168,-0.0481759309768676,0.7368471362021667,-0.3780535800876607,0.5604746099990333,0.1601069453012995,3.0
40.31776428222656,-14.055163383483888,-0.0502831935882568,-0.0,-0.0,-1.0,0.1962870856427356,1.0
41.15737533569336,-14.348586082458496,-0.0992156267166137,-0.0,-0.0,-1.0,0.0703781957804151,1.0
40.43734359741211,-13.84591007232666,-0.0467221736907959,-0.6125975629421173,0.5432001463239519,-0.5741583639650438,0.1636877306380414,3.0
41.693565368652344,-13.17660427093506,-0.076899766921997,-0.0,-0.0,-1.0,0.1469224981489708,1.0
39.958953857421875,-14.204940795898438,-0.0072951316833496,-0.0,-0.0,-1.0,0.2785478886392989,2.0
40.23298645019531,-14.180099487304688,-0.0181207656860351,0.479694445653703,0.2180212796356423,-0.8499176197932498,0.160887054915028,3.0
40.346954345703125,-13.953516006469728,-0.01381516456604,-0.0,-0.0,-1.0,0.2207457184667297,2.0
41.7010383605957,-13.32620620727539,-0.0521130561828613,-0.0,-0.0,-1.0,0.1769260249947368,1.0
40.933563232421875,-12.88687515258789,0.0026214122772216,-0.0,-0.0,-1.0,0.144046107635616,1.0
40.335296630859375,-13.886030197143556,-0.3086847066879272,-0.0,-0.0,-1.0,0.2129341995521063,1.0
40.72589492797851,-13.702762603759766,-0.3137053251266479,-0.0,-0.0,-1.0,0.0999573147149817,2.0
40.96843719482422,-13.800640106201172,-0.3291383981704712,-0.0,-0.0,-1.0,0.0782526194589153,1.0
39.744850158691406,-12.953750610351562,-0.2325137853622436,-0.0,-0.0,-1.0,0.143453547137805,2.0
41.3365478515625,-13.279052734375,-0.3151233196258545,-0.0,-0.0,-1.0,0.1999390768733121,2.0
41.466854095458984,-13.142364501953123,-0.3130536079406738,-0.0266252297782779,0.78936123092526,-0.613351403561949,0.1958512261408454,3.0
39.91188430786133,-12.81380844116211,-0.2307926416397094,-0.0,-0.0,-1.0,0.1130643160944701,1.0
39.85138702392578,-14.251047134399414,0.0122091770172119,0.2799549798245982,0.3535255893729329,-0.8925496439582108,0.2712974220494754,3.0
40.10248947143555,-14.237577438354492,0.0054527521133422,-0.0,-0.0,-1.0,0.189309359345058,2.0
40.41250228881836,-14.10312271118164,0.0025162696838378,-0.0,-0.0,-1.0,0.1752915032415251,1.0
39.91603088378906,-14.191299438476562,-0.0360544919967651,0.3814185939568347,-0.2795448539427089,-0.8811211782826134,0.1987438753092191,3.0
40.19482421875,-14.178205490112305,-0.0391737222671508,0.2070391133150073,-0.9698111502176564,-0.1288454053167638,0.1177126314794866,4.0
40.406532287597656,-13.857515335083008,-0.0248275995254516,-0.0,-0.0,-1.0,0.1813798393086321,2.0
39.75907516479492,-14.197891235351562,0.0171595811843872,0.9399429935636076,-0.3394147455810223,0.0361220062130261,0.2598143960237235,3.0
39.881954193115234,-14.179351806640623,0.0178301334381103,-0.0,-0.0,-1.0,0.2721511064547341,1.0
40.04356002807617,-14.126091003417969,0.0202243328094482,-0.0,-0.0,-1.0,0.2553067315278448,1.0
40.273681640625,-13.79009246826172,0.0375800132751464,0.258400932070238,0.0595158893865527,-0.96420268471715,0.1375892679585253,3.0
40.83106231689453,-12.769559860229492,0.0900025367736816,-0.0,-0.0,-1.0,0.1365561627817172,2.0
40.195899963378906,-14.179034233093262,-0.0827918052673339,0.888018885737763,0.4552864513473666,0.064317227805498,0.2214574093521207,5.0
40.59221649169922,-14.127280235290527,-0.0849618911743164,-0.0,-0.0,-1.0,0.1218570522762149,1.0
39.951904296875,-14.155085563659668,-0.0784088373184204,-0.0,-0.0,-1.0,0.1831852465204004,1.0
40.35464096069336,-13.836987495422363,-0.065039038658142,-0.0,-0.0,-1.0,0.2174954168131144,2.0
40.51054000854492,-14.090161323547363,-0.0817238092422485,-0.0,-0.0,-1.0,0.1579741967196598,1.0
40.07721328735352,-12.58433437347412,0.0109890699386596,-0.0,-0.0,-1.0,0.2610919687863559,2.0
41.67766952514648,-13.426833152770996,-0.0607452392578125,-0.0,-0.0,-1.0,0.1737417208248993,2.0
39.7691764831543,-14.170018196105955,0.016214370727539,0.9399429935636076,-0.3394147455810223,0.0361220062130261,0.2653916250855411,3.0
39.96495819091797,-14.170632362365724,0.0158387422561645,0.7069968280259245,-0.5098254762988934,0.4901361738107974,0.2395122085962732,4.0
40.2694091796875,-13.759373664855955,0.0383311510086059,-0.0,-0.0,-1.0,0.2605159328400956,2.0
39.82936096191406,-14.218425750732422,0.018221378326416,-0.0,-0.0,-1.0,0.2741189334858379,2.0
40.26006317138672,-13.981241226196287,0.0079554319381713,-0.0,-0.0,-1.0,0.2149940711276115,1.0
40.09099578857422,-14.164918899536133,0.0069973468780517,-0.0,-0.0,-1.0,0.2334129580949281,1.0
40.16827392578125,-12.592798233032228,0.0901983976364135,-0.0,-0.0,-1.0,0.2617497746390332,1.0
40.42091369628906,-13.753978729248049,0.0116926431655883,-0.0,-0.0,-1.0,0.1971874184310647,1.0
40.5855712890625,-14.149093627929688,-0.0194067955017089,-0.0,-0.0,-1.0,0.1342626407218627,1.0
40.84253692626953,-12.812986373901367,0.040191650390625,-0.0,-0.0,-1.0,0.1327104894812003,2.0
41.633644104003906,-13.351652145385742,-0.0352246761322021,-0.0,-0.0,-1.0,0.1761150597116543,1.0
41.5322151184082,-13.41230010986328,-0.0326354503631591,-0.0,-0.0,-1.0,0.111810409791078,2.0
39.87939453125,-14.238563537597656,0.0259385108947753,0.483848646170421,-0.1344853442640563,-0.864756717104429,0.2789897130126444,3.0
39.84092712402344,-14.341312408447266,0.0227818489074707,-0.0,-0.0,-1.0,0.1579452523998052,1.0
40.37274932861328,-13.884931564331056,0.014176607131958,-0.0,-0.0,-1.0,0.123560522723538,1.0
40.128944396972656,-14.304533004760742,0.0068399906158447,-0.0,-0.0,-1.0,0.1454433739277999,2.0
41.557472229003906,-12.514148712158203,0.0107055902481079,-0.0,-0.0,-1.0,0.1582455134290396,1.0
41.6353874206543,-13.45891571044922,-0.0450401306152343,-0.0,-0.0,-1.0,0.1207258942338725,1.0
39.776607513427734,-14.27263069152832,0.107580542564392,-0.0,-0.0,-1.0,0.2026626656914382,2.0
40.01870346069336,-14.251646041870115,0.0951757431030273,-0.1781822851556729,0.8997096625879645,-0.3984640464365063,0.1980749306433496,3.0
40.3054313659668,-13.73078727722168,0.107207179069519,-0.0,-0.0,-1.0,0.1350286343340385,2.0
39.724361419677734,-14.318157196044922,0.0830709934234619,-0.0,-0.0,-1.0,0.1838919773199552,1.0
40.04801559448242,-14.256231307983398,0.0717148780822753,-0.0,-0.0,-1.0,0.2359812636044545,2.0
39.788543701171875,-14.343692779541016,-0.0851761102676391,-0.0,-0.0,-1.0,0.1402295117791259,1.0
39.9736442565918,-14.256290435791016,-0.0885833501815795,0.7883567318216045,0.3027618122077984,-0.5355641403792907,0.2315700485397566,3.0
40.03007507324219,-14.320507049560549,-0.0963832139968872,0.3217497899615203,0.9442299551013752,0.0700490153319263,0.1862124550346906,3.0
40.20405197143555,-12.682954788208008,0.015126347541809,-0.0,-0.0,-1.0,0.1663219183379118,2.0
40.18292236328125,-12.751083374023438,0.0112522840499877,-0.0,-0.0,-1.0,0.156280608395191,2.0
40.411319732666016,-14.118083953857422,-0.1024200916290283,-0.0,-0.0,-1.0,0.1939331044398216,2.0
40.4965705871582,-14.321737289428713,-0.122196078300476,-0.0,-0.0,-1.0,0.1256919627048772,1.0
41.28101348876953,-13.43170928955078,-0.1027337312698364,0.4231185829047706,-0.5637464149973648,-0.7093381734957439,0.1036067530733061,4.0
41.34514236450195,-12.444494247436523,-0.0345444679260253,-0.0,-0.0,-1.0,0.0983670079931571,2.0
41.566131591796875,-13.268863677978516,-0.1084527969360351,-0.0,-0.0,-1.0,0.0670417027279769,2.0
39.9110221862793,-12.730585098266602,-0.3145149946212768,-0.0,-0.0,-1.0,0.1208903121818331,1.0
40.33916473388672,-12.909713745117188,-0.353056788444519,-0.0,-0.0,-1.0,0.0457684413816801,1.0
40.29393768310547,-13.18230438232422,-0.3794636726379394,-0.0,-0.0,-1.0,0.041036834950952,2.0
41.58032989501953,-12.645648956298828,-0.3910681009292602,-0.0,-0.0,-1.0,0.102315934613071,1.0
41.69038391113281,-12.390382766723633,-0.3711525201797485,-0.0,-0.0,-1.0,0.1606241694234834,1.0
41.67882537841797,-12.743139266967772,-0.4068753719329834,-0.0,-0.0,-1.0,0.0905123999172817,1.0
40.22023391723633,-13.979581832885742,0.1100771427154541,-0.0,-0.0,-1.0,0.1236449430578565,1.0
39.90533447265625,-14.282772064208984,-0.1231524944305419,0.7668532266299102,-0.4973578406852958,-0.4056738925740175,0.1959800806149532,5.0
40.134674072265625,-12.747498512268066,0.0024768114089965,-0.0,-0.0,-1.0,0.1507000581439412,2.0
40.23655700683594,-14.073838233947754,-0.1226277351379394,-0.0,-0.0,-1.0,0.202048275927069,2.0
40.19224166870117,-14.204463005065918,-0.1318546533584594,0.7925969100224317,0.4752429323663957,-0.3820134728758699,0.1952344617543972,3.0
40.52690505981445,-13.893189430236816,-0.1229091882705688,-0.0,-0.0,-1.0,0.1729495752864424,1.0
41.52601623535156,-13.182193756103516,-0.1203320026397705,-0.0,-0.0,-1.0,0.1598650455546683,2.0
41.26058197021485,-13.276593208312988,-0.1118955612182617,0.6790458520827801,0.721572593666832,-0.1350174908598588,0.1732973474514458,4.0
41.58207702636719,-13.210546493530272,-0.1264694929122924,-0.0,-0.0,-1.0,0.1291706758286588,1.0
40.172325134277344,-12.63380241394043,0.0106184482574462,-0.0,-0.0,-1.0,0.1663219183379118,2.0
41.34357070922851,-12.40593433380127,-0.0395338535308837,-0.0,-0.0,-1.0,0.0839686425103126,2.0
39.779781341552734,-14.19705867767334,-0.3396403789520263,-0.0,-0.0,-1.0,0.1274251156111258,1.0
40.36344909667969,-13.786943435668944,-0.3068636655807495,0.3355660014739285,0.1413166563044892,-0.9313565704421252,0.1809419947598141,6.0
40.14473342895508,-14.094680786132812,-0.3362363576889038,-0.0,-0.0,-1.0,0.1684052671792861,2.0
40.5851936340332,-13.76248550415039,-0.3101755380630493,-0.0,-0.0,-1.0,0.1229554693604947,1.0
41.184871673583984,-13.429804801940918,-0.2912399768829345,-0.0802745920790281,-0.510191846382475,-0.8563061775739953,0.1499170041859888,3.0
40.98102951049805,-13.681170463562012,-0.3129364252090454,-0.0,-0.0,-1.0,0.0782193513592125,2.0
41.48883056640625,-13.130273818969728,-0.2684519290924072,-0.1638509387864146,-0.6773671341410857,-0.7171656959478078,0.1992897707193131,4.0
41.40480422973633,-13.2234525680542,-0.2758775949478149,-0.0,-0.0,-1.0,0.1467923741354072,1.0
39.9445915222168,-12.824872016906738,-0.1875209808349609,-0.0,-0.0,-1.0,0.1301830279901,2.0
39.791744232177734,-12.967008590698242,-0.200250506401062,-0.0,-0.0,-1.0,0.143453547137805,1.0
39.89221954345703,-14.319540023803713,0.147925853729248,-0.0,-0.0,-1.0,0.1288551599132437,1.0
40.175926208496094,-12.666412353515623,-0.1751563549041748,-0.0,-0.0,-1.0,0.1360590734021812,1.0
40.1595344543457,-13.894815444946287,0.1756887435913086,-0.0,-0.0,-1.0,0.0951392080683343,1.0
41.6053466796875,-12.544123649597168,-0.2074900865554809,-0.0,-0.0,-1.0,0.1292258274429938,1.0
39.81453704833984,-14.237200736999512,-0.2873226404190063,-0.0,-0.0,-1.0,0.1269905611246421,1.0
40.254425048828125,-13.928647994995115,-0.2625273466110229,-0.0,-0.0,-1.0,0.164404793821879,2.0
40.13269805908203,-14.22146987915039,-0.2929708957672119,-0.0,-0.0,-1.0,0.1650546661055318,2.0
40.68290328979492,-13.796372413635254,-0.2594612836837768,-0.0,-0.0,-1.0,0.1280257928964409,1.0
40.542579650878906,-13.923758506774902,-0.2698551416397095,-0.0,-0.0,-1.0,0.2064076833732645,1.0
41.07628631591797,-14.244961738586426,-0.3231086730957031,-0.0,-0.0,-1.0,0.0826388748197884,1.0
40.13438034057617,-12.690142631530762,-0.1172400712966919,-0.0,-0.0,-1.0,0.1595469630483789,1.0
40.82963562011719,-12.90013599395752,-0.1617544889450073,-0.0,-0.0,-1.0,0.1888285856315118,1.0
41.405494689941406,-13.166374206542969,-0.2123806476593017,-0.0,-0.0,-1.0,0.1791696586641926,1.0
41.244346618652344,-13.273635864257812,-0.2185707092285156,-0.0,-0.0,-1.0,0.1706436172905066,1.0
41.546634674072266,-13.186969757080078,-0.2201567888259887,-0.0,-0.0,-1.0,0.1277801336212518,2.0
41.57784652709961,-13.22878646850586,-0.22615647315979,-0.0,-0.0,-1.0,0.131881740315196,1.0
40.259952545166016,-13.697709083557127,0.2240393161773681,-0.0,-0.0,-1.0,0.1239671321257205,1.0
40.176231384277344,-14.303768157958984,0.1776500940322876,-0.0,-0.0,-1.0,0.2071461351002831,1.0
40.78815460205078,-12.88125991821289,0.2755675315856933,-0.0,-0.0,-1.0,0.1717544797612618,1.0
39.85421371459961,-12.910551071166992,-0.2400565147399902,-0.0,-0.0,-1.0,0.1502264614149103,2.0
40.41938781738281,-13.262136459350586,-0.3086913824081421,-0.0,-0.0,-1.0,0.0653272063248351,1.0
40.17099380493164,-13.72045612335205,-0.3563981056213379,-0.0,-0.0,-1.0,0.1917134447901178,1.0
40.85483169555664,-12.84755516052246,-0.2766555547714233,-0.0,-0.0,-1.0,0.2362210644990107,1.0
40.63408279418945,-13.469258308410645,-0.3448549509048462,-0.0,-0.0,-1.0,0.0992047613238914,1.0
40.36003112792969,-13.655961990356444,-0.356228232383728,-0.0,-0.0,-1.0,0.199600749849278,1.0
41.48969650268555,-13.061131477355955,-0.3370140790939331,-0.0,-0.0,-1.0,0.1359966052587471,2.0
41.34983444213867,-13.213420867919922,-0.3484678268432617,-0.0,-0.0,-1.0,0.1214552373101854,1.0
40.92494201660156,-13.602506637573242,-0.3756299018859863,-0.0,-0.0,-1.0,0.0446699294573606,1.0
39.90143966674805,-14.277762413024902,0.0443693399429321,-0.0,-0.0,-1.0,0.2248711754932392,2.0
40.94956588745117,-12.85986614227295,0.133765697479248,-0.0,-0.0,-1.0,0.200875998638858,1.0
40.86693572998047,-12.865289688110352,0.1368733644485473,-0.0,-0.0,-1.0,0.1717544797612618,2.0
40.443058013916016,-13.72346305847168,0.0754203796386718,0.3766236580646834,-0.284454265803826,-0.8816123812946272,0.1432537638500191,3.0
40.10792922973633,-14.289756774902344,0.0358080863952636,0.4327681563742508,0.8905228831537936,-0.1402879802687548,0.1589068042868512,3.0
41.597076416015625,-12.429179191589355,0.1427928209304809,-0.0,-0.0,-1.0,0.1701876881684936,1.0
40.476898193359375,-14.32390022277832,0.018702745437622,-0.0,-0.0,-1.0,0.1321412264810064,1.0
40.187965393066406,-12.72231674194336,-0.1804267168045044,-0.0,-0.0,-1.0,0.1315249256337219,1.0
39.85437774658203,-12.892112731933594,-0.1839332580566406,-0.0,-0.0,-1.0,0.1388189813691602,2.0
39.750919342041016,-13.089410781860352,-0.2038313150405883,-0.0,-0.0,-1.0,0.1426782724210946,1.0
40.77464294433594,-12.607467651367188,-0.2009439468383789,-0.0,-0.0,-1.0,0.2162122283607888,1.0
40.82353591918945,-12.964967727661133,-0.2489163875579834,-0.0,-0.0,-1.0,0.1678399017616705,1.0
40.34622573852539,-13.77569580078125,-0.3231425285339355,0.4147250015517941,0.0706125359448106,-0.9072028675303596,0.1754252698449522,4.0
40.2020378112793,-13.971929550170898,-0.340232253074646,-0.0,-0.0,-1.0,0.2346013640398448,1.0
39.886260986328125,-14.032407760620115,-0.331328272819519,-0.0,-0.0,-1.0,0.2478596489130596,1.0
41.629737854003906,-12.572681427001951,-0.2544363737106323,-0.0,-0.0,-1.0,0.14862139125084,1.0
40.961429595947266,-13.70244026184082,-0.3502212762832641,-0.0,-0.0,-1.0,0.0796630491155229,2.0
40.652976989746094,-13.726869583129885,-0.3347083330154419,-0.8659484217072492,-0.3625159398696312,0.3445511925435202,0.1415594364301609,3.0
41.68452835083008,-13.253145217895508,-0.3421688079833984,-0.0,-0.0,-1.0,0.147898892774701,1.0
41.44674301147461,-13.213981628417969,-0.3208802938461303,-0.0,-0.0,-1.0,0.204548994322445,2.0
41.19736099243164,-13.46342658996582,-0.3352706432342529,-0.0,-0.0,-1.0,0.1395609478031985,1.0
40.808650970458984,-12.862556457519531,0.1540226936340332,-0.0,-0.0,-1.0,0.1717544797612617,2.0
40.31374740600586,-13.766284942626951,0.0964707136154174,-0.0,-0.0,-1.0,0.1397505635604208,2.0
40.25504302978515,-13.906539916992188,0.0863649845123291,-0.0,-0.0,-1.0,0.1036182363475033,1.0
39.94884490966797,-14.279821395874023,0.0661346912384033,-0.3449590165075166,-0.7364587737109709,-0.5819207433614126,0.2218797483930842,3.0
41.54237747192383,-12.520746231079102,0.1430238485336303,-0.0,-0.0,-1.0,0.2296348024621048,1.0
41.44490432739258,-12.719108581542969,0.131040334701538,-0.0,-0.0,-1.0,0.1519185291099273,1.0
40.510623931884766,-13.713518142700195,0.0915496349334716,-0.0,-0.0,-1.0,0.1054853089887924,1.0
40.04436492919922,-12.728879928588867,-0.3430126905441284,-0.0,-0.0,-1.0,0.1510700794246985,1.0
40.64642333984375,-12.539554595947266,-0.3500025272369385,-0.0,-0.0,-1.0,0.0985198107542854,1.0
40.272064208984375,-12.812442779541016,-0.3686435222625732,-0.0,-0.0,-1.0,0.0729367014610914,1.0
40.67462921142578,-12.781274795532228,-0.3883411884307861,-0.0,-0.0,-1.0,0.1030120414008591,1.0
40.47416687011719,-12.89983367919922,-0.393808364868164,-0.0,-0.0,-1.0,0.0441938132783099,1.0
39.9563102722168,-12.623743057250977,-0.142723798751831,-0.0,-0.0,-1.0,0.1951114524130379,1.0
41.048919677734375,-12.96522331237793,-0.0615273714065551,-0.0,-0.0,-1.0,0.2178744517427487,1.0
40.53718566894531,-13.791555404663086,-0.1312812566757202,-0.0,-0.0,-1.0,0.1788003941356389,1.0
40.18732833862305,-14.138763427734377,-0.1560848951339721,0.7067443183412598,-0.5670180564867643,-0.4230874520832785,0.1992208734524683,5.0
39.904518127441406,-14.27043914794922,-0.159752607345581,0.3331157422029671,-0.910431644448686,-0.2452511428781285,0.1846627189899261,4.0
41.542049407958984,-13.180137634277344,-0.1152619123458862,-0.0,-0.0,-1.0,0.1377911944296459,2.0
41.27789688110352,-13.294540405273438,-0.1127057075500488,0.1892045707659418,0.9381222921735486,-0.2900486085612596,0.1760563264002953,5.0
40.69744110107422,-13.938972473144531,-0.156543493270874,-0.0,-0.0,-1.0,0.179606587349572,1.0
40.3484001159668,-14.135515213012695,-0.1630139350891113,-0.0,-0.0,-1.0,0.2465555161253804,1.0
39.74568176269531,-14.234380722045898,0.2588896751403808,-0.0,-0.0,-1.0,0.1260128059696575,1.0
40.37461471557617,-14.02760887145996,-0.3026907444000244,0.9368698758082952,-0.1067150119391186,-0.3329966096370697,0.2128728372970677,3.0
40.36659240722656,-13.745699882507324,0.1303257942199707,-0.0,-0.0,-1.0,0.1274360556761875,2.0
40.51488494873047,-14.20112419128418,0.0796960592269897,-0.0,-0.0,-1.0,0.1166874565053971,1.0
40.273651123046875,-14.244322776794434,0.0766655206680297,0.9913896627146062,-0.1180257047746356,0.0567139284044902,0.0887673434508303,3.0
40.84636688232422,-13.8160982131958,-0.1867625713348388,-0.0,-0.0,-1.0,0.1034511949741231,2.0
40.48994064331055,-13.916547775268556,-0.1883101463317871,-0.2816466194908784,0.5017937240956156,-0.8178497662698286,0.2570338870900384,4.0
41.19645309448242,-14.35521125793457,-0.2671865224838257,-0.0,-0.0,-1.0,0.0719995336632821,1.0
40.53400039672851,-14.183804512023926,-0.2240563631057739,-0.0,-0.0,-1.0,0.1140889119975384,1.0
40.92805480957031,-12.9094820022583,0.2963631153106689,-0.0,-0.0,-1.0,0.2051140909982285,1.0
40.364990234375,-13.631614685058594,0.2377288341522216,-0.0,-0.0,-1.0,0.1127794004764357,1.0
40.634544372558594,-14.348081588745115,0.1642513275146484,-0.0,-0.0,-1.0,0.1207349884844274,1.0
40.127777099609375,-12.519115447998049,-0.0092276334762573,-0.0,-0.0,-1.0,0.2350104354386573,1.0
41.169715881347656,-12.580001831054688,-0.180698275566101,-0.0,-0.0,-1.0,0.1585919147938808,1.0
40.985496520996094,-12.650430679321287,-0.149809718132019,-0.0,-0.0,-1.0,0.1488399433582317,1.0
39.923851013183594,-12.639580726623535,0.0250767469406127,-0.0,-0.0,-1.0,0.1047541172240727,1.0
40.96891021728515,-12.878454208374023,-0.145560622215271,-0.0,-0.0,-1.0,0.1942159038800204,2.0
41.06722640991211,-13.305761337280272,-0.1590883731842041,-0.0,-0.0,-1.0,0.2165962843503963,2.0
40.74941635131836,-13.509824752807615,-0.1056122779846191,-0.0,-0.0,-1.0,0.2122501317186968,1.0
40.894100189208984,-12.682365417480469,0.2644218206405639,-0.0,-0.0,-1.0,0.2144532313698839,1.0
41.00301742553711,-12.827762603759766,0.2534912824630737,-0.0,-0.0,-1.0,0.211055939926483,1.0
41.69117736816406,-13.34910488128662,0.174024224281311,-0.0,-0.0,-1.0,0.1564963553777223,1.0
40.592376708984375,-13.409149169921877,0.3247262239456177,-0.0,-0.0,-1.0,0.18842163749402,1.0
40.1439208984375,-14.149670600891112,-0.1650495529174804,-0.1370019303977946,-0.315776100701969,-0.9388907951901212,0.222831551479948,5.0
40.66683197021485,-13.716507911682127,-0.2449216842651367,-0.0,-0.0,-1.0,0.1464806158743157,2.0
41.224945068359375,-12.941216468811035,-0.3452036380767822,-0.0,-0.0,-1.0,0.1415807048380721,1.0
41.51644134521485,-12.944022178649902,-0.3767793178558349,-0.0,-0.0,-1.0,0.1106772524270562,1.0
41.41607666015625,-13.431883811950684,-0.3413753509521484,-0.0,-0.0,-1.0,0.1485212688420099,1.0
41.03936004638672,-12.723739624023438,0.0644220113754272,-0.0,-0.0,-1.0,0.166346177575107,1.0
40.22698211669922,-14.15737533569336,-0.2322227954864502,-0.0,-0.0,-1.0,0.169741037941574,1.0
40.41252899169922,-13.869901657104492,-0.2399590015411377,-0.0,-0.0,-1.0,0.1522278198752192,2.0
40.8837890625,-12.932741165161133,-0.2585372924804687,-0.0,-0.0,-1.0,0.2176133029360067,2.0
41.196346282958984,-13.534914016723633,-0.2786483764648437,0.3602375773736528,0.743277551688697,-0.5637085851782089,0.2618920336073265,4.0
41.25728225708008,-13.12228012084961,-0.2792575359344482,-0.1993703073342045,0.4865799948367669,-0.8505829701905139,0.2525150172013722,3.0
41.44721221923828,-13.124505996704102,-0.2892177104949951,0.2583230410279528,0.9613032941317649,-0.0957349631299262,0.1871687283830775,6.0
39.96688079833984,-14.322975158691406,-0.1277073621749878,0.797306320817948,-0.0705368171226447,-0.5994390613014421,0.1721861029713888,3.0
40.3997802734375,-13.909387588500977,-0.1702333688735962,-0.0,-0.0,-1.0,0.232415089055862,1.0
40.4818000793457,-13.729742050170898,-0.1801384687423706,-0.0,-0.0,-1.0,0.2794307687106485,1.0
40.705509185791016,-13.79582405090332,-0.1971384286880493,-0.0,-0.0,-1.0,0.1446182417976506,2.0
41.196144104003906,-13.520792007446287,-0.2421115636825561,0.1238663545163083,0.9257979098186812,-0.357148927471721,0.2048927608601094,3.0
41.123348236083984,-13.083227157592772,-0.2441949844360351,-0.0,-0.0,-1.0,0.1653998594443191,2.0
41.527244567871094,-13.157913208007812,-0.275814414024353,0.5471290819975088,0.813228579211353,-0.1982650891772102,0.1632464751783869,3.0
39.98490905761719,-14.339533805847168,-0.0484520196914672,-0.0,-0.0,-1.0,0.1641412882187689,2.0
40.4850959777832,-13.868958473205566,-0.0966476202011108,-0.0,-0.0,-1.0,0.2097766192656777,2.0
41.21932220458984,-13.58431339263916,-0.1610742807388305,-0.0,-0.0,-1.0,0.1517897934151423,2.0
40.990665435791016,-12.992386817932127,-0.1523057222366333,-0.0,-0.0,-1.0,0.2426870977113208,1.0
41.21886444091797,-13.238314628601074,-0.1668134927749633,-0.4685470174556942,-0.3585280534999839,-0.8074164522022609,0.2339502344962645,5.0
41.46031951904297,-13.162270545959473,-0.1877957582473755,-0.0,-0.0,-1.0,0.1806719986276567,2.0
39.72796630859375,-14.154772758483888,0.3702962398529053,-0.0,-0.0,-1.0,0.0813846529829867,1.0
39.7355842590332,-14.212279319763184,0.36616051197052,-0.6163502696069947,-0.7326854855945928,-0.288590236069069,0.0810307542845357,4.0
40.034149169921875,-13.803751945495604,0.4253441095352173,-0.0,-0.0,-1.0,0.0403361891449092,1.0
39.82441711425781,-14.277376174926758,-0.0319488048553466,-0.0,-0.0,-1.0,0.2512310911504004,2.0
40.11605072021485,-14.21295928955078,-0.038888931274414,0.4573260549027477,-0.6370118668722916,-0.6205390889951792,0.1506579645534789,3.0
40.44620513916016,-13.943195343017578,-0.0398439168930053,-0.0,-0.0,-1.0,0.1569320843724584,1.0
40.44476318359375,-14.31702995300293,-0.0532722473144531,-0.0,-0.0,-1.0,0.1264634076968346,1.0
40.993141174316406,-12.884119033813477,-0.0209481716156005,-0.0,-0.0,-1.0,0.1625840638830461,1.0
41.70514678955078,-13.449457168579102,-0.0649609565734863,-0.0,-0.0,-1.0,0.1551120461298878,2.0
39.98616409301758,-14.251294136047363,-0.0673295259475708,0.2959678106012007,-0.1281156826797124,-0.9465671803625154,0.2405727916402112,5.0
39.97037887573242,-14.322999000549316,-0.0679454803466796,0.929412658318904,-0.365878386859347,-0.048219462728139,0.2140768076726031,4.0
40.269439697265625,-14.132437705993652,-0.080593466758728,0.1921815080015498,-0.97868798907655,-0.0723608182620197,0.2420593465203702,3.0
40.62313079833984,-13.744893074035645,-0.0923409461975097,-0.0,-0.0,-1.0,0.1423948495396353,2.0
41.04083251953125,-12.913336753845217,-0.0989352464675903,-0.0,-0.0,-1.0,0.2222157103026432,2.0
41.20543670654297,-13.2788667678833,-0.1155453920364379,-0.6311911330053613,0.6054616410122317,-0.4847823788858092,0.1733552467854254,4.0
41.203975677490234,-13.470707893371582,-0.1193271875381469,-0.0,-0.0,-1.0,0.134594879970457,2.0
41.434539794921875,-13.129246711730955,-0.1254545450210571,-0.0,-0.0,-1.0,0.1668963845470006,2.0
39.91471481323242,-14.272300720214844,-0.0568870306015014,-0.0,-0.0,-1.0,0.2541708787262637,2.0
40.39945983886719,-13.75482177734375,-0.0987778902053833,-0.0,-0.0,-1.0,0.2692337925253817,1.0
40.08141326904297,-14.206485748291016,-0.0710614919662475,0.4612391730116386,0.8232529153863216,-0.330927579067477,0.1424484435272626,3.0
40.59257507324219,-13.834753036499023,-0.1149853467941284,-0.0,-0.0,-1.0,0.1339716181346638,2.0
41.124908447265625,-12.950054168701172,-0.1622325181961059,-0.0,-0.0,-1.0,0.1093830701623216,1.0
41.301307678222656,-13.236684799194336,-0.1765689849853515,-0.0,-0.0,-1.0,0.2055791098257168,2.0
41.262351989746094,-13.55308723449707,-0.1724826097488403,-0.0,-0.0,-1.0,0.1453959291935071,2.0
39.810699462890625,-14.259275436401367,-0.0591733455657959,0.7434720010857543,0.6653273583451086,0.0677413451229308,0.2699771702875908,3.0
40.15355682373047,-14.208955764770508,-0.0854971408843994,0.3029392756393065,-0.78522496420176,0.5400458784857795,0.1927395018506946,3.0
40.56935119628906,-13.715850830078123,-0.1150919198989868,-0.0,-0.0,-1.0,0.1655278896453211,1.0
41.24803161621094,-13.27020263671875,-0.1658647060394287,-0.2786316372955789,-0.4757682990133007,-0.8342715003834038,0.2206089315559046,4.0
41.250396728515625,-13.581482887268066,-0.1676321029663086,-0.1985063602328694,-0.0832383911997648,-0.9765585467229158,0.1850762146068828,3.0
41.627235412597656,-13.146875381469728,-0.1950340270996093,-0.1232002641989371,-0.1549047630921529,-0.9802174295903312,0.1765220024486904,3.0
40.72315216064453,-12.448981285095217,-0.1205674409866333,-0.0,-0.0,-1.0,0.1306781621843002,1.0
40.939849853515625,-12.85428524017334,-0.1395888328552246,0.5103107476638117,0.7270729432511174,-0.4592906226028996,0.1969950990748408,3.0
40.18724822998047,-12.675081253051758,-0.2966352701187134,-0.0,-0.0,-1.0,0.1664089102086038,2.0
40.842681884765625,-12.939886093139648,-0.3525893688201904,-0.0,-0.0,-1.0,0.1428678601181216,1.0
41.28461837768555,-13.008670806884766,-0.3874564170837402,-0.0,-0.0,-1.0,0.0625794777288359,2.0
40.03436279296875,-14.305715560913086,-0.0414910316467285,0.39142702018331,-0.4172507308748488,-0.820174807864043,0.1856160403744596,4.0
40.515167236328125,-13.738856315612791,-0.0840662717819213,-0.0,-0.0,-1.0,0.2362615321563198,1.0
40.35436248779297,-14.192499160766602,-0.0696172714233398,-0.0,-0.0,-1.0,0.2220437659318431,2.0
40.769866943359375,-13.858120918273926,-0.1064016819000244,-0.0,-0.0,-1.0,0.1244243980103367,1.0
41.04780960083008,-12.976892471313477,-0.1319533586502075,-0.0,-0.0,-1.0,0.167692678077071,1.0
41.27189636230469,-13.296042442321776,-0.1513515710830688,0.93951810682883,0.3085854273931654,-0.148595965427561,0.2206089315559046,7.0
41.532413482666016,-13.163895606994627,-0.1746124029159546,-0.0,-0.0,-1.0,0.1971769784475907,1.0
41.70832443237305,-13.155400276184082,-0.1902209520339965,-0.0,-0.0,-1.0,0.1903722414102914,1.0
39.76811981201172,-14.278196334838867,0.0870903730392456,-0.0,-0.0,-1.0,0.2161583628998512,2.0
40.146453857421875,-14.206936836242676,0.0577069520950317,0.9368712513550164,-0.2297597389552295,-0.2635957525069597,0.2561551055693186,3.0
40.87700271606445,-12.833556175231934,0.0401813983917236,-0.0,-0.0,-1.0,0.1499501204220662,2.0
41.637447357177734,-12.589573860168455,-0.0188164710998535,-0.0,-0.0,-1.0,0.1120715940184249,1.0
40.08535385131836,-14.303838729858398,-0.1920167207717895,-0.0,-0.0,-1.0,0.1385445942542524,1.0
40.0610466003418,-12.728019714355469,-0.1275109052658081,-0.0,-0.0,-1.0,0.1554316862659727,1.0
40.26604080200195,-13.96694278717041,-0.196895956993103,-0.0,-0.0,-1.0,0.2123034156507214,1.0
40.30561065673828,-14.173352241516112,-0.2092088460922241,-0.0,-0.0,-1.0,0.196527448140369,1.0
40.838645935058594,-13.799996376037598,-0.249214768409729,-0.019235928587685,0.4803157986014393,-0.8768846632626385,0.102278521582524,3.0
40.94020080566406,-12.577271461486816,-0.2136687040328979,-0.0,-0.0,-1.0,0.2027217296643228,1.0
40.96308898925781,-12.91994571685791,-0.2286878824234008,-0.0,-0.0,-1.0,0.1475241213202859,1.0
41.20121383666992,-13.461636543273926,-0.2738064527511596,-0.0,-0.0,-1.0,0.16414806830416,2.0
41.22321701049805,-13.649850845336914,-0.2832368612289428,-0.0,-0.0,-1.0,0.1719478433038412,1.0
41.33943939208984,-13.303569793701172,-0.2822824716567993,-0.0,-0.0,-1.0,0.2091558362452112,2.0
39.73504638671875,-13.421209335327148,-0.0851894617080688,-0.0,-0.0,-1.0,0.0432966975052621,1.0
39.74689483642578,-14.218243598937988,-0.081795334815979,-0.0,-0.0,-1.0,0.2708170436017563,2.0
40.10577392578125,-14.290630340576172,-0.1299595832824707,-0.0,-0.0,-1.0,0.1594956898501293,2.0
40.25615692138672,-12.68109130859375,-0.1626420021057129,-0.0,-0.0,-1.0,0.1378595546462611,2.0
40.400787353515625,-14.022282600402832,-0.1717280149459839,-0.0,-0.0,-1.0,0.2768256104491706,1.0
40.88575744628906,-13.757018089294434,-0.2399071455001831,-0.3320129236692984,0.8565708231759519,0.3950365089459919,0.1172650225805623,3.0
40.99943161010742,-12.881422996520996,-0.2633093595504761,-0.0,-0.0,-1.0,0.170879924466914,2.0
41.23372650146485,-13.155972480773926,-0.2930101156234741,0.1994751197056031,-0.1128508427180656,-0.9733829482358204,0.219507585606778,4.0
41.252342224121094,-13.552323341369627,-0.2919448614120483,-0.0,-0.0,-1.0,0.1911601709066032,1.0
41.3867301940918,-13.85914134979248,-0.3077617883682251,-0.0,-0.0,-1.0,0.0471300229640237,1.0
41.55876159667969,-13.080889701843262,-0.3386737108230591,0.1900481634668077,-0.607277510903093,-0.7714244747959697,0.1949604237081483,3.0
40.02793884277344,-12.667523384094238,-0.2401816844940185,-0.0,-0.0,-1.0,0.1725476616525801,1.0
39.8416862487793,-12.932435989379885,-0.2241737842559814,-0.0,-0.0,-1.0,0.1505095127579951,2.0
40.37018585205078,-13.819317817687988,-0.3180482387542724,0.2065027295157928,0.2151215629118788,-0.9545047594815218,0.2155429173946844,4.0
40.3694953918457,-14.006244659423828,-0.3239402770996094,-0.0,-0.0,-1.0,0.1893691779316669,2.0
40.50885772705078,-13.176336288452148,-0.3160374164581299,-0.0,-0.0,-1.0,0.0489563995623599,1.0
40.43953323364258,-13.749917984008787,-0.3245790004730224,-0.0,-0.0,-1.0,0.1961633280655197,1.0
40.93509292602539,-12.890217781066896,-0.3624594211578369,-0.0,-0.0,-1.0,0.2549509466991849,2.0
40.84181213378906,-13.014812469482422,-0.3539252281188965,-0.0,-0.0,-1.0,0.2274266031874607,2.0
41.205020904541016,-12.869770050048828,-0.3966045379638672,-0.0,-0.0,-1.0,0.1355484632672363,1.0
40.03008270263672,-14.26904296875,-0.0613607168197631,0.2251643606093672,-0.3481777268160447,-0.9099853192555284,0.1935663988701747,7.0
40.21735000610352,-12.705244064331056,-0.0164614915847778,-0.0,-0.0,-1.0,0.15982664726473,2.0
40.36988067626953,-13.927972793579102,-0.0829890966415405,-0.0,-0.0,-1.0,0.205821640337382,2.0
40.29646301269531,-14.126903533935549,-0.0836731195449829,-0.0,-0.0,-1.0,0.242315092486748,2.0
40.65851974487305,-13.823047637939451,-0.1099327802658081,-0.0,-0.0,-1.0,0.1172763663202341,1.0
41.00993728637695,-12.899277687072754,-0.1120516061782836,-0.1227141477389879,-0.8076919969345857,-0.5766930518330484,0.2014080280456052,3.0
41.19806289672851,-13.305078506469728,-0.1484733819961547,-0.6311911330053613,0.6054616410122317,-0.4847823788858092,0.2394606516782345,4.0
41.25208282470703,-13.648839950561523,-0.1679240465164184,-0.0,-0.0,-1.0,0.1692206362644793,1.0
41.266578674316406,-13.338119506835938,-0.1573075056076049,0.6553247933854625,-0.5808772147865279,-0.4828364904562898,0.169108437738299,5.0
39.89094161987305,-14.159117698669434,-0.0571250915527343,0.8212025938303867,0.5559227904201215,-0.1287484018454226,0.1902565592843002,3.0
40.15093994140625,-12.608004570007324,-0.0270650386810302,-0.0,-0.0,-1.0,0.1663219183379118,2.0
40.417091369628906,-13.682775497436523,-0.0983897447586059,-0.0,-0.0,-1.0,0.1952721285509327,1.0
40.263431549072266,-14.007123947143556,-0.0936646461486816,-0.0,-0.0,-1.0,0.1566324731162496,2.0
40.68256759643555,-13.631266593933104,-0.1273446083068847,-0.0,-0.0,-1.0,0.2409898694964612,1.0
40.5566520690918,-13.852686882019045,-0.1213424205780029,-0.0,-0.0,-1.0,0.155253254285947,2.0
40.97161102294922,-12.761807441711426,-0.1298288106918335,-0.0,-0.0,-1.0,0.202231090743164,1.0
41.271766662597656,-13.310951232910156,-0.1846401691436767,0.9186692726038174,-0.2416471263845277,-0.3124954941813927,0.2541899018893004,4.0
41.33546447753906,-13.148530960083008,-0.1864321231842041,-0.0,-0.0,-1.0,0.1353778828813589,1.0
41.31121826171875,-13.52420425415039,-0.1970493793487548,-0.0,-0.0,-1.0,0.1250390857268847,1.0
39.73857879638672,-14.030961990356444,0.5186474323272705,-0.0,-0.0,-1.0,0.0915022223619401,1.0
40.84194564819336,-12.880094528198242,-0.0343239307403564,-0.0,-0.0,-1.0,0.1483874180041334,2.0
39.78608703613281,-14.13275146484375,0.3997800350189209,-0.0,-0.0,-1.0,0.1358982054691322,1.0
39.71164321899414,-14.302501678466797,0.022395372390747,-0.0,-0.0,-1.0,0.2262930988969126,1.0
40.875762939453125,-13.028586387634276,-0.1224572658538818,-0.0,-0.0,-1.0,0.2720674408431633,1.0
40.25156784057617,-14.138572692871094,-0.0450825691223144,-0.0,-0.0,-1.0,0.1982011502994792,2.0
40.88408279418945,-13.162135124206545,-0.1234643459320068,-0.0,-0.0,-1.0,0.1504328943988288,1.0
41.257957458496094,-13.493483543395996,-0.170525312423706,-0.0,-0.0,-1.0,0.1214499373330667,1.0
41.206268310546875,-13.669066429138184,-0.1642267704010009,-0.0,-0.0,-1.0,0.1669424375551851,1.0
41.57249450683594,-13.77010440826416,-0.2104010581970214,-0.0,-0.0,-1.0,0.0445782115121561,1.0
40.400821685791016,-13.563963890075684,0.1652517318725586,-0.0,-0.0,-1.0,0.1231110795874533,1.0
40.55853271484375,-13.467374801635742,0.1374173164367675,-0.0,-0.0,-1.0,0.1642268234462962,1.0
40.16315460205078,-12.457315444946287,0.0910367965698242,-0.0,-0.0,-1.0,0.2318729191363062,1.0
39.861915588378906,-14.011816024780272,-0.065903902053833,-0.0,-0.0,-1.0,0.1883558212765528,1.0
40.03021240234375,-14.25355625152588,-0.0673975944519043,0.2256494615672891,-0.0876958522158707,-0.970253450392486,0.2205980922208779,5.0
40.282691955566406,-13.835370063781738,-0.1435441970825195,-0.0,-0.0,-1.0,0.2409865476252458,1.0
39.832820892333984,-12.851582527160645,-0.1771192550659179,-0.0,-0.0,-1.0,0.1388189813691602,2.0
40.34087371826172,-13.603713989257812,-0.1742651462554931,-0.0,-0.0,-1.0,0.2108252262875547,1.0
40.64377212524414,-13.701740264892578,-0.2083470821380615,-0.0,-0.0,-1.0,0.1835298569354838,2.0
39.94330596923828,-12.611661911010742,-0.2178535461425781,-0.0,-0.0,-1.0,0.2237461950981352,1.0
41.205596923828125,-13.326654434204102,-0.3256747722625732,0.3587310458115235,-0.9246283479915354,-0.1279627088702595,0.1339950863575409,3.0
40.224178314208984,-12.556999206542969,-0.2634437084197998,-0.0,-0.0,-1.0,0.214154488862415,1.0
40.949501037597656,-12.793073654174805,-0.3423836231231689,-0.0,-0.0,-1.0,0.1207295494961225,1.0
41.198387145996094,-12.982173919677734,-0.3588683605194092,-0.0,-0.0,-1.0,0.1525868673826165,2.0
41.131256103515625,-12.580235481262209,-0.3901214599609375,-0.0,-0.0,-1.0,0.1509089752262927,1.0
39.80890655517578,-13.988615036010742,0.1538240909576416,-0.0,-0.0,-1.0,0.150317692219241,1.0
40.4365234375,-14.29055404663086,0.0962400436401367,-0.0,-0.0,-1.0,0.1105640571621796,1.0
40.01484298706055,-14.007755279541016,0.1278042793273925,-0.0,-0.0,-1.0,0.1956729803630431,1.0
40.255470275878906,-13.713050842285156,0.0682756900787353,-0.0,-0.0,-1.0,0.2345756477860446,1.0
40.389442443847656,-13.62300968170166,0.0418782234191894,-0.0,-0.0,-1.0,0.1868328975965571,1.0
41.33763885498047,-13.29246711730957,-0.1164956092834472,0.0134735274857726,0.1338016124993821,-0.9909165416671856,0.1515804831922327,3.0
41.61629104614258,-13.493209838867188,-0.1352286338806152,-0.0,-0.0,-1.0,0.0930229799237031,1.0
40.04678726196289,-12.5906982421875,-0.012535810470581,-0.0,-0.0,-1.0,0.1390812596304846,2.0
40.89390563964844,-12.778199195861816,-0.1065294742584228,-0.0,-0.0,-1.0,0.1546705606303973,2.0
41.31416320800781,-13.133581161499023,-0.1283750534057617,-0.0,-0.0,-1.0,0.1373747891829186,1.0
40.409629821777344,-13.728702545166016,-0.0440144538879394,-0.0,-0.0,-1.0,0.2260729729741387,1.0
41.24591064453125,-13.330404281616213,-0.2022814750671386,0.0466114410500723,0.6363356595254996,-0.7700027934881037,0.1535463796487166,3.0
40.91168975830078,-12.880233764648438,-0.191882848739624,-0.4970967323309098,-0.2403076800254613,-0.8337547946649017,0.213832220083356,3.0
39.94520950317383,-14.281752586364746,0.0707337856292724,-0.0,-0.0,-1.0,0.2175258156516847,2.0
39.73367691040039,-14.073015213012695,0.0854945182800293,-0.0,-0.0,-1.0,0.1950653869744852,1.0
40.081573486328125,-14.001290321350098,0.027587890625,-0.0,-0.0,-1.0,0.1920861969883504,1.0
40.46398162841797,-13.832816123962402,-0.2752232551574707,-0.0,-0.0,-1.0,0.1937472585880583,1.0
40.522727966308594,-13.623411178588867,-0.303455114364624,-0.0,-0.0,-1.0,0.1661753493045916,1.0
40.675045013427734,-13.389822006225586,-0.3505904674530029,-0.0,-0.0,-1.0,0.0842670687912304,2.0
40.5321159362793,-13.032478332519531,-0.3579723834991455,-0.0,-0.0,-1.0,0.0435452245465091,1.0
40.05400085449219,-12.531495094299316,-0.3230547904968261,-0.0,-0.0,-1.0,0.1820526544986681,1.0
40.467655181884766,-12.454915046691896,-0.4016602039337158,-0.0,-0.0,-1.0,0.0631622031074164,1.0
40.01277542114258,-14.19796085357666,-0.1655359268188476,0.6165225281867064,-0.7872383759825896,0.0124784461599483,0.2554653032365654,3.0
39.7552604675293,-12.90384292602539,-0.2353928089141845,0.1509289867084209,0.8888356022650653,-0.4326565764174487,0.1543145233963634,3.0
39.8623046875,-13.031733512878418,-0.2417671680450439,-0.0,-0.0,-1.0,0.1616616313502386,1.0
39.86389923095703,-12.370140075683594,-0.306422472000122,-0.0,-0.0,-1.0,0.2454201806633631,1.0
40.89069366455078,-12.821638107299805,0.1325769424438476,-0.0,-0.0,-1.0,0.2092072419725515,2.0
41.354736328125,-13.181591987609863,-0.300152063369751,-0.0,-0.0,-1.0,0.2245805588353597,1.0
