x,y,z,nx,ny,nz,curvature,density
22.09225082397461,-31.62871551513672,1.3980669975280762,-0.8138999570349066,0.2650520828584065,-0.5170244223544932,0.0604808892279087,3.0
22.392492294311523,-31.62160301208496,1.390044093132019,0.5785617770563372,-0.7478100161652231,0.3256477389026087,0.0311887107188444,3.0
22.576860427856445,-31.733539581298828,1.3746113777160645,-0.0,-0.0,-1.0,0.0958139399217014,2.0
22.377429962158203,-29.88661193847656,1.5386945009231567,-0.0,-0.0,-1.0,0.1148835565423075,1.0
22.17791748046875,-29.426549911499023,1.1485953330993652,-0.6325576710877159,0.7744140232213951,0.0123981202663181,0.1983914935813712,3.0
22.486507415771484,-29.55155563354492,1.1249520778656006,-0.0,-0.0,-1.0,0.1672015624927028,1.0
21.4143123626709,-31.507404327392575,1.4394235610961914,-0.0,-0.0,-1.0,0.0572425657241291,1.0
21.977237701416016,-31.650346755981445,1.4229875802993774,-0.0,-0.0,-1.0,0.0754796872717404,2.0
22.36369514465332,-31.6309814453125,1.4196701049804688,0.5785617770563372,-0.7478100161652231,0.3256477389026087,0.0322264340288322,3.0
20.89513778686523,-30.578834533691406,1.518784523010254,-0.0,-0.0,-1.0,0.2120867018378947,2.0
22.28802490234375,-29.94533920288086,1.566169261932373,-0.0,-0.0,-1.0,0.1212638849460419,2.0
22.255990982055664,-29.47367286682129,1.1732842922210691,-0.0,-0.0,-1.0,0.1579799601485212,2.0
22.63471794128418,-29.573902130126953,1.1561849117279053,-0.6530533503566436,-0.6148365475562503,-0.4421508129327291,0.1858135675538373,4.0
21.68289375305176,-31.629289627075195,1.9357500076293943,-0.0,-0.0,-1.0,0.0997616418968349,2.0
21.55437469482422,-31.69063186645508,1.3464540243148804,-0.0,-0.0,-1.0,0.0742976269921133,2.0
21.798898696899418,-31.735754013061523,1.3436321020126345,-0.0,-0.0,-1.0,0.1738863410134536,2.0
20.870086669921875,-31.10607147216797,1.3911982774734497,-0.0,-0.0,-1.0,0.1274142409711326,1.0
21.196378707885746,-31.07027053833008,1.3986141681671145,-0.0,-0.0,-1.0,0.0336672987009443,2.0
21.507665634155273,-31.28504180908203,1.3824539184570312,-0.0,-0.0,-1.0,0.0828922666960525,2.0
22.015047073364254,-31.59552001953125,1.356955885887146,-0.0,-0.0,-1.0,0.0679861215209285,2.0
22.27023124694824,-31.522451400756836,1.363619327545166,-0.0,-0.0,-1.0,0.1044721934611249,2.0
20.862934112548828,-30.7479190826416,1.422739028930664,-0.0,-0.0,-1.0,0.2318596100327579,1.0
21.12504196166992,-30.11597442626953,1.4825586080551147,-0.0,-0.0,-1.0,0.1233587324772592,1.0
22.451923370361328,-31.71324157714844,1.855041265487671,-0.0,-0.0,-1.0,0.0755338721258576,2.0
22.615028381347656,-29.682960510253903,1.529740333557129,-0.5513711184727358,-0.4094279903397844,-0.7268828037864494,0.2135641557413896,5.0
22.099058151245117,-30.726049423217773,1.2853864431381226,-0.9920333255389524,0.0380087467604282,-0.1201050215013019,0.0338834710101122,3.0
20.941356658935547,-30.316478729248047,1.318429708480835,-0.0,-0.0,-1.0,0.2375464840908197,2.0
21.485206604003903,-30.247533798217773,1.3304126262664795,-0.0,-0.0,-1.0,0.0677159402309722,2.0
21.71397399902344,-30.38919448852539,1.3178377151489258,0.8558200308932165,0.4870186105958668,0.1743127868379289,0.085878734105689,3.0
21.97636032104492,-30.61357307434082,1.2964839935302734,-0.0,-0.0,-1.0,0.0403938172947893,1.0
21.41643714904785,-30.111177444458008,1.3430180549621582,-0.0,-0.0,-1.0,0.1193035792122153,1.0
20.815265655517575,-30.691957473754883,1.772286295890808,-0.0,-0.0,-1.0,0.2341901390122748,1.0
22.620826721191406,-29.643478393554688,1.3909202814102173,0.2857125225922239,-0.6025575524395732,0.7451796766096207,0.1900638576329635,3.0
22.421884536743164,-29.52831268310547,1.403163194656372,-0.0,-0.0,-1.0,0.2175298579063066,1.0
22.701244354248047,-29.54087257385254,1.400623798370361,-0.0,-0.0,-1.0,0.1517136839158683,1.0
21.801877975463867,-29.8258056640625,1.229468822479248,-0.0,-0.0,-1.0,0.0926764841087065,1.0
22.13486099243164,-29.950031280517575,1.22430682182312,-0.0,-0.0,-1.0,0.1351923752651301,1.0
21.46456527709961,-29.457435607910156,1.2578774690628052,-0.0,-0.0,-1.0,0.1936738074375673,1.0
21.768552780151367,-29.608688354492188,1.251020908355713,-0.0,-0.0,-1.0,0.0667145239800379,1.0
22.042011260986328,-29.64255714416504,1.2543377876281738,-0.0,-0.0,-1.0,0.1070776124039015,1.0
22.56943702697754,-29.660804748535156,1.2629022598266602,-0.0,-0.0,-1.0,0.1408085498046611,2.0
22.266565322875977,-31.81465721130371,1.555866837501526,0.5227554371092881,0.2683225019396723,-0.8091537480142522,0.0296419422848652,3.0
22.557449340820312,-31.8051815032959,1.558189868927002,0.9411842883017272,-0.3203961917439654,-0.1073238825701682,0.107924476443586,4.0
20.75585174560547,-30.727828979492188,1.6109092235565186,-0.0,-0.0,-1.0,0.1593348788879198,2.0
22.332590103149418,-29.424354553222656,1.283396601676941,-0.0,-0.0,-1.0,0.1362740141499825,1.0
22.1470947265625,-31.051815032958984,1.291559100151062,-0.0,-0.0,-1.0,0.0178954183089221,2.0
22.63067054748535,-31.264169692993164,1.2874529361724854,-0.0,-0.0,-1.0,0.0406755332075187,2.0
21.738040924072266,-30.76706314086914,1.3015698194503784,-0.0,-0.0,-1.0,0.0627422272623447,1.0
20.805511474609375,-30.24245834350586,1.304692625999451,-0.0,-0.0,-1.0,0.1873668390831024,1.0
21.17966651916504,-30.22633934020996,1.3235869407653809,-0.0,-0.0,-1.0,0.1013731329874409,2.0
21.5300235748291,-30.279315948486328,1.3343989849090576,0.6935479442327873,0.6479363408690813,0.3149122849805322,0.0685291664746013,3.0
21.730836868286133,-30.461746215820312,1.3272428512573242,-0.0,-0.0,-1.0,0.0802265811962365,1.0
20.869064331054688,-29.74176597595215,1.3480582237243652,-0.0,-0.0,-1.0,0.0590045730091295,2.0
21.781126022338867,-29.932580947875977,1.3739125728607178,-0.0,-0.0,-1.0,0.1130217039318657,2.0
22.49134826660156,-29.59091567993164,1.429694890975952,-0.0,-0.0,-1.0,0.2307701042966637,2.0
22.67200088500977,-31.72855567932129,1.7725772857666016,0.0271895841283472,-0.6087071138186031,-0.7929289855349936,0.0800746598680625,3.0
21.62610244750977,-30.889816284179688,1.297313570976257,0.7490993095659711,0.6304490457478575,-0.2034311311559788,0.0221661688331433,3.0
22.190881729125977,-31.127540588378903,1.304213285446167,-0.0,-0.0,-1.0,0.0227569632771907,1.0
22.56856155395508,-31.32990264892578,1.3032146692276,-0.0,-0.0,-1.0,0.0467724173570388,1.0
20.742454528808594,-30.177757263183594,1.302778720855713,-0.0,-0.0,-1.0,0.1161227937502871,1.0
21.23147773742676,-30.212646484375,1.328084945678711,-0.0,-0.0,-1.0,0.1264794702128107,1.0
21.50469017028809,-30.254676818847656,1.3394967317581177,0.5048405688820217,0.6391138025305503,-0.5802323219416664,0.0748235295956462,3.0
21.717998504638672,-30.403881072998047,1.3391120433807373,-0.0,-0.0,-1.0,0.0824240215810876,2.0
21.777591705322266,-29.887786865234375,1.3813786506652832,-0.0,-0.0,-1.0,0.111076427865873,2.0
22.50640296936035,-29.64785385131836,1.4351457357406616,-0.0,-0.0,-1.0,0.1977324456773465,2.0
22.30861473083496,-31.466590881347656,1.2690844535827637,-0.0,-0.0,-1.0,0.085947730061664,2.0
22.471094131469727,-31.37641334533691,1.2834298610687256,0.3746962254115938,-0.0983683862458368,-0.9219145292540376,0.043429661255825,3.0
21.83884048461914,-31.156991958618164,1.2687965631484983,-0.0,-0.0,-1.0,0.0118706292225938,1.0
22.222938537597656,-31.275070190429688,1.2793631553649902,-0.0,-0.0,-1.0,0.0301309559847197,1.0
22.694644927978516,-31.325469970703125,1.2973449230194092,-0.0,-0.0,-1.0,0.0440408978543478,2.0
21.69333267211914,-30.653831481933594,1.2971200942993164,-0.0,-0.0,-1.0,0.064225301791936,1.0
21.190593719482425,-30.258935928344727,1.295162796974182,0.7705226736472757,0.2833167478324586,-0.5709872413575391,0.0739447976392207,4.0
21.56499481201172,-30.306900024414062,1.3141345977783203,-0.0,-0.0,-1.0,0.0902137433618117,2.0
20.816770553588867,-29.72879409790039,1.3062167167663574,-0.0,-0.0,-1.0,0.0743390220731001,1.0
21.25857162475586,-29.702051162719727,1.3366484642028809,-0.0,-0.0,-1.0,0.0586164856255981,2.0
20.96096420288086,-29.383712768554688,1.3378784656524658,-0.0,-0.0,-1.0,0.0979672033439131,1.0
22.51491928100586,-29.521228790283203,1.4227412939071655,-0.0,-0.0,-1.0,0.2404843248920021,1.0
20.99873161315918,-31.09232521057129,1.7791575193405151,-0.0,-0.0,-1.0,0.0916264284071119,1.0
21.500946044921875,-31.827388763427734,1.2750954627990725,-0.0,-0.0,-1.0,0.0482457796683853,2.0
21.80226707458496,-31.74744033813477,1.2961480617523191,-0.0,-0.0,-1.0,0.1032127886239291,2.0
21.566818237304688,-31.231157302856445,1.3163872957229614,-0.0,-0.0,-1.0,0.0474778286217708,1.0
22.024457931518555,-31.598676681518555,1.3171851634979248,-0.6211283381362868,-0.7790704254560136,-0.0851402357516145,0.1056020447007742,3.0
22.31540298461914,-31.501192092895508,1.3380342721939087,0.8733164002149476,0.0451914906282734,-0.4850527747476559,0.0838251620850812,3.0
22.6915225982666,-31.49004364013672,1.3566182851791382,-0.0,-0.0,-1.0,0.0379791058980106,2.0
21.214797973632812,-30.919673919677734,1.3151071071624756,-0.0,-0.0,-1.0,0.0349161796037548,1.0
21.580368041992188,-30.907154083251953,1.3372244834899902,-0.0,-0.0,-1.0,0.0244864308811826,2.0
20.54410171508789,-30.448217391967773,1.3001071214675903,-0.0,-0.0,-1.0,0.0324723533163431,1.0
20.972991943359375,-30.54887008666992,1.3222253322601318,-0.0,-0.0,-1.0,0.1818946526845518,1.0
21.25645446777344,-30.611846923828125,1.3359439373016355,-0.0,-0.0,-1.0,0.099646098285934,1.0
20.563697814941406,-30.235061645507812,1.3132786750793457,-0.0,-0.0,-1.0,0.0589763113168539,2.0
20.89661407470703,-29.625675201416016,1.368775725364685,-0.0,-0.0,-1.0,0.0922935608345353,1.0
21.345932006835938,-29.839258193969727,1.3864781856536863,-0.0,-0.0,-1.0,0.0909356203170952,1.0
22.70542335510254,-29.65171813964844,1.4780863523483276,-0.0,-0.0,-1.0,0.2001848629562352,2.0
21.67143440246582,-31.861251831054688,1.309559941291809,-0.0,-0.0,-1.0,0.093773842303593,1.0
21.60123062133789,-31.203277587890625,1.3418883085250854,-0.0,-0.0,-1.0,0.0637925413837475,1.0
21.694820404052734,-31.37091636657715,1.3382446765899658,-0.0,-0.0,-1.0,0.0881715643896502,1.0
22.21588134765625,-31.558822631835938,1.3572814464569092,0.4131782515302606,-0.772285937555519,-0.4825537929768965,0.1052008612732852,3.0
22.646900177001953,-31.505504608154297,1.3833420276641846,-0.0,-0.0,-1.0,0.0400616254281098,1.0
21.418155670166016,-30.9256591796875,1.3453974723815918,-0.0,-0.0,-1.0,0.0379790455049696,1.0
20.74878692626953,-30.3692626953125,1.3288089036941528,-0.0,-0.0,-1.0,0.1184500623184486,1.0
21.164756774902344,-30.520925521850582,1.3497095108032229,-0.0,-0.0,-1.0,0.1354183306594033,1.0
21.38141632080078,-30.698509216308594,1.354880452156067,-0.0,-0.0,-1.0,0.0538032253221911,1.0
20.51498031616211,-30.213603973388672,1.3196196556091309,-0.0,-0.0,-1.0,0.0459760455625774,1.0
20.572132110595703,-30.233531951904297,1.3227859735488892,-0.0,-0.0,-1.0,0.0589763113168538,2.0
21.24019241333008,-29.93890380859375,1.3832786083221436,-0.0,-0.0,-1.0,0.1726840326964367,1.0
20.82586669921875,-29.675270080566406,1.3662676811218262,-0.0,-0.0,-1.0,0.1085309091823594,1.0
21.39915657043457,-29.91368103027344,1.3953354358673096,-0.0,-0.0,-1.0,0.1137115371069706,1.0
20.85802841186523,-29.4713134765625,1.3776711225509644,-0.0,-0.0,-1.0,0.0996907685404289,1.0
22.543846130371097,-30.59756088256836,1.2947752475738523,-0.0,-0.0,-1.0,0.0314732519991673,1.0
21.541603088378903,-29.868179321289062,1.2883563041687012,-0.0,-0.0,-1.0,0.0747415603007015,1.0
21.80150032043457,-30.074338912963867,1.2900196313858032,-0.0,-0.0,-1.0,0.1139171668973342,1.0
22.446361541748047,-30.322776794433594,1.309149146080017,-0.0,-0.0,-1.0,0.0671485442254932,1.0
21.403141021728516,-29.655885696411133,1.293702244758606,-0.0,-0.0,-1.0,0.0512395992250378,1.0
21.762554168701172,-29.725053787231445,1.3109848499298096,-0.0,-0.0,-1.0,0.0463492429531355,1.0
22.662273406982425,-29.67462921142578,1.3663676977157593,-0.0,-0.0,-1.0,0.1974395685230719,1.0
22.38391494750977,-29.482337951660156,1.3637527227401731,-0.0,-0.0,-1.0,0.1763371161509341,2.0
22.512428283691406,-29.546358108520508,1.366762638092041,-0.0,-0.0,-1.0,0.2389031768999405,2.0
22.44960594177246,-31.815349578857425,1.791456937789917,-0.0,-0.0,-1.0,0.0416241787724164,1.0
22.68178367614746,-31.389827728271484,1.81766939163208,-0.0,-0.0,-1.0,0.0749642017331767,1.0
21.90536117553711,-30.89035415649414,1.3406277894973757,-0.0,-0.0,-1.0,0.0318416362842312,1.0
22.22009658813477,-31.054248809814453,1.342864751815796,-0.0,-0.0,-1.0,0.0214821241458386,1.0
22.469470977783203,-31.155811309814453,1.3462934494018557,-0.0,-0.0,-1.0,0.0372525246809095,1.0
20.516468048095703,-29.874860763549805,1.3450303077697754,-0.0,-0.0,-1.0,0.0407075532346659,1.0
20.923620223999023,-29.919918060302734,1.361007809638977,-0.0,-0.0,-1.0,0.0804340679083836,1.0
21.22054672241211,-30.054065704345703,1.3658697605133057,-0.0,-0.0,-1.0,0.2068372404986436,1.0
21.670808792114254,-30.596681594848633,1.3501739501953125,-0.0,-0.0,-1.0,0.0477143340059872,1.0
21.78627586364746,-30.66944122314453,1.3503341674804688,-0.0,-0.0,-1.0,0.0651145654565541,1.0
22.614452362060547,-29.787334442138672,1.4452974796295166,-0.0,-0.0,-1.0,0.2347066761669484,1.0
22.51546859741211,-29.429630279541016,1.4648107290267944,-0.0,-0.0,-1.0,0.2150329804796144,1.0
22.116485595703125,-31.596206665039062,1.8968948125839231,-0.0,-0.0,-1.0,0.0360459928738723,1.0
20.62103843688965,-31.826904296875,1.3364155292510986,-0.0,-0.0,-1.0,0.0292458417754074,1.0
20.72218132019043,-31.406635284423828,1.3609375953674316,-0.0,-0.0,-1.0,0.0532477194053925,1.0
20.361713409423828,-30.81404685974121,1.3640174865722656,-0.0,-0.0,-1.0,0.0497115254906632,1.0
20.646778106689453,-30.704315185546875,1.3863131999969482,-0.0,-0.0,-1.0,0.1556668322156787,1.0
20.96185302734375,-30.983299255371097,1.3937734365463257,-0.0,-0.0,-1.0,0.0594062837638737,1.0
21.50890350341797,-31.412443161010746,1.407564997673035,-0.0,-0.0,-1.0,0.0796616494378869,1.0
21.483531951904297,-31.53180694580078,1.40063214302063,-0.0,-0.0,-1.0,0.0834946692838431,1.0
20.235088348388672,-30.108619689941406,1.3843077421188354,-0.0,-0.0,-1.0,0.1325061340287505,1.0
20.468656539916992,-30.382734298706055,1.3883403539657593,-0.0,-0.0,-1.0,0.1289998794583618,2.0
20.880538940429688,-30.69886779785156,1.4009459018707275,-0.0,-0.0,-1.0,0.2646467975392051,2.0
21.11802101135254,-30.954832077026367,1.4043762683868408,-0.0,-0.0,-1.0,0.0347020412870438,1.0
21.51543426513672,-31.26740074157715,1.41409170627594,-0.0,-0.0,-1.0,0.0828922666960525,2.0
22.143007278442383,-31.735424041748047,1.428247332572937,-0.0,-0.0,-1.0,0.0368086550919369,2.0
22.496976852416992,-31.803958892822266,1.4442086219787598,-0.0,-0.0,-1.0,0.1253080984304711,2.0
20.610843658447266,-31.713483810424805,1.4158940315246582,-0.0,-0.0,-1.0,0.0317494245563095,1.0
20.54781723022461,-31.31155586242676,1.4299572706222534,-0.0,-0.0,-1.0,0.0614619016340829,1.0
20.96343994140625,-30.7147216796875,1.4782003164291382,-0.0,-0.0,-1.0,0.1782444728607349,1.0
20.989171981811523,-30.412612915039062,1.4922661781311035,-0.0,-0.0,-1.0,0.1715488394622413,2.0
22.273427963256836,-31.857776641845703,1.4944982528686523,-0.0,-0.0,-1.0,0.0355380333078011,1.0
22.516033172607425,-31.846294403076172,1.506800651550293,-0.0,-0.0,-1.0,0.1200489983501296,1.0
21.831193923950195,-29.593584060668945,1.258639931678772,-0.0,-0.0,-1.0,0.0800780569007281,1.0
22.14389419555664,-29.519535064697266,1.285423755645752,-0.0,-0.0,-1.0,0.233897441326578,1.0
22.55043029785156,-30.356033325195312,1.266337513923645,-0.0,-0.0,-1.0,0.0420159574937813,1.0
22.66590118408203,-30.61462020874023,1.2583606243133545,-0.0,-0.0,-1.0,0.0227765415847851,1.0
20.77992820739746,-30.720199584960938,1.7130095958709717,-0.0,-0.0,-1.0,0.2173337117469604,2.0
20.829147338867188,-29.54066467285156,1.7518813610076904,-0.0,-0.0,-1.0,0.1095110390094995,1.0
21.757104873657227,-29.673686981201172,1.2495267391204834,-0.0,-0.0,-1.0,0.0493642590203799,1.0
21.96873664855957,-29.65129852294922,1.2696864604949951,-0.0,-0.0,-1.0,0.072957603947943,1.0
22.1490421295166,-30.50686264038086,1.2569646835327148,-0.457516831503053,-0.422280155840581,-0.7825329506638439,0.0406651256423934,3.0
22.421630859375,-30.832752227783203,1.269053936004639,-0.0,-0.0,-1.0,0.0156658949405972,2.0
22.470094680786133,-31.11396217346191,1.2625335454940796,-0.0,-0.0,-1.0,0.0286790766459081,1.0
22.501728057861328,-30.908966064453125,1.273156762123108,-0.0,-0.0,-1.0,0.0158683176747498,1.0
22.706851959228516,-29.59286117553711,1.3388746976852417,-0.0,-0.0,-1.0,0.1698053763072862,1.0
20.902509689331055,-29.474369049072266,1.7304966449737549,-0.0,-0.0,-1.0,0.1006571136284961,2.0
20.866687774658203,-30.790435791015625,1.7132459878921509,-0.3194156774159687,-0.6302182970250377,-0.7076711970369853,0.150296183892007,3.0
21.064180374145508,-31.21456527709961,1.719799518585205,-0.0,-0.0,-1.0,0.1908354432968028,1.0
21.363384246826172,-29.37977600097656,1.294964075088501,-0.0,-0.0,-1.0,0.207489788212455,2.0
21.243743896484375,-29.971118927001953,1.268802285194397,-0.0,-0.0,-1.0,0.1614569845603932,2.0
21.418025970458984,-30.152732849121097,1.2797691822052002,-0.0,-0.0,-1.0,0.0906581815197577,1.0
21.92726707458496,-30.817546844482425,1.3053735494613647,-0.0,-0.0,-1.0,0.0278792465291007,1.0
21.895835876464844,-31.16271591186523,1.291478395462036,-0.8590448576558909,0.4812891340095783,-0.1743637061411584,0.0113482262602713,3.0
22.03512382507324,-31.4366455078125,1.2943559885025024,-0.0,-0.0,-1.0,0.0495710975314518,1.0
22.584774017333984,-29.511005401611328,1.4030932188034058,0.5780464949478539,0.3031798769038562,-0.7575910584999423,0.2418364651721939,4.0
22.30145263671875,-31.467613220214844,1.3160457611083984,0.8770073771483679,0.4584742803012315,0.14373376335993,0.085612471726571,3.0
22.658851623535156,-31.618881225585938,1.8813824653625488,-0.0,-0.0,-1.0,0.1014075210033259,1.0
21.339210510253903,-29.50388526916504,1.2905337810516355,-0.0,-0.0,-1.0,0.1903177655523676,2.0
21.188701629638672,-29.86930274963379,1.2687698602676392,-0.0,-0.0,-1.0,0.1199672729466729,1.0
21.458999633789062,-29.58003807067871,1.3006534576416016,-0.0,-0.0,-1.0,0.0906727421193523,1.0
21.4580020904541,-29.979455947875977,1.292404294013977,-0.0,-0.0,-1.0,0.0979471181553847,1.0
22.043670654296875,-29.36960792541504,1.3611637353897097,-0.0,-0.0,-1.0,0.0750085223515208,1.0
21.85049057006836,-30.98356056213379,1.3053219318389893,-0.0,-0.0,-1.0,0.0356017692262011,1.0
21.83246612548828,-31.23475456237793,1.2969679832458496,-0.0,-0.0,-1.0,0.0583365203362306,2.0
21.716598510742188,-31.704259872436523,1.2733923196792605,-0.0,-0.0,-1.0,0.0619361420230798,1.0
22.593286514282227,-29.49235725402832,1.4110183715820312,0.5337760555661596,0.11252328769797,-0.8381059791159301,0.2414719652966439,3.0
21.889062881469727,-31.361398696899418,1.2986506223678589,-0.0,-0.0,-1.0,0.0384026610055291,1.0
21.948692321777344,-31.659154891967773,1.295608401298523,-0.0,-0.0,-1.0,0.1051989998542613,1.0
22.536296844482425,-31.419076919555664,1.35533344745636,-0.0,-0.0,-1.0,0.0413615165358666,2.0
20.887149810791016,-30.704307556152344,1.7806652784347534,-0.0,-0.0,-1.0,0.1456365227270551,1.0
22.141826629638672,-29.4058837890625,1.2189313173294067,-0.0,-0.0,-1.0,0.1455858340872541,1.0
22.480274200439453,-30.243850708007812,1.228636384010315,-0.0,-0.0,-1.0,0.100149152782008,2.0
22.684595108032227,-30.34212303161621,1.2459007501602173,-0.0,-0.0,-1.0,0.0702178337304093,1.0
21.0482234954834,-30.22844886779785,1.612842679023743,-0.0,-0.0,-1.0,0.1249320246480929,1.0
20.848031997680664,-30.710390090942383,1.5928488969802856,-0.0,-0.0,-1.0,0.1681149407966453,2.0
21.130359649658203,-31.262042999267575,1.6067068576812744,-0.0,-0.0,-1.0,0.1560874001438216,1.0
22.09670066833496,-29.395248413085938,1.336775302886963,-0.0,-0.0,-1.0,0.1188025616208664,1.0
21.54962158203125,-29.605194091796875,1.2779574394226074,-0.0,-0.0,-1.0,0.0375892979590715,1.0
21.536155700683594,-29.928646087646484,1.2628333568572998,-0.0,-0.0,-1.0,0.0819179378811845,1.0
22.555925369262695,-29.543598175048828,1.371620535850525,0.1870161302728079,-0.7390918490446481,-0.6471230220704153,0.2380488797922657,4.0
22.01323127746582,-30.461729049682617,1.2802656888961792,-0.0,-0.0,-1.0,0.0670126960819082,1.0
22.32766342163086,-30.753143310546875,1.29243004322052,-0.0,-0.0,-1.0,0.0139140875387912,1.0
22.450206756591797,-31.053199768066406,1.2867481708526611,-0.0,-0.0,-1.0,0.0206325285694629,1.0
22.68420028686523,-31.30375862121582,1.2921056747436523,-0.0,-0.0,-1.0,0.0440408978543479,2.0
20.916526794433594,-29.377849578857425,1.73512864112854,-0.0,-0.0,-1.0,0.0692007598320475,1.0
20.87040901184082,-30.596858978271484,1.7027673721313477,-0.0,-0.0,-1.0,0.1389017929980935,1.0
20.85194396972656,-30.76483917236328,1.6971056461334229,-0.3194156774159687,-0.6302182970250377,-0.7076711970369853,0.1502961838920069,3.0
22.53902244567871,-29.39612197875977,1.376755952835083,-0.0,-0.0,-1.0,0.1950771622129379,1.0
21.06255340576172,-31.165271759033203,1.6979670524597168,-0.0,-0.0,-1.0,0.1917690924804997,1.0
21.33118057250977,-29.590511322021484,1.2783379554748535,-0.0,-0.0,-1.0,0.102256394852191,1.0
21.12987518310547,-29.689817428588867,1.2554174661636353,-0.0,-0.0,-1.0,0.0442816197296765,1.0
21.391925811767575,-29.984317779541016,1.261164307594299,-0.0,-0.0,-1.0,0.1117469362526905,1.0
21.256946563720703,-29.953615188598633,1.2514500617980957,-0.0,-0.0,-1.0,0.1675089992606656,2.0
22.10111618041992,-30.70532989501953,1.2749446630477903,0.4133867699302144,-0.2255107940895338,-0.8821883360120852,0.0338834710101122,4.0
22.220911026000977,-30.92792701721191,1.269545078277588,-0.0,-0.0,-1.0,0.0171576921256165,1.0
22.47958755493164,-31.290943145751953,1.2644071578979492,-0.0,-0.0,-1.0,0.0382752992087555,1.0
20.80929946899414,-29.59409523010254,1.7238266468048096,-0.0,-0.0,-1.0,0.089499937092557,1.0
21.950855255126953,-29.43401527404785,1.3406331539154053,-0.0,-0.0,-1.0,0.1632553973736879,2.0
22.55765914916992,-29.485950469970703,1.3891880512237549,0.5337760555661596,0.11252328769797,-0.8381059791159301,0.1970535357738137,3.0
22.42971420288086,-29.46025848388672,1.3799259662628174,-0.0,-0.0,-1.0,0.1613874310648881,1.0
21.974647521972656,-29.47472763061523,1.3403509855270386,-0.0,-0.0,-1.0,0.1493519207501051,2.0
20.8305721282959,-30.675800323486328,1.6824501752853394,-0.0,-0.0,-1.0,0.203801929546002,1.0
20.882057189941406,-30.762659072875977,1.681572198867798,-0.3194156774159687,-0.6302182970250377,-0.7076711970369853,0.1332472621853918,3.0
21.02440643310547,-31.216217041015625,1.6693798303604126,-0.0,-0.0,-1.0,0.1803842275026169,2.0
22.702377319335938,-31.728580474853516,1.727834939956665,0.5371118362194792,-0.7673350933893368,0.3502966312229061,0.0715891695437349,3.0
21.589534759521484,-29.42728805541992,1.2634087800979614,-0.0,-0.0,-1.0,0.0716608849155168,1.0
22.567790985107425,-29.52524185180664,1.3575811386108398,0.4566507455447739,-0.7076004265380748,-0.5392325407062679,0.2481854921598997,3.0
21.63412857055664,-29.78403663635254,1.2530680894851685,-0.0,-0.0,-1.0,0.0682959938033074,2.0
20.837406158447266,-30.735729217529297,1.6226359605789185,-0.0,-0.0,-1.0,0.141631570044649,2.0
22.298521041870117,-30.36050033569336,1.291412591934204,-0.0,-0.0,-1.0,0.0379207154278103,1.0
22.124401092529297,-30.50025177001953,1.2678039073944092,-0.0,-0.0,-1.0,0.041554856280346,2.0
22.405160903930664,-30.810924530029297,1.278268575668335,-0.0,-0.0,-1.0,0.015682943020511,2.0
21.06401824951172,-31.226959228515625,1.623946189880371,-0.0,-0.0,-1.0,0.1803842275026169,1.0
22.685754776000977,-31.24099349975586,1.280242919921875,-0.0,-0.0,-1.0,0.0383925328583621,1.0
20.83287811279297,-29.47937774658203,1.6528582572937012,-0.0,-0.0,-1.0,0.1045297480809419,1.0
22.257911682128903,-29.39639663696289,1.15314781665802,-0.0,-0.0,-1.0,0.1340960620362017,1.0
21.090553283691406,-29.543886184692383,1.4516509771347046,-0.0,-0.0,-1.0,0.1269413472930061,1.0
20.682796478271484,-29.579261779785156,1.4203505516052246,-0.0,-0.0,-1.0,0.1426194535914237,1.0
22.65973472595215,-29.64550018310547,1.5506714582443235,-0.0,-0.0,-1.0,0.2413895537173065,1.0
22.480186462402344,-29.584501266479492,1.5436795949935913,-0.0,-0.0,-1.0,0.1874719063877858,2.0
21.15454864501953,-29.999645233154297,1.42094087600708,-0.0,-0.0,-1.0,0.2540321434205536,2.0
20.37053680419922,-30.26998519897461,1.3459888696670532,-0.0,-0.0,-1.0,0.069709919292707,2.0
22.705093383789062,-29.728437423706055,1.5468649864196775,-0.0,-0.0,-1.0,0.1437137638482858,1.0
20.85189437866211,-30.470121383666992,1.3631136417388916,-0.0,-0.0,-1.0,0.2193967975250684,1.0
20.564266204833984,-30.471904754638672,1.3434889316558838,-0.0,-0.0,-1.0,0.0469319930476976,1.0
21.25570297241211,-30.777721405029297,1.36501145362854,-0.0,-0.0,-1.0,0.0801227849637629,2.0
21.07382583618164,-30.730113983154297,1.3569929599761963,-0.0,-0.0,-1.0,0.1307217788839157,1.0
21.64708709716797,-30.885602951049805,1.3815218210220337,-0.0,-0.0,-1.0,0.0221661688331433,1.0
21.480188369750977,-31.03507423400879,1.3581058979034424,-0.0,-0.0,-1.0,0.0381585149240032,1.0
21.619094848632812,-31.429363250732425,1.333216667175293,-0.0,-0.0,-1.0,0.0872143938157529,1.0
22.697044372558594,-31.506591796875,1.3920576572418213,-0.0,-0.0,-1.0,0.0376428953200778,2.0
22.42345428466797,-31.47066116333008,1.379008173942566,-0.0,-0.0,-1.0,0.0482047205126946,2.0
22.07783889770508,-31.591955184936523,1.3472799062728882,-0.6373634930240952,-0.7613857463073718,-0.1185728597955274,0.0999149385398086,5.0
21.700834274291992,-31.735492706298828,1.3115381002426147,-0.0,-0.0,-1.0,0.1188415916645234,1.0
22.68864631652832,-31.831993103027344,1.3618640899658203,-0.0,-0.0,-1.0,0.1178241960647356,1.0
21.33966827392578,-30.045129776000977,1.8572802543640137,-0.0,-0.0,-1.0,0.1638000271500943,1.0
20.77023124694824,-30.728553771972656,1.7941488027572632,-0.0,-0.0,-1.0,0.2451837228256262,2.0
20.94281768798828,-31.160385131835938,1.773805022239685,-0.0,-0.0,-1.0,0.1714741970547374,1.0
22.65491485595703,-31.757625579833984,1.7943074703216553,-0.0,-0.0,-1.0,0.0800746598680626,2.0
21.76670837402344,-29.365110397338867,1.4208173751831057,-0.0,-0.0,-1.0,0.0954884584843658,1.0
21.492496490478516,-29.37987518310547,1.3932112455368042,-0.0,-0.0,-1.0,0.1644720784727655,1.0
22.40687561035156,-29.41948509216309,1.3025975227355957,-0.0,-0.0,-1.0,0.147000131308239,2.0
21.844057083129883,-29.42178726196289,1.423009753227234,-0.0,-0.0,-1.0,0.1392021798285646,1.0
21.102888107299805,-29.63415145874023,1.3329689502716064,-0.0,-0.0,-1.0,0.0283054447863728,1.0
20.926002502441406,-29.85511779785156,1.296142816543579,-0.0,-0.0,-1.0,0.0771058119833653,1.0
22.684749603271484,-29.886821746826172,1.4557558298110962,-0.0,-0.0,-1.0,0.1097786790141359,1.0
22.603755950927734,-29.861412048339844,1.4510717391967771,-0.0,-0.0,-1.0,0.1518621873393522,1.0
21.20858383178711,-30.056835174560547,1.304298996925354,-0.0,-0.0,-1.0,0.1676031272091605,1.0
21.01821517944336,-30.10051727294922,1.282408356666565,-0.0,-0.0,-1.0,0.1161143798554671,1.0
22.014083862304688,-30.815946578979492,1.302253007888794,-0.0,-0.0,-1.0,0.0267866354786856,1.0
22.293439865112305,-31.127344131469727,1.2932525873184204,-0.0,-0.0,-1.0,0.0252400743917929,1.0
22.48747444152832,-31.34063148498535,1.2862694263458252,0.1863646149968555,-0.0073492626677036,-0.9824531635733662,0.0505096161190206,3.0
22.69535446166992,-29.685569763183594,1.476670265197754,-0.0,-0.0,-1.0,0.2019494944544866,2.0
20.635684967041016,-30.677549362182617,1.6147546768188477,-0.0,-0.0,-1.0,0.1529944373809635,1.0
21.11413955688477,-31.35848045349121,1.5912140607833862,-0.0,-0.0,-1.0,0.1516171214099153,1.0
20.961048126220703,-31.29259872436523,1.5872873067855835,-0.0,-0.0,-1.0,0.2127685009041185,2.0
22.452608108520508,-31.60135078430176,2.0376009941101074,-0.0,-0.0,-1.0,0.1248301138761236,2.0
21.899452209472656,-29.402393341064453,1.2967936992645264,-0.0,-0.0,-1.0,0.162456175400226,1.0
21.511943817138672,-29.386690139770508,1.2409619092941284,-0.0,-0.0,-1.0,0.1169799702420567,1.0
20.79749298095703,-29.56725311279297,1.4784696102142334,-0.0,-0.0,-1.0,0.1143587612883819,1.0
22.569339752197266,-29.53803443908691,1.375679612159729,0.8367535202750855,-0.5242134349836826,-0.1582523961583537,0.2716067696220124,4.0
21.75043678283691,-29.74907493591309,1.2297450304031372,-0.0,-0.0,-1.0,0.0813023115656318,1.0
22.370601654052734,-30.131467819213867,1.2648274898529053,-0.0,-0.0,-1.0,0.132824909348342,1.0
21.9709415435791,-29.90256690979004,1.240992546081543,-0.0,-0.0,-1.0,0.1610160455880923,1.0
20.713577270507812,-30.49128532409668,1.3692318201065063,-0.0,-0.0,-1.0,0.1146878752216867,2.0
20.405895233154297,-30.473678588867188,1.3354836702346802,-0.0,-0.0,-1.0,0.0258329292611954,1.0
22.6396427154541,-30.325883865356445,1.2727525234222412,-0.0,-0.0,-1.0,0.0702178337304092,1.0
22.4433536529541,-30.43732452392578,1.2300087213516235,-0.0,-0.0,-1.0,0.0298532643339184,1.0
21.158292770385746,-30.95096206665039,1.36625075340271,-0.0,-0.0,-1.0,0.0366710099158659,1.0
20.93917465209961,-30.833829879760746,1.3557415008544922,-0.0,-0.0,-1.0,0.0835706676475555,2.0
20.55405044555664,-30.730300903320312,1.3241746425628662,-0.0,-0.0,-1.0,0.0871682211469226,1.0
22.61271095275879,-30.60570526123047,1.227216720581055,-0.0,-0.0,-1.0,0.0271649267776324,1.0
21.344436645507812,-31.086193084716797,1.3700584173202517,-0.0,-0.0,-1.0,0.04314268251807,2.0
20.99106216430664,-31.031715393066406,1.338233232498169,-0.0,-0.0,-1.0,0.0583741913455296,2.0
21.469436645507812,-31.477632522583008,1.3347095251083374,-0.0,-0.0,-1.0,0.0638324690072235,1.0
22.604084014892575,-31.730064392089844,1.414205551147461,-0.0,-0.0,-1.0,0.1032859782798814,2.0
22.373464584350582,-31.629472732543945,1.4057778120040894,0.5785617770563372,-0.7478100161652231,0.3256477389026087,0.0267930488834521,3.0
21.96916389465332,-31.672435760498047,1.360482931137085,-0.0,-0.0,-1.0,0.0996931994275394,2.0
21.47797393798828,-31.85254669189453,1.2876137495040894,-0.0,-0.0,-1.0,0.0441193374844921,2.0
21.006128311157227,-29.367908477783203,1.5241484642028809,-0.0,-0.0,-1.0,0.0738792204095561,1.0
21.346370697021484,-30.05621337890625,1.4910173416137695,-0.0,-0.0,-1.0,0.1298469784720697,1.0
20.73552703857422,-30.477527618408203,1.7562785148620603,-0.0,-0.0,-1.0,0.1430246728114453,1.0
20.813304901123047,-30.74712371826172,1.7378311157226562,-0.6238348504792568,-0.7815060108314217,-0.0088563176253564,0.2173337117469604,3.0
21.805862426757812,-31.73345184326172,1.717555046081543,-0.0,-0.0,-1.0,0.1047296933929265,1.0
20.625980377197266,-29.554378509521484,1.314648985862732,-0.0,-0.0,-1.0,0.1457642597022131,1.0
22.210041046142575,-29.558488845825195,1.2655802965164185,-0.0,-0.0,-1.0,0.1086026068656656,2.0
21.82896423339844,-29.413097381591797,1.2196608781814575,-0.0,-0.0,-1.0,0.1032715272545689,2.0
20.87035369873047,-29.715553283691406,1.3331931829452517,-0.0,-0.0,-1.0,0.0581649272065385,2.0
20.76578140258789,-29.74201011657715,1.3136342763900757,-0.0,-0.0,-1.0,0.0608243586890448,1.0
22.451318740844727,-29.55091094970703,1.3089373111724854,0.1219700965826829,-0.8967661280539517,-0.4253631473396991,0.1592678352882121,3.0
22.024696350097656,-29.759845733642575,1.201158881187439,-0.0,-0.0,-1.0,0.1099865324164506,1.0
21.058372497558594,-30.12010955810547,1.3100405931472778,-0.0,-0.0,-1.0,0.1058921757661969,1.0
20.87088203430176,-30.175376892089844,1.274680733680725,-0.0,-0.0,-1.0,0.1196409192295566,1.0
22.62751007080078,-29.94721031188965,1.273269772529602,-0.0,-0.0,-1.0,0.1613417833449961,1.0
22.512603759765625,-30.234437942504883,1.2049821615219116,-0.0,-0.0,-1.0,0.0829870043504662,2.0
21.607593536376953,-30.53055191040039,1.333549737930298,-0.0,-0.0,-1.0,0.0632429199892302,1.0
21.262306213378903,-30.37350845336914,1.3059747219085691,-0.0,-0.0,-1.0,0.0458995568544415,1.0
22.625717163085938,-30.37834358215332,1.1980429887771606,-0.0,-0.0,-1.0,0.033029266634146,1.0
21.78911399841309,-30.824398040771484,1.31584370136261,-0.0,-0.0,-1.0,0.0390114703536028,1.0
20.46981430053711,-31.28837203979492,1.4385803937911987,-0.0,-0.0,-1.0,0.0571315232406996,1.0
20.34161376953125,-31.16532516479492,1.4382531642913818,-0.0,-0.0,-1.0,0.0285419202749872,1.0
22.09305000305176,-31.19544982910156,1.2997170686721802,-0.0,-0.0,-1.0,0.0187835075741301,1.0
21.90848731994629,-31.142972946166992,1.2836437225341797,-0.8590448576558909,0.4812891340095783,-0.1743637061411584,0.0152865139733092,3.0
20.639062881469727,-31.641185760498047,1.414949655532837,-0.0,-0.0,-1.0,0.0476951647386227,1.0
20.47197723388672,-31.52703094482422,1.4102331399917605,-0.0,-0.0,-1.0,0.0340187100397478,1.0
22.675294876098633,-31.426088333129883,1.335317850112915,-0.0,-0.0,-1.0,0.0405352703430335,1.0
22.27239418029785,-31.425697326660156,1.2859106063842771,-0.0,-0.0,-1.0,0.0858230229387493,1.0
22.128910064697266,-31.405427932739254,1.2712613344192505,-0.0,-0.0,-1.0,0.0468666684730622,1.0
22.54341506958008,-29.367122650146484,1.630128026008606,-0.0,-0.0,-1.0,0.1935358373060254,1.0
22.436687469482425,-29.498924255371097,1.5966289043426514,-0.0,-0.0,-1.0,0.2582158049284633,1.0
22.61493682861328,-29.70763397216797,1.5927597284317017,-0.0,-0.0,-1.0,0.2241928094866478,1.0
22.37885856628418,-29.748741149902344,1.5536344051361084,-0.0,-0.0,-1.0,0.0902029696979535,2.0
21.225271224975582,-30.15102767944336,1.6579564809799194,-0.0,-0.0,-1.0,0.1382364141790649,1.0
20.82772445678711,-30.24971389770508,1.599486231803894,-0.0,-0.0,-1.0,0.2192113590873454,1.0
22.475786209106445,-29.955875396728516,1.5377790927886963,-0.0,-0.0,-1.0,0.1529950066087297,2.0
20.783588409423828,-30.569440841674805,1.5584453344345093,-0.0,-0.0,-1.0,0.226794324787432,1.0
20.687719345092773,-30.786781311035156,1.5223450660705566,-0.0,-0.0,-1.0,0.1266660608784801,1.0
21.00625991821289,-31.13348960876465,1.8688887357711792,-0.0,-0.0,-1.0,0.0765851866439127,1.0
21.7113037109375,-31.361831665039062,1.5658308267593384,-0.0,-0.0,-1.0,0.085794220472284,1.0
21.817955017089844,-31.561750411987305,1.5508514642715454,-0.0,-0.0,-1.0,0.1427060049554182,1.0
22.51744842529297,-31.828859329223633,1.9132620096206665,-0.0,-0.0,-1.0,0.072516650759438,1.0
22.176807403564453,-29.544864654541016,1.240362286567688,-0.0,-0.0,-1.0,0.1784673401891139,2.0
21.82545280456543,-29.397565841674805,1.3273427486419678,-0.0,-0.0,-1.0,0.1184785123099327,1.0
21.306724548339844,-29.601844787597656,1.33239483833313,-0.0,-0.0,-1.0,0.1342662772627414,1.0
21.126924514770508,-29.739009857177734,1.2787492275238037,-0.0,-0.0,-1.0,0.104150837668024,1.0
22.670974731445312,-29.72681427001953,1.3019523620605469,-0.0,-0.0,-1.0,0.1510008088026763,1.0
22.351577758789062,-29.712909698486328,1.2430599927902222,-0.0,-0.0,-1.0,0.206227217755206,1.0
22.07634162902832,-29.728967666625977,1.1855902671813965,-0.0,-0.0,-1.0,0.110257820270559,2.0
21.456146240234375,-30.10873031616211,1.2789560556411743,-0.0,-0.0,-1.0,0.0879873543225566,1.0
21.3247127532959,-30.031551361083984,1.268531084060669,-0.0,-0.0,-1.0,0.1140681301873253,1.0
20.67567253112793,-30.363487243652344,1.414486050605774,-0.0,-0.0,-1.0,0.1829043537432111,1.0
20.442527770996097,-30.415010452270508,1.372780680656433,-0.0,-0.0,-1.0,0.1607681761481443,2.0
22.55855178833008,-30.198808670043945,1.1845308542251587,-0.0,-0.0,-1.0,0.0967661438700338,1.0
21.773984909057617,-30.42648696899414,1.2791695594787598,-0.0,-0.0,-1.0,0.0793716909429673,1.0
20.874168395996097,-30.652585983276367,1.4032974243164062,-0.0,-0.0,-1.0,0.2517895174357347,2.0
20.55614471435547,-30.64270401000977,1.3586255311965942,-0.0,-0.0,-1.0,0.0947841365505375,2.0
22.674964904785156,-30.396106719970703,1.163883090019226,-0.0,-0.0,-1.0,0.033029266634146,1.0
22.09987449645996,-30.733253479003903,1.2763638496398926,-0.9920333255389524,0.0380087467604282,-0.1201050215013019,0.0267035289710355,3.0
21.90911865234375,-30.60014915466309,1.2705192565917969,-0.0,-0.0,-1.0,0.0488996358481934,1.0
21.36962127685547,-31.0882511138916,1.407743215560913,-0.0,-0.0,-1.0,0.045832029372089,2.0
21.02250289916992,-31.01339340209961,1.37160325050354,-0.0,-0.0,-1.0,0.0615102016725131,2.0
22.564653396606445,-31.144363403320312,1.2675364017486572,-0.0,-0.0,-1.0,0.0391194078718926,1.0
22.375282287597656,-30.99431037902832,1.2690508365631104,-0.0,-0.0,-1.0,0.0201429534408328,1.0
21.44144821166992,-31.26483726501465,1.3898553848266602,-0.0,-0.0,-1.0,0.0314098919055607,1.0
22.28923797607422,-31.649892807006836,1.4319336414337158,0.3182315956211328,0.8371505063862309,-0.4448681616003837,0.0233702813700759,3.0
22.074613571166992,-31.673877716064453,1.402679204940796,-0.0,-0.0,-1.0,0.0560440780227799,2.0
21.71676445007324,-31.830669403076172,1.3337174654006958,-0.0,-0.0,-1.0,0.0870495837693245,1.0
21.386390686035156,-31.75257873535156,1.3054848909378052,-0.0,-0.0,-1.0,0.0463806965621148,2.0
22.466636657714844,-31.77498435974121,1.4304813146591189,-0.0,-0.0,-1.0,0.0848122913153456,2.0
20.70525550842285,-29.607248306274418,1.5171046257019043,-0.0,-0.0,-1.0,0.1102668896764684,1.0
22.39314079284668,-29.548276901245117,1.5323646068572998,-0.0,-0.0,-1.0,0.2059652098094024,2.0
21.38258171081543,-29.460708618164062,1.640283703804016,-0.0,-0.0,-1.0,0.1302373657933144,1.0
22.632492065429688,-29.703227996826172,1.5457597970962524,-0.3742680833934051,-0.7516980192251318,-0.5430225498504098,0.2035972600386095,3.0
22.462047576904297,-29.64344596862793,1.5278619527816772,-0.0,-0.0,-1.0,0.2198946878952515,1.0
21.23302459716797,-30.093507766723633,1.533502221107483,-0.0,-0.0,-1.0,0.1193501499484787,1.0
20.738025665283203,-30.6884765625,1.6927608251571655,-0.0,-0.0,-1.0,0.2472406682791054,1.0
20.962644577026367,-31.323028564453125,1.6401445865631104,-0.0,-0.0,-1.0,0.1811797686579218,2.0
22.53695297241211,-31.84012222290039,1.5775638818740845,-0.0,-0.0,-1.0,0.0764178743026314,2.0
22.4644832611084,-31.603515625,2.042856931686402,-0.0,-0.0,-1.0,0.1248301138761236,2.0
21.172473907470703,-29.39195442199707,1.2729119062423706,-0.0,-0.0,-1.0,0.1587507602168665,1.0
20.824790954589844,-29.484560012817383,1.3132671117782593,-0.0,-0.0,-1.0,0.0997167812379818,1.0
20.550769805908203,-29.695899963378903,1.3534308671951294,-0.0,-0.0,-1.0,0.0978292422867206,1.0
21.320804595947266,-29.766319274902344,1.232851505279541,-0.0,-0.0,-1.0,0.0480847285937197,1.0
20.733539581298828,-29.775367736816406,1.3744709491729736,-0.0,-0.0,-1.0,0.0740230003437692,1.0
20.57010841369629,-30.016292572021484,1.304483413696289,-0.0,-0.0,-1.0,0.0384728934606637,1.0
22.353168487548828,-29.97909164428711,1.3898268938064575,-0.0,-0.0,-1.0,0.1763627408261724,1.0
21.73648452758789,-30.050373077392575,1.2579602003097534,-0.0,-0.0,-1.0,0.1103571938532741,1.0
21.51076889038086,-29.97584342956543,1.2294564247131348,-0.0,-0.0,-1.0,0.0731537546758471,1.0
20.9904727935791,-30.370851516723633,1.3173984289169312,-0.0,-0.0,-1.0,0.1167713553873932,1.0
20.689395904541016,-30.270999908447266,1.282641053199768,-0.0,-0.0,-1.0,0.0860475244398733,1.0
22.578283309936523,-30.39845085144043,1.3327021598815918,-0.0,-0.0,-1.0,0.0266589188373987,1.0
22.18358612060547,-30.510543823242188,1.2387546300888062,-0.0,-0.0,-1.0,0.0278978546376814,2.0
22.00287818908691,-30.271162033081055,1.2605960369110107,-0.0,-0.0,-1.0,0.0615749574957865,1.0
21.40050888061523,-30.62140655517578,1.3392335176467896,-0.0,-0.0,-1.0,0.0775228130188835,1.0
21.22612953186035,-30.482891082763672,1.3368322849273682,-0.0,-0.0,-1.0,0.107047932100015,1.0
22.679967880249023,-30.82369613647461,1.246485471725464,-0.0,-0.0,-1.0,0.0128884721867316,1.0
22.426166534423828,-30.68099594116211,1.2397838830947876,-0.0,-0.0,-1.0,0.0273205184184073,1.0
21.646461486816406,-30.905935287475582,1.3223280906677246,0.3632694125718494,-0.7158976112512633,-0.5962599635179594,0.0226182051452638,4.0
20.472087860107425,-31.21503639221191,1.3781815767288208,-0.0,-0.0,-1.0,0.0311712186492684,1.0
22.04717254638672,-31.303936004638672,1.2992260456085205,-0.0,-0.0,-1.0,0.0273536334164561,1.0
21.79551696777344,-31.19034194946289,1.2870807647705078,-0.0,-0.0,-1.0,0.0139141568625217,1.0
20.84980010986328,-31.663311004638672,1.3540730476379397,0.4450755572279989,-0.7936670776636812,-0.4147292106796652,0.0394129171955413,3.0
20.673614501953125,-31.520404815673828,1.3551924228668213,-0.0,-0.0,-1.0,0.0419818302309124,2.0
22.621322631835938,-31.463987350463867,1.3404130935668943,-0.0,-0.0,-1.0,0.0426276608408408,1.0
22.224973678588867,-31.49457359313965,1.2827622890472412,0.2385257540310879,0.49538951174993,-0.8352812079246527,0.0959741936976341,3.0
21.332366943359375,-29.451770782470703,1.5376240015029907,-0.0,-0.0,-1.0,0.1858866590312561,1.0
20.813570022583008,-29.404504776000977,1.7008469104766846,-0.0,-0.0,-1.0,0.104529748080942,1.0
22.495941162109375,-29.557531356811523,1.5090677738189695,-0.0,-0.0,-1.0,0.1848784224025513,2.0
22.085521697998047,-29.408485412597656,1.460479974746704,-0.0,-0.0,-1.0,0.0823430646375499,1.0
22.583194732666016,-29.824552536010746,1.574979305267334,-0.0,-0.0,-1.0,0.1863870803577565,1.0
21.26705551147461,-30.101505279541016,1.6675564050674438,-0.0,-0.0,-1.0,0.1355806335985069,2.0
20.905651092529297,-30.22256851196289,1.5962669849395752,-0.0,-0.0,-1.0,0.2035480746582552,2.0
20.806713104248047,-30.51791763305664,1.536339521408081,-0.0,-0.0,-1.0,0.2161475762900632,1.0
20.88885498046875,-30.58634376525879,1.537331223487854,-0.0,-0.0,-1.0,0.2084781816623925,2.0
20.730093002319336,-30.71500587463379,1.6350451707839966,-0.0,-0.0,-1.0,0.1593348788879198,2.0
20.4881534576416,-30.99451065063477,1.4157416820526123,-0.0,-0.0,-1.0,0.051046127571548,1.0
20.801748275756836,-31.296947479248047,1.5539484024047852,-0.0,-0.0,-1.0,0.1004139341440137,1.0
20.587291717529297,-31.217212677001953,1.393674373626709,-0.0,-0.0,-1.0,0.0529338616787872,1.0
21.21284866333008,-31.55365943908691,1.419429898262024,-0.0,-0.0,-1.0,0.0369739823685781,1.0
20.959251403808594,-31.56452751159668,1.385123372077942,-0.0,-0.0,-1.0,0.0534972618348693,1.0
20.422954559326172,-31.83816719055176,1.5841646194458008,-0.0,-0.0,-1.0,0.1045719581293641,1.0
22.14006233215332,-31.784378051757812,1.4867570400238037,-0.3069892905401041,-0.8714013078708405,-0.3826451830804521,0.0632085169383614,3.0
21.81129264831543,-31.809160232543945,1.586329460144043,-0.0,-0.0,-1.0,0.1520032040004276,1.0
21.173843383789062,-31.80666160583496,1.3700673580169678,-0.0,-0.0,-1.0,0.0218924117466123,2.0
22.54966163635254,-31.78630256652832,1.529655933380127,-0.0,-0.0,-1.0,0.1504263638405195,2.0
20.767250061035156,-30.352407455444336,1.8262443542480469,-0.0,-0.0,-1.0,0.1080657841093823,1.0
22.595643997192383,-31.815486907958984,1.9278523921966553,-0.0,-0.0,-1.0,0.0794324034553135,1.0
20.68038749694824,-30.788854598999023,1.7618560791015625,-0.0,-0.0,-1.0,0.2064255564059579,2.0
20.95240592956543,-31.211198806762695,1.7034636735916138,-0.9629074948275,0.2684884455070194,-0.0268907239443637,0.1781548951748399,3.0
22.70831298828125,-31.64376449584961,1.7007648944854736,-0.0,-0.0,-1.0,0.1158634796133669,1.0
22.523841857910156,-31.766815185546875,1.6668789386749268,-0.0,-0.0,-1.0,0.0641911053334383,1.0
22.482099533081055,-31.693763732910156,1.915022611618042,-0.0,-0.0,-1.0,0.1248301138761235,1.0
20.67630386352539,-30.855854034423828,1.5104036331176758,-0.0,-0.0,-1.0,0.160614237751895,1.0
20.23944854736328,-30.947694778442383,1.4247244596481323,-0.0,-0.0,-1.0,0.0417093397856931,2.0
21.70157241821289,-31.406803131103516,1.5225269794464111,-0.0,-0.0,-1.0,0.0937243486050758,1.0
20.620187759399418,-31.46455955505371,1.373005747795105,-0.0,-0.0,-1.0,0.0417831361177654,1.0
20.48798179626465,-31.30480194091797,1.388455510139465,-0.0,-0.0,-1.0,0.0614619016340829,1.0
22.57818031311035,-31.8491153717041,1.4953588247299194,-0.0,-0.0,-1.0,0.123414712324566,1.0
22.33841133117676,-31.812530517578125,1.485236883163452,-0.0,-0.0,-1.0,0.0326476177854088,1.0
22.060791015625,-31.787349700927734,1.467010736465454,-0.0,-0.0,-1.0,0.0740560455193362,2.0
21.1345272064209,-31.817386627197266,1.360221266746521,0.3450213129439602,-0.7631070290718587,-0.5464686228829128,0.0196938312544309,3.0
20.833127975463867,-31.673295974731445,1.3552892208099363,0.4450755572279989,-0.7936670776636812,-0.4147292106796652,0.0298656001686069,3.0
21.34380149841309,-30.095130920410156,1.7678213119506836,-0.0,-0.0,-1.0,0.2339663163896226,2.0
21.288373947143555,-30.110246658325195,1.7563111782073977,-0.0,-0.0,-1.0,0.1318385206517854,2.0
20.729711532592773,-30.79309844970703,1.76841402053833,0.0321016437763204,0.4538234192387504,-0.8905132164192218,0.2147973074967678,4.0
21.016172409057617,-31.28974151611328,1.709179401397705,-0.0,-0.0,-1.0,0.1588749365593048,1.0
22.56189727783203,-31.74271774291992,1.7500653266906738,-0.0,-0.0,-1.0,0.0709742244186504,1.0
21.812091827392575,-31.62643051147461,1.9533625841140747,-0.0,-0.0,-1.0,0.1150623430653283,1.0
21.739456176757812,-31.8388671875,1.6684800386428833,-0.0,-0.0,-1.0,0.081167071845873,1.0
22.524227142333984,-31.64267349243164,1.9921183586120603,-0.0,-0.0,-1.0,0.1248301138761236,1.0
20.859628677368164,-30.583789825439453,1.3893663883209229,-0.0,-0.0,-1.0,0.2218591898413451,2.0
20.49839782714844,-30.41586685180664,1.354651689529419,-0.0,-0.0,-1.0,0.0277886513113324,1.0
20.24943733215332,-30.313640594482425,1.3244681358337402,-0.0,-0.0,-1.0,0.0976358713934637,1.0
21.285411834716797,-31.00714874267578,1.3674043416976929,-0.0,-0.0,-1.0,0.0416388896665472,1.0
20.933761596679688,-30.84900283813477,1.3424961566925049,-0.0,-0.0,-1.0,0.0773302425267374,2.0
20.625717163085938,-30.63788604736328,1.331951379776001,-0.0,-0.0,-1.0,0.0626509133916895,1.0
21.532047271728516,-31.30289649963379,1.335275650024414,-0.0,-0.0,-1.0,0.0860015646986237,1.0
21.45989990234375,-31.151893615722656,1.3613711595535278,-0.0,-0.0,-1.0,0.0362993094405459,1.0
21.045448303222656,-31.85292625427246,1.3803045749664309,-0.0,-0.0,-1.0,0.0167894027423042,1.0
20.780874252319336,-31.734947204589844,1.3669419288635254,-0.0,-0.0,-1.0,0.0383050302613449,1.0
20.920513153076172,-31.86136817932129,1.3606992959976196,-0.0,-0.0,-1.0,0.0242218949964318,1.0
21.29297637939453,-30.09450912475586,1.7830952405929563,-0.0,-0.0,-1.0,0.1319975872921286,2.0
21.226396560668945,-30.093204498291016,1.6712489128112793,-0.0,-0.0,-1.0,0.129425429606548,2.0
20.77377700805664,-30.305255889892575,1.4342186450958252,-0.0,-0.0,-1.0,0.2391670626248377,1.0
20.60554313659668,-30.786697387695312,1.648755431175232,-0.0,-0.0,-1.0,0.1074819017395513,1.0
20.946887969970703,-31.26614761352539,1.6081284284591677,-0.0,-0.0,-1.0,0.1840955277637559,2.0
20.43002700805664,-31.262901306152344,1.4091163873672483,-0.0,-0.0,-1.0,0.0372844544677916,1.0
20.234371185302734,-31.01018524169922,1.4257216453552246,-0.0,-0.0,-1.0,0.0387193441795937,1.0
21.138694763183594,-31.841054916381836,1.395903706550598,-0.0,-0.0,-1.0,0.0162973892723933,2.0
20.63800811767578,-31.52266311645508,1.3897011280059814,-0.0,-0.0,-1.0,0.0417831361177653,2.0
20.53685188293457,-31.436012268066406,1.3915075063705444,-0.0,-0.0,-1.0,0.0540910181573633,1.0
20.371780395507812,-30.13018798828125,1.8354305028915403,-0.0,-0.0,-1.0,0.1342872541407252,1.0
20.5648136138916,-29.364835739135746,1.707154631614685,-0.0,-0.0,-1.0,0.0711111456927012,1.0
22.671661376953125,-31.55560874938965,1.3573997020721436,-0.0,-0.0,-1.0,0.0386803602245333,2.0
22.458532333374023,-31.470943450927734,1.368205428123474,-0.0,-0.0,-1.0,0.0464222037683691,2.0
20.90976905822754,-30.284303665161133,1.5972561836242676,-0.093836396641469,-0.4028234850971298,-0.9104548151992752,0.225279821464769,3.0
20.99337387084961,-31.307083129882812,1.6428961753845217,-0.0,-0.0,-1.0,0.2092582762451247,2.0
20.683141708374023,-30.66895294189453,1.4836851358413696,-0.0,-0.0,-1.0,0.1967485486726407,1.0
20.75750732421875,-31.156972885131836,1.3859808444976809,-0.0,-0.0,-1.0,0.0605311762692519,1.0
20.414531707763672,-31.06123924255371,1.3624749183654783,-0.0,-0.0,-1.0,0.0363889776777036,1.0
20.34506607055664,-31.10910415649414,1.342618703842163,-0.0,-0.0,-1.0,0.0297842873003721,1.0
22.568803787231445,-31.511219024658203,1.3886260986328125,-0.0,-0.0,-1.0,0.0435193027987338,1.0
21.958057403564453,-31.7181453704834,1.3903911113739014,-0.0,-0.0,-1.0,0.1112150905186624,2.0
22.13432884216309,-31.483877182006836,1.3858791589736938,-0.0,-0.0,-1.0,0.0665531940493208,2.0
22.020967483520508,-31.73284912109375,1.4302152395248413,-0.0,-0.0,-1.0,0.0776273729909531,2.0
