x,y,z,nx,ny,nz,curvature,density
33.157535552978516,-10.767518997192385,-0.1545212268829345,-0.0,-0.0,-1.0,0.0435625946392714,1.0
32.37136459350586,-12.255956649780272,-0.1177749633789062,-0.0,-0.0,-1.0,0.0268770808552477,1.0
32.58884048461914,-12.120349884033203,-0.1103370189666748,-0.0,-0.0,-1.0,0.035424571328723,1.0
32.693119049072266,-12.06076431274414,-0.1071064472198486,-0.0,-0.0,-1.0,0.0938926267061759,2.0
33.0905876159668,-12.050888061523438,-0.1060578823089599,-0.0,-0.0,-1.0,0.0329949513107065,1.0
32.972450256347656,-11.484586715698242,-0.0777862071990966,-0.0,-0.0,-1.0,0.1069314033126077,2.0
32.300254821777344,-11.127851486206056,-0.0620145797729492,-0.0,-0.0,-1.0,0.0650108147199932,1.0
33.19081497192383,-10.57257080078125,-0.2161636352539062,-0.0,-0.0,-1.0,0.0341661996591616,1.0
33.06258773803711,-10.467292785644531,-0.2118840217590332,-0.1854499967346707,0.594787673241337,-0.7821994134945816,0.0257820207237955,3.0
33.36143493652344,-10.425121307373049,-0.2059470415115356,-0.973036636591776,-0.1712968075420007,-0.1544574620278432,0.0686523567247832,6.0
32.550506591796875,-10.616535186767578,-0.186933159828186,-0.0,-0.0,-1.0,0.0432816102351166,2.0
32.88349533081055,-10.664548873901367,-0.1904364824295044,-0.0,-0.0,-1.0,0.0278231134675967,2.0
33.167606353759766,-10.69842529296875,-0.1933856010437011,0.8889385818244738,-0.4392039537854412,0.1299541639314787,0.0518742725630579,3.0
32.35537338256836,-10.416093826293944,-0.1754034757614135,-0.0,-0.0,-1.0,0.021000033874188,1.0
32.6357307434082,-12.350090026855469,-0.1093614101409912,-0.0,-0.0,-1.0,0.0195912883296649,1.0
32.74811553955078,-11.900827407836914,-0.0871088504791259,0.9823952788445492,-0.1864554264478013,0.0115710869026566,0.1626363889521805,7.0
31.885364532470703,-11.276866912841797,-0.0507159233093261,-0.9204482538570212,0.3505756174721769,-0.1728344537572358,0.1951767707923997,3.0
32.16286087036133,-11.196981430053713,-0.0477619171142578,0.3958836526570799,0.7525960783665927,-0.5261893921261754,0.2481430852623415,4.0
32.19508361816406,-11.294500350952148,-0.1540477275848388,-0.413951361440106,0.0646984584837266,-0.9079969051884,0.2265955117848656,3.0
32.60255432128906,-11.317501068115234,-0.1570918560028076,-0.116043710862451,0.8538509902999257,-0.5074173267963048,0.0269918671597723,3.0
31.920299530029297,-11.16701889038086,-0.1463356018066406,-0.0,-0.0,-1.0,0.1902260704034741,1.0
32.58915328979492,-11.134822845458984,-0.1470756530761718,0.0178717387955207,0.9203929173411391,0.3905860707458619,0.0929102302504274,6.0
32.976295471191406,-11.10550308227539,-0.1476602554321289,-0.0,-0.0,-1.0,0.0564288635695202,2.0
33.55012893676758,-11.225095748901367,-0.1586697101593017,0.1712944998784646,0.161697843532408,-0.9718600731115336,0.077564915719658,3.0
32.340248107910156,-12.202018737792969,-0.1439632177352905,-0.0,-0.0,-1.0,0.0262170597288327,1.0
32.238651275634766,-11.877449035644531,-0.1250308752059936,0.3856346174094106,0.2409263925253685,-0.8906404522815082,0.1326637855570622,4.0
31.76242446899414,-11.23587417602539,-0.0853947401046752,-0.0,-0.0,-1.0,0.2296244883859548,2.0
32.056575775146484,-11.320703506469728,-0.0928820371627807,-0.0,-0.0,-1.0,0.2261875662984046,2.0
31.883562088012695,-11.202110290527344,-0.0847457647323608,0.1504582883536477,-0.6680726670426264,-0.7287257474635043,0.1987841319232859,4.0
31.819738388061523,-11.246688842773438,-0.0062465667724609,-0.5006654131053268,0.845694572033785,0.1847561499725134,0.2286711461753192,3.0
32.06729507446289,-11.415542602539062,-0.0182063579559326,0.117596838706166,0.2064106076712219,-0.97137307177372,0.2177356296885637,3.0
32.087921142578125,-11.533805847167969,-0.0202736854553222,-0.0,-0.0,-1.0,0.1593234042036647,2.0
31.855663299560547,-11.207633972167969,-0.0019383430480957,0.4508959426647503,0.7819639939796221,-0.4303779281142368,0.1557120342595631,3.0
32.075828552246094,-11.301376342773438,-0.0084004402160644,-0.0,-0.0,-1.0,0.2031381221939912,2.0
32.0776481628418,-11.080869674682615,-0.1422704458236694,-0.0,-0.0,-1.0,0.11541772771977,2.0
32.463645935058594,-11.248132705688477,-0.1504567861557006,-0.0,-0.0,-1.0,0.0395500584643123,2.0
32.78728103637695,-11.050395965576172,-0.139788269996643,-0.0,-0.0,-1.0,0.1246292042059486,2.0
33.45164489746094,-11.211341857910156,-0.1492799520492553,-0.0,-0.0,-1.0,0.0590927660601258,1.0
31.7911376953125,-10.835765838623049,-0.1303797960281372,-0.0,-0.0,-1.0,0.0853844952126195,1.0
31.91915512084961,-10.932943344116213,-0.1349748373031616,-0.0,-0.0,-1.0,0.0448136079980106,1.0
32.59161376953125,-10.813535690307615,-0.127337098121643,-0.0,-0.0,-1.0,0.0666874957970486,2.0
32.663719177246094,-11.444494247436523,-0.1845886707305908,-0.0,-0.0,-1.0,0.0215911164659737,2.0
32.204200744628906,-11.063385009765623,-0.1703977584838867,-0.0,-0.0,-1.0,0.1055900994255868,1.0
32.55750274658203,-11.18998908996582,-0.1728878021240234,-0.0,-0.0,-1.0,0.0897536774826081,1.0
33.379371643066406,-11.206422805786133,-0.1665868759155273,0.5601924733983699,-0.7137019925003132,-0.4204924002272813,0.0627277978302501,3.0
33.611358642578125,-11.205324172973633,-0.1649327278137207,0.1467567230442447,0.227168630164957,-0.9627340638568328,0.0789378742832934,4.0
31.80305290222168,-10.674222946166992,-0.1563940048217773,-0.6392229582122798,0.3731425028942231,-0.6724274549928612,0.1166729791546877,3.0
32.00366973876953,-10.883453369140623,-0.1639745235443115,0.4260411275132684,0.5318541694777038,-0.7318607108435355,0.0375025025456386,3.0
32.57943344116211,-10.680803298950195,-0.1473965644836425,-0.0,-0.0,-1.0,0.0605385973767149,2.0
32.73394012451172,-10.842498779296877,-0.1538372039794922,-0.0,-0.0,-1.0,0.066182108735647,2.0
31.921003341674805,-11.304095268249512,0.0272397994995117,0.4520514734710993,-0.1379521687754801,-0.8812597031878567,0.1521990783078116,3.0
32.144195556640625,-11.466744422912598,0.0276147127151489,-0.0,-0.0,-1.0,0.2158880710580473,2.0
31.827781677246097,-10.988954544067385,-0.1428611278533935,-0.2829600147740874,-0.7862153884231085,-0.5493623513180979,0.1017970442992087,3.0
32.07067108154297,-11.203121185302734,-0.1464606523513794,-0.0,-0.0,-1.0,0.1573947604222349,2.0
32.298038482666016,-11.34684944152832,-0.1476329565048217,-0.0,-0.0,-1.0,0.0870350760031861,1.0
33.06889343261719,-12.141481399536133,-0.166798710823059,-0.0,-0.0,-1.0,0.0296211250101206,2.0
33.37061309814453,-11.314865112304688,-0.1244343519210815,-0.2446423780753085,-0.7479016830436427,-0.6170844183336216,0.0872368271568977,4.0
32.00209426879883,-11.204424858093262,-0.0990107059478759,-0.0,-0.0,-1.0,0.2580440112689288,2.0
32.194541931152344,-11.313515663146973,-0.10102379322052,-0.7685187179839339,-0.1420573268470822,-0.6238579133083045,0.1713160340422968,3.0
32.44343566894531,-12.325764656066896,-0.1450257301330566,0.913850511005744,-0.2725813276736179,0.3009595709364105,0.0162633148820893,3.0
32.80085754394531,-12.290980339050291,-0.138150930404663,0.955128963216598,-0.2940949794924877,0.0351682621421663,0.0333127439112285,3.0
31.807870864868164,-11.36807918548584,0.077170729637146,-0.0,-0.0,-1.0,0.2005389442663745,2.0
31.911535263061523,-11.581908226013184,0.0748481750488281,0.643205296976458,-0.5863137567037846,-0.4924663690459706,0.0666005894176377,4.0
31.826749801635746,-11.191139221191406,-0.0022605657577514,-0.2693314404150274,-0.4883237366524374,-0.8300605420243562,0.1482592025374856,3.0
32.104225158691406,-11.255010604858398,0.0022966861724853,0.058613165810302,0.3796087824178951,-0.9232885080541712,0.1050893187868131,3.0
32.61616897583008,-10.456687927246094,-0.2259057760238647,-0.0,-0.0,-1.0,0.0236266759976519,1.0
32.021705627441406,-11.286169052124023,-0.0412274599075317,-0.0,-0.0,-1.0,0.2628397323388587,2.0
32.73683166503906,-11.653676986694336,-0.1266874074935913,-0.0,-0.0,-1.0,0.0482727070801254,1.0
32.44793701171875,-11.631158828735352,-0.1380230188369751,-0.0,-0.0,-1.0,0.036384726010549,1.0
32.159420013427734,-11.521669387817385,-0.1465861797332763,-0.0,-0.0,-1.0,0.0922579582399996,1.0
32.909637451171875,-11.838613510131836,-0.1257294416427612,-0.3594664883350441,0.7808951243096212,-0.5108685237842835,0.0564401013607334,3.0
33.423004150390625,-10.65743637084961,-0.2031971216201782,-0.6860836468594614,-0.6443046727522542,-0.3378767795833745,0.0472979184767022,3.0
33.188289642333984,-10.66103744506836,-0.2085084915161132,0.5044070453207664,-0.5487132905018247,-0.6666987756531694,0.0534367093028382,3.0
33.29765701293945,-10.832509994506836,-0.2157840728759765,-0.0,-0.0,-1.0,0.0450068919147582,2.0
33.06142044067383,-10.83494758605957,-0.2211301326751709,-0.0,-0.0,-1.0,0.0570438799770396,2.0
31.90375518798828,-11.217995643615724,-0.0672162771224975,0.0629028265473637,-0.5332386852535539,-0.8436229838982657,0.1958885883164343,4.0
32.44943618774414,-11.078227043151855,-0.1109430789947509,-0.0,-0.0,-1.0,0.0870774108148994,1.0
32.17413330078125,-11.144658088684082,-0.0888510942459106,-0.0,-0.0,-1.0,0.1193827070808488,1.0
32.59467697143555,-11.052985191345217,-0.1227080821990966,-0.0,-0.0,-1.0,0.0327242910569375,1.0
32.94141387939453,-11.210841178894045,-0.1536659002304077,-0.0,-0.0,-1.0,0.0593318050014069,2.0
33.20586395263672,-11.98216724395752,-0.1859817504882812,0.3942058092424408,-0.0272538065833743,-0.9186179891479528,0.0525896711840905,3.0
31.97513961791992,-11.24389934539795,0.0354526042938232,-0.0,-0.0,-1.0,0.1191266902543166,1.0
31.867298126220703,-11.3247652053833,0.0511724948883056,-0.0396002111573408,0.8693288014535933,-0.4926451646363265,0.2129024786686905,5.0
32.11524963378906,-11.222088813781738,0.0165323019027709,-0.0,-0.0,-1.0,0.1250859112445832,2.0
31.999256134033203,-11.098695755004885,-0.0660756826400756,-0.0100650100234265,0.6993587666991651,-0.7146999447420234,0.214395516386323,5.0
31.915771484375,-11.317768096923828,-0.0576648712158203,-0.0,-0.0,-1.0,0.2034285766138467,2.0
32.355648040771484,-11.20436668395996,-0.1044768095016479,-0.8931280635043961,-0.0024716976736764,-0.4497956790493848,0.1075821086939422,3.0
32.69875717163086,-11.091508865356444,-0.1412166357040405,-0.0,-0.0,-1.0,0.0733413618752381,1.0
32.76708984375,-11.210187911987305,-0.1487691402435302,0.896983525968536,0.3419405881174039,-0.280173496853247,0.0839097890387498,3.0
31.836116790771484,-11.348210334777832,0.0297827720642089,-0.6054528208124034,-0.0168687308225523,-0.7957024115149709,0.1873469640382892,7.0
31.73286247253418,-11.32400894165039,0.0556483268737793,0.7507565967185361,0.3567360629108928,-0.555971144846958,0.1835697939663326,3.0
31.980697631835938,-11.318937301635742,0.0372545719146728,-0.3657567047148539,-0.7037729636222608,-0.6090366562288932,0.211133113738999,3.0
32.77667999267578,-11.961702346801758,-0.0357437133789062,0.2217488173214565,0.880282572787902,0.4194401674404197,0.146597135813417,3.0
32.486602783203125,-11.705829620361328,-0.1748672723770141,-0.0,-0.0,-1.0,0.0250619513814204,2.0
31.832101821899418,-11.141433715820312,-0.1206504106521606,-0.0,-0.0,-1.0,0.1805150852947506,2.0
32.16726303100586,-11.275680541992188,-0.1400234699249267,-0.4656706963538206,-0.8765503863333288,-0.1216972587047048,0.2612646496492939,5.0
32.461334228515625,-11.29871940612793,-0.1523630619049072,-0.0,-0.0,-1.0,0.0375057680716806,2.0
31.808757781982425,-10.953617095947266,-0.1096802949905395,-0.1246115662773121,-0.991129297225769,0.0462025294834394,0.0999164469582467,3.0
32.52143859863281,-11.121244430541992,-0.1453382968902588,0.1204852803225833,0.8458792550672125,0.5195878973499347,0.0858589306429301,3.0
31.815908432006836,-11.29814910888672,0.0034154653549194,0.5473979508660113,0.7873728614599946,-0.2835479861046303,0.2377308753761779,3.0
32.085933685302734,-11.271562576293944,-0.0056698322296142,0.4522097883446652,-0.0718491665519737,-0.8890129383710115,0.1219203493744668,3.0
33.55122375488281,-11.31833267211914,-0.0709495544433593,-0.0,-0.0,-1.0,0.0908197901291429,1.0
31.781566619873047,-11.440388679504396,0.1010278463363647,0.0706617538351247,0.0967335435255029,-0.992798840703364,0.1436004875855739,3.0
32.146705627441406,-11.64162254333496,0.0218626260757446,-0.0,-0.0,-1.0,0.1772335112534569,2.0
31.816387176513672,-11.28335189819336,0.0454294681549072,-0.8613107477727878,0.5014219643032446,0.0819744440991008,0.181472052233849,4.0
32.065223693847656,-11.388622283935549,0.037472128868103,-0.0,-0.0,-1.0,0.201025042368126,2.0
31.867937088012695,-11.695087432861328,0.1005315780639648,0.6523987739763482,-0.2695821601262384,-0.70830875940922,0.0334256156268851,3.0
31.90451431274414,-11.470036506652832,0.0963045358657836,-0.0,-0.0,-1.0,0.1420388047056872,1.0
32.03685760498047,-11.54546070098877,0.0930505990982055,-0.0,-0.0,-1.0,0.0912268755306057,2.0
31.741525650024418,-11.50983715057373,0.0984050035476684,-0.0,-0.0,-1.0,0.090864645469599,1.0
31.8997745513916,-11.60398006439209,0.0961900949478149,-0.6364115911046677,-0.2657425207529004,-0.7241278888231827,0.1033357100760186,6.0
31.9094295501709,-10.99186897277832,-0.1339644193649292,-0.0,-0.0,-1.0,0.0795289313692784,2.0
31.994525909423828,-11.052742004394531,-0.1412068605422973,-0.0,-0.0,-1.0,0.2172740229626378,1.0
32.14927291870117,-11.132745742797852,-0.1518266201019287,0.2517154838120491,-0.6621855880329837,-0.7057971112229615,0.1639397403408811,3.0
32.56743240356445,-10.764583587646484,-0.1298178434371948,-0.0,-0.0,-1.0,0.0596164446118293,2.0
32.71940994262695,-10.958059310913086,-0.1507027149200439,-0.0,-0.0,-1.0,0.0922039836037626,2.0
33.03511428833008,-10.921762466430664,-0.1559427976608276,-0.2927129968864055,-0.2431196088798151,-0.9247767066875684,0.1069812782985948,5.0
31.810258865356445,-11.242122650146484,-0.0528359413146972,-0.5171767811404838,0.8373683804653931,0.1770377712408655,0.2074586104990686,4.0
31.84460830688477,-11.352806091308594,-0.0632634162902832,0.0979767071786748,-0.0859556327277409,-0.9914697141379548,0.190105727527154,3.0
32.1649169921875,-11.210283279418944,-0.0605419874191284,0.418197226648117,0.7327160886389551,-0.5368782106525225,0.2380946674843245,5.0
32.03361892700195,-11.404914855957031,-0.0732074975967407,-0.0,-0.0,-1.0,0.1885028474495933,2.0
32.18498611450195,-11.899675369262695,-0.1201170682907104,-0.0,-0.0,-1.0,0.1798286847252369,1.0
32.370914459228516,-12.088497161865234,-0.1421998739242553,-0.0,-0.0,-1.0,0.0427757863564474,2.0
32.54413604736328,-11.972448348999023,-0.1378263235092163,-0.0,-0.0,-1.0,0.0632485564511863,1.0
32.730987548828125,-12.045248031616213,-0.1503070592880249,-0.0,-0.0,-1.0,0.088222572727971,1.0
33.01551818847656,-11.360811233520508,-0.1007642745971679,-0.0,-0.0,-1.0,0.0854659558826727,2.0
32.9073600769043,-11.056257247924805,-0.0708177089691162,-0.0,-0.0,-1.0,0.1012699212080073,1.0
32.015228271484375,-12.28277587890625,-0.0922989845275878,-0.0,-0.0,-1.0,0.020094168399916,1.0
32.563907623291016,-12.162239074707031,-0.0951235294342041,-0.0,-0.0,-1.0,0.0259063144714284,1.0
32.72468566894531,-12.283819198608398,-0.1096439361572265,-0.0,-0.0,-1.0,0.0303097368187328,1.0
31.881826400756836,-11.337003707885742,-0.0093660354614257,0.2684037503708477,0.2863008589807779,-0.919777823680117,0.182930470473442,5.0
32.06222152709961,-11.57244110107422,-0.0331010818481445,-0.0,-0.0,-1.0,0.1740545506411383,2.0
32.814334869384766,-11.779815673828123,-0.0686554908752441,-0.0,-0.0,-1.0,0.0752295074033436,1.0
32.67218780517578,-12.028532028198242,-0.0863838195800781,0.8630168998916555,0.4947305013642208,0.102193745020442,0.2244297214564561,3.0
31.919641494750977,-11.135862350463867,-0.0529686212539672,-0.6998909372781913,0.4637748487524095,0.5431993792158958,0.1630770267030033,4.0
31.815677642822266,-11.323753356933594,-0.0686410665512085,0.1773216502929246,-0.1666582005529827,-0.9699392127993566,0.2010437713265034,5.0
32.130271911621094,-11.825010299682615,-0.1161003112792968,-0.0,-0.0,-1.0,0.1457829598784066,1.0
32.279014587402344,-12.126482009887695,-0.1447119712829589,-0.0,-0.0,-1.0,0.0259750738486259,1.0
32.60847854614258,-12.010696411132812,-0.1385635137557983,-0.4102320656458058,0.7348988848905484,-0.5400308151416952,0.0637869557487753,4.0
32.84416961669922,-10.994171142578123,-0.0504419803619384,-0.0,-0.0,-1.0,0.1281750373686159,2.0
33.24394989013672,-12.00852394104004,-0.1478427648544311,0.5553557543559609,-0.5115778164989947,-0.6556432900364669,0.0591978168173874,3.0
33.38148498535156,-12.083940505981444,-0.1570243835449218,-0.0,-0.0,-1.0,0.0274902613170171,2.0
31.756175994873047,-10.964500427246094,-0.144774317741394,-0.3128714343212638,0.2228689652216326,-0.923277255176793,0.0901334584041307,6.0
31.96277236938477,-11.111543655395508,-0.1580996513366699,0.9078027495812402,0.335601525638246,-0.251526904807462,0.2329807592854282,3.0
32.461578369140625,-10.95944595336914,-0.1415812969207763,-0.0,-0.0,-1.0,0.0526068252481569,1.0
32.395835876464844,-11.356008529663086,-0.1811029911041259,-0.0,-0.0,-1.0,0.0383277688936317,2.0
32.79315185546875,-11.06256866455078,-0.1517562866210937,-0.0,-0.0,-1.0,0.1246292042059486,2.0
32.74906539916992,-11.29290771484375,-0.1748416423797607,-0.0,-0.0,-1.0,0.0390433105500294,1.0
33.398311614990234,-11.337446212768556,-0.1816761493682861,-0.0,-0.0,-1.0,0.0872368271568977,1.0
33.59738540649414,-11.261211395263672,-0.1752002239227295,0.4116025482902202,-0.9005516855177794,0.1399642952759155,0.1157982376617683,4.0
31.72779083251953,-11.316333770751951,-0.0870653390884399,-0.0,-0.0,-1.0,0.2238269540110654,2.0
31.977306365966797,-11.337556838989258,-0.0837956666946411,-0.0,-0.0,-1.0,0.1812769654063916,1.0
32.1727180480957,-11.796920776367188,-0.1226357221603393,-0.0,-0.0,-1.0,0.1580880352351901,2.0
32.26408386230469,-11.993125915527344,-0.1394613981246948,-0.0,-0.0,-1.0,0.0550344232930834,1.0
32.356998443603516,-12.046075820922852,-0.1429518461227417,0.7655712102994684,0.2405631692639442,-0.5966825651502599,0.0390414117666323,3.0
32.857139587402344,-11.07451057434082,-0.0435645580291748,-0.0,-0.0,-1.0,0.1213874381732377,1.0
32.97505569458008,-12.192188262939451,-0.1486469507217407,-0.0,-0.0,-1.0,0.0411572554332124,2.0
32.86115646362305,-12.232316970825195,-0.153794527053833,-0.0,-0.0,-1.0,0.0405262959071334,2.0
33.305152893066406,-12.056840896606444,-0.1322816610336303,-0.0,-0.0,-1.0,0.0511281247590446,2.0
33.41378402709961,-12.29374885559082,-0.1543394327163696,-0.0,-0.0,-1.0,0.0123772532196623,2.0
33.27994155883789,-10.390836715698242,0.5089039206504822,-0.0,-0.0,-1.0,0.0854934536421573,1.0
31.88325881958008,-11.266218185424805,-0.1244206428527832,-0.0,-0.0,-1.0,0.1582043027158001,2.0
32.13341522216797,-11.3633394241333,-0.132054328918457,-0.0,-0.0,-1.0,0.1168681891917869,2.0
32.312049865722656,-11.63735294342041,-0.1606413125991821,-0.2021019601429628,-0.4640845703803641,-0.8624269877741795,0.0322189009125298,3.0
32.458621978759766,-11.28306484222412,-0.1201006174087524,-0.9929799082376092,0.0494266049338067,-0.1074612142177203,0.0378227183917749,3.0
32.683956146240234,-11.480990409851074,-0.1404237747192382,-0.0,-0.0,-1.0,0.0227697370583012,2.0
32.97283935546875,-11.77694320678711,-0.1724054813385009,-0.0,-0.0,-1.0,0.0368348289650313,1.0
33.399452209472656,-11.32107162475586,-0.1193814277648925,-0.076091843971386,-0.8178874109091582,-0.5703246569782406,0.0872368271568977,3.0
33.347137451171875,-11.672762870788574,-0.1597175598144531,-0.0,-0.0,-1.0,0.0374872350771521,2.0
31.848400115966797,-11.192362785339355,-0.141669750213623,-0.0,-0.0,-1.0,0.17227197494966,2.0
32.05864715576172,-11.33515739440918,-0.1444723606109619,-0.3709185037882761,0.9025621932381708,-0.2186342857023342,0.1846812970727089,4.0
32.26918411254883,-11.617616653442385,-0.1612164974212646,-0.2109161363682736,-0.4348525832937109,-0.8754528052512404,0.0604502399072936,4.0
32.48352813720703,-11.761273384094238,-0.1652519702911377,-0.0,-0.0,-1.0,0.0148938510211373,2.0
32.7840461730957,-11.799636840820312,-0.1557003259658813,-0.0,-0.0,-1.0,0.0830246910113701,1.0
32.928131103515625,-12.10457992553711,-0.1800568103790283,-0.2757811140282113,0.9608339860976616,0.0272548767202785,0.0248529177586884,3.0
33.4273681640625,-11.860555648803713,-0.1356756687164306,-0.0,-0.0,-1.0,0.042304844899696,1.0
33.425819396972656,-12.052037239074709,-0.1552331447601318,0.5993723555465958,0.7474871053330474,-0.2863840197485654,0.0321070155041721,3.0
33.53413391113281,-12.286425590515137,-0.1751471757888794,-0.0,-0.0,-1.0,0.0114394673766962,1.0
32.399417877197266,-11.17184066772461,-0.1121186017990112,-0.0273037606161466,0.0728176023474488,-0.9969714647092888,0.1140826585448819,4.0
33.033905029296875,-11.432761192321776,-0.1086846590042114,0.3885395017128373,0.0040794456464416,-0.9214230373351632,0.1280341151151214,5.0
32.21842956542969,-11.83965301513672,-0.1303131580352783,-0.521737604654497,-0.3855020114549975,-0.7610374964832803,0.146004613230277,3.0
32.24903869628906,-11.876885414123535,-0.1324375867843628,0.3856346174094106,0.2409263925253685,-0.8906404522815082,0.0959730654026928,4.0
32.767757415771484,-12.199920654296877,-0.1403586864471435,-0.3605452138036912,0.1247929734175131,-0.9243559177010048,0.0122670913291652,3.0
31.85476875305176,-11.205965042114258,-0.0886580944061279,-0.0,-0.0,-1.0,0.1772779927450551,2.0
32.134864807128906,-11.304109573364258,-0.0829670429229736,0.1522494271361995,0.9773624390367132,-0.1469107712079204,0.1335034939860322,3.0
32.12689208984375,-11.647488594055176,-0.1163029670715332,0.0963802185129411,-0.0605401028210048,-0.9935017611609048,0.1106570775926495,3.0
32.62626647949219,-11.987265586853027,-0.1254725456237793,0.1856924389285405,0.734659328152731,-0.6525289186564437,0.0816351439289674,5.0
32.76896667480469,-11.8713960647583,-0.1074709892272949,0.8089258144793791,-0.1876178717828014,0.5571701363646165,0.1471848659867935,3.0
32.8267822265625,-12.09229564666748,-0.1270359754562378,-0.0,-0.0,-1.0,0.0971693188126873,1.0
33.261146545410156,-12.277889251708984,-0.1277397871017456,-0.0,-0.0,-1.0,0.0544454709092002,1.0
31.949527740478516,-11.18545913696289,-0.0523581504821777,-0.0,-0.0,-1.0,0.1862374782483841,2.0
31.808673858642575,-11.30877685546875,-0.0715092420578002,0.3508152708791796,-0.1463915794604165,-0.92493143052934,0.2010437713265034,4.0
32.197452545166016,-11.21542739868164,-0.0454221963882446,-0.1052615429045649,-0.122234451045653,-0.9869036156398042,0.1567657882007798,7.0
32.136329650878906,-11.602168083190918,-0.0898326635360717,-0.0,-0.0,-1.0,0.1225714858342137,2.0
32.26633834838867,-11.857718467712402,-0.1128982305526733,-0.3722531839016741,0.8056900980077794,-0.4607505106316015,0.1244388773237971,3.0
32.32932662963867,-12.130717277526855,-0.1408756971359253,-0.0,-0.0,-1.0,0.026896136590339,1.0
32.92552185058594,-11.700498580932615,-0.0726852416992187,-0.26862259048061,0.67310354858953,-0.6890381098021129,0.0696274802253888,3.0
32.65918731689453,-11.999929428100586,-0.1150640249252319,0.7820603055290312,0.3593239104258116,-0.5091836661874988,0.0769569710578335,4.0
32.755149841308594,-12.15940761566162,-0.1299716234207153,-0.0,-0.0,-1.0,0.01391246214939,2.0
33.171913146972656,-12.17961597442627,-0.1198086738586425,-0.0,-0.0,-1.0,0.0426339911873062,1.0
32.296722412109375,-10.48374366760254,-0.1968047618865966,0.2266171718233584,0.1435868598878216,-0.9633418246408372,0.0199529116283818,3.0
32.58509063720703,-10.702678680419922,-0.2107206583023071,-0.1970498649414708,0.8553496893351329,-0.4791119490065341,0.064811060869445,4.0
31.807205200195312,-11.320516586303713,0.0564799308776855,-0.6982764154521036,-0.0399928164638378,-0.7147101666092702,0.166552344419386,3.0
32.674198150634766,-10.648263931274414,-0.1983236074447631,-0.0,-0.0,-1.0,0.0324210518339417,2.0
32.011959075927734,-11.43056297302246,0.052020788192749,-0.4591088468336202,0.8844926079340251,-0.0830174275027258,0.2713021586812364,4.0
32.055171966552734,-11.685264587402344,0.0257501602172851,-0.0,-0.0,-1.0,0.1782629589662092,1.0
32.88658142089844,-10.806049346923828,-0.2095720767974853,-0.0,-0.0,-1.0,0.0371245568308472,1.0
33.43634796142578,-10.969974517822266,-0.2079988718032837,-0.0,-0.0,-1.0,0.0246058732262113,1.0
31.8487548828125,-10.8248291015625,-0.1565830707550048,-0.0,-0.0,-1.0,0.0412684962677393,1.0
32.126564025878906,-11.117876052856444,-0.173876404762268,-0.0,-0.0,-1.0,0.1105190877564648,2.0
32.5745735168457,-11.132802963256836,-0.1452975273132324,0.0178717387955207,0.9203929173411391,0.3905860707458619,0.09213056035746,6.0
32.34229278564453,-11.262537002563477,-0.1779037714004516,-0.0,-0.0,-1.0,0.082271749361012,1.0
31.98373031616211,-11.710294723510742,0.1132776737213134,-0.7017215913824694,0.2829506621680243,-0.6538545181967711,0.0703601193562373,4.0
33.17045974731445,-11.276485443115234,-0.1283484697341919,-0.0,-0.0,-1.0,0.0726396920690099,2.0
33.4532470703125,-11.392074584960938,-0.1289211511611938,0.205901632195506,-0.2669015446429927,-0.941471233403555,0.1159435662500635,3.0
31.943979263305664,-10.537168502807615,-0.1835018396377563,-0.0,-0.0,-1.0,0.0122250687939179,1.0
31.791088104248047,-10.39413070678711,-0.1792064905166626,-0.0,-0.0,-1.0,0.0120859938833519,1.0
32.54743194580078,-10.786537170410156,-0.164397120475769,-0.3062896760889704,0.8738354937645363,-0.377621720983583,0.0700972464062357,3.0
32.24962615966797,-10.745155334472656,-0.183958888053894,-0.8896848053066226,0.396268797711169,0.2267862146759834,0.0177620573762158,3.0
32.747535705566406,-10.93447208404541,-0.1688371896743774,-0.0,-0.0,-1.0,0.0879579389888691,2.0
32.588130950927734,-11.081894874572754,-0.2015634775161743,-0.0,-0.0,-1.0,0.0830999660578002,2.0
32.02294158935547,-11.348127365112305,0.0660008192062377,-0.342568142158332,0.9097541810814956,-0.2345088441464977,0.1812260044169295,4.0
31.71752166748047,-11.2987699508667,0.0511273145675659,-0.0,-0.0,-1.0,0.1876605529410194,2.0
33.258056640625,-11.16401481628418,-0.1632232666015625,0.5416322902663735,-0.1800396967562812,-0.8211091095175533,0.0618272623032765,3.0
32.78059768676758,-11.170099258422852,-0.1988413333892822,-0.7079154151738964,0.7060827247645549,-0.0174054804079525,0.0908155272167836,3.0
32.12716293334961,-11.665700912475586,0.0389702320098876,-0.0,-0.0,-1.0,0.179043186617009,2.0
33.488162994384766,-11.294291496276855,-0.1665223836898803,0.7643812126693739,-0.5852245281464996,-0.2706170973419909,0.0911218067471111,3.0
33.13128662109375,-12.313750267028809,0.0228673219680786,-0.0,-0.0,-1.0,0.0749537743054801,2.0
31.968427658081055,-11.1389799118042,-0.1742957830429077,0.532408324419262,0.5090064175588354,-0.676353341806629,0.196020494522552,3.0
31.79706764221191,-10.96223258972168,-0.1652841567993164,-0.1103047633901115,-0.1041163255869431,-0.988429385398737,0.0999164469582467,5.0
32.57648468017578,-11.318782806396484,-0.1532866954803466,-0.116043710862451,0.8538509902999257,-0.5074173267963048,0.0271567040593024,3.0
32.160526275634766,-11.254678726196287,-0.1749074459075927,-0.6259375060902166,0.6087995767422744,0.4874067232076179,0.2890053604160729,3.0
31.71365737915039,-11.556756019592283,0.0996707677841186,-0.0,-0.0,-1.0,0.0853389726152857,1.0
32.91828155517578,-11.52182960510254,-0.1585332155227661,-0.0,-0.0,-1.0,0.0755846008100962,1.0
32.79497146606445,-11.582690238952637,-0.174831748008728,-0.0,-0.0,-1.0,0.0439604076082955,1.0
31.93704414367676,-11.716872215270996,0.0961426496505737,-0.6890591341791319,-0.7161741345292599,0.11086982743547,0.0550866757219828,4.0
33.55830001831055,-11.766752243041992,-0.1559420824050903,-0.0511955042480883,0.1634868868884215,-0.9852162494398458,0.0226242364466371,4.0
33.11144256591797,-11.841460227966309,-0.1917288303375244,-0.0,-0.0,-1.0,0.0254353116759645,2.0
33.67136001586914,-12.018470764160156,-0.1867239475250244,0.9110608309026248,-0.2802034276076488,0.3024139572704009,0.0181835285699555,3.0
32.178810119628906,-10.97886562347412,-0.2187229394912719,-0.0,-0.0,-1.0,0.0370605848211304,2.0
31.87445831298828,-10.835686683654783,-0.2055443525314331,-0.0,-0.0,-1.0,0.0328921627523811,1.0
32.773372650146484,-11.178281784057615,-0.2369227409362793,0.1843557413590464,0.953161793890584,-0.2397823081364428,0.095358193940372,3.0
32.34182357788086,-11.076822280883787,-0.230828046798706,-0.0,-0.0,-1.0,0.1006213475889371,2.0
32.63650131225586,-10.915430068969728,-0.1912941932678222,-0.0,-0.0,-1.0,0.0812596461153058,2.0
32.47639083862305,-10.933432579040527,-0.1996810436248779,-0.0,-0.0,-1.0,0.0591367147311017,2.0
33.59292984008789,-11.084107398986816,-0.2046087980270385,-0.0,-0.0,-1.0,0.0288065844049287,1.0
33.07466125488281,-11.063228607177734,-0.2082481384277343,-0.0,-0.0,-1.0,0.0430264636354478,2.0
32.792362213134766,-11.099040031433104,-0.2215092182159423,-0.0,-0.0,-1.0,0.0778474519933538,2.0
32.14446258544922,-11.431303024291992,0.0117483139038085,-0.0,-0.0,-1.0,0.2028518913650124,2.0
31.945005416870117,-11.413373947143556,0.010293960571289,-0.0,-0.0,-1.0,0.1779377683675527,2.0
32.198890686035156,-11.598958969116213,-0.0129605531692504,-0.0,-0.0,-1.0,0.1344684872523573,1.0
32.22241973876953,-11.910913467407228,-0.0606237649917602,-0.0,-0.0,-1.0,0.1121407190309343,1.0
31.760112762451172,-10.822675704956056,-0.0833806991577148,-0.0,-0.0,-1.0,0.1139660817849922,1.0
31.787128448486328,-10.952346801757812,-0.1407660245895385,0.3257709396901004,-0.9437027131001136,-0.0574324310900503,0.0925789613998498,6.0
33.3699836730957,-11.367196083068848,-0.1200366020202636,-0.0,-0.0,-1.0,0.0802019851118147,1.0
33.158897399902344,-11.35696029663086,-0.1280592679977417,-0.0,-0.0,-1.0,0.0631329226416039,2.0
32.54636001586914,-11.13800811767578,-0.123826265335083,0.1859574791273162,0.8774076321499499,0.4422393729663061,0.0593062113361957,6.0
32.247833251953125,-11.312366485595703,-0.1689178943634033,-0.0,-0.0,-1.0,0.1311209617133901,2.0
32.00053024291992,-11.151158332824709,-0.1581906080245971,-0.0311076051106596,0.0617074520247827,-0.997609396141039,0.18096552663755,4.0
33.42237091064453,-11.436058044433594,-0.1291718482971191,-0.319698071159717,-0.8720992059201106,-0.3704539355038206,0.0884794547828382,3.0
32.69065856933594,-11.45810890197754,-0.1677594184875488,0.011681116408267,-0.7681704567739807,-0.6401388137420748,0.0170060585682206,3.0
32.4862174987793,-11.489331245422363,-0.1836936473846435,-0.0,-0.0,-1.0,0.0206587465309585,2.0
31.86623764038086,-11.389591217041016,0.109010100364685,-0.0,-0.0,-1.0,0.1232555304796623,1.0
32.07809066772461,-11.603692054748535,0.0913652181625366,-0.0,-0.0,-1.0,0.0897935281087015,2.0
32.75096130371094,-12.059622764587402,0.0592775344848632,-0.0,-0.0,-1.0,0.1825778640730254,1.0
32.49663543701172,-10.479148864746094,-0.2167361974716186,0.1150197157990589,-0.6935025209969038,-0.7112135532654332,0.0355996731535076,3.0
33.03273010253906,-10.667207717895508,-0.2120054960250854,-0.0,-0.0,-1.0,0.0536024060208413,1.0
32.764801025390625,-10.55906105041504,-0.2101824283599853,-0.6360490621916399,0.0483327767430878,-0.7701334515377439,0.0149690706811344,4.0
31.800886154174805,-11.093633651733398,-0.1181261539459228,-0.0,-0.0,-1.0,0.0829475909843502,2.0
33.70395278930664,-10.935868263244627,-0.2254525423049926,-0.0,-0.0,-1.0,0.0176333416837461,1.0
32.27505111694336,-11.179754257202148,-0.0961047410964965,-0.0,-0.0,-1.0,0.1494828166753906,2.0
32.029205322265625,-11.356224060058594,-0.1430691480636596,-0.3709185037882761,0.9025621932381708,-0.2186342857023342,0.1900186843888733,4.0
32.420467376708984,-11.726616859436035,-0.1768823862075805,-0.0,-0.0,-1.0,0.0184323183152933,2.0
32.231239318847656,-11.58669090270996,-0.1662815809249878,-0.0,-0.0,-1.0,0.0807498655086078,2.0
33.42325973510742,-11.922170639038086,-0.154132604598999,-0.0872800696185273,0.9748793917689088,-0.2049203771021013,0.0513647808915642,5.0
32.878414154052734,-11.929916381835938,-0.1834261417388916,-0.0,-0.0,-1.0,0.0376776380573919,1.0
32.669639587402344,-11.829744338989258,-0.1784389019012451,-0.0,-0.0,-1.0,0.0517262601762476,1.0
33.584556579589844,-12.105072021484377,-0.1785645484924316,-0.0,-0.0,-1.0,0.0146505290916917,1.0
32.87312698364258,-10.98453140258789,-0.0238070487976074,-0.0,-0.0,-1.0,0.1232930715653924,2.0
31.86360740661621,-11.570874214172363,0.1028122901916503,-0.5608555935926769,-0.4834626944815396,-0.672089894419233,0.0873005190820823,4.0
31.99549102783203,-11.66921615600586,0.0978660583496093,-0.0,-0.0,-1.0,0.088885165980956,2.0
32.729148864746094,-11.960392951965332,0.0984536409378051,-0.0,-0.0,-1.0,0.1537763693850925,1.0
32.230167388916016,-10.77748966217041,-0.2037973403930664,-0.8896848053066226,0.396268797711169,0.2267862146759834,0.0214938075120005,3.0
31.94622802734375,-10.686172485351562,-0.2001591920852661,-0.0,-0.0,-1.0,0.011021709059359,2.0
33.267906188964844,-10.36337947845459,-0.2941595315933227,-0.0,-0.0,-1.0,0.0498104181565768,2.0
32.79244613647461,-10.890766143798828,-0.2039376497268676,-0.0,-0.0,-1.0,0.0969977974566922,1.0
32.46002960205078,-10.859048843383787,-0.2102895975112915,-0.0,-0.0,-1.0,0.0482773044161775,2.0
33.19062042236328,-10.951644897460938,-0.2054640054702758,-0.0,-0.0,-1.0,0.040651009580421,2.0
33.036407470703125,-10.962793350219728,-0.2118879556655883,-0.0,-0.0,-1.0,0.0493588570158411,2.0
32.143558502197266,-11.748815536499023,-0.1412407159805297,-0.0,-0.0,-1.0,0.1165487523771625,2.0
32.42704391479492,-11.947175979614258,-0.1682076454162597,-0.0,-0.0,-1.0,0.0314965892537117,1.0
32.17506408691406,-11.83157730102539,-0.1551048755645752,-0.0,-0.0,-1.0,0.144567032334506,2.0
32.92133712768555,-12.10637664794922,-0.1854612827301025,-0.2757811140282113,0.9608339860976616,0.0272548767202785,0.0248529177586884,3.0
32.69169235229492,-11.97161102294922,-0.1653827428817749,-0.0,-0.0,-1.0,0.0956723548165057,2.0
33.49247741699219,-12.02170753479004,-0.1618211269378662,-0.0,-0.0,-1.0,0.0266382193244749,1.0
32.0535888671875,-11.319141387939451,-0.0672848224639892,-0.0,-0.0,-1.0,0.2521514605311085,2.0
31.713041305541992,-11.33175563812256,-0.0846228599548339,-0.0,-0.0,-1.0,0.2292805798922861,2.0
32.787513732910156,-11.074626922607422,0.0017024278640747,-0.0,-0.0,-1.0,0.1130340946519998,1.0
32.10852813720703,-11.62196922302246,-0.11963951587677,0.3374510142423165,0.4159935406680992,-0.8444383856204375,0.1163580594708664,4.0
32.08353042602539,-11.628201484680176,-0.1216847896575927,0.0963802185129411,-0.0605401028210048,-0.9935017611609048,0.1137312446956287,3.0
32.8851432800293,-11.681622505187988,-0.107581615447998,-0.0,-0.0,-1.0,0.0771472001174099,2.0
31.957202911376953,-10.4257173538208,-0.1889417171478271,-0.0,-0.0,-1.0,0.0113611874917062,1.0
32.26551818847656,-10.515165328979492,-0.2088286876678466,-0.0,-0.0,-1.0,0.0199809803334422,2.0
33.13747024536133,-10.587051391601562,-0.237047791481018,-0.0,-0.0,-1.0,0.0579579481462256,1.0
32.78611373901367,-10.597700119018556,-0.2327442169189453,-0.0,-0.0,-1.0,0.0115965941255989,2.0
32.516056060791016,-10.615480422973633,-0.2347967624664306,-0.0,-0.0,-1.0,0.0411650520446345,2.0
32.12725067138672,-11.284936904907228,-0.1798464059829712,-0.0,-0.0,-1.0,0.1926981876726912,2.0
31.914461135864254,-11.222384452819824,-0.1660388708114624,-0.0,-0.0,-1.0,0.183612192979712,1.0
33.26732635498047,-10.637649536132812,-0.2548164129257202,-0.0,-0.0,-1.0,0.0506882039378955,1.0
32.99216842651367,-11.185401916503906,-0.1681108474731445,0.4727632911164204,0.0401540636776698,-0.8802741173878399,0.050349728871075,3.0
32.665767669677734,-11.243391036987305,-0.1750191450119018,-0.0,-0.0,-1.0,0.0499411484418054,1.0
32.37704849243164,-11.363779067993164,-0.1994760036468505,-0.0,-0.0,-1.0,0.0355452134558763,2.0
33.199859619140625,-11.273902893066406,-0.1953867673873901,-0.0,-0.0,-1.0,0.0721419112822185,2.0
32.940284729003906,-11.298858642578123,-0.1934635639190673,-0.0,-0.0,-1.0,0.0625710447615592,2.0
31.83040428161621,-11.361098289489746,0.0384351015090942,-0.8672593214816561,0.0519995211008204,-0.4951336376257049,0.2120831854178153,3.0
33.0981559753418,-11.08742332458496,-0.1482065916061401,0.252536115714584,0.4380732669224536,-0.862738270315905,0.0983936037191768,5.0
32.84758377075195,-11.123798370361328,-0.150152325630188,0.42268775649597,0.5428358494786848,-0.7257164053741366,0.0831699695993344,4.0
32.02410888671875,-11.640680313110352,-0.0166836977005004,-0.0,-0.0,-1.0,0.1326655389689506,1.0
32.24293518066406,-12.248804092407228,-0.1384893655776977,-0.0,-0.0,-1.0,0.0074401053313272,1.0
32.09857177734375,-12.186635971069336,-0.1244666576385498,-0.0,-0.0,-1.0,0.0128390456338828,2.0
33.190677642822266,-12.080462455749512,-0.1283038854598999,-0.0,-0.0,-1.0,0.0472993954936611,1.0
32.89828872680664,-12.17049789428711,-0.1371515989303589,-0.0,-0.0,-1.0,0.0229396020658268,2.0
32.45246124267578,-12.304431915283203,-0.1531102657318115,0.913850511005744,-0.2725813276736179,0.3009595709364105,0.0185386244556539,3.0
33.429813385009766,-12.272428512573242,-0.1756516695022583,0.8792296152288547,-0.395394795377036,0.2657409255144424,0.0123671352415318,3.0
32.426570892333984,-10.543925285339355,-0.2147920131683349,-0.0,-0.0,-1.0,0.0351365709091016,1.0
32.96897888183594,-10.664283752441406,-0.2310757637023925,-0.0,-0.0,-1.0,0.0349151438345989,2.0
32.629859924316406,-10.602167129516602,-0.223213791847229,-0.0,-0.0,-1.0,0.0326253030649872,1.0
33.20568084716797,-10.78413200378418,-0.265012264251709,-0.0,-0.0,-1.0,0.0473876523453108,1.0
33.19709014892578,-11.212881088256836,-0.2085115909576416,-0.0,-0.0,-1.0,0.069770065494531,1.0
32.28247833251953,-10.461669921875,-0.196865439414978,-0.0,-0.0,-1.0,0.0199529116283818,2.0
32.12315368652344,-10.41691780090332,-0.1939502954483032,0.4938251660170008,0.3334033506177189,-0.8031057907929441,0.01092678464185,3.0
31.73434829711914,-10.755807876586914,-0.1578800678253173,-0.0,-0.0,-1.0,0.0604381034201551,1.0
32.19740676879883,-10.95876121520996,-0.1796067953109741,-0.0,-0.0,-1.0,0.0355578575436741,2.0
31.85717010498047,-11.145780563354492,-0.0617992877960205,0.1610071035298861,0.2611093901197621,-0.9517870554930882,0.1915871942034706,3.0
33.0538444519043,-11.059684753417969,-0.1676739454269409,0.7778750456070138,0.6095000271725795,0.1530363692019354,0.0580357698966802,4.0
32.77062225341797,-11.110980987548828,-0.1926685571670532,-0.1872923520327715,0.9494506197669552,0.2519227966941008,0.0888970979064112,3.0
32.37544250488281,-11.212501525878906,-0.1437366008758545,-0.8931280635043961,-0.0024716976736764,-0.4497956790493848,0.1311955591282214,3.0
32.019107818603516,-11.411081314086914,-0.0230920314788818,0.3583908900248758,0.8729897648755548,-0.3308244857468999,0.1739163294142455,4.0
33.153289794921875,-11.150518417358398,-0.1914293766021728,-0.0,-0.0,-1.0,0.089329925007868,2.0
33.001617431640625,-11.565950393676758,-0.1105177402496337,-0.0,-0.0,-1.0,0.0573833300507987,2.0
32.620670318603516,-11.744388580322266,-0.17177414894104,-0.0,-0.0,-1.0,0.0312857038052546,1.0
32.20028305053711,-11.726045608520508,-0.0845704078674316,-0.0,-0.0,-1.0,0.1497349180483632,1.0
33.177268981933594,-11.876769065856934,-0.1838589906692505,-0.0,-0.0,-1.0,0.0406125324348239,1.0
32.81166076660156,-12.001218795776367,-0.1159262657165527,-0.0,-0.0,-1.0,0.1961937898355003,2.0
32.5474853515625,-12.318721771240234,-0.0913176536560058,-0.0,-0.0,-1.0,0.0164618576532422,1.0
32.208648681640625,-12.324291229248049,-0.1108952760696411,-0.0,-0.0,-1.0,0.0064593409922023,1.0
33.598724365234375,-11.260762214660645,-0.2130619287490844,0.884226115528874,-0.4630526169556438,-0.061044660268105,0.1376976699273221,4.0
33.43544006347656,-11.282076835632324,-0.2011288404464721,-0.0,-0.0,-1.0,0.0781561752377166,2.0
31.763206481933594,-11.85124397277832,0.0592576265335083,0.2032353934158988,-0.4195277509435167,-0.8846987289757793,0.2257383901109932,4.0
31.79893493652344,-11.004453659057615,-0.1058216094970703,-0.0,-0.0,-1.0,0.1093232394009836,2.0
32.424598693847656,-10.91063117980957,-0.1424640417098999,-0.0,-0.0,-1.0,0.0648474692109318,2.0
32.13956832885742,-11.209367752075195,-0.1284369230270385,-0.0,-0.0,-1.0,0.2372603355300935,1.0
32.566917419433594,-10.914976119995115,-0.1510897874832153,0.4345154443978758,-0.2930949328768251,-0.8516405866923242,0.0581092163665906,3.0
32.51335525512695,-11.35246467590332,-0.1524152755737304,-0.0,-0.0,-1.0,0.0315765669786196,1.0
31.84049415588379,-11.074642181396484,-0.1223260164260864,-0.0,-0.0,-1.0,0.097005389688554,2.0
32.1088752746582,-11.174860000610352,-0.1539543867111206,-0.0,-0.0,-1.0,0.2125256430889158,2.0
32.231971740722656,-10.783443450927734,-0.186315655708313,-0.8896848053066226,0.396268797711169,0.2267862146759834,0.0211929243861593,3.0
32.27336883544922,-11.11473274230957,-0.1783055067062378,-0.0,-0.0,-1.0,0.1194179692445006,2.0
33.1480712890625,-12.331231117248535,-0.1069520711898803,-0.0,-0.0,-1.0,0.0712363784292627,1.0
33.4306755065918,-11.934281349182127,-0.1287637948989868,-0.0872800696185273,0.9748793917689088,-0.2049203771021013,0.0330119489844251,5.0
33.65360641479492,-12.03622341156006,-0.1496877670288086,0.9110608309026248,-0.2802034276076488,0.3024139572704009,0.01706915687392,3.0
31.89573860168457,-11.327879905700684,0.018003225326538,-0.5146963035547152,0.7983903152376726,-0.3125069913486775,0.1906467918650115,6.0
32.754486083984375,-11.94344425201416,-0.0623286962509155,0.9846737236032224,0.173295476783948,-0.0196554260088428,0.1794726748493098,8.0
31.826356887817383,-11.495652198791504,-0.0596832036972045,-0.0,-0.0,-1.0,0.1197799926450118,1.0
32.786415100097656,-12.3380765914917,-0.1397539377212524,0.7458330581598162,0.0406182810407886,-0.6648933783707486,0.0307837084180189,4.0
32.033119201660156,-11.413331031799316,-0.0640417337417602,-0.9153191095737488,-0.2705444824974154,-0.2983229971680443,0.2271540312117612,3.0
32.837833404541016,-11.84007740020752,-0.1178964376449585,0.2228535257651711,-0.4006126021369199,-0.8887327208239371,0.0699453245800451,3.0
32.90323257446289,-12.220389366149902,-0.1389155387878418,0.4126946333239654,-0.5872502375893734,-0.696290383444165,0.0356845110025349,3.0
32.88960266113281,-11.609597206115724,-0.1090204715728759,-0.0,-0.0,-1.0,0.0470517599167175,1.0
31.952831268310547,-11.038613319396973,-0.1053462028503418,-0.2562480641344085,0.4089523491088548,-0.8758395434014828,0.2149553308432645,3.0
32.23223876953125,-11.05581760406494,-0.1125266551971435,-0.0,-0.0,-1.0,0.0806790053250319,2.0
32.55249786376953,-11.260924339294434,-0.1330378055572509,-0.0,-0.0,-1.0,0.0349977793004118,1.0
32.85660934448242,-11.65933322906494,-0.1657660007476806,-0.0,-0.0,-1.0,0.0681932679885354,1.0
32.915443420410156,-11.151429176330566,-0.1342741250991821,-0.0,-0.0,-1.0,0.0799901685865985,2.0
33.08273696899414,-11.23950481414795,-0.1438575983047485,-0.0,-0.0,-1.0,0.0718760452108325,1.0
33.202056884765625,-11.080416679382324,-0.136467695236206,0.6210957176373356,-0.4641144566557871,-0.6315361277517436,0.1159347827062342,6.0
32.037384033203125,-10.48445987701416,-0.1639806032180786,-0.0,-0.0,-1.0,0.007226576719073,2.0
31.92978858947754,-10.668188095092772,-0.1664180755615234,-0.0,-0.0,-1.0,0.0113812420016619,2.0
32.02121353149414,-11.356145858764648,-0.0017013549804687,-0.9169360456633596,-0.0417260621487685,-0.3968465999612424,0.2202639954050791,3.0
33.02821731567383,-11.489208221435549,-0.105681300163269,-0.1628784770798808,-0.1246682970652515,-0.9787381761283194,0.1086921904050018,6.0
32.9175910949707,-11.733741760253906,-0.1020678281784057,-0.5589122768147154,0.5472508384825524,-0.6230036810532776,0.0705654904371344,6.0
32.75790786743164,-12.020502090454102,-0.095014214515686,0.1670374599623024,0.0620692558460789,-0.983994865051671,0.1737807542612973,3.0
33.11406707763672,-11.279581069946287,-0.1080168485641479,-0.0,-0.0,-1.0,0.0733957031346271,2.0
32.074581146240234,-11.356056213378906,-0.0096145868301391,-0.0,-0.0,-1.0,0.2528067855706451,2.0
32.6550407409668,-12.2870512008667,-0.0990582704544067,-0.0,-0.0,-1.0,0.0251896810901837,2.0
32.99428939819336,-11.075274467468262,-0.0851169824600219,-0.0,-0.0,-1.0,0.0596041456694338,1.0
33.02238082885742,-11.48168659210205,-0.1028507947921752,-0.2464060948007166,-0.6077701310164983,-0.7549168856829529,0.1256691971857031,5.0
32.891780853271484,-11.766240119934082,-0.1012598276138305,-0.1543880518114896,0.098172054677436,-0.9831208354715422,0.0647031703260895,3.0
32.74528121948242,-12.022687911987305,-0.0972955226898193,0.1504758506466437,0.1505291248245131,-0.9770864859119356,0.1775832468606232,3.0
33.21318054199219,-11.357410430908203,-0.1163285970687866,-0.0,-0.0,-1.0,0.0762398721546009,2.0
33.45680236816406,-11.352602005004885,-0.1393338441848755,-0.0,-0.0,-1.0,0.0857968268506114,2.0
33.55528259277344,-11.812204360961914,-0.1655664443969726,-0.0,-0.0,-1.0,0.0200501954327741,2.0
31.729053497314453,-10.964813232421877,-0.1367397308349609,-0.2788190411014041,0.2306476657934578,-0.932234732555767,0.0744755777149288,3.0
32.01136779785156,-11.108404159545898,-0.1705923080444336,-0.0,-0.0,-1.0,0.1506158594236578,2.0
32.38914489746094,-10.88936996459961,-0.1918675899505615,-0.0,-0.0,-1.0,0.0429341555666538,1.0
32.322967529296875,-11.087831497192385,-0.1974773406982422,-0.0,-0.0,-1.0,0.1034981058350066,2.0
32.66144561767578,-10.719573974609377,-0.2069067955017089,-0.0,-0.0,-1.0,0.078806135622827,1.0
33.3505859375,-10.378769874572754,0.5413039326667786,-0.0,-0.0,-1.0,0.0917046352089007,1.0
32.43037796020508,-11.424057960510254,-0.1386293172836303,-0.0,-0.0,-1.0,0.0244603920509914,1.0
32.8100471496582,-11.129796028137209,-0.1553148031234741,-0.017580489792209,0.7131944581874899,-0.7007457393301216,0.1313409737816391,3.0
32.57358932495117,-11.392553329467772,-0.1524877548217773,-0.0,-0.0,-1.0,0.0244070180087233,2.0
33.06462860107422,-10.96897029876709,-0.1712369918823242,0.9127361395833506,0.4060688308787886,0.0449537994747479,0.0569427738257167,8.0
33.31382751464844,-10.805330276489258,-0.1869392395019531,0.3882221839409424,-0.7693625724564302,0.507311312705866,0.0542534369676487,3.0
31.87436866760254,-11.311617851257324,-0.0626447200775146,0.155142293311585,0.2764689677065059,-0.9484175128714784,0.2160157751313674,3.0
31.956151962280273,-11.38437271118164,-0.0793628692626953,-0.0,-0.0,-1.0,0.143560632165738,2.0
32.1826286315918,-11.27635669708252,-0.0948094129562377,-0.935829714348654,-0.3523703119852966,0.0076097945768093,0.1699701152103131,4.0
32.606727600097656,-11.129598617553713,-0.1307177543640136,-0.2585780538606029,0.9287732752298544,0.2655514889441816,0.0823128840219331,4.0
31.83301544189453,-11.107952117919922,-0.0555076599121093,0.1610071035298861,0.2611093901197621,-0.9517870554930882,0.1372045805479125,3.0
31.802947998046875,-11.379678726196287,-0.080473780632019,-0.0,-0.0,-1.0,0.225489922735966,2.0
31.957176208496097,-11.105218887329102,-0.0720925331115722,-0.15018966113102,0.9446367255681172,-0.2917267941024536,0.2066004853411428,8.0
32.13761901855469,-11.309857368469238,-0.1183514595031738,-0.0,-0.0,-1.0,0.1291029622688136,2.0
32.607181549072266,-10.836256980895996,-0.1347819566726684,0.0073717107864168,0.3159205613880518,-0.9487570061782624,0.0655258147916548,3.0
32.575538635253906,-11.335623741149902,-0.1814092397689819,-0.116043710862451,0.8538509902999257,-0.5074173267963048,0.0291850257217958,3.0
32.842994689941406,-10.876727104187012,-0.1724823713302612,-0.0,-0.0,-1.0,0.0486672200340808,1.0
32.74996566772461,-11.200640678405762,-0.1919406652450561,-0.6669970276932441,0.5358028572345342,0.5177163926588446,0.0917252110402168,4.0
33.15331268310547,-10.73015022277832,-0.2028313875198364,-0.0,-0.0,-1.0,0.0483577475014123,2.0
31.74863052368164,-11.019699096679688,-0.1389096975326538,0.9626497709451712,0.0528366652570748,-0.265544168272853,0.1049404182043759,3.0
32.144775390625,-10.51975917816162,-0.1769192218780517,-0.0,-0.0,-1.0,0.0087525906615512,2.0
32.00611114501953,-10.79513168334961,-0.1710683107376098,-0.0,-0.0,-1.0,0.015378442366916,2.0
33.630027770996094,-11.38516330718994,-0.1198384761810302,-0.0,-0.0,-1.0,0.1654304719737741,1.0
33.598384857177734,-11.837435722351074,-0.1369436979293823,-0.0,-0.0,-1.0,0.0199863668391019,1.0
33.51369094848633,-12.241762161254885,-0.1430965662002563,-0.0,-0.0,-1.0,0.0126351754528991,1.0
33.6908073425293,-10.394021034240724,-0.0853409767150878,-0.565715591635918,-0.657564374180847,0.4975690536882037,0.0387105539311934,3.0
31.79421615600586,-10.767290115356444,-0.156476616859436,-0.0,-0.0,-1.0,0.033279445404308,1.0
