x,y,z,nx,ny,nz,curvature,density
11.104120254516602,0.7647542953491211,-0.0225120782852172,-0.2208007167201038,0.8354692777746093,-0.5032277112706148,0.0606304363211324,3.0
11.934252738952637,1.7395401000976562,-0.0232496261596679,-0.0,-0.0,-1.0,0.0589933325710976,1.0
12.289029121398926,1.6989641189575195,0.0080288648605346,-0.0,-0.0,-1.0,0.0425187413347794,1.0
12.638203620910645,1.5436248779296875,0.0475927591323852,0.3022639040150899,0.8658848401132219,0.3985975112712778,0.1073929980242965,3.0
11.397595405578612,2.6906328201293945,0.4980238676071167,-0.75183271315783,0.2184555442947927,-0.6221131300596399,0.1808618638440575,6.0
11.289802551269531,1.943988800048828,-0.0513937473297119,-0.0,-0.0,-1.0,0.0743202986575609,1.0
10.950690269470217,1.338414192199707,-0.0351790189743042,-0.0,-0.0,-1.0,0.0443009916316079,2.0
11.606932640075684,1.9020071029663088,-0.0241259336471557,-0.2113730640253487,0.9688665082713516,-0.1289151540921948,0.0713980692023747,3.0
11.17767333984375,1.2643718719482422,-0.0120716094970703,-0.0,-0.0,-1.0,0.0614769683191147,2.0
10.999664306640623,0.8486213684082031,0.0018979310989379,0.6263337254624186,-0.2877100848265916,-0.7245198212867904,0.0863259340007856,8.0
10.754323959350586,0.7186832427978516,-0.009552001953125,-0.0,-0.0,-1.0,0.0639198289785694,1.0
11.958515167236328,2.197267532348633,-0.0197235345840454,-0.0,-0.0,-1.0,0.0306914078041277,1.0
11.892389297485352,1.933977127075195,-0.0048960447311401,-0.4132369726167823,0.2120103223725107,-0.8855996994523094,0.0306595181144581,3.0
11.440966606140137,2.82000732421875,0.5457723140716553,-0.0,-0.0,-1.0,0.1612026360822804,2.0
12.703539848327637,0.7497768402099609,0.143580675125122,-0.0,-0.0,-1.0,0.1285491940187362,1.0
12.67327880859375,1.9076557159423828,0.6521658897399902,-0.0,-0.0,-1.0,0.1056287231905799,2.0
12.46882438659668,0.7994441986083984,0.6997219324111938,-0.0,-0.0,-1.0,0.1527349692326859,2.0
10.672603607177734,2.955662727355957,0.3375366926193237,-0.0,-0.0,-1.0,0.2251448376695333,1.0
10.519850730895996,2.695521354675293,0.025288701057434,-0.0,-0.0,-1.0,0.1191324929988224,1.0
10.280654907226562,2.8036632537841797,0.0032767057418823,-0.0,-0.0,-1.0,0.1082066191710157,1.0
10.52908420562744,2.2873573303222656,0.0534594058990478,-0.0,-0.0,-1.0,0.1571650615399096,2.0
11.6144380569458,2.815277099609375,0.0813990831375122,0.3761217285937042,-0.5741238504471989,-0.7272649102131671,0.0571548605689471,3.0
11.463042259216309,2.6543073654174805,0.0842299461364746,0.1810946613580171,-0.9611457292841522,-0.2083353323525805,0.1620307179617909,3.0
11.62086009979248,2.103811264038086,0.1323080062866211,-0.0,-0.0,-1.0,0.0893944425413155,2.0
11.506428718566896,2.1362991333007812,0.1232674121856689,-0.1865212666360916,-0.9613006765289848,0.2027580489089999,0.1186760604197143,4.0
12.588583946228027,1.8240737915039065,0.2079579830169677,-0.6064256442353901,0.7823131297771764,0.1422466343782185,0.1683073442960593,3.0
12.653467178344728,0.7316665649414062,0.2892916202545166,0.7955993039539605,-0.4344706548571644,-0.4222049237230188,0.1602554477413371,3.0
11.348134994506836,2.832338333129883,0.7451910972595215,-0.2443783080556932,0.2851163453691216,-0.9268160077141482,0.121240484748015,7.0
11.26700210571289,2.032393455505371,-0.0523847341537475,-0.0,-0.0,-1.0,0.0670150556653922,1.0
12.00243091583252,2.2550783157348633,-0.0442677736282348,-0.0,-0.0,-1.0,0.0313961505402891,1.0
11.356986045837402,2.02462387084961,-0.0478472709655761,-0.0,-0.0,-1.0,0.1047459716992903,2.0
11.327174186706545,1.5836687088012695,-0.0078139305114746,0.5763638322081064,-0.3925776565878091,-0.716719970748974,0.1029305907212115,3.0
10.901820182800291,1.4645929336547852,-0.0161393880844116,-0.0,-0.0,-1.0,0.085745945407068,1.0
12.243473052978516,2.242306709289551,-0.0340824127197265,-0.0,-0.0,-1.0,0.0333786977495104,1.0
11.999066352844238,2.1191930770874023,-0.0311660766601562,-0.0,-0.0,-1.0,0.0268664461906965,2.0
11.91786003112793,1.935354232788086,-0.0164514780044555,-0.4132369726167823,0.2120103223725107,-0.8855996994523094,0.028371212098475,3.0
11.34906768798828,2.713925361633301,0.3308992385864258,-0.2921732551351116,-0.8794968656546891,-0.3756594898140215,0.1956359506496715,6.0
11.854684829711914,1.200946807861328,-0.0264608860015869,-0.3485147015809353,0.3675394946115008,-0.8622367555855374,0.0139086222183346,3.0
11.6531982421875,1.111435890197754,-0.0234384536743164,-0.0,-0.0,-1.0,0.0228925166700454,1.0
11.940890312194824,1.182695388793945,-0.0213484764099121,-0.0,-0.0,-1.0,0.0157735409674821,1.0
11.793996810913086,0.8187274932861328,0.0153365135192871,-0.0,-0.0,-1.0,0.0304702765778074,1.0
11.739542007446287,0.7828607559204102,0.0174179077148437,-0.1049868180557001,0.3160972349128126,-0.9428999449119794,0.0422447267559283,4.0
11.700777053833008,0.6855068206787109,0.0384178161621093,-0.0,-0.0,-1.0,0.0386455181222969,1.0
11.71884822845459,0.9939937591552734,-0.0008049011230468,-0.0,-0.0,-1.0,0.0313741139307075,2.0
12.681897163391112,2.008953094482422,0.4053056240081787,-0.0,-0.0,-1.0,0.1054589590895804,1.0
12.53683376312256,2.638774871826172,0.3369390964508056,-0.0,-0.0,-1.0,0.2146021208688566,1.0
10.531206130981444,1.2132282257080078,0.0546686649322509,-0.0,-0.0,-1.0,0.0283776119779756,2.0
11.394630432128906,2.140695571899414,0.0083808898925781,-0.0,-0.0,-1.0,0.098307286573309,2.0
10.696584701538086,1.204328536987305,0.0520241260528564,-0.0,-0.0,-1.0,0.0240495825813909,1.0
11.608386993408203,2.0876998901367188,0.0201375484466552,-0.0,-0.0,-1.0,0.0976351577179682,1.0
11.496572494506836,1.6918067932128906,0.0456898212432861,-0.0,-0.0,-1.0,0.034601064004094,2.0
12.51319694519043,2.975221633911133,-0.01487398147583,-0.0,-0.0,-1.0,0.1500231023777932,1.0
12.482879638671877,2.479572296142578,0.0218408107757568,-0.0,-0.0,-1.0,0.0372687314201037,1.0
12.661701202392578,2.0145111083984375,0.0634737014770507,-0.0,-0.0,-1.0,0.1079582364406794,1.0
12.385009765625,1.4839954376220703,0.093644380569458,-0.0,-0.0,-1.0,0.1247352322184076,1.0
12.560516357421877,1.619882583618164,0.0897228717803955,-0.0,-0.0,-1.0,0.138255312631605,1.0
10.43756103515625,2.541261672973633,0.0158922672271728,-0.0,-0.0,-1.0,0.0738213229295203,1.0
10.489730834960938,2.220609664916992,0.040351390838623,-0.0,-0.0,-1.0,0.1464236373026977,2.0
11.729612350463867,2.9330902099609375,0.035480260848999,-0.0,-0.0,-1.0,0.0453196161131203,2.0
11.646623611450195,2.66748046875,0.0516607761383056,-0.0,-0.0,-1.0,0.0407424212175112,2.0
10.42603874206543,2.1151161193847656,0.0452687740325927,-0.0,-0.0,-1.0,0.1013330505117129,1.0
11.491739273071287,1.9655647277832031,0.0961220264434814,-0.0,-0.0,-1.0,0.1176838720617976,1.0
12.691905975341797,1.767414093017578,0.1539294719696045,-0.0,-0.0,-1.0,0.1683821178472699,1.0
10.806257247924805,3.0716094970703125,0.4307825565338135,-0.0,-0.0,-1.0,0.2081775803799511,1.0
12.183212280273438,2.2204666137695312,0.0160999298095703,-0.0,-0.0,-1.0,0.0360336534021363,1.0
11.982290267944336,2.1321372985839844,0.0126435756683349,0.1563661704176414,0.9618873106127832,-0.2243265976896809,0.0264895346369826,3.0
11.493206024169922,1.873329162597656,0.0069355964660644,-0.0,-0.0,-1.0,0.0832898274069229,1.0
11.176816940307615,1.4455909729003906,0.0229158401489257,-0.1889515899818331,0.3316218119054498,-0.924296635562352,0.1016983534066984,3.0
11.749353408813477,1.259084701538086,0.0141584873199462,-0.0,-0.0,-1.0,0.0186918895252776,1.0
11.687646865844728,0.9578075408935548,0.0355379581451416,-0.0,-0.0,-1.0,0.0313876948906557,1.0
12.672017097473145,1.5443992614746094,0.0202691555023193,0.3022639040150899,0.8658848401132219,0.3985975112712778,0.0771141433645329,3.0
11.520513534545898,1.383779525756836,-0.0268678665161132,0.927306882472074,-0.2015363285423011,-0.3154125140155547,0.0592918303095439,4.0
11.607217788696287,1.031606674194336,0.0078017711639404,-0.0,-0.0,-1.0,0.0281034898149393,2.0
10.740851402282717,2.9780712127685547,0.0455789566040039,-0.0,-0.0,-1.0,0.2021629305129168,1.0
10.875042915344238,2.9702281951904297,0.0534334182739257,-0.0,-0.0,-1.0,0.238736793316799,1.0
11.822365760803224,3.115053176879883,0.0916318893432617,-0.5293350715958981,0.7756202490626766,0.3438278802286346,0.1550075190419594,3.0
11.636780738830566,2.742443084716797,0.1115140914916992,-0.0,-0.0,-1.0,0.0404461078438191,2.0
11.51998519897461,2.13690185546875,0.1527788639068603,0.4605708625739709,-0.8407934795433968,-0.2845009759300943,0.0586146670705498,4.0
12.541449546813965,0.6864967346191406,0.3201346397399902,-0.5727019000749255,0.3821467752083952,-0.725242287686256,0.1545736807527341,8.0
11.455010414123535,2.951152801513672,0.0742888450622558,-0.3504346746019772,-0.5804452199511945,-0.7350366558699066,0.0740115031695382,5.0
12.617457389831545,1.8582878112792969,0.8359086513519287,-0.0,-0.0,-1.0,0.1109696224997225,2.0
12.497875213623049,0.6438179016113281,0.2882027626037597,-0.2712372594728355,-0.908869819881261,-0.3168374971222152,0.1135090151594694,6.0
10.268704414367676,1.193765640258789,0.0860321521759033,-0.0,-0.0,-1.0,0.0819611356264455,1.0
11.71582317352295,2.07632827758789,0.0190727710723876,-0.0,-0.0,-1.0,0.0726259330444439,1.0
10.268811225891112,1.0548133850097656,0.0229227542877197,-0.0,-0.0,-1.0,0.0760571622360783,1.0
11.340417861938477,2.7727108001708984,0.5282840728759766,0.4774239639868728,-0.8727358118452969,-0.1019733363864893,0.1796392561023657,5.0
12.121211051940918,1.2141590118408203,-0.0163249969482421,-0.0,-0.0,-1.0,0.0148458834586676,1.0
12.027831077575684,1.228008270263672,-0.0262365341186523,-0.0,-0.0,-1.0,0.016142768719927,2.0
12.701677322387695,1.661468505859375,0.018583059310913,-0.0,-0.0,-1.0,0.0947102141161937,1.0
11.89741039276123,1.3060073852539062,-0.0095298290252685,-0.0,-0.0,-1.0,0.0122766499897661,1.0
11.915661811828612,1.5338115692138672,-0.0349345207214355,0.3675179599190999,-0.2575589810968296,-0.8936408229223113,0.0506546668330345,3.0
11.58810806274414,1.5058231353759766,-0.0611922740936279,-0.0,-0.0,-1.0,0.0813278394502744,1.0
12.64645004272461,3.0756912231445312,0.6657280921936035,-0.4875625837719322,0.8698345818671673,-0.0753029022920611,0.1763460202669905,5.0
11.348226547241213,2.7506160736083984,0.1563179492950439,0.5245156054050156,0.1374344499779279,-0.8402351763916304,0.1558145452095356,4.0
10.679644584655762,3.0562000274658203,0.0536761283874511,-0.0,-0.0,-1.0,0.1379358191098258,2.0
12.095645904541016,2.175477981567383,-0.0359406471252441,-0.0,-0.0,-1.0,0.0315228209724789,2.0
12.668455123901367,1.818584442138672,0.0688507556915283,0.1728488568377268,0.1095445596551999,-0.9788377098068092,0.2492331361431514,5.0
12.356925964355469,2.193012237548828,-0.0107147693634033,-0.0,-0.0,-1.0,0.0275363041908551,1.0
11.680585861206056,1.8149280548095703,-0.0358572006225585,-0.0,-0.0,-1.0,0.0875017892017564,2.0
11.544882774353027,1.533918380737305,-0.0161898136138916,-0.0,-0.0,-1.0,0.085523159349218,2.0
11.4296236038208,2.8854293823242188,0.5586867332458496,-0.0,-0.0,-1.0,0.1389200468593742,1.0
12.472745895385742,2.8106632232666016,-0.0174098014831542,-0.0,-0.0,-1.0,0.2464493168767532,2.0
12.218225479125977,2.7151966094970703,-0.0280735492706298,-0.0,-0.0,-1.0,0.0506780733586122,1.0
11.963624954223633,2.5210914611816406,-0.025925874710083,-0.0,-0.0,-1.0,0.0495751911205421,1.0
11.809470176696776,2.028219223022461,0.0252742767333984,0.3805271636505466,0.9247141788826474,-0.0101373121418672,0.0350974014202664,3.0
11.58314037322998,2.0387134552001953,0.0013880729675292,-0.0,-0.0,-1.0,0.0927325226945453,2.0
11.383909225463867,2.065706253051758,-0.0222730636596679,-0.0,-0.0,-1.0,0.125470355917052,1.0
10.537847518920898,1.353445053100586,-0.0184309482574462,-0.5603720578085931,0.3494566406271558,-0.7509082588099198,0.0274678664905859,3.0
10.44363498687744,1.0415763854980469,0.0110456943511962,-0.0,-0.0,-1.0,0.0585211992239812,1.0
12.679012298583984,1.869852066040039,0.0750608444213867,-0.8298773343735606,-0.4420623357160906,-0.3404181270647438,0.2230912509830857,5.0
12.592571258544922,2.0874500274658203,0.0341167449951171,-0.0,-0.0,-1.0,0.110662643091025,1.0
12.129475593566896,2.233001708984375,-0.0328104496002197,-0.0,-0.0,-1.0,0.0362915295940866,1.0
11.617347717285156,1.902667999267578,-0.0362358093261718,-0.2113730640253487,0.9688665082713516,-0.1289151540921948,0.0843591266883783,3.0
11.470888137817385,1.836435317993164,-0.0418851375579834,-0.0,-0.0,-1.0,0.1506436766166544,1.0
10.68758773803711,0.9650135040283204,-0.0026555061340332,-0.0,-0.0,-1.0,0.0307043299574635,1.0
10.481415748596191,0.92303466796875,-0.0204501152038574,-0.0,-0.0,-1.0,0.0456948781709978,1.0
12.697305679321287,1.8316516876220703,0.0825560092926025,-0.9354972091487862,-0.1515356468445513,-0.3191894725867938,0.2293353396151886,7.0
12.639530181884766,0.7875871658325195,0.2323930263519287,-0.0,-0.0,-1.0,0.1531564444517998,2.0
11.915807723999023,3.065868377685547,0.0081877708435058,-0.0,-0.0,-1.0,0.1067513019057191,2.0
11.721806526184082,2.8234996795654297,0.0237417221069335,-0.0,-0.0,-1.0,0.050016816837169,1.0
11.037408828735352,2.519990921020508,-0.0062141418457031,-0.0,-0.0,-1.0,0.1072197492807117,1.0
10.527473449707031,2.287173271179199,-0.030890941619873,-0.0,-0.0,-1.0,0.2290352741079893,1.0
12.674516677856444,1.893413543701172,0.2602097988128662,-0.0,-0.0,-1.0,0.1182103367577981,1.0
12.527365684509276,0.6709747314453125,0.4262261390686035,-0.0004296559808292,-0.524187038610911,-0.8516030553891065,0.1811086585801142,5.0
11.529248237609863,2.1827239990234375,0.0971052646636962,-0.1805944533349028,-0.653392893312186,0.7351621388467973,0.0662718493240329,4.0
10.258763313293455,1.1096410751342771,0.1030092239379882,-0.0,-0.0,-1.0,0.0727195993806093,2.0
12.685877799987791,1.9725008010864256,0.845726728439331,-0.0,-0.0,-1.0,0.114472338141656,1.0
11.364900588989258,2.8149948120117188,0.6292264461517334,-0.0673464381494452,-0.997246724561966,0.031039130448725,0.1300289432786232,3.0
12.55352783203125,2.585930824279785,-0.0343737602233886,-0.0,-0.0,-1.0,0.0582959649183059,2.0
12.671751976013184,1.927760124206543,0.08897066116333,-0.0,-0.0,-1.0,0.1623771946106726,1.0
12.250859260559082,2.419865608215332,-0.0395107269287109,-0.0,-0.0,-1.0,0.0295626763309571,1.0
11.872528076171877,2.0107975006103516,-0.0141468048095703,-0.0,-0.0,-1.0,0.0315485735630871,1.0
12.05266571044922,2.301264762878418,-0.041818618774414,-0.0,-0.0,-1.0,0.0451468712968612,2.0
11.77387809753418,1.9491605758666992,-0.0153758525848388,-0.0,-0.0,-1.0,0.039564697754337,1.0
11.606603622436523,1.9789295196533203,-0.0398213863372802,-0.0,-0.0,-1.0,0.0744072211704784,1.0
11.39781379699707,1.9594860076904297,-0.061314582824707,-0.0,-0.0,-1.0,0.1150027490958614,1.0
10.650209426879885,1.1970176696777344,-0.0308103561401367,-0.0,-0.0,-1.0,0.0253987667359679,1.0
10.41422176361084,0.9995336532592772,-0.0301265716552734,-0.0,-0.0,-1.0,0.0627124337162003,1.0
12.636445999145508,0.8279714584350586,0.2688560485839844,-0.0,-0.0,-1.0,0.1618091366028348,1.0
12.497663497924805,0.6974258422851562,0.2747738361358642,-0.520458745692026,-0.8496783503015369,-0.084672280361059,0.1669643517069496,5.0
12.391820907592772,2.92557430267334,0.1282548904418945,-0.0,-0.0,-1.0,0.1900571131353016,2.0
12.668620109558104,0.7099132537841797,0.048307180404663,-0.0,-0.0,-1.0,0.1584203282256074,1.0
11.609106063842772,2.836111068725586,0.0621945858001709,0.3761217285937042,-0.5741238504471989,-0.7272649102131671,0.0654999494047561,3.0
12.134177207946776,0.7727241516113281,-0.0295467376708984,-0.0,-0.0,-1.0,0.0365690917763655,1.0
11.353480339050291,2.3123559951782227,0.1222853660583496,-0.0,-0.0,-1.0,0.1213393291203521,1.0
11.288692474365234,2.7057695388793945,0.0491697788238525,-0.0,-0.0,-1.0,0.1616864360799703,1.0
12.019725799560549,0.7972726821899414,-0.048861026763916,-0.0,-0.0,-1.0,0.0168614870892927,1.0
10.857149124145508,2.662905693054199,0.0077624320983886,-0.0,-0.0,-1.0,0.0635212864828246,1.0
10.46721076965332,2.410964012145996,0.0038564205169677,-0.0,-0.0,-1.0,0.1750064581015659,2.0
12.529813766479492,1.8929595947265625,0.319042444229126,-0.0,-0.0,-1.0,0.1571696774632664,1.0
12.676092147827148,1.891972541809082,0.8538451194763184,-0.0,-0.0,-1.0,0.1109696224997226,2.0
12.559163093566896,2.0726146697998047,0.8186447620391846,-0.0,-0.0,-1.0,0.1241585852361205,1.0
11.362815856933594,2.8144521713256836,0.6072688102722168,-0.0,-0.0,-1.0,0.1087844844083508,2.0
12.59890079498291,2.541855812072754,-0.0290861129760742,-0.0,-0.0,-1.0,0.0409269762561304,2.0
12.64750862121582,1.7814083099365234,0.1260590553283691,-0.0,-0.0,-1.0,0.1968895174226149,2.0
12.265472412109377,2.3012771606445312,-0.0246138572692871,-0.0,-0.0,-1.0,0.0377279748001639,1.0
12.631731033325195,0.6716442108154297,0.3398599624633789,-0.538593319510696,-0.5994647003736149,0.5920804921498606,0.1610126520810896,4.0
12.002249717712402,2.03469181060791,-0.0078201293945312,-0.0,-0.0,-1.0,0.0265179329503585,1.0
11.654655456542969,1.8559484481811523,-0.0211806297302246,-0.0,-0.0,-1.0,0.0832273832174398,2.0
11.404210090637209,1.8228559494018557,-0.0501737594604492,-0.0,-0.0,-1.0,0.1548448464876501,2.0
10.904312133789062,1.252446174621582,-0.016874074935913,-0.0,-0.0,-1.0,0.0321809476631764,1.0
10.75765895843506,1.0501718521118164,-0.0020525455474853,-0.0,-0.0,-1.0,0.0214858774399105,2.0
10.651571273803713,1.1152715682983398,-0.0303678512573242,-0.0,-0.0,-1.0,0.0294779942426744,1.0
10.422985076904297,0.8451900482177734,-0.0171184539794921,-0.0,-0.0,-1.0,0.0419215605494704,2.0
11.85527229309082,3.088595390319824,0.3106040954589844,-0.0,-0.0,-1.0,0.0969380453122541,1.0
11.373489379882812,2.7468156814575195,0.3063983917236328,-0.6815562045398077,-0.1713526897239722,-0.711420688325587,0.2102196876052526,6.0
10.35127067565918,2.148928642272949,0.2660605907440185,-0.0,-0.0,-1.0,0.1243772217428782,2.0
11.455004692077637,2.8348989486694336,0.8340609073638916,-0.0,-0.0,-1.0,0.1130550603920077,1.0
12.691869735717772,1.807464599609375,0.0834670066833496,0.3845142087558332,0.1815243680772658,-0.9050954242835528,0.2663048538329251,4.0
12.309683799743652,2.1248254776000977,-0.0314488410949707,-0.0,-0.0,-1.0,0.0278634483415578,1.0
11.921918869018556,1.9002923965454104,-0.0267391204833984,-0.4132369726167823,0.2120103223725107,-0.8855996994523094,0.0257039003747852,3.0
11.648833274841309,1.815227508544922,-0.0422587394714355,0.182208816967914,0.4313234651793538,-0.8836062558656019,0.090879279901612,3.0
10.923999786376951,3.133589744567871,0.0857243537902832,-0.0,-0.0,-1.0,0.1280340663438273,2.0
11.358087539672852,1.5098047256469729,-0.0136544704437255,-0.0,-0.0,-1.0,0.0477786609805075,1.0
10.644835472106934,3.0469322204589844,0.0685522556304931,-0.0,-0.0,-1.0,0.1687668194341717,2.0
10.962574005126951,1.3467121124267578,-0.0339453220367431,-0.0,-0.0,-1.0,0.0611543638325844,2.0
10.326674461364746,2.8674163818359375,0.0618932247161865,-0.0,-0.0,-1.0,0.1456852230081697,2.0
10.66990089416504,1.041254997253418,-0.0126178264617919,-0.0,-0.0,-1.0,0.0303918492730832,2.0
10.423614501953123,0.8933010101318359,-0.0198795795440673,-0.0,-0.0,-1.0,0.044443660668787,2.0
12.603775024414062,0.7212047576904297,0.3203766345977783,-0.9664581192467132,-0.0080037427689982,0.2566995205367431,0.1564325190290567,3.0
11.376447677612305,3.101119041442871,0.1435334682464599,-0.0,-0.0,-1.0,0.220882282726734,2.0
12.4737548828125,0.6842708587646484,0.3132839202880859,-0.1825262362081342,-0.5304223339171283,-0.8278504217415117,0.1222332340923832,7.0
10.943273544311523,3.0914344787597656,0.0959780216217041,-0.0,-0.0,-1.0,0.123772403570925,2.0
10.524660110473633,2.8421144485473633,0.0914249420166015,-0.0,-0.0,-1.0,0.138517456684898,1.0
10.371826171875,2.1228771209716797,0.2025539875030517,-0.0,-0.0,-1.0,0.1049086325253238,2.0
12.398153305053713,2.7654218673706055,-0.0450372695922851,-0.0,-0.0,-1.0,0.1117350285292472,1.0
12.26485824584961,2.7506637573242188,-0.056398868560791,-0.0,-0.0,-1.0,0.0637427936982051,1.0
12.612234115600586,1.842656135559082,0.2065861225128173,0.0514403278676609,0.9908483703726098,-0.1247934277067943,0.1677518212748182,4.0
12.06951904296875,2.5972156524658203,-0.0418970584869384,-0.0,-0.0,-1.0,0.0462200782360064,1.0
11.78791046142578,2.242703437805176,0.0090892314910888,-0.0,-0.0,-1.0,0.0218973085834462,1.0
11.363040924072266,2.8871641159057617,0.2548518180847168,-0.0,-0.0,-1.0,0.1379323254654395,1.0
11.44436264038086,2.085625648498535,0.0011768341064453,-0.0,-0.0,-1.0,0.1589728244731657,2.0
11.163501739501951,2.1808414459228516,-0.0604050159454345,-0.0,-0.0,-1.0,0.0644038704271986,2.0
11.059473991394045,2.008615493774414,-0.0347838401794433,-0.0,-0.0,-1.0,0.0554446240320436,1.0
10.92819595336914,2.078066825866699,-0.0703914165496826,-0.0,-0.0,-1.0,0.0708775828473646,1.0
10.762191772460938,1.7157135009765625,-0.0110487937927246,-0.0,-0.0,-1.0,0.0490260676125968,1.0
10.605478286743164,1.9095001220703125,-0.0798847675323486,-0.0,-0.0,-1.0,0.0240463787030604,1.0
10.41104793548584,1.2105045318603516,0.0485632419586181,-0.1376099551259723,0.658991045334509,-0.7394554093514762,0.0506674859298748,4.0
10.474813461303713,1.4875450134277344,-0.0037972927093505,-0.0,-0.0,-1.0,0.0497879035573526,2.0
10.285261154174805,1.1140213012695312,0.0492615699768066,0.5735896108527518,0.0379908122774656,-0.8182613619768976,0.0746008665417331,3.0
10.350372314453123,2.138578414916992,0.274073839187622,-0.0,-0.0,-1.0,0.1243772217428782,2.0
12.628124237060549,2.5762434005737305,0.3173902034759521,-0.0,-0.0,-1.0,0.1514597677517984,1.0
12.602535247802734,2.838956832885742,0.2494177818298339,0.689790601884761,0.7190862007591587,-0.0842850012114725,0.2168394286031344,3.0
11.453107833862305,2.931659698486328,0.0859861373901367,0.2424946850814399,-0.5164770378353494,-0.8212477075134371,0.0604094757190868,3.0
11.321821212768556,3.0650529861450195,0.035900592803955,-0.0,-0.0,-1.0,0.1733560737719468,1.0
10.962974548339844,3.055635452270508,-0.0121216773986816,-0.0,-0.0,-1.0,0.1460620666035232,1.0
10.63499641418457,2.769472122192383,0.006568431854248,-0.0,-0.0,-1.0,0.0627776902039509,1.0
10.253679275512695,2.7076950073242188,-0.0389599800109863,-0.0,-0.0,-1.0,0.0875137907565208,1.0
12.64156723022461,3.1084938049316406,0.5977199077606201,0.7648731914087409,0.5619797462554945,0.3148773822662047,0.1220497677741936,3.0
11.353302001953123,2.702638626098633,0.538693904876709,-0.3043682214307904,0.4913831066054391,-0.8160285707779139,0.1913330004118662,7.0
12.631214141845703,2.065810203552246,0.8178300857543945,-0.0,-0.0,-1.0,0.1241585852361205,1.0
10.35434913635254,2.9847283363342285,0.0725142955780029,-0.9090966316634091,0.3235200419735745,-0.2624463692636282,0.1325566420497478,3.0
10.222740173339844,3.107112407684326,0.0218622684478759,-0.0,-0.0,-1.0,0.1325566420497479,1.0
11.380440711975098,2.793959140777588,0.2695236206054687,-0.7187009916591417,-0.613113371282942,-0.3279647519814168,0.1903703425018504,3.0
11.39829921722412,2.8132662773132324,0.6461567878723145,0.3549931105656661,-0.5494110226061286,-0.7563910494511424,0.1870720990459845,3.0
11.390485763549805,2.773505210876465,0.615729570388794,-0.9076507117361764,0.1176413719505746,-0.4029028333114564,0.1412849967588404,3.0
12.645196914672852,2.8676528930664062,0.7284348011016846,-0.6054174379838594,-0.0698702364442375,-0.7928353396792339,0.1805716643416358,3.0
12.537457466125488,2.932744026184082,0.7014877796173096,0.9459767873632386,0.2999126281138158,-0.1232084951121074,0.1411977828609218,3.0
12.465646743774414,0.95166015625,-0.0449647903442382,-0.0,-0.0,-1.0,0.0491708541592653,1.0
12.659180641174316,1.1799564361572266,-0.0366935729980468,-0.0,-0.0,-1.0,0.0739290901853125,1.0
12.691631317138672,1.8228645324707031,0.0177812576293945,-0.9995633335839058,0.0180059184441806,0.0234292350624343,0.2569342844331012,3.0
12.615528106689451,2.8765907287597656,0.1146016120910644,0.4452757344378862,-0.1694146466505094,-0.8792202214582444,0.1969636178333924,4.0
12.665396690368652,2.9724369049072266,0.1196451187133789,-0.0,-0.0,-1.0,0.2432961083897131,2.0
12.649070739746094,0.7577953338623047,0.2541191577911377,-0.8734977335575231,-0.4366757350040205,-0.2152115515686122,0.1415921043198075,3.0
11.43515396118164,2.796009063720703,0.4690210819244385,-0.1565291344388893,0.8547970865475446,-0.4947934628727845,0.1445466255937953,3.0
12.66267204284668,0.7012462615966797,0.1563172340393066,0.5079763877468351,-0.788134765989907,0.3475680942343694,0.16414108565589,4.0
12.525583267211914,0.6536540985107422,0.2463805675506591,-0.0,-0.0,-1.0,0.1191104289051298,2.0
11.371002197265623,2.74346923828125,0.4544239044189453,0.7769979098804851,-0.3414558836752824,-0.5288498156801136,0.1696194822998841,3.0
12.122068405151367,2.5063228607177734,0.4085826873779297,-0.0,-0.0,-1.0,0.1257027793271373,1.0
12.447696685791016,0.6684722900390625,0.3202433586120605,0.0510588697329708,-0.3488679179410053,-0.9357799782283758,0.1208840443744991,5.0
12.563364028930664,1.9286880493164065,0.5234038829803467,-0.0,-0.0,-1.0,0.1433729192633959,1.0
12.420326232910156,0.7046279907226562,0.2743003368377685,-0.0,-0.0,-1.0,0.1169710572858251,2.0
12.515899658203123,0.6639842987060547,0.2675647735595703,-0.5073865900439553,-0.8222880558431799,-0.2576843058108328,0.1310653599698058,9.0
12.597772598266602,0.6911830902099609,0.2674872875213623,0.3967523730003164,-0.397244179002424,-0.8275171398631619,0.1968554632094019,4.0
12.658373832702637,1.883441925048828,0.3756716251373291,-0.8368999724958296,-0.5036765480798134,0.2142623880919896,0.1476448389121129,3.0
11.889738082885742,2.933218002319336,0.0533454418182373,-0.0,-0.0,-1.0,0.0686895663898729,2.0
12.112715721130373,2.826953887939453,0.0324769020080566,-0.0,-0.0,-1.0,0.0423920735562596,2.0
12.592484474182127,2.9162464141845703,0.0240359306335449,-0.0,-0.0,-1.0,0.2117889470867852,2.0
12.487777709960938,0.6422176361083984,0.1339752674102783,-0.0,-0.0,-1.0,0.0848478709952958,1.0
11.320562362670898,2.6724624633789062,0.4388985633850097,-0.0,-0.0,-1.0,0.1087114521110272,2.0
12.5201997756958,0.8006439208984375,0.0550606250762939,-0.0,-0.0,-1.0,0.1545072522042226,2.0
11.33697509765625,2.7417755126953125,0.3709778785705566,0.2725096765046976,-0.9378493859962452,-0.2148883556588666,0.1654756920852793,4.0
12.58816146850586,1.7565784454345703,0.1704821586608886,-0.0,-0.0,-1.0,0.1802233515257546,1.0
11.083937644958496,1.5183048248291016,0.0142161846160888,-0.0,-0.0,-1.0,0.1091424602612542,1.0
11.34571933746338,2.671163558959961,0.1658668518066406,-0.9825420584502974,-0.1851076150957824,-0.0186084445831449,0.2252767195437417,4.0
11.504215240478516,2.2053050994873047,0.0914714336395263,-0.4623905607869981,-0.531458378328545,0.7097513377229233,0.0686847195131497,4.0
11.83706283569336,2.0171051025390625,0.0472102165222168,0.3805271636505466,0.9247141788826474,-0.0101373121418672,0.0272462483244883,3.0
11.947197914123535,1.5478439331054688,-0.0260093212127685,0.3675179599190999,-0.2575589810968296,-0.8936408229223113,0.0489791316844573,3.0
12.10635757446289,1.866106033325195,0.0106186866760253,-0.0,-0.0,-1.0,0.0168876806111255,1.0
12.121213912963867,1.685588836669922,-0.0159778594970703,-0.0,-0.0,-1.0,0.0468288973044319,1.0
12.374903678894045,2.0183677673339844,0.0172574520111084,-0.0,-0.0,-1.0,0.0299651862777538,1.0
11.799224853515623,3.089834213256836,0.2027535438537597,-0.0,-0.0,-1.0,0.1341048446979084,2.0
12.501233100891112,2.843698501586914,0.1284153461456298,0.3611531393389888,0.7331420016307386,0.5762562063791304,0.2199466482746899,6.0
11.366204261779783,2.781705856323242,0.8078629970550537,0.1069787526260796,0.5088911512098744,-0.854157680236417,0.0930439829914027,5.0
10.304664611816406,2.8333091735839844,0.1836211681365966,-0.0,-0.0,-1.0,0.1479133497706266,1.0
12.066449165344238,2.6096057891845703,0.0897221565246582,-0.0,-0.0,-1.0,0.1330268438074724,1.0
12.039541244506836,2.3814830780029297,0.055333137512207,-0.0,-0.0,-1.0,0.0447282354705228,2.0
12.221665382385254,2.425203323364258,0.0539898872375488,-0.0,-0.0,-1.0,0.0393660871389466,1.0
11.522204399108888,2.8084716796875,0.14272141456604,0.6576756520469571,-0.4959250298151258,-0.5670283075010242,0.0889598926243051,3.0
11.798952102661133,3.123208999633789,0.1808056831359863,-0.0,-0.0,-1.0,0.1061649460255052,2.0
11.87714958190918,2.6986007690429688,0.1116769313812255,-0.0,-0.0,-1.0,0.0417696505895489,1.0
12.459829330444336,2.783119201660156,0.0986113548278808,-0.0,-0.0,-1.0,0.1693522484361505,1.0
12.647089004516602,2.6813716888427734,0.0734295845031738,-0.0,-0.0,-1.0,0.1086219804261577,1.0
12.091752052307127,3.046449661254883,0.0427653789520263,-0.0,-0.0,-1.0,0.0337842116609086,1.0
12.403071403503418,3.031437873840332,0.020251989364624,-0.0,-0.0,-1.0,0.1689954748968647,1.0
12.493663787841797,0.6809425354003906,0.2105464935302734,0.6532468980523978,-0.7147808798482544,-0.2497134037016749,0.1067285903844368,4.0
12.68032932281494,1.8431663513183592,0.3667511940002441,-0.8903426398547036,-0.4522690735528134,-0.0523704951689143,0.1600321307829048,4.0
10.6892671585083,1.0988130569458008,0.0093929767608642,-0.0,-0.0,-1.0,0.0289803122694879,1.0
10.91171169281006,1.5130338668823242,0.0777773857116699,0.8085399792798602,0.3814152859543898,-0.4480909299979794,0.0814295560976952,3.0
11.090773582458496,1.2503938674926758,0.0341951847076416,-0.0,-0.0,-1.0,0.0607145818874484,1.0
11.42454719543457,2.065755844116211,0.1681785583496093,-0.0,-0.0,-1.0,0.1759224952127148,2.0
11.540258407592772,1.3515281677246094,0.0488123893737793,-0.0,-0.0,-1.0,0.0519940026491473,2.0
11.54549789428711,1.044236183166504,-0.0024662017822265,-0.0,-0.0,-1.0,0.0380455473147207,1.0
11.482866287231444,2.0995683670043945,0.1735246181488037,0.30286320113472,-0.2485869637181693,-0.9200426092675336,0.1121434010426717,4.0
11.92138671875,1.0825843811035156,-2.7894973754882812e-05,-0.0,-0.0,-1.0,0.0156947497991306,2.0
12.312488555908203,1.0642709732055664,-0.00887131690979,-0.0,-0.0,-1.0,0.0265807505903522,2.0
12.706341743469238,1.9108152389526367,0.1263630390167236,-0.0,-0.0,-1.0,0.1094656666221104,1.0
12.613364219665527,1.8106756210327148,0.1113362312316894,-0.0207127288445039,-0.5463110112880396,-0.8373262576852905,0.2150410027308276,7.0
11.390061378479004,2.7040481567382812,0.2739536762237549,0.5234207946000541,0.5559379742880888,-0.6457272183551693,0.1597710580755246,3.0
12.44049835205078,0.6620559692382812,0.5011322498321533,0.3279300256140743,-0.7874093177523908,-0.521965961167457,0.1062620080310837,5.0
12.490612030029297,2.8404531478881836,0.2869343757629394,-0.0,-0.0,-1.0,0.2336360071448159,2.0
11.267870903015137,2.666955947875977,0.0811841487884521,-0.0,-0.0,-1.0,0.1342438368793352,1.0
11.474523544311523,2.721120834350586,0.0946900844573974,-0.1277013950943169,-0.988243399205124,-0.0840674587368215,0.1273320505315936,5.0
11.694586753845217,2.2662458419799805,0.0116524696350097,-0.0,-0.0,-1.0,0.0408924495525817,1.0
11.963996887207031,2.2485857009887695,0.0101804733276367,-0.0,-0.0,-1.0,0.0303242197899619,2.0
12.456949234008787,2.8594017028808594,0.1278924942016601,0.2615793400444349,0.9358865923389303,0.2359926590852825,0.2141671626958075,4.0
12.308229446411133,2.2107019424438477,0.0037164688110351,-0.0,-0.0,-1.0,0.0271494116977813,1.0
12.47607421875,0.6772241592407227,0.2503793239593506,0.6894651246350806,-0.7102526594656619,-0.1420528128334216,0.1049694502643905,5.0
12.667315483093262,2.2121849060058594,0.0028116703033447,-0.0,-0.0,-1.0,0.0771338689659105,1.0
11.43512725830078,2.7882728576660156,0.58168625831604,-0.0,-0.0,-1.0,0.1504237638773537,2.0
10.322086334228516,1.039586067199707,0.0604774951934814,-0.0,-0.0,-1.0,0.0782021605795205,1.0
10.505704879760742,0.903554916381836,0.0357789993286132,-0.0,-0.0,-1.0,0.0499312433419311,2.0
10.746530532836914,0.7653751373291016,0.009709358215332,-0.0818830610699501,0.1791316837239615,-0.9804116503775512,0.0564577691901467,3.0
11.072813987731934,0.6440210342407227,-0.0149364471435546,-0.0,-0.0,-1.0,0.0732667988682245,2.0
11.907833099365234,3.044398307800293,-0.0027811527252197,-0.0,-0.0,-1.0,0.1067513019057191,2.0
12.367952346801758,2.881572723388672,-0.0421235561370849,-0.0,-0.0,-1.0,0.1558910485526517,1.0
12.235047340393066,0.6708106994628906,-0.0280525684356689,-0.0,-0.0,-1.0,0.085271072173228,1.0
12.659955024719238,1.8839035034179688,0.1929106712341308,-0.0,-0.0,-1.0,0.1503948723542907,1.0
12.446672439575195,0.6862888336181641,0.4727101325988769,0.2193938468906134,-0.6261710889873405,-0.7481818677720985,0.1576389234033575,5.0
11.379294395446776,2.80617618560791,0.8230843544006348,-0.1535597242553841,0.8150656295767432,-0.558647859182578,0.1204297543692605,4.0
10.563272476196287,1.6350431442260742,-0.0700562000274658,-0.0,-0.0,-1.0,0.0290080813705678,2.0
10.78748893737793,1.6850996017456057,-0.0437333583831787,-0.0,-0.0,-1.0,0.0592504727877509,1.0
11.088302612304688,1.6484575271606443,-0.0325355529785156,-0.0,-0.0,-1.0,0.0865078298966584,1.0
11.581110000610352,1.5472278594970703,-0.0276989936828613,-0.0,-0.0,-1.0,0.0684001247478203,2.0
11.735660552978516,1.4021549224853516,-0.0529303550720214,-0.0,-0.0,-1.0,0.0353324198127667,1.0
12.059630393981934,1.3413515090942385,-0.0529561042785644,-0.0,-0.0,-1.0,0.012621275903426,1.0
12.341184616088867,1.3043079376220703,-0.0509936809539794,-0.0,-0.0,-1.0,0.0360344950013715,1.0
11.350897789001465,2.7016096115112305,0.2163467407226562,-0.7333213620669089,0.4708169192216402,-0.4904805893315016,0.1697139861207552,3.0
11.353984832763672,2.119478225708008,0.0877211093902587,-0.0,-0.0,-1.0,0.1250458904167997,1.0
11.775903701782228,3.0888710021972656,0.3275871276855469,-0.7105282804095261,-0.2464566566768515,0.6590968662631849,0.0784078688720863,3.0
11.60799789428711,2.0502614974975586,0.0864927768707275,-0.0,-0.0,-1.0,0.1017050732042524,2.0
11.648877143859863,1.7671880722045898,0.0250887870788574,-0.0,-0.0,-1.0,0.0741833168968694,1.0
12.45096492767334,2.832599639892578,0.3021817207336426,-0.0,-0.0,-1.0,0.26243654540579,2.0
12.56958293914795,1.836404800415039,0.0784666538238525,-0.0,-0.0,-1.0,0.1789035533311739,2.0
12.673547744750977,1.841215133666992,0.0826869010925293,-0.5740769193445453,-0.0100065511978253,-0.8187402271838128,0.2801300463979651,9.0
11.356586456298828,2.712347984313965,0.6251051425933838,0.541243329371427,-0.8395169823447929,-0.0476119183149134,0.1139989203632324,3.0
12.431930541992188,0.7596216201782227,0.7493851184844971,-0.6650450079965696,0.140425066054407,-0.7334820639677964,0.141707274848903,4.0
12.67047119140625,3.107529640197754,0.7519750595092773,0.9847181159182492,0.0926676307590578,-0.1474548825638431,0.1382623066592812,4.0
10.412702560424805,1.721379280090332,0.0121171474456787,-0.0,-0.0,-1.0,0.0325420223703081,2.0
10.521690368652344,1.559086799621582,-0.0241751670837402,-0.0,-0.0,-1.0,0.0447159588848944,1.0
10.635799407958984,1.4830570220947266,-0.0380942821502685,-0.0,-0.0,-1.0,0.0376806105335934,1.0
10.993943214416504,1.6035070419311523,0.0095763206481933,-0.0,-0.0,-1.0,0.0968205783210251,1.0
11.480255126953123,2.114590644836426,0.163644790649414,0.0945781830446086,-0.3801065417600423,-0.9200945517734588,0.1284471588097283,6.0
11.389793395996094,1.5704851150512695,0.0158600807189941,-0.0,-0.0,-1.0,0.048153725306446,2.0
11.536394119262695,1.4590988159179688,-0.0090692043304443,-0.0,-0.0,-1.0,0.0601215676683219,2.0
11.812481880187988,1.349705696105957,-0.0312740802764892,-0.0,-0.0,-1.0,0.0097494285815416,1.0
12.210359573364258,1.313070297241211,-0.0338218212127685,-0.0,-0.0,-1.0,0.0316208034140961,2.0
12.637653350830078,1.9064464569091797,0.1329820156097412,-0.0,-0.0,-1.0,0.1954531570082866,2.0
12.618425369262695,1.8277473449707031,0.1112594604492187,-0.8032788092974594,0.3293186749297379,-0.4962785154287634,0.2538830302604461,5.0
11.363442420959473,2.7152700424194336,0.3174195289611816,-0.7488916315081469,0.0156551891592648,-0.6625075390585781,0.1899869650275162,5.0
12.627220153808594,2.863795280456543,0.3941347599029541,0.4174958644692374,0.7316414821678827,-0.5388858364461513,0.0898501848314493,3.0
12.51718044281006,2.8498659133911133,0.7492892742156982,-0.0,-0.0,-1.0,0.1994988367289415,2.0
12.595823287963867,0.7890176773071289,0.688723087310791,-0.0,-0.0,-1.0,0.151133627099366,1.0
10.244757652282717,1.642751693725586,-0.0707471370697021,-0.0,-0.0,-1.0,0.0369363161471812,1.0
10.471549987792969,1.5590333938598633,-0.0524690151214599,-0.0,-0.0,-1.0,0.0420197431084156,2.0
10.612302780151367,1.4184608459472656,-0.0625960826873779,-0.0,-0.0,-1.0,0.0489501338807875,1.0
10.930550575256348,1.5428314208984375,0.0162217617034912,-0.0,-0.0,-1.0,0.0943209015226082,1.0
11.029290199279783,1.1994810104370115,-0.0505697727203369,-0.0,-0.0,-1.0,0.0330755615297096,1.0
11.327592849731444,0.8922128677368164,-0.0818076133728027,-0.0,-0.0,-1.0,0.044140306580768,1.0
11.727924346923828,0.7708196640014648,-0.0578267574310302,-0.0,-0.0,-1.0,0.0503282916157319,2.0
10.811756134033203,3.045370101928711,0.3456630706787109,-0.0,-0.0,-1.0,0.176048777638308,2.0
11.37308120727539,2.7416858673095703,0.3671960830688476,-0.1775012888563019,-0.2762125789673594,-0.9445633402131124,0.1614618341338003,4.0
12.658113479614258,1.832026481628418,0.3187756538391113,-0.1454326534596367,0.1250799759243449,-0.9814297442662182,0.1474219797111177,3.0
11.383813858032228,2.8029117584228516,0.7241144180297852,-0.2436165402310972,-0.9565078835366992,-0.1604482784512642,0.1452078268810489,7.0
12.674013137817385,3.0573501586914062,0.6255395412445068,0.8849741055517879,-0.2541704364392048,-0.3901515368970337,0.1237095927300057,4.0
12.58238124847412,1.9154157638549805,0.6863517761230469,-0.6480305753053756,0.5450302775845757,-0.5319759110951023,0.1121105077196771,4.0
12.509549140930176,2.600860118865967,0.1320734024047851,-0.0,-0.0,-1.0,0.1440688064583709,1.0
12.610304832458496,1.4294805526733398,0.1075949668884277,-0.0,-0.0,-1.0,0.1528599263913988,1.0
12.664101600646973,1.7379703521728516,0.0862565040588378,-0.0,-0.0,-1.0,0.1948282703433492,1.0
12.692511558532717,0.7799720764160156,0.0772500038146972,-0.0,-0.0,-1.0,0.2094631001463494,1.0
11.921357154846191,3.0316789150238037,0.3402943611145019,-0.0,-0.0,-1.0,0.1216514530788459,1.0
11.778185844421388,3.06064772605896,0.3924784660339355,-0.0,-0.0,-1.0,0.0784078688720863,1.0
11.72531032562256,2.874997854232788,0.4159054756164551,-0.0,-0.0,-1.0,0.062590239343845,1.0
11.273268699645996,2.505857467651367,0.5882344245910645,-0.0,-0.0,-1.0,0.1607447790570608,1.0
11.375865936279297,0.7266149520874023,-0.0298442840576171,-0.0,-0.0,-1.0,0.0330688687857623,1.0
11.458538055419922,1.214151382446289,-0.0299773216247558,-0.0,-0.0,-1.0,0.0584651621575755,1.0
11.344968795776367,0.8941230773925781,-0.0062541961669921,-0.0,-0.0,-1.0,0.0434480727335417,1.0
11.372722625732422,1.1807842254638672,0.0017042160034179,-0.0,-0.0,-1.0,0.0510330074052688,1.0
11.468048095703123,1.392963409423828,-0.0226697921752929,-0.0976189994197827,-0.9380492551568036,-0.3324667289399744,0.060657458449192,4.0
11.359262466430664,1.9539165496826172,0.0529737472534179,-0.0,-0.0,-1.0,0.1296845420419446,1.0
11.39027976989746,2.0843653678894043,0.047642707824707,-0.0,-0.0,-1.0,0.0863697650711358,1.0
11.353723526000977,2.525153160095215,0.084418773651123,-0.0,-0.0,-1.0,0.1954972009023114,1.0
11.315460205078123,1.0591707229614258,0.0163068771362304,-0.0,-0.0,-1.0,0.0385950637946311,1.0
11.28103256225586,1.7859277725219729,0.0746111869812011,-0.0,-0.0,-1.0,0.0758461293262178,1.0
11.230485916137695,2.329284191131592,0.1241207122802734,-0.0,-0.0,-1.0,0.0686186714723677,1.0
11.281234741210938,2.443653106689453,0.1095409393310546,-0.0,-0.0,-1.0,0.0805688871435645,1.0
10.588895797729492,3.134244441986084,0.4194631576538086,-0.0,-0.0,-1.0,0.1057043003799653,1.0
11.750770568847656,2.420243263244629,0.0301346778869628,-0.7747355892960585,-0.4789238120111231,0.412815635564865,0.0323921254306716,3.0
11.795221328735352,2.6916184425354004,0.0413494110107421,-0.0,-0.0,-1.0,0.0320875272055957,1.0
11.216672897338867,0.8609027862548828,0.0507798194885253,-0.0,-0.0,-1.0,0.0383542919371574,1.0
11.301549911499023,1.276752471923828,0.069310188293457,-0.0,-0.0,-1.0,0.0495028404942114,1.0
11.50149154663086,1.6491127014160156,0.0388135910034179,-0.0,-0.0,-1.0,0.0378255944423052,2.0
11.61785125732422,1.921187400817871,0.0263094902038574,-0.0,-0.0,-1.0,0.0775249170535794,2.0
11.70843505859375,2.4400930404663086,0.0481667518615722,-0.0,-0.0,-1.0,0.0300693900608111,1.0
11.411670684814451,2.138317108154297,0.1275248527526855,-0.0,-0.0,-1.0,0.1702154799545442,1.0
11.479568481445312,2.3245553970336914,0.1221852302551269,-0.0,-0.0,-1.0,0.0858963235045619,1.0
11.665542602539062,2.859126091003418,0.1074490547180175,-0.0,-0.0,-1.0,0.0578460080067441,1.0
11.370321273803713,2.807732582092285,0.2141189575195312,-0.835219807262502,0.418547924707346,-0.3566868490420734,0.1542895819181401,4.0
12.05812644958496,0.8957614898681641,-0.0418457984924316,-0.0,-0.0,-1.0,0.0104815737026816,1.0
12.205556869506836,1.3266735076904297,-0.0297670364379882,-0.0,-0.0,-1.0,0.0316208034140961,2.0
12.301641464233398,1.5880746841430664,-0.0258717536926269,-0.0,-0.0,-1.0,0.0422288785351166,1.0
12.458541870117188,2.1198434829711914,-0.007143497467041,-0.0,-0.0,-1.0,0.0509432886417151,1.0
12.598817825317385,2.5037431716918945,-0.0057568550109863,-0.0,-0.0,-1.0,0.091392974437127,2.0
12.675588607788086,2.655686378479004,-0.0134930610656738,-0.0,-0.0,-1.0,0.1188054403492417,1.0
12.014429092407228,0.9247255325317384,-0.0221471786499023,-0.0,-0.0,-1.0,0.0099066461067959,2.0
12.08359718322754,1.276362419128418,0.0062255859375,-0.0,-0.0,-1.0,0.0097783552663811,1.0
12.330501556396484,1.800882339477539,-0.00577974319458,-0.0,-0.0,-1.0,0.0446245852518441,1.0
12.412763595581056,2.0503883361816406,-0.0003299713134765,-0.0,-0.0,-1.0,0.0288943290144839,2.0
12.518272399902344,2.355717658996582,0.0035386085510253,-0.0,-0.0,-1.0,0.0456670308682073,2.0
12.554924011230469,2.9357662200927734,0.067056655883789,-0.0,-0.0,-1.0,0.1968770704378147,2.0
10.323789596557615,1.49749755859375,-0.0323538780212402,-0.0,-0.0,-1.0,0.0569766111987912,1.0
10.463495254516602,1.7755889892578125,-0.037477970123291,0.2269690220681831,-0.2757086701654312,-0.9340609146180036,0.0245768009169659,4.0
10.56806182861328,2.3100900650024414,0.0124707221984863,-0.0,-0.0,-1.0,0.2076903534540172,2.0
10.738445281982422,2.5852584838867188,-0.0092682838439941,-0.0,-0.0,-1.0,0.0384696461041387,1.0
10.789045333862305,2.944856643676758,0.0280394554138183,-0.0,-0.0,-1.0,0.1732967588131818,1.0
11.471046447753906,2.786362648010254,0.4410014152526855,-0.0,-0.0,-1.0,0.1684045642767561,2.0
12.301252365112305,0.9843864440917968,-0.0060648918151855,-0.0,-0.0,-1.0,0.0345822466388058,1.0
12.511685371398926,1.2922792434692385,-0.0188155174255371,-0.0,-0.0,-1.0,0.0427931884412408,1.0
12.61344051361084,1.5444040298461914,-0.0065641403198242,-0.0,-0.0,-1.0,0.0767124585190511,2.0
12.566407203674316,1.846109390258789,0.0643815994262695,-0.9791434306845088,-0.0284417776749455,0.201169598672511,0.2421535877048884,3.0
10.679540634155272,1.595799446105957,-0.0343132019042968,-0.0,-0.0,-1.0,0.0346096023651285,1.0
10.81581974029541,1.8372087478637695,-0.0321998596191406,-0.0,-0.0,-1.0,0.0332017851791457,1.0
10.951685905456545,2.125619888305664,-0.0210928916931152,-0.0,-0.0,-1.0,0.0733053457284522,1.0
10.226031303405762,1.2502031326293943,0.0534229278564453,-0.0,-0.0,-1.0,0.052137389892833,2.0
10.463314056396484,1.5286521911621094,0.0296554565429687,-0.0,-0.0,-1.0,0.0502285799556626,2.0
10.98666000366211,2.2764320373535156,-0.0025100708007812,-0.0,-0.0,-1.0,0.074572150914586,1.0
11.103989601135254,2.5962514877319336,0.0195703506469726,-0.0,-0.0,-1.0,0.0628250784845182,1.0
11.195127487182615,2.8951168060302734,0.045628547668457,-0.0,-0.0,-1.0,0.1244564766369621,1.0
12.686408042907717,2.803277015686035,0.1918592453002929,-0.0,-0.0,-1.0,0.1607800450027316,1.0
11.71007251739502,0.7553005218505859,0.0233116149902343,0.1569081244484275,0.3071633351628342,-0.9386322634630248,0.0503282916157319,5.0
11.950971603393556,1.052328109741211,0.009836196899414,-0.0,-0.0,-1.0,0.0116908826922486,2.0
12.1565523147583,1.391373634338379,0.0156941413879394,-0.0,-0.0,-1.0,0.025482215202473,1.0
12.321222305297852,1.7436761856079102,0.0362029075622558,-0.0,-0.0,-1.0,0.0549402751143983,1.0
12.53707504272461,2.173153877258301,0.0529022216796875,-0.0,-0.0,-1.0,0.0817728687405443,1.0
12.46731662750244,2.905097007751465,0.2296328544616699,0.6979926870395203,0.7054733729668191,0.122937093158126,0.1906479903382788,3.0
11.870583534240724,3.1365928649902344,0.4892592430114746,-0.0,-0.0,-1.0,0.0892071103454973,1.0
11.2942476272583,2.7401885986328125,0.609072208404541,-0.0,-0.0,-1.0,0.0947957961672273,1.0
11.348480224609377,1.618150234222412,-0.0095672607421875,0.5763638322081064,-0.3925776565878091,-0.716719970748974,0.1058909302697891,3.0
11.588998794555664,1.309025764465332,-0.0550284385681152,-0.0,-0.0,-1.0,0.0457740817386366,1.0
11.722644805908203,0.9543614387512208,-0.0550861358642578,-0.0,-0.0,-1.0,0.0332873011187394,2.0
11.84221076965332,0.6535482406616211,-0.0586957931518554,-0.0,-0.0,-1.0,0.0318160401544014,2.0
11.04120635986328,2.408061981201172,-0.0150737762451171,-0.0,-0.0,-1.0,0.0607452996742345,1.0
11.209808349609377,2.0647964477539062,-0.0248994827270507,-0.0,-0.0,-1.0,0.086606486579329,1.0
11.297094345092772,1.7215161323547363,-0.0055618286132812,-0.0,-0.0,-1.0,0.0766439059007277,1.0
10.606412887573242,2.9807610511779785,0.0543327331542968,-0.0,-0.0,-1.0,0.1293755612739818,1.0
10.81265640258789,2.7969517707824707,0.0078649520874023,-0.0,-0.0,-1.0,0.1319107102883094,1.0
10.969228744506836,2.588559150695801,-0.0167932510375976,-0.0,-0.0,-1.0,0.1066689094897288,1.0
12.626335144042969,0.9259228706359864,0.3388900756835937,-0.0,-0.0,-1.0,0.2099304400402453,1.0
12.679439544677734,0.7667174339294434,0.3406257629394531,-0.0,-0.0,-1.0,0.1902402167361825,1.0
12.707456588745115,3.055459499359131,0.0265417098999023,-0.0,-0.0,-1.0,0.1897400373825147,1.0
10.85971450805664,0.7894892692565918,-0.0240154266357421,-0.0,-0.0,-1.0,0.0890612909619463,1.0
10.978412628173828,0.6770167350769043,-0.0555920600891113,-0.0,-0.0,-1.0,0.0711616079691042,2.0
10.451741218566896,1.8532390594482424,-0.0344691276550293,-0.0,-0.0,-1.0,0.0479275943986363,2.0
10.54784107208252,1.669178485870361,-0.0415606498718261,-0.0,-0.0,-1.0,0.0315970037873338,2.0
10.281301498413086,2.375124454498291,-0.0596203804016113,-0.0,-0.0,-1.0,0.1604592010240766,1.0
10.436063766479492,2.0788865089416504,-0.0683937072753906,-0.0,-0.0,-1.0,0.0983158565688093,1.0
12.500469207763672,0.6577849388122559,0.0271482467651367,-0.0,-0.0,-1.0,0.1004099300403913,2.0
12.467016220092772,1.1804180145263672,-0.0325870513916015,-0.0,-0.0,-1.0,0.0300723724218449,1.0
12.488502502441406,0.9849843978881836,-0.0132651329040527,-0.0,-0.0,-1.0,0.0375726201988057,1.0
12.268413543701172,1.7540979385375977,-0.0414047241210937,-0.0,-0.0,-1.0,0.0354814675979207,1.0
12.41201400756836,1.4683661460876465,-0.053297996520996,-0.0,-0.0,-1.0,0.0595363445817146,1.0
11.680441856384276,2.2877283096313477,0.0956659317016601,-0.0,-0.0,-1.0,0.0332052416322779,1.0
11.94670581817627,2.1396360397338867,0.0199933052062988,-0.0,-0.0,-1.0,0.0199919759914281,2.0
12.164909362792969,1.9545912742614744,-0.0329136848449707,-0.0,-0.0,-1.0,0.0160917615865572,1.0
11.415599822998049,2.9745659828186035,0.081608772277832,-0.4653267480409738,-0.572111734491633,-0.6753955735823173,0.1208519980683132,3.0
11.760598182678224,2.6505002975463867,0.0080313682556152,-0.0,-0.0,-1.0,0.0326840923256516,2.0
11.79999542236328,0.829627513885498,-0.0627679824829101,-0.0,-0.0,-1.0,0.0402704848644005,1.0
11.426117897033691,1.3636159896850586,-0.0654506683349609,-0.0,-0.0,-1.0,0.0596108930321851,1.0
11.679308891296388,1.0941028594970703,-0.0873875617980957,-0.0,-0.0,-1.0,0.0233765442036786,1.0
11.081418991088867,1.709367275238037,-0.0335211753845214,-0.0,-0.0,-1.0,0.0827847888218685,1.0
11.267889022827148,1.4799237251281738,-0.0386700630187988,-0.0,-0.0,-1.0,0.1158254707894121,1.0
10.84916877746582,2.2000107765197754,-0.0870623588562011,-0.0,-0.0,-1.0,0.066755556202844,1.0
10.979609489440918,2.0107946395874023,-0.0806121826171875,-0.0,-0.0,-1.0,0.0722046504180189,1.0
12.70422077178955,0.7355990409851074,0.3088297843933105,-0.0,-0.0,-1.0,0.145546738551181,1.0
