x,y,z,nx,ny,nz,curvature,density
29.07703399658203,12.66832447052002,-1.3809856176376345,-0.0,-0.0,-1.0,0.1254506594523986,2.0
28.88437271118164,12.920100212097168,-1.4101475477218628,-0.0,-0.0,-1.0,0.0741656574675881,2.0
29.093017578125,12.463680267333984,-1.3932284116744995,-0.0,-0.0,-1.0,0.0227234197927899,2.0
29.30294418334961,11.87419319152832,-1.3937681913375854,-0.0,-0.0,-1.0,0.0429050461302333,1.0
29.21179580688477,13.499822616577148,-1.2899795770645142,-0.0,-0.0,-1.0,0.1017096883998191,2.0
29.34801483154297,12.417542457580566,-1.3337582349777222,0.5023377174458848,-0.0309598959629643,-0.8641170652598066,0.0591505648169416,4.0
29.11846923828125,12.56854248046875,-1.1857508420944214,-0.0,-0.0,-1.0,0.1582068248092125,1.0
29.345867156982425,12.240103721618652,-1.3496075868606567,-0.0,-0.0,-1.0,0.0585563313246393,2.0
29.335132598876953,11.696541786193848,-1.2106467485427856,-0.0,-0.0,-1.0,0.0871948436903642,1.0
27.94342803955078,12.083949089050291,-1.2807990312576294,-0.0,-0.0,-1.0,0.0987013134239956,1.0
27.85803985595703,12.317985534667969,-1.281060814857483,-0.0,-0.0,-1.0,0.1527048428434979,1.0
28.08964157104492,11.823506355285645,-1.2708784341812134,-0.0,-0.0,-1.0,0.1101061925307606,1.0
29.278554916381836,13.1848783493042,-1.4667493104934692,-0.0,-0.0,-1.0,0.1204305162882661,1.0
29.153846740722656,13.445245742797852,-1.4869953393936155,-0.6636628516588667,0.5659872841632494,-0.4890910073734032,0.0838346622339545,3.0
29.536540985107425,12.759844779968262,-1.4226826429367063,-0.0,-0.0,-1.0,0.0914123828990178,1.0
29.39291000366211,13.00780200958252,-1.4455448389053345,-0.0,-0.0,-1.0,0.0705335363878149,2.0
29.65436363220215,12.400686264038086,-1.4203029870986938,-0.0,-0.0,-1.0,0.0611611958519028,1.0
28.092185974121097,13.564864158630373,-1.4134782552719116,-0.0,-0.0,-1.0,0.0657986244486487,1.0
28.042640686035156,13.627418518066406,-1.4232805967330933,-0.0,-0.0,-1.0,0.0594965106300821,2.0
29.546367645263672,12.998346328735352,-1.064611315727234,-0.0,-0.0,-1.0,0.1816050822943559,1.0
29.376567840576172,12.919307708740234,-1.1147524118423462,0.0656471824507245,-0.7343931000378204,-0.6755421689673567,0.141464515575013,3.0
28.379655838012695,13.107427597045898,-1.3640247583389282,-0.0,-0.0,-1.0,0.1760173039549563,2.0
28.18443489074707,13.323404312133787,-1.4024327993392944,-0.0,-0.0,-1.0,0.0685082794703985,1.0
29.7006778717041,12.505823135375977,-1.3963428735733032,-0.0,-0.0,-1.0,0.0481748022426865,1.0
28.725568771362305,12.659074783325195,-1.3042515516281128,-0.0,-0.0,-1.0,0.2408850051391376,2.0
28.461091995239254,12.824896812438965,-1.3617063760757446,-0.0,-0.0,-1.0,0.0864905159864679,2.0
28.69704818725586,12.24471664428711,-1.344946265220642,-0.0,-0.0,-1.0,0.0722261448097067,1.0
28.556331634521484,12.497934341430664,-1.360749125480652,-0.0,-0.0,-1.0,0.045499819080535,1.0
28.86678695678711,11.733685493469238,-1.3471750020980835,-0.0,-0.0,-1.0,0.0232366813087982,1.0
28.819236755371097,11.989083290100098,-1.3354343175888062,-0.0,-0.0,-1.0,0.0172548215210693,1.0
28.061107635498047,11.639066696166992,-1.1679295301437378,-0.0,-0.0,-1.0,0.1325967950544928,1.0
27.773887634277344,11.844555854797363,-1.2150179147720337,-0.7391189516954876,0.4438146408431436,-0.5066870235340896,0.1258613891184254,3.0
28.17060661315918,13.3721342086792,-1.4121918678283691,-0.0,-0.0,-1.0,0.0642791801016749,1.0
28.029953002929688,13.589807510375977,-1.4397737979888916,-0.0,-0.0,-1.0,0.0611995155235943,2.0
28.478052139282227,13.102529525756836,-1.3421430587768557,-0.0,-0.0,-1.0,0.1607621260226974,1.0
28.259803771972656,13.15601634979248,-1.4015896320343018,-0.0,-0.0,-1.0,0.0695856089848632,1.0
28.535301208496097,12.579126358032228,-1.36956787109375,-0.0,-0.0,-1.0,0.063271561550322,2.0
28.309179306030273,12.889567375183104,-1.4074652194976809,-0.0,-0.0,-1.0,0.0372211595355817,1.0
28.74206161499023,12.12401294708252,-1.3551480770111084,-0.0,-0.0,-1.0,0.0262219124525344,1.0
28.62068748474121,12.332845687866213,-1.368091344833374,-0.0,-0.0,-1.0,0.0589108643787633,1.0
28.840900421142575,11.79338550567627,-1.3636929988861084,-0.0,-0.0,-1.0,0.0225781129046844,1.0
29.312721252441406,12.9749755859375,-1.1116158962249756,-0.0,-0.0,-1.0,0.2060872316540677,2.0
28.87035369873047,12.71971321105957,-1.2606585025787354,-0.0,-0.0,-1.0,0.0873157751194647,2.0
28.653301239013672,12.663869857788086,-1.3277742862701416,-0.0,-0.0,-1.0,0.2418137732910053,2.0
28.844970703125,11.944372177124023,-1.345451831817627,-0.0,-0.0,-1.0,0.0179747461971295,1.0
27.865509033203125,11.934530258178713,-1.252293348312378,-0.0,-0.0,-1.0,0.1031485343420602,1.0
27.75206756591797,12.151447296142578,-1.26096510887146,-0.0,-0.0,-1.0,0.0611331746664956,2.0
27.98657989501953,11.69534397125244,-1.2450439929962158,-0.7079359936390223,0.6549956699528734,-0.2642107137368139,0.1295261652914101,4.0
29.05657196044922,12.729430198669434,-0.9366955757141112,-0.0,-0.0,-1.0,0.2032362621184762,1.0
29.09709930419922,12.669815063476562,-0.9324941635131836,-0.0,-0.0,-1.0,0.209078857595211,2.0
27.74149513244629,12.75790023803711,-1.2988104820251465,-0.0,-0.0,-1.0,0.110722246083469,1.0
28.754602432250977,12.3428316116333,-1.0659101009368896,-0.0,-0.0,-1.0,0.1843412845146224,1.0
27.958271026611328,12.21656608581543,-1.2990679740905762,-0.0,-0.0,-1.0,0.1717722404735236,2.0
27.7609920501709,12.548017501831056,-1.1473534107208252,-0.0,-0.0,-1.0,0.1780604070158378,2.0
28.272592544555664,11.763975143432615,-1.2715754508972168,-0.0,-0.0,-1.0,0.0940061724949213,1.0
28.119709014892575,12.02387237548828,-1.2790064811706543,-0.0,-0.0,-1.0,0.0741089073211217,1.0
28.97378921508789,11.638641357421877,-1.293004870414734,-0.0,-0.0,-1.0,0.0397750798349857,1.0
28.71779441833496,12.637006759643556,-1.2907389402389526,-0.8584065065656207,0.5077437500419889,-0.0730380296770486,0.220646349639259,4.0
29.068023681640625,12.231282234191896,-1.3577824831008911,-0.0,-0.0,-1.0,0.0252338734955467,1.0
29.191619873046875,11.898719787597656,-1.369970202445984,0.421528620379934,0.9063515860739664,0.0289900779887744,0.0200340612678914,3.0
28.995819091796875,12.952279090881348,-1.393943190574646,-0.0,-0.0,-1.0,0.0921769098387521,2.0
29.067365646362305,12.771814346313477,-1.3987866640090942,0.031034253531785,0.7859779115795267,-0.6174751797577052,0.1157830604641815,3.0
29.18021774291992,12.36720371246338,-1.3988860845565796,-0.5264922466174725,0.4253102492297607,-0.7361501926589477,0.0454076164235336,3.0
29.196205139160156,13.114325523376465,-1.4633883237838743,-0.0,-0.0,-1.0,0.0394533809297814,1.0
29.154495239257812,13.036575317382812,-1.445073485374451,-0.0,-0.0,-1.0,0.0866395395755034,2.0
29.613853454589844,11.65213108062744,-1.1108454465866089,-0.0,-0.0,-1.0,0.1474706506033122,1.0
29.541439056396484,12.929132461547852,-1.1767956018447876,-0.0,-0.0,-1.0,0.1996324087056199,2.0
29.029544830322266,11.658612251281738,-1.3634666204452517,-0.0,-0.0,-1.0,0.032323776235303,2.0
28.938232421875,12.209756851196287,-1.3775049448013306,-0.0,-0.0,-1.0,0.0126682646721686,2.0
29.002140045166016,11.872715950012209,-1.370385766029358,-0.0,-0.0,-1.0,0.0176252685239413,2.0
28.75723648071289,12.76438331604004,-1.374125599861145,-0.0,-0.0,-1.0,0.1243226776803072,2.0
28.91094207763672,12.442472457885742,-1.389090895652771,-0.0,-0.0,-1.0,0.0418900159718855,1.0
28.888986587524418,13.23194694519043,-1.45999014377594,-0.8257626465313731,0.1641377957656742,-0.5396061856527296,0.0577931605367828,3.0
28.937929153442383,13.117399215698242,-1.4620801210403442,-0.6333916828363154,-0.3846201095091336,-0.6714777341617234,0.0577631948833829,5.0
28.942615509033203,13.59406852722168,-1.5161300897598269,-0.0,-0.0,-1.0,0.0364290343268779,2.0
28.035110473632812,12.069204330444336,-1.0980759859085083,-0.0,-0.0,-1.0,0.1893625072088834,1.0
28.0854549407959,12.379270553588867,-1.139893651008606,-0.0,-0.0,-1.0,0.1564412332039333,1.0
28.039077758789062,12.256253242492676,-1.115186333656311,-0.0,-0.0,-1.0,0.2066657794980012,2.0
28.548019409179688,12.15711498260498,-1.2573105096817017,-0.0,-0.0,-1.0,0.0437145142403679,1.0
27.875667572021484,12.905927658081056,-1.1309045553207395,-0.0,-0.0,-1.0,0.1664618574475236,2.0
28.540958404541016,12.679255485534668,-1.3019806146621704,-0.7141736759004331,-0.6971832081127187,-0.0623821687385172,0.0777938673455602,3.0
28.867097854614254,12.268095016479492,-1.0391894578933716,-0.0,-0.0,-1.0,0.1635545150706391,1.0
28.88918685913086,12.037010192871094,-1.3489779233932495,-0.0,-0.0,-1.0,0.0182047015607593,1.0
27.959259033203125,13.510726928710938,-1.2245928049087524,-0.0,-0.0,-1.0,0.0899278469990084,1.0
28.699554443359375,12.734611511230469,-1.3540557622909546,-0.3924892672225585,0.8150638550042727,-0.4261726028039261,0.164448188139383,3.0
29.131736755371097,12.67156982421875,-1.139794945716858,0.9198446697100496,-0.0811853541197206,-0.3837899449991692,0.2454078699603548,4.0
29.106616973876953,13.121217727661133,-1.172995686531067,-0.0,-0.0,-1.0,0.1109758777576754,1.0
29.36754608154297,12.943376541137695,-1.22370445728302,-0.0,-0.0,-1.0,0.1759922074625683,1.0
29.32790756225586,13.331735610961914,-1.249254822731018,-0.0,-0.0,-1.0,0.1940781071566737,1.0
29.559078216552734,13.102815628051758,-1.2869960069656372,-0.0,-0.0,-1.0,0.1459619933134928,1.0
29.701492309570312,12.890110969543455,-1.3048099279403689,-0.0,-0.0,-1.0,0.114970875573636,1.0
29.30343246459961,12.273367881774902,-1.345285415649414,-0.0,-0.0,-1.0,0.0529107094377107,1.0
29.52973365783691,12.099063873291016,-1.390467643737793,-0.0,-0.0,-1.0,0.0304756883851591,1.0
28.546466827392575,13.073237419128418,-1.242954969406128,0.5228600584718669,0.2351436268178309,-0.8193441487078265,0.1712091033158789,3.0
29.19788360595703,12.82275676727295,-1.392552614212036,-0.8632770920240008,-0.3575894344676035,-0.356205641089139,0.1223249485040248,3.0
29.362459182739254,12.559396743774414,-1.4026124477386477,-0.0,-0.0,-1.0,0.0741044786882029,2.0
29.477291107177734,12.217086791992188,-1.38983416557312,-0.0,-0.0,-1.0,0.0500145179266452,2.0
29.2063045501709,13.066163063049316,-1.4329538345336914,-0.4543110929112169,-0.8895915087191695,-0.0472057038139226,0.0501021400803738,3.0
29.299171447753903,12.839433670043944,-1.424858808517456,-0.0,-0.0,-1.0,0.0941055066333335,2.0
29.25818634033203,13.549790382385254,-1.527580976486206,-0.0,-0.0,-1.0,0.0357360471720179,1.0
27.76069068908691,12.533227920532228,-0.9276609420776368,-0.0,-0.0,-1.0,0.0764161280097606,1.0
27.769752502441406,13.3159761428833,-1.0649402141571045,-0.0,-0.0,-1.0,0.0916091364184598,2.0
29.204586029052734,12.656814575195312,-1.062368869781494,0.1685875721782223,-0.8983306358616818,0.4056849752941306,0.182163464772274,3.0
29.44853782653809,12.843185424804688,-1.1506454944610596,-0.0,-0.0,-1.0,0.1583853801048133,1.0
29.23361587524414,13.37392234802246,-1.172203540802002,-0.0,-0.0,-1.0,0.173919122177365,1.0
29.219860076904297,12.714218139648438,-1.177598476409912,0.952729771225568,-0.2945098571967239,-0.0746319437938068,0.1955450734579234,4.0
29.41782569885254,12.677447319030762,-1.2252984046936035,-0.0,-0.0,-1.0,0.1484561584459892,1.0
29.266925811767575,12.930564880371094,-1.236572027206421,-0.0,-0.0,-1.0,0.2053344611748467,2.0
29.517501831054688,12.729043960571287,-1.2637505531311035,-0.0,-0.0,-1.0,0.1249281039678029,1.0
29.19054412841797,12.49928379058838,-1.125602960586548,-0.0,-0.0,-1.0,0.1205636547133181,1.0
27.759815216064453,13.466569900512695,-1.252763032913208,-0.0,-0.0,-1.0,0.1942583606367574,1.0
27.797199249267575,12.897448539733888,-1.171743869781494,-0.0144277550646006,0.6427313492877726,-0.7659557771350217,0.1073699838576665,3.0
28.445804595947266,11.663070678710938,-0.9060513973236084,-0.0,-0.0,-1.0,0.0846129928658382,1.0
29.009462356567383,12.711588859558104,-0.9286081790924072,-0.0,-0.0,-1.0,0.188921714916619,1.0
27.70949363708496,12.882701873779297,-1.3374577760696411,-0.0,-0.0,-1.0,0.1307779296299938,2.0
27.710939407348633,12.54849910736084,-1.2904354333877563,-0.0,-0.0,-1.0,0.1433613956595759,1.0
27.74380874633789,12.171979904174805,-1.2341583967208862,-0.0,-0.0,-1.0,0.0786215446711346,2.0
27.713573455810547,11.89546012878418,-1.2037769556045532,-0.9813062478604604,0.140730192469618,0.1312747532372022,0.1108794218145335,3.0
28.56053924560547,13.08609390258789,-1.2302850484848022,0.5228600584718669,0.2351436268178309,-0.8193441487078265,0.1868854218201315,3.0
28.65904998779297,12.682498931884766,-1.152924656867981,-0.0,-0.0,-1.0,0.1983689609536509,1.0
29.12323760986328,12.700042724609377,-1.0817333459854126,0.2334635589339173,-0.6912659354169469,-0.6838466006218377,0.2541709800463336,5.0
28.416318893432617,11.918094635009766,-1.3129942417144775,-0.0,-0.0,-1.0,0.0252821044635315,2.0
28.607677459716797,12.378765106201172,-1.351956129074097,-0.0,-0.0,-1.0,0.0498057974627013,1.0
28.524097442626953,12.186457633972168,-1.3355381488800049,-0.9081712903304716,0.1346280181291949,-0.3963586811892623,0.0485992529138201,3.0
27.71072578430176,11.885440826416016,-1.2143229246139526,-0.9813062478604604,0.140730192469618,0.1312747532372022,0.1108794218145335,3.0
28.740631103515625,13.548958778381348,-1.4510610103607178,-0.0,-0.0,-1.0,0.096563971077409,1.0
28.883045196533203,12.852228164672852,-1.345658779144287,-0.0,-0.0,-1.0,0.1134478973244931,2.0
28.68843460083008,12.67405891418457,-1.3375568389892578,-0.0672835277431738,0.6943324356570629,-0.7165021951738627,0.1843118803987743,4.0
29.50124740600586,11.66262149810791,-1.1365859508514404,-0.0,-0.0,-1.0,0.1415835430790661,1.0
28.514385223388672,13.203022956848145,-1.1524521112442017,-0.0,-0.0,-1.0,0.1908706400802223,1.0
27.752994537353516,12.576020240783691,-1.1278842687606812,-0.0,-0.0,-1.0,0.1272773847198031,2.0
28.507421493530273,13.15061378479004,-1.1825509071350098,-0.0,-0.0,-1.0,0.1781888033044024,1.0
29.5003604888916,12.92921257019043,-1.1060562133789062,-0.0,-0.0,-1.0,0.0886459285965018,2.0
29.658878326416016,13.556629180908203,-1.4696093797683716,-0.0,-0.0,-1.0,0.069962466250768,1.0
29.625289916992188,13.275325775146484,-1.4311929941177368,0.5589684619948853,0.1783057893080083,-0.8097909014025292,0.0947343765426003,3.0
29.613636016845703,13.09687042236328,-1.406410574913025,-0.0,-0.0,-1.0,0.1544530625705133,1.0
29.061782836914062,12.869141578674316,-1.2724854946136477,-0.0,-0.0,-1.0,0.2155508989539394,1.0
28.273448944091797,12.633009910583496,-1.3174214363098145,0.3709219525494167,-0.3450767377686209,-0.8621710678095706,0.0892311235065698,3.0
28.14670181274414,12.689833641052246,-1.336015701293945,-0.0,-0.0,-1.0,0.0388411997549427,1.0
28.21967887878418,11.9110107421875,-1.240429162979126,-0.0,-0.0,-1.0,0.0329531200239249,1.0
27.871322631835938,13.04822063446045,-0.8905260562896729,-0.0,-0.0,-1.0,0.1195715718810979,1.0
27.940658569335938,12.679335594177246,-0.8508436679840088,-0.0,-0.0,-1.0,0.1381981138955933,1.0
28.91688537597656,12.521589279174805,-1.3707767724990845,-0.0,-0.0,-1.0,0.0348094550045127,2.0
29.42559051513672,12.271883010864258,-1.3310273885726929,0.8968888963916429,-0.3681608388546377,-0.2450467389361259,0.0709952946195617,3.0
28.536745071411133,11.719808578491213,-1.257190823554993,-0.0,-0.0,-1.0,0.0934607040886271,1.0
27.86886215209961,12.97366714477539,-1.2992969751358032,0.8567276692263232,0.0816394302639265,-0.5092668300686911,0.1634864148828249,4.0
28.774940490722656,13.405914306640623,-1.458823561668396,-0.0,-0.0,-1.0,0.0490489018033757,2.0
28.738039016723633,12.756547927856444,-1.34754478931427,-0.4816205317010671,0.8230313632098671,-0.3010997154048629,0.178165962412479,4.0
28.408775329589844,12.63571548461914,-1.2953566312789917,-0.2849702831588383,0.9517832300233792,0.1135808996382513,0.0863011139724384,3.0
28.27085304260254,13.061393737792969,-1.1176620721817017,-0.0,-0.0,-1.0,0.2028098524986522,1.0
27.917417526245117,12.568038940429688,-1.0425888299942017,-0.0,-0.0,-1.0,0.1713324478775314,1.0
28.347797393798828,12.642709732055664,-0.8235660791397095,-0.0,-0.0,-1.0,0.1100428902458047,1.0
28.36126708984375,12.973592758178713,-0.8577384948730469,-0.0,-0.0,-1.0,0.1173767929926678,1.0
28.810577392578125,12.984792709350586,-1.0696276426315308,-0.0,-0.0,-1.0,0.1508146466663571,1.0
28.722808837890625,13.120798110961914,-1.0880612134933472,-0.0,-0.0,-1.0,0.1465010569711488,1.0
28.01755142211914,12.81646728515625,-1.0788859128952026,-0.0,-0.0,-1.0,0.166162293693105,1.0
27.894744873046875,13.108875274658203,-1.11654531955719,-0.0,-0.0,-1.0,0.0763209026700821,1.0
28.732467651367188,12.813207626342772,-1.3821009397506714,0.5204253880061517,-0.5994205830768613,-0.6081548981159671,0.1033820950951228,3.0
28.64778709411621,12.699771881103516,-1.3732696771621704,-0.0,-0.0,-1.0,0.1179394728232209,1.0
29.133432388305664,12.784433364868164,-1.0391839742660522,0.4738474309221429,-0.876519138159842,-0.0847514757866388,0.2155006968332624,3.0
29.07636260986328,12.2976655960083,-1.4061484336853027,-0.0,-0.0,-1.0,0.0314741313228409,2.0
29.232711791992188,11.953439712524414,-1.3529670238494873,-0.0,-0.0,-1.0,0.0224932548256585,1.0
28.905244827270508,12.146388053894045,-1.3806397914886477,-0.0,-0.0,-1.0,0.0106531969720286,2.0
29.160545349121097,12.654224395751951,-1.0498027801513672,-0.1886810683205679,-0.5922489579275158,-0.7833521725834309,0.1817744644329144,3.0
27.887083053588867,13.323625564575195,-1.069922685623169,-0.0,-0.0,-1.0,0.1261555838386655,2.0
29.28495979309082,12.673648834228516,-1.2545692920684814,-0.0,-0.0,-1.0,0.1706158182981453,1.0
29.091083526611328,13.055587768554688,-1.296047925949097,-0.0,-0.0,-1.0,0.2365339381415646,1.0
28.59033966064453,12.887083053588867,-1.227454423904419,-0.0,-0.0,-1.0,0.2183402794570566,1.0
27.720537185668945,13.358179092407228,-1.2287476062774658,-0.0,-0.0,-1.0,0.1236857594703219,2.0
27.880002975463867,12.529197692871094,-1.114283561706543,-0.0,-0.0,-1.0,0.1468745564357048,1.0
29.464948654174805,11.688159942626951,-1.295003056526184,-0.0,-0.0,-1.0,0.1228576368054174,1.0
29.528573989868164,11.892242431640623,-1.3342150449752808,-0.0,-0.0,-1.0,0.0333857501573925,1.0
27.72922134399414,13.51130485534668,-1.137964367866516,-0.0,-0.0,-1.0,0.1715350563076126,1.0
29.350183486938477,12.571067810058594,-1.3343465328216553,-0.5735942316783814,-0.7167319477512211,-0.3965916948929068,0.1093583490945725,3.0
29.273447036743164,12.867971420288086,-1.3933093547821045,-0.6612843454473012,-0.0013318311774204,-0.7501341484641594,0.1651357710925346,4.0
29.518869400024418,13.04685115814209,-1.42535400390625,-0.0,-0.0,-1.0,0.099136262904733,2.0
29.094070434570312,12.785656929016112,-1.37982439994812,-0.0,-0.0,-1.0,0.1283821991061088,2.0
28.979707717895508,13.028971672058104,-1.429365873336792,-0.0,-0.0,-1.0,0.0592722977836115,1.0
28.6983642578125,12.63284683227539,-1.357065200805664,-0.7070657803876691,0.2076572427979493,-0.6759707476794612,0.1764267313893306,4.0
27.93541717529297,11.7862548828125,-1.2104547023773191,-0.0,-0.0,-1.0,0.1030853729465247,2.0
29.081300735473633,12.794148445129396,-0.8919754028320312,-0.0,-0.0,-1.0,0.2345848396330168,1.0
29.414655685424805,11.987242698669434,-1.345758080482483,-0.0,-0.0,-1.0,0.0244773270406645,1.0
29.34589958190918,12.080937385559082,-1.3669284582138062,-0.0,-0.0,-1.0,0.029014999049259,1.0
29.207284927368164,11.889999389648438,-1.3251107931137085,0.421528620379934,0.9063515860739664,0.0289900779887744,0.0200340612678914,3.0
29.11421585083008,12.077071189880373,-1.3678451776504517,-0.2040428625403602,0.8419045308483067,-0.4995630802845904,0.0198391868019654,3.0
28.62874412536621,13.226789474487305,-1.1625288724899292,0.6942788971493208,-0.7123660323952173,0.1025253571689395,0.2164967337422603,3.0
27.806808471679688,12.751856803894045,-1.095209002494812,-0.0,-0.0,-1.0,0.1688520817323102,2.0
29.23283576965332,11.879197120666504,-1.3589071035385132,0.517695323545288,0.8555515211314674,0.0048110985202882,0.0388499565483294,4.0
29.22579002380371,12.000639915466309,-1.3888763189315796,-0.0,-0.0,-1.0,0.0249355030673127,1.0
29.29104804992676,13.22776985168457,-1.2494667768478394,-0.0,-0.0,-1.0,0.2108740658659733,2.0
29.161134719848633,12.834099769592283,-1.1669052839279177,-0.0,-0.0,-1.0,0.1631937820728338,1.0
28.58696937561035,13.061716079711914,-1.2204149961471558,0.4644283050239565,0.2597589024133342,-0.8466591180100729,0.1394498482802967,4.0
28.53924560546875,13.162226676940918,-1.242514729499817,-0.0,-0.0,-1.0,0.2139679593773902,1.0
28.281490325927734,11.759788513183594,-0.9477583169937134,-0.0,-0.0,-1.0,0.1004544859118955,1.0
27.96908950805664,12.27558422088623,-1.064061999320984,-0.0,-0.0,-1.0,0.1359264062271532,2.0
27.829174041748047,12.639769554138184,-1.1454001665115356,-0.0,-0.0,-1.0,0.1747390935839794,1.0
27.783470153808594,13.01908016204834,-1.227900147438049,-0.0,-0.0,-1.0,0.1402527068140602,1.0
29.44568634033203,12.933279037475586,-1.330191135406494,-0.0,-0.0,-1.0,0.2019196706777784,1.0
29.52523422241211,13.336650848388672,-1.4296860694885254,0.0269846956114029,0.9777574688376058,-0.2079955728736507,0.0901926088646383,3.0
29.166101455688477,12.83867645263672,-1.305286884307861,0.5094596822589218,-0.858608811714139,-0.0569362854379545,0.1766232333668344,5.0
29.125747680664062,13.245475769042969,-1.4053373336791992,-0.4554907007510362,-0.4427574794715138,0.7723302634892425,0.1740013232810486,3.0
28.98174095153809,13.58530044555664,-1.4895637035369873,-0.0,-0.0,-1.0,0.0296951930811112,2.0
29.088184356689453,11.707185745239258,-1.3827943801879885,-0.0,-0.0,-1.0,0.0378217492799622,1.0
28.68694496154785,12.839794158935549,-1.305905818939209,-0.0,-0.0,-1.0,0.1963952973347645,1.0
28.65433120727539,13.376579284667969,-1.4394595623016355,-0.0,-0.0,-1.0,0.0781543257902308,1.0
28.4033145904541,12.725736618041992,-1.2799618244171145,-0.0,-0.0,-1.0,0.1473985954945412,2.0
28.310020446777344,13.127643585205078,-1.3815064430236816,-0.0,-0.0,-1.0,0.1590454851879214,1.0
27.906108856201172,12.849794387817385,-1.3195011615753174,-0.0,-0.0,-1.0,0.1279634242032664,1.0
28.71192741394043,12.385908126831056,-1.1932084560394287,-0.0,-0.0,-1.0,0.1351790485893574,1.0
28.491395950317383,11.680696487426758,-1.0193634033203125,-0.0,-0.0,-1.0,0.0834644062549947,1.0
28.299718856811523,11.716398239135742,-1.0296237468719482,-0.0,-0.0,-1.0,0.0951925155495232,1.0
28.377450942993164,12.70452117919922,-1.2749536037445068,-0.1726040848583845,-0.0220427732849245,-0.9847446095491506,0.1522755493439309,3.0
27.97659492492676,12.145076751708984,-1.1413395404815674,-0.0,-0.0,-1.0,0.237977500151221,1.0
27.98011779785156,12.470436096191406,-1.22275710105896,-0.0,-0.0,-1.0,0.193762613712292,1.0
27.748077392578125,13.066770553588867,-0.98689866065979,-0.0,-0.0,-1.0,0.1013211669398417,1.0
27.860313415527344,13.379703521728516,-1.0508112907409668,0.0430722529428128,-0.6421757124144504,-0.7653464152992574,0.1756818895722219,4.0
29.370899200439453,12.403032302856444,-1.3194286823272705,0.2863271757070732,-0.189273963948894,-0.9392508264689912,0.0693146147224276,5.0
29.393476486206055,12.767234802246094,-1.419447898864746,-0.0,-0.0,-1.0,0.0992528609612894,1.0
29.019916534423828,12.770523071289062,-1.4028151035308838,-0.0,-0.0,-1.0,0.0832931123343976,2.0
28.537368774414062,12.612253189086914,-1.341646432876587,-0.0,-0.0,-1.0,0.0802050220798049,2.0
28.2264461517334,12.654491424560549,-1.3452446460723877,-0.0,-0.0,-1.0,0.0786874405245816,1.0
28.083467483520508,12.76258659362793,-1.3727378845214844,-0.0,-0.0,-1.0,0.0191740011063182,1.0
27.906227111816406,12.578495025634766,-1.3184585571289062,-0.0,-0.0,-1.0,0.1594104745238369,1.0
28.567548751831055,13.296306610107422,-1.1598546504974363,-0.0,-0.0,-1.0,0.2376049581072528,1.0
28.38239097595215,11.699295043945312,-1.0837316513061523,-0.0,-0.0,-1.0,0.08716128343162,1.0
28.09345436096191,12.17607879638672,-1.2087390422821045,-0.0,-0.0,-1.0,0.196052834980484,1.0
27.89594459533691,12.069082260131836,-1.1754939556121826,-0.0,-0.0,-1.0,0.1368665704922279,1.0
27.75439453125,12.934307098388672,-1.0630793571472168,-0.0,-0.0,-1.0,0.1057229733142592,2.0
27.78926467895508,13.156198501586914,-1.1174983978271484,-0.0,-0.0,-1.0,0.0990235096151542,1.0
29.556371688842773,12.922362327575684,-1.124902844429016,-0.0,-0.0,-1.0,0.1658954084438461,1.0
29.178773880004883,12.89943790435791,-1.0642110109329224,-0.0,-0.0,-1.0,0.1431027247639043,2.0
29.219215393066406,13.30797004699707,-1.188088059425354,-0.0,-0.0,-1.0,0.1983423221599608,1.0
29.30441665649414,13.410531044006348,-1.2293485403060913,-0.0,-0.0,-1.0,0.2097647213437954,2.0
29.14243507385254,12.788132667541504,-1.0271087884902954,-0.0,-0.0,-1.0,0.2219419498022648,2.0
27.813800811767575,13.364627838134766,-1.0458158254623413,-0.1159694162209868,-0.1592958517900307,-0.9803958007375656,0.1340830709194591,4.0
27.717308044433594,13.051397323608398,-0.9397772550582886,-0.0,-0.0,-1.0,0.1013211669398417,2.0
28.904483795166016,13.599878311157228,-1.4206280708312988,-0.0,-0.0,-1.0,0.0572215371587469,1.0
27.86819076538086,13.202486991882324,-1.3595657348632812,-0.0,-0.0,-1.0,0.054630461712136,1.0
29.226245880126953,12.770416259765623,-1.0449423789978027,-0.0,-0.0,-1.0,0.1547387190522074,2.0
29.282920837402344,12.84563446044922,-1.0585181713104248,-0.0,-0.0,-1.0,0.115749421618233,1.0
27.715187072753903,13.613943099975586,-1.3539552688598633,-0.0,-0.0,-1.0,0.1815141380586554,1.0
27.78925132751465,13.001365661621094,-0.8873703479766846,-0.0,-0.0,-1.0,0.1109431518251032,1.0
29.22144317626953,12.748855590820312,-1.209643840789795,-0.0,-0.0,-1.0,0.1769187194210795,2.0
29.554841995239254,12.937993049621582,-1.2791213989257812,-0.0,-0.0,-1.0,0.241679215269116,2.0
29.523813247680664,13.159499168395996,-1.267781138420105,-0.0,-0.0,-1.0,0.1652600518636569,1.0
27.75957489013672,12.84545612335205,-0.925561785697937,-0.0,-0.0,-1.0,0.2121082851148963,1.0
27.74350357055664,13.022273063659668,-0.9307502508163452,-0.0,-0.0,-1.0,0.1109431518251033,2.0
27.79243278503418,12.983379364013672,-0.9379945993423462,-0.0,-0.0,-1.0,0.1174275528843884,1.0
28.037269592285156,11.719338417053224,-1.2387431859970093,0.433495239493177,0.1588875595791517,-0.8870381168516573,0.1404940785372483,3.0
28.398365020751953,12.801401138305664,-1.362183928489685,-0.0574402517738092,0.5341994954158237,-0.8434047169500776,0.0723167107867775,3.0
28.01044464111328,13.405936241149902,-1.3029779195785522,-0.0,-0.0,-1.0,0.1445805448226162,1.0
28.36483383178711,13.53438949584961,-1.391208529472351,-0.0,-0.0,-1.0,0.067302877119666,2.0
28.50790023803711,13.171725273132324,-1.4048901796340942,-0.0,-0.0,-1.0,0.2287329413493642,2.0
29.21060562133789,12.639366149902344,-1.103507399559021,-0.0,-0.0,-1.0,0.1766580771606388,2.0
29.382862091064453,12.951939582824709,-1.1496154069900513,0.0656471824507245,-0.7343931000378204,-0.6755421689673567,0.1551750464737462,3.0
29.28446578979492,13.414891242980955,-1.1512635946273804,-0.0,-0.0,-1.0,0.2036001045727868,1.0
27.94988250732422,13.3365478515625,-1.39604389667511,-0.0,-0.0,-1.0,0.0599295376570444,1.0
28.66402244567871,12.78489589691162,-1.1624921560287476,-0.0,-0.0,-1.0,0.173661239941139,1.0
29.44202423095703,12.329178810119627,-1.322452187538147,0.4411032492444142,0.4888574487934157,-0.7526262806102464,0.0643048234283265,3.0
28.64234161376953,13.238059997558594,-1.1762982606887815,0.672116966474524,-0.7134895948875045,0.1979681321939162,0.2425435706117883,4.0
29.278133392333984,12.792025566101074,-1.3011316061019895,-0.0,-0.0,-1.0,0.2873395300649719,2.0
29.52601432800293,12.561887741088867,-1.348906397819519,-0.0,-0.0,-1.0,0.0920788458500119,2.0
29.520069122314453,13.090678215026855,-1.3668798208236694,-0.0,-0.0,-1.0,0.1713704779165206,1.0
27.809844970703125,12.855520248413086,-0.97349750995636,-0.0,-0.0,-1.0,0.2008380676892861,1.0
27.924869537353516,11.930400848388672,-1.2020000219345093,-0.0,-0.0,-1.0,0.1027961434708802,1.0
28.08740234375,11.781323432922363,-1.236979603767395,-0.0,-0.0,-1.0,0.1197528438409625,1.0
27.873687744140625,12.603589057922363,-1.2318357229232788,-0.0,-0.0,-1.0,0.1884572259363096,1.0
28.346813201904297,12.102401733398438,-1.324224591255188,-0.0,-0.0,-1.0,0.0325621764657155,2.0
28.259021759033203,12.720162391662598,-1.3417104482650757,-0.0,-0.0,-1.0,0.0801018835151977,1.0
28.507225036621097,12.938104629516602,-1.4230886697769165,-0.0,-0.0,-1.0,0.0866151218073285,2.0
28.20216178894043,13.634892463684082,-1.401117920875549,-0.0,-0.0,-1.0,0.0748939988607721,1.0
28.4362735748291,13.45543098449707,-1.4461804628372192,-0.0,-0.0,-1.0,0.1140147392954126,1.0
29.299530029296875,12.857532501220703,-1.2339946031570437,-0.0,-0.0,-1.0,0.1676124638224745,1.0
29.333900451660156,13.263505935668944,-1.2683929204940796,-0.0,-0.0,-1.0,0.2565166248599256,1.0
29.629138946533203,13.100016593933104,-1.3242837190628052,-0.0,-0.0,-1.0,0.1388874632800442,1.0
27.920307159423828,12.964193344116213,-1.346318244934082,-0.0,-0.0,-1.0,0.1442700659431362,1.0
27.95321273803711,13.417370796203612,-1.410731554031372,-0.0,-0.0,-1.0,0.0728671471128028,1.0
29.514644622802734,13.22063446044922,-1.4459726810455322,-0.0,-0.0,-1.0,0.0528921075927258,2.0
29.65809631347656,13.461729049682615,-1.5058653354644775,-0.0,-0.0,-1.0,0.0673587147457339,2.0
28.01494026184082,11.725103378295898,-1.2486228942871094,0.0896005929996526,0.1159158719310294,-0.9892094037000356,0.1404940785372483,4.0
27.710189819335938,12.606576919555664,-1.0877559185028076,-0.0,-0.0,-1.0,0.1162365256040493,1.0
27.782129287719727,12.929583549499512,-1.1444947719573977,-0.0,-0.0,-1.0,0.086580208354732,2.0
28.80689239501953,12.370811462402344,-1.1890175342559814,-0.0,-0.0,-1.0,0.2719968087844973,1.0
29.63451385498047,11.64316177368164,-1.3442418575286863,-0.0,-0.0,-1.0,0.146198916356172,2.0
27.813859939575195,13.371784210205078,-1.040464162826538,-0.1159694162209868,-0.1592958517900307,-0.9803958007375656,0.1545594539230207,4.0
28.62472152709961,13.051854133605955,-1.2068805694580078,-0.0,-0.0,-1.0,0.1429441807433308,2.0
29.276084899902344,12.634322166442873,-1.3309788703918457,-0.0,-0.0,-1.0,0.1323829497165341,1.0
29.435226440429688,12.30343246459961,-1.3431594371795654,0.9573000653034576,-0.2644786028616659,-0.1167375415123033,0.0674294546277014,4.0
29.623783111572266,12.016249656677246,-1.3685705661773682,-0.0194836073693962,0.8271639979935664,0.5616227465720862,0.0256807956638434,3.0
28.643085479736328,13.180307388305664,-1.2245192527770996,-0.1001644092065764,0.0380543332895588,-0.99424290736529,0.1931618281425109,5.0
29.436710357666016,12.87684440612793,-1.3936569690704346,-0.0,-0.0,-1.0,0.1710800069400493,2.0
29.50314712524414,12.596024513244627,-1.3851172924041748,-0.0,-0.0,-1.0,0.1102385508525236,2.0
29.448532104492188,13.275367736816406,-1.4348509311676023,0.9833699362564352,0.0974458432938968,0.1532575482374548,0.0800055876641267,3.0
27.792835235595703,11.952433586120604,-1.2474086284637451,-0.7990354722410721,-0.0521837232050097,-0.5990151693679802,0.1145244112415658,3.0
27.93788146972656,11.833711624145508,-1.278933048248291,-0.0,-0.0,-1.0,0.0983460805122594,2.0
29.097129821777344,12.321211814880373,-1.365093469619751,0.5988577352775784,0.6348243497092204,-0.4882288990980315,0.0360510510788757,3.0
29.13244247436523,12.091460227966309,-1.3510401248931885,-0.2974141971499011,0.5124440451244898,-0.8055717819971913,0.0248662922399047,4.0
29.46297836303711,11.655631065368652,-1.4019427299499512,-0.0,-0.0,-1.0,0.1148385923240658,2.0
28.378217697143555,13.327703475952148,-1.2920129299163818,-0.0,-0.0,-1.0,0.1688452294405455,1.0
28.87391471862793,12.878841400146484,-1.3676047325134275,-0.0,-0.0,-1.0,0.0943845839868032,2.0
29.092266082763672,12.619152069091797,-1.3970575332641602,-0.0,-0.0,-1.0,0.0990475720768587,1.0
28.76202392578125,13.382417678833008,-1.4019641876220703,-0.0,-0.0,-1.0,0.0516986767116004,2.0
29.007953643798828,13.193995475769045,-1.4435672760009766,-0.0,-0.0,-1.0,0.06253606112501,1.0
27.780946731567383,12.807991027832031,-1.0621678829193115,0.0592311805824672,0.0260027347060991,-0.9979055691971118,0.1459927793676566,3.0
28.03272247314453,12.228574752807615,-1.0591974258422852,-0.0,-0.0,-1.0,0.1838384225540794,1.0
27.756622314453125,12.97785186767578,-1.078474521636963,0.310326919046203,-0.3309455694728232,-0.8911634156323969,0.1139585112316286,3.0
29.01614761352539,12.844888687133787,-1.0673730373382568,-0.0,-0.0,-1.0,0.2141826937136983,1.0
29.128005981445312,12.786224365234377,-1.0880460739135742,-0.0,-0.0,-1.0,0.2606453774608657,2.0
29.286846160888672,12.955731391906738,-1.1439294815063477,0.28063418135699,-0.9065852545987536,0.3151945944939486,0.228678815243046,3.0
29.20941162109375,13.495819091796877,-1.185378074645996,-0.0,-0.0,-1.0,0.1399744293400553,2.0
28.563297271728516,12.022886276245115,-1.3229771852493286,-0.0,-0.0,-1.0,0.0425481346547938,1.0
28.71651077270508,11.755510330200195,-1.3307915925979614,-0.0,-0.0,-1.0,0.0220225010442044,1.0
28.551746368408203,12.317767143249512,-1.3655132055282593,-0.0,-0.0,-1.0,0.0606124513510587,1.0
28.092586517333984,12.04390811920166,-1.1832815408706665,-0.0,-0.0,-1.0,0.1215891617942081,1.0
28.30821228027344,11.778060913085938,-1.208057522773743,-0.0,-0.0,-1.0,0.1259763647553574,1.0
29.339588165283203,12.817497253417969,-1.2634427547454834,-0.0,-0.0,-1.0,0.2239239902611834,1.0
28.649595260620117,13.193363189697266,-1.2322697639465332,-0.1001644092065764,0.0380543332895588,-0.99424290736529,0.193161828142511,5.0
29.506715774536133,11.94601058959961,-1.3788127899169922,-0.0,-0.0,-1.0,0.0292525753180786,2.0
27.73169708251953,12.892181396484377,-0.9789912700653076,-0.0,-0.0,-1.0,0.1174275528843884,1.0
29.48770523071289,11.92288303375244,-1.394695520401001,-0.0,-0.0,-1.0,0.0301831287467233,2.0
29.260467529296875,11.856263160705566,-1.3582918643951416,-0.0,-0.0,-1.0,0.0334606996600514,2.0
27.868457794189453,11.790064811706545,-1.197817087173462,0.1796564726282871,0.35520155990548,-0.917363288824812,0.0832383947443861,3.0
29.580806732177734,12.729702949523926,-1.4200787544250488,-0.0,-0.0,-1.0,0.0807002187825475,1.0
29.361589431762695,13.542141914367676,-1.529313564300537,-0.0,-0.0,-1.0,0.0381723763746376,1.0
29.207670211791992,12.683667182922363,-1.3697128295898438,-0.7883648308460003,-0.4077289338702236,0.4606929671377768,0.0940038866978434,3.0
29.138042449951172,12.99452304840088,-1.4131884574890137,-0.8450959694375566,-0.5023039823981597,-0.1830396451792507,0.0997872458056939,4.0
28.873062133789062,13.257580757141112,-1.427823543548584,-0.1481086304988372,0.2471482597111957,-0.957591547212843,0.0459186992595629,4.0
28.611507415771484,13.194758415222168,-1.3887653350830078,-0.0,-0.0,-1.0,0.2079170364284468,1.0
28.693382263183594,12.602032661437988,-1.2981886863708496,-0.7921922931361594,0.5878601004688847,-0.1638654111531362,0.2082950491830741,3.0
27.72959899902344,11.902880668640137,-1.0745487213134766,-0.0,-0.0,-1.0,0.1268886408531511,1.0
29.60979461669922,13.626778602600098,-1.4933569431304932,0.920510413862812,0.317824229050537,-0.2272627056922148,0.1678797182178933,3.0
29.445751190185547,13.433798789978027,-1.4441578388214111,-0.0,-0.0,-1.0,0.1039736222159249,2.0
29.438488006591797,12.757943153381348,-1.337209939956665,-0.0,-0.0,-1.0,0.1625448749775838,2.0
29.21890640258789,12.712108612060549,-1.3047077655792236,0.7949447410489946,-0.5379807382302227,0.2804275021673363,0.1300418617429634,4.0
29.17926025390625,12.841109275817873,-1.320348024368286,0.551364854894216,-0.746491661159139,-0.3724875791316394,0.1900878651555124,6.0
28.737640380859375,12.635583877563477,-1.2377355098724363,-0.0,-0.0,-1.0,0.2364505051221093,1.0
29.582286834716797,12.095995903015137,-1.3976116180419922,-0.0,-0.0,-1.0,0.0296323265259498,1.0
29.30473899841309,12.502344131469728,-1.4201231002807615,-0.0,-0.0,-1.0,0.0462548260469642,1.0
29.17241477966309,12.589828491210938,-1.41615629196167,-0.0,-0.0,-1.0,0.0555628117838553,1.0
28.69388198852539,12.623502731323242,-1.3614606857299805,-0.8675263261712847,0.4790668037385792,-0.1337649840408748,0.1769792017233442,3.0
28.415203094482425,12.574788093566896,-1.319899559020996,-0.0,-0.0,-1.0,0.0569621628928208,1.0
27.97878074645996,11.890634536743164,-1.163886308670044,-0.0,-0.0,-1.0,0.1223402539247563,1.0
29.417491912841797,12.798850059509276,-1.3235068321228027,-0.0,-0.0,-1.0,0.2371849369197985,2.0
29.16001892089844,12.693382263183594,-1.2760369777679443,-0.0,-0.0,-1.0,0.2045175774706715,1.0
29.63228225708008,13.352803230285645,-1.486699104309082,-0.0,-0.0,-1.0,0.0597195467447397,1.0
29.62389755249023,13.483930587768556,-1.4997892379760742,0.0879423514184156,0.3867024052553077,-0.9180018478177262,0.0691831554225752,3.0
29.376453399658203,12.352266311645508,-1.343132257461548,0.4477321803427229,0.6652337989776698,-0.5974946756108281,0.0776542059926591,6.0
29.35295867919922,12.815858840942385,-1.3879289627075195,-0.0,-0.0,-1.0,0.166265344596606,1.0
28.698162078857425,12.616326332092283,-1.2700183391571045,-0.7921922931361594,0.5878601004688847,-0.1638654111531362,0.2319468128652981,3.0
29.607173919677734,12.823375701904297,-1.3878426551818848,-0.0,-0.0,-1.0,0.1316202833224298,2.0
27.991939544677734,12.29709815979004,-1.0889263153076172,-0.4895829525198569,-0.3844941747615449,-0.7826063903242662,0.1903005695434149,3.0
29.634952545166016,13.592029571533203,-1.4384734630584717,0.7285198673916508,0.0724102546084138,-0.6811868743914526,0.0708662274526541,3.0
29.267654418945312,12.7951021194458,-1.2862651348114014,-0.0,-0.0,-1.0,0.244778602899486,2.0
29.11999130249023,13.245235443115234,-1.3204050064086914,-0.0,-0.0,-1.0,0.2282385834812365,1.0
29.685701370239254,12.820085525512695,-1.4030954837799072,0.210602817631741,-0.1859141286485884,-0.959730373581251,0.1517223602313013,3.0
29.689821243286133,13.363277435302734,-1.4626085758209229,-0.0,-0.0,-1.0,0.0651673611697543,2.0
29.22068214416504,12.73667049407959,-1.3206968307495115,0.3162460406451807,-0.9161094159113118,-0.2464385924624673,0.1875833880775365,4.0
28.983003616333008,13.271297454833984,-1.4993855953216553,-0.0,-0.0,-1.0,0.0375556982006395,1.0
28.569854736328125,12.167588233947754,-1.388681173324585,-0.0,-0.0,-1.0,0.0451331376210567,1.0
28.655832290649418,12.967252731323242,-1.4266574382781982,-0.0,-0.0,-1.0,0.1000604135629328,2.0
28.50084686279297,11.9448823928833,-1.3704173564910889,-0.0,-0.0,-1.0,0.0330297295660486,1.0
28.025440216064453,11.779363632202148,-1.2743048667907717,-0.0,-0.0,-1.0,0.1404940785372483,2.0
29.0498046875,13.592310905456545,-1.5275907516479492,-0.0,-0.0,-1.0,0.0323066990306007,1.0
28.951616287231445,13.136557579040527,-1.4751520156860352,0.5686868172045728,-0.7092793620251235,-0.4165550270288021,0.0548840936925343,4.0
28.553564071655273,12.110272407531738,-1.3314218521118164,-0.0,-0.0,-1.0,0.0417005033837765,1.0
28.429216384887695,12.816523551940918,-1.3547067642211914,-0.3156633564022295,0.8512543118714071,-0.4191929650473829,0.0667276610724668,3.0
28.24553680419922,11.67190170288086,-1.2470402717590332,-0.0,-0.0,-1.0,0.1286032235088793,1.0
27.993677139282227,11.71956729888916,-1.2021138668060305,-0.5359440436794672,0.7701232989231992,-0.3459394260562827,0.1388580419966061,3.0
27.856914520263672,11.834017753601074,-1.1830592155456543,-0.0,-0.0,-1.0,0.0973122060264691,2.0
28.76060485839844,13.53256893157959,-1.5051984786987305,-0.0,-0.0,-1.0,0.096563971077409,1.0
28.13304901123047,13.629934310913086,-1.3941876888275146,-0.0,-0.0,-1.0,0.0644997234624376,1.0
27.85145568847656,11.754262924194336,-1.2150092124938965,-0.0,-0.0,-1.0,0.0665636401141457,2.0
29.644269943237305,12.010120391845703,-1.358832597732544,-0.0194836073693962,0.8271639979935664,0.5616227465720862,0.0263727982962819,3.0
28.716028213500977,13.188091278076172,-1.2296030521392822,0.6871262132125519,-0.7246003040324661,-0.05302797857958,0.2339657675387003,3.0
27.746423721313477,13.287837982177734,-1.057396411895752,-0.0,-0.0,-1.0,0.0696977130938445,2.0
28.957204818725582,13.450275421142578,-1.4949264526367188,-0.0,-0.0,-1.0,0.0466235139805927,1.0
28.72537612915039,13.32548999786377,-1.4485712051391602,-0.0,-0.0,-1.0,0.0718765260408851,1.0
28.689058303833008,13.14604949951172,-1.4384946823120115,-0.0,-0.0,-1.0,0.1020459454889529,1.0
28.347671508789062,13.056110382080078,-1.372237205505371,-0.0,-0.0,-1.0,0.0949821830334394,1.0
28.79012680053711,13.496758460998535,-1.4752075672149658,-0.8079763902362403,0.1938163018712928,-0.5564255511294843,0.0637929226217826,3.0
28.528989791870117,13.193899154663086,-1.4250755310058594,-0.0,-0.0,-1.0,0.2355388958788381,2.0
28.73454475402832,13.419060707092283,-1.4642951488494873,-0.0,-0.0,-1.0,0.0504949193624848,2.0
27.781742095947266,13.077744483947754,-1.3372960090637207,-0.0,-0.0,-1.0,0.1623263919529059,1.0
27.91734313964844,13.179734230041504,-1.3599448204040527,-0.0,-0.0,-1.0,0.043230690077053,2.0
29.489492416381836,13.628578186035156,-1.5133895874023438,-0.0,-0.0,-1.0,0.0459549263749905,1.0
28.942230224609375,13.080755233764648,-1.4382319450378418,-0.9824697526404552,-0.0691111140264345,0.1731382079860721,0.0702396436793606,5.0
28.94811630249023,13.333866119384766,-1.4318909645080566,-0.0,-0.0,-1.0,0.0432893311722244,2.0
28.5635986328125,12.94253921508789,-1.380533218383789,0.8465888890962711,0.1654441976341593,-0.5058808855135081,0.2057022039597189,3.0
28.362382888793945,12.813800811767578,-1.351879596710205,-0.0,-0.0,-1.0,0.0798891457425112,2.0
27.937725067138672,12.520907402038574,-1.277165412902832,-0.0,-0.0,-1.0,0.2132524984413046,1.0
28.306928634643555,12.731318473815918,-1.3295159339904783,-0.0,-0.0,-1.0,0.0920691453356315,1.0
28.918453216552734,13.160733222961426,-1.4161252975463867,-0.0,-0.0,-1.0,0.0705233355757703,2.0
29.2418270111084,13.42121410369873,-1.462392807006836,-0.0,-0.0,-1.0,0.1482185970011052,1.0
29.346187591552734,13.61361312866211,-1.474443435668945,-0.0,-0.0,-1.0,0.0931861769957296,1.0
27.8432559967041,12.386383056640623,-1.2797486782073977,-0.0,-0.0,-1.0,0.1107084402055376,1.0
27.94692039489746,12.57137680053711,-1.2899188995361328,-0.0,-0.0,-1.0,0.1932779952406237,2.0
28.325363159179688,12.547544479370115,-1.3556113243103027,0.9401366087380304,-0.2129987436187078,-0.2660351332576348,0.0571933957365022,3.0
28.724756240844727,12.83873462677002,-1.413860321044922,-0.0,-0.0,-1.0,0.0888822690474658,2.0
28.93791961669922,13.105461120605469,-1.4419538974761963,-0.6333916828363154,-0.3846201095091336,-0.6714777341617234,0.0609596759611913,5.0
29.193340301513672,13.292122840881348,-1.4808838367462158,-0.0,-0.0,-1.0,0.0999910731431415,1.0
28.158540725708008,13.398399353027344,-1.295541763305664,-0.0,-0.0,-1.0,0.0723315408728066,1.0
29.130176544189453,13.540616989135742,-1.4620344638824463,-0.0,-0.0,-1.0,0.1364507230915914,2.0
29.204504013061523,13.490495681762695,-1.476781129837036,-0.0,-0.0,-1.0,0.2030563960003874,2.0
28.689075469970703,11.709266662597656,-1.2281570434570312,-0.0,-0.0,-1.0,0.0506673294665231,1.0
28.7447509765625,11.881942749023438,-1.2296016216278076,-0.0,-0.0,-1.0,0.0264453009036498,1.0
29.16605758666992,11.952909469604492,-1.297029733657837,-0.0,-0.0,-1.0,0.0227445689067125,2.0
29.261455535888672,12.344654083251951,-1.296865463256836,-0.0,-0.0,-1.0,0.0493153876000461,1.0
27.978607177734375,13.007954597473145,-1.0525128841400146,-0.0,-0.0,-1.0,0.1265955293899144,1.0
28.734867095947266,13.041234016418455,-1.179581642150879,-0.0,-0.0,-1.0,0.1763294361573198,1.0
29.497127532958984,12.793757438659668,-1.3197910785675049,-0.0,-0.0,-1.0,0.2084508282834356,1.0
29.703845977783203,12.854464530944824,-1.3532423973083496,-0.0,-0.0,-1.0,0.1555771173721542,1.0
27.93566513061523,13.346534729003906,-1.0313267707824707,-0.0,-0.0,-1.0,0.1517649344482312,1.0
28.71602249145508,13.156973838806152,-1.171907663345337,-0.0,-0.0,-1.0,0.1744988361251768,2.0
28.072484970092773,13.50346851348877,-1.4083545207977295,-0.0,-0.0,-1.0,0.0672982616457949,1.0
27.876611709594727,13.033819198608398,-1.3143389225006104,-0.2535510243101287,-0.5023585745479568,-0.826648498849075,0.1816488791943835,3.0
28.198883056640625,13.619498252868652,-1.335599660873413,-0.0,-0.0,-1.0,0.0615348577137004,1.0
28.42515563964844,13.378093719482422,-1.3983542919158936,-0.0,-0.0,-1.0,0.1344950364733756,1.0
28.52331161499023,13.354025840759276,-1.4199402332305908,-0.0,-0.0,-1.0,0.1402461687983004,1.0
28.774311065673828,13.466718673706056,-1.462705373764038,-0.0,-0.0,-1.0,0.0675593762751011,2.0
29.193012237548828,11.796350479125977,-1.3319902420043943,-0.0,-0.0,-1.0,0.038690756212133,1.0
29.155597686767575,11.643543243408203,-1.334627628326416,-0.0,-0.0,-1.0,0.0368059153287518,1.0
28.613529205322266,12.774919509887695,-1.1570911407470703,-0.0,-0.0,-1.0,0.2152916250425379,1.0
29.24870491027832,12.285991668701172,-1.3121230602264404,-0.0,-0.0,-1.0,0.0498654332397872,1.0
29.1898250579834,12.007237434387209,-1.3179471492767334,-0.0,-0.0,-1.0,0.0251170789712838,2.0
29.353984832763672,12.935070991516112,-1.2943403720855713,-0.0,-0.0,-1.0,0.2202495048012153,1.0
29.39148712158203,12.539323806762695,-1.324967622756958,-0.0,-0.0,-1.0,0.10583225199748,2.0
29.141311645507812,12.69630241394043,-1.100266933441162,0.9630710173189764,-0.268973446086303,-0.0121449948806229,0.290963931463262,6.0
29.567150115966797,12.899693489074709,-1.1816377639770508,-0.0,-0.0,-1.0,0.1396039564190726,2.0
29.161766052246097,12.601228713989258,-1.1629726886749268,-0.0,-0.0,-1.0,0.2062924512154204,1.0
29.501689910888672,12.925336837768556,-1.222184181213379,-0.0,-0.0,-1.0,0.1897309624558995,2.0
27.831836700439453,12.540456771850586,-0.8837695121765137,-0.0,-0.0,-1.0,0.1166928805955193,1.0
28.88457489013672,12.284000396728516,-1.1084697246551514,-0.0,-0.0,-1.0,0.1669522869614002,1.0
29.237958908081055,12.781679153442385,-1.155452013015747,-0.0,-0.0,-1.0,0.1311006718004801,1.0
29.51925277709961,13.442060470581056,-1.4782404899597168,-0.0,-0.0,-1.0,0.0401755226434962,1.0
27.80559539794922,13.407729148864746,-1.0493474006652832,0.9593819536213464,0.1638240637945036,-0.2296692038292104,0.1784734886189538,3.0
27.800933837890625,12.98257064819336,-1.0647964477539062,-0.0,-0.0,-1.0,0.1139585112316286,2.0
27.842790603637695,12.583507537841797,-1.0924501419067385,-0.0,-0.0,-1.0,0.1474129124685904,1.0
27.933908462524418,12.42377471923828,-1.1221470832824707,-0.0,-0.0,-1.0,0.2254183357749994,1.0
28.5701961517334,12.07274341583252,-1.29435133934021,-0.0,-0.0,-1.0,0.0414390079018691,1.0
28.61086082458496,13.248757362365724,-1.25610089302063,-0.0,-0.0,-1.0,0.263213480635197,1.0
28.913604736328125,12.94509506225586,-1.3426334857940674,-0.0,-0.0,-1.0,0.0960003767005916,1.0
28.912206649780273,12.547006607055664,-1.357882738113403,-0.0,-0.0,-1.0,0.036557885831806,2.0
28.8092041015625,12.281498908996582,-1.3434715270996094,-0.0,-0.0,-1.0,0.1242583343951388,1.0
29.250255584716797,13.236490249633787,-1.416748046875,-0.1130545232131112,-0.813588298283475,0.5703444184676972,0.2207095644367976,4.0
29.232017517089844,13.12193202972412,-1.4159541130065918,-0.0,-0.0,-1.0,0.1172604004453186,1.0
29.28275680541992,13.285161018371582,-1.423358917236328,-0.0,-0.0,-1.0,0.1996607181954512,2.0
27.867027282714844,13.577035903930664,-1.3671081066131592,-0.0,-0.0,-1.0,0.1143650795041152,1.0
27.759599685668945,13.188694953918455,-1.3568661212921145,-0.0,-0.0,-1.0,0.1322038903174325,1.0
29.26813507080078,12.908075332641602,-1.205570936203003,-0.0,-0.0,-1.0,0.229515508352885,2.0
29.20423698425293,12.692203521728516,-1.1987359523773191,-0.0,-0.0,-1.0,0.1749510500070675,2.0
29.32321548461914,13.411054611206056,-1.200594186782837,-0.0,-0.0,-1.0,0.1883886570688127,2.0
29.407697677612305,13.132468223571776,-1.2310853004455566,-0.0,-0.0,-1.0,0.1709696790733759,1.0
29.556215286254883,12.926628112792969,-1.2748305797576904,-0.0,-0.0,-1.0,0.2078296336863071,2.0
27.765426635742188,11.789487838745115,-1.1393673419952393,-0.0,-0.0,-1.0,0.103871139572272,1.0
28.442386627197266,12.643695831298828,-1.2779006958007812,-0.2849702831588383,0.9517832300233792,0.1135808996382513,0.085503028149386,3.0
28.522327423095703,12.353293418884276,-1.3120384216308594,-0.0,-0.0,-1.0,0.0549954271946467,1.0
28.796646118164062,12.855010032653809,-1.365323781967163,-0.0,-0.0,-1.0,0.091404421782341,2.0
29.24718856811523,13.564617156982422,-1.4661550521850586,-0.0,-0.0,-1.0,0.1146444366016197,2.0
29.150619506835938,13.290431022644045,-1.447277545928955,-0.0,-0.0,-1.0,0.1021292163351118,2.0
29.29844856262207,13.499518394470217,-1.4818449020385742,-0.0,-0.0,-1.0,0.1304310820553445,1.0
