x,y,z,nx,ny,nz,curvature,density
33.357444763183594,12.098674774169922,-0.916024684906006,0.3262744262153194,0.3919929707409921,-0.8601665592706542,0.2418492432154596,4.0
33.68550491333008,12.630989074707031,-0.9368443489074708,-0.0,-0.0,-1.0,0.1960579843493935,2.0
31.927509307861328,12.866118431091309,-1.2984793186187744,-0.0,-0.0,-1.0,0.1473417018921451,1.0
32.01821517944336,12.45746612548828,-1.3397891521453855,-0.8606490317455946,0.1122146352595787,-0.4966800980399058,0.1970788729766363,3.0
32.06959533691406,12.024327278137209,-1.3768067359924316,0.076971123325737,-0.9969461214483084,-0.0131862467423083,0.1957273770182991,3.0
32.28833770751953,13.184935569763184,-1.3362970352172852,0.4865501955580567,0.6352572027087285,-0.5997642817049864,0.2185299255134688,3.0
32.34430694580078,12.492904663085938,-1.3896856307983398,-0.0,-0.0,-1.0,0.065100864056882,1.0
32.474945068359375,13.397431373596191,-1.3534600734710691,-0.0,-0.0,-1.0,0.1878519919300882,2.0
32.68254470825195,12.629612922668455,-1.4353816509246826,-0.0,-0.0,-1.0,0.0843555781007052,1.0
32.967872619628906,13.109336853027344,-1.4517724514007568,-0.0,-0.0,-1.0,0.1517650293710255,1.0
33.30165481567383,13.452596664428713,-1.4858076572418213,-0.0,-0.0,-1.0,0.0305067213373853,2.0
33.26490783691406,13.26898193359375,-1.4907495975494385,-0.0,-0.0,-1.0,0.0571257517145835,2.0
33.70888900756836,13.464489936828612,-1.5525662899017334,-0.0,-0.0,-1.0,0.1593153794149191,1.0
31.83849716186523,13.365716934204102,-1.2519686222076416,-0.0,-0.0,-1.0,0.0727413674642261,1.0
31.99667739868164,13.017199516296388,-1.299828052520752,-0.0,-0.0,-1.0,0.1322118830302448,1.0
33.40666961669922,12.057514190673828,-0.7200860977172852,-0.3353421726261123,0.4092775604447223,-0.848550237625808,0.1307718518467555,3.0
32.01433181762695,12.956774711608888,-1.3549866676330566,-0.0,-0.0,-1.0,0.1569015438533169,1.0
32.02431106567383,12.44570541381836,-1.3985919952392578,0.3018615717739104,0.0689488386092263,-0.950855219862952,0.1338802864272314,4.0
32.02235794067383,12.067387580871582,-1.4299654960632324,-0.0,-0.0,-1.0,0.1087698200796878,2.0
32.34648132324219,13.1724271774292,-1.3893892765045166,-0.6265482704818194,0.6501314459787435,0.4298445855257792,0.2107326298369709,3.0
32.3360595703125,12.559247970581056,-1.4373784065246582,-0.0,-0.0,-1.0,0.0596992024852224,1.0
32.56051254272461,13.295626640319824,-1.4132254123687744,-0.0,-0.0,-1.0,0.1921465427829388,1.0
32.5751953125,13.085840225219728,-1.4321355819702148,-0.0,-0.0,-1.0,0.1483618108937517,1.0
32.647735595703125,12.726205825805664,-1.4722614288330078,-0.0,-0.0,-1.0,0.0392817227177369,2.0
33.031166076660156,13.222176551818848,-1.4932947158813477,0.2827897624261318,0.3648422310937916,-0.887085168784529,0.0402915038035383,3.0
33.37476348876953,13.48930835723877,-1.5273637771606443,-0.0,-0.0,-1.0,0.0389091549659732,2.0
33.3616943359375,13.416315078735352,-1.5308442115783691,-0.0,-0.0,-1.0,0.0391197834976733,1.0
33.340911865234375,11.978214263916016,-0.8064908981323242,-0.0944308302380693,0.8774236548969663,0.4703302543190246,0.2103720515612667,9.0
32.5764274597168,12.152143478393556,-0.6987533569335938,-0.91684682306528,-0.3353361535845606,-0.2166600266182367,0.1319641189730574,4.0
31.72032165527344,11.96341037750244,-1.1942572593688965,-0.0,-0.0,-1.0,0.0964667142251881,1.0
31.78862762451172,12.584498405456545,-1.1598892211914062,-0.6689260681748155,0.709596607220299,-0.2213833108832339,0.1538436701877359,4.0
31.88855361938477,13.058514595031738,-1.142467975616455,-0.8019273884291523,-0.0080248673328374,0.5973676131089548,0.2442083547884195,3.0
32.438743591308594,11.850055694580078,-1.3166062831878662,0.7370486188282614,-0.116414120737812,-0.6657380010005399,0.0713822170552037,4.0
32.31635284423828,11.700081825256348,-1.3080623149871826,-0.0,-0.0,-1.0,0.1268666094566513,1.0
32.41810607910156,13.200523376464844,-1.2187397480010986,-0.0,-0.0,-1.0,0.2576833205296238,1.0
32.80836486816406,12.086432456970217,-1.3589675426483154,-0.0,-0.0,-1.0,0.0730199189932439,1.0
33.198490142822266,12.42092514038086,-1.3988754749298096,-0.0,-0.0,-1.0,0.1811152962403971,2.0
33.08269119262695,12.31245231628418,-1.3875200748443604,-0.0,-0.0,-1.0,0.1053119389079091,1.0
33.42485427856445,12.680856704711914,-1.41831374168396,-0.0,-0.0,-1.0,0.0473284947819879,1.0
33.58940887451172,12.847399711608888,-1.4342992305755615,-0.0,-0.0,-1.0,0.1144557415313401,1.0
31.838106155395508,12.203255653381348,-1.4603641033172607,-0.0,-0.0,-1.0,0.1040854547851186,1.0
32.11976623535156,12.53517246246338,-1.486783504486084,-0.0,-0.0,-1.0,0.1694456407788299,2.0
32.04388427734375,12.459962844848633,-1.4784512519836426,-0.0,-0.0,-1.0,0.1512967102260639,1.0
32.42414093017578,12.8490629196167,-1.5202322006225586,0.3661125171198839,0.2051170125096927,-0.907683114301044,0.1284671658713286,4.0
32.895965576171875,13.537612915039062,-1.561600923538208,0.1366690589948911,-0.1084166040233786,-0.98466614051946,0.0376458980856015,3.0
32.780128479003906,13.408536911010742,-1.5482735633850098,0.7197520346396937,0.3588425142219437,-0.59429711308309,0.0602941141648305,3.0
31.899349212646484,12.36407470703125,-1.459294080734253,-0.0,-0.0,-1.0,0.2433977216755248,2.0
32.146141052246094,12.73540496826172,-1.477013111114502,0.0541753619396932,0.597811123427664,-0.799804282849784,0.1044824705503952,3.0
32.39350509643555,13.418376922607422,-1.474980115890503,-0.0762546346977569,0.994131941314174,-0.0767262272369983,0.1671663035391029,3.0
32.344825744628906,13.192587852478027,-1.481396198272705,-0.0,-0.0,-1.0,0.2070369003685479,2.0
32.634769439697266,13.33697509765625,-1.5257325172424316,-0.0,-0.0,-1.0,0.1447437099457285,1.0
32.150489807128906,11.87161350250244,-0.802325963973999,-0.0,-0.0,-1.0,0.139855009485721,2.0
32.24674987792969,11.706380844116213,-0.8260431289672852,0.4603906571863516,-0.7770214707492675,0.4292762243243433,0.0718689054023657,3.0
33.2436408996582,12.002613067626951,-0.963510513305664,0.4602697067094303,0.1403003408594294,-0.876622844466389,0.2054546217536403,7.0
33.64824676513672,12.399029731750488,-1.006920576095581,0.0672466407324213,0.5127351334652381,-0.8559092079307185,0.1470693509110983,3.0
31.99270248413086,12.423020362854004,-1.4144911766052246,-0.0,-0.0,-1.0,0.2004932461091657,2.0
32.000732421875,12.124382019042969,-1.436241626739502,-0.0,-0.0,-1.0,0.0743780717364716,1.0
32.26811218261719,12.726161003112791,-1.448152780532837,-0.0,-0.0,-1.0,0.1373909932497759,1.0
32.267215728759766,12.473787307739258,-1.464324951171875,-0.0,-0.0,-1.0,0.0733442980098824,1.0
32.467464447021484,13.296049118041992,-1.4520020484924316,-0.0,-0.0,-1.0,0.1448148046937923,2.0
32.51496887207031,12.935415267944336,-1.4833550453186035,-0.0,-0.0,-1.0,0.0884681844641538,1.0
32.49116134643555,12.733346939086914,-1.491295576095581,-0.0,-0.0,-1.0,0.1308562793034401,1.0
32.92253494262695,13.389559745788574,-1.5368590354919434,-0.0,-0.0,-1.0,0.0272794373568554,1.0
33.180992126464844,13.633776664733888,-1.5747737884521484,-0.0,-0.0,-1.0,0.0450067607857107,2.0
32.031028747558594,11.930471420288086,-0.7506430149078369,-0.0,-0.0,-1.0,0.2300242779641775,2.0
32.18949508666992,11.812353134155272,-0.782029390335083,-0.0,-0.0,-1.0,0.0496064610845661,1.0
33.282371520996094,12.029958724975586,-0.9508266448974608,-0.1581378620820291,0.5621374021287687,-0.8117844280990146,0.1552615942373859,7.0
33.693275451660156,12.399374961853027,-1.003175973892212,0.0672466407324213,0.5127351334652381,-0.8559092079307185,0.1362299203058003,3.0
31.809232711791992,13.28396987915039,-1.0556998252868652,-0.0,-0.0,-1.0,0.1252047086089426,1.0
31.987300872802734,12.957226753234863,-1.1075637340545654,-0.0,-0.0,-1.0,0.1165939999506159,1.0
31.80807113647461,12.686657905578612,-1.0874617099761963,0.2191866458002873,0.7038082639063218,-0.6757300806978991,0.1507696806176565,3.0
32.683258056640625,11.951774597167969,-1.2973964214324951,-0.0,-0.0,-1.0,0.0940861576167748,2.0
32.56200408935547,11.712602615356444,-1.287834882736206,-0.0,-0.0,-1.0,0.0796181140071221,1.0
32.67327880859375,13.50763988494873,-1.214975118637085,-0.0,-0.0,-1.0,0.1087176025434097,2.0
32.677940368652344,13.355297088623049,-1.223114252090454,-0.0,-0.0,-1.0,0.1503014035562317,1.0
32.99756622314453,12.113901138305664,-1.3492100238800049,-0.0,-0.0,-1.0,0.2002694543970372,2.0
33.314510345458984,12.556053161621094,-1.3879311084747314,-0.8614881041297485,0.3441583080539329,0.373354128730869,0.1681232960157685,3.0
33.199974060058594,12.309362411499023,-1.3781673908233645,-0.0,-0.0,-1.0,0.1625683615054249,1.0
33.60000228881836,13.058306694030762,-1.419985055923462,-0.0,-0.0,-1.0,0.1913699675842659,2.0
33.528831481933594,12.704991340637209,-1.422719955444336,-0.0,-0.0,-1.0,0.0522402815221801,1.0
33.45936584472656,12.068137168884276,-0.7250959873199463,0.0736983408553908,0.803724580961023,-0.5904196410301664,0.2290905810555983,4.0
31.987796783447266,12.457125663757324,-1.4552443027496338,-0.0,-0.0,-1.0,0.2488125782209617,1.0
31.883546829223633,12.266521453857422,-1.447439432144165,-0.0,-0.0,-1.0,0.1312247773335566,2.0
32.1525764465332,12.66759204864502,-1.4749436378479004,-0.0,-0.0,-1.0,0.116519180194559,1.0
32.55937957763672,13.443690299987791,-1.509500503540039,-0.0,-0.0,-1.0,0.2010555538715281,1.0
32.36504364013672,13.129247665405272,-1.4883413314819336,-0.0,-0.0,-1.0,0.1168920635315216,1.0
32.39984130859375,12.861042022705078,-1.5139105319976809,-0.1119991291253257,0.2765039584907808,-0.9544641198149344,0.117671328013161,3.0
32.84787368774414,13.608352661132812,-1.5615909099578855,-0.0,-0.0,-1.0,0.0316882376486936,1.0
32.112735748291016,13.022525787353516,-1.4417474269866943,-0.0,-0.0,-1.0,0.1735926985439463,1.0
32.34736633300781,13.415555000305176,-1.4656882286071775,-0.3197423390910333,0.6431749335366821,-0.6957663698848051,0.1824569839185308,4.0
32.318416595458984,13.328335762023926,-1.465165138244629,0.5754293232613164,0.3690437132419329,-0.7298546647433508,0.1345119526676064,7.0
32.00026321411133,11.925155639648438,-0.8487699031829834,-0.0,-0.0,-1.0,0.2917278404548588,2.0
32.667572021484375,11.806544303894045,-0.9741475582122804,-0.0,-0.0,-1.0,0.1227511088043941,1.0
32.731727600097656,12.515369415283203,-0.9475147724151612,-0.0,-0.0,-1.0,0.1328901781698264,1.0
32.74070739746094,12.0660982131958,-0.9729673862457277,-0.0,-0.0,-1.0,0.2829622717983466,2.0
33.28236389160156,12.05041790008545,-1.0711238384246826,-0.0,-0.0,-1.0,0.1466282941111862,2.0
33.359554290771484,11.928018569946287,-1.0914902687072754,-0.0,-0.0,-1.0,0.1525493487047507,1.0
33.334251403808594,13.213409423828123,-1.0227549076080322,-0.0,-0.0,-1.0,0.1676474919311813,1.0
33.39119338989258,13.107738494873049,-1.0381414890289309,-0.0,-0.0,-1.0,0.1367079444412092,1.0
33.700626373291016,12.42405891418457,-1.1276872158050537,-0.0,-0.0,-1.0,0.1555790568522505,2.0
32.49980926513672,12.00681972503662,-1.3436486721038818,-0.0,-0.0,-1.0,0.0619356436410929,2.0
32.41272735595703,11.842768669128418,-1.337656021118164,0.7370486188282614,-0.116414120737812,-0.6657380010005399,0.0674402100163964,4.0
32.769046783447266,12.242109298706056,-1.382359266281128,-0.0,-0.0,-1.0,0.1002073633761939,1.0
33.12256622314453,12.588762283325195,-1.432309865951538,-0.69240004591593,0.7203573909331112,-0.0408338798506669,0.0614726625841516,3.0
32.888702392578125,12.358813285827637,-1.3990519046783447,-0.1948725242676445,0.0169891733307036,-0.9806814300653884,0.1201616392344361,3.0
33.49462127685547,13.385238647460938,-1.4618370532989502,-0.0,-0.0,-1.0,0.0802268087136825,1.0
33.37389373779297,13.11817741394043,-1.4520950317382812,-0.0,-0.0,-1.0,0.2011191420152563,1.0
33.66979217529297,13.169660568237305,-1.510777473449707,-0.0,-0.0,-1.0,0.1365418926218972,1.0
31.87982177734375,13.140158653259276,-1.1408040523529053,-0.0,-0.0,-1.0,0.1379904681438647,2.0
31.88552474975586,13.07223892211914,-1.1463496685028076,-0.8019273884291523,-0.0080248673328374,0.5973676131089548,0.2806426981866179,3.0
31.783580780029297,12.566688537597656,-1.1592020988464355,-0.5711578488986492,0.3290782833305906,-0.7519881615302594,0.1567693285875442,5.0
31.896514892578125,12.205013275146484,-1.2074007987976074,-0.0,-0.0,-1.0,0.1834805026664104,1.0
32.311038970947266,13.28817367553711,-1.2206809520721436,-0.0,-0.0,-1.0,0.1607032636465074,1.0
32.52153015136719,13.485071182250977,-1.2526564598083496,-0.5876615648209441,0.6105634734857889,-0.5309106611070904,0.1173380339565659,4.0
32.72173309326172,12.51833152770996,-1.3542940616607666,-0.0,-0.0,-1.0,0.2228251374972477,1.0
32.584285736083984,12.186898231506348,-0.7125375270843506,-0.9478577842796956,0.0934785686167585,-0.3046758572479088,0.1280972209839054,3.0
33.259437561035156,12.109246253967283,-0.8327023983001709,-0.0,-0.0,-1.0,0.2240066692238565,1.0
33.29982376098633,12.015759468078612,-0.8443634510040283,0.3709737708693328,0.1661513417569304,-0.9136586851551072,0.1314467536955555,6.0
33.629730224609375,12.569133758544922,-0.8746991157531738,0.4924114694535683,0.1982638736387935,-0.8474800181481082,0.1910148225738799,3.0
33.38749313354492,12.156490325927734,-0.8524701595306396,-0.8002152754773282,0.5984737427310447,0.0385317032356363,0.2713991562517052,3.0
31.771785736083984,12.985135078430176,-1.181898832321167,-0.0,-0.0,-1.0,0.1753268930584811,2.0
31.80212020874023,12.4422607421875,-1.204967021942139,-0.0,-0.0,-1.0,0.1774096858317041,1.0
32.20808410644531,13.195674896240234,-1.279473066329956,-0.0,-0.0,-1.0,0.1948970882593931,1.0
32.30998992919922,11.933143615722656,-1.3396542072296145,-0.0,-0.0,-1.0,0.1582354022335198,1.0
32.27634048461914,11.784854888916016,-1.336897611618042,-0.0,-0.0,-1.0,0.1416286456139347,1.0
32.588287353515625,12.87646484375,-1.3771030902862549,-0.0,-0.0,-1.0,0.0732902203251629,1.0
32.789669036865234,12.396333694458008,-1.4373033046722412,-0.0,-0.0,-1.0,0.1510290022437388,2.0
32.636287689208984,12.23358917236328,-1.406114101409912,-0.0,-0.0,-1.0,0.0664444698049348,2.0
32.892433166503906,13.07686996459961,-1.4443769454956057,-0.0,-0.0,-1.0,0.1166590109428632,1.0
32.88131332397461,12.615999221801758,-1.4528934955596924,-0.0,-0.0,-1.0,0.0991371444237943,2.0
33.24380874633789,13.407483100891112,-1.5212123394012451,-0.0,-0.0,-1.0,0.0296866961481926,1.0
33.23501968383789,11.934276580810549,-0.9126100540161132,-0.0,-0.0,-1.0,0.1607705359737096,1.0
33.524864196777344,12.509380340576172,-0.9634006023406982,0.9041764272326872,-0.4269093580441487,-0.0146078215715262,0.1737549267117368,4.0
33.40639114379883,12.154205322265623,-0.9438579082489014,-0.0,-0.0,-1.0,0.2736455040548471,2.0
31.756649017333984,12.429971694946287,-1.522897720336914,-0.0,-0.0,-1.0,0.1764562694786797,1.0
31.996143341064453,13.283668518066406,-1.552753448486328,0.9914040883204656,-0.0766778862520541,-0.1060114872142804,0.0388357656807882,4.0
31.97821807861328,13.023776054382324,-1.5567522048950195,-0.0,-0.0,-1.0,0.1105910410545775,2.0
31.91910171508789,12.719121932983398,-1.5525753498077393,-0.0,-0.0,-1.0,0.0954691647050848,1.0
32.18166732788086,13.44803237915039,-1.595649003982544,-0.0,-0.0,-1.0,0.1143495347903932,2.0
32.57131576538086,12.430878639221191,-1.122431993484497,-0.0,-0.0,-1.0,0.1480926911082284,1.0
33.02629852294922,11.800399780273438,-1.2382104396820068,-0.0,-0.0,-1.0,0.0531145200726867,2.0
32.91616439819336,12.786388397216797,-1.1911382675170898,-0.0,-0.0,-1.0,0.1609040980464615,1.0
33.23680877685547,11.902549743652344,-1.281728744506836,-0.0,-0.0,-1.0,0.2155613636743273,2.0
33.330963134765625,13.001636505126951,-1.2797305583953855,-0.0,-0.0,-1.0,0.1711120699896563,2.0
31.77942276000977,12.486230850219728,-1.2824695110321045,-0.0,-0.0,-1.0,0.1810637417342615,2.0
32.06554412841797,12.023870468139648,-1.365917444229126,-0.0,-0.0,-1.0,0.1927335708946813,2.0
31.784210205078125,13.291406631469728,-1.2669289112091064,-0.0,-0.0,-1.0,0.092780009065752,1.0
31.90006446838379,12.959358215332031,-1.3020861148834229,-0.0624843606664822,0.0016618092620843,-0.9980445596575724,0.2149084227017545,3.0
32.02668380737305,12.521934509277344,-1.343238353729248,-0.0,-0.0,-1.0,0.1492575325764031,1.0
32.295318603515625,12.23189926147461,-1.4174888134002686,-0.0,-0.0,-1.0,0.1176525935990139,1.0
32.23605728149414,13.23057460784912,-1.3822026252746582,0.5999947028134128,0.7135454311018737,-0.3617447640940858,0.1959927959066264,3.0
32.485416412353516,12.616915702819824,-1.4561078548431396,-0.0,-0.0,-1.0,0.0773547745640956,1.0
32.40373229980469,13.370678901672363,-1.4227936267852783,-0.6825580262454894,0.6061472288130502,-0.4082892085398793,0.2074310378036265,3.0
32.457489013671875,13.145356178283691,-1.4395320415496826,-0.0,-0.0,-1.0,0.203094651320623,1.0
32.73550796508789,12.82748794555664,-1.5149405002593994,-0.0,-0.0,-1.0,0.0346795134984503,2.0
32.93330383300781,13.533742904663086,-1.5559923648834229,-0.0,-0.0,-1.0,0.0429493410144435,2.0
32.095985412597656,11.805830955505373,-0.7991344928741455,-0.3357941184288395,-0.7725377408483852,-0.5389134893407954,0.1309204576522323,3.0
33.08110046386719,11.9440279006958,-1.0082979202270508,-0.0,-0.0,-1.0,0.1448138587994052,1.0
33.2526741027832,12.090166091918944,-1.0438106060028076,-0.0,-0.0,-1.0,0.1181466204606822,2.0
33.21870040893555,13.261394500732422,-1.0314815044403076,-0.0,-0.0,-1.0,0.1280438766715459,2.0
33.601585388183594,12.492734909057615,-1.1167733669281006,-0.0,-0.0,-1.0,0.2056633629782323,2.0
32.432674407958984,11.815832138061523,-1.3335232734680176,0.7370486188282614,-0.116414120737812,-0.6657380010005399,0.0743347104439321,4.0
31.811935424804688,12.938097953796388,-1.1573424339294434,-0.7068461226469268,0.2825152410212918,-0.6485011160280968,0.1672678645040936,4.0
31.856830596923828,12.69921875,-1.1722519397735596,-0.0,-0.0,-1.0,0.1307512407604173,1.0
32.56089782714844,11.988983154296877,-1.3619892597198486,-0.0,-0.0,-1.0,0.0611453565940591,1.0
32.63125991821289,11.992881774902344,-1.3794968128204346,-0.0,-0.0,-1.0,0.073845565041793,1.0
31.91265869140625,13.035627365112305,-1.1817028522491455,-0.0,-0.0,-1.0,0.2538514290447754,2.0
32.83518981933594,12.324089050292969,-1.4251573085784912,-0.0,-0.0,-1.0,0.0705580248805981,2.0
32.704132080078125,13.3017578125,-1.381817102432251,-0.0,-0.0,-1.0,0.2151923750972855,1.0
32.85538101196289,13.01931381225586,-1.4223227500915527,0.5840064953601944,0.65031539321059,-0.4858253829622934,0.1360816699342814,3.0
32.97574996948242,12.81457233428955,-1.4548277854919434,-0.0,-0.0,-1.0,0.1169342367251666,1.0
32.529563903808594,13.58502960205078,-1.335911750793457,-0.0,-0.0,-1.0,0.1485184243710309,1.0
33.0965576171875,13.165721893310549,-1.4833095073699951,0.7729494445011661,0.3919703995778221,-0.4989071678179633,0.0969944682388212,4.0
33.38792037963867,13.503498077392578,-1.5574910640716553,-0.0,-0.0,-1.0,0.0389091549659732,2.0
32.59957504272461,12.170330047607422,-0.7986829280853271,0.3348343881046876,-0.9422762731291154,-0.0011651782970788,0.2155123164381961,3.0
32.93373489379883,12.148748397827148,-0.8714962005615234,-0.0,-0.0,-1.0,0.1707356700515148,1.0
33.35805130004883,11.987601280212402,-0.9645578861236572,-0.0,-0.0,-1.0,0.2403826019916044,2.0
33.578216552734375,12.24848747253418,-1.012232780456543,-0.0,-0.0,-1.0,0.1959101477888282,1.0
32.02349853515625,12.303106307983398,-1.419966459274292,-0.0,-0.0,-1.0,0.1183138544437773,1.0
32.11414337158203,12.102054595947266,-1.4535589218139648,-0.0,-0.0,-1.0,0.0603155001399829,2.0
32.16831588745117,12.527425765991213,-1.4509196281433103,-0.8412358086333648,-0.5123458446688021,-0.1726964091218476,0.1491091669551667,3.0
32.318504333496094,12.530431747436523,-1.492234468460083,-0.0,-0.0,-1.0,0.0820573935400606,1.0
32.421714782714844,12.887958526611328,-1.5086796283721924,0.0359454713608751,0.1163780558897598,-0.9925543164965652,0.1386323824279711,4.0
32.329811096191406,13.351244926452637,-1.4697284698486328,0.4782244534095164,-0.2200953071830594,-0.8502114018978835,0.1784072478499829,8.0
32.46403121948242,13.248824119567873,-1.5101943016052246,-0.0,-0.0,-1.0,0.1987349170252051,1.0
32.780418395996094,13.58754062652588,-1.5914936065673828,-0.0,-0.0,-1.0,0.0269510705860029,1.0
32.67018508911133,12.204874038696287,-1.0592594146728516,-0.0,-0.0,-1.0,0.1752607105197525,1.0
33.163143157958984,11.91847801208496,-1.1854560375213623,-0.0,-0.0,-1.0,0.1658059353134105,1.0
32.7229118347168,12.487669944763184,-1.06463360786438,0.5655389323896061,-0.3341655208195639,-0.7539888067120187,0.1614455980938974,3.0
33.28666687011719,11.986242294311523,-1.2133214473724363,0.4675243898436126,0.0428533437018464,-0.8829408450371573,0.1952741375359089,6.0
33.060855865478516,13.045517921447754,-1.1361000537872314,-0.0,-0.0,-1.0,0.1096728454189438,1.0
33.28865051269531,13.189838409423828,-1.1899631023406982,-0.0,-0.0,-1.0,0.2027164253495578,1.0
31.903779983520508,11.930097579956056,-0.8840329647064209,-0.0,-0.0,-1.0,0.1693529191650866,1.0
33.51194381713867,12.131059646606444,-0.7000765800476074,-0.5432559162472002,0.5610468885851516,-0.6245793770781551,0.2085181735573949,4.0
33.520790100097656,12.011473655700684,-0.7033843994140625,-0.0,-0.0,-1.0,0.2013321039255304,2.0
32.744361877441406,11.788747787475586,-1.320178508758545,-0.0,-0.0,-1.0,0.078488034837146,1.0
31.827167510986328,12.579809188842772,-1.534492254257202,-0.0,-0.0,-1.0,0.1213276839773045,1.0
32.893611907958984,12.02415657043457,-1.3606534004211426,-0.0,-0.0,-1.0,0.0700292047064747,1.0
31.892314910888672,12.98020362854004,-1.5507779121398926,-0.0,-0.0,-1.0,0.2261784386011363,1.0
33.03692626953125,12.247556686401367,-1.4005424976348877,-0.8860843944883662,-0.393192340445467,-0.2454673690314082,0.1318244622183145,3.0
32.00737762451172,13.385862350463867,-1.586759090423584,-0.0,-0.0,-1.0,0.0359875231456052,2.0
32.0235710144043,13.338411331176758,-1.5922489166259766,-0.0,-0.0,-1.0,0.0357556061320024,2.0
33.18077850341797,12.704696655273438,-1.4426369667053225,-0.0,-0.0,-1.0,0.0825267664103384,1.0
33.41030502319336,13.05214500427246,-1.512117862701416,-0.0,-0.0,-1.0,0.1318826053127598,1.0
33.351043701171875,13.378209114074709,-1.49932861328125,-0.0,-0.0,-1.0,0.0370924118485876,1.0
33.70576858520508,13.45925521850586,-1.60475754737854,-0.0,-0.0,-1.0,0.1376190106771876,1.0
31.7216739654541,12.847481727600098,-1.022110939025879,-0.0,-0.0,-1.0,0.1265369938858414,2.0
31.77904510498047,12.873613357543944,-1.0386004447937012,-0.0,-0.0,-1.0,0.1650446104428396,2.0
32.70341873168945,11.961657524108888,-1.3068764209747314,-0.0,-0.0,-1.0,0.0979007183678909,2.0
31.7562255859375,12.92820167541504,-1.0320663452148438,-0.3987657623856376,-0.6466870006656243,-0.6502167253455579,0.1591406133389235,4.0
33.42149353027344,12.100627899169922,-0.9767370223999025,-0.0,-0.0,-1.0,0.2439414675131223,2.0
32.6088752746582,13.14482593536377,-1.2798645496368408,-0.0,-0.0,-1.0,0.1713666407514128,1.0
33.695037841796875,12.545835494995115,-1.051225662231445,-0.0,-0.0,-1.0,0.1576603422862195,2.0
32.527957916259766,13.483299255371094,-1.2602458000183103,-0.5459113704983604,0.5857069869553864,-0.5991060849234007,0.1173380339565659,3.0
32.628753662109375,13.404025077819824,-1.288578748703003,-0.0,-0.0,-1.0,0.0854103211201566,1.0
32.691383361816406,12.139406204223633,-0.7940647602081299,-0.981482612610383,0.1910519838182141,0.0138210210412159,0.1625152726259462,4.0
33.26298522949219,12.025032043457031,-0.9363646507263184,-0.2097009988231779,0.7240966090128564,-0.6570461109455288,0.230711927962347,5.0
33.312400817871094,12.059684753417969,-0.9490125179290771,0.077618012225879,0.2686312308492239,-0.960110777978528,0.1573971303748342,6.0
33.66636657714844,12.940977096557615,-1.5018579959869385,-0.0,-0.0,-1.0,0.1071603979596595,1.0
32.29227828979492,12.052433013916016,-1.0980870723724363,-0.0,-0.0,-1.0,0.2078549406308336,1.0
32.957393646240234,11.85826015472412,-1.2972955703735352,-0.0,-0.0,-1.0,0.0618705261687904,1.0
33.098506927490234,11.91643524169922,-1.3376669883728027,-0.0,-0.0,-1.0,0.1247941440612505,1.0
33.077091217041016,12.1221923828125,-1.3282957077026367,-0.0,-0.0,-1.0,0.1617994593977056,2.0
33.22812271118164,12.197580337524414,-1.3722777366638184,-0.0,-0.0,-1.0,0.1397312094383189,1.0
33.21976852416992,12.411136627197266,-1.367823600769043,-0.2860187199603161,0.8401353140969904,0.4608317977737795,0.1835290092033927,3.0
33.41285705566406,12.564586639404297,-1.4249763488769531,-0.0,-0.0,-1.0,0.0849024099795345,1.0
33.32167434692383,13.09198760986328,-1.3983473777770996,-0.0,-0.0,-1.0,0.1863074992103932,1.0
33.53363037109375,12.884881019592283,-1.461512565612793,-0.0,-0.0,-1.0,0.0963658796142281,1.0
32.72700119018555,13.497026443481444,-1.2214558124542236,-0.0,-0.0,-1.0,0.1370471811171852,1.0
33.63372802734375,13.291865348815918,-1.494950771331787,-0.0,-0.0,-1.0,0.1693378330144663,1.0
32.62477111816406,12.097877502441406,-0.7195303440093994,-0.6611156244419532,-0.0488797580588829,-0.7486901230621594,0.2018480715206589,7.0
33.32767868041992,11.942112922668455,-0.9025833606719972,0.0335531864850716,0.9991612150941974,-0.0234744526706175,0.1527578232373894,6.0
31.928375244140625,12.735111236572266,-0.9804165363311768,-0.0,-0.0,-1.0,0.1553590675786333,1.0
33.43274688720703,12.085943222045898,-0.929863691329956,-0.0,-0.0,-1.0,0.233477540356079,2.0
33.61045837402344,12.489370346069336,-0.9780406951904296,-0.0,-0.0,-1.0,0.2480274411644132,2.0
33.32327651977539,11.948081970214844,-0.9363679885864258,0.8365096961343763,-0.5104666240072804,-0.1991867316057552,0.1453854671560132,3.0
33.421897888183594,12.012534141540527,-0.9621920585632324,-0.0,-0.0,-1.0,0.1870160441604245,2.0
33.66230773925781,12.372236251831056,-1.0218665599822998,0.0672466407324213,0.5127351334652381,-0.8559092079307185,0.1362176658651615,3.0
32.69104766845703,12.055639266967772,-0.7579760551452637,-0.9643567892128604,-0.2243301729989082,0.140328032058255,0.158848346814293,5.0
33.171939849853516,11.878416061401367,-0.7643098831176758,-0.0,-0.0,-1.0,0.1910908266727042,1.0
33.36168670654297,11.965980529785156,-0.8125507831573486,-0.8963912244370555,-0.1741223433366089,-0.407632410761466,0.2314093820936332,13.0
33.432552337646484,12.006158828735352,-0.830312967300415,0.3654700949775969,-0.2527234753963359,-0.8958585014725621,0.1795325814875403,4.0
33.69965362548828,12.559202194213867,-0.8818187713623047,-0.0,-0.0,-1.0,0.2006011842101502,2.0
33.18135452270508,13.398371696472168,-1.5182887315750122,-0.0,-0.0,-1.0,0.0310850433156428,2.0
33.652740478515625,13.141721725463867,-1.4325121641159058,-0.0,-0.0,-1.0,0.1585600477544644,1.0
32.6187858581543,12.042886734008787,-0.9507027864456176,-0.0,-0.0,-1.0,0.1902379913888817,1.0
33.384429931640625,11.949064254760742,-0.8487545251846313,-0.5904991249236518,0.2753572508874239,-0.7586100235615939,0.2463676943464894,8.0
33.1587028503418,13.352439880371094,-1.5299080610275269,-0.0,-0.0,-1.0,0.0285710290288993,2.0
32.0869140625,12.04576587677002,-1.0167933702468872,-0.0,-0.0,-1.0,0.1557569789124245,1.0
31.754796981811523,13.194348335266112,-1.0789200067520142,-0.0,-0.0,-1.0,0.1282604113379051,1.0
32.843406677246094,12.060243606567385,-0.9209593534469604,-0.0,-0.0,-1.0,0.1948369157654723,1.0
33.40245819091797,11.896078109741213,-0.8483363389968872,0.4922559085036249,0.6599345352438494,-0.5676006780613949,0.2261753168715842,5.0
33.46278381347656,11.943586349487305,-0.8411422967910767,0.1662165102591123,0.9318032358823972,0.3226682527246462,0.1971811737987613,3.0
33.29835510253906,11.814790725708008,-1.1982537508010864,-0.0,-0.0,-1.0,0.1314281072518583,1.0
33.0694580078125,13.40366554260254,-1.528869867324829,0.1246122948265154,-0.4174789176155651,-0.9001017327639169,0.0348995160299166,4.0
31.866064071655273,12.842845916748049,-1.022728443145752,-0.1411995077827233,-0.3829872856910414,-0.9128983722194524,0.204955621220771,3.0
33.01821517944336,12.129725456237791,-0.8716022968292236,-0.0,-0.0,-1.0,0.0942656576174812,2.0
33.46245193481445,11.998927116394045,-0.8157908916473389,0.228263711430039,0.9734867860096272,0.0148039018110191,0.2008804575165572,3.0
33.52216339111328,11.89815616607666,-0.8074262142181396,-0.0,-0.0,-1.0,0.1334472413345384,2.0
32.880043029785156,13.503253936767578,-1.560027837753296,-0.0,-0.0,-1.0,0.0403119597430352,2.0
31.809995651245117,12.79708480834961,-1.0301434993743896,-0.0,-0.0,-1.0,0.1889229742933889,1.0
32.50507354736328,11.654092788696287,-0.9265968799591064,-0.0,-0.0,-1.0,0.1219934251661437,1.0
33.055030822753906,12.140607833862305,-0.8653194904327393,-0.0,-0.0,-1.0,0.0893647495492248,2.0
33.54290008544922,12.048725128173828,-0.803807258605957,-0.7099923376400143,0.6974902088179532,-0.0970478701237476,0.2647821844911111,5.0
33.48377227783203,11.928858757019045,-0.8094236850738525,0.2781535106110462,0.7753268618185277,0.5670087141106249,0.1536919403828033,4.0
33.32825469970703,12.048345565795898,-1.268695831298828,-0.0,-0.0,-1.0,0.2416610792879382,1.0
32.746665954589844,12.09142780303955,-0.7141246795654297,-0.0,-0.0,-1.0,0.1928829176031115,1.0
32.59075927734375,12.149789810180664,-0.7440623044967651,-0.8620861791557001,-0.3730594000109287,-0.3429782846948358,0.1897009832966122,5.0
32.69593811035156,12.08426284790039,-0.7319768667221069,-0.8747281508074735,-0.0861837789582504,0.476888895267455,0.1240503099386774,5.0
33.52897644042969,12.02298641204834,-0.7660254240036011,0.8798828526527059,0.2489709349971972,0.4047463886612918,0.2638972835376418,4.0
33.441856384277344,11.89153003692627,-0.7751361131668091,-0.1267233079598451,0.9675215760355332,0.218730892023584,0.1656668693800561,4.0
32.44305419921875,11.686971664428713,-0.8994239568710327,0.6043416174084024,-0.7961265863388224,0.0308815153884942,0.1461668602964881,3.0
32.44431686401367,11.68649196624756,-0.9365005493164062,0.5219773875088836,-0.6711640258009559,-0.5263824250486089,0.1661890221288887,4.0
33.50819396972656,12.097668647766112,-0.8002660274505615,-0.0,-0.0,-1.0,0.18414477708807,1.0
33.42702102661133,12.06432056427002,-0.810591459274292,-0.1443857294314961,0.9060956300783316,-0.3976725666795311,0.2192119614629788,8.0
31.976551055908203,12.523256301879885,-1.3318291902542114,-0.0,-0.0,-1.0,0.204842388313091,1.0
31.88113021850586,12.246734619140623,-1.4389472007751465,-0.0,-0.0,-1.0,0.1255824703214184,2.0
33.537696838378906,12.32697296142578,-1.1350882053375244,-0.0,-0.0,-1.0,0.1344985210173813,2.0
33.321224212646484,12.009222984313965,-1.1982624530792236,0.4571298159269183,0.0795793757519099,-0.8858326333713146,0.2225261070155367,5.0
33.00639343261719,11.871675491333008,-1.2660791873931885,-0.0,-0.0,-1.0,0.0895390577884147,1.0
32.43619918823242,11.900643348693848,-0.8131601810455322,-0.0,-0.0,-1.0,0.092039617962393,1.0
31.889404296875,12.092304229736328,-1.3804471492767334,-0.0,-0.0,-1.0,0.1869116691071923,2.0
33.36079025268555,12.000669479370115,-1.1326279640197754,-0.0,-0.0,-1.0,0.2087028049898404,1.0
32.576438903808594,11.773940086364746,-0.7335405349731445,-0.0,-0.0,-1.0,0.0590020463252531,1.0
33.586631774902344,12.136604309082031,-1.353348731994629,-0.0,-0.0,-1.0,0.1396058507816151,2.0
33.6915397644043,12.55295181274414,-0.8363406658172607,-0.0,-0.0,-1.0,0.1965542328286259,2.0
33.44828796386719,12.119668006896973,-0.8720386028289795,-0.0,-0.0,-1.0,0.2136792988466292,2.0
33.2221794128418,12.174715995788574,-0.9071879386901855,-0.0,-0.0,-1.0,0.237097503957402,2.0
32.776302337646484,12.445146560668944,-0.9772846698760986,-0.0,-0.0,-1.0,0.201183324969434,2.0
33.235958099365234,12.078436851501465,-1.2240533828735352,-0.5870605804200868,-0.5367194699904412,-0.6060462733570854,0.2423605662692673,4.0
33.17802810668945,11.903629302978516,-1.2384111881256104,0.5619896592410352,-0.8080816804336743,0.1765548658452502,0.1931764796702305,3.0
32.147708892822266,12.40076732635498,-1.4245667457580566,-0.0,-0.0,-1.0,0.1682948665414791,2.0
33.4370002746582,12.017601013183594,-0.7126681804656982,0.8727275146350806,0.3148815350898891,-0.3730902090089068,0.1874579372465435,3.0
33.27598571777344,11.871307373046877,-0.740088701248169,0.7519034530983089,-0.3504357112894306,-0.5584227873859642,0.2206362960952836,3.0
33.61763000488281,12.615751266479492,-1.4165085554122925,-0.0,-0.0,-1.0,0.0741927919761164,1.0
33.19807434082031,13.245200157165527,-1.0249499082565308,-0.0,-0.0,-1.0,0.126156574284017,2.0
31.846948623657227,13.04527187347412,-1.2871848344802856,-0.0,-0.0,-1.0,0.2392299105868207,1.0
33.30685043334961,12.122929573059082,-1.0588704347610474,-0.454459049120357,0.8888123540654311,-0.0589878964982471,0.1558499279249888,3.0
33.115848541259766,12.02745246887207,-1.1004084348678589,-0.0,-0.0,-1.0,0.1174383892269573,1.0
32.70598602294922,12.414384841918944,-1.1555572748184204,-0.0,-0.0,-1.0,0.1808549216897411,1.0
32.414093017578125,12.316707611083984,-1.215774655342102,-0.0,-0.0,-1.0,0.2101146023566107,1.0
31.910978317260746,12.447969436645508,-1.3034449815750122,-0.8200916997650612,-0.4589328180098708,-0.3418044360887837,0.1923596895625147,4.0
32.61692428588867,12.073156356811523,-0.7175432443618774,-0.1529714095552543,0.2243613854491441,-0.9624249147741444,0.1991969446084951,8.0
32.2473258972168,13.563506126403809,-1.5667393207550049,-0.0,-0.0,-1.0,0.1694160342030567,1.0
32.39476013183594,13.243383407592772,-1.5392208099365234,-0.0,-0.0,-1.0,0.1973435461234211,2.0
31.758281707763672,12.886290550231934,-1.2211675643920898,-0.0,-0.0,-1.0,0.0865833896560868,2.0
33.45740509033203,11.991764068603516,-1.3359851837158203,-0.0,-0.0,-1.0,0.0959537755843819,1.0
32.728328704833984,13.268017768859863,-1.023651123046875,-0.0,-0.0,-1.0,0.1525577918262698,1.0
33.421241760253906,12.335420608520508,-0.9166696071624756,-0.0,-0.0,-1.0,0.1042202852636702,1.0
33.32993698120117,12.019514083862305,-0.9462504386901855,-0.0510659337280658,0.1703088300660641,-0.9840666505953796,0.2215719981730017,4.0
33.176368713378906,11.916044235229492,-0.9800474643707277,-0.0,-0.0,-1.0,0.1836230328544348,1.0
32.38286590576172,12.282974243164062,-1.1193678379058838,-0.0,-0.0,-1.0,0.0930111027346336,1.0
32.40214920043945,11.72212028503418,-1.1376183032989502,-0.0,-0.0,-1.0,0.1510979301640246,1.0
32.55262756347656,12.072264671325684,-0.6544718742370605,-0.1566659739404451,0.0135096758666617,-0.9875592444341096,0.1936537577632266,3.0
33.27806854248047,13.41448211669922,-1.471030354499817,-0.0,-0.0,-1.0,0.0294999462796284,2.0
33.249473571777344,13.205395698547363,-1.485571265220642,-0.0,-0.0,-1.0,0.0572817112196368,2.0
33.52873992919922,13.373255729675291,-1.4049915075302124,-0.0,-0.0,-1.0,0.1059418936599558,1.0
33.3411865234375,12.20758819580078,-1.12289297580719,-0.0,-0.0,-1.0,0.108871910996052,1.0
32.7783088684082,12.424568176269531,-1.2417446374893188,-0.0,-0.0,-1.0,0.1362086481919227,1.0
33.16645050048828,11.981301307678224,-1.1756917238235474,-0.0,-0.0,-1.0,0.2437036308681954,1.0
32.7020263671875,12.06682014465332,-1.277811884880066,-0.0,-0.0,-1.0,0.1276409565305022,2.0
31.96310806274414,12.285269737243652,-1.4368425607681274,-0.0,-0.0,-1.0,0.1354098724083627,1.0
31.976491928100582,12.077747344970703,-1.4444621801376345,-0.0,-0.0,-1.0,0.0572978192785096,2.0
33.477760314941406,12.24190616607666,-0.9012342691421508,-0.0,-0.0,-1.0,0.2520214530072792,2.0
32.46686553955078,12.551727294921877,-0.8990947008132935,-0.0,-0.0,-1.0,0.1485507969772896,1.0
33.36857604980469,12.001359939575195,-0.750240683555603,0.3919300937515863,0.8848947162137587,-0.2516985157462089,0.1716962334978117,4.0
33.260528564453125,11.896568298339844,-0.7767537832260132,-0.0,-0.0,-1.0,0.2417603473597482,2.0
32.705345153808594,12.158848762512209,-0.8709241151809692,-0.0,-0.0,-1.0,0.1487058815291609,2.0
32.14870071411133,12.209548950195312,-0.9766131639480592,-0.0,-0.0,-1.0,0.1778076714966503,1.0
32.32191848754883,11.679361343383787,-0.9703813791275024,-0.0,-0.0,-1.0,0.1031435413979466,1.0
33.43348693847656,13.359335899353027,-1.4662693738937378,-0.0,-0.0,-1.0,0.050964699236393,1.0
33.1021728515625,13.556010246276855,-1.5646790266036987,-0.0,-0.0,-1.0,0.0509650138173935,2.0
33.54425811767578,13.2655029296875,-1.43419086933136,-0.0,-0.0,-1.0,0.1590948396087693,1.0
33.27912139892578,13.147745132446287,-1.5178157091140747,-0.0,-0.0,-1.0,0.0518109371526812,2.0
32.06465530395508,13.12433624267578,-1.4943464994430542,-0.4066928664222213,-0.294311875168455,-0.8648591980988033,0.053374932758636,4.0
31.94091796875,13.157987594604492,-1.5269957780838013,-0.0,-0.0,-1.0,0.0487738502565399,1.0
32.13361740112305,12.723963737487791,-1.4864131212234497,-0.0,-0.0,-1.0,0.1111331531566227,2.0
31.859619140625,12.894657135009766,-1.554775357246399,-0.0,-0.0,-1.0,0.2022000613722624,1.0
32.20681381225586,12.215872764587402,-1.485315442085266,-0.0,-0.0,-1.0,0.0473228956348573,2.0
32.165000915527344,12.360315322875977,-1.4906235933303833,-0.0,-0.0,-1.0,0.0639118341502235,2.0
33.327362060546875,13.066610336303713,-1.1577109098434448,-0.0,-0.0,-1.0,0.1761096262261086,1.0
33.25519943237305,13.128043174743652,-1.1755772829055786,-0.0,-0.0,-1.0,0.1699570217006864,1.0
32.53083801269531,13.349483489990234,-1.3651736974716189,-0.0,-0.0,-1.0,0.198584031364555,1.0
32.283294677734375,13.543770790100098,-1.4287184476852417,-0.0,-0.0,-1.0,0.1152939354841671,2.0
31.77122688293457,13.211265563964844,-1.17292582988739,-0.0,-0.0,-1.0,0.1529862795579021,2.0
33.55135726928711,12.358986854553224,-1.1214462518692017,-0.0,-0.0,-1.0,0.1681464961445879,2.0
33.359291076660156,12.239295959472656,-1.1777266263961792,-0.0,-0.0,-1.0,0.1466820325622884,1.0
32.99164962768555,12.273632049560549,-1.2739967107772827,-0.0,-0.0,-1.0,0.118830265092171,1.0
31.760404586791992,12.69684600830078,-1.1873692274093628,-0.0,-0.0,-1.0,0.1000508762854965,2.0
33.20885467529297,11.926264762878418,-1.2329336404800415,-0.0,-0.0,-1.0,0.2681272178117935,2.0
32.854679107666016,12.017372131347656,-1.3221474885940552,-0.0,-0.0,-1.0,0.0798948661626368,1.0
32.40940856933594,12.18907070159912,-1.432721734046936,-0.0,-0.0,-1.0,0.1024974168443687,2.0
32.044677734375,12.118071556091309,-1.141196608543396,-0.0,-0.0,-1.0,0.1939283327689654,1.0
31.84934425354004,12.550263404846191,-1.1710304021835327,-0.0,-0.0,-1.0,0.1600989151177192,2.0
32.30889892578125,11.65862274169922,-1.1007527112960815,0.5508414742759281,-0.8274382545537102,-0.1091769440799253,0.0508958166680746,3.0
33.312286376953125,12.150111198425291,-0.849610447883606,-0.5184417210547979,0.854411742306418,-0.0346230628144035,0.2914465626365917,3.0
32.776893615722656,12.388358116149902,-0.9631966352462769,-0.0,-0.0,-1.0,0.203572542003295,2.0
32.58403015136719,12.559072494506836,-1.001781344413757,-0.0,-0.0,-1.0,0.2548052599494533,1.0
33.39506149291992,11.980377197265623,-0.8381024599075317,-0.2232152196225237,0.4500496144188245,-0.8646561803921463,0.1534634781811841,8.0
33.316158294677734,12.050445556640623,-0.8530188798904419,-0.6232050175414733,-0.0060034179413375,-0.7820354628046952,0.1880044334470922,4.0
32.634796142578125,12.090167045593262,-0.823769211769104,-0.6489675842525575,-0.3302179284142791,0.6854175328536481,0.1672637029348093,3.0
32.56257629394531,12.1682767868042,-0.8367468118667603,-0.8193597305319864,0.5381488308318958,-0.1975992607699081,0.1988419818300897,5.0
31.91500473022461,11.799982070922852,-0.7925964593887329,-0.0,-0.0,-1.0,0.1717837652423164,1.0
32.596092224121094,12.120712280273438,-0.6495808362960815,0.0896472528911967,0.3346683597261973,-0.9380620763293006,0.214565760960041,4.0
32.297576904296875,13.32148265838623,-1.4706135988235474,0.9343073577853388,0.2045555524651347,-0.2919362724018073,0.1041207141448181,6.0
32.17485046386719,13.450450897216797,-1.5048383474349976,0.7199421396712511,-0.5516815811121575,-0.4211065762810773,0.0807220489621242,3.0
32.19627380371094,12.78941822052002,-1.5201376676559448,-0.0,-0.0,-1.0,0.1205812236406972,2.0
32.0876579284668,12.981342315673828,-1.5456622838974,-0.0,-0.0,-1.0,0.0859419101723788,1.0
32.306495666503906,12.625277519226074,-1.4944175481796265,-0.0,-0.0,-1.0,0.0833640443302415,1.0
33.67366409301758,13.222872734069824,-1.056538224220276,-0.0,-0.0,-1.0,0.1362291721323305,1.0
33.30331039428711,13.114502906799316,-1.1728461980819702,-0.0,-0.0,-1.0,0.2027164253495579,1.0
32.87803649902344,13.054983139038086,-1.3038853406906128,-0.0,-0.0,-1.0,0.1813680737967506,1.0
31.78445053100586,12.974485397338867,-1.2726017236709597,-0.0,-0.0,-1.0,0.1747037884874965,1.0
33.31109619140625,12.12951374053955,-1.2215713262557983,-0.0,-0.0,-1.0,0.2102739142940075,2.0
32.930755615234375,12.188764572143556,-1.1672090291976929,-0.0,-0.0,-1.0,0.1609681037706946,1.0
32.61811065673828,12.383323669433594,-1.0769644975662231,-0.0,-0.0,-1.0,0.2324359258498457,1.0
31.92380714416504,12.524810791015623,-1.253175139427185,-0.0,-0.0,-1.0,0.1906327398406988,1.0
33.1773681640625,11.803890228271484,-1.2851954698562622,-0.0,-0.0,-1.0,0.11498776606448,1.0
32.763671875,12.106910705566406,-1.2192593812942505,-0.0,-0.0,-1.0,0.2467841236527906,1.0
33.3699836730957,12.135720252990724,-0.8935011625289917,0.4530649190095859,0.5348690188158132,-0.7131951429124056,0.2920395242370046,4.0
33.30147171020508,11.908252716064451,-0.9258674383163452,0.8365096961343763,-0.5104666240072804,-0.1991867316057552,0.1173253279883425,3.0
32.69740676879883,12.066048622131348,-0.7443822622299194,0.2583644435418887,0.6232121194180167,-0.7381425800777207,0.1588483468142929,4.0
32.55485916137695,12.105560302734377,-0.7744899988174438,-0.8155923359149585,-0.0115637872369834,-0.5785113831391043,0.1299191111937181,3.0
31.99594497680664,11.834214210510254,-0.9148987531661988,-0.0,-0.0,-1.0,0.1213401745664613,2.0
31.90005111694336,12.905329704284668,-1.0705348253250122,-0.0,-0.0,-1.0,0.1521895222531863,1.0
32.616371154785156,12.221668243408203,-0.928775668144226,-0.0,-0.0,-1.0,0.1440027490257802,2.0
31.76058578491211,12.703317642211914,-1.1221507787704468,0.66456853981821,0.5864883124369833,0.4630120033635316,0.1276674958027473,4.0
32.7591552734375,12.028372764587402,-0.9086016416549684,-0.0,-0.0,-1.0,0.2251051890441215,2.0
32.680782318115234,12.094155311584473,-0.9232600927352904,-0.0,-0.0,-1.0,0.2126084851484928,1.0
32.207054138183594,12.109724044799805,-1.0488735437393188,-0.0,-0.0,-1.0,0.1966582051309826,1.0
31.770273208618164,11.70779514312744,-0.8719617128372192,-0.0,-0.0,-1.0,0.1152242082823735,1.0
33.48912048339844,11.95457649230957,-0.7220410108566284,-0.0,-0.0,-1.0,0.1465632209577695,2.0
33.442283630371094,12.084762573242188,-0.7210179567337036,0.3916214094998959,-0.2950913731131193,-0.8715238109974562,0.2276751896974075,6.0
33.41315460205078,11.893360137939451,-0.748672604560852,-0.0,-0.0,-1.0,0.1435805620461251,2.0
32.62906265258789,12.018938064575195,-0.6463642120361328,-0.4643075702551179,-0.7616678881322558,-0.4519740129608543,0.2391270381146381,3.0
32.3590087890625,11.647089004516602,-0.9601496458053588,-0.1798629954746431,-0.9419596855605928,0.2834806053991656,0.0985948889660644,4.0
31.750442504882812,11.871845245361328,-1.0987693071365356,-0.0,-0.0,-1.0,0.1542130899965805,1.0
32.65085220336914,12.052850723266602,-0.8265451192855835,-0.6489675842525575,-0.3302179284142791,0.6854175328536481,0.1618360790332327,3.0
31.925323486328125,11.84559726715088,-0.7582541704177856,-0.0,-0.0,-1.0,0.1601305805144514,1.0
31.886180877685547,11.84524917602539,-0.8361939191818237,-0.0,-0.0,-1.0,0.1613044021507411,1.0
32.59801483154297,12.101537704467772,-0.6494646072387695,-0.8849935788665965,-0.0859632551444567,0.4575988244410845,0.1986011742300401,3.0
32.494544982910156,11.769540786743164,-1.0032060146331787,-0.0,-0.0,-1.0,0.1521494278686718,1.0
31.75448226928711,11.677534103393556,-1.024001121520996,-0.0,-0.0,-1.0,0.1616342893538548,1.0
32.2474365234375,11.847940444946287,-0.7692477703094482,-0.0,-0.0,-1.0,0.0364905837432669,1.0
32.132205963134766,11.886503219604492,-0.7428359985351562,-0.0,-0.0,-1.0,0.0813530696904003,2.0
32.06471252441406,11.827022552490234,-0.8100268840789795,-0.2438195987159322,-0.7031328372489337,-0.6679492618936459,0.2083508225358972,3.0
32.24824142456055,11.68845558166504,-0.8600888252258301,-0.0,-0.0,-1.0,0.0786189954777177,2.0
32.79815673828125,12.823596000671388,-1.4749001264572144,-0.0,-0.0,-1.0,0.0199400334297493,1.0
32.50497055053711,12.550546646118164,-1.4260393381118774,-0.0,-0.0,-1.0,0.0414240095293617,2.0
32.274444580078125,12.55004596710205,-1.369825005531311,-0.0,-0.0,-1.0,0.0982277918315664,2.0
32.75416946411133,12.601808547973633,-1.4824720621109009,-0.0,-0.0,-1.0,0.087796447429993,2.0
32.41930389404297,12.181878089904783,-1.4386743307113647,-0.0,-0.0,-1.0,0.1024974168443687,2.0
31.888378143310547,12.953679084777832,-1.2407695055007937,-0.0,-0.0,-1.0,0.1554626833889552,1.0
31.833282470703125,12.611069679260254,-1.2569509744644165,-0.0,-0.0,-1.0,0.1505181119974066,1.0
32.003150939941406,12.468430519104004,-1.3112086057662964,-0.0,-0.0,-1.0,0.1804088615491161,2.0
31.86280059814453,12.531166076660156,-1.2713652849197388,-0.0,-0.0,-1.0,0.1504882819000871,2.0
33.28278732299805,12.051467895507812,-1.2429362535476685,-0.7517303150520201,-0.4088297821886439,-0.5174550633894467,0.2172419726643533,3.0
33.38023376464844,11.968307495117188,-1.2698174715042114,-0.0,-0.0,-1.0,0.2077098264027305,1.0
33.40328598022461,12.066271781921388,-0.8519629240036011,0.4310237030140417,0.8431789185807809,-0.3213531993010308,0.2314381720089947,6.0
33.51487731933594,12.115291595458984,-0.8679615259170532,-0.0,-0.0,-1.0,0.1698885830545042,2.0
32.60451889038086,12.671730041503906,-1.0202229022979736,-0.0,-0.0,-1.0,0.2160833573227071,1.0
32.71237564086914,12.631810188293455,-1.0407135486602783,-0.0,-0.0,-1.0,0.1367399052295783,1.0
33.553314208984375,12.570962905883787,-1.1941511631011963,-0.0,-0.0,-1.0,0.1231725589000972,1.0
32.63188171386719,12.08302879333496,-1.3499566316604614,-0.0,-0.0,-1.0,0.0550353496798101,2.0
31.963754653930664,11.933608055114746,-0.7651692628860474,-0.0,-0.0,-1.0,0.2750718952952838,1.0
32.66541290283203,12.708276748657228,-0.9311412572860718,-0.0,-0.0,-1.0,0.1184895962643593,1.0
32.74701690673828,12.600616455078123,-0.9365564584732056,-0.0,-0.0,-1.0,0.1315437934319539,1.0
32.667945861816406,12.203694343566896,-0.8962167501449585,-0.0,-0.0,-1.0,0.2071028650106527,2.0
32.30171585083008,11.80020523071289,-0.8101488351821899,-0.8546265407107416,-0.4246400814833324,0.2988214803367053,0.0576204777492597,3.0
33.191349029541016,12.14048194885254,-0.9755140542984008,-0.0,-0.0,-1.0,0.1648049591973438,1.0
33.60025405883789,12.590534210205078,-1.0720950365066528,-0.0,-0.0,-1.0,0.1629292800242388,2.0
33.45124435424805,12.3787202835083,-1.0334926843643188,-0.0,-0.0,-1.0,0.1902087756601511,2.0
33.220252990722656,12.006043434143066,-0.9709447622299194,0.0288799111902788,0.9390865963141484,0.3424650571266351,0.2131931751466628,3.0
33.16823959350586,11.715618133544922,-0.943018078804016,-0.0,-0.0,-1.0,0.1506526532869271,1.0
32.769866943359375,12.422601699829102,-1.4476279020309448,-0.0,-0.0,-1.0,0.1552479554780285,2.0
32.857749938964844,12.93016242980957,-1.4962583780288696,-0.0,-0.0,-1.0,0.0391049767832514,2.0
32.89750671386719,12.528607368469238,-1.4800699949264526,-0.0,-0.0,-1.0,0.0688466719431945,1.0
32.86402130126953,13.198657989501951,-1.5146311521530151,-0.0,-0.0,-1.0,0.0593417818836388,2.0
32.94042205810547,13.071971893310549,-1.5221422910690308,-0.0,-0.0,-1.0,0.0627343449406908,1.0
31.835554122924805,12.051179885864258,-1.234233260154724,-0.0,-0.0,-1.0,0.2160367855258781,1.0
31.86861801147461,13.122596740722656,-1.3058162927627563,-0.0,-0.0,-1.0,0.1411077561723988,1.0
31.895809173583984,12.975122451782228,-1.3017934560775757,-0.0624843606664822,0.0016618092620843,-0.9980445596575724,0.2172693760163641,3.0
32.35615921020508,12.005155563354492,-1.3390148878097534,-0.0,-0.0,-1.0,0.1220878873152092,1.0
32.25225830078125,13.143329620361328,-1.3857258558273315,-0.0,-0.0,-1.0,0.2265539181183681,2.0
32.34990692138672,13.387218475341797,-1.4219321012496948,-0.1893547279567999,-0.4140250559433838,-0.8903527615790743,0.2079020146716889,6.0
32.45802688598633,13.271283149719238,-1.4362703561782837,-0.0,-0.0,-1.0,0.1944046841554726,2.0
33.584686279296875,12.303775787353516,-1.1123825311660769,-0.0,-0.0,-1.0,0.2046251312000692,1.0
32.1093635559082,11.8264799118042,-0.8370708227157593,-0.0,-0.0,-1.0,0.1537207900417915,2.0
32.659080505371094,12.628504753112791,-0.9726823568344116,-0.0,-0.0,-1.0,0.1938072864595291,1.0
32.7178955078125,12.38981819152832,-0.9697598218917848,-0.0,-0.0,-1.0,0.2040370332560971,2.0
