x,y,z,nx,ny,nz,curvature,density
31.038976669311523,-12.486722946166992,-0.029606819152832,-0.0773653284193945,0.8558789058905195,-0.5113569246721967,0.0706008151068865,3.0
32.52983856201172,-12.436155319213867,-0.0808677673339843,-0.0,-0.0,-1.0,0.020870971303022,2.0
31.091312408447266,-12.359869003295898,-0.0247867107391357,-0.0,-0.0,-1.0,0.0577178938974847,1.0
31.152894973754883,-12.275680541992188,-0.0224899053573608,-0.0,-0.0,-1.0,0.0435500603377956,1.0
32.34428405761719,-14.241089820861816,-0.0440253019332885,-0.0,-0.0,-1.0,0.086564451411769,1.0
30.874046325683594,-13.103732109069824,-0.1186531782150268,-0.0,-0.0,-1.0,0.0471758594345807,2.0
31.020612716674805,-12.99471950531006,-0.0931888818740844,-0.0,-0.0,-1.0,0.0488403635709089,2.0
31.22817611694336,-12.96140193939209,-0.0669883489608764,-0.0,-0.0,-1.0,0.1034169476019533,2.0
31.518421173095703,-12.90548610687256,-0.0300039052963256,-0.1807174805186309,-0.9033331842205254,-0.3890120184788699,0.0673052963331615,3.0
30.605432510375977,-12.656620979309082,-0.1143039464950561,-0.0,-0.0,-1.0,0.0354161492118217,2.0
30.826425552368164,-12.807940483093262,-0.1007055044174194,-0.0,-0.0,-1.0,0.0604902377167477,1.0
30.296728134155273,-12.43321704864502,-0.13276207447052,-0.0,-0.0,-1.0,0.049948972797019,1.0
30.406597137451172,-12.38737964630127,-0.1161509752273559,-0.0,-0.0,-1.0,0.0491500275987473,1.0
30.784154891967773,-14.236002922058104,0.0033222436904907,-0.0,-0.0,-1.0,0.0228846365098498,2.0
30.907804489135746,-14.201815605163574,0.0004869699478149,-0.0,-0.0,-1.0,0.0719368850338643,1.0
32.431331634521484,-13.93661403656006,-0.0467145442962646,-0.0,-0.0,-1.0,0.0272452219603608,2.0
32.58641815185547,-13.863572120666504,-0.0497968196868896,-0.0,-0.0,-1.0,0.0588309381665404,2.0
31.03529357910156,-13.213549613952637,0.0440274477005004,0.1298609843406527,-0.2856164085007906,-0.9495048140695164,0.2423626626934751,8.0
31.18070411682129,-13.03136157989502,0.047444462776184,-0.3886986479903248,-0.813082290642372,0.4333711454333881,0.0884500854822585,4.0
31.496023178100582,-12.975987434387209,0.0379630327224731,0.4392059905082884,-0.2233457616583695,-0.8701808827197225,0.1897088861492616,3.0
31.294021606445312,-12.958388328552246,0.0466644763946533,0.3964240424547943,-0.0416437076533631,-0.9171225546112586,0.0818511638356534,4.0
31.411479949951172,-12.932608604431152,0.0433770418167114,-0.0,-0.0,-1.0,0.0654855863814844,2.0
30.219715118408203,-13.033039093017578,-0.0508605241775512,-0.0,-0.0,-1.0,0.0472518272941302,2.0
30.76866912841797,-13.108463287353516,-0.0566376447677612,-0.0,-0.0,-1.0,0.0332519861525679,1.0
32.039573669433594,-13.210983276367188,-0.0702162981033325,-0.0,-0.0,-1.0,0.028226283036015,2.0
32.43880844116211,-13.233644485473633,-0.0751988887786865,-0.0,-0.0,-1.0,0.0292692884428857,2.0
32.282466888427734,-13.192903518676758,-0.0712789297103881,-0.0,-0.0,-1.0,0.060748296776448,1.0
32.6810417175293,-13.212636947631836,-0.076446533203125,-0.5707407016241475,-0.5603167244634274,0.6002501310255182,0.0930110671565733,4.0
30.45933532714844,-12.799423217773438,-0.0377020835876464,-0.0,-0.0,-1.0,0.0847126038667889,1.0
30.822357177734375,-12.789125442504885,-0.0381547212600708,-0.0,-0.0,-1.0,0.0608833574838425,1.0
31.157012939453125,-12.691965103149414,-0.0338155031204223,-0.0,-0.0,-1.0,0.0222857607347573,1.0
32.183685302734375,-12.632341384887695,-0.0371454954147338,-0.1147535656154871,-0.9876568833252716,-0.1066090990429205,0.2058689792917767,3.0
32.259620666503906,-12.654558181762695,-0.0391304492950439,0.531500293694934,-0.8469502145785052,-0.0135193131342813,0.1901961279418063,5.0
30.582378387451172,-14.170923233032228,-0.0058174133300781,-0.0,-0.0,-1.0,0.0327078841367112,1.0
30.766630172729492,-14.14837646484375,-0.0033708810806274,-0.0,-0.0,-1.0,0.0357532165985349,1.0
32.14334487915039,-14.31574249267578,-0.0052850246429443,-0.0,-0.0,-1.0,0.0682597850876331,1.0
31.49335289001465,-13.76092529296875,0.0216286182403564,-0.0,-0.0,-1.0,0.0582134060932341,2.0
31.63446044921875,-13.895700454711914,0.0151172876358032,-0.0,-0.0,-1.0,0.1031123073383089,2.0
31.94149398803711,-14.185033798217772,0.000955581665039,-0.0692383567967056,-0.9581793192094414,0.2776660623616492,0.0307096652962918,4.0
32.400238037109375,-14.19496726989746,0.0020848512649536,-0.0,-0.0,-1.0,0.071595510519993,1.0
30.638980865478516,-12.96986198425293,0.0583465099334716,-0.0,-0.0,-1.0,0.0818466233905921,2.0
31.247276306152344,-13.019865036010742,0.0598373413085937,-0.3890571181164667,-0.3040357021884735,-0.8695957972746139,0.0991799467948883,3.0
31.342613220214844,-12.964496612548828,0.0633703470230102,-0.0,-0.0,-1.0,0.1165395173569752,2.0
31.544097900390625,-12.978204727172852,0.0637949705123901,-0.0,-0.0,-1.0,0.2458840745228163,2.0
30.45494079589844,-14.039304733276367,-0.0472170114517211,-0.0,-0.0,-1.0,0.0532019860304372,2.0
30.65169906616211,-13.971956253051758,-0.0401887893676757,0.0218886152793171,-0.1527326657982731,-0.98802511168457,0.0274375822174387,4.0
30.817398071289062,-13.997867584228516,-0.0386625528335571,-0.0,-0.0,-1.0,0.0306435335708642,2.0
31.6030330657959,-13.877704620361328,-0.0193828344345092,-0.0,-0.0,-1.0,0.0868286802416594,2.0
31.96488571166992,-14.142122268676758,-0.0279433727264404,-0.0,-0.0,-1.0,0.0349466150395186,2.0
32.11248016357422,-14.222768783569336,-0.0300836563110351,-0.2572118745120434,-0.0020102220841363,-0.9663529430892076,0.0433198536959566,4.0
31.621049880981445,-13.807733535766602,-0.0154052972793579,-0.0,-0.0,-1.0,0.0806771803671431,1.0
31.830764770507812,-13.986467361450195,-0.0216560363769531,-0.0,-0.0,-1.0,0.0267611098133172,1.0
32.327186584472656,-14.131641387939451,-0.0221763849258422,0.2318291733926777,-0.4880363332636915,-0.8414723832536622,0.0660133149683142,3.0
30.615501403808594,-12.924619674682615,0.0141246318817138,-0.1842722735005361,-0.9674247040051068,-0.1735890875014172,0.0913286442364165,3.0
30.611467361450195,-13.842352867126465,-0.0477945804595947,-0.0,-0.0,-1.0,0.0197278982820778,1.0
30.762374877929688,-13.765883445739746,-0.0421661138534545,-0.0,-0.0,-1.0,0.0205848075955959,1.0
31.67465591430664,-13.819634437561035,-0.0380859375,-0.0,-0.0,-1.0,0.0547760939815607,1.0
31.857736587524418,-13.89135456085205,-0.040937066078186,-0.0,-0.0,-1.0,0.0324671665330354,2.0
32.0674934387207,-13.997612953186035,-0.0456912517547607,-0.0,-0.0,-1.0,0.0201298237160336,2.0
32.41257858276367,-13.99868106842041,-0.0438457727432251,-0.0,-0.0,-1.0,0.0340427326796976,1.0
32.615325927734375,-14.01492977142334,-0.0437660217285156,-0.0,-0.0,-1.0,0.0451408282062551,1.0
30.647560119628903,-12.928837776184082,0.0036007165908813,-0.0,-0.0,-1.0,0.0968346935066996,2.0
30.56180000305176,-13.899714469909668,-0.0539824962615966,-0.0,-0.0,-1.0,0.023997886649085,2.0
30.704559326171875,-13.83658504486084,-0.0477770566940307,-0.0,-0.0,-1.0,0.020913198024731,1.0
30.595767974853516,-12.918282508850098,-0.0002449750900268,-0.2493996473950534,-0.9648363561049028,-0.0830097694096078,0.0933600164896849,3.0
30.712936401367188,-12.933270454406738,0.0012975931167602,0.3064381922129339,-0.909110563512756,0.2821588518242663,0.0848111357429457,3.0
31.49051284790039,-13.68163013458252,-0.0247282981872558,-0.0,-0.0,-1.0,0.0438127060931924,1.0
31.560466766357425,-13.724244117736816,-0.0258218050003051,-0.0,-0.0,-1.0,0.0451476190828674,2.0
31.73378562927246,-13.839280128479004,-0.0291212797164917,-0.0,-0.0,-1.0,0.0523198389375947,1.0
31.999126434326172,-14.091586112976074,-0.0385290384292602,-0.0,-0.0,-1.0,0.035461731878031,2.0
32.33045959472656,-14.065106391906738,-0.0317275524139404,-0.2829501983842746,0.0862386676022915,-0.9552497461106604,0.0429991753799303,3.0
30.28550720214844,-12.176908493041992,-0.0913223028182983,-0.0,-0.0,-1.0,0.024426709146104,2.0
30.683494567871097,-11.915821075439451,-0.0793297290802002,-0.0,-0.0,-1.0,0.0206558564532401,2.0
30.897172927856445,-11.931743621826172,-0.0861057043075561,-0.0,-0.0,-1.0,0.0357597260220386,1.0
32.18498611450195,-11.899675369262695,-0.1201170682907104,-0.0,-0.0,-1.0,0.0459569110546632,1.0
32.370914459228516,-12.088497161865234,-0.1421998739242553,-0.0,-0.0,-1.0,0.0427757863564474,2.0
32.54413604736328,-11.972448348999023,-0.1378263235092163,-0.0,-0.0,-1.0,0.1028430255003547,1.0
30.49834442138672,-12.302139282226562,-0.0640246868133544,-0.4869966738093139,0.7486786500860213,0.4497938623458952,0.037509883287755,4.0
30.870115280151367,-12.085027694702148,-0.0524334907531738,0.4759648955564556,-0.7079960864096334,-0.521726901574545,0.0695535982597827,4.0
30.78628158569336,-12.124053955078123,-0.0541917085647583,0.6968276986796014,-0.6864283965213896,-0.2079596470519336,0.0493535055475561,3.0
31.85529136657715,-12.45596694946289,-0.103384256362915,-0.5132217453916116,-0.7583004567626819,-0.4019749461480099,0.0508364445466044,3.0
32.015228271484375,-12.28277587890625,-0.0922989845275878,-0.0,-0.0,-1.0,0.0516339415645857,1.0
32.151363372802734,-12.39590835571289,-0.1050857305526733,-0.0,-0.0,-1.0,0.0160404656051092,2.0
32.563907623291016,-12.162239074707031,-0.0951235294342041,-0.0,-0.0,-1.0,0.0645565309588505,1.0
32.377479553222656,-12.431108474731444,-0.1135249137878418,-0.0,-0.0,-1.0,0.0188374529666436,1.0
32.67218780517578,-12.028532028198242,-0.0863838195800781,0.8630168998916555,0.4947305013642208,0.102193745020442,0.0996476275464779,3.0
30.39084243774414,-11.949033737182615,-0.1139376163482666,-0.0,-0.0,-1.0,0.0131997898427327,2.0
32.279014587402344,-12.126482009887695,-0.1447119712829589,-0.0,-0.0,-1.0,0.0259750738486259,1.0
32.60847854614258,-12.010696411132812,-0.1385635137557983,-0.4102320656458058,0.7348988848905484,-0.5400308151416952,0.1005180068616977,4.0
32.26408386230469,-11.993125915527344,-0.1394613981246948,-0.0,-0.0,-1.0,0.0208001907520802,1.0
32.356998443603516,-12.046075820922852,-0.1429518461227417,0.7655712102994684,0.2405631692639442,-0.5966825651502599,0.0402670335146835,3.0
32.24903869628906,-11.876885414123535,-0.1324375867843628,-0.0,-0.0,-1.0,0.0441798177068792,2.0
32.62626647949219,-11.987265586853027,-0.1254725456237793,0.1856924389285405,0.734659328152731,-0.6525289186564437,0.1005180068616976,5.0
32.32932662963867,-12.130717277526855,-0.1408756971359253,-0.0,-0.0,-1.0,0.026896136590339,1.0
32.65918731689453,-11.999929428100586,-0.1150640249252319,0.7820603055290312,0.3593239104258116,-0.5091836661874988,0.1005180068616976,4.0
30.264177322387695,-12.208518981933594,-0.0984793901443481,-0.0,-0.0,-1.0,0.0254063513038188,2.0
30.841487884521484,-12.099815368652344,-0.0632694959640502,0.3446261636740536,-0.6686146801859191,-0.6589288404305776,0.0640556333367375,4.0
30.579944610595703,-12.160907745361328,-0.0802708864212036,-0.0,-0.0,-1.0,0.0289485631826295,2.0
31.591064453125,-12.601072311401367,-0.0900471210479736,-0.0,-0.0,-1.0,0.0383703472799999,1.0
31.71758270263672,-12.641447067260742,-0.090472936630249,-0.0,-0.0,-1.0,0.0660401730375044,2.0
32.21608352661133,-12.63205337524414,-0.0746870040893554,-0.4111381203341311,-0.4139234742474207,-0.8121778151827727,0.131981182225229,5.0
32.21815490722656,-12.79877471923828,-0.0935547351837158,-0.0,-0.0,-1.0,0.1463156234549772,1.0
32.543216705322266,-12.819997787475586,-0.0875828266143798,-0.0,-0.0,-1.0,0.0302519652270769,1.0
32.47620391845703,-13.15103530883789,-0.1273137331008911,-0.0,-0.0,-1.0,0.0339572905138506,1.0
30.332172393798828,-12.449577331542969,-0.0472859144210815,-0.0,-0.0,-1.0,0.0457997550586574,2.0
30.46568489074707,-12.55592155456543,-0.0501054525375366,-0.0,-0.0,-1.0,0.0410898410770987,2.0
31.62195587158203,-12.766944885253906,-0.0124531984329223,-0.0,-0.0,-1.0,0.1157552747310625,2.0
31.71529006958008,-13.141229629516602,-0.0473564863204956,-0.5308827239427991,0.8359499077044129,-0.1391088970125828,0.0222872462260201,3.0
32.266021728515625,-13.364105224609377,-0.0484124422073364,-0.0,-0.0,-1.0,0.0419223983006994,2.0
32.051971435546875,-13.343057632446287,-0.0545977354049682,-0.5289816790423755,0.3004238314677189,-0.7936774563535017,0.0174321662225237,3.0
32.48221206665039,-13.532577514648438,-0.0587172508239746,-0.822356785681594,0.4722883161961759,-0.3172901880424568,0.0825023576671692,4.0
30.96611785888672,-12.010632514953612,-0.0728261470794677,-0.0,-0.0,-1.0,0.0356931572076188,1.0
30.669897079467773,-12.018741607666016,-0.0943989753723144,-0.0,-0.0,-1.0,0.0226400263654657,1.0
30.36147689819336,-12.06382942199707,-0.1210451126098632,0.1284923677222965,-0.1193703176728401,-0.9845000958333132,0.0120748310800506,4.0
31.71274757385254,-12.587425231933594,-0.0849727392196655,-0.0,-0.0,-1.0,0.0739670774931754,1.0
32.277015686035156,-12.660944938659668,-0.0604722499847412,-0.0050579199717452,-0.9087408774012192,0.4173301273400015,0.1901961279418063,4.0
32.00672912597656,-12.728190422058104,-0.0830351114273071,-0.0,-0.0,-1.0,0.109977644742479,1.0
32.52748107910156,-12.88307285308838,-0.0717911720275878,-0.0,-0.0,-1.0,0.0295982462607807,1.0
32.295928955078125,-13.110793113708496,-0.1094082593917846,-0.0,-0.0,-1.0,0.0442714491371416,1.0
32.657779693603516,-13.21277141571045,-0.1024506092071533,-0.5707407016241475,-0.5603167244634274,0.6002501310255182,0.0884057455619617,4.0
30.43461799621582,-12.50555419921875,-0.0737245082855224,-0.0,-0.0,-1.0,0.0456965024965803,1.0
31.642139434814453,-12.808398246765137,-0.0335086584091186,-0.8260575735019506,-0.1149396438101289,-0.5517406669268362,0.1537068280300728,3.0
31.51577377319336,-12.797930717468262,-0.0391888618469238,0.7881737394021235,-0.0032028249522007,-0.6154444722549701,0.1463704406437766,3.0
31.692514419555664,-13.194572448730469,-0.0716696977615356,-0.0,-0.0,-1.0,0.0188928025670401,2.0
32.257347106933594,-13.416521072387695,-0.0685791969299316,-0.0,-0.0,-1.0,0.0202259012975263,1.0
31.93466567993164,-13.320989608764648,-0.0732076168060302,-0.0,-0.0,-1.0,0.014868232366456,2.0
32.468040466308594,-13.560554504394531,-0.0751270055770874,-0.692148072729037,0.5924205356953736,-0.412272912406195,0.06228745809527,3.0
30.625316619873047,-12.23692226409912,-0.1476058959960937,-0.0,-0.0,-1.0,0.0333370410326134,2.0
30.337207794189453,-12.27903938293457,-0.1634069681167602,-0.0,-0.0,-1.0,0.0307489853870806,1.0
32.22241973876953,-11.910913467407228,-0.0606237649917602,-0.0,-0.0,-1.0,0.0426834208751611,1.0
31.119909286499023,-12.16086769104004,-0.1218351125717163,-0.0,-0.0,-1.0,0.0181275400297643,2.0
30.85805892944336,-12.157785415649414,-0.1288264989852905,-0.0,-0.0,-1.0,0.0560148659112502,1.0
32.31045150756836,-12.458080291748049,-0.144821286201477,-0.0,-0.0,-1.0,0.0115542239242959,2.0
32.075435638427734,-12.431158065795898,-0.1433213949203491,-0.0,-0.0,-1.0,0.0315780142126864,1.0
31.332660675048828,-13.32624053955078,0.0919835567474365,-0.0,-0.0,-1.0,0.0732255152284363,1.0
30.307615280151367,-13.593173027038574,0.0539824962615966,-0.0,-0.0,-1.0,0.1090487601238574,1.0
32.496543884277344,-14.227434158325195,-0.0258617401123046,-0.0,-0.0,-1.0,0.0813194643373667,1.0
31.946441650390625,-14.192011833190918,-0.0162147283554077,-0.0692383567967056,-0.9581793192094414,0.2776660623616492,0.0307096652962918,4.0
31.709096908569336,-14.06812858581543,0.0004196166992187,-0.0,-0.0,-1.0,0.0826398644909348,1.0
31.249317169189453,-14.19065761566162,-0.0135128498077392,-0.0,-0.0,-1.0,0.0415312317856004,1.0
32.559661865234375,-14.287078857421877,-0.0342463254928588,-0.0,-0.0,-1.0,0.0838085255462018,1.0
31.560304641723633,-14.33621883392334,-0.0321325063705444,-0.0,-0.0,-1.0,0.072239661989053,1.0
30.320632934570312,-12.589261054992676,-0.0662169456481933,-0.0,-0.0,-1.0,0.0372019893423342,1.0
30.49349021911621,-12.813106536865234,-0.0766781568527221,-0.0,-0.0,-1.0,0.0767877572279771,2.0
30.458229064941406,-12.761637687683104,-0.0738953351974487,-0.0,-0.0,-1.0,0.0671850116403035,1.0
30.738773345947266,-12.266956329345703,-0.0543839931488037,-0.0,-0.0,-1.0,0.0358165148267986,2.0
30.325424194335938,-12.26264190673828,-0.0750837326049804,-0.0,-0.0,-1.0,0.033639550083281,2.0
32.22618865966797,-12.709429740905762,-0.0445708036422729,0.3712709310124838,-0.6558319370048067,0.6572992972684871,0.1647941915505713,6.0
31.967761993408203,-12.826783180236816,-0.0698072910308837,-0.0,-0.0,-1.0,0.0703220591787672,1.0
31.73027229309082,-12.838557243347168,-0.0809047222137451,-0.1173677772951834,-0.3315654085299037,-0.9361031912771082,0.1865605235113864,3.0
32.67250442504883,-13.316781044006348,-0.1079773902893066,-0.0,-0.0,-1.0,0.1082800077525881,2.0
32.46152114868164,-13.227657318115234,-0.1035195589065551,-0.5227117819903758,-0.6463738132488202,-0.555853655663633,0.0306315330856489,3.0
32.20279312133789,-13.188437461853027,-0.1075849533081054,-0.0,-0.0,-1.0,0.0622930029201991,1.0
30.513835906982425,-12.280649185180664,-0.0779148340225219,-0.4869966738093139,0.7486786500860213,0.4497938623458952,0.0398406662864649,4.0
30.874858856201172,-12.40584945678711,-0.0682915449142456,-0.0,-0.0,-1.0,0.0336048703717523,1.0
30.704265594482425,-12.377899169921877,-0.0765312910079956,-0.0,-0.0,-1.0,0.0244973018936416,2.0
32.235416412353516,-12.700557708740234,-0.0254402160644531,0.9115206427734256,-0.2408578783265385,-0.3333430668934923,0.1848267550379305,4.0
31.73095703125,-12.859220504760742,-0.0736716985702514,-0.1173677772951834,-0.3315654085299037,-0.9361031912771082,0.116619365176935,3.0
31.885366439819336,-13.128080368041992,-0.1008181571960449,-0.0,-0.0,-1.0,0.0127461411029052,2.0
31.768247604370117,-12.951372146606444,-0.0837538242340087,-0.0,-0.0,-1.0,0.0664117734435178,1.0
32.51194381713867,-13.249408721923828,-0.0859781503677368,-0.0,-0.0,-1.0,0.0629933014866293,2.0
32.164283752441406,-13.272592544555664,-0.105745792388916,-0.0,-0.0,-1.0,0.0387382805322336,2.0
30.99610710144043,-14.16322135925293,0.0995179414749145,-0.0,-0.0,-1.0,0.1871359792651398,1.0
32.42704391479492,-11.947175979614258,-0.1682076454162597,-0.0,-0.0,-1.0,0.0417849812137686,1.0
32.69169235229492,-11.97161102294922,-0.1653827428817749,-0.0,-0.0,-1.0,0.1005180068616976,1.0
30.92839813232422,-12.786128997802734,-0.0579755306243896,-0.0,-0.0,-1.0,0.0245970224975066,2.0
30.613183975219727,-12.839890480041504,-0.0779732465744018,-0.0,-0.0,-1.0,0.0536366847578311,2.0
30.35226821899414,-12.775134086608888,-0.0798481702804565,-0.0,-0.0,-1.0,0.0437025619799685,1.0
31.581985473632812,-12.84389877319336,-0.0446152687072753,0.9288384583700434,-0.070906979775751,-0.3636362447169455,0.1661830193564602,3.0
30.750003814697266,-12.96773910522461,-0.0905491113662719,-0.0,-0.0,-1.0,0.0627432722070227,2.0
31.7451171875,-13.1622314453125,-0.0866023302078247,-0.3468340057334621,0.3627183668635117,-0.8649517667516193,0.0146407365080379,3.0
32.6086311340332,-13.266669273376465,-0.0847262144088745,-0.0,-0.0,-1.0,0.0972709372872872,2.0
32.249053955078125,-13.297101020812988,-0.095249056816101,-0.0,-0.0,-1.0,0.0429748122560781,2.0
31.93175506591797,-13.320672988891602,-0.1053143739700317,-0.0,-0.0,-1.0,0.0144873812748459,2.0
31.05508041381836,-14.084683418273926,0.1193972826004028,-0.0,-0.0,-1.0,0.207837506024477,1.0
30.33893585205078,-12.09846305847168,-0.1194133758544921,0.086217327479738,-0.3999094038104068,-0.9124905704642964,0.0223334488069326,5.0
30.625473022460938,-11.967514038085938,-0.0887795686721801,0.5540586145392814,0.7327912952355209,-0.3950138849228715,0.0221471551956508,3.0
30.548118591308594,-12.016885757446287,-0.0995529890060424,-0.0,-0.0,-1.0,0.0131265698781949,2.0
30.916746139526367,-12.00823211669922,-0.0918458700180053,-0.0,-0.0,-1.0,0.0446247882550316,2.0
31.215625762939453,-12.064952850341797,-0.0992794036865234,-0.0,-0.0,-1.0,0.0220811128739486,2.0
30.47331428527832,-13.033964157104492,0.013446569442749,0.2738628208034973,0.5397745833091664,-0.7960166798472047,0.1013766114447789,6.0
32.24293518066406,-12.248804092407228,-0.1384893655776977,-0.0,-0.0,-1.0,0.0065550708380755,1.0
32.09857177734375,-12.186635971069336,-0.1244666576385498,-0.0,-0.0,-1.0,0.0115235315298478,2.0
31.11750030517578,-13.078601837158203,0.0053658485412597,0.2335255736781837,0.1867501611888686,-0.9542484916069852,0.1149929627129947,3.0
30.605304718017575,-13.123627662658691,-0.0003776550292968,-0.0,-0.0,-1.0,0.061820695873443,1.0
30.549110412597656,-13.497127532958984,-0.0586918592453002,-0.0,-0.0,-1.0,0.0277038079859403,1.0
32.45246124267578,-12.304431915283203,-0.1531102657318115,-0.913850511005744,0.2725813276736179,-0.3009595709364105,0.0188130317776509,3.0
31.468067169189453,-12.963685989379885,0.0206954479217529,-0.0,-0.0,-1.0,0.0996891342863389,2.0
31.20231819152832,-13.05350112915039,0.0087908506393432,-0.322990460097337,-0.8877873349306409,0.3278884118459523,0.0833430129176803,3.0
30.81357192993164,-13.48758602142334,-0.0577421188354492,-0.0,-0.0,-1.0,0.0329057657775503,1.0
30.606834411621097,-13.521254539489746,-0.0625214576721191,-0.0,-0.0,-1.0,0.0143379489630114,2.0
31.804691314697266,-13.454594612121582,-0.0626205205917358,-0.0,-0.0,-1.0,0.0092283838285656,2.0
32.621490478515625,-13.391595840454102,-0.0706170797348022,-0.492118404279322,-0.8427768759417361,0.2180518597661139,0.1089033545129244,3.0
32.325679779052734,-13.390143394470217,-0.0627914667129516,-0.0,-0.0,-1.0,0.0469722661304495,2.0
32.06349563598633,-13.45180606842041,-0.0668321847915649,-0.0,-0.0,-1.0,0.0355931985906591,1.0
31.21916961669922,-13.688249588012695,0.0196930170059204,-0.0,-0.0,-1.0,0.0399917704484525,1.0
31.034833908081055,-13.838666915893556,0.004337191581726,-0.0,-0.0,-1.0,0.0196479523138345,2.0
30.646764755249023,-14.061220169067385,-0.0129066705703735,-0.603308854534111,-0.4648967630217773,-0.6479887543565955,0.0351983463483462,3.0
30.246910095214844,-14.241704940795898,-0.0256496667861938,-0.0,-0.0,-1.0,0.0693833582785107,2.0
32.16407775878906,-13.53429889678955,-0.0315152406692504,-0.0,-0.0,-1.0,0.0335202519736681,1.0
31.825422286987305,-13.72588348388672,-0.03523850440979,-0.0,-0.0,-1.0,0.0298362826596195,1.0
31.451078414916992,-13.769598007202148,-0.0123161077499389,-0.0,-0.0,-1.0,0.0735496442882735,2.0
32.2579345703125,-13.529993057250977,-0.0404227972030639,-0.0,-0.0,-1.0,0.0364312112703382,1.0
32.03193664550781,-13.681052207946776,-0.0459028482437133,-0.0,-0.0,-1.0,0.021671652582615,2.0
31.366172790527344,-13.073209762573242,0.1216720342636108,-0.3301100846545252,0.1700266167521723,-0.928503248031579,0.2346323482482699,4.0
31.15506172180176,-13.220677375793455,0.1088724136352539,-0.024823300785373,-0.4161970125045593,-0.9089355590581758,0.1365511246231769,4.0
31.02713394165039,-14.061147689819336,0.2650316953659057,-0.0,-0.0,-1.0,0.0626222504869063,2.0
30.2982234954834,-12.438017845153809,-0.0463819503784179,-0.3110083685820386,-0.8866287060213007,-0.3422912974805708,0.0457997550586574,3.0
31.11350440979004,-12.617143630981444,-0.009188175201416,-0.0,-0.0,-1.0,0.0493136558984278,2.0
30.80865478515625,-12.627668380737305,-0.035386323928833,-0.0,-0.0,-1.0,0.0307519488119081,1.0
30.54642677307129,-12.54207992553711,-0.0422875881195068,-0.0,-0.0,-1.0,0.0304950065413868,2.0
32.5474853515625,-12.318721771240234,-0.0913176536560058,-0.0,-0.0,-1.0,0.032769240183545,1.0
32.208648681640625,-12.324291229248049,-0.1108952760696411,-0.0,-0.0,-1.0,0.0123373926337769,2.0
31.431255340576172,-12.819833755493164,-0.0221772193908691,0.8956574891353398,0.1996219185262653,-0.3974276686387996,0.0466111570025802,3.0
31.08612823486328,-12.774408340454102,-0.0392993688583374,0.091393720792593,0.4572490950783429,-0.8846301220565135,0.029869746123675,3.0
32.5645866394043,-12.431331634521484,-0.1151788234710693,0.0539099536323738,-0.9948980995022274,-0.0852730233204538,0.0226012917726324,3.0
31.801149368286133,-13.117927551269531,-0.0510703325271606,-0.0,-0.0,-1.0,0.0208086158249132,1.0
31.702781677246097,-13.018722534179688,-0.0394538640975952,-0.0,-0.0,-1.0,0.0514599776978024,1.0
32.39384841918945,-13.31536102294922,-0.0530803203582763,-0.0,-0.0,-1.0,0.0791221306999999,1.0
32.08525085449219,-13.334020614624023,-0.0733575820922851,-0.6492372968141186,-0.1149136908214862,-0.751854890312805,0.0420487681901784,5.0
31.838762283325195,-13.242759704589844,-0.0712623596191406,-0.0,-0.0,-1.0,0.0158624064912069,2.0
32.66116714477539,-13.411333084106444,-0.0573563575744628,-0.0,-0.0,-1.0,0.1089033545129244,2.0
30.236196517944336,-13.429019927978516,0.3264093995094299,-0.0,-0.0,-1.0,0.1012607388632148,1.0
31.12325859069824,-13.294382095336914,0.134981632232666,-0.0,-0.0,-1.0,0.2339153052781225,2.0
31.332820892333984,-13.865917205810549,0.0665227174758911,-0.0,-0.0,-1.0,0.0791347736597857,1.0
31.036388397216797,-14.02592658996582,0.1692335605621338,-0.0,-0.0,-1.0,0.0957118391830604,1.0
30.687944412231445,-14.022083282470703,0.0011911392211914,-0.0,-0.0,-1.0,0.0431630204051247,2.0
30.396568298339844,-14.005783081054688,-0.0171475410461425,-0.0,-0.0,-1.0,0.0396784004569639,1.0
31.552907943725582,-14.026934623718262,0.0568406581878662,-0.5725272321916348,0.506243464152983,-0.6449264480554142,0.0937560372169649,4.0
31.08686065673828,-14.10895538330078,0.1610536575317382,-0.0,-0.0,-1.0,0.1871192999504885,1.0
31.83857154846191,-14.30610179901123,0.0330502986907959,-0.0,-0.0,-1.0,0.0380345417209519,1.0
30.482166290283203,-12.519458770751951,-0.0419880151748657,-0.0,-0.0,-1.0,0.0425713627344302,2.0
30.2269287109375,-13.57583236694336,-0.0084009170532226,-0.0,-0.0,-1.0,0.1074274910753755,1.0
30.289649963378903,-13.72308349609375,-0.0468738079071044,-0.0,-0.0,-1.0,0.0222448456758134,2.0
32.342594146728516,-13.017210006713867,-0.1755951642990112,-0.0,-0.0,-1.0,0.0293257183608603,1.0
32.08695983886719,-12.715333938598633,-0.114005446434021,-0.0,-0.0,-1.0,0.0906369734408273,1.0
32.595760345458984,-13.781139373779297,-0.0551491975784301,-0.0,-0.0,-1.0,0.0430976277294083,2.0
31.90745735168457,-12.827045440673828,-0.1372144222259521,-0.0,-0.0,-1.0,0.0749771728498913,1.0
32.525299072265625,-13.853572845458984,-0.0667163133621215,-0.0,-0.0,-1.0,0.0250487273267613,2.0
32.250911712646484,-13.92306137084961,-0.078209638595581,-0.0,-0.0,-1.0,0.0665003461475946,2.0
31.968177795410156,-13.930644989013672,-0.0809673070907592,-0.0,-0.0,-1.0,0.0152095004068639,1.0
31.779512405395508,-13.888505935668944,-0.0762940645217895,-0.0,-0.0,-1.0,0.0476041086390576,1.0
30.54251289367676,-12.792964935302734,-0.1454764604568481,-0.0,-0.0,-1.0,0.0671343553842855,1.0
30.36370277404785,-12.636678695678713,-0.1302722692489624,-0.0,-0.0,-1.0,0.0339939100489979,1.0
30.726810455322266,-14.189329147338867,-0.0738413333892822,-0.0,-0.0,-1.0,0.0262111457096449,1.0
30.591630935668945,-14.127286911010742,-0.0737627744674682,-0.0,-0.0,-1.0,0.0456868522048175,1.0
30.352596282958984,-14.118120193481444,-0.0894136428833007,-0.0,-0.0,-1.0,0.0444017703987855,2.0
30.26281356811523,-12.431978225708008,-0.0298525094985961,-0.0,-0.0,-1.0,0.0448319792672193,2.0
30.350170135498047,-12.352046966552734,-0.0341266393661499,-0.0,-0.0,-1.0,0.0470825243987749,1.0
31.186662673950195,-13.165079116821287,0.0488597154617309,-0.0954423121468605,-0.8369683994425435,0.5388642346515939,0.1570961583872775,4.0
31.49226951599121,-12.91242790222168,-0.0017353296279907,-0.5661697953251394,-0.234846785910815,-0.7901257811316181,0.0882729808274213,4.0
31.787572860717773,-12.849287033081056,-0.0433942079544067,-0.0,-0.0,-1.0,0.0929705657336015,1.0
32.329219818115234,-13.24892234802246,-0.0990689992904663,-0.0,-0.0,-1.0,0.068155966372873,1.0
30.22615623474121,-12.51659870147705,-0.0921498537063598,-0.0,-0.0,-1.0,0.039441189793486,1.0
30.277023315429688,-12.403010368347168,-0.096143364906311,-0.0,-0.0,-1.0,0.0355759137193895,2.0
31.343719482421875,-14.32233715057373,0.0294244289398193,-0.0,-0.0,-1.0,0.0579694267942694,1.0
31.074703216552734,-13.222712516784668,0.0646253824234008,0.2550160104995812,-0.2299027411178822,-0.9392079450341982,0.2050755250495091,7.0
31.282440185546875,-13.033785820007324,0.0489721298217773,-0.1491428232592629,-0.1814860538814944,-0.9720181225248732,0.1083994068685194,5.0
32.40683364868164,-13.946648597717283,-0.057523488998413,-0.0,-0.0,-1.0,0.0241673714091675,2.0
31.61300277709961,-12.908520698547363,0.0219428539276123,0.0866518298843085,-0.2803081958549249,-0.9559909914399076,0.1362348461937254,3.0
31.05126953125,-14.317736625671388,0.0338971614837646,0.6101896224521498,-0.1356755912616039,-0.7805515733041073,0.1095783481522801,3.0
31.10226249694824,-14.096932411193848,0.0339092016220092,-0.0,-0.0,-1.0,0.1856208213799979,2.0
31.30572509765625,-14.223958015441896,0.015740156173706,-0.2892383865128192,-0.5710000900565423,-0.76830986777659,0.0387248152818572,3.0
31.0699462890625,-13.160811424255373,0.0531229972839355,-0.0594598312297977,-0.2852444588675847,-0.9566086593563023,0.1043053751099998,4.0
31.27937889099121,-13.00239086151123,0.0393651723861694,-0.7720290941116454,0.4616719766096228,-0.4368410052393385,0.1012881743699965,8.0
32.310340881347656,-13.927573204040527,-0.0586482286453247,0.0633339206805823,-0.6735228512577712,-0.7364480859672511,0.0684579248836533,4.0
32.38353729248047,-13.870965003967283,-0.0635614395141601,-0.0,-0.0,-1.0,0.0709147955827545,2.0
31.56967544555664,-12.908286094665527,0.0179468393325805,-0.0,-0.0,-1.0,0.0945593866520795,2.0
31.692039489746097,-12.858464241027832,0.0090303421020507,-0.0,-0.0,-1.0,0.1590376343337775,2.0
30.29900360107422,-12.740321159362791,-0.0634102821350097,-0.0,-0.0,-1.0,0.0316898966006286,1.0
30.396095275878903,-12.85216999053955,-0.0725592374801635,-0.0,-0.0,-1.0,0.0493897259970677,2.0
30.68059539794922,-12.553425788879396,-0.0678969621658325,-0.0,-0.0,-1.0,0.0212336019316128,1.0
30.626306533813477,-12.66312313079834,-0.071427583694458,-0.0,-0.0,-1.0,0.0347465565047302,2.0
31.02227210998535,-12.459364891052246,-0.0759551525115966,-0.0,-0.0,-1.0,0.0703109732260289,1.0
31.357818603515625,-12.670178413391112,-0.0992002487182617,-0.0,-0.0,-1.0,0.0113446414899657,1.0
31.44882583618164,-12.493578910827637,-0.0939273834228515,-0.0,-0.0,-1.0,0.0553178772887167,2.0
31.118688583374023,-13.196557998657228,0.024951696395874,-0.8816578831907232,-0.4612385968426551,-0.0996911921398877,0.1661165812993577,5.0
31.019214630126953,-13.37807273864746,0.0281494855880737,-0.0,-0.0,-1.0,0.230153889451901,1.0
31.130783081054688,-13.894523620605469,0.0002908706665039,-0.0,-0.0,-1.0,0.0216041445506484,2.0
31.004425048828125,-14.189943313598633,0.0019668340682983,-0.0,-0.0,-1.0,0.0969056885081743,2.0
31.34573745727539,-13.003129959106444,0.0100144147872924,0.2176400914950949,-0.42636634901831,-0.8779775207821687,0.1194101059705084,4.0
31.594623565673828,-12.861501693725586,-0.0089012384414672,0.9288384583700434,-0.070906979775751,-0.3636362447169455,0.141214088445747,3.0
32.055824279785156,-13.376535415649414,-0.0698376893997192,-0.503034871750659,0.1478678999259341,-0.851522754818855,0.0172332615640095,4.0
32.70175552368164,-12.436027526855469,-0.1024129390716552,-0.0,-0.0,-1.0,0.013523677561617,2.0
30.60511779785156,-13.064533233642578,0.0531151294708251,-0.0,-0.0,-1.0,0.0916281899648359,2.0
30.643552780151367,-14.35320281982422,-0.0040860176086425,-0.0,-0.0,-1.0,0.0488027486041851,1.0
31.14255714416504,-13.115751266479492,0.0042275190353393,-0.0,-0.0,-1.0,0.1654291847860443,2.0
31.05497360229492,-13.276982307434082,0.0052710771560668,0.2162170860001938,0.2579410266813277,-0.9416563059185484,0.2623184808500879,4.0
31.126224517822266,-13.888425827026367,-0.0261598825454711,0.655456912508846,-0.7033437211162417,-0.2751069715778378,0.0218700368229668,3.0
30.86528778076172,-14.161500930786133,-0.0149877071380615,-0.0,-0.0,-1.0,0.079453948328588,2.0
31.33770751953125,-12.977106094360352,-0.0073163509368896,0.1159725171966051,-0.5255131423465987,-0.8428441804248793,0.1101304129913855,3.0
31.64463806152344,-12.846639633178713,-0.0292830467224121,-0.8260575735019506,-0.1149396438101289,-0.5517406669268362,0.1625626916601323,3.0
32.0819091796875,-13.313374519348145,-0.0871338844299316,-0.9837292041571762,-0.1775462160618663,-0.0274625936575923,0.0420487681901784,3.0
32.6550407409668,-12.2870512008667,-0.0990582704544067,-0.0,-0.0,-1.0,0.0283487113573941,2.0
32.64716720581055,-12.391450881958008,-0.102353811264038,-0.2077150194544392,-0.2189594028756709,-0.9533683708752726,0.0164065196948212,3.0
30.48921585083008,-12.151208877563477,-0.101889967918396,0.0093211261798588,-0.0211963012346227,-0.9997318807663932,0.0211384103603176,3.0
30.633647918701172,-11.915645599365234,-0.0993657112121582,0.8392699262767176,0.122272835514979,-0.5297880184966429,0.0182426146047786,3.0
31.6724853515625,-14.096738815307615,0.1131768226623535,-0.0,-0.0,-1.0,0.0939513060927313,1.0
32.46222686767578,-14.361652374267578,0.0252830982208251,-0.0,-0.0,-1.0,0.1067105435350226,1.0
32.699615478515625,-14.249748229980469,0.0050300359725952,-0.0,-0.0,-1.0,0.0744384388461778,1.0
30.252593994140625,-12.827494621276855,-0.0524498224258422,-0.0,-0.0,-1.0,0.0368235133776346,2.0
30.51711654663086,-12.59348964691162,-0.0526322126388549,-0.0,-0.0,-1.0,0.0355751184155052,1.0
30.84606170654297,-12.32867431640625,-0.0570708513259887,-0.0,-0.0,-1.0,0.0269728229244961,2.0
30.735498428344727,-12.460885047912598,-0.0600854158401489,-0.0,-0.0,-1.0,0.0137380934594509,1.0
31.21283531188965,-12.218849182128906,-0.083791971206665,-0.0500376166212113,0.2145164898269625,-0.975437805559733,0.0503743503018522,3.0
30.86635971069336,-12.241891860961914,-0.0498358011245727,-0.0,-0.0,-1.0,0.0397998914971103,2.0
31.34703254699707,-11.972208976745604,-0.0720382928848266,-0.0,-0.0,-1.0,0.0594233393869924,2.0
30.421531677246097,-12.590846061706545,-0.0427426099777221,-0.4392945385482293,-0.8391787817421394,-0.3206232690798921,0.0958635069455163,3.0
30.26499938964844,-12.830706596374512,-0.0526999235153198,-0.0,-0.0,-1.0,0.0382179559955502,2.0
30.701984405517575,-12.39277458190918,-0.0532623529434204,-0.0,-0.0,-1.0,0.0245800551215896,2.0
30.965560913085938,-12.110620498657228,-0.0531843900680542,-0.0,-0.0,-1.0,0.0441284999060965,1.0
31.125505447387695,-12.163162231445312,-0.0790706872940063,-0.0,-0.0,-1.0,0.0181359148823942,2.0
31.328174591064453,-11.897184371948242,-0.0749193429946899,-0.0,-0.0,-1.0,0.1253318431189974,1.0
31.24542236328125,-12.118579864501951,-0.0891077518463134,-0.0,-0.0,-1.0,0.0246979863276452,1.0
30.282939910888672,-13.018454551696776,-0.063614010810852,0.6833298522279404,0.7151632833803899,0.1469754780863823,0.0462676465311865,3.0
30.589149475097656,-12.573931694030762,-0.0701617002487182,-0.2787625116245819,0.2845855803709834,-0.917225440967304,0.0290833555073451,3.0
30.412738800048828,-12.837149620056152,-0.0667942762374877,-0.0,-0.0,-1.0,0.0485312992366262,2.0
30.87906265258789,-12.068339347839355,-0.0713031291961669,0.4072377666606598,-0.4933589168693474,-0.7686054778302991,0.0695535982597827,5.0
30.750730514526367,-12.326074600219728,-0.0737721920013427,-0.087456620578068,0.4511771647072121,-0.8881387873321517,0.0331099552490289,3.0
31.075260162353516,-11.864553451538086,-0.0874673128128051,-0.0,-0.0,-1.0,0.0175448493282804,1.0
32.07365036010742,-14.246628761291504,-0.0237572193145751,0.2803586041546351,-0.6447981900243751,-0.7110797052495273,0.0654208167125448,3.0
32.483673095703125,-13.811662673950195,-0.0610207319259643,-0.0,-0.0,-1.0,0.027428177748393,1.0
32.292152404785156,-14.019105911254885,-0.0435532331466674,0.3363163309696337,0.1197248744134018,-0.9341077453751354,0.0382759091607563,3.0
31.604616165161133,-14.144392013549805,0.0568329095840454,-0.0,-0.0,-1.0,0.0900533992157827,1.0
31.78470993041992,-14.051335334777832,0.0351284742355346,-0.0,-0.0,-1.0,0.0353565618508917,2.0
32.431785583496094,-13.811198234558104,-0.052531361579895,-0.0,-0.0,-1.0,0.0237470476359796,1.0
32.57220458984375,-13.58518123626709,-0.0611199140548706,-0.0,-0.0,-1.0,0.0795895994349988,2.0
30.47246360778809,-14.180492401123049,-0.0313642024993896,-0.0,-0.0,-1.0,0.0544366892973067,1.0
30.424287796020508,-12.134444236755373,-0.1155848503112793,-0.0,-0.0,-1.0,0.016978046850828,2.0
30.82276153564453,-13.848007202148438,-0.0333421230316162,-0.0,-0.0,-1.0,0.0219354561563563,2.0
30.661863327026367,-14.003690719604492,-0.0323678255081176,0.4728350643904373,-0.3670562232543642,-0.8010597548579839,0.0418882375792139,7.0
30.58788299560547,-11.952432632446287,-0.1135269403457641,0.5540586145392814,0.7327912952355209,-0.3950138849228715,0.015139932311407,3.0
31.114330291748047,-13.199263572692873,0.0071758031845092,-0.9159259375488322,-0.3987554865475592,0.0455383231302168,0.2089634872727465,4.0
31.054685592651367,-13.731487274169922,-0.0489494800567626,-0.0,-0.0,-1.0,0.0199913464093817,1.0
31.479724884033203,-12.906938552856444,-0.0086545944213867,-0.5661697953251394,-0.234846785910815,-0.7901257811316181,0.0731047649961342,4.0
31.301170349121097,-13.004613876342772,0.0048073530197143,0.2867855883714239,-0.9491068428589692,0.130193037988736,0.1278495448109127,6.0
31.593101501464844,-12.840192794799805,-0.0169441699981689,0.1960572989015872,-0.8706919588752938,-0.4510621335218878,0.1342089791172587,4.0
31.94880485534668,-13.092461585998535,-0.0964763164520263,-0.0,-0.0,-1.0,0.0269665792361779,2.0
32.13240051269531,-12.751341819763184,-0.0851002931594848,-0.177888947781891,-0.9792777919063972,0.0968014903603384,0.107613005546967,3.0
32.079925537109375,-12.911545753479004,-0.0951747894287109,-0.0,-0.0,-1.0,0.0956434111282804,2.0
30.977968215942383,-14.019033432006836,0.3323384523391723,-0.0,-0.0,-1.0,0.1109089679799579,1.0
30.334386825561523,-11.890788078308104,-0.1422659158706665,-0.0,-0.0,-1.0,0.0123756272744679,1.0
30.50048065185547,-12.913358688354492,-0.0351343154907226,-0.0,-0.0,-1.0,0.0548960761128281,1.0
30.4578857421875,-13.062278747558594,-0.0545837879180908,0.9513331229487524,0.2862809872385111,0.1140547479341278,0.1079159705205916,3.0
30.889263153076172,-12.752714157104492,-0.0616788864135742,-0.0,-0.0,-1.0,0.0449026868147056,1.0
30.75948715209961,-12.973443031311035,-0.079561710357666,-0.0,-0.0,-1.0,0.0596449693334537,2.0
31.06600570678711,-14.295343399047852,0.0415246486663818,-0.5389339283613159,0.5668764268399362,-0.623058053117225,0.120405974281139,3.0
31.207426071166992,-12.351480484008787,-0.0437382459640502,-0.0,-0.0,-1.0,0.0483503266932733,1.0
31.090545654296875,-12.570619583129885,-0.060977816581726,-0.1957848677894498,0.7702582365850232,-0.6069353627179737,0.0664410128767175,3.0
31.42967414855957,-13.934038162231444,0.0486174821853637,-0.0,-0.0,-1.0,0.0912230309887352,2.0
31.43968963623047,-14.189617156982422,0.0134276151657104,-0.0,-0.0,-1.0,0.0667205733883795,2.0
31.679203033447266,-12.297804832458496,-0.1070311069488525,-0.0,-0.0,-1.0,0.0874248574537102,1.0
31.53028678894043,-12.415321350097656,-0.101948857307434,-0.0,-0.0,-1.0,0.0629365712491343,1.0
31.66219139099121,-13.96143913269043,0.017501950263977,-0.0,-0.0,-1.0,0.0895570688021079,2.0
31.888996124267575,-14.03818702697754,-0.0198217630386352,-0.0,-0.0,-1.0,0.0287499982119877,1.0
32.34625244140625,-13.86887550354004,-0.0550445318222045,-0.2280231672636079,-0.3185074931928968,-0.9200860894345972,0.0592412713181409,3.0
32.143699645996094,-13.978471755981444,-0.0434795618057251,-0.2227034719302361,0.5510281263751867,-0.804220845000719,0.0689927900049177,3.0
32.59720993041992,-13.699453353881836,-0.0664712190628051,-0.0,-0.0,-1.0,0.0688688024669239,2.0
30.395912170410156,-12.565581321716309,-0.0737669467926025,-0.4392945385482293,-0.8391787817421394,-0.3206232690798921,0.0452840302135523,3.0
30.21445083618164,-12.756563186645508,-0.0806875228881836,-0.0,-0.0,-1.0,0.0244581003443748,2.0
30.39971160888672,-14.113702774047852,-0.0496622323989868,-0.0,-0.0,-1.0,0.0444915929377354,1.0
30.651819229125977,-12.375571250915527,-0.082169771194458,-0.0,-0.0,-1.0,0.0267104688253725,1.0
30.83011245727539,-13.792423248291016,-0.0547977685928344,-0.0,-0.0,-1.0,0.0217246625490257,1.0
30.627336502075195,-13.91152000427246,-0.046314001083374,-0.0,-0.0,-1.0,0.0238339563795011,1.0
31.079910278320312,-11.994691848754885,-0.0919554233551025,-0.0,-0.0,-1.0,0.0233543132310091,1.0
31.26403427124023,-13.011999130249023,0.0052762031555175,0.0728641995784882,-0.9567775872347508,0.2815447690599744,0.1038621045578828,4.0
31.1199951171875,-13.200399398803713,-0.0021682977676391,-0.9159259375488322,-0.3987554865475592,0.0455383231302168,0.2215161032218849,4.0
30.999631881713867,-13.682212829589844,-0.0612721443176269,-0.0,-0.0,-1.0,0.0249235125225642,2.0
31.333187103271484,-11.86727809906006,-0.118733525276184,-0.0,-0.0,-1.0,0.051538869752372,1.0
31.473726272583008,-12.86945915222168,-0.0064200162887573,0.2854238018138939,0.1064176279616923,-0.9524749560052012,0.065736853295312,4.0
31.304258346557617,-13.01572608947754,-0.0016018152236938,0.0932598252772201,-0.9530342137203288,0.2881464774515495,0.1273477629172549,5.0
32.003089904785156,-12.934608459472656,-0.1030199527740478,-0.0,-0.0,-1.0,0.0541250911491727,1.0
32.225502014160156,-12.580589294433594,-0.0904498100280761,-0.875100920325925,-0.3583295731749639,-0.3252665003239146,0.0592892627719707,4.0
32.15751647949219,-12.75774383544922,-0.1037105321884155,-0.177888947781891,-0.9792777919063972,0.0968014903603384,0.1064018026739182,3.0
32.418312072753906,-14.128708839416504,0.0180178880691528,-0.0,-0.0,-1.0,0.0777872757416473,2.0
32.60389709472656,-14.247095108032228,-0.022161841392517,-0.0,-0.0,-1.0,0.080979096087116,2.0
30.64905548095703,-12.21967601776123,-0.1076918840408325,0.029562193993123,0.911050577087045,-0.4112334162925917,0.0324144133734206,3.0
30.389890670776367,-12.4442138671875,-0.0989120006561279,-0.0,-0.0,-1.0,0.0448926175707099,1.0
30.26673126220703,-13.714859008789062,-0.0623989105224609,-0.0,-0.0,-1.0,0.0220376561229795,2.0
30.81633758544922,-12.070026397705078,-0.1152187585830688,0.731414757605529,-0.6328076791459698,-0.2541395159567613,0.0590090385047323,3.0
30.63446998596191,-13.022916793823242,0.0064150094985961,0.75430522683267,-0.5493012024221112,0.3595717088294587,0.0951077824562837,3.0
30.703405380249023,-13.43743133544922,-0.0816010236740112,-0.0,-0.0,-1.0,0.028465673273002,1.0
30.50905418395996,-13.630340576171877,-0.0852761268615722,-0.0,-0.0,-1.0,0.0207377855909319,1.0
31.341304779052734,-12.773500442504885,-0.0801674127578735,-0.0,-0.0,-1.0,0.0397046604495337,1.0
31.127582550048828,-13.00044059753418,-0.0786987543106079,-0.0,-0.0,-1.0,0.088402124373751,1.0
30.992067337036133,-13.23456573486328,-0.0951400995254516,0.6666835903813956,-0.3891897114487924,-0.6356605688719231,0.2047273686028285,3.0
30.998674392700195,-14.322677612304688,0.0189940929412841,-0.0,-0.0,-1.0,0.0870728181656751,1.0
31.88536834716797,-12.458335876464844,-0.1373162269592285,-0.0,-0.0,-1.0,0.0518361905879741,2.0
31.637678146362305,-12.619195938110352,-0.1128714084625244,-0.0,-0.0,-1.0,0.0545342152599141,1.0
31.53660011291504,-13.90810775756836,0.0033981800079345,0.6547171145864512,-0.0324007692769112,-0.7551792436354804,0.0815531066061402,3.0
31.30681610107422,-14.19538402557373,-0.0059064626693725,-0.2892383865128192,-0.5710000900565423,-0.76830986777659,0.0413565167326118,3.0
31.97886085510254,-12.401674270629885,-0.1479181051254272,-0.0,-0.0,-1.0,0.0457712112446705,1.0
31.842144012451172,-13.912761688232422,-0.0452990531921386,-0.0,-0.0,-1.0,0.0361654131974295,2.0
31.59198951721191,-14.137825012207031,-0.0399216413497924,-0.0,-0.0,-1.0,0.0846183573671115,2.0
32.31426239013672,-13.664596557617188,-0.0867317914962768,-0.0,-0.0,-1.0,0.0296065271101814,1.0
32.09215545654297,-13.861127853393556,-0.0778884887695312,-0.0,-0.0,-1.0,0.0387031746135235,1.0
32.68516540527344,-13.32532024383545,-0.1040848493576049,-0.0,-0.0,-1.0,0.1082800077525881,2.0
32.49929428100586,-13.517535209655762,-0.0975255966186523,-0.0,-0.0,-1.0,0.0868388091629413,2.0
30.291412353515625,-13.357547760009766,0.2746930122375488,-0.0,-0.0,-1.0,0.1015138241195111,1.0
31.067123413085938,-13.996816635131836,0.3643862009048462,-0.3115038900827618,0.9487373012091492,0.053505698366503,0.0564952243699052,3.0
30.44032859802246,-12.285168647766112,-0.1024078130722045,-0.0,-0.0,-1.0,0.0349509805795681,1.0
30.283397674560547,-12.413046836853027,-0.0879358053207397,-0.0,-0.0,-1.0,0.0411531009168757,2.0
30.84117317199707,-13.015491485595703,-0.0838475227355957,-0.0,-0.0,-1.0,0.0668610323722851,2.0
30.42026138305664,-13.45460605621338,-0.0749204158782959,-0.0,-0.0,-1.0,0.0210275170676574,1.0
30.258514404296875,-13.60456657409668,-0.0707815885543823,-0.0,-0.0,-1.0,0.0756473292833104,1.0
30.92858123779297,-12.876180648803713,-0.079138159751892,-0.0,-0.0,-1.0,0.0379420808848272,1.0
30.880273818969727,-12.983509063720703,-0.0868505239486694,0.1961186402613074,-0.0113852326038303,-0.9805140771149656,0.0676596919459094,4.0
30.892202377319336,-12.81512451171875,-0.0604931116104126,-0.0,-0.0,-1.0,0.0368417150070623,2.0
30.527687072753903,-13.026723861694336,-0.0181056261062622,-0.0,-0.0,-1.0,0.1141430420174714,2.0
31.13852882385254,-12.893665313720703,0.0064377784729003,-0.0,-0.0,-1.0,0.0639641441175894,2.0
31.1568546295166,-13.18268585205078,0.088140845298767,-0.0181175391307595,-0.3890481239995093,-0.9210392564860131,0.1104484016036616,5.0
30.85867500305176,-14.14987087249756,-0.0078977346420288,-0.0,-0.0,-1.0,0.088046464908121,2.0
31.3468017578125,-13.040881156921388,0.0717295408248901,-0.0319764580985961,-0.4270340021926018,-0.9036699990034184,0.1450106226853214,3.0
31.27340507507324,-13.09648609161377,0.0781583786010742,-0.0,-0.0,-1.0,0.1195075628327666,2.0
31.269441604614254,-13.76392650604248,-0.0213581323623657,-0.8400429710167083,-0.5220940592944305,-0.1474638942076514,0.0401080733952741,3.0
31.037458419799805,-14.013818740844728,-0.0179013013839721,-0.0,-0.0,-1.0,0.1262844864717798,1.0
32.46007537841797,-14.252538681030272,0.0054727792739868,-0.0,-0.0,-1.0,0.0952293888220304,1.0
32.64238739013672,-14.25322151184082,-0.0252225399017334,-0.0,-0.0,-1.0,0.0809754492699274,2.0
30.937610626220703,-12.062222480773926,-0.1074628829956054,-0.0,-0.0,-1.0,0.0522029898652097,1.0
30.469715118408203,-12.419095993041992,-0.1051254272460937,-0.0,-0.0,-1.0,0.0382852692834182,1.0
30.480926513671875,-12.53627872467041,-0.1135677099227905,-0.0,-0.0,-1.0,0.0440653091182455,1.0
31.538314819335938,-11.995951652526855,-0.1129630804061889,-0.0,-0.0,-1.0,0.1064523448274516,2.0
30.47130966186523,-12.724371910095217,-0.1201446056365966,-0.0,-0.0,-1.0,0.048986489662567,1.0
32.027923583984375,-11.89055347442627,0.067528486251831,-0.0,-0.0,-1.0,0.0597276346910654,2.0
31.60858917236328,-12.31044578552246,-0.1397892236709594,-0.0,-0.0,-1.0,0.0945975361958844,1.0
30.84646987915039,-11.87306022644043,-0.0844653844833374,-0.0,-0.0,-1.0,0.021600847573732,1.0
30.80768585205078,-12.095539093017578,-0.0765918493270874,0.3586764640428122,-0.7821736087050164,-0.5094660341839454,0.0536960085865643,5.0
30.7716007232666,-12.31596565246582,-0.0706919431686401,-0.087456620578068,0.4511771647072121,-0.8881387873321517,0.033820568922937,3.0
30.762121200561523,-12.533608436584473,-0.0724769830703735,-0.0,-0.0,-1.0,0.0212565168618011,1.0
31.64187240600586,-11.905556678771973,0.0326367616653442,-0.0,-0.0,-1.0,0.1199350932048559,1.0
32.450340270996094,-12.00285816192627,-0.142276644706726,-0.0,-0.0,-1.0,0.0459396066455206,2.0
32.13630676269531,-12.419814109802246,-0.082701563835144,-0.9247522726325396,0.118055574947351,-0.3617956819598649,0.0305120265533988,4.0
32.45261764526367,-12.179667472839355,-0.1458224058151245,-0.0,-0.0,-1.0,0.0437367578159464,1.0
32.28681182861328,-12.347020149230955,-0.113493800163269,-0.0,-0.0,-1.0,0.0128890779017716,1.0
31.268421173095703,-11.90672779083252,-0.1088390350341796,-0.0,-0.0,-1.0,0.0495172679432563,1.0
31.143159866333008,-12.22182559967041,-0.0676541328430175,-0.0,-0.0,-1.0,0.0429901779974607,2.0
31.234085083007812,-12.051839828491213,-0.0752930641174316,-0.0,-0.0,-1.0,0.0220857520089216,2.0
31.09891128540039,-12.415841102600098,-0.0298972129821777,-0.0,-0.0,-1.0,0.0772290200353092,2.0
31.066370010375977,-12.658607482910156,-0.0145061016082763,-0.0,-0.0,-1.0,0.0434691156486514,1.0
31.119539260864254,-12.878473281860352,-0.0217006206512451,-0.0,-0.0,-1.0,0.0562372853293436,2.0
30.368553161621097,-14.349499702453612,-0.0448455810546875,-0.7022580053698418,-0.3109274521173185,-0.6404356434598278,0.0551729397927711,3.0
31.17900657653809,-14.282585144042969,0.0463089942932128,-0.741316945340103,0.2806754771787825,-0.6096478188774906,0.1027053878266495,3.0
