x,y,z,nx,ny,nz,curvature,density
10.096298217773438,-7.466206073760986,0.4850047826766968,-0.2329407601886044,-0.6213598709200633,-0.7480979301220917,0.2627243976555695,5.0
9.900251388549805,-7.403012275695801,0.480549156665802,-0.0,-0.0,-1.0,0.1241387141240541,1.0
10.300348281860352,-8.237390518188477,0.4756765961647033,0.4203717861692979,0.4597022629998138,-0.7822796116387569,0.0991453565725123,4.0
10.152019500732422,-7.432385444641113,1.368051052093506,-0.6183715113213722,0.4629284682302207,-0.6350700018802208,0.0564875838790061,5.0
9.72511863708496,-7.003466606140137,0.4510430097579956,-0.0,-0.0,-1.0,0.1815030039266904,2.0
10.036046981811523,-6.6746416091918945,0.440414547920227,-0.0,-0.0,-1.0,0.1808669056170736,2.0
9.839052200317385,-6.760682106018066,0.4383872747421264,-0.0,-0.0,-1.0,0.2171921835859189,1.0
10.015762329101562,-6.832167148590088,0.4510151147842407,0.3329910182502946,-0.8844769411766298,-0.326829500338425,0.1716583049613028,3.0
10.835531234741213,-6.872821807861328,0.4884771108627319,-0.6358759243217046,-0.4646724481868602,-0.6162315512565449,0.22845040085299,4.0
10.096376419067385,-7.529339790344238,0.5030111074447632,-0.9470223497366954,-0.1534574027143797,-0.2821338240114871,0.1934310192268135,10.0
9.984066009521484,-6.829917907714844,0.5358272790908813,-0.1363009603532514,-0.0398972818056906,-0.98986375583274,0.1696134880077801,4.0
9.759357452392578,-6.996595859527588,0.5196640491485596,-0.0,-0.0,-1.0,0.1707025643886162,1.0
10.08651351928711,-7.367398738861084,1.29583740234375,-0.0,-0.0,-1.0,0.1336462707688833,1.0
11.696596145629885,-7.17364501953125,1.2081242799758911,-0.0,-0.0,-1.0,0.1215511968478817,1.0
10.011369705200195,-6.923914909362793,1.945358395576477,-0.0,-0.0,-1.0,0.0526521524858512,1.0
10.644405364990234,-6.485556125640869,1.0753531455993652,-0.0,-0.0,-1.0,0.1532203056278553,1.0
9.851314544677734,-6.425485610961914,1.0686417818069458,-0.0,-0.0,-1.0,0.1416669533165984,1.0
9.766902923583984,-7.24395227432251,1.12479829788208,-0.0,-0.0,-1.0,0.073235873220566,1.0
11.305950164794922,-6.718486309051514,0.4234848022460937,-0.6828692564512705,0.704466848389397,0.1934322571703061,0.048901121910161,4.0
11.214933395385742,-6.826968193054199,0.4227536916732788,-0.0,-0.0,-1.0,0.0693849566291762,1.0
10.104183197021484,-7.441461086273193,1.1425124406814575,-0.2318019618526273,0.2081272338005642,-0.9502372888030644,0.1280987185706956,5.0
11.676603317260742,-6.846577167510986,0.3705343008041382,-0.0,-0.0,-1.0,0.0284687326275218,2.0
11.339885711669922,-6.36500358581543,0.3316329717636108,-0.0,-0.0,-1.0,0.1544165563759309,1.0
10.022371292114258,-6.8099870681762695,0.5200873613357544,0.3655879178784676,-0.9169975882538832,-0.1595647123829342,0.2258914056934439,4.0
10.002630233764648,-7.490804672241211,0.5611458420753479,-0.0,-0.0,-1.0,0.1733701158954267,1.0
11.448854446411133,-6.695358753204346,0.3682780265808105,-0.0,-0.0,-1.0,0.0429225623430358,1.0
11.413618087768556,-6.460504531860352,0.3515042066574096,-0.0,-0.0,-1.0,0.0756451400449293,1.0
10.409692764282228,-8.259649276733398,0.4098913669586181,-0.83655699853281,0.5445481609413485,-0.0603298319338905,0.1032143146808342,3.0
10.189859390258787,-8.307351112365723,0.3980376720428467,-0.0,-0.0,-1.0,0.0997244764220082,2.0
10.249637603759766,-7.681543827056885,1.0559974908828735,-0.0,-0.0,-1.0,0.127577255581032,1.0
11.631754875183104,-7.088688373565674,0.391492486000061,-0.0,-0.0,-1.0,0.0206722092024701,2.0
11.52739429473877,-6.952264308929443,0.3833022117614746,-0.0,-0.0,-1.0,0.0436790261481414,1.0
11.33541202545166,-6.616461277008057,0.3672166466712951,-0.7021675240145546,-0.2281867087730698,-0.674456517618878,0.0323441154664474,3.0
10.249757766723633,-7.662654399871826,0.9811654090881348,-0.0,-0.0,-1.0,0.0855426108442422,1.0
11.66380786895752,-8.130090713500977,0.5428438782691956,-0.0,-0.0,-1.0,0.1487642142407682,2.0
10.631950378417969,-8.346794128417969,0.4746469855308532,-0.0,-0.0,-1.0,0.0892480044596776,1.0
10.481125831604004,-8.237361907958984,0.462262749671936,-0.0,-0.0,-1.0,0.1031838975656021,1.0
11.468225479125977,-7.155185699462891,0.3550984263420105,-0.0,-0.0,-1.0,0.0336885164289223,1.0
11.092087745666504,-7.258081436157227,0.3363531827926636,-0.0,-0.0,-1.0,0.1386089843589059,1.0
11.023018836975098,-7.884563446044922,0.3223000764846802,-0.0,-0.0,-1.0,0.0947580147828204,1.0
10.3732328414917,-7.54598331451416,0.4454739093780517,-0.0,-0.0,-1.0,0.1694668338359492,2.0
10.269067764282228,-8.076094627380371,0.4374113082885742,-0.128733093701174,0.9861795762858708,0.1042958959055642,0.064228750856674,4.0
10.231189727783203,-7.51130485534668,1.1932562589645386,-0.0,-0.0,-1.0,0.0982597412945642,1.0
9.799726486206056,-6.716686248779297,1.0042372941970823,-0.0,-0.0,-1.0,0.1049800009038738,1.0
10.258657455444336,-6.433441162109375,0.2963601350784302,-0.0,-0.0,-1.0,0.1640607421742404,1.0
10.668974876403809,-6.581724166870117,0.2478539943695068,-0.0,-0.0,-1.0,0.0454540135423108,1.0
10.033031463623049,-6.727731704711914,0.3018900156021118,-0.0,-0.0,-1.0,0.2106651682009432,1.0
9.924992561340332,-6.838739395141602,0.3062328100204468,-0.0,-0.0,-1.0,0.137051856176214,1.0
10.402523040771484,-7.516107559204102,0.7335849404335022,-0.0,-0.0,-1.0,0.1546500694895496,1.0
9.989965438842772,-6.705606460571289,0.3623132705688476,-0.0,-0.0,-1.0,0.177307574315728,1.0
9.853022575378418,-7.011171340942383,0.3590695261955261,-0.0,-0.0,-1.0,0.222066047877375,1.0
10.753435134887695,-6.672340393066406,0.2895665764808655,-0.0,-0.0,-1.0,0.0393413794929821,1.0
10.601613998413086,-6.827425003051758,0.2960010766983032,-0.0,-0.0,-1.0,0.0559082531097822,1.0
10.385052680969238,-7.498682022094727,1.1510579586029053,-0.0,-0.0,-1.0,0.138467566100874,1.0
9.955345153808594,-6.634185791015625,0.325616180896759,-0.0,-0.0,-1.0,0.1487419476862114,2.0
10.648969650268556,-6.637819290161133,0.296058714389801,-0.0,-0.0,-1.0,0.0459092849105238,1.0
10.513110160827637,-6.74052619934082,0.2969840764999389,-0.0,-0.0,-1.0,0.0486116077758805,1.0
10.263214111328123,-6.714845657348633,1.1259766817092896,-0.0,-0.0,-1.0,0.1378490246919777,1.0
10.000326156616213,-7.492336273193359,0.9672448635101318,-0.0,-0.0,-1.0,0.1561318815768101,1.0
10.732219696044922,-7.219415664672852,0.8960322141647339,-0.0,-0.0,-1.0,0.1323919128127323,1.0
9.820096015930176,-6.462313652038574,0.4821406602859497,-0.0,-0.0,-1.0,0.2127063331241202,1.0
10.217272758483888,-6.659340858459473,0.4395049810409546,-0.0,-0.0,-1.0,0.1434929985287574,1.0
9.976158142089844,-7.524426460266113,1.17974054813385,-0.0,-0.0,-1.0,0.1217841757533321,1.0
10.018125534057615,-6.514647483825684,1.1967796087265017,-0.0,-0.0,-1.0,0.1594926974965914,1.0
9.90146827697754,-6.736453056335449,1.202304720878601,-0.0,-0.0,-1.0,0.1049047635326891,1.0
10.12745475769043,-7.393852233886719,0.4580750465393066,-0.0,-0.0,-1.0,0.2188938899768577,1.0
10.30824851989746,-7.669927597045898,0.4405078887939453,-0.0,-0.0,-1.0,0.1474032824864714,2.0
9.936330795288086,-6.8752899169921875,0.4866080284118652,0.3126052209289767,-0.9496792518880496,0.0196797962717962,0.1837512052243129,6.0
10.163339614868164,-7.2307281494140625,0.46438729763031,-0.0,-0.0,-1.0,0.1096018897351173,1.0
10.62590217590332,-7.582338333129883,0.4352263212203979,-0.0,-0.0,-1.0,0.0577120915724752,2.0
10.066638946533203,-7.548167228698731,0.6072872877120972,-0.0,-0.0,-1.0,0.1596696678177045,2.0
9.951048851013184,-6.85887336730957,0.575080156326294,-0.6335486999175238,-0.7331342614554478,0.2472452214158862,0.2095364605205361,3.0
11.666109085083008,-8.0738525390625,0.4395319819450378,0.2785002803455622,0.8813296675916742,-0.3817009442877923,0.1441613253831539,3.0
10.19032096862793,-6.430421829223633,0.5876463651657104,-0.0,-0.0,-1.0,0.1865467865258543,2.0
10.185656547546388,-7.4232892990112305,1.461674690246582,-0.5859195466656433,0.5968874882881906,-0.5481091234053141,0.1837344872844635,3.0
9.890280723571776,-6.867104530334473,0.6556742191314697,-0.0,-0.0,-1.0,0.2019267958895414,1.0
9.935331344604492,-6.881228446960449,0.7456711530685425,-0.0,-0.0,-1.0,0.1670587018933924,2.0
10.300907135009766,-8.093570709228516,0.3914313912391662,-0.0,-0.0,-1.0,0.0780179749589129,1.0
10.739982604980469,-8.27075481414795,0.3898888826370239,-0.0,-0.0,-1.0,0.0590393621520504,2.0
10.946924209594728,-7.103370666503906,0.4430152177810669,-0.0,-0.0,-1.0,0.2009721936299807,1.0
9.79110050201416,-6.880709648132324,0.6558035016059875,-0.0,-0.0,-1.0,0.1871429484776747,1.0
9.952350616455078,-7.4129638671875,1.3233332633972168,-0.0,-0.0,-1.0,0.1168581322157345,1.0
11.376437187194824,-6.498746395111084,0.3469281792640686,-0.0,-0.0,-1.0,0.056576516713555,1.0
11.630743980407717,-6.756213665008545,0.347836971282959,-0.0,-0.0,-1.0,0.0413997324203747,1.0
9.746886253356934,-7.284051418304443,0.9270442724227904,-0.0,-0.0,-1.0,0.0678546173702487,1.0
10.068020820617676,-7.484583854675293,0.7907357215881348,0.0740613014544835,-0.6545150115341911,-0.7524128011293175,0.1527164152573505,4.0
11.257367134094238,-6.544046878814697,0.3556774854660034,-0.0,-0.0,-1.0,0.0799849730937365,1.0
11.687355041503906,-6.875558376312256,0.3437604904174804,-0.0,-0.0,-1.0,0.033152504811883,2.0
10.0180025100708,-7.433401584625244,0.8899223804473877,0.5216373711984293,-0.2653739348670518,-0.8108459333698171,0.1711197492734935,5.0
9.974786758422852,-6.859347343444824,0.7790026068687439,-0.1313803894576925,-0.8952824108902705,0.4256860322073651,0.1701883541856058,5.0
10.165630340576172,-7.453069686889648,1.3477773666381836,-0.9197055447431532,-0.149961742685248,-0.3628404424805806,0.0643763083578834,5.0
10.188080787658691,-6.394937038421631,0.6192218065261841,-0.0,-0.0,-1.0,0.1524072044363831,2.0
10.009469985961914,-6.847949504852295,0.5903500318527222,-0.0,-0.0,-1.0,0.1169788757838388,1.0
10.087968826293944,-7.533644199371338,0.5502336621284485,0.8930849190371843,-0.3070784673569952,-0.3287889022975453,0.2424701996415734,8.0
10.734264373779297,-8.304513931274414,0.5084039568901062,-0.0,-0.0,-1.0,0.0846269416955153,1.0
10.120049476623535,-6.583915710449219,1.1693084239959717,-0.0657329098508934,0.0512775631051927,-0.9965188388006152,0.2038684192232544,4.0
10.077665328979492,-7.463877201080322,1.1333320140838623,-0.8248589267070965,-0.5440219327052442,-0.1537786973779781,0.1927501743611296,6.0
9.949382781982422,-6.8346266746521,0.5305813550949097,-0.2527242014675728,-0.5595548005348846,0.7893217995158524,0.229548721396382,5.0
10.053008079528809,-7.465481758117676,0.5069388151168823,-0.3545585529778081,-0.6558753654628191,-0.6664200908505808,0.1738187478964792,4.0
10.33602523803711,-8.265639305114746,0.4775787591934204,-0.0,-0.0,-1.0,0.1053988725885121,2.0
10.953944206237791,-7.106605529785156,0.5531985759735107,-0.989311893332566,-0.1433482934083041,0.0267066375206714,0.1643319825421509,3.0
10.042805671691896,-6.738485336303711,1.0927200317382812,-0.5539710985341422,-0.3439255009225655,-0.7581762801644735,0.1284228966138437,4.0
9.749191284179688,-7.512389183044434,0.482534646987915,-0.0,-0.0,-1.0,0.0410475025643236,1.0
9.776215553283691,-8.131543159484863,0.4522039890289306,-0.0,-0.0,-1.0,0.0775068869729823,2.0
9.740677833557127,-6.668506622314453,0.5217677354812622,-0.0,-0.0,-1.0,0.0900083219628638,1.0
9.802087783813477,-7.273027896881104,0.4978846311569214,-0.0,-0.0,-1.0,0.129175292941695,1.0
9.984256744384766,-6.870316028594971,0.5294468402862549,-0.6918646502313677,-0.7084179749073929,-0.1395251897986018,0.184204369615939,6.0
10.028921127319336,-7.449363708496094,0.5044817924499512,-0.0,-0.0,-1.0,0.1926280422814513,2.0
10.29123878479004,-8.157088279724121,0.4843297004699707,-0.0,-0.0,-1.0,0.0816413711205674,2.0
10.27929401397705,-8.351641654968262,0.4726486206054687,-0.0,-0.0,-1.0,0.0915149031870589,2.0
10.952800750732422,-7.0929059982299805,0.5843732357025146,-0.989311893332566,-0.1433482934083041,0.0267066375206714,0.2053004213448576,3.0
10.043158531188965,-6.731853485107422,1.0932444334030151,-0.0200406376956244,0.0798709399183326,-0.9966037355926954,0.1284228966138437,3.0
11.342448234558104,-6.687563419342041,0.3668314218521118,-0.7294224784222811,0.101450934929362,-0.676498747799473,0.0412049536670007,5.0
11.39455223083496,-6.880767345428467,0.3596550226211548,-0.0,-0.0,-1.0,0.0390089866315107,1.0
9.75620460510254,-6.872988224029541,0.7800167798995972,-0.0,-0.0,-1.0,0.153197350268904,1.0
10.002931594848633,-6.850061416625977,0.794690728187561,-0.4021347275668895,-0.736035221730835,0.544554692621728,0.2253302526557523,6.0
10.070265769958496,-7.465240955352783,0.7687454223632812,-0.7703171474254255,-0.4893435589261682,-0.4088451708407806,0.1242328961605847,6.0
10.217483520507812,-6.576009750366211,0.3684966564178467,-0.0,-0.0,-1.0,0.1296464381720662,2.0
10.304935455322266,-6.827963352203369,0.3746801614761352,-0.0,-0.0,-1.0,0.0724534232924137,1.0
10.351820945739746,-7.25416374206543,0.3736752271652221,-0.0,-0.0,-1.0,0.0436861231894402,1.0
10.449942588806152,-8.197709083557129,0.3629244565963745,-0.0,-0.0,-1.0,0.0987234357208024,2.0
10.59776782989502,-8.354402542114258,0.3717943429946899,-0.0,-0.0,-1.0,0.0892480044596776,1.0
10.291232109069824,-6.63983154296875,0.375022292137146,-0.0,-0.0,-1.0,0.1072172705439552,1.0
10.409781455993652,-6.999932289123535,0.3825019598007202,-0.0,-0.0,-1.0,0.0840527946286027,1.0
10.545708656311035,-7.392810821533203,0.3892117738723755,-0.0,-0.0,-1.0,0.0548155802913955,2.0
10.60121726989746,-7.686302185058594,0.3885523080825805,-0.3004292785555428,0.8520474693048997,-0.4286692881904557,0.045160932332487,3.0
11.067874908447266,-6.786532878875732,0.446280837059021,-0.0,-0.0,-1.0,0.1018712718682134,2.0
11.014321327209473,-7.1153974533081055,0.4367808103561401,-0.0,-0.0,-1.0,0.1077789139515866,1.0
10.03457260131836,-7.446942329406738,0.8989261388778687,0.5216373711984293,-0.2653739348670518,-0.8108459333698171,0.1898454816089854,5.0
10.158230781555176,-7.527190208435059,0.905518651008606,-0.0,-0.0,-1.0,0.1012541538418777,2.0
11.343002319335938,-6.437125205993652,0.3412740230560303,-0.0,-0.0,-1.0,0.1099901243634018,2.0
11.459312438964844,-6.535223007202148,0.3522164821624756,-0.0,-0.0,-1.0,0.0623409927391656,2.0
10.029311180114746,-6.82095193862915,0.7603967189788818,-0.0,-0.0,-1.0,0.2127230322262878,1.0
10.118268013000488,-7.532903671264648,0.760920524597168,0.0348464841204493,-0.1600005765373611,-0.986501666522746,0.1641491271455982,3.0
9.908376693725586,-6.763063907623291,0.4177542924880981,-0.0,-0.0,-1.0,0.1288164761291946,1.0
10.073907852172852,-7.106869220733643,0.42845618724823,-0.0,-0.0,-1.0,0.1370336682426151,1.0
10.080805778503418,-7.358742237091064,0.4256855249404907,-0.0,-0.0,-1.0,0.1522326843337623,1.0
10.072301864624023,-7.867947101593018,0.4165825843811035,-0.0,-0.0,-1.0,0.0298146306911339,2.0
10.12246036529541,-8.201180458068848,0.4144898653030395,-0.0,-0.0,-1.0,0.0394686224123043,2.0
10.10464096069336,-6.709638595581055,0.4355249404907226,-0.0,-0.0,-1.0,0.2251597025520176,2.0
10.147154808044434,-7.031440734863281,0.4358054399490356,-0.0,-0.0,-1.0,0.1407517634792719,1.0
10.193561553955078,-7.481629371643066,0.4337217807769775,-0.2567636052699312,-0.9514506397035928,0.1697472568744797,0.1165178840477605,4.0
10.335100173950195,-8.133113861083984,0.4343239068984985,-0.0,-0.0,-1.0,0.0590315006313337,2.0
10.82137393951416,-6.878719806671143,0.4968822002410888,-0.3703488864989062,-0.6252988219477628,-0.68690835308632,0.2236690027841713,5.0
10.959354400634766,-7.125829696655273,0.5059047937393188,-0.8480362081468525,0.3130893746339351,-0.4275624318894729,0.2120654040861307,3.0
10.022692680358888,-6.802080154418945,0.9919402599334716,-0.0,-0.0,-1.0,0.0749976480494485,2.0
9.758962631225586,-6.870589256286621,0.4777243137359619,-0.0,-0.0,-1.0,0.1955712468523316,1.0
9.819995880126951,-7.321622848510742,0.480410099029541,-0.0,-0.0,-1.0,0.1462373450672171,1.0
10.033561706542969,-6.803941249847412,0.5009827613830566,0.3436995303173538,-0.9343273422753168,-0.0943559766860219,0.15923080177832,3.0
9.895771026611328,-7.259645462036133,0.4871788024902344,-0.0,-0.0,-1.0,0.1298427831480853,1.0
10.106714248657228,-7.470476150512695,0.5032079219818115,0.1019267027498498,-0.7031347835189934,-0.7037133105691848,0.2335033731949968,5.0
10.37766170501709,-6.555047035217285,0.394492506980896,-0.0,-0.0,-1.0,0.0912429551345474,1.0
10.415826797485352,-6.864963054656982,0.3990355730056762,-0.0,-0.0,-1.0,0.104839368595128,2.0
10.381879806518556,-7.218594074249268,0.3960949182510376,-0.0,-0.0,-1.0,0.0528900909688712,1.0
10.582592010498049,-7.403939723968506,0.4145652055740356,-0.0,-0.0,-1.0,0.0496861439998001,2.0
10.602230072021484,-7.672398090362549,0.4154790639877319,-0.4629900014522465,0.6885937058762076,-0.5581030073229488,0.0507306449994198,4.0
10.477537155151367,-8.275131225585938,0.3999313116073608,-0.0,-0.0,-1.0,0.0997064840815462,1.0
10.498923301696776,-8.328097343444824,0.401425838470459,-0.0,-0.0,-1.0,0.0935765374805714,1.0
11.05945873260498,-6.832347869873047,0.4588150978088379,-0.0,-0.0,-1.0,0.0780950357159058,2.0
10.184021949768066,-7.400016307830811,1.4887661933898926,-0.7970340563451392,0.4335023217129777,-0.4204907253382297,0.1837344872844634,3.0
11.636282920837402,-6.693272590637207,0.3054825067520141,-0.0,-0.0,-1.0,0.0481787740585714,1.0
9.940404891967772,-6.8726115226745605,0.6810516119003296,-0.0392976905424081,0.0302736105604272,-0.9987688421359914,0.2003874162650375,3.0
10.08507251739502,-7.482203483581543,0.6871386766433716,-0.0,-0.0,-1.0,0.1091316959741702,2.0
10.892369270324709,-7.216750144958496,0.7495197057723999,-0.0,-0.0,-1.0,0.1270103851057658,2.0
11.249441146850586,-6.598358154296875,0.3608851432800293,-0.0,-0.0,-1.0,0.0564589997253282,2.0
11.170368194580078,-6.861038684844971,0.3575154542922973,-0.0,-0.0,-1.0,0.0582482152237265,2.0
11.06004238128662,-7.12257194519043,0.3503175973892212,-0.0,-0.0,-1.0,0.1250535688631846,2.0
11.657108306884766,-7.966408729553223,0.4209909439086914,-0.0,-0.0,-1.0,0.1684381035565482,1.0
11.439599990844728,-8.190603256225586,0.4000990390777588,-0.0,-0.0,-1.0,0.1098925883633766,1.0
9.96978759765625,-6.707093238830566,0.783738374710083,-0.0,-0.0,-1.0,0.2388644155896928,2.0
10.05880641937256,-7.427348613739014,0.7958807945251465,-0.9322691435811252,-0.0234120441674304,-0.3610070915015624,0.1560529609563923,3.0
10.8207426071167,-7.111081600189209,0.8448748588562012,-0.0,-0.0,-1.0,0.1653966418829369,1.0
10.044203758239746,-7.262996196746826,1.336558818817139,-0.0,-0.0,-1.0,0.1720692806643843,1.0
9.893339157104492,-6.713974475860596,0.6279832124710083,-0.0,-0.0,-1.0,0.0897150154879551,1.0
9.923789024353027,-6.914066314697266,0.6312388181686401,-0.0,-0.0,-1.0,0.1109700258701935,1.0
10.077009201049805,-7.426598072052002,0.6444857120513916,-0.0,-0.0,-1.0,0.135190588845124,2.0
10.12704372406006,-7.492580413818359,0.6485613584518433,-0.0,-0.0,-1.0,0.1000098562740418,2.0
10.978545188903809,-7.061376094818115,0.7177058458328247,-0.0,-0.0,-1.0,0.1343985902630139,2.0
10.098695755004885,-6.6056108474731445,1.179401397705078,-0.0657329098508934,0.0512775631051927,-0.9965188388006152,0.2038684192232543,4.0
10.145010948181152,-7.446351528167725,1.177372694015503,-0.0,-0.0,-1.0,0.1328783071352309,1.0
10.248428344726562,-6.400235176086426,0.5716227293014526,-0.0,-0.0,-1.0,0.1572796023507053,2.0
10.072880744934082,-6.894683837890625,0.5622721910476685,-0.0,-0.0,-1.0,0.1357553893998815,1.0
10.145112991333008,-7.499232292175293,0.57329261302948,0.331100790019027,-0.0606993900352567,-0.94164104142615,0.1606084067107566,4.0
10.16383457183838,-6.759049892425537,1.0938878059387207,-0.0,-0.0,-1.0,0.1436961351925179,1.0
10.083085060119627,-7.435290336608887,1.0887857675552368,-0.0,-0.0,-1.0,0.1345005704286665,2.0
10.128127098083496,-7.500350952148437,1.091052532196045,-0.8299471272447313,-0.3887111590949411,0.400114234654661,0.1525396316961551,4.0
10.012466430664062,-6.963528156280518,0.4445713758468628,-0.0,-0.0,-1.0,0.1193195316104931,1.0
9.843375205993652,-6.957043647766113,0.4285421371459961,-0.0,-0.0,-1.0,0.192580815964607,2.0
9.982515335083008,-7.277620792388916,0.4474012851715088,-0.0,-0.0,-1.0,0.0944394401702616,1.0
9.794686317443848,-7.749922275543213,0.4364349842071533,-0.0,-0.0,-1.0,0.0167250546267079,1.0
10.822797775268556,-6.901554584503174,0.5190502405166626,-0.5163410249983224,-0.3209803233063862,-0.7939543928676317,0.2246199770403674,6.0
9.79766845703125,-7.803757667541504,0.4373549222946167,-0.0,-0.0,-1.0,0.014559162443906,1.0
9.731877326965332,-8.127553939819336,0.4345467090606689,-0.0,-0.0,-1.0,0.0735841959360239,2.0
10.241154670715332,-8.240756034851074,0.4851148128509521,-0.6543439862589994,0.6221639486449535,-0.4298208564660417,0.080990690678489,3.0
10.20968532562256,-7.362485408782959,1.478813886642456,-0.2184262010297565,-0.1078302457595143,-0.9698776380570648,0.1837344872844635,3.0
10.067203521728516,-6.587099075317383,0.4801706075668335,-0.0,-0.0,-1.0,0.1806605679573828,1.0
10.94853973388672,-7.065199375152588,0.5752452611923218,-0.989311893332566,-0.1433482934083041,0.0267066375206714,0.1613128830614278,3.0
10.161087989807127,-7.489357948303223,1.012005090713501,-0.0,-0.0,-1.0,0.1418228131947758,1.0
9.848042488098145,-6.787866592407227,0.4962348937988281,-0.0,-0.0,-1.0,0.1955921364178989,1.0
10.125155448913574,-7.522228240966797,0.5696601867675781,0.4145777888542143,-0.1407165676405183,-0.8990684649014342,0.1675761151420753,8.0
9.902334213256836,-6.779040336608887,0.6280436515808105,-0.5474194733648029,-0.3193997560891755,-0.7735087045348469,0.1730346665462935,3.0
10.05409049987793,-7.407804489135742,0.6830712556838989,-0.0,-0.0,-1.0,0.1443185972392099,2.0
10.180764198303224,-6.527202606201172,1.1462271213531494,-0.0,-0.0,-1.0,0.213497445539579,1.0
10.070395469665527,-7.434441089630127,1.1854811906814575,-0.9365633370206762,-0.1299542418926339,-0.3255165291698816,0.1713207951507173,3.0
9.82673168182373,-7.926147937774658,0.4207370281219482,-0.0,-0.0,-1.0,0.0211395438449313,1.0
10.594719886779783,-6.752566337585449,0.3643219470977783,-0.0,-0.0,-1.0,0.0724045251710863,1.0
10.203128814697266,-7.261423110961914,0.387104868888855,-0.0,-0.0,-1.0,0.0912550037522064,2.0
10.120855331420898,-7.671992778778076,0.4219198226928711,-0.0,-0.0,-1.0,0.1433356154110426,2.0
9.932635307312012,-8.16334342956543,0.4529716968536377,-0.0,-0.0,-1.0,0.0844145288417945,1.0
10.71371841430664,-6.597198486328125,0.3562058210372925,-0.0,-0.0,-1.0,0.0558326593915609,1.0
10.299063682556152,-8.077860832214355,0.4780222177505493,-0.5057192696649722,0.675351605309791,-0.5367944015123629,0.0589611865728891,4.0
11.285386085510254,-6.80394172668457,0.4241738319396972,-0.0,-0.0,-1.0,0.0568893818069919,1.0
10.01834774017334,-6.823530197143555,0.8475964069366455,0.489664038393562,-0.6077761554506136,-0.6251697964311618,0.2172094972286684,4.0
10.047245025634766,-7.427574157714844,0.9001296758651733,0.5216373711984293,-0.2653739348670518,-0.8108459333698171,0.1656350744395037,5.0
9.843597412109377,-8.173999786376953,0.3999769687652588,-0.0,-0.0,-1.0,0.0848550825158751,1.0
10.183342933654783,-7.560314178466797,0.3346211910247803,-0.0,-0.0,-1.0,0.149989062957506,1.0
9.9639253616333,-8.015310287475586,0.386432409286499,-0.0,-0.0,-1.0,0.0200792938888908,1.0
10.316800117492676,-7.320388793945312,0.3071503639221191,-0.0,-0.0,-1.0,0.0666883474654874,1.0
10.980266571044922,-7.277745246887207,0.3485605716705322,-0.0,-0.0,-1.0,0.1251712057317297,1.0
10.918485641479492,-7.532228469848633,0.3856050968170166,-0.0,-0.0,-1.0,0.0318447678151451,1.0
11.186327934265137,-6.977296829223633,0.3125839233398437,-0.0,-0.0,-1.0,0.0414641906824717,1.0
11.132545471191406,-7.184234619140625,0.3436782360076904,-0.0,-0.0,-1.0,0.1339124506826529,1.0
9.824418067932127,-7.145569801330566,0.786908745765686,-0.0,-0.0,-1.0,0.1653853111709975,1.0
9.897705078125,-7.8583173751831055,0.8848440647125244,-0.0,-0.0,-1.0,0.1159285790142416,1.0
10.059843063354492,-6.5736284255981445,0.7187705039978027,-0.0,-0.0,-1.0,0.1603243712446645,1.0
9.974329948425291,-7.849472045898437,0.8876984119415283,-0.0,-0.0,-1.0,0.2075629687009411,1.0
10.933154106140137,-7.694882392883301,0.4128553867340088,-0.0,-0.0,-1.0,0.0498544391056713,1.0
11.559303283691406,-8.344719886779785,0.5631182193756104,-0.0,-0.0,-1.0,0.1072459425085792,1.0
10.71119785308838,-7.532792091369629,0.881733775138855,-0.0,-0.0,-1.0,0.1165585011870705,1.0
10.138755798339844,-7.448823928833008,0.9435596466064452,-0.0,-0.0,-1.0,0.1387708241949518,2.0
10.004898071289062,-6.737201690673828,1.041627287864685,-0.0,-0.0,-1.0,0.1149722379390235,2.0
10.129179000854492,-7.439847946166992,1.0695221424102783,-0.0,-0.0,-1.0,0.1292583712975597,2.0
9.918134689331056,-6.911710739135742,0.5210978984832764,-0.7913841691607979,-0.2958820220628569,0.5349438529618493,0.1789623816160118,4.0
10.120634078979492,-7.447221755981445,0.5682837963104248,0.013402306993626,0.0961554025794985,-0.995276100748945,0.1785289158173842,3.0
10.158018112182615,-7.598604202270508,0.5800158977508545,-0.0,-0.0,-1.0,0.1072132016418265,1.0
10.114425659179688,-6.601457595825195,0.4971332550048828,-0.0,-0.0,-1.0,0.2075125352674789,2.0
10.050901412963867,-6.666053771972656,0.4964826107025146,-0.0,-0.0,-1.0,0.1448763131111102,2.0
9.904544830322266,-6.954042434692383,0.5038206577301025,-0.9486051580608922,0.3153503284458447,-0.0265032912931074,0.2129453654293318,3.0
10.838516235351562,-7.188093185424805,0.5915031433105469,-0.0,-0.0,-1.0,0.216099031045458,1.0
10.15226936340332,-6.594425201416016,0.5103707313537598,-0.0,-0.0,-1.0,0.1796947205923528,2.0
9.92146110534668,-6.862022399902344,0.5112588405609131,-0.4073111172219436,0.7252219141077694,-0.555113347961725,0.2358297340174154,5.0
10.133541107177734,-7.454385757446289,0.567765474319458,0.1803862980419531,0.024988431274144,-0.9832783745110928,0.1812989658971291,5.0
10.023900985717772,-6.846673965454102,0.694516658782959,-0.1031918091304896,-0.4993185761238308,0.8602513644662512,0.1282043561979414,3.0
9.980250358581545,-6.882959365844727,0.6328873634338379,-0.4504248931302763,-0.3215138173259912,0.8329143298785587,0.1971867856649877,3.0
10.204278945922852,-7.550525665283203,0.716529369354248,-0.0,-0.0,-1.0,0.138324509611229,1.0
11.123900413513184,-6.832857131958008,0.4588627815246582,-0.0,-0.0,-1.0,0.0902668910046951,1.0
10.43608570098877,-6.663116455078125,0.3854627609252929,-0.0,-0.0,-1.0,0.051455351758479,1.0
10.447056770324709,-6.957830429077148,0.4092850685119629,-0.0,-0.0,-1.0,0.1024445296387731,1.0
10.23656940460205,-7.4914398193359375,0.431131362915039,-0.0,-0.0,-1.0,0.2272193985218178,2.0
11.650574684143066,-8.04350471496582,0.6000103950500488,0.6287688984244266,-0.0866691783953741,-0.7727471293317133,0.1637564782705386,5.0
10.129865646362305,-7.515998840332031,1.256194233894348,-0.7484173466611268,-0.1084145740265557,0.6543070803188357,0.1113890590870251,3.0
10.221251487731934,-6.942958831787109,0.4276645183563232,-0.0,-0.0,-1.0,0.1280768098428153,1.0
10.091479301452637,-7.171937942504883,0.4361402988433838,-0.0,-0.0,-1.0,0.1512599179645882,1.0
10.137208938598633,-7.566753387451172,0.4725208282470703,-0.4765196165878393,-0.8012400612080819,-0.3618610497445769,0.1811753596850954,5.0
9.925152778625488,-7.6208343505859375,0.4592761993408203,-0.0,-0.0,-1.0,0.072434802578877,1.0
10.96032428741455,-7.210500717163086,0.5094075202941895,-0.9928917979435944,-0.0310508634074023,0.1148987443708261,0.1510616830039472,3.0
10.157114028930664,-7.541296005249023,1.283170223236084,-0.0,-0.0,-1.0,0.0985282379856996,2.0
10.060391426086426,-7.361055374145508,0.9864621162414552,-0.0,-0.0,-1.0,0.1076003622590617,1.0
11.348196029663086,-7.03913688659668,0.2755284309387207,-0.0,-0.0,-1.0,0.0381876583786939,1.0
11.478947639465332,-8.116439819335938,0.4002416133880615,-0.0,-0.0,-1.0,0.104552991154173,1.0
11.136310577392578,-7.118196487426758,0.2648518085479736,-0.0,-0.0,-1.0,0.0910279351703808,1.0
10.941548347473145,-7.849864959716797,0.3234994411468506,-0.0,-0.0,-1.0,0.0951441366712774,1.0
10.553423881530762,-7.815471649169922,0.2841320037841797,-0.0,-0.0,-1.0,0.0443798514707444,1.0
10.406105041503906,-8.338422775268555,0.3238489627838135,-0.0,-0.0,-1.0,0.1089053039641818,1.0
10.401083946228027,-7.982200622558594,0.2870521545410156,-0.0,-0.0,-1.0,0.071285818068566,1.0
10.95543384552002,-7.156591415405273,0.4911551475524902,-0.8480362081468525,0.3130893746339351,-0.4275624318894729,0.1719030433243774,3.0
10.908958435058594,-6.897745132446289,0.4622678756713867,-0.0,-0.0,-1.0,0.1447915634959685,1.0
10.182281494140623,-6.870197296142578,0.3879554271697998,-0.0,-0.0,-1.0,0.1278505137337878,1.0
10.088157653808594,-7.573400497436523,0.443244457244873,-0.0,-0.0,-1.0,0.2015574577344795,2.0
10.056928634643556,-7.202505111694336,0.4060630798339844,-0.0,-0.0,-1.0,0.0818867240422897,1.0
10.01834487915039,-7.074012756347656,0.3903725147247314,-0.0,-0.0,-1.0,0.1137915853788254,1.0
9.838645935058594,-7.660810470581055,0.4257736206054687,-0.0,-0.0,-1.0,0.030943410086051,1.0
10.057960510253906,-6.781032562255859,1.1032109260559082,-0.5814060176813477,-0.6134100161040736,-0.5345046255619466,0.1048794394517289,7.0
10.101943016052246,-6.467924118041992,1.086522102355957,-0.0,-0.0,-1.0,0.2558296402212224,1.0
10.15661907196045,-7.511192321777344,1.157679557800293,-0.0,-0.0,-1.0,0.1180049583059032,1.0
9.998069763183594,-7.414649963378906,1.1389222145080566,-0.0,-0.0,-1.0,0.1857483494978591,2.0
10.116174697875977,-7.51267147064209,0.8477232456207275,-0.0,-0.0,-1.0,0.1477584161185802,2.0
9.995454788208008,-6.74334716796875,0.7730963230133057,-0.3356801721941221,0.0386209558889155,-0.9411839585128674,0.2451391352635225,3.0
11.565702438354492,-7.495923042297363,0.3455424308776855,-0.0,-0.0,-1.0,0.0111787482471479,2.0
11.218337059020996,-7.694128036499023,0.3327674865722656,-0.0,-0.0,-1.0,0.0240544173114144,1.0
11.07301902770996,-7.972909927368164,0.3506093025207519,-0.0,-0.0,-1.0,0.0586942053361101,2.0
10.74780559539795,-8.135321617126465,0.3341870307922363,-0.0,-0.0,-1.0,0.0641677085053231,2.0
10.163454055786133,-7.47868537902832,0.8420615196228027,-0.0,-0.0,-1.0,0.2031110813138708,1.0
9.99394702911377,-6.860620498657227,0.7707321643829346,-0.4580475335639524,-0.406208579045433,0.790687705295757,0.1624088694881892,5.0
10.09360408782959,-7.499869346618652,0.5249147415161133,-0.9939513519128076,0.0985402026538411,-0.0484823523732305,0.2286708194274648,10.0
9.976763725280762,-6.847176551818848,0.4519002437591553,0.2607777919826021,-0.9371087213303222,-0.2319960939656678,0.2470069791210823,4.0
10.085289001464844,-6.639143943786621,0.4466631412506103,0.0535508345783469,-0.8216053391576466,-0.5675358797323841,0.2113131126082227,3.0
9.768223762512209,-6.990340232849121,0.4383363723754883,-0.0,-0.0,-1.0,0.2158534709660734,2.0
10.097843170166016,-7.487692832946777,1.1417121887207031,-0.2318019618526273,0.2081272338005642,-0.9502372888030644,0.1232186923919114,5.0
10.116283416748049,-7.497018814086914,0.673220157623291,-0.5275667308602738,-0.7656568619169498,-0.3680256978648258,0.0976812193062203,3.0
9.956668853759766,-6.856785774230957,0.5956711769104004,-0.6335486999175238,-0.7331342614554478,0.2472452214158862,0.1685714581823337,3.0
10.127867698669434,-7.486424446105957,1.258809208869934,-0.9959986748918608,-0.0615579406582171,-0.0647862605463274,0.1209005891193255,3.0
11.391911506652832,-7.288005828857422,0.3561716079711914,-0.0,-0.0,-1.0,0.0221271332699275,1.0
11.655924797058104,-6.963441848754883,0.3519685268402099,-0.0,-0.0,-1.0,0.0288405329459314,2.0
11.15375518798828,-7.917706489562988,0.3998532295227051,-0.0,-0.0,-1.0,0.0342130979935851,1.0
11.139859199523926,-7.769392967224121,0.3795826435089111,-0.0,-0.0,-1.0,0.037004087614353,1.0
11.285222053527832,-7.417392730712891,0.3571624755859375,-0.0,-0.0,-1.0,0.0184171716948081,1.0
10.755538940429688,-8.051186561584473,0.3565230369567871,-0.0,-0.0,-1.0,0.0745245259909472,2.0
9.806812286376951,-6.683920860290527,0.6411221027374268,-0.0,-0.0,-1.0,0.1021245957459246,1.0
10.110553741455078,-7.511054992675781,0.7571043968200684,0.1043337296874045,0.4678982959152354,-0.877602220558457,0.1346889973730694,4.0
9.9811372756958,-6.863309860229492,0.6797308921813965,0.0772264445968716,-0.9812578010217478,0.1765480223307253,0.184836109746636,6.0
11.016778945922852,-6.769776344299316,0.4582729339599609,-0.0,-0.0,-1.0,0.0898484836130478,1.0
10.991087913513184,-6.816135406494141,0.4588360786437988,-0.0,-0.0,-1.0,0.0978387258092822,2.0
10.35368824005127,-7.007749557495117,0.3719415664672851,-0.0,-0.0,-1.0,0.0923988992388143,1.0
10.494325637817385,-6.746493339538574,0.3695411682128906,-0.0,-0.0,-1.0,0.0488031423894439,2.0
10.204089164733888,-8.042320251464844,0.4444253444671631,-0.0,-0.0,-1.0,0.042981060157438,2.0
10.150192260742188,-7.5877275466918945,0.392864465713501,-0.0,-0.0,-1.0,0.159313861522717,2.0
10.258278846740724,-7.2366180419921875,0.3780438899993896,-0.0,-0.0,-1.0,0.0793582496149578,2.0
9.974556922912598,-8.138910293579102,0.4127364158630371,-0.0,-0.0,-1.0,0.0158644976261433,1.0
10.033823013305664,-7.7897138595581055,0.3914830684661865,-0.0,-0.0,-1.0,0.0203361292534643,1.0
10.449281692504885,-6.428804397583008,0.8711636066436768,0.0982153163814533,0.9859001762800892,-0.1354791276875535,0.1659891673195239,3.0
10.016509056091309,-7.457693099975586,0.8847332000732422,0.4183339474747346,0.0349164377357071,-0.9076219206068432,0.1782726948997469,4.0
10.039052963256836,-7.408838272094727,0.8845846652984619,0.3540014508535436,-0.3787641097050174,-0.8551144496457487,0.1643235618700466,4.0
9.961912155151367,-6.763635635375977,0.8271269798278809,-0.8165837835487285,-0.0653731969281489,-0.5735130945049439,0.2184331734835258,3.0
10.157477378845217,-7.406877517700195,1.420562505722046,-0.0,-0.0,-1.0,0.1837344872844635,2.0
11.2611083984375,-6.623356819152832,0.3827831745147705,-0.0,-0.0,-1.0,0.0582292111827639,2.0
11.138860702514648,-6.400362014770508,0.3339533805847168,-0.0,-0.0,-1.0,0.0865650113113782,1.0
10.974794387817385,-7.150836944580078,0.3949966430664062,-0.0,-0.0,-1.0,0.179754354265762,1.0
10.879281044006348,-6.793771743774414,0.3357717990875244,-0.0,-0.0,-1.0,0.1207543159652274,1.0
10.854616165161133,-6.499530792236328,0.2962183952331543,-0.0,-0.0,-1.0,0.0495929721432538,1.0
10.63003635406494,-7.674933433532715,0.3909518718719482,-0.4629900014522465,0.6885937058762076,-0.5581030073229488,0.0408775252980859,4.0
10.621183395385742,-7.437068939208984,0.3628783226013183,-0.0,-0.0,-1.0,0.0368431876157017,2.0
10.669595718383787,-7.113398551940918,0.3351550102233886,-0.0,-0.0,-1.0,0.0763263324150644,1.0
10.434297561645508,-8.221592903137207,0.4122154712677002,-0.83655699853281,0.5445481609413485,-0.0603298319338905,0.1028534918501014,3.0
10.424169540405272,-7.834720611572266,0.3693783283233642,-0.0,-0.0,-1.0,0.0672608455656603,1.0
10.07597541809082,-7.424895286560059,0.7513842582702637,-0.5412522664474583,0.4963875293278152,-0.6787086302628818,0.094317483080883,6.0
9.955113410949709,-6.8380584716796875,0.6815202236175537,-0.0392976905424081,0.0302736105604272,-0.9987688421359914,0.1618030866817346,3.0
9.763505935668944,-6.616223335266113,0.6317293643951416,-0.0,-0.0,-1.0,0.1214806580515603,2.0
10.117626190185549,-7.418595314025879,1.242401361465454,-0.6792245091848863,-0.1145617183306741,-0.7249342582715166,0.1245785386627573,3.0
11.700916290283203,-8.086603164672852,0.4354877471923828,-0.0,-0.0,-1.0,0.1346551583329075,2.0
11.616071701049805,-7.728635787963867,0.3652968406677246,-0.0,-0.0,-1.0,0.0550445963678511,1.0
11.559447288513184,-7.5242133140563965,0.3236422538757324,-0.0,-0.0,-1.0,0.0114375590161717,2.0
11.29607105255127,-8.016966819763184,0.3421330451965332,0.8142976755453962,0.3939420841150212,0.4262967627891139,0.0355279604480766,3.0
10.717702865600586,-6.896239280700684,0.5173187255859375,-0.0,-0.0,-1.0,0.173662156325825,1.0
11.131775856018066,-8.225234985351562,0.3370397090911865,-0.0,-0.0,-1.0,0.0263432515270306,1.0
10.120800018310549,-6.760375022888184,0.395486831665039,-0.0,-0.0,-1.0,0.187501989434214,2.0
10.229832649230955,-6.555509567260742,0.3900115489959717,-0.0,-0.0,-1.0,0.1033793587751517,2.0
10.001795768737791,-7.403352737426758,0.4491465091705322,-0.0,-0.0,-1.0,0.1592759253002545,2.0
9.958795547485352,-7.037691116333008,0.3992798328399658,-0.0,-0.0,-1.0,0.1111399720922342,1.0
9.75356388092041,-7.652487277984619,0.4308779239654541,-0.0,-0.0,-1.0,0.0354404429004629,1.0
10.83971881866455,-7.0720720291137695,0.5603156089782715,-0.0,-0.0,-1.0,0.1287891740462645,1.0
10.038893699645996,-6.820662498474121,0.857940673828125,0.4170581094293995,-0.6320210899004863,-0.6531553224771088,0.236160076132762,3.0
10.110920906066896,-7.472892761230469,0.9296016693115234,-0.0146460788736757,0.9723110385233178,-0.2332310801315588,0.1741583671232696,4.0
11.46010971069336,-7.0103607177734375,0.3490562438964844,-0.0,-0.0,-1.0,0.0282966952269773,1.0
11.515491485595703,-6.779788017272949,0.3218305110931396,-0.0,-0.0,-1.0,0.0361235214219932,1.0
11.187460899353027,-7.249520778656006,0.3313357830047607,-0.0,-0.0,-1.0,0.0849382550799834,1.0
11.299249649047852,-7.048487663269043,0.3222630023956299,-0.0,-0.0,-1.0,0.0416580668867559,1.0
11.039102554321287,-7.8391432762146,0.3908791542053222,-0.3652140735369686,0.706930357774727,-0.6056964171489131,0.0935479905699944,3.0
10.956482887268066,-7.572609424591064,0.3325765132904053,-0.0,-0.0,-1.0,0.0214023021403378,1.0
10.673519134521484,-7.976236820220947,0.3308057785034179,-0.0,-0.0,-1.0,0.0313168942381564,1.0
10.740077018737791,-7.76242733001709,0.3142588138580322,-0.0,-0.0,-1.0,0.0533795380748379,1.0
10.599798202514648,-8.18051528930664,0.3435430526733398,-0.0,-0.0,-1.0,0.0705915530949822,1.0
10.991866111755373,-7.054328441619873,0.6694140434265137,-0.0,-0.0,-1.0,0.1051901194421048,2.0
10.026359558105469,-6.701465129852295,0.4451727867126465,-0.0,-0.0,-1.0,0.1612792613918438,2.0
10.046340942382812,-7.392107009887695,0.5362484455108643,-0.0,-0.0,-1.0,0.2179510567669694,1.0
9.78359031677246,-7.2090654373168945,0.463414192199707,-0.0,-0.0,-1.0,0.1168651193902787,1.0
9.780570030212402,-6.9376630783081055,0.4291915893554687,-0.0,-0.0,-1.0,0.1641628181216145,1.0
9.904133796691896,-6.632500648498535,0.8571534156799316,-0.0,-0.0,-1.0,0.1831860008715803,1.0
10.053879737854004,-7.430307865142822,0.9633560180664062,-0.0,-0.0,-1.0,0.1248866491726909,1.0
10.165467262268066,-7.393552303314209,1.390876293182373,-0.9255150620789732,0.3694437882597981,-0.0832655822126019,0.1208996450140009,3.0
11.517664909362791,-8.03533935546875,0.425079345703125,-0.0,-0.0,-1.0,0.1419965655256303,1.0
11.504104614257812,-7.62730598449707,0.3514375686645508,-0.0,-0.0,-1.0,0.020882497727107,1.0
11.161240577697754,-8.002641677856445,0.3272271156311035,-0.0,-0.0,-1.0,0.049029747212813,2.0
10.532087326049805,-6.789222717285156,0.3584756851196289,-0.0,-0.0,-1.0,0.0609071610603191,1.0
10.576743125915527,-6.45543098449707,0.3173394203186035,-0.0,-0.0,-1.0,0.0553088704567142,1.0
10.24644660949707,-7.362985134124756,0.3773994445800781,-0.0,-0.0,-1.0,0.1152301848374017,1.0
10.33444881439209,-7.105197906494141,0.360806941986084,-0.0,-0.0,-1.0,0.0383448543021301,1.0
10.11701488494873,-7.657413959503174,0.3875179290771484,-0.0,-0.0,-1.0,0.1024214921079968,2.0
10.96450424194336,-6.803005218505859,0.4559526443481445,-0.0,-0.0,-1.0,0.1039929308121048,2.0
10.819103240966797,-7.032586097717285,0.4590930938720703,-0.0,-0.0,-1.0,0.1519624637302591,1.0
9.905362129211426,-6.775681018829346,0.6245136260986328,-0.5474194733648029,-0.3193997560891755,-0.7735087045348469,0.1410049153613814,3.0
10.067756652832031,-7.905429840087891,0.4088239669799804,0.8915005575301985,-0.0143806048122261,-0.4527912920193805,0.0228399988122073,3.0
10.124432563781738,-7.561802387237549,0.5702981948852539,-0.7659014382491494,0.1961130088013939,-0.6123190954614672,0.1759012323529192,4.0
9.856925964355469,-7.031320571899414,0.6455907821655273,-0.0,-0.0,-1.0,0.1659094593507114,2.0
9.951653480529783,-8.068831443786621,0.4018673896789551,-0.0,-0.0,-1.0,0.0196633886437673,1.0
10.008225440979004,-6.718777656555176,1.0384337902069092,-0.0,-0.0,-1.0,0.1414569006620482,2.0
10.120291709899902,-7.470118522644043,1.130847454071045,-0.2318019618526273,0.2081272338005642,-0.9502372888030644,0.1441988954125151,5.0
9.984405517578123,-7.417029857635498,1.1023263931274414,-0.0,-0.0,-1.0,0.1689918898328392,2.0
11.637149810791016,-6.52388334274292,0.2570805549621582,-0.0,-0.0,-1.0,0.0501269166954387,1.0
11.564553260803224,-6.688357353210449,0.2726662158966064,-0.0,-0.0,-1.0,0.0424645304244167,2.0
11.501089096069336,-6.961310863494873,0.3110809326171875,-0.0,-0.0,-1.0,0.0394919930652112,1.0
11.59103775024414,-6.7130513191223145,0.2843592166900635,-0.0,-0.0,-1.0,0.0415360718491161,2.0
11.30152702331543,-7.699334144592285,0.3981809616088867,-0.0,-0.0,-1.0,0.0265945261263654,2.0
11.238740921020508,-7.253496646881104,0.2987751960754394,-0.0,-0.0,-1.0,0.0545960373824477,1.0
10.847589492797852,-6.886956214904785,0.4788005352020263,-0.6358759243217046,-0.4646724481868602,-0.6162315512565449,0.2620648719002314,4.0
11.020666122436523,-7.707093715667725,0.3227155208587646,-0.0,-0.0,-1.0,0.0272661800445146,1.0
10.397930145263672,-6.706789016723633,0.3428504467010498,-0.0,-0.0,-1.0,0.0499922493879236,1.0
10.369075775146484,-6.4099955558776855,0.2871723175048828,-0.0,-0.0,-1.0,0.0841435361686674,1.0
10.746179580688477,-8.30993938446045,0.3442633152008056,-0.0,-0.0,-1.0,0.0631454209402708,1.0
10.828012466430664,-7.992553234100342,0.3164529800415039,-0.0,-0.0,-1.0,0.0596700929148586,1.0
10.168042182922363,-7.194018840789795,0.3646008968353271,-0.0,-0.0,-1.0,0.0732524371131554,1.0
10.273094177246094,-6.996471881866455,0.3595545291900635,-0.0,-0.0,-1.0,0.0659386717752996,1.0
9.840166091918944,-6.612612247467041,0.5766620635986328,-0.0,-0.0,-1.0,0.1782001929512961,1.0
10.08759880065918,-7.724099636077881,0.4199061393737793,-0.0,-0.0,-1.0,0.0786325203226574,2.0
10.146942138671877,-7.425182819366455,0.3936519622802734,-0.0,-0.0,-1.0,0.1622220696458645,1.0
9.876480102539062,-8.308740615844727,0.4461941719055176,-0.0,-0.0,-1.0,0.0806046650505526,2.0
9.897457122802734,-7.99572229385376,0.4098389148712158,-0.0,-0.0,-1.0,0.0200425842846192,1.0
10.86027717590332,-7.136321544647217,0.8622536659240723,-0.0,-0.0,-1.0,0.1534371872145345,1.0
9.924412727355955,-6.795181751251221,0.6190836429595947,-0.5474194733648029,-0.3193997560891755,-0.7735087045348469,0.1896604543486205,3.0
10.091283798217772,-7.462529182434082,0.7404940128326416,-0.4936243643424389,-0.1304398126714787,-0.8598374510323173,0.1126780222845476,4.0
9.843866348266602,-7.013179779052734,0.6308259963989258,-0.0,-0.0,-1.0,0.1220686093775633,2.0
10.091769218444824,-7.447784900665283,1.089389085769653,-0.2652030857593574,-0.8139822617251691,-0.5168173767400753,0.1345005704286664,4.0
10.17462158203125,-7.33088493347168,1.437951683998108,-0.0,-0.0,-1.0,0.1886263634812258,1.0
10.974021911621094,-7.192976474761963,0.6018021106719971,-0.0,-0.0,-1.0,0.1510658159825613,2.0
10.82721710205078,-6.946364879608154,0.5180957317352295,-0.0,-0.0,-1.0,0.2404196096534297,2.0
10.426680564880373,-7.025050163269043,0.4236238002777099,-0.0,-0.0,-1.0,0.0732468627171309,1.0
10.460651397705078,-6.754232406616211,0.3847942352294922,-0.0,-0.0,-1.0,0.0434658764215624,2.0
10.37956714630127,-6.36973762512207,0.4646651744842529,-0.0,-0.0,-1.0,0.1024806321036528,1.0
10.245424270629885,-7.26159143447876,0.4132606983184814,0.2932309172541663,-0.8271042160110049,-0.4794937382522332,0.0912550037522065,3.0
10.140090942382812,-6.980383396148682,0.5054466724395752,-0.0,-0.0,-1.0,0.1644415749460549,1.0
10.07883644104004,-7.717593669891357,0.4386026859283447,-0.0,-0.0,-1.0,0.0809974716149657,2.0
10.153295516967772,-7.47092866897583,0.4216840267181396,-0.3049930925578293,-0.9330497327011604,0.1907810519897197,0.1947983976013239,3.0
9.807449340820312,-7.024752616882324,0.593498945236206,-0.0,-0.0,-1.0,0.1830782397295003,1.0
9.84908676147461,-8.346498489379883,0.4612617492675781,-0.8219909813191602,0.5635284149603679,-0.0822590551989272,0.0806046650505526,3.0
9.864984512329102,-8.048778533935547,0.4251697063446045,-0.0,-0.0,-1.0,0.0211566831420294,1.0
10.92985725402832,-7.281136512756348,0.905165433883667,-0.0,-0.0,-1.0,0.1076168409455412,1.0
10.19430160522461,-7.592706680297852,0.7697527408599854,0.837184143487124,0.3029528225327554,-0.455348544757933,0.0964935048059174,4.0
10.12656021118164,-7.521317005157471,1.057450294494629,0.3605925186109655,0.3087927763084615,-0.880125023403785,0.1340233179599383,5.0
10.152597427368164,-7.4509077072143555,1.364225149154663,-0.8296624711501407,0.1008338215836067,-0.5490835313409862,0.0564875838790062,4.0
9.912843704223633,-6.856132984161377,0.4623200893402099,0.4286154178698994,-0.5703990974264342,-0.7006666063252344,0.1797885787380402,5.0
9.730182647705078,-6.508758068084717,0.3562164306640625,-0.428271950427832,-0.0502867043635072,-0.9022496239073736,0.1939397213721586,3.0
10.045320510864258,-7.52134895324707,0.5947728157043457,-0.0,-0.0,-1.0,0.1858583919536945,2.0
10.909952163696287,-7.237194061279297,0.8168742656707764,-0.5776930212500232,0.8069769056857734,0.1227153082905093,0.1270103851057658,3.0
10.518518447875977,-6.519556045532227,0.8847618103027344,-0.0,-0.0,-1.0,0.1488962724841946,1.0
10.887458801269531,-7.2526350021362305,0.8125245571136475,-0.0,-0.0,-1.0,0.1190808085440966,2.0
10.437494277954102,-6.430368900299072,0.8512332439422607,0.0982153163814533,0.9859001762800892,-0.1354791276875535,0.1603181594659384,3.0
10.143478393554688,-7.552014350891113,0.9176082611083984,0.6028739745724702,-0.609184182025791,-0.5152063694799984,0.1073836376246577,3.0
9.929193496704102,-6.848829746246338,0.7746834754943848,-0.2221459803223267,-0.6734526328664497,0.7050622062711058,0.152398368555162,3.0
10.08417797088623,-7.464012145996094,0.8913102149963379,-0.0,-0.0,-1.0,0.1923423000548106,2.0
10.168983459472656,-7.460299015045166,1.3358700275421145,-0.9197055447431532,-0.149961742685248,-0.3628404424805806,0.1036415040389873,5.0
10.06459617614746,-6.7828521728515625,1.101043701171875,-0.5267103301719445,-0.6895867615092629,-0.4970375503333004,0.1298883555918916,5.0
10.109352111816406,-7.53924560546875,1.1908142566680908,-0.0,-0.0,-1.0,0.145357920954056,1.0
10.126773834228516,-7.447193622589111,1.2383499145507812,-0.642224124617208,-0.2823304214817093,-0.7126273267743953,0.1233226782978071,4.0
10.222052574157717,-7.406726837158203,1.440804362297058,-0.0,-0.0,-1.0,0.1545622832548049,2.0
10.070022583007812,-7.4615888595581055,1.1973921060562134,-0.8175341575991412,-0.3374387420428833,-0.4666615438700508,0.1650978701317503,5.0
10.24289608001709,-7.346246242523193,1.4695290327072144,-0.0,-0.0,-1.0,0.1545622832548049,2.0
9.990553855895996,-7.380022048950195,0.750291109085083,-0.0,-0.0,-1.0,0.078595443975349,1.0
9.921142578125,-6.738786697387695,0.788521409034729,-0.0,-0.0,-1.0,0.1635656404465911,1.0
10.128331184387209,-6.582305908203125,1.184340238571167,-0.0657329098508934,0.0512775631051927,-0.9965188388006152,0.2038684192232543,4.0
10.111334800720217,-7.564247131347656,0.8944592475891113,-0.0,-0.0,-1.0,0.1553648648260325,2.0
9.81365966796875,-6.890781402587891,0.472198486328125,-0.7841538070613534,0.6066390216727391,-0.1307360097873857,0.1245375544651391,3.0
10.445965766906738,-7.261526107788086,0.4060285091400146,-0.0,-0.0,-1.0,0.0533573837506095,1.0
10.428889274597168,-7.470436096191406,0.3905313014984131,-0.0,-0.0,-1.0,0.1272632323555976,2.0
10.804191589355469,-7.2846221923828125,0.382575511932373,-0.0,-0.0,-1.0,0.175129724431773,1.0
10.63662815093994,-7.425731658935547,0.3815889358520508,-0.0,-0.0,-1.0,0.0354109140008532,2.0
10.977084159851074,-7.055181503295898,0.3901512622833252,-0.0,-0.0,-1.0,0.2025028926559227,1.0
9.979357719421388,-6.788215637207031,0.4708156585693359,-0.0,-0.0,-1.0,0.1450544884567506,1.0
11.201909065246582,-6.772207260131836,0.3986227512359619,-0.0,-0.0,-1.0,0.09651831237653,1.0
11.308411598205566,-6.698753356933594,0.397761583328247,-0.7104935879582017,0.6834395821850062,-0.1676579821334649,0.0475480642560564,5.0
10.082255363464355,-7.493070602416992,1.2182271480560305,0.1144326240425222,-0.459668262784858,-0.8806873808242592,0.1638589110271809,4.0
