x,y,z,nx,ny,nz,curvature,density
29.44502639770508,-18.22323989868164,0.2763183116912842,-0.0,-0.0,-1.0,0.0436762009991296,1.0
28.388328552246097,-16.805479049682617,0.2034235000610351,-0.9619246899550246,-0.2462646803329535,-0.1185520901352587,0.0451450188458255,4.0
28.70293426513672,-17.24989128112793,0.1600351333618164,-0.1708749269645696,0.1625957062964911,-0.9717841301589554,0.0901640127359187,3.0
28.956565856933594,-16.83768653869629,0.1559910774230957,0.4649755100103668,-0.8418055218065972,0.2741555006680002,0.0578514966330081,3.0
29.0888671875,-16.9977970123291,0.1387596130371093,-0.0,-0.0,-1.0,0.03368858133268,1.0
29.402599334716797,-16.73362159729004,0.1234605312347412,-0.0,-0.0,-1.0,0.0066223719178418,1.0
29.52365493774414,-18.34593391418457,0.2816433906555176,-0.0,-0.0,-1.0,0.0433309917614862,1.0
28.128265380859375,-18.047056198120117,0.3910493850708008,-0.0,-0.0,-1.0,0.0923152130807312,1.0
27.970712661743164,-18.009090423583984,0.3532569408416748,-0.5541752656052671,0.8093003696181325,0.1947374815675853,0.043234568411793,3.0
29.533443450927734,-18.277130126953125,0.2590260505676269,-0.0,-0.0,-1.0,0.0540546668772373,1.0
28.461183547973633,-17.33742904663086,0.361926794052124,-0.0,-0.0,-1.0,0.1904680047635388,1.0
28.546873092651367,-17.322956085205078,0.1873037815093994,-0.8223338646704291,0.0975611106962522,-0.5605790262718628,0.1594001485018003,4.0
28.667619705200195,-17.33591079711914,0.1806738376617431,-0.0,-0.0,-1.0,0.0977509003599801,2.0
29.149917602539062,-17.4324951171875,0.1510298252105713,-0.0,-0.0,-1.0,0.0173618347069141,1.0
29.43908309936523,-17.329219818115234,0.1423902511596679,-0.0,-0.0,-1.0,0.0129212655535032,1.0
28.3205623626709,-16.8729248046875,0.224839448928833,-0.6722858162504323,0.4040591173130943,-0.620296712053718,0.0617974319369628,4.0
28.744544982910156,-16.95370101928711,0.1995248794555664,-0.0,-0.0,-1.0,0.1539229176256399,2.0
29.65778923034668,-17.17235565185547,0.1402618885040283,-0.0,-0.0,-1.0,0.012912768921817,1.0
28.10694122314453,-16.507022857666016,0.2566776275634765,-0.0,-0.0,-1.0,0.0694260669917728,1.0
28.848468780517575,-16.829143524169922,0.2017557621002197,0.9838398490183108,-0.1435978070196943,0.106952425417859,0.1136672805488048,3.0
28.64878845214844,-17.253761291503906,0.2026283740997314,-0.0,-0.0,-1.0,0.1308780356501647,2.0
29.056825637817383,-17.28089141845703,0.1804244518280029,-0.0,-0.0,-1.0,0.0300238130054444,1.0
28.448564529418945,-16.894912719726562,0.2340326309204101,-0.5472655846566061,0.4610777841383389,-0.6985038703003315,0.1040164701666945,5.0
29.3836727142334,-16.984325408935547,0.1811847686767578,-0.0,-0.0,-1.0,0.0501958279880511,2.0
29.69106674194336,-17.072986602783203,0.1596193313598632,-0.0,-0.0,-1.0,0.009531219465093,1.0
28.32512092590332,-16.799842834472656,0.2457685470581054,0.816870699531603,-0.1845347076726957,-0.5465063603572262,0.0558354976039344,3.0
28.84504508972168,-16.840866088867188,0.21751070022583,0.9838398490183108,-0.1435978070196943,0.106952425417859,0.1406089801237966,3.0
28.580284118652344,-17.1899356842041,0.1860077381134033,-0.0,-0.0,-1.0,0.0877875052857009,1.0
28.99031639099121,-17.192907333374023,0.1709752082824707,-0.0,-0.0,-1.0,0.0718471117490699,1.0
29.460119247436523,-17.006452560424805,0.1598809957504272,-0.0,-0.0,-1.0,0.0120051206174337,2.0
28.32323455810547,-16.688264846801758,0.2127500772476196,-0.0,-0.0,-1.0,0.0409365228971689,2.0
28.77981185913086,-16.57381248474121,0.2004622220993042,-0.0,-0.0,-1.0,0.0262923989648779,2.0
28.88693618774414,-16.799623489379883,0.188612699508667,-0.0,-0.0,-1.0,0.0500282439021293,1.0
28.51289749145508,-17.497737884521484,0.157887578010559,-0.0,-0.0,-1.0,0.1134606858441464,1.0
28.009458541870117,-17.02277374267578,0.1736319065093994,-0.0,-0.0,-1.0,0.0699004840611569,1.0
28.41343688964844,-17.26404571533203,0.1657524108886718,-0.0,-0.0,-1.0,0.1108424687387197,1.0
28.79962158203125,-17.39962387084961,0.1611658334732055,-0.0,-0.0,-1.0,0.0559869797265513,2.0
27.952924728393555,-16.85470199584961,0.1791760921478271,-0.0,-0.0,-1.0,0.1039082226033855,1.0
27.75897979736328,-16.521709442138672,0.1899785995483398,-0.0,-0.0,-1.0,0.0743101568516745,1.0
29.45417594909668,-17.150745391845703,0.1693012714385986,-0.0,-0.0,-1.0,0.0106165440605098,1.0
27.99177360534668,-16.528820037841797,0.1900278329849243,-0.0,-0.0,-1.0,0.046575640809129,1.0
28.430036544799805,-16.569473266601562,0.1890492439270019,-0.0,-0.0,-1.0,0.0197701208903885,1.0
27.876073837280273,-18.22052764892578,0.3627035617828369,-0.0,-0.0,-1.0,0.0787709634149901,1.0
27.995906829833984,-18.299962997436523,0.3612719774246216,-0.0,-0.0,-1.0,0.0675641951177706,1.0
28.377246856689453,-18.002866744995117,0.3712619543075561,-0.0,-0.0,-1.0,0.0754805736444135,1.0
27.719078063964844,-18.225418090820312,0.4197104573249817,-0.0,-0.0,-1.0,0.1196724390889963,2.0
27.9215030670166,-16.496938705444336,0.3060884475708008,-0.0,-0.0,-1.0,0.103806649717284,1.0
27.71038818359375,-16.75984001159668,0.3133352994918823,-0.0,-0.0,-1.0,0.076297000709111,2.0
28.12268447875977,-16.667308807373047,0.2912793755531311,-0.0,-0.0,-1.0,0.1169870835120598,1.0
28.56522750854492,-16.877103805541992,0.2617297172546386,-0.0,-0.0,-1.0,0.0772129788440502,2.0
29.052480697631836,-16.81448745727539,0.234559416770935,-0.0,-0.0,-1.0,0.0502009546713165,1.0
28.476070404052734,-17.62530517578125,0.252933144569397,-0.0,-0.0,-1.0,0.0541217041459535,1.0
28.64139175415039,-17.824264526367188,0.2396448850631714,-0.0,-0.0,-1.0,0.0467173997037586,1.0
29.045663833618164,-18.04186248779297,0.2121309041976928,-0.0,-0.0,-1.0,0.017293035812058,1.0
29.590164184570312,-17.699321746826172,0.1867603063583374,-0.415138573267489,0.599575627175573,-0.6842287865052534,0.0840917673782313,3.0
29.18982315063477,-17.929906845092773,0.2058298587799072,-0.4066446226674236,0.7035598725805056,-0.5827895473926858,0.0323653003369564,3.0
29.22747230529785,-16.363136291503906,0.0958287715911865,-0.0,-0.0,-1.0,0.0053117396905217,1.0
28.89559555053711,-16.719959259033203,0.120204210281372,-0.0,-0.0,-1.0,0.0487295217721281,1.0
28.267372131347656,-18.290416717529297,0.7073444128036499,-0.0,-0.0,-1.0,0.1184460663438424,1.0
28.475811004638672,-17.923660278320312,0.2599000930786133,0.6580332184153298,0.1361299882848319,-0.7405814673292431,0.0473540560298678,3.0
27.95666122436523,-16.692920684814453,0.3179012537002563,-0.0,-0.0,-1.0,0.1232621354327155,1.0
28.768478393554688,-17.984037399291992,0.2311866283416748,-0.0,-0.0,-1.0,0.0376602210479393,1.0
28.351137161254883,-16.78379249572754,0.2792357802391052,-0.0,-0.0,-1.0,0.0488777939839916,2.0
28.531349182128903,-17.027450561523438,0.2602289915084839,-0.0,-0.0,-1.0,0.1295980342717265,1.0
28.993337631225582,-17.81905746459961,0.2103912830352783,-0.0,-0.0,-1.0,0.0131917256627018,1.0
28.930343627929688,-16.923263549804688,0.2220104932785034,0.4926558490854722,-0.6871732937492677,0.533931717281953,0.1712801182924845,3.0
29.46871566772461,-17.581748962402344,0.1653163433074951,-0.6961537695916156,-0.4594560753640727,-0.5516067837639665,0.045445989161661,3.0
29.53618812561035,-17.128284454345703,0.1613261699676513,-0.0,-0.0,-1.0,0.0104686997713027,1.0
28.301158905029297,-17.769630432128906,0.2495619058609008,-0.0,-0.0,-1.0,0.0535607170601181,2.0
28.445913314819336,-17.907737731933594,0.2362617254257202,-0.0,-0.0,-1.0,0.0540247038051693,2.0
27.862632751464844,-16.729129791259766,0.2982470393180847,-0.0,-0.0,-1.0,0.0825999062535074,2.0
28.488414764404297,-17.305484771728516,0.2410107851028442,-0.0,-0.0,-1.0,0.2020808714511869,1.0
29.000343322753903,-18.00090789794922,0.1909495592117309,-0.5747637163048918,0.2933818316890664,-0.763920003177138,0.015983723235044,3.0
28.287158966064453,-16.963916778564453,0.2615661025047302,-0.0,-0.0,-1.0,0.0942082460024544,2.0
28.61495590209961,-17.379085540771484,0.2299667596817016,-0.7136068615483331,0.3547791449048718,-0.6040670538042165,0.2155074525566613,4.0
29.348548889160156,-17.703594207763672,0.1669079065322876,-0.0,-0.0,-1.0,0.0734044484781801,2.0
28.79933738708496,-16.969741821289062,0.220692753791809,-0.0,-0.0,-1.0,0.1916497165781948,2.0
29.620922088623047,-17.539417266845703,0.1470116376876831,-0.2293856985455167,0.9343790826086488,-0.2726131531790149,0.0567782455294155,3.0
28.823850631713867,-16.364309310913086,0.1324059963226318,0.4489330281527357,0.8761618379739492,-0.1754980624158747,0.0179548923795201,3.0
29.65387535095215,-18.29677963256836,0.3102979660034179,-0.0,-0.0,-1.0,0.0571689700509714,2.0
28.675586700439453,-17.28973388671875,0.1581774950027465,-0.0,-0.0,-1.0,0.080901251003952,2.0
29.22845458984375,-17.38018798828125,0.1338279247283935,-0.0,-0.0,-1.0,0.0148687500038111,1.0
28.76429748535156,-16.98749542236328,0.164411187171936,-0.0,-0.0,-1.0,0.1684402985340145,1.0
29.284269332885746,-16.945140838623047,0.1453101634979248,-0.0,-0.0,-1.0,0.0628867052667137,2.0
29.591243743896484,-16.968807220458984,0.1320991516113281,-0.0,-0.0,-1.0,0.0103967241531075,1.0
28.395095825195312,-16.832073211669922,0.1833866834640503,-0.9207165664377658,0.0411154540206649,-0.3880599486261444,0.0612393445583138,4.0
28.82187271118164,-16.786537170410156,0.1685711145401001,-0.0,-0.0,-1.0,0.083608475397239,1.0
28.208850860595703,-16.626270294189453,0.1969159841537475,-0.0,-0.0,-1.0,0.0539442469248143,2.0
28.89164161682129,-16.652095794677734,0.1701174974441528,-0.0,-0.0,-1.0,0.0441850664553232,1.0
28.142667770385746,-18.320825576782227,0.7234352827072144,-0.0,-0.0,-1.0,0.0692059218352107,1.0
28.267414093017575,-17.619403839111328,0.1626559495925903,-0.0,-0.0,-1.0,0.0393711334509566,1.0
28.541030883789062,-17.35898208618164,0.2110573053359985,-0.648755618713867,-0.3427711275490302,-0.6794292467254808,0.1319564601924229,3.0
28.424062728881836,-17.000526428222656,0.2119368314743042,-0.0,-0.0,-1.0,0.1605110503464542,1.0
28.030628204345703,-16.364063262939453,0.1884418725967407,-0.0,-0.0,-1.0,0.0684917909889915,2.0
28.72968101501465,-18.07976531982422,0.2213106155395507,-0.0,-0.0,-1.0,0.029945974130649,2.0
28.33281707763672,-17.70288848876953,0.2453460693359375,-0.0,-0.0,-1.0,0.0509245124496489,1.0
29.067893981933594,-17.960391998291016,0.216435432434082,-0.0,-0.0,-1.0,0.0251452938618289,2.0
29.340877532958984,-17.819290161132812,0.2138423919677734,-0.0,-0.0,-1.0,0.0469901188949998,1.0
29.573427200317383,-17.6820068359375,0.2120877504348755,-0.0,-0.0,-1.0,0.0840917673782313,2.0
28.240947723388672,-17.559772491455078,0.2528706789016723,-0.7173579064439564,0.439053375311971,-0.5409526482877309,0.0380780777243593,3.0
28.568029403686523,-17.33757781982422,0.2525389194488525,-0.7655619222818879,0.1162419499157813,0.6327738555217322,0.2880135826055108,5.0
29.65741729736328,-17.475006103515625,0.2171005010604858,-0.0,-0.0,-1.0,0.0537517327424903,2.0
28.41819190979004,-16.896339416503906,0.2724663019180298,-0.0,-0.0,-1.0,0.1031404247150212,2.0
28.841859817504883,-16.91305923461914,0.2606518268585205,0.8594572186228652,-0.0704951022819962,-0.5063237402209178,0.2507552166800608,5.0
27.87189292907715,-16.628360748291016,0.2957732677459717,-0.0,-0.0,-1.0,0.1085581076365762,1.0
28.922346115112305,-17.809558868408203,0.205567717552185,-0.0,-0.0,-1.0,0.0364369578404098,1.0
29.39923667907715,-17.75762176513672,0.1999920606613159,0.8023377161263031,-0.1615108578558246,-0.5746028472570451,0.0687542895913436,5.0
29.400535583496097,-17.71450424194336,0.2016485929489135,-0.8301692260484282,0.0463535107408827,-0.5555811445361956,0.0735062726721145,3.0
28.560556411743164,-17.4365234375,0.2254568338394165,-0.0,-0.0,-1.0,0.1551802128227208,2.0
29.595382690429688,-17.556751251220703,0.2045414447784423,-0.0,-0.0,-1.0,0.030819184598873,1.0
27.86220932006836,-16.784839630126953,0.2598564624786377,-0.0,-0.0,-1.0,0.0624330960810137,2.0
28.32190704345703,-16.833358764648438,0.2522817850112915,-0.8180725080041161,0.1971770117020143,-0.5402578992519399,0.058450354105762,4.0
28.824506759643555,-16.926307678222656,0.2416503429412841,0.9891552768572592,-0.0796243477024159,0.1234171848585249,0.2392382155671153,5.0
27.940597534179688,-16.41216278076172,0.273432970046997,-0.0,-0.0,-1.0,0.0920734855437841,1.0
28.155860900878903,-16.596668243408203,0.2636606693267822,-0.0,-0.0,-1.0,0.0684201299971875,2.0
29.15402603149414,-17.5223388671875,0.1807053089141845,-0.0,-0.0,-1.0,0.0218617964525097,2.0
29.438066482543945,-17.546283721923828,0.1744565963745117,-0.7183324755951056,-0.6695143815875223,0.1890739203403903,0.0385125234298992,3.0
28.563709259033203,-17.299678802490234,0.1999390125274658,-0.0609770598788235,0.5098819289386375,-0.8580805420881825,0.1878611341289223,3.0
28.83598899841309,-17.405757904052734,0.1910513639450073,-0.0,-0.0,-1.0,0.026116729082007,2.0
29.349193572998047,-17.46161651611328,0.1796091794967651,-0.0,-0.0,-1.0,0.0198278452244593,1.0
29.66916847229004,-17.375370025634766,0.1769760847091674,-0.0,-0.0,-1.0,0.0194646465879634,2.0
28.17035484313965,-16.686885833740234,0.2309573888778686,-0.647322994480751,-0.667126681691427,0.368666422924382,0.0962250922036657,3.0
28.38188362121582,-16.859962463378906,0.2207275629043579,-0.0939314557866623,-0.5476765333587644,-0.8314008037173917,0.0888574471346332,5.0
29.30577087402344,-16.382965087890625,0.1038559675216674,-0.0,-0.0,-1.0,0.0039610418000988,1.0
28.44913101196289,-16.520160675048828,0.1530278921127319,-0.0,-0.0,-1.0,0.0228097114795302,1.0
28.830265045166016,-16.66263771057129,0.1453112363815307,-0.0,-0.0,-1.0,0.0421359347348047,1.0
29.211925506591797,-16.688661575317383,0.142164945602417,-0.0,-0.0,-1.0,0.0100582341457209,1.0
29.616512298583984,-16.82428550720215,0.1335929632186889,0.7639630062985496,0.4277984578924004,-0.4830621123956696,0.0091076958989533,4.0
28.761192321777344,-16.36339569091797,0.1585555076599121,-0.0,-0.0,-1.0,0.0171546696030826,1.0
27.756629943847656,-16.824413299560547,0.3642835617065429,-0.1250163392902324,-0.8305187107470535,-0.542779500358591,0.0756868404887632,4.0
27.87566375732422,-17.786693572998047,0.3105925321578979,-0.0,-0.0,-1.0,0.0165575570024566,1.0
27.90834045410156,-17.447498321533203,0.327364444732666,-0.0,-0.0,-1.0,0.0134251354504569,1.0
28.022491455078125,-17.799474716186523,0.3055335283279419,-0.0,-0.0,-1.0,0.0328420901689907,1.0
28.263351440429688,-17.81484031677246,0.2974505424499511,-0.0,-0.0,-1.0,0.0269182461969737,1.0
28.4981746673584,-16.931682586669922,0.3367475271224975,-0.0,-0.0,-1.0,0.1615233015732848,1.0
28.61428451538086,-17.272436141967773,0.3152793645858764,-0.0,-0.0,-1.0,0.167447614968876,1.0
28.64754867553711,-18.267602920532227,0.2616760730743408,-0.0,-0.0,-1.0,0.0779254092471453,2.0
28.888134002685547,-16.922449111938477,0.3253011703491211,0.907984204157926,-0.3869868177009877,0.1606421113075891,0.1855991524750662,3.0
29.0443115234375,-18.27686309814453,0.2486022710800171,-0.0,-0.0,-1.0,0.0346735024083618,2.0
29.628063201904297,-17.837060928344727,0.2531185150146484,-0.0,-0.0,-1.0,0.083494689818529,1.0
28.19475746154785,-18.020767211914062,0.3927667140960693,-0.8410114552813641,0.1326357687102297,-0.5245068969462349,0.0814116253613786,3.0
29.663841247558594,-18.205801010131836,0.3262102603912353,-0.0,-0.0,-1.0,0.0504698768137298,2.0
28.19622039794922,-18.011762619018555,0.3926980495452881,-0.8410114552813641,0.1326357687102297,-0.5245068969462349,0.0561276520632484,3.0
29.62519073486328,-18.19143295288086,0.3380194902420044,-0.0,-0.0,-1.0,0.0504698768137299,2.0
27.733558654785156,-16.73200798034668,0.315079927444458,0.7399609661268539,0.0125349859167532,-0.6725330049422703,0.0763194416767517,4.0
27.84200668334961,-17.179279327392578,0.2888211011886596,-0.0,-0.0,-1.0,0.0272725804598974,2.0
27.844417572021484,-16.786945343017578,0.310041069984436,-0.0,-0.0,-1.0,0.0661378152651426,2.0
27.857845306396484,-16.947063446044922,0.3011153936386108,-0.0,-0.0,-1.0,0.0696643646490438,1.0
28.071292877197266,-17.379947662353516,0.2734353542327881,-0.0,-0.0,-1.0,0.0465613789968478,1.0
28.426116943359375,-17.40576171875,0.2649176716804504,-0.0,-0.0,-1.0,0.1864949592773828,1.0
28.624858856201172,-18.0977783203125,0.222662091255188,-0.0,-0.0,-1.0,0.0255222772443899,1.0
28.716541290283203,-17.058591842651367,0.2780326604843139,0.6145204200725464,0.3627737458931899,0.7005425487466728,0.1928899948005707,3.0
29.052942276000977,-17.95053482055664,0.2215685844421386,-0.0,-0.0,-1.0,0.027270058526802,2.0
28.870851516723633,-18.051197052001953,0.2199552059173584,-0.0,-0.0,-1.0,0.0135690270016433,1.0
29.30971908569336,-17.889278411865234,0.2192726135253906,-0.0,-0.0,-1.0,0.0422384326000363,2.0
29.509849548339844,-17.94256591796875,0.2117844820022583,-0.0,-0.0,-1.0,0.0521868968691367,2.0
29.007980346679688,-16.483600616455078,0.1216919422149658,-0.0,-0.0,-1.0,0.0129161135937576,1.0
29.341053009033203,-16.505659103393555,0.1220179796218872,-0.0,-0.0,-1.0,0.0030689080484461,1.0
28.01737594604492,-18.29499626159668,0.8160908222198486,-0.0,-0.0,-1.0,0.0474564702084439,1.0
28.87649917602539,-17.11345863342285,0.4953354001045227,-0.0,-0.0,-1.0,0.1392379127781783,1.0
28.106861114501953,-18.156513214111328,0.5120425224304199,-0.0,-0.0,-1.0,0.0594177811585156,1.0
28.130630493164062,-18.199798583984375,0.5350205898284912,-0.0,-0.0,-1.0,0.0458088446409639,1.0
27.736249923706055,-16.8261661529541,0.3949238061904907,-0.0,-0.0,-1.0,0.077039305592552,2.0
28.861408233642575,-16.89608383178711,0.4205338954925537,-0.4338039083145735,-0.1124003433541001,-0.8939688651988286,0.0901061334420006,3.0
27.724367141723633,-17.416025161743164,0.3677480816841125,-0.0,-0.0,-1.0,0.0134779335743756,2.0
27.74337387084961,-17.549480438232422,0.3621177077293396,-0.0,-0.0,-1.0,0.0105403001836433,2.0
28.28641128540039,-17.990619659423828,0.3551381826400757,-0.0,-0.0,-1.0,0.0683159379936019,2.0
27.940053939819336,-18.028076171875,0.3449116945266723,-0.5541752656052671,0.8093003696181325,0.1947374815675853,0.0452542230744364,3.0
28.181570053100582,-18.12191390991211,0.4375721216201782,-0.0,-0.0,-1.0,0.1796886852897577,1.0
27.83176040649414,-16.46457862854004,0.2299977540969848,-0.8046118927432663,0.4076433970981954,-0.4317714243188655,0.0685317849375831,4.0
28.488189697265625,-16.893686294555664,0.1890296936035156,-0.0,-0.0,-1.0,0.0907935110729078,2.0
28.366546630859375,-16.71238899230957,0.2056493759155273,-0.0,-0.0,-1.0,0.0307848673693415,2.0
27.949535369873047,-16.7510986328125,0.205029010772705,-0.0,-0.0,-1.0,0.1171174418281095,1.0
29.167972564697266,-17.089155197143555,0.1652083396911621,-0.0,-0.0,-1.0,0.0232860867525746,1.0
28.5826358795166,-17.0728702545166,0.1725867986679077,-0.0,-0.0,-1.0,0.0610102654876579,1.0
29.102052688598633,-17.57625961303711,0.1226716041564941,-0.0,-0.0,-1.0,0.0217555208262505,1.0
28.734283447265625,-17.452964782714844,0.1377733945846557,-0.0,-0.0,-1.0,0.0528787619331943,1.0
29.500377655029297,-17.681440353393555,0.1079621315002441,-0.0,-0.0,-1.0,0.0495706239834902,1.0
29.273910522460938,-17.655372619628906,0.1134290695190429,-0.0,-0.0,-1.0,0.0352398445287177,1.0
27.83391571044922,-16.726207733154297,0.3364975452423095,-0.0,-0.0,-1.0,0.0633458867860001,2.0
28.88471221923828,-16.99232292175293,0.333574891090393,0.917597570909164,0.0112892916008108,-0.3973502859653604,0.1275507944957699,3.0
28.448272705078125,-17.013103485107422,0.3266279101371765,0.6325982958052473,-0.111736376604407,-0.7663774385298766,0.1855338619913946,3.0
27.92277717590332,-17.161741256713867,0.3102526664733886,-0.0,-0.0,-1.0,0.0361000451205939,1.0
28.53857421875,-17.461427688598633,0.2993619441986084,-0.0,-0.0,-1.0,0.1937352606531732,1.0
28.211864471435547,-17.56316566467285,0.2886840105056762,-0.0,-0.0,-1.0,0.0559672154579876,2.0
28.01095199584961,-17.38981819152832,0.2970235347747803,-0.0,-0.0,-1.0,0.0317399828394293,1.0
29.67626190185547,-18.013269424438477,0.2779828906059265,-0.0,-0.0,-1.0,0.0582604185694766,2.0
28.55708885192871,-18.034425735473633,0.2631663084030151,-0.0,-0.0,-1.0,0.0514791362839669,1.0
28.480159759521484,-17.878053665161133,0.2721472978591919,-0.0,-0.0,-1.0,0.0679288032872957,2.0
29.15555953979492,-18.288272857666016,0.2542691230773926,-0.0,-0.0,-1.0,0.038440914506391,1.0
28.775375366210938,-18.22606086730957,0.2536559104919433,-0.0,-0.0,-1.0,0.050077029111858,2.0
28.221847534179688,-18.328466415405273,0.8212804794311523,-0.0,-0.0,-1.0,0.0733334351872649,1.0
28.108442306518555,-18.288421630859375,0.8230101466178894,-0.0,-0.0,-1.0,0.0679785004403025,1.0
28.15011405944824,-16.54696273803711,0.2313112020492553,-0.0,-0.0,-1.0,0.0343152558964466,1.0
28.83381462097168,-16.967235565185547,0.2292747497558593,0.5153761068528359,0.0808571085891974,-0.8531410179306871,0.1823335437126922,6.0
28.383337020874023,-16.880300521850586,0.2188245058059692,0.1945838143362271,0.1051590768703783,-0.9752326428858572,0.0901703924384488,3.0
28.162931442260746,-16.940723419189453,0.2069505453109741,-0.0,-0.0,-1.0,0.0621959262150576,1.0
28.88601303100586,-17.09016990661621,0.2231718301773071,-0.0,-0.0,-1.0,0.1363986077953964,1.0
28.572267532348633,-17.383182525634766,0.1934399604797363,0.57773574698993,0.8112444172243239,-0.0900216761249989,0.157044155367809,3.0
28.39120864868164,-17.394441604614258,0.1863356828689575,-0.0,-0.0,-1.0,0.1127222268257941,1.0
28.766582489013672,-17.70279312133789,0.1795347929000854,0.6984341358455994,-0.7044296945515774,0.1263667809180161,0.0264550321356279,3.0
29.5234432220459,-17.899864196777344,0.1914540529251098,-0.0,-0.0,-1.0,0.0732702347750739,2.0
29.202878952026367,-17.945205688476562,0.1782509088516235,-0.4066446226674236,0.7035598725805056,-0.5827895473926858,0.0486708783804785,3.0
28.95774269104004,-17.847850799560547,0.1765564680099487,-0.0,-0.0,-1.0,0.0139644855399078,2.0
28.029382705688477,-16.403629302978516,0.2625857591629028,-0.0,-0.0,-1.0,0.0613465834758584,2.0
28.197664260864254,-16.70703887939453,0.2424403429031372,0.3737209246298164,0.0177268718330606,-0.9273717854824188,0.0995314510147325,4.0
28.850526809692383,-17.05089569091797,0.2251845598220825,-0.0,-0.0,-1.0,0.2464349937765485,1.0
28.329545974731445,-17.010883331298828,0.2214417457580566,-0.0,-0.0,-1.0,0.0740357267455183,2.0
28.528553009033203,-17.419151306152344,0.193100094795227,-0.0,-0.0,-1.0,0.1314705529994787,2.0
29.3367919921875,-17.661399841308594,0.1836278438568115,-0.4295044661029988,0.2267124833630954,-0.8741437887927341,0.0649291767649404,3.0
29.07176971435547,-17.72964859008789,0.1756526231765747,-0.0,-0.0,-1.0,0.021576246913086,2.0
28.797229766845703,-17.67285919189453,0.1770123243331909,0.6984341358455994,-0.7044296945515774,0.1263667809180161,0.0266311390111481,3.0
29.462053298950195,-17.70635986328125,0.1813346147537231,-0.0,-0.0,-1.0,0.053084345119623,2.0
27.768543243408203,-16.79483413696289,0.3374398946762085,0.0788268351880342,-0.4126335040997934,-0.9074799839933468,0.0770393055925519,4.0
27.9212703704834,-17.00537872314453,0.3164323568344116,-0.0,-0.0,-1.0,0.0502668632834651,1.0
27.918787002563477,-17.289039611816406,0.2916738986968994,-0.0,-0.0,-1.0,0.0222976427084686,1.0
28.870500564575195,-16.963512420654297,0.3015745878219604,0.3763482473499749,-0.4322173856540806,-0.8194816216700372,0.1978978841555101,5.0
28.56268882751465,-17.381010055541992,0.271024227142334,-0.5838895158977024,-0.2560882017509641,-0.7703842328012069,0.1995650123378432,3.0
28.14255714416504,-17.477577209472656,0.2708985805511474,-0.0206834125286678,0.0933526763032427,-0.9954182408782708,0.0540453825744594,3.0
28.112924575805664,-17.488866806030273,0.270455539226532,-0.0,-0.0,-1.0,0.0498002065179851,2.0
28.52731132507324,-17.74570083618164,0.2394443750381469,-0.0,-0.0,-1.0,0.0530082356438247,1.0
28.2896671295166,-17.736927032470703,0.245139479637146,-0.0,-0.0,-1.0,0.0501999089779956,2.0
29.398164749145508,-17.797597885131836,0.2151979207992553,-0.0,-0.0,-1.0,0.054799935267008,2.0
29.179908752441406,-17.93368911743164,0.208181619644165,-0.4066446226674236,0.7035598725805056,-0.5827895473926858,0.0313809875324451,3.0
28.823991775512695,-17.944725036621094,0.2153295278549194,-0.0,-0.0,-1.0,0.0315647840418012,1.0
29.593738555908203,-17.792823791503906,0.2108278274536132,-0.0,-0.0,-1.0,0.1031616782951988,1.0
27.932147979736328,-17.9034366607666,0.3368895053863525,-0.0,-0.0,-1.0,0.0362069369275695,1.0
27.75366973876953,-17.986007690429688,0.3363893032073974,-0.0,-0.0,-1.0,0.0403235074523931,1.0
28.151098251342773,-17.953548431396484,0.3215652704238891,-0.0,-0.0,-1.0,0.0507841672415719,1.0
28.740215301513672,-18.21619033813477,0.2631343603134155,-0.0,-0.0,-1.0,0.0479940679540015,2.0
28.437437057495117,-18.20734214782715,0.2808283567428589,-0.0,-0.0,-1.0,0.0590405312889281,1.0
29.666730880737305,-18.069623947143555,0.2202354669570922,-0.0,-0.0,-1.0,0.0503463807490584,1.0
29.257606506347656,-18.099573135375977,0.2443093061447143,-0.0,-0.0,-1.0,0.0356406769319991,1.0
29.01282501220703,-18.227516174316406,0.2458961009979248,-0.0,-0.0,-1.0,0.0327891331609531,2.0
27.742746353149418,-16.8780517578125,0.4467675685882568,-0.0,-0.0,-1.0,0.0677703442166772,1.0
28.369667053222656,-16.978368759155273,0.4109338521957397,-0.0,-0.0,-1.0,0.1495513897254794,1.0
28.86117172241211,-16.999876022338867,0.3844077587127685,-0.0,-0.0,-1.0,0.101042426434943,2.0
28.60467529296875,-17.351661682128906,0.3611774444580078,-0.3297673307329967,0.8854190613693952,-0.3275463224415335,0.1409471045925605,4.0
29.551828384399418,-17.871660232543945,0.2497047185897827,-0.0375286733323281,-0.0095473733289573,-0.9992499418766224,0.0707739735654629,3.0
28.017906188964844,-16.38097381591797,0.2597522735595703,-0.0,-0.0,-1.0,0.0643050348488224,2.0
28.217632293701172,-16.662837982177734,0.2504668235778808,-0.0,-0.0,-1.0,0.093449424772266,2.0
28.203643798828125,-16.754779815673828,0.2430038452148437,-0.0,-0.0,-1.0,0.0978925461295514,2.0
28.871158599853516,-16.91451644897461,0.2682734131813049,0.1921665957857318,-0.1243168326190071,-0.9734563804258004,0.2250470482598234,6.0
28.473970413208008,-16.962635040283203,0.2428808212280273,-0.0,-0.0,-1.0,0.161587527873801,1.0
28.931913375854492,-16.985614776611328,0.2663981318473816,-0.0,-0.0,-1.0,0.2284661576084899,1.0
28.610862731933594,-17.309478759765625,0.2251077890396118,0.6750171586911469,0.6230885779989253,-0.3951106926417055,0.1425347453857236,3.0
29.235992431640625,-17.652454376220703,0.2340291738510131,-0.0,-0.0,-1.0,0.030500332600958,1.0
28.990507125854492,-17.597488403320312,0.2247622013092041,-0.0,-0.0,-1.0,0.013458243730708,1.0
29.427509307861328,-17.750566482543945,0.2371187210083007,0.7867376179769763,-0.2926646059443205,-0.5434991710089068,0.050422676744709,3.0
29.671730041503903,-18.0,0.2318240404129028,-0.0,-0.0,-1.0,0.0582604185694766,2.0
27.74595832824707,-16.728652954101562,0.355138897895813,0.6632345805991576,-0.329550382888544,-0.6719497274614175,0.0860341646959059,4.0
28.575368881225582,-16.918338775634766,0.244508147239685,-0.0,-0.0,-1.0,0.0968055969915746,2.0
28.260536193847656,-16.980085372924805,0.2694892883300781,-0.0,-0.0,-1.0,0.0985396573038919,2.0
27.945384979248047,-16.958934783935547,0.3046135902404785,-0.0,-0.0,-1.0,0.0713034165665142,1.0
29.58760643005371,-16.836647033691406,0.1388903856277465,-0.3710887929111923,0.545796177664871,-0.7512653593918268,0.0094948360543114,3.0
29.25135612487793,-16.977636337280273,0.1596750020980835,-0.119905654072353,-0.2972822680096979,-0.9472306409995888,0.0650179035039117,3.0
28.75874710083008,-17.180248260498047,0.18812096118927,-0.0,-0.0,-1.0,0.0916054241736015,1.0
28.303396224975582,-17.230514526367188,0.2309609651565551,-0.0,-0.0,-1.0,0.0944859886276776,1.0
28.918779373168945,-17.330577850341797,0.1493006944656372,-0.0,-0.0,-1.0,0.0490824426185306,1.0
29.4819393157959,-17.74050521850586,0.1872153282165527,-0.6416479696183371,-0.3555047826720609,-0.6796353673713249,0.0514780172848396,4.0
29.676912307739254,-18.135818481445312,0.1721116304397583,-0.0,-0.0,-1.0,0.0505746242700777,2.0
29.380897521972656,-18.094806671142575,0.1525542736053466,-0.0,-0.0,-1.0,0.0356681930201067,1.0
28.54220199584961,-17.28349494934082,0.2110840082168579,-0.4826873660555432,0.5996034489784758,-0.6383483458296719,0.1979848360828954,4.0
28.448894500732425,-16.914562225341797,0.2358349561691284,-0.0890132493172853,0.2889851759066065,-0.9531863456597596,0.1086190423138418,5.0
27.942296981811523,-16.669836044311523,0.230249285697937,-0.0,-0.0,-1.0,0.107614720816132,1.0
27.79129409790039,-16.501792907714844,0.2356175184249878,-0.0,-0.0,-1.0,0.0743101568516745,2.0
28.453433990478516,-17.711074829101562,0.1732294559478759,-0.0,-0.0,-1.0,0.0425114395604044,1.0
28.275354385375977,-17.460926055908203,0.1845389604568481,-0.0,-0.0,-1.0,0.0719430138897369,1.0
28.082365036010746,-17.241920471191406,0.1923722028732299,-0.0,-0.0,-1.0,0.0426292992520277,1.0
28.460124969482425,-17.30204963684082,0.4755405187606811,-0.0,-0.0,-1.0,0.2719689511918984,1.0
28.881576538085938,-18.323816299438477,0.4197940826416015,-0.0,-0.0,-1.0,0.039427204364789,1.0
28.680883407592773,-18.304603576660156,0.42226243019104,-0.0,-0.0,-1.0,0.0716367686297884,1.0
28.45866584777832,-18.22489356994629,0.4276412725448608,-0.0,-0.0,-1.0,0.060784220955261,1.0
28.495525360107425,-17.905990600585938,0.2145740985870361,-0.0,-0.0,-1.0,0.0505073286137224,1.0
28.50006866455078,-17.244457244873047,0.2234652042388916,-0.0,-0.0,-1.0,0.1378892214265034,1.0
28.96869659423828,-17.878345489501953,0.1779921054840088,0.8831760671475434,0.3002795857469588,-0.3603223623388274,0.0156044518123738,3.0
28.331748962402344,-17.039932250976562,0.239444613456726,-0.0,-0.0,-1.0,0.0906012549710388,2.0
28.63762855529785,-17.347240447998047,0.21128511428833,-0.7863598156921714,-0.2487887144742459,-0.5654577047090491,0.1905341869313288,5.0
29.4136905670166,-17.607872009277344,0.1465405225753784,-0.0,-0.0,-1.0,0.045861429481707,1.0
28.859390258789062,-16.919540405273438,0.1997509002685547,0.0864033711431032,-0.7447800197221288,-0.6616926625540089,0.22639273355747,3.0
29.697113037109375,-17.349937438964844,0.127414584159851,-0.0,-0.0,-1.0,0.0168053791455359,1.0
28.33950424194336,-16.685302734375,0.1904306411743164,-0.4890495397015708,-0.7440370048048724,-0.4552356348075969,0.0290075167978345,3.0
28.72490692138672,-17.319576263427734,0.1499634981155395,-0.0,-0.0,-1.0,0.0819264419079467,1.0
29.49917221069336,-16.753398895263672,0.1050331592559814,-0.0,-0.0,-1.0,0.0068290638623895,1.0
29.6467227935791,-16.72463607788086,0.0947426557540893,-0.0,-0.0,-1.0,0.0071399584214389,2.0
28.547494888305664,-18.3148250579834,0.2569478750228882,-0.0,-0.0,-1.0,0.0849787793175617,2.0
28.31955337524414,-17.81781005859375,0.2828357815742492,-0.0,-0.0,-1.0,0.0330227616991705,1.0
28.645122528076172,-18.285709381103516,0.2504702806472778,-0.0,-0.0,-1.0,0.0597877713798693,2.0
28.96160125732422,-18.19375991821289,0.2292889356613159,-0.0,-0.0,-1.0,0.0296994797129151,1.0
27.776622772216797,-16.72223663330078,0.3427141904830932,-0.4135052261793704,0.3428611687068792,-0.8434806737058657,0.086034164695906,3.0
27.880218505859375,-16.783615112304688,0.3341425657272339,-0.0,-0.0,-1.0,0.0843674107692972,2.0
28.435136795043945,-17.0888671875,0.2884239554405212,-0.0,-0.0,-1.0,0.1625328191398474,1.0
28.58834457397461,-17.32546043395996,0.2728379368782043,-0.7359728780464609,0.4045099749853242,0.5428771526942182,0.2202811794756051,4.0
29.289121627807617,-17.90970230102539,0.2106908559799194,-0.0,-0.0,-1.0,0.0501800505670029,2.0
28.829755783081055,-16.967792510986328,0.26201993227005,0.94494813510873,-0.3132708127312358,-0.0945220600983932,0.2367595809825428,7.0
29.50770568847656,-17.80031394958496,0.1966223716735839,-0.6247429757211527,-0.5097384253853932,-0.5914921402459198,0.0764220564603694,3.0
27.976348876953125,-16.566795349121094,0.4091813564300537,-0.0,-0.0,-1.0,0.0713532823576964,1.0
28.263072967529297,-17.57361602783203,0.3729780912399292,-0.0,-0.0,-1.0,0.0662680843007244,1.0
28.60835647583008,-17.950115203857422,0.3588914275169372,-0.0,-0.0,-1.0,0.0562992758262135,1.0
28.190776824951172,-16.782772064208984,0.4010813236236572,-0.0,-0.0,-1.0,0.0888665081651405,1.0
28.745380401611328,-17.760677337646484,0.3652418851852417,-0.0,-0.0,-1.0,0.0277357350128316,1.0
28.933046340942383,-17.202251434326172,0.3844413757324219,-0.0,-0.0,-1.0,0.2100460482640483,1.0
29.25134658813477,-16.889751434326172,0.3945418000221252,-0.0,-0.0,-1.0,0.0627681864866886,1.0
28.93966293334961,-16.455772399902344,0.1164017915725708,-0.0,-0.0,-1.0,0.0199406587433863,1.0
29.05467987060547,-16.590482711791992,0.1088066101074218,-0.0,-0.0,-1.0,0.0123582167281132,1.0
29.291240692138672,-16.713102340698242,0.1003594398498535,-0.0,-0.0,-1.0,0.0083276301329206,2.0
29.6876163482666,-16.781530380249023,0.0923991203308105,-0.0,-0.0,-1.0,0.0057746877415173,2.0
28.51768493652344,-16.675037384033203,0.13385009765625,-0.0,-0.0,-1.0,0.0281306293076665,1.0
28.854612350463867,-16.38339614868164,0.1158063411712646,0.4489330281527357,0.8761618379739492,-0.1754980624158747,0.0194387022266685,3.0
28.675521850585938,-16.707637786865234,0.1192691326141357,-0.0,-0.0,-1.0,0.0421279771059377,2.0
28.177021026611328,-18.189210891723633,0.7635201811790466,-0.0,-0.0,-1.0,0.0763190480632933,1.0
28.193382263183594,-18.059185028076172,0.3852567672729492,-0.8410114552813641,0.1326357687102297,-0.5245068969462349,0.1467707536761969,3.0
28.558305740356445,-17.360519409179688,0.3839120268821716,-0.6202457282933341,0.4585621673225584,0.6364086542735803,0.1862600644984353,4.0
28.86246681213379,-16.938385009765625,0.3774805665016174,-0.0,-0.0,-1.0,0.1369131126491165,2.0
28.619422912597656,-17.3293399810791,0.3809112310409546,-0.5395238030886448,0.8150481040170732,-0.2112123434814809,0.1378790762242494,4.0
29.681949615478516,-18.269779205322266,0.280879259109497,-0.0,-0.0,-1.0,0.0495631698510569,2.0
27.852214813232425,-16.93509292602539,0.3595309257507324,-0.0,-0.0,-1.0,0.0936413069328482,1.0
28.020801544189453,-16.785722732543945,0.3509419560432434,-0.0,-0.0,-1.0,0.1443502413765871,1.0
28.38224983215332,-17.849557876586914,0.2781698703765869,-0.0,-0.0,-1.0,0.042807279292019,2.0
28.4200496673584,-17.03573226928711,0.3066307306289673,0.2929249258861878,0.4378777858083068,-0.8499753128710187,0.1982309151425863,5.0
28.588178634643555,-17.338924407958984,0.280181884765625,-0.7583248647710868,0.3193297159457199,0.5683061956233975,0.1986979737184514,3.0
28.670974731445312,-18.099523544311523,0.2433573007583618,-0.0,-0.0,-1.0,0.0469707434708112,2.0
28.882490158081055,-17.003284454345703,0.2673310041427612,-0.0,-0.0,-1.0,0.2762744928712454,2.0
29.212158203125,-17.864334106445312,0.2049593925476074,-0.0,-0.0,-1.0,0.0375202332737245,1.0
28.99199676513672,-18.06354331970215,0.2166965007781982,-0.0,-0.0,-1.0,0.0177633452861618,1.0
29.4054012298584,-17.73366928100586,0.1927791833877563,-0.8301692260484282,0.0463535107408827,-0.5555811445361956,0.0696166840494172,3.0
29.646635055541992,-17.50778579711914,0.1798075437545776,-0.3920634595636505,-0.1230930909607681,-0.9116656923635472,0.0567782455294155,3.0
27.902193069458008,-16.37870216369629,0.2881851196289062,-0.0,-0.0,-1.0,0.0966575361227282,2.0
27.983135223388672,-16.692808151245117,0.256160020828247,-0.0,-0.0,-1.0,0.0979842201938695,1.0
28.09111976623535,-16.942901611328125,0.2279515266418457,-0.0,-0.0,-1.0,0.107160678221261,2.0
28.337665557861328,-16.851015090942383,0.2201180458068847,-0.1448122059516526,0.6313923978447503,-0.7618222003533847,0.0554782107782567,5.0
28.501407623291016,-17.04656982421875,0.1928327083587646,-0.0,-0.0,-1.0,0.1268078739413293,1.0
28.639867782592773,-17.25165557861328,0.1663233041763305,-0.0,-0.0,-1.0,0.118563547897914,2.0
28.83796501159668,-16.990114212036133,0.1754565238952636,-0.0,-0.0,-1.0,0.1425878590693979,2.0
28.695539474487305,-17.231761932373047,0.1643687486648559,-0.0,-0.0,-1.0,0.0870081467459052,2.0
29.22537612915039,-16.945825576782227,0.152980089187622,0.5511314293998192,0.2850653808820678,-0.7842141774733952,0.0698171653592432,3.0
29.628562927246097,-16.87321662902832,0.1309897899627685,0.7040298166792018,0.6153895511550044,-0.3544541120595042,0.0100129763104047,3.0
27.879634857177734,-16.41697120666504,0.266588807106018,-0.0,-0.0,-1.0,0.0966575361227282,2.0
28.26730155944824,-16.70186424255371,0.2092306613922119,-0.0,-0.0,-1.0,0.0539072922551786,1.0
28.400850296020508,-16.81075668334961,0.1883291006088256,-0.664597016812542,0.3343439323302672,-0.6682252166431641,0.0551124435021892,3.0
28.802188873291016,-16.560531616210938,0.1784416437149047,-0.0,-0.0,-1.0,0.0266828585657555,2.0
28.66076278686523,-16.864938735961914,0.1620327234268188,-0.0,-0.0,-1.0,0.050108649414739,1.0
29.089435577392575,-16.710800170898438,0.1403864622116089,-0.0,-0.0,-1.0,0.0190413890222574,1.0
29.41974639892578,-16.60110092163086,0.1220580339431762,-0.0,-0.0,-1.0,0.0045171350559755,1.0
29.648134231567383,-16.5238037109375,0.1091492176055908,-0.0,-0.0,-1.0,0.0041349584013449,1.0
27.727283477783203,-17.391389846801758,0.327001690864563,0.9886273001891912,-0.1491291905387554,-0.0194047893543437,0.0109310575961471,3.0
28.01077461242676,-17.47742462158203,0.286972165107727,-0.0,-0.0,-1.0,0.0346118263989741,1.0
28.217063903808594,-17.599231719970703,0.2525167465209961,-0.0,-0.0,-1.0,0.0334775697403876,2.0
28.601299285888672,-17.400617599487305,0.2226393222808838,0.077919968605244,0.996161414634054,-0.0398862694023659,0.2190405855381469,4.0
28.45917701721191,-17.745624542236328,0.2114642858505249,-0.0,-0.0,-1.0,0.0425114395604044,1.0
28.93540954589844,-16.97657585144043,0.21592378616333,-0.1708800385350586,-0.279197363424941,-0.9449067915338624,0.2484782642850133,4.0
28.98439598083496,-16.975454330444336,0.2098497152328491,-0.0958672536247009,0.2702679645464889,-0.958000363790304,0.1291601216245712,4.0
28.877418518066406,-17.59039878845215,0.1731098890304565,-0.0,-0.0,-1.0,0.0290031717958467,1.0
29.405132293701172,-17.16366958618164,0.140995979309082,-0.0,-0.0,-1.0,0.0113747810577707,1.0
29.300682067871097,-17.461153030395508,0.1303852796554565,-0.0,-0.0,-1.0,0.0196928648032415,2.0
29.6473331451416,-16.994619369506836,0.1229563951492309,-0.0,-0.0,-1.0,0.0094015830284114,1.0
28.155197143554688,-18.25830078125,0.7541248798370361,-0.0,-0.0,-1.0,0.0688840578379345,1.0
27.818313598632812,-16.889101028442383,0.3364475965499878,-0.0,-0.0,-1.0,0.0706882408426921,1.0
28.39220428466797,-17.050201416015625,0.2763268947601318,-0.0,-0.0,-1.0,0.1999045092604963,2.0
28.321298599243164,-17.57853126525879,0.2271273136138916,-0.0,-0.0,-1.0,0.0612794678610056,1.0
28.65855598449707,-17.444334030151367,0.2146458625793457,-0.0,-0.0,-1.0,0.116547711371259,1.0
28.88960075378418,-17.64089584350586,0.1758866310119629,-0.0,-0.0,-1.0,0.033138767134792,1.0
28.85289001464844,-16.98497772216797,0.2460819482803344,0.4909774193664942,0.7689497654026091,0.4094599271717436,0.2329887178045761,5.0
29.083921432495117,-17.526409149169922,0.1716370582580566,-0.0,-0.0,-1.0,0.0194880488773211,2.0
29.15021514892578,-17.58596420288086,0.1599693298339843,-0.0,-0.0,-1.0,0.027176710802096,1.0
29.627849578857425,-17.39986801147461,0.1379716396331787,-0.0,-0.0,-1.0,0.0235463496713652,2.0
29.4167537689209,-17.532325744628906,0.1429104804992675,-0.0,-0.0,-1.0,0.0273509667001201,2.0
28.04605484008789,-16.744047164916992,0.3346190452575683,-0.0,-0.0,-1.0,0.1449522546812864,2.0
28.827070236206055,-17.7940731048584,0.195886492729187,-0.0,-0.0,-1.0,0.0379535557272024,2.0
29.170989990234375,-17.76895523071289,0.1774110794067382,-0.0,-0.0,-1.0,0.0387176870969641,1.0
29.502954483032227,-17.64979362487793,0.1694617271423339,-0.0,-0.0,-1.0,0.0498090384020312,2.0
27.78648376464844,-16.81938362121582,0.369430661201477,0.2342110427010658,-0.7033826148278697,-0.671117042426124,0.0756868404887635,3.0
27.807632446289062,-17.1090087890625,0.3341540098190307,-0.0,-0.0,-1.0,0.0329028251260647,1.0
28.015268325805664,-17.33273696899414,0.2966907024383545,-0.0,-0.0,-1.0,0.0338109412749408,1.0
28.395151138305664,-17.010116577148438,0.3134280443191528,0.3122765485827216,-0.2353376292610066,-0.9203801157451588,0.1999045092604962,4.0
28.17667579650879,-17.501497268676758,0.2679463624954223,-0.0,-0.0,-1.0,0.0556857685815736,2.0
28.40308380126953,-17.75233268737793,0.2256842851638794,-0.0,-0.0,-1.0,0.0638448696435525,1.0
28.58027458190918,-17.38399887084961,0.2586891651153564,-0.6942418315413675,-0.1138709882388899,-0.7106769149026764,0.2443222851994931,5.0
28.8169002532959,-17.74989128112793,0.2016446590423584,-0.0,-0.0,-1.0,0.0275393922383823,2.0
28.85577392578125,-16.945819854736328,0.2931033372879028,0.5733511766391676,-0.3775514922825461,-0.7271336183410203,0.2249998123651261,6.0
29.149097442626953,-17.696701049804688,0.187101125717163,-0.0,-0.0,-1.0,0.0419063607341966,2.0
29.543363571166992,-17.571510314941406,0.175753116607666,-0.0,-0.0,-1.0,0.0403781222993593,1.0
27.79498291015625,-17.659008026123047,0.3835023641586303,-0.0,-0.0,-1.0,0.0077203436344538,1.0
27.891258239746097,-18.07123565673828,0.3283194303512573,-0.0,-0.0,-1.0,0.0452884334383095,2.0
28.297487258911133,-17.076276779174805,0.423490047454834,-0.0,-0.0,-1.0,0.1406627944919835,1.0
28.22889709472656,-18.034570693969727,0.3130165338516235,-0.0,-0.0,-1.0,0.0906851636871042,1.0
28.476638793945312,-18.330860137939453,0.262427806854248,-0.0,-0.0,-1.0,0.0567849241228884,1.0
28.684642791748047,-17.226335525512695,0.3804678916931152,-0.0,-0.0,-1.0,0.1299662361858708,1.0
28.529239654541016,-17.445323944091797,0.3647502660751343,-0.0,-0.0,-1.0,0.225865341287454,1.0
28.70684242248535,-18.31841468811035,0.249308705329895,-0.0,-0.0,-1.0,0.0565436072772744,1.0
29.21200942993164,-18.171537399291992,0.2329633235931396,-0.0,-0.0,-1.0,0.0253804333345338,1.0
28.978290557861328,-18.314985275268555,0.2319293022155761,-0.0,-0.0,-1.0,0.033512916178669,1.0
29.510154724121097,-18.11896324157715,0.2179629802703857,-0.0,-0.0,-1.0,0.0591116249590286,2.0
29.402984619140625,-18.2729549407959,0.2075986862182617,-0.0,-0.0,-1.0,0.0425086662993987,1.0
28.789093017578125,-17.103477478027344,0.1430712938308715,-0.0,-0.0,-1.0,0.1135296821333758,1.0
29.332855224609375,-16.88180923461914,0.1346935033798217,-0.0,-0.0,-1.0,0.0497063154614707,1.0
29.20173454284668,-16.949399948120117,0.1350659132003784,-0.0,-0.0,-1.0,0.0232654423392552,2.0
29.60600471496582,-16.8563289642334,0.1155035495758056,0.0672955338938624,0.2642869773978734,-0.9620933970752714,0.0094948360543115,4.0
27.873369216918945,-16.56061553955078,0.2891272306442261,-0.0,-0.0,-1.0,0.1067439302970328,1.0
28.035614013671875,-16.786666870117188,0.2436622381210327,-0.0,-0.0,-1.0,0.1127219346257852,1.0
27.717958450317383,-18.260231018066406,0.4261866807937622,-0.0,-0.0,-1.0,0.1251792028572201,2.0
28.262924194335938,-16.46830940246582,0.2784065008163452,-0.0,-0.0,-1.0,0.0354037999225396,1.0
28.336740493774418,-16.875694274902344,0.2100239992141723,0.0005517645070677,0.1549676789663859,-0.987919386403415,0.070752553144905,5.0
28.94746971130371,-16.83749008178711,0.1720216274261474,-0.0,-0.0,-1.0,0.0578514966330081,2.0
28.881223678588867,-16.93180274963379,0.3418269157409668,0.8407957135071364,0.2379403045823248,0.4862581409121047,0.1753973170361561,3.0
29.05979347229004,-16.8475399017334,0.1617859601974487,-0.0,-0.0,-1.0,0.0343103644006698,2.0
28.98540687561035,-17.124513626098633,0.4915412664413452,-0.0,-0.0,-1.0,0.0833496071983197,1.0
28.289321899414062,-18.17634391784668,0.7996269464492798,-0.0,-0.0,-1.0,0.0702992857909492,1.0
27.82427215576172,-16.483152389526367,0.2753976583480835,-0.9602971749414092,0.2751929631710917,-0.0458057727875309,0.105323805715228,3.0
28.224348068237305,-16.606327056884766,0.2183986902236938,-0.0,-0.0,-1.0,0.0539442469248143,2.0
28.112382888793945,-16.728015899658203,0.2081658840179443,-0.0,-0.0,-1.0,0.0956842411296837,1.0
27.727567672729492,-18.124771118164062,0.3620582818984985,-0.0,-0.0,-1.0,0.0598928572048394,2.0
28.86182403564453,-16.457338333129883,0.1800917387008667,-0.0386539232723207,-0.0500737845944946,-0.997997239631474,0.0230952392452148,3.0
28.577531814575195,-16.762866973876953,0.1581249237060547,-0.0,-0.0,-1.0,0.0298476110497008,1.0
28.38131332397461,-16.763587951660156,0.177106499671936,-0.0,-0.0,-1.0,0.0370562921113354,2.0
28.208744049072266,-17.962505340576172,0.3480474948883056,-0.0,-0.0,-1.0,0.0524507100241757,2.0
28.051834106445312,-18.07572364807129,0.3446615934371948,-0.0,-0.0,-1.0,0.0557972141043297,1.0
29.202606201171875,-16.561321258544922,0.1264973878860473,-0.0,-0.0,-1.0,0.0083179698675444,1.0
28.95157814025879,-16.688186645507812,0.1324440240859985,-0.0,-0.0,-1.0,0.0258710651051244,1.0
28.53550720214844,-18.294849395751953,0.2770003080368042,-0.0,-0.0,-1.0,0.0883064769005618,2.0
29.506731033325195,-16.471637725830078,0.106824517250061,-0.0,-0.0,-1.0,0.0042477010977791,1.0
29.05518341064453,-18.24492645263672,0.2401221990585327,-0.2068754339782182,-0.1846885538298534,-0.960777129671893,0.039202937461191,3.0
28.83549118041992,-18.28251266479492,0.2538279294967651,-0.0,-0.0,-1.0,0.0450266826179381,1.0
29.51076316833496,-17.85215187072754,0.2510606050491333,-0.0040900037678616,0.122922625138826,-0.9924078295228018,0.0801700629708818,4.0
29.337663650512695,-18.12992286682129,0.2302392721176147,-0.0,-0.0,-1.0,0.0323477900306213,1.0
28.573732376098633,-17.35967254638672,0.3996428251266479,-0.4782321717477887,0.6417835602376307,0.5995063400116009,0.1473061338255831,4.0
28.866485595703125,-17.08910369873047,0.4102836847305298,-0.0,-0.0,-1.0,0.1247463739595222,1.0
28.602502822875977,-17.34027099609375,0.3998023271560669,-0.4234046580952897,0.8832840265653348,-0.2013400703231715,0.1378790762242493,6.0
28.58546257019043,-16.917434692382812,0.1502820253372192,-0.0,-0.0,-1.0,0.0824923480897345,1.0
29.04840087890625,-16.77490234375,0.1297820806503296,-0.0,-0.0,-1.0,0.0271886206171771,1.0
28.743650436401367,-16.910104751586914,0.1364189386367797,-0.0,-0.0,-1.0,0.0895946372314181,1.0
29.55994415283203,-16.612112045288086,0.1020312309265136,-0.0,-0.0,-1.0,0.0047302473569097,1.0
29.287466049194336,-16.670387268066406,0.1228853464126586,-0.0,-0.0,-1.0,0.0081739847376067,2.0
28.068439483642575,-16.382247924804688,0.2965155839920044,-0.0,-0.0,-1.0,0.0678122023445402,1.0
28.105710983276367,-16.806386947631836,0.2139438390731811,-0.0,-0.0,-1.0,0.1052778312200539,2.0
27.962215423583984,-16.896873474121094,0.2090620994567871,-0.0,-0.0,-1.0,0.1024331711892728,2.0
28.445940017700195,-16.878585815429688,0.1704185009002685,-0.0,-0.0,-1.0,0.0888713873458056,2.0
27.973209381103516,-18.000831604003906,0.3260395526885986,-0.5541752656052671,0.8093003696181325,0.1947374815675853,0.043234568411793,3.0
27.716630935668945,-18.120948791503903,0.3231959342956543,-0.6396712013646733,-0.7614256234598099,0.10512741832422,0.0598928572048393,3.0
28.802932739257812,-17.075965881347656,0.4067851305007934,-0.0,-0.0,-1.0,0.1675486260273347,1.0
28.52876663208008,-17.393993377685547,0.3806887865066528,-0.0,-0.0,-1.0,0.2136664170818974,2.0
28.365413665771484,-18.079273223876953,0.2875959873199463,-0.0,-0.0,-1.0,0.0748597016480556,1.0
28.94379997253418,-18.1441707611084,0.2348369359970092,-0.0,-0.0,-1.0,0.0311591597558449,1.0
28.687644958496097,-18.21815490722656,0.2430715560913086,-0.0,-0.0,-1.0,0.0788812397587876,1.0
29.462127685546875,-17.991065979003906,0.2150197029113769,-0.0,-0.0,-1.0,0.0466603149326918,1.0
29.17420768737793,-18.076496124267575,0.226452350616455,-0.0,-0.0,-1.0,0.0365932147403034,1.0
28.777664184570312,-16.936120986938477,0.7275922298431396,-0.0,-0.0,-1.0,0.076354824351809,1.0
27.819618225097656,-16.582015991210938,0.258427619934082,-0.0,-0.0,-1.0,0.0674846738070733,2.0
28.339534759521484,-16.613452911376953,0.1857839822769165,-0.0,-0.0,-1.0,0.0332754489758549,1.0
28.15392684936523,-16.69091796875,0.1948158740997314,-0.0,-0.0,-1.0,0.0668244379343544,2.0
27.72824478149414,-17.546796798706055,0.3537479639053345,-0.0,-0.0,-1.0,0.0105403001836433,2.0
28.88454818725586,-16.484474182128906,0.1343709230422973,-0.0,-0.0,-1.0,0.02205510314346,1.0
28.656286239624023,-16.680477142333984,0.129463791847229,-0.0,-0.0,-1.0,0.0339919418690429,2.0
28.42220115661621,-17.05974578857422,0.3632750511169433,-0.0,-0.0,-1.0,0.1860631316563399,1.0
28.491291046142575,-17.42885971069336,0.2943980693817138,-0.0,-0.0,-1.0,0.2403903110425284,1.0
28.10109519958496,-17.76620101928711,0.2790306806564331,-0.0,-0.0,-1.0,0.0329275218146151,1.0
