x,y,z,nx,ny,nz,curvature,density
18.20435905456543,26.95463180541992,-1.0687665939331057,-0.0,-0.0,-1.0,0.0749679024617109,2.0
19.12889862060547,27.21580696105957,-0.9784224033355712,-0.0,-0.0,-1.0,0.0745658364804759,2.0
19.116622924804688,27.15974998474121,-1.6485286951065063,-0.0,-0.0,-1.0,0.1696294259723847,1.0
18.28491973876953,27.465646743774418,-1.8167568445205688,-0.0,-0.0,-1.0,0.1035498725521698,1.0
19.06625747680664,27.058109283447266,-1.6455334424972534,0.8967250898894573,0.0094509028464836,-0.4424870547237866,0.180384622104791,3.0
18.20357131958008,27.205455780029297,-1.8026317358016968,-0.0,-0.0,-1.0,0.097772449029866,1.0
19.110198974609375,26.176681518554688,-1.5446339845657349,-0.0,-0.0,-1.0,0.083687884288804,2.0
18.897350311279297,26.12194442749023,-1.5748463869094849,0.0159804308964382,-0.862544087023278,0.5057294966378206,0.0619949297300976,3.0
18.46246337890625,26.16025733947754,-1.6525160074234009,-0.0,-0.0,-1.0,0.1951405673764173,2.0
18.320106506347656,25.939308166503903,-1.6554158926010132,-0.0,-0.0,-1.0,0.1902012463704341,1.0
19.07518768310547,27.18218231201172,-1.107272028923035,-0.0,-0.0,-1.0,0.1090932248341955,2.0
18.284610748291016,27.485774993896484,-1.2402948141098022,-0.0,-0.0,-1.0,0.0980992031161328,1.0
18.94916534423828,27.004558563232425,-1.1093858480453491,0.1205281193297342,0.0665542007272671,-0.9904764059867314,0.1676362166204582,4.0
18.327491760253903,26.855411529541016,-1.1831837892532349,-0.0,-0.0,-1.0,0.1333203126215129,1.0
17.859539031982422,25.919178009033203,-1.1795505285263062,-0.0,-0.0,-1.0,0.1619503111717697,1.0
17.71578598022461,26.169069290161133,-1.218577265739441,-0.0,-0.0,-1.0,0.1130646643446313,1.0
17.886341094970703,25.696582794189453,-1.1598321199417114,-0.0,-0.0,-1.0,0.2101005363690259,1.0
18.03462600708008,27.23596572875977,-1.5466798543930054,-0.0,-0.0,-1.0,0.2067909350671177,1.0
18.25466537475586,26.70880889892578,-1.4548832178115845,0.7983034255552948,-0.2060377723003899,0.5659152561401526,0.260859771329442,3.0
18.058265686035156,26.702293395996097,-1.4844259023666382,0.8808448744943046,0.4362917664861977,0.1837438477159583,0.250741484351142,4.0
18.25528335571289,26.449047088623047,-1.4265884160995483,-0.7182714669176917,-0.6913141844031822,0.0785544286139894,0.103011643639454,3.0
18.073410034179688,26.544435501098633,-1.4651013612747192,-0.0,-0.0,-1.0,0.2022434329741335,1.0
19.05376434326172,27.077186584472656,-1.376989722251892,0.8595301661627488,-0.2445400893275199,-0.4487850690117992,0.1972762391687635,3.0
19.68203353881836,26.203285217285156,-1.1832202672958374,-0.0,-0.0,-1.0,0.1274071228914669,2.0
18.41051483154297,26.170024871826172,-1.3725506067276,-0.5401243161817875,0.376547013333035,-0.7526473741528151,0.1526610766972634,6.0
17.91058349609375,25.78706741333008,-1.4124454259872437,-0.3138224855379786,0.0341886250959026,-0.9488659470572318,0.2296182454254054,3.0
17.777145385742188,25.671913146972656,-1.4227474927902222,0.5967280192680194,0.1008179308870418,-0.7960850556517948,0.1672603539855112,3.0
17.904483795166016,25.980224609375,-0.9136773347854614,-0.0,-0.0,-1.0,0.1638879114366128,1.0
18.119674682617188,27.56571578979492,-1.8212921619415283,-0.0,-0.0,-1.0,0.1954459083221247,1.0
18.072284698486328,27.205350875854492,-1.7782597541809082,-0.0,-0.0,-1.0,0.0916072208265959,2.0
18.079917907714844,26.849281311035156,-1.727980375289917,-0.0,-0.0,-1.0,0.2146078462668409,1.0
18.943037033081055,27.06329917907715,-1.618936538696289,-0.252478996011322,0.7057287849116498,-0.6619677021730297,0.2396443274943621,6.0
18.2706298828125,26.73691177368164,-1.680964469909668,-0.0,-0.0,-1.0,0.2282626248858217,2.0
19.704090118408203,26.265884399414062,-1.3841674327850342,-0.0,-0.0,-1.0,0.1587419251748252,1.0
18.33102035522461,26.264198303222656,-1.606888771057129,-0.0316973671122382,0.6432045809108405,-0.7650380016793035,0.176781423041895,5.0
17.98995590209961,26.303722381591797,-1.670121192932129,-0.0,-0.0,-1.0,0.0752177147026813,1.0
18.015945434570312,26.078147888183594,-1.6362242698669434,-0.0,-0.0,-1.0,0.1000399606399661,1.0
18.926437377929688,27.0675048828125,-1.127546787261963,0.2721971227889755,-0.0418263982078931,-0.9613320335650728,0.1555882741808701,5.0
18.240646362304688,26.827911376953125,-1.19354510307312,-0.0,-0.0,-1.0,0.1387828425921348,1.0
17.870525360107422,25.81380844116211,-1.139176607131958,-0.0,-0.0,-1.0,0.2113262214895085,2.0
17.756855010986328,25.699386596679688,-1.144660711288452,-0.0,-0.0,-1.0,0.1501783275187921,1.0
18.084716796875,27.36464500427246,-1.7632282972335815,-0.0,-0.0,-1.0,0.1941022287206064,1.0
17.93347930908203,27.27104759216309,-1.7738341093063354,-0.0,-0.0,-1.0,0.192389034082043,2.0
18.934764862060547,27.09170913696289,-1.5852078199386597,-0.1166660191530444,0.7629776211211944,-0.6358098690986358,0.2381493167213946,5.0
18.16269302368164,26.80277633666992,-1.6646584272384644,-0.0,-0.0,-1.0,0.1013823592304472,1.0
18.22105407714844,26.49982452392578,-1.6095184087753296,-0.6024943425158669,-0.4721649604609935,-0.6434755763424449,0.1910860600607872,3.0
17.717018127441406,26.65701484680176,-1.7192209959030151,-0.0,-0.0,-1.0,0.1075734187282584,1.0
18.317771911621097,26.220657348632812,-1.5517536401748655,-0.0,-0.0,-1.0,0.2169697298106845,2.0
17.79112434387207,25.709815979003903,-1.5727819204330444,-0.0,-0.0,-1.0,0.1960414760645188,2.0
19.050865173339844,27.18309783935547,-1.113864541053772,0.2628434206131086,0.2224381367987496,-0.9388474910963448,0.1223220382528112,3.0
18.76349639892578,27.229013442993164,-1.15784752368927,-0.0,-0.0,-1.0,0.1463111359117082,1.0
18.05970573425293,27.38114547729492,-1.2735425233840942,-0.0,-0.0,-1.0,0.1108237690361683,2.0
18.91194725036621,27.032978057861328,-1.1123350858688354,0.0845449896877601,-0.2466002773532349,-0.9654224194247842,0.1465349018645517,5.0
17.786527633666992,27.127243041992188,-1.28077495098114,-0.0,-0.0,-1.0,0.1233508525241349,2.0
19.138303756713867,26.198501586914062,-1.411730170249939,-0.0,-0.0,-1.0,0.0814748870328644,1.0
17.89192008972168,25.93272399902344,-1.1239036321640017,-0.0,-0.0,-1.0,0.1294063728192956,1.0
17.83416748046875,25.80266761779785,-1.1182235479354858,-0.0,-0.0,-1.0,0.164989485819313,2.0
18.013853073120117,27.368576049804688,-1.5876522064208984,-0.0,-0.0,-1.0,0.2063965966058144,1.0
17.932674407958984,27.323074340820312,-1.59275221824646,-0.0,-0.0,-1.0,0.165275929871763,2.0
18.9638729095459,27.130386352539062,-1.409726619720459,0.3621653252108175,0.9026220175102464,0.2326150698486133,0.2527682231424211,5.0
18.219446182250977,26.781251907348633,-1.46270489692688,-0.0,-0.0,-1.0,0.1646029585164474,2.0
18.242328643798828,26.464458465576172,-1.409414291381836,-0.0,-0.0,-1.0,0.1209621671380983,2.0
19.1846923828125,27.28673934936523,-0.9567089080810548,-0.0,-0.0,-1.0,0.0844381761821591,1.0
18.349699020385746,26.184804916381836,-1.3489906787872314,-0.5089118432970016,-0.7225684727523876,-0.4678712835132441,0.2409170643383536,5.0
17.871610641479492,25.861175537109375,-1.3787856101989746,-0.0,-0.0,-1.0,0.2615600079926216,1.0
17.718839645385742,25.669260025024418,-1.3772718906402588,-0.0,-0.0,-1.0,0.1609237118345456,1.0
17.93743896484375,25.892044067382812,-0.937286376953125,0.6444398362554548,-0.7133045590694991,-0.2754884815336392,0.1924763392578146,4.0
18.12406349182129,27.377220153808594,-1.5828564167022705,-0.0,-0.0,-1.0,0.2060887014037671,1.0
18.060867309570312,27.08677673339844,-1.5358903408050537,-0.0,-0.0,-1.0,0.1524810005471507,1.0
18.979995727539062,27.126567840576172,-1.43639874458313,-0.3896953828888439,0.9024542453577242,-0.1836132990579335,0.2594249106752779,4.0
18.20891571044922,26.7631778717041,-1.457000494003296,0.7362255813914297,-0.5523512774835007,-0.3909986695210055,0.2338525681874519,3.0
17.950132369995117,26.70365524291992,-1.478942632675171,-0.0,-0.0,-1.0,0.2477187562856969,1.0
18.97022247314453,27.05751037597656,-1.4239563941955566,-0.0,-0.0,-1.0,0.1983425744371366,2.0
18.304222106933594,26.932870864868164,-1.0312507152557373,-0.0,-0.0,-1.0,0.13402380258644,1.0
18.24535369873047,26.31582260131836,-1.3694703578948977,-0.0,-0.0,-1.0,0.0776671572223955,1.0
18.39236640930176,26.159650802612305,-1.3217861652374268,-0.1937368230241076,-0.4521891125204504,-0.8706268143828865,0.1554278841019375,3.0
17.939620971679688,25.82339859008789,-1.321455955505371,-0.0,-0.0,-1.0,0.2143383138642184,2.0
19.172143936157227,27.167404174804688,-0.9858443737030028,0.165006273178868,-0.0602467011257966,-0.9844507427063476,0.088331863346494,5.0
18.87018585205078,27.20404052734375,-1.0192368030548096,-0.0,-0.0,-1.0,0.0886601090517283,1.0
18.893341064453125,26.85611343383789,-0.9605631828308104,-0.0,-0.0,-1.0,0.1356801476462077,1.0
17.960006713867188,25.88622283935547,-0.9090633392333984,0.2500116106568404,-0.8891400266459445,-0.3833069364788767,0.1957238246905292,3.0
18.12324333190918,27.278013229370117,-1.680284023284912,-0.1337772752081304,0.954490236383522,-0.2665558652260661,0.1729352888668037,3.0
18.14104461669922,27.500141143798828,-1.263521671295166,-0.0,-0.0,-1.0,0.0731131806552464,1.0
18.99612045288086,27.111766815185547,-1.5610873699188232,0.8257524782075012,0.429756601928883,0.3652972869221862,0.1411663576531648,5.0
18.88699722290039,27.05756568908691,-1.558868169784546,-0.0,-0.0,-1.0,0.3075190821106401,1.0
18.25052261352539,26.759517669677734,-1.556535720825195,-0.0,-0.0,-1.0,0.1813086892662508,1.0
18.30684280395508,26.43012046813965,-1.480628490447998,-0.0,-0.0,-1.0,0.1798118346035278,2.0
18.21673583984375,26.384716033935547,-1.4807374477386477,-0.0,-0.0,-1.0,0.1283266066935416,1.0
17.753263473510742,26.02544593811035,-1.459237575531006,-0.0,-0.0,-1.0,0.1014365035301034,1.0
19.67835235595703,26.288997650146484,-1.3212218284606934,-0.0,-0.0,-1.0,0.1629563021958029,1.0
18.377424240112305,26.19995880126953,-1.4243719577789309,-0.7193939050125271,-0.637684239749293,-0.2753746898431173,0.1280141587523916,3.0
17.86942481994629,25.796451568603516,-1.3984947204589844,-0.0,-0.0,-1.0,0.2162237954047393,2.0
19.02226448059082,27.15116500854492,-1.1294374465942385,-0.0,-0.0,-1.0,0.2146223773840855,2.0
18.893688201904297,26.99700164794922,-1.1103451251983645,0.69096692398001,-0.0301210561864124,-0.7222585630782221,0.1307969482981215,4.0
18.26257705688477,26.90268325805664,-1.1448163986206057,-0.0,-0.0,-1.0,0.1108172689811134,1.0
17.916452407836914,25.878435134887695,-0.996009349822998,-0.4873300981026672,-0.8262619172558773,0.2824900344718138,0.2199354628003558,3.0
18.11317253112793,27.345870971679688,-1.4811826944351196,-0.0,-0.0,-1.0,0.1235495972167193,2.0
18.9580020904541,27.121089935302734,-1.4077295064926147,0.3621653252108175,0.9026220175102464,0.2326150698486133,0.2214221106032609,5.0
18.14506721496582,27.38641929626465,-1.028447508811951,0.9606510193446312,0.2764840457502828,-0.0265742634456033,0.0870920613239469,3.0
18.86848258972168,27.248611450195312,-0.9903296232223512,-0.0,-0.0,-1.0,0.0645046722126839,2.0
18.30961227416992,26.64990234375,-1.3220964670181274,-0.0,-0.0,-1.0,0.1639941061713143,2.0
18.284557342529297,26.48630142211914,-1.2874027490615845,-0.0,-0.0,-1.0,0.1171084910518516,2.0
17.880624771118164,25.76486587524414,-1.1509062051773071,-0.0,-0.0,-1.0,0.2112809728376138,1.0
19.185997009277344,27.205276489257812,-0.9793263673782348,0.2745130028215587,-0.2148801029788348,-0.9372668524095452,0.0970600592011299,4.0
17.958370208740234,27.296947479248047,-1.4508087635040283,-0.0,-0.0,-1.0,0.1209339647548067,1.0
17.942256927490234,27.05002212524414,-1.4012892246246338,-0.0,-0.0,-1.0,0.1704058354083536,1.0
19.05994987487793,27.090911865234375,-1.372621774673462,0.7493202859525647,0.2658632402403379,0.6064947209571365,0.2016564941914419,4.0
18.91111946105957,27.064117431640625,-1.370542287826538,0.9039644703514456,-0.4152196578928631,-0.1021805854434426,0.2557689744440676,3.0
18.33736038208008,26.72097969055176,-1.317892074584961,-0.0,-0.0,-1.0,0.1144353485108879,1.0
18.274213790893555,26.492244720458984,-1.27359938621521,-0.0,-0.0,-1.0,0.1171084910518516,2.0
19.110013961791992,27.0657958984375,-1.366288423538208,-0.0,-0.0,-1.0,0.1678161716491585,1.0
19.224637985229492,27.216283798217773,-0.9359962940216064,-0.0,-0.0,-1.0,0.0876634842302231,2.0
18.05281639099121,25.783958435058594,-1.1401758193969729,-0.7717016344065055,-0.4288094251033258,-0.469679746632621,0.1343047492349391,3.0
17.819677352905273,25.756481170654297,-1.1470997333526611,-0.0,-0.0,-1.0,0.1476983596996105,1.0
18.743473052978516,27.00400733947754,-1.6883265972137451,-0.0,-0.0,-1.0,0.1590300043878701,1.0
18.05824279785156,26.36329460144043,-1.5455093383789062,-0.0,-0.0,-1.0,0.1365624711114093,1.0
18.9232177734375,26.946422576904297,-1.6764280796051023,-0.0,-0.0,-1.0,0.2469152274240377,2.0
18.27027130126953,26.34222412109375,-1.5387918949127195,-0.0,-0.0,-1.0,0.1083528251625625,2.0
18.300546646118164,26.095327377319336,-1.4829871654510498,-0.0,-0.0,-1.0,0.141736733339257,1.0
17.81402015686035,25.672164916992188,-1.3950750827789309,0.5103566173860823,0.5201693649425506,-0.6848065090706276,0.153655960747304,3.0
18.98278427124023,26.28973388671875,-1.5268738269805908,-0.0,-0.0,-1.0,0.0666723656265515,1.0
17.96753692626953,27.33592414855957,-1.2651307582855225,0.4586954245446571,-0.6591199832296097,-0.5959524773077095,0.0919511174286361,3.0
18.103212356567383,27.370800018310547,-1.2718279361724854,0.3710460408768155,0.9169688988645628,0.1466044817348764,0.1128429343176731,5.0
18.74117660522461,27.092769622802734,-1.222942352294922,-0.0,-0.0,-1.0,0.1561641076940519,2.0
18.145103454589844,26.783483505249023,-1.1603751182556152,-0.0,-0.0,-1.0,0.1271348507151097,1.0
18.967554092407227,27.043926239013672,-1.21639084815979,-0.0,-0.0,-1.0,0.083617531454522,2.0
17.84424591064453,25.79707717895508,-0.97580885887146,-0.0,-0.0,-1.0,0.1294502070340147,1.0
18.08476829528809,26.13503074645996,-1.5798227787017822,-0.0,-0.0,-1.0,0.1288109515256929,2.0
18.059091567993164,25.916946411132812,-1.0356097221374512,-0.0,-0.0,-1.0,0.119798365600781,1.0
18.33835220336914,26.092029571533203,-1.361764430999756,-0.0,-0.0,-1.0,0.150789899322461,1.0
18.869945526123047,26.94540786743164,-1.5553182363510132,-0.0,-0.0,-1.0,0.2210051763227629,1.0
18.991954803466797,26.99970245361328,-1.5424333810806274,0.8035600474652497,-0.1620827827758385,0.5727306711232477,0.1194893273882474,3.0
17.750457763671875,25.77023696899414,-1.439581274986267,-0.0,-0.0,-1.0,0.2013549367782156,1.0
18.715726852416992,27.08504867553711,-1.1158101558685305,-0.0,-0.0,-1.0,0.1643100884296024,1.0
18.884994506835938,26.501047134399418,-1.5799188613891602,-0.0,-0.0,-1.0,0.0343919326447484,1.0
17.876476287841797,27.224145889282227,-1.5256601572036743,-0.0,-0.0,-1.0,0.0956135868777797,1.0
18.15359115600586,26.58036231994629,-1.469756007194519,-0.0,-0.0,-1.0,0.2191010570709756,1.0
18.79067039489746,26.94591522216797,-1.478121638298035,-0.0,-0.0,-1.0,0.1767345100163813,1.0
18.26428604125977,25.997283935546875,-1.4234517812728882,-0.0,-0.0,-1.0,0.1612453148915254,1.0
18.99003791809082,27.233774185180664,-1.3924496173858645,-0.0,-0.0,-1.0,0.1540502271507112,1.0
18.88309097290039,27.173816680908203,-1.39685320854187,-0.0,-0.0,-1.0,0.2156778834424059,2.0
18.43807601928711,26.252553939819336,-1.3834896087646484,-0.0,-0.0,-1.0,0.1746161011516905,1.0
17.892417907714844,25.977148056030273,-1.4093012809753418,-0.0,-0.0,-1.0,0.1672713645616698,1.0
18.172826766967773,27.41122817993164,-1.5092335939407349,-0.0,-0.0,-1.0,0.1087367878059261,1.0
19.04401969909668,27.19748878479004,-1.4505826234817505,-0.0,-0.0,-1.0,0.1192566899172984,2.0
17.951467514038086,25.79579734802246,-1.4256526231765747,-0.0,-0.0,-1.0,0.1903810720559597,2.0
17.721721649169922,25.72432518005371,-1.434270262718201,-0.0,-0.0,-1.0,0.1756884438120445,2.0
19.484813690185547,27.51155662536621,-1.3053535223007202,-0.0,-0.0,-1.0,0.0560822225850868,1.0
19.033409118652344,26.608312606811523,-1.206945300102234,-0.0,-0.0,-1.0,0.1013598257195807,1.0
18.619029998779297,26.66587257385254,-1.1940685510635376,-0.0,-0.0,-1.0,0.0411806747080234,1.0
18.119632720947266,27.216991424560547,-1.2351813316345217,-0.0,-0.0,-1.0,0.0882465022550449,1.0
17.948923110961914,27.303268432617188,-1.2433404922485352,-0.0,-0.0,-1.0,0.0762198364921241,2.0
18.003498077392578,26.186786651611328,-1.1691501140594482,-0.0,-0.0,-1.0,0.1902227850472452,1.0
18.90734481811523,27.201208114624023,-1.1609808206558228,-0.0,-0.0,-1.0,0.1773357980758791,1.0
18.10818099975586,27.339693069458008,-1.2128063440322876,-0.0,-0.0,-1.0,0.1110048870037321,2.0
19.352127075195312,27.629932403564453,-1.5558879375457764,-0.0,-0.0,-1.0,0.1401779985953353,1.0
18.996856689453125,27.03533935546875,-1.5031414031982422,0.9646240402536204,-0.0870025457912773,0.2488594342005509,0.2005516515058344,6.0
18.18927764892578,27.45370101928711,-1.537771463394165,-0.0,-0.0,-1.0,0.1237952177481125,1.0
18.33448028564453,26.69056701660156,-1.4716455936431885,-0.0,-0.0,-1.0,0.2012823881691828,1.0
18.39849853515625,26.1773681640625,-1.4271137714385986,-0.7911193643285711,-0.5801183062914036,0.1938888910947464,0.136688411838493,6.0
17.87042999267578,25.646827697753903,-1.3800346851348877,-0.0,-0.0,-1.0,0.135741750811348,1.0
19.06206512451172,26.985023498535156,-1.4450914859771729,0.5177618287971185,0.0094004690745931,0.8554731555237962,0.2076584227974592,3.0
19.571128845214844,25.997055053710938,-1.3685669898986816,-0.0,-0.0,-1.0,0.0782334508513903,1.0
18.871166229248047,27.04838752746582,-1.441999435424805,-0.0,-0.0,-1.0,0.2444192230491224,1.0
18.352216720581055,26.725753784179688,-1.382479906082153,-0.0,-0.0,-1.0,0.1456603397528457,1.0
18.32403564453125,26.47829818725586,-1.355476140975952,-0.0,-0.0,-1.0,0.0763141995486927,1.0
18.49934196472168,26.424488067626953,-1.5496594905853271,-0.0,-0.0,-1.0,0.1465326772405693,1.0
18.51340675354004,26.03466796875,-1.5056297779083252,-0.0,-0.0,-1.0,0.1638340635656334,1.0
18.43488883972168,26.42011451721191,-1.5923656225204468,-0.0,-0.0,-1.0,0.1542684270271019,1.0
18.02265167236328,25.700847625732425,-1.5494674444198608,-0.0,-0.0,-1.0,0.1620174876229062,1.0
18.913076400756836,27.074209213256836,-1.3942385911941528,-0.0,-0.0,-1.0,0.2211698687369694,2.0
18.74282455444336,27.127328872680664,-1.4081090688705444,-0.0,-0.0,-1.0,0.1647822397888529,1.0
18.27040672302246,26.08763313293457,-1.350638747215271,-0.0,-0.0,-1.0,0.1243000340269828,1.0
18.200048446655273,26.58991813659668,-1.3953357934951782,-0.0,-0.0,-1.0,0.1841434379859139,1.0
18.799530029296875,26.929643630981445,-1.0097776651382446,0.3336845467829487,-0.9206193879075668,-0.2027672701570829,0.1305939947868116,3.0
17.760665893554688,25.980995178222656,-1.0049268007278442,-0.0,-0.0,-1.0,0.1160720839310814,1.0
18.836830139160156,26.93828392028809,-0.987623929977417,-0.0,-0.0,-1.0,0.1315945484541846,2.0
18.824811935424805,27.277355194091797,-1.012382745742798,-0.0,-0.0,-1.0,0.0650980240841696,1.0
17.888816833496094,25.90082550048828,-0.978193998336792,-0.1756272133377053,-0.8515364985174584,0.4940047303699216,0.2139753486743384,4.0
18.97083854675293,27.1087589263916,-1.5340919494628906,0.9291591949054488,0.0898645105521094,0.3585910766679609,0.1520089256466215,5.0
18.840877532958984,27.0904483795166,-1.5398435592651367,-0.0,-0.0,-1.0,0.2297067624778965,1.0
18.27241897583008,26.635730743408203,-1.5286743640899658,-0.0,-0.0,-1.0,0.155220592882621,1.0
18.295822143554688,26.18450927734375,-1.4827308654785156,-0.0,-0.0,-1.0,0.1473566352194082,1.0
17.833961486816406,25.746353149414062,-1.4684419631958008,-0.0,-0.0,-1.0,0.2008515044636491,2.0
17.86678695678711,25.869464874267575,-1.238891363143921,-0.0284124660433419,0.9219619961679326,-0.386236727144606,0.2054431265623599,3.0
19.58795166015625,25.799901962280273,-1.5003801584243774,0.0538506275455067,-0.969372903273,-0.2396169533088808,0.0932475860889923,5.0
19.225685119628903,26.21184539794922,-1.577001452445984,-0.0,-0.0,-1.0,0.1224341202958083,2.0
18.84199333190918,27.03793716430664,-1.7021912336349487,-0.0,-0.0,-1.0,0.2602424688256572,1.0
18.812950134277344,25.889646530151367,-1.5757921934127808,-0.0,-0.0,-1.0,0.0451790865613748,2.0
18.440004348754883,26.18242454528809,-1.6406618356704712,-0.0,-0.0,-1.0,0.1679034970125774,2.0
18.076339721679688,27.48378562927246,-0.9952665567398072,-0.0,-0.0,-1.0,0.0586942779900361,1.0
18.81348419189453,27.295734405517575,-0.926129937171936,-0.0,-0.0,-1.0,0.0508558151043984,1.0
17.88595199584961,25.94017791748047,-0.8889774084091187,-0.0,-0.0,-1.0,0.1673244363532517,1.0
19.406330108642575,26.068180084228516,-1.5335017442703247,-0.0,-0.0,-1.0,0.076687396689699,1.0
19.23830223083496,26.246883392333984,-1.5622893571853638,0.709239746418476,-0.6933007169023473,0.1277227389423935,0.1065373161749571,4.0
18.817302703857425,26.01891326904297,-1.5418087244033811,-0.3581309610576795,0.171704731862796,-0.9177470783324936,0.0359162650052092,3.0
19.140180587768555,26.20823860168457,-1.5594252347946167,0.354362565427827,-0.6512150817181013,-0.6710783036027139,0.1049721910060751,3.0
18.425710678100582,26.15234375,-1.57083261013031,-0.0,-0.0,-1.0,0.1732601085833363,1.0
18.21710968017578,27.08963394165039,-1.7049013376235962,-0.0,-0.0,-1.0,0.0903515457213319,1.0
18.19835090637207,27.3804988861084,-1.7452555894851685,-0.0,-0.0,-1.0,0.0866463171391574,2.0
17.91896629333496,25.759193420410156,-1.5320788621902466,-0.0,-0.0,-1.0,0.1621087083495026,2.0
19.226696014404297,27.250993728637695,-0.9345742464065552,-0.159283028465894,0.049839088002365,-0.9859741285398036,0.0844381761821591,3.0
17.952457427978516,26.12202262878418,-0.8376199007034302,-0.0,-0.0,-1.0,0.126463840298122,1.0
19.021018981933594,27.120532989501953,-1.258061766624451,-0.0,-0.0,-1.0,0.1387612078688155,2.0
18.83003616333008,27.12657928466797,-1.2640622854232788,-0.0,-0.0,-1.0,0.2221323906932121,2.0
18.377443313598633,26.773250579833984,-1.2347816228866575,-0.0,-0.0,-1.0,0.1450687023687062,1.0
17.868724822998047,27.125728607177734,-1.2917765378952026,0.9246326339075056,-0.2368695836716118,0.2982403269923551,0.1292220566131056,4.0
18.091400146484375,27.373348236083984,-1.3146270513534546,0.9751237156949056,-0.2118247139553814,-0.0652995378780103,0.112829102852161,4.0
19.030593872070312,27.123191833496097,-1.358870267868042,0.4145266892793468,0.8624646862029562,0.2903830038551498,0.2262035534358259,4.0
18.854228973388672,27.11974716186523,-1.363548755645752,-0.0,-0.0,-1.0,0.2493267289507447,2.0
18.325634002685547,26.12196350097656,-1.2477591037750244,-0.0,-0.0,-1.0,0.2227416976876121,1.0
18.29170036315918,26.681869506835938,-1.3228230476379397,-0.0,-0.0,-1.0,0.1624740176078499,2.0
17.81641960144043,25.644683837890625,-1.2026269435882568,-0.0,-0.0,-1.0,0.1330688015426366,2.0
17.9600830078125,25.796573638916016,-1.2174177169799805,-0.0,-0.0,-1.0,0.1650466236898044,1.0
18.94420623779297,27.102783203125,-1.2196122407913208,-0.0,-0.0,-1.0,0.1982974823428025,1.0
18.706315994262695,27.19813537597656,-1.2422305345535278,-0.0,-0.0,-1.0,0.1537634139294665,1.0
18.106346130371097,27.38687515258789,-1.2934600114822388,0.9751237156949056,-0.2118247139553814,-0.0652995378780103,0.1128897420636906,4.0
17.794586181640625,25.67437744140625,-1.0904921293258667,-0.0,-0.0,-1.0,0.1565089771407758,2.0
18.964916229248047,27.145523071289062,-1.2887423038482666,0.7881976559988989,0.1356044425754332,-0.6002965019318771,0.2073573274037272,3.0
18.33728408813477,26.067094802856445,-1.2036635875701904,-0.0,-0.0,-1.0,0.1485959399279829,1.0
18.779186248779297,27.175363540649418,-1.3070683479309082,-0.0,-0.0,-1.0,0.1825950991352209,1.0
18.218820571899418,26.55173683166504,-1.2739036083221436,-0.0,-0.0,-1.0,0.1576623864474376,1.0
17.72677993774414,25.726396560668945,-1.2130467891693115,-0.0,-0.0,-1.0,0.1322859961935121,2.0
18.994152069091797,27.060827255249023,-1.607799768447876,0.4679268925186103,0.8833123209820821,0.0283507823370646,0.1994082735910627,3.0
18.87427520751953,27.053136825561523,-1.6206934452056885,-0.0,-0.0,-1.0,0.2264893750828389,1.0
18.926408767700195,27.083717346191406,-1.6189825534820557,0.8515731494847083,-0.5196495997400321,0.069191506463721,0.2335209413529939,5.0
18.223073959350582,26.760665893554688,-1.6570055484771729,-0.0,-0.0,-1.0,0.2041059019982959,2.0
18.113468170166016,27.27064323425293,-1.7424349784851074,-0.0,-0.0,-1.0,0.0983515028214842,2.0
18.294565200805664,26.215818405151367,-1.5714662075042725,-0.0,-0.0,-1.0,0.2172773023891853,2.0
18.34547233581543,26.29865264892578,-1.576859951019287,0.3459800925333456,0.529775420081145,-0.7743615304549055,0.1758313926014341,3.0
18.812759399414062,26.989810943603516,-1.038670778274536,0.3061098285393768,0.7781178218360175,-0.5484791957884686,0.1010124941648187,3.0
18.828338623046875,27.250247955322266,-1.0658090114593506,-0.0,-0.0,-1.0,0.0998766885141582,1.0
18.21766662597656,26.91774559020996,-1.0931565761566162,-0.0,-0.0,-1.0,0.1193970951507119,2.0
18.221099853515625,27.48196792602539,-1.1544435024261477,-0.0,-0.0,-1.0,0.0939204220650305,2.0
17.833345413208008,25.913055419921875,-1.026141881942749,-0.0,-0.0,-1.0,0.1803611150518212,1.0
18.048856735229492,27.424549102783203,-1.166344165802002,-0.0,-0.0,-1.0,0.1313469372551676,1.0
19.22838973999023,27.579248428344727,-1.7616143226623535,-0.0,-0.0,-1.0,0.1278956185104265,1.0
18.261962890625,26.717533111572266,-1.7687444686889648,-0.0,-0.0,-1.0,0.188047273793555,1.0
19.636524200439453,26.265560150146484,-1.502129316329956,-0.0,-0.0,-1.0,0.1336838029776955,1.0
19.200857162475582,26.30389976501465,-1.5692503452301023,-0.0,-0.0,-1.0,0.1013457752779786,2.0
18.818462371826172,25.913013458251953,-1.5654189586639404,-0.0,-0.0,-1.0,0.0451790865613748,2.0
18.912187576293945,26.11770248413086,-1.582550048828125,-0.0,-0.0,-1.0,0.0619949297300976,2.0
18.70887756347656,25.914958953857425,-1.5819368362426758,-0.0,-0.0,-1.0,0.0545926033934923,1.0
18.347431182861328,26.125656127929688,-1.667576789855957,-0.0,-0.0,-1.0,0.1757284317825986,1.0
18.27110290527344,26.572696685791016,-1.745711326599121,-0.0,-0.0,-1.0,0.1305737809743791,1.0
18.968774795532227,27.131057739257812,-1.1790940761566162,0.9493599995361184,0.2818679737442463,-0.1388021493280799,0.2547146170692457,4.0
18.757312774658203,27.08171844482422,-1.20011568069458,-0.0,-0.0,-1.0,0.1730294230827004,2.0
18.331329345703125,26.747573852539062,-1.2158503532409668,-0.0,-0.0,-1.0,0.1217040524810276,1.0
17.782596588134766,25.82320022583008,-1.182786464691162,-0.0,-0.0,-1.0,0.1686268932896173,2.0
18.219642639160156,27.48606300354004,-1.8097680807113647,-0.0,-0.0,-1.0,0.1116111904590477,1.0
18.20696258544922,26.845733642578125,-1.700391411781311,-0.0,-0.0,-1.0,0.2145985807538995,1.0
18.111459732055664,27.22386932373047,-1.776896357536316,-0.0,-0.0,-1.0,0.0933547926999642,2.0
19.217361450195312,26.264047622680664,-1.4834538698196411,-0.0,-0.0,-1.0,0.0982042404449262,2.0
18.93735122680664,27.016387939453125,-1.6468056440353394,-0.7281223397941426,0.6402432277694694,-0.244798830855121,0.2031592654864668,3.0
18.2961368560791,26.162578582763672,-1.5724941492080688,-0.0,-0.0,-1.0,0.2173485328795235,1.0
18.179819107055664,26.72870635986328,-1.683498501777649,-0.0,-0.0,-1.0,0.2585400146099437,1.0
18.9816951751709,27.116600036621097,-1.1411892175674438,0.8933556672198439,0.4263601622369569,-0.1418896187304182,0.2298114744463002,3.0
18.7276611328125,27.137853622436523,-1.1685317754745483,-0.0,-0.0,-1.0,0.209699338851988,1.0
18.001821517944336,27.36697006225586,-1.2730790376663208,-0.0,-0.0,-1.0,0.1034562900314701,2.0
17.954381942749023,25.810041427612305,-1.062928557395935,-0.0,-0.0,-1.0,0.1500539662538327,1.0
17.76056671142578,25.66961097717285,-1.06537926197052,-0.0,-0.0,-1.0,0.1443176400809771,2.0
17.827350616455078,25.843278884887695,-1.0814379453659058,-0.0,-0.0,-1.0,0.1839454130188342,1.0
19.06611061096191,27.01015853881836,-1.6468552350997925,0.2038895097945383,0.009821461195139,-0.97894463923949,0.1055723085020202,6.0
18.93655776977539,26.89781188964844,-1.6403223276138306,-0.0,-0.0,-1.0,0.234659669850159,1.0
18.956666946411133,27.03199577331543,-1.6634372472763062,-0.4322134887753584,0.728938827197968,-0.5308857563769098,0.2403386304889136,5.0
18.33067512512207,26.736675262451172,-1.6824625730514526,-0.0,-0.0,-1.0,0.2415541199715046,2.0
18.207050323486328,27.28843688964844,-1.8002501726150513,-0.0,-0.0,-1.0,0.100890066789435,1.0
18.358701705932617,26.196992874145508,-1.5791372060775757,-0.0,-0.0,-1.0,0.2302413141065367,2.0
18.30790901184082,26.267478942871097,-1.598584771156311,0.1258442107706856,0.7649695677336263,-0.6316524321626033,0.1610373225889793,4.0
18.226821899414062,26.788818359375,-1.7049990892410278,-0.0,-0.0,-1.0,0.1908072068480649,1.0
17.710065841674805,27.091156005859375,-1.8260880708694456,-0.0,-0.0,-1.0,0.1809709258209989,1.0
17.925037384033203,25.73971939086914,-1.5522876977920532,-0.0,-0.0,-1.0,0.1646516473674334,2.0
17.735919952392578,26.227298736572266,-1.6655548810958862,-0.0,-0.0,-1.0,0.0866065752507827,1.0
17.791667938232422,25.664772033691406,-1.5569449663162231,-0.0,-0.0,-1.0,0.1683935957314481,2.0
19.149568557739254,27.07917022705078,-1.1714752912521362,-0.0,-0.0,-1.0,0.0988114429242573,1.0
19.06802749633789,27.167545318603516,-1.193355917930603,-0.0,-0.0,-1.0,0.1875317494521655,1.0
18.973779678344727,27.021339416503903,-1.1798433065414429,0.88519956556499,0.4478296862257085,0.125977383916862,0.1376027171755564,3.0
18.77191925048828,27.14615821838379,-1.219671607017517,-0.0,-0.0,-1.0,0.1536798666790204,1.0
18.27943992614746,26.876808166503903,-1.2296611070632937,-0.0,-0.0,-1.0,0.1227953752963986,1.0
18.105430603027344,27.366605758666992,-1.3232890367507937,0.0494493286885036,0.8253933369267962,-0.5623883029092133,0.1107230937759318,3.0
17.86393165588379,27.081926345825195,-1.3062154054641724,0.9246326339075056,-0.2368695836716118,0.2982403269923551,0.1293512325909758,4.0
17.99289321899414,25.8226318359375,-1.1024070978164673,-0.4943255565948006,-0.7885086071915199,-0.3659185981637579,0.1220007358391377,3.0
19.005748748779297,27.067352294921875,-1.5529757738113403,0.4131549744270915,-0.4197857295914746,-0.8081354517266909,0.1255030924549277,6.0
18.200206756591797,27.370861053466797,-1.726157546043396,-0.0,-0.0,-1.0,0.1161370790456296,2.0
18.103046417236328,27.264083862304688,-1.7200263738632202,-0.5513069038882032,0.8342131304805741,-0.0122127252898067,0.1760156009465514,3.0
18.17688369750977,27.36358070373535,-1.2612868547439575,-0.0,-0.0,-1.0,0.103671663169423,2.0
18.477720260620117,26.18617248535156,-1.4578450918197632,-0.0,-0.0,-1.0,0.116730964630483,1.0
18.3073673248291,26.70853042602539,-1.5831867456436155,-0.0,-0.0,-1.0,0.173983968564642,1.0
18.37932014465332,26.15597152709961,-1.4670478105545044,0.1778709900953351,0.8292893708017717,-0.5297556515580617,0.1362910754903929,3.0
18.232532501220703,26.32230758666992,-1.521095871925354,-0.0,-0.0,-1.0,0.1125457327544337,2.0
17.92667579650879,25.73836898803711,-1.4605904817581177,-0.0,-0.0,-1.0,0.1466814365428779,1.0
19.21135711669922,27.11980628967285,-1.0919262170791626,-0.0,-0.0,-1.0,0.0780428432600423,1.0
18.950965881347656,27.030086517333984,-1.1088310480117798,-0.009055252618568,-0.3007639781986403,-0.9536556148936268,0.14723982094089,4.0
17.9331111907959,25.92761611938477,-1.0703576803207395,-0.0,-0.0,-1.0,0.1214687368846134,2.0
19.17616081237793,26.959671020507812,-1.6682546138763428,-0.0,-0.0,-1.0,0.1572884900872663,1.0
18.596641540527344,27.613767623901367,-1.902613639831543,-0.0,-0.0,-1.0,0.0532379546270993,1.0
18.991641998291016,27.0281982421875,-1.7095096111297607,-0.0361319923055281,0.9750377763860656,0.2190794690338413,0.146356920417893,4.0
18.46082878112793,27.121583938598633,-1.807067394256592,-0.0,-0.0,-1.0,0.053767496825678,1.0
18.48792266845703,27.45369529724121,-1.880662441253662,-0.0,-0.0,-1.0,0.0982362257101139,1.0
18.345218658447266,26.838333129882812,-1.758897066116333,-0.0,-0.0,-1.0,0.2313664303816342,1.0
18.289203643798828,27.18128967285156,-1.84656286239624,-0.0,-0.0,-1.0,0.1107745507666651,1.0
18.331571578979492,26.243942260742188,-1.6244406700134275,0.1258442107706856,0.7649695677336263,-0.6316524321626033,0.1902204220887745,4.0
17.779621124267578,26.413902282714844,-1.7528154850006104,-0.0,-0.0,-1.0,0.0974989832408168,1.0
19.08550262451172,27.118209838867188,-1.3054680824279783,-0.0,-0.0,-1.0,0.0965687890313081,1.0
18.935659408569336,27.14013671875,-1.328373670578003,-0.0,-0.0,-1.0,0.2732473423712092,2.0
19.3734188079834,26.24102020263672,-1.4710452556610107,-0.0,-0.0,-1.0,0.0793277391519598,1.0
18.94117546081543,27.005502700805664,-1.3005576133728027,0.9887716840373524,-0.0530253240775551,0.1397099561678003,0.2238360545175376,3.0
18.841623306274418,27.17251205444336,-1.3466861248016355,-0.0,-0.0,-1.0,0.2315882307045632,1.0
19.19963836669922,26.1998291015625,-1.4850616455078125,-0.0,-0.0,-1.0,0.1222935181818255,1.0
18.315624237060547,26.765438079833984,-1.3354132175445557,-0.0,-0.0,-1.0,0.1203115869335323,1.0
18.090436935424805,27.356525421142575,-1.482630968093872,0.3743704838317704,0.8494265075244659,0.3719157823356713,0.1679130183034652,3.0
18.260522842407227,26.553302764892575,-1.3015618324279783,-0.0,-0.0,-1.0,0.1315637744283826,1.0
17.81007194519043,25.769866943359375,-1.4096498489379885,-0.0,-0.0,-1.0,0.2469016284011829,1.0
18.141128540039062,27.397499084472656,-1.055552959442139,-0.1171484813011514,0.9474983443406068,0.2975283529357206,0.0870920613239469,4.0
17.99170684814453,25.90205764770508,-1.0228617191314695,-0.0,-0.0,-1.0,0.1379712167690023,1.0
18.063112258911133,27.44582748413086,-1.6218180656433103,-0.0,-0.0,-1.0,0.1772198773440043,2.0
17.9322452545166,27.141212463378903,-1.572237253189087,-0.0,-0.0,-1.0,0.1721168340488595,1.0
18.90407371520996,27.148033142089844,-1.4360759258270264,-0.0,-0.0,-1.0,0.1834429574718701,1.0
18.70970916748047,27.307613372802734,-1.1091642379760742,-0.0,-0.0,-1.0,0.1677848648880926,2.0
18.21737289428711,27.49590110778809,-1.208211898803711,-0.0,-0.0,-1.0,0.1118415824925252,1.0
18.260839462280273,26.889892578125,-1.4658279418945312,-0.0,-0.0,-1.0,0.1213043346683585,1.0
18.30541229248047,26.375194549560547,-1.3421733379364014,-0.0,-0.0,-1.0,0.0679802188182965,1.0
18.04009056091309,26.722009658813477,-1.4611859321594238,0.8141962405483897,0.5568462760232409,0.1643371739927319,0.2282314526950239,3.0
18.351709365844727,26.168682098388672,-1.2883896827697754,-0.822742755861938,-0.527778955091994,0.2110538609898105,0.2178782771341922,3.0
18.012741088867188,25.641895294189453,-1.2244834899902344,-0.0,-0.0,-1.0,0.1325098911415173,1.0
17.77454376220703,25.84286117553711,-1.3085260391235352,-0.0947678359663928,0.781672396583846,-0.6164473389391125,0.1575067025469737,3.0
18.848100662231445,26.9832763671875,-1.028217077255249,0.3061098285393768,0.7781178218360175,-0.5484791957884686,0.1070630000599816,3.0
17.86142349243164,26.011314392089844,-0.9737422466278076,-0.0,-0.0,-1.0,0.1272632990774651,2.0
19.108135223388672,27.122608184814453,-1.153172731399536,-0.0,-0.0,-1.0,0.1143552151698178,1.0
18.961952209472656,27.17298889160156,-1.1776034832000732,-0.0,-0.0,-1.0,0.238378613402943,2.0
18.812259674072266,27.12421226501465,-1.1785657405853271,-0.0,-0.0,-1.0,0.1975359839694395,2.0
17.784236907958984,27.13040542602539,-1.284085988998413,-0.0,-0.0,-1.0,0.1336549510017667,2.0
18.819246292114254,27.31812858581543,-0.8666648864746094,-0.0153048316823395,0.3187156075115487,-0.9477268191075524,0.0479331521895123,4.0
18.149324417114254,27.42498016357422,-0.9456131458282472,-0.0,-0.0,-1.0,0.0870920613239469,2.0
17.86397933959961,25.98204040527344,-1.0044279098510742,-0.0,-0.0,-1.0,0.0987266743784199,2.0
19.14368438720703,27.18430519104004,-0.9913102388381958,0.03960239104572,0.0467448536166731,-0.9981215202989152,0.1013071069864824,5.0
18.835851669311523,27.239805221557617,-0.9752122163772584,-0.3679639490170756,0.8875498334797151,-0.2772324391442849,0.0508148466021481,3.0
18.83257293701172,27.274206161499023,-0.8700168132781982,0.0415237120036148,0.0885476989646639,-0.9952060522070312,0.0479331521895124,3.0
18.065000534057617,26.255735397338867,-1.5767369270324707,-0.0,-0.0,-1.0,0.0622575111268949,1.0
18.025585174560547,26.58765983581543,-1.6322600841522217,-0.0,-0.0,-1.0,0.1618121511728756,1.0
18.28917694091797,27.238449096679688,-1.7905778884887695,-0.0,-0.0,-1.0,0.1551920847652922,1.0
18.084922790527344,26.10150909423828,-1.5512418746948242,-0.0,-0.0,-1.0,0.1676026028702193,2.0
18.19451904296875,26.08666229248047,-1.5646095275878906,-0.0,-0.0,-1.0,0.1509154212865523,2.0
17.862751007080078,26.33580017089844,-1.6356948614120483,-0.0,-0.0,-1.0,0.1090753995769059,1.0
18.18848991394043,26.392257690429688,-1.2351915836334229,-0.0,-0.0,-1.0,0.146157752987442,1.0
18.10380744934082,26.64637756347656,-1.271362066268921,-0.0,-0.0,-1.0,0.1528617432005771,1.0
18.674549102783203,27.398487091064453,-0.8021688461303711,-0.0,-0.0,-1.0,0.0727910085229629,1.0
17.939125061035156,25.825748443603516,-1.3147740364074707,-0.0,-0.0,-1.0,0.2188748615889376,2.0
19.07103729248047,26.983388900756836,-1.641200304031372,0.1552239811051472,-0.2302011802268685,-0.9606835755398472,0.1225728423895197,5.0
18.204988479614254,26.561017990112305,-1.625209093093872,-0.0,-0.0,-1.0,0.1772842834974871,2.0
18.01628303527832,25.92149543762207,-0.9733023643493652,-0.0,-0.0,-1.0,0.1317784695395101,1.0
19.197593688964844,25.977096557617188,-1.559248447418213,-0.0,-0.0,-1.0,0.045476929141959,1.0
19.102455139160156,26.98816680908203,-1.648953199386597,0.0085689521621045,0.0490428305609354,-0.9987599180130404,0.1504278110362122,4.0
18.996763229370117,27.036956787109375,-1.6584832668304443,0.0592857800896099,0.4235057671757871,-0.9039513601118224,0.1663557652189635,3.0
18.425701141357425,26.21428680419922,-1.5438272953033447,-0.0,-0.0,-1.0,0.1293749395835861,2.0
18.33185386657715,26.327369689941406,-1.563297986984253,-0.0,-0.0,-1.0,0.2019116401883118,2.0
17.917970657348633,25.676265716552734,-1.472541093826294,-0.0,-0.0,-1.0,0.135169439761858,1.0
17.713031768798828,25.761661529541016,-1.4907243251800537,-0.0,-0.0,-1.0,0.1999466611452061,1.0
19.03517723083496,27.070018768310547,-1.5173335075378418,0.6506684021509493,-0.5766300093478242,-0.4940935769283579,0.1295479001919088,3.0
17.886302947998047,25.71756362915039,-1.330129623413086,-0.0,-0.0,-1.0,0.14103753234758,1.0
17.831947326660156,26.04944610595703,-1.382791519165039,-0.0,-0.0,-1.0,0.1172342912313393,1.0
19.010005950927734,27.167503356933594,-1.4604313373565674,0.6623594101920427,-0.6072048425087245,-0.4388419886063819,0.1586034605488164,3.0
17.85292625427246,25.76916122436523,-1.2717149257659912,-0.0,-0.0,-1.0,0.2876782725098775,2.0
18.99466133117676,27.1717529296875,-1.489471435546875,-0.0,-0.0,-1.0,0.2023180877330403,2.0
17.804567337036133,25.846923828125,-1.3079900741577148,-0.0947678359663928,0.781672396583846,-0.6164473389391125,0.2318391640616069,3.0
18.99344062805176,27.119359970092773,-1.3645973205566406,-0.3333225073808986,0.9427378329512172,-0.0118947213398715,0.2506355181669871,4.0
19.073558807373047,27.025211334228516,-1.4812798500061035,0.5054859580298848,0.7362540521173632,0.4499043420276937,0.115450600049484,3.0
18.954818725585938,27.10826110839844,-1.4924883842468262,-0.0,-0.0,-1.0,0.2521039735830065,2.0
18.436918258666992,26.108352661132812,-1.3274741172790527,-0.0,-0.0,-1.0,0.1401694616299174,1.0
17.892967224121094,25.80959701538086,-1.2733216285705566,-0.0,-0.0,-1.0,0.2181156487509698,2.0
19.10419464111328,27.01063346862793,-1.639667510986328,0.0085689521621045,0.0490428305609354,-0.9987599180130404,0.1651372860159372,4.0
18.983383178710938,27.067724227905273,-1.6449460983276367,0.6849436308495422,0.5511513503145716,-0.4765337465542924,0.1732084448624451,7.0
18.456825256347656,26.135486602783203,-1.4752392768859863,-0.0,-0.0,-1.0,0.2015619068864323,2.0
18.32642364501953,26.40540313720703,-1.5154109001159668,-0.0,-0.0,-1.0,0.1981191309439419,2.0
17.807804107666016,25.694358825683594,-1.3828494548797607,-0.0,-0.0,-1.0,0.1613876245330104,2.0
19.617576599121097,25.827051162719727,-1.5257525444030762,-0.2373771935896297,0.1058101210133202,-0.9656377614067596,0.085246320960817,5.0
19.30336570739746,26.272485733032227,-1.5991053581237793,-0.0,-0.0,-1.0,0.0748583330977075,2.0
18.962722778320312,27.02011489868164,-1.7275676727294922,-0.0361319923055281,0.9750377763860656,0.2190794690338413,0.1535399716043791,4.0
18.291587829589844,26.33444595336914,-1.596810817718506,-0.0,-0.0,-1.0,0.1774034501648735,1.0
17.833372116088867,25.79745101928711,-1.495781421661377,-0.0,-0.0,-1.0,0.2421510682651371,2.0
18.963401794433594,27.037506103515625,-1.1643915176391602,-0.0,-0.0,-1.0,0.1572673635534894,2.0
18.29998779296875,26.940317153930664,-1.1406364440917969,-0.0,-0.0,-1.0,0.1108172689811135,1.0
17.97964096069336,25.878145217895508,-0.9651508331298828,-0.5366679297346104,-0.7846505445716623,0.3103402263609427,0.1986174677233887,3.0
19.19721412658691,27.152027130126953,-1.2560210227966309,-0.0,-0.0,-1.0,0.0619206130610577,1.0
19.07406997680664,27.076831817626953,-1.2421135902404783,-0.0,-0.0,-1.0,0.1227595620574588,1.0
18.141403198242188,27.349498748779297,-1.2875170707702637,0.1645158184839364,0.7589728962594064,-0.629995784281267,0.1109998883468947,3.0
18.019577026367188,25.850353240966797,-1.022033452987671,-0.0,-0.0,-1.0,0.1474173642215409,1.0
19.120651245117188,27.09526824951172,-1.2555482387542725,-0.0,-0.0,-1.0,0.0792100801328988,1.0
18.93405532836914,27.248760223388672,-1.2764039039611816,-0.0,-0.0,-1.0,0.1485913940165125,1.0
19.567277908325195,27.064916610717773,-1.7082879543304443,-0.0,-0.0,-1.0,0.0710898996557399,1.0
19.05895233154297,27.02181053161621,-1.6611130237579346,0.8796559095161929,0.0263171052329931,-0.4748819756796367,0.1048168038218952,4.0
19.644866943359375,25.7910099029541,-1.492401123046875,-0.0684742067471977,-0.1438434536889963,-0.9872286178191771,0.0852463209608169,5.0
19.30010986328125,26.282018661499023,-1.548973798751831,0.4575500654571643,-0.8773104474373637,0.1448251235711449,0.0867425877285777,3.0
18.28213119506836,26.34507751464844,-1.4821398258209229,-0.0,-0.0,-1.0,0.103861847619053,1.0
17.82391357421875,25.74098014831543,-1.3402233123779297,-0.3150368911501541,0.9249655080079132,-0.2125807286893825,0.1782528027620556,3.0
17.781963348388672,25.811450958251953,-1.3500573635101318,-0.0,-0.0,-1.0,0.1504183289054328,1.0
19.243030548095703,27.27463150024414,-0.9360182285308838,-0.0,-0.0,-1.0,0.085924754733453,2.0
18.14038848876953,27.402334213256836,-0.8937304019927979,-0.0,-0.0,-1.0,0.0863537901308312,1.0
18.911460876464844,27.095674514770508,-1.5276503562927246,0.9173990737742332,-0.3560886229529675,0.1777071524774342,0.2370865955281003,3.0
18.347091674804688,26.165367126464844,-1.3146803379058838,-0.5086548018370715,-0.7527244590189522,-0.417942796758976,0.2389412434671405,5.0
18.253625869750977,26.42597770690918,-1.3608646392822266,-0.0,-0.0,-1.0,0.1145439456839659,1.0
17.957412719726562,27.38229179382324,-1.535980224609375,-0.0,-0.0,-1.0,0.1717861746759055,2.0
17.83904457092285,25.792652130126953,-1.2144124507904053,-0.5687869830485978,-0.1000050900513907,-0.8163824776894021,0.2532758841245323,3.0
19.59898376464844,25.952219009399418,-1.3487977981567385,-0.0,-0.0,-1.0,0.0406029502658687,1.0
18.975757598876953,27.009109497070312,-1.517045974731445,-0.5026000524408937,0.668241447279981,-0.5484948089303736,0.18984688078421,5.0
18.803606033325195,27.13418960571289,-1.5317645072937012,-0.0,-0.0,-1.0,0.1932936556300372,2.0
18.371065139770508,26.13265609741211,-1.303025484085083,-0.5291045380236259,-0.3763837921731084,-0.7605153705430259,0.1509094476895408,4.0
17.825260162353516,25.8356876373291,-1.21008038520813,-0.0,-0.0,-1.0,0.2458349330033505,2.0
18.808446884155273,27.336339950561523,-0.846766471862793,-0.0,-0.0,-1.0,0.0479331521895124,2.0
18.9522705078125,27.104156494140625,-1.6557698249816897,-0.4265512402342348,-0.6408652827169151,-0.6382364208213165,0.1253426241219433,5.0
18.107017517089844,27.37453842163086,-1.650609016418457,-0.0477336953801327,0.9972353703755306,-0.0569483133844636,0.1520636883521976,3.0
18.410457611083984,26.161209106445312,-1.4148216247558594,-0.6494702228244449,-0.7603794390087013,0.0033968216289043,0.1270590897661666,5.0
18.011016845703125,25.772062301635746,-1.3015332221984863,-0.0,-0.0,-1.0,0.1503598992194128,1.0
19.185726165771484,27.13980484008789,-0.9776856899261476,0.6703854364485806,0.4936689025523528,0.5539624366781575,0.0812863508446664,3.0
17.875524520874023,27.11026382446289,-1.307807683944702,0.9246326339075056,-0.2368695836716118,0.2982403269923551,0.1292220566131056,4.0
17.939714431762695,27.381046295166016,-1.3666727542877195,-0.0,-0.0,-1.0,0.07881413928749,1.0
17.949440002441406,25.877992630004883,-1.0755228996276855,-0.0,-0.0,-1.0,0.1534012051403443,2.0
18.781917572021484,27.1801815032959,-1.423182249069214,-0.0,-0.0,-1.0,0.181983249059456,1.0
19.663068771362305,27.3596248626709,-1.8412988185882568,-0.0,-0.0,-1.0,0.1348681858610825,1.0
19.473539352416992,26.865901947021484,-1.7243587970733645,-0.0,-0.0,-1.0,0.0682680090067344,2.0
19.511241912841797,27.079830169677734,-1.76827073097229,-0.0,-0.0,-1.0,0.0432397169880917,2.0
19.701921463012695,25.67719268798828,-1.553969144821167,-0.0,-0.0,-1.0,0.0824613533209636,1.0
18.803977966308594,27.099281311035156,-1.6671879291534424,-0.0,-0.0,-1.0,0.1845951924187715,1.0
19.50074005126953,25.76982879638672,-1.537651777267456,-0.0,-0.0,-1.0,0.0435682029522077,1.0
19.178510665893555,26.246749877929688,-1.5698482990264893,-0.0,-0.0,-1.0,0.0985159710678162,2.0
19.15839958190918,26.30843734741211,-1.5776259899139404,-0.0,-0.0,-1.0,0.0843361213761945,2.0
18.05600357055664,27.39972686767578,-1.6170260906219482,0.9845236921362336,0.037358496172515,-0.1712233698598619,0.1427308271745997,4.0
18.073211669921875,26.66136932373047,-1.4804999828338623,0.7393218742841232,0.2085913219815529,-0.6402287299075224,0.2407252592967726,3.0
17.76764678955078,25.73090362548828,-1.264967441558838,-0.0,-0.0,-1.0,0.1552021562677437,2.0
18.779212951660156,26.914291381835938,-0.9735090732574464,-0.0,-0.0,-1.0,0.1305939947868117,2.0
18.06748390197754,27.311098098754883,-1.481417894363403,-0.0,-0.0,-1.0,0.1399526660757405,1.0
19.688236236572266,26.963926315307617,-1.6022186279296875,-0.0,-0.0,-1.0,0.0508349254833841,1.0
19.631786346435547,25.96285820007324,-1.432967185974121,-0.0,-0.0,-1.0,0.0794861574735067,1.0
18.967002868652344,27.021900177001953,-1.4897475242614746,-0.4995519785360219,0.6811490075486061,-0.5352418614573186,0.1730665098611253,5.0
18.8134822845459,27.1290283203125,-1.482546329498291,-0.0,-0.0,-1.0,0.2320421499159491,1.0
18.04943466186523,27.32815933227539,-1.3936808109283447,-0.0,-0.0,-1.0,0.0837539167229576,2.0
17.87217140197754,27.099328994750977,-1.3243842124938965,0.9246326339075056,-0.2368695836716118,0.2982403269923551,0.1332492070514101,4.0
18.789674758911133,27.279796600341797,-0.8713092803955078,-0.0373227827335297,0.0839877742288377,-0.9957675751243918,0.0727910085229629,4.0
18.906278610229492,26.980758666992188,-1.117213249206543,-0.0668325105420886,0.7284152732910718,-0.6818684661801973,0.1737775637323807,4.0
18.09956169128418,27.391490936279297,-1.0626261234283447,0.108268450591395,0.3474762766575199,-0.9314172962570348,0.0894514851873968,3.0
19.580379486083984,27.292179107666016,-1.8444864749908447,-0.0,-0.0,-1.0,0.0786480054420741,1.0
19.54286193847656,26.856924057006836,-1.7715566158294678,-0.0,-0.0,-1.0,0.062613498427487,1.0
19.55050277709961,27.13597297668457,-1.8146493434906008,-0.0,-0.0,-1.0,0.0379308334500243,1.0
19.33843421936035,27.569190979003903,-1.8376872539520264,-0.0,-0.0,-1.0,0.1353892088021581,1.0
19.46808624267578,25.685745239257812,-1.5913817882537842,-0.0,-0.0,-1.0,0.054716461567989,1.0
19.46741485595703,26.02469825744629,-1.637040376663208,-0.0,-0.0,-1.0,0.0525611570185634,1.0
19.275493621826172,26.218488693237305,-1.6229393482208252,-0.0,-0.0,-1.0,0.1224341202958083,1.0
18.912378311157227,26.97122383117676,-1.6576688289642334,0.7570509625939542,0.5710231769713925,-0.3175001911764234,0.236360934340324,3.0
19.131101608276367,26.2403507232666,-1.5953810214996338,0.875208906270978,-0.2294155467114044,-0.4258848169529712,0.1033165763090801,3.0
18.09661293029785,26.684593200683594,-1.4459102153778076,-0.0,-0.0,-1.0,0.257149057899498,2.0
