x,y,z,nx,ny,nz,curvature,density
11.797562599182127,9.497987747192385,-0.5470328330993652,-0.0,-0.0,-1.0,0.0182040052144234,1.0
10.488259315490724,8.163684844970703,-0.3633599281311035,-0.0,-0.0,-1.0,0.0376464191105662,1.0
10.90842628479004,10.528817176818848,-0.5220487117767334,-0.0,-0.0,-1.0,0.0483171747281678,1.0
11.23336410522461,10.434053421020508,-0.5342862606048584,-0.0,-0.0,-1.0,0.0198073479417419,1.0
11.443193435668944,10.31463623046875,-0.5546343326568604,-0.0,-0.0,-1.0,0.0324555847601971,1.0
11.749117851257324,10.25282859802246,-0.5635602474212646,-0.0,-0.0,-1.0,0.0353424184001796,1.0
12.059064865112305,10.432782173156738,-0.5255537033081055,0.5145515226449804,0.5198373250793121,-0.6819134006588504,0.0907652793022472,3.0
10.240228652954102,9.755756378173828,-0.3918752670288086,-0.0,-0.0,-1.0,0.0698033249800128,2.0
10.42562484741211,9.634501457214355,-0.4095277786254883,-0.1382151460583179,-0.2151653274636243,-0.9667473585469728,0.0540559302507898,5.0
10.683265686035156,9.516733169555664,-0.4255337715148926,0.5941779431070022,-0.285888138628243,-0.751811508369492,0.0571571918749286,3.0
10.914718627929688,9.311203002929688,-0.4600553512573242,-0.0,-0.0,-1.0,0.0423962457832989,2.0
11.172597885131836,9.18169403076172,-0.4807832241058349,-0.0,-0.0,-1.0,0.0226034273079744,1.0
11.388753890991213,9.0624418258667,-0.5012524127960205,-0.0,-0.0,-1.0,0.0196848284117479,1.0
11.589834213256836,8.992021560668945,-0.5131900310516357,-0.0,-0.0,-1.0,0.0262722279273744,2.0
12.296001434326172,8.674616813659668,-0.5744667053222656,0.862016439166504,-0.223849563927951,0.4547736044846571,0.0868226908077268,3.0
12.486743927001951,8.66718864440918,-0.5770070552825928,-0.1626004575741719,0.0870548806259471,-0.982844107148164,0.0598984467454532,3.0
12.691641807556152,8.603940963745117,-0.5913443565368652,-0.0,-0.0,-1.0,0.0565160568169806,2.0
10.335494041442873,10.515432357788086,-0.483471155166626,-0.2487529099781247,0.8607390073503086,0.4441287549833047,0.0368519875762181,3.0
10.527738571166992,10.40145492553711,-0.4955832958221435,-0.9884572842055516,0.0825791400716848,-0.1270152861903088,0.0306318721175869,3.0
10.764167785644531,10.297496795654297,-0.5042388439178467,0.8346154505930526,-0.0639241448268357,-0.5471112805814863,0.035187254692395,3.0
11.05449676513672,10.18363094329834,-0.5137538909912109,-0.0,-0.0,-1.0,0.0242515215024927,1.0
11.297544479370115,10.053778648376465,-0.530458927154541,-0.0,-0.0,-1.0,0.0257616058027481,1.0
11.497814178466797,9.924127578735352,-0.5503859519958496,-0.0,-0.0,-1.0,0.0146876905910919,1.0
11.709112167358398,9.747429847717283,-0.5811402797698975,-0.0,-0.0,-1.0,0.0208540514003435,1.0
10.305124282836914,8.417035102844238,-0.3595149517059326,0.0848979459792858,-0.8680873511736635,0.4890978322388993,0.1102763903673635,8.0
10.527331352233888,8.184630393981934,-0.3944551944732666,-0.4945848110796352,-0.7630537076399679,-0.4160948256181758,0.0290178429680124,3.0
10.314106941223145,10.506599426269531,-0.4783313274383545,-0.1328438099014405,0.9443366604692884,0.3009664331193469,0.0368519875762182,4.0
10.436488151550291,8.528799057006836,-0.3869690895080566,0.8257867463149883,-0.2607002324092466,-0.5001116259719118,0.0293982577676848,4.0
10.6245698928833,8.396332740783691,-0.4083528518676758,-0.0,-0.0,-1.0,0.0166261389299825,1.0
10.515595436096191,10.329453468322754,-0.50583815574646,-0.0,-0.0,-1.0,0.0299305683770994,1.0
10.777024269104004,10.15969467163086,-0.529700517654419,-0.0,-0.0,-1.0,0.0197990257077243,2.0
11.000971794128418,8.374964714050293,-0.4041943550109863,-0.0,-0.0,-1.0,0.0592478015258697,1.0
11.221010208129885,8.254180908203125,-0.4246015548706054,-0.8764051326036895,0.2225739029167889,-0.4270537451964302,0.0528162674953353,3.0
11.096826553344728,10.072991371154783,-0.5341346263885498,-0.0,-0.0,-1.0,0.029688157086066,1.0
11.5341215133667,8.16610050201416,-0.4383633136749267,-0.395152825200111,0.5575017481994506,-0.7301000243055243,0.1167951050497306,3.0
11.365762710571287,9.992310523986816,-0.5410876274108887,-0.0,-0.0,-1.0,0.0269483059059496,1.0
11.583979606628418,9.832369804382324,-0.5703048706054688,-0.0,-0.0,-1.0,0.0140573087754261,1.0
11.983036041259766,8.569892883300781,-0.3509542942047119,0.145977482304015,0.5767667718307987,-0.8037603284388082,0.157704619096111,5.0
10.29294776916504,8.172346115112305,-0.3639171123504638,-0.0,-0.0,-1.0,0.0479544950304633,2.0
10.28208827972412,10.059039115905762,-0.4603753089904785,-0.7314948574489339,0.4919202449872521,-0.4721543668096756,0.0529018832815244,4.0
10.486808776855469,9.903398513793944,-0.478287935256958,-0.0,-0.0,-1.0,0.0296025966509431,1.0
10.800504684448242,9.769209861755373,-0.4851086139678955,-0.6015601254827505,0.0462705367547914,-0.7974863339629097,0.056202617774835,3.0
11.017695426940918,9.614277839660645,-0.5052649974822998,-0.0,-0.0,-1.0,0.0312528088520244,1.0
11.30685043334961,9.474695205688477,-0.5192930698394775,-0.7728658541830052,0.3987859308500207,-0.4936072860017926,0.0255569983905484,3.0
11.526516914367676,9.423331260681152,-0.5184707641601562,-0.3282226822103232,-0.92757560879867,-0.1785311201007763,0.0383616262753702,4.0
12.106318473815918,9.086758613586426,-0.569617748260498,-0.0629150249804527,0.9614899988866984,-0.267541925074494,0.0288441942120976,3.0
12.27623462677002,8.99329948425293,-0.5851631164550781,-0.0,-0.0,-1.0,0.026794493512736,1.0
12.420934677124023,9.061986923217772,-0.5632688999176025,-0.0,-0.0,-1.0,0.0297593603942868,2.0
12.595009803771973,8.936997413635254,-0.5877225399017334,-0.0,-0.0,-1.0,0.0499732198051012,1.0
10.279584884643556,8.399930000305176,-0.3201107978820801,-0.5304031659010936,-0.5379536923379604,-0.655193335208816,0.0960030606930946,6.0
10.42081069946289,9.777015686035156,-0.4360182285308838,-0.5644828037486411,-0.7423962525986546,-0.3608420269308271,0.0724546823868269,3.0
10.568222045898438,9.64400863647461,-0.4295291900634765,-0.0,-0.0,-1.0,0.0437954945846246,2.0
10.685508728027344,9.439947128295898,-0.4244681596755981,-0.0,-0.0,-1.0,0.0449779894269963,1.0
10.793537139892578,9.025604248046877,-0.4201449155807495,-0.6010209006403655,0.1624476512996313,-0.7825500863080124,0.0378526453144213,4.0
10.70742416381836,8.748355865478516,-0.4244145154953003,0.4020786487482116,-0.3870261472264856,-0.8297852261783375,0.037591495494832,3.0
10.88449478149414,8.474939346313477,-0.4170923233032226,-0.0,-0.0,-1.0,0.0409456674147102,2.0
11.219768524169922,8.291433334350586,-0.4026379585266113,-0.0,-0.0,-1.0,0.0419667873161059,2.0
10.968986511230469,10.174689292907717,-0.5307308435440063,-0.0,-0.0,-1.0,0.013397818530537,1.0
11.232223510742188,9.978391647338867,-0.5202933549880981,-0.0,-0.0,-1.0,0.0291340221012929,2.0
11.24472427368164,9.636906623840332,-0.523306131362915,-0.0,-0.0,-1.0,0.0196881857499502,2.0
11.55666732788086,9.244033813476562,-0.5129202604293823,-0.0,-0.0,-1.0,0.0467635420777747,2.0
11.8504638671875,8.991109848022461,-0.5019532442092896,-0.0,-0.0,-1.0,0.0393675460298549,2.0
12.239757537841797,8.749086380004883,-0.4864650964736938,-0.0,-0.0,-1.0,0.0726209544936957,1.0
11.927337646484377,8.861312866210938,-0.4998551607131958,-0.0,-0.0,-1.0,0.0994658847010892,1.0
12.24310302734375,8.349774360656738,-0.4912322759628296,-0.0,-0.0,-1.0,0.0219718716623482,1.0
12.48348617553711,10.444568634033203,-0.5117307901382446,-0.0,-0.0,-1.0,0.1949174132714743,1.0
11.351470947265623,10.165657043457031,-0.5654580593109131,-0.0,-0.0,-1.0,0.0300611374243187,2.0
11.51845932006836,9.579917907714844,-0.5504473447799683,-0.0,-0.0,-1.0,0.0244131039920907,2.0
11.32830047607422,9.836795806884766,-0.5628656148910522,-0.0,-0.0,-1.0,0.0087978415302118,1.0
11.608612060546877,9.328245162963867,-0.5432356595993042,-0.0,-0.0,-1.0,0.0413834674166071,2.0
12.184795379638672,8.782858848571777,-0.5087459087371826,0.3054531765315031,-0.9213063644049226,0.2406095173799207,0.0884070220654423,3.0
11.764640808105469,9.06804084777832,-0.5326942205429077,-0.0,-0.0,-1.0,0.0234534407076838,2.0
12.132366180419922,8.39818286895752,-0.5077683925628662,-0.0,-0.0,-1.0,0.1014851905701072,2.0
12.012466430664062,8.581684112548828,-0.5154893398284912,-0.0,-0.0,-1.0,0.2345224696472356,1.0
12.076736450195312,8.499839782714844,-0.4248189926147461,-0.8834034132921578,0.4434230567583092,-0.1515730916715857,0.2351725129456681,5.0
10.952033996582031,9.35391616821289,-0.4785561561584472,-0.0,-0.0,-1.0,0.0442767895210552,1.0
10.79836654663086,9.666080474853516,-0.4857197999954223,0.7518178796426236,-0.012693792514402,-0.6592486203863234,0.0529601219142239,4.0
10.57635498046875,9.977020263671877,-0.4962711334228515,-0.0,-0.0,-1.0,0.0130330130063454,1.0
11.48212432861328,8.316936492919922,-0.4541628360748291,-0.0,-0.0,-1.0,0.0675937751832486,1.0
11.367790222167969,8.688457489013672,-0.4591461420059204,-0.0,-0.0,-1.0,0.0308154393315343,2.0
11.089385986328123,8.921144485473633,-0.4724082946777344,-0.0,-0.0,-1.0,0.0239619771448574,2.0
11.048625946044922,9.17446517944336,-0.4740569591522217,-0.0,-0.0,-1.0,0.0272854021219192,2.0
10.516067504882812,9.747520446777344,-0.4369055032730102,-0.0,-0.0,-1.0,0.0494255942839038,1.0
10.389411926269531,9.990671157836914,-0.4388344287872314,-0.0,-0.0,-1.0,0.0507806414928779,1.0
12.076740264892578,8.454641342163086,-0.3852311372756958,-0.0,-0.0,-1.0,0.1122531521703275,2.0
10.973758697509766,9.024820327758787,-0.4275046586990356,-0.0,-0.0,-1.0,0.0322815154585738,1.0
10.815357208251951,9.395066261291504,-0.4286880493164062,-0.0,-0.0,-1.0,0.0474075427747814,2.0
11.458003997802734,8.143360137939453,-0.4199155569076538,0.366271288611395,-0.6180120990715751,-0.6956338034771553,0.1284244013591949,3.0
11.111320495605469,8.661523818969727,-0.4272552728652954,-0.0,-0.0,-1.0,0.0244601647870476,2.0
11.03717803955078,8.779589653015137,-0.4287195205688476,-0.0,-0.0,-1.0,0.0226275366249487,2.0
12.600296020507812,10.357032775878906,-0.3360674381256103,-0.4228978145467323,0.6388287090560008,-0.6426937987389029,0.1279229367013424,4.0
10.656578063964844,9.44466781616211,-0.4750876426696777,-0.0,-0.0,-1.0,0.0520533774839436,1.0
10.306358337402344,9.764440536499023,-0.4736871719360351,-0.0,-0.0,-1.0,0.0775837243823402,1.0
12.085891723632812,8.488492965698242,-0.4635738134384155,-0.0,-0.0,-1.0,0.1792836569071165,2.0
11.14630126953125,8.677715301513672,-0.4956525564193725,-0.0,-0.0,-1.0,0.0223646278672365,2.0
10.91240692138672,8.957810401916504,-0.4904869794845581,-0.0762812845886015,-0.9798265750775756,-0.1847188360543149,0.0357309717374757,3.0
11.58157730102539,8.184613227844238,-0.5042916536331177,-0.0,-0.0,-1.0,0.0430835063277608,1.0
12.450267791748049,10.216663360595703,-0.4493944644927978,0.0522310258412658,0.9590143862455486,0.2785019334109601,0.208736463039304,4.0
11.205085754394531,9.877527236938477,-0.5232995748519897,-0.5495239292932587,-0.2357487744023309,-0.8015272712153323,0.025028321177071,3.0
11.642444610595703,9.280405044555664,-0.5179259777069092,-0.0,-0.0,-1.0,0.0378101431379408,1.0
11.327281951904297,9.539173126220703,-0.5267062187194824,-0.0,-0.0,-1.0,0.0278559985085389,1.0
12.363384246826172,8.612863540649414,-0.500228762626648,-0.1681123474996709,-0.3013043548847325,-0.9385914576351334,0.1271801677492807,4.0
11.97214126586914,8.794281005859375,-0.515070915222168,-0.0,-0.0,-1.0,0.1246943319064441,1.0
11.73025131225586,9.056318283081056,-0.5198978185653687,0.2910651318902272,-0.9524331769272824,-0.0902891604010626,0.0274403751958718,3.0
12.345836639404297,8.149005889892578,-0.5147912502288818,-0.6118919013650609,-0.5909299679291988,-0.5257281370128926,0.0173846352282837,3.0
12.548551559448242,10.341410636901855,-0.4386227130889892,-0.1757830102249729,0.7264607407967846,-0.6643456369972138,0.1236610177457619,3.0
12.461431503295898,10.223624229431152,-0.4473575353622436,-0.7808898249726334,0.5721044225360626,0.25081389708086,0.208736463039304,5.0
11.583370208740234,9.85354709625244,-0.506731390953064,-0.0,-0.0,-1.0,0.014123376116517,1.0
12.064306259155272,9.180994987487791,-0.5052427053451538,-0.0,-0.0,-1.0,0.0134899999134236,1.0
11.889484405517578,9.384259223937988,-0.5072170495986938,-0.0,-0.0,-1.0,0.017467066297573,1.0
11.757408142089844,9.588346481323242,-0.5069304704666138,-0.0,-0.0,-1.0,0.0204284065022133,1.0
12.435136795043944,8.667335510253906,-0.5041191577911377,0.6728629502094121,-0.7210945659229587,-0.1651607617803522,0.156760971122224,3.0
12.166305541992188,8.911636352539062,-0.5095083713531494,-0.0,-0.0,-1.0,0.062920573053188,1.0
12.471023559570312,8.561311721801758,-0.5060497522354126,0.2660251733638606,0.5490220273393069,-0.7923417322298285,0.1796206585369853,4.0
12.5455322265625,10.341841697692873,-0.3025410175323486,0.3003982741049676,-0.5255646837897019,-0.7959539183066993,0.1896076806755431,6.0
10.45498275756836,9.495831489562988,-0.4249178171157837,-0.0,-0.0,-1.0,0.0370145269197,2.0
10.266597747802734,9.709136962890623,-0.4313442707061767,-0.0,-0.0,-1.0,0.0671302460705448,1.0
10.589187622070312,9.21573257446289,-0.4224280118942261,-0.0,-0.0,-1.0,0.0705270365969541,1.0
11.923246383666992,8.482072830200195,-0.3649916648864746,0.2116946567954177,-0.1560996633831032,-0.9647892346911586,0.0767198470441301,3.0
10.577442169189451,8.606851577758789,-0.4329601526260376,-0.0,-0.0,-1.0,0.0240714809667832,2.0
10.565933227539062,8.835115432739258,-0.4298179149627685,-0.0,-0.0,-1.0,0.0484907186932425,1.0
10.977785110473633,8.158927917480469,-0.4195649623870849,-0.0,-0.0,-1.0,0.0277156074523886,2.0
10.644784927368164,8.446069717407227,-0.4321101903915405,-0.0,-0.0,-1.0,0.017548391884652,1.0
12.534603118896484,10.416081428527832,-0.2026610374450683,0.5450461785218124,-0.0186574719519008,-0.8381984025391203,0.1734702894600452,3.0
12.470251083374023,10.311407089233398,-0.2078615427017212,-0.5224734627274749,-0.4655103871803204,-0.714367944530541,0.1829972017693125,4.0
10.34246826171875,9.61760711669922,-0.3278051614761352,-0.0,-0.0,-1.0,0.0416633453288141,1.0
10.333566665649414,9.39532470703125,-0.3325141668319702,-0.0,-0.0,-1.0,0.0252306157158675,1.0
10.473909378051758,8.966938018798828,-0.3337703943252563,-0.0,-0.0,-1.0,0.0514081826866884,1.0
11.313060760498049,8.229013442993164,-0.3063069581985473,-0.0,-0.0,-1.0,0.1265496606666196,1.0
10.866390228271484,8.316343307495117,-0.3269180059432983,-0.0,-0.0,-1.0,0.0316939191834099,1.0
10.47115707397461,8.57977294921875,-0.3414944410324096,-0.0,-0.0,-1.0,0.041443474042268,2.0
11.022331237792969,10.028040885925291,-0.5536872148513794,-0.0,-0.0,-1.0,0.024132429787643,2.0
11.527755737304688,9.375553131103516,-0.5481172800064087,0.9221992241434832,-0.362934984029809,-0.1335169965077119,0.0364747790382121,3.0
11.261606216430664,9.59368896484375,-0.555574893951416,-0.6582782625292689,0.536406556629637,-0.5281455624031907,0.0224805585911949,3.0
11.09158706665039,9.828822135925291,-0.556869387626648,-0.0,-0.0,-1.0,0.0096705965216297,2.0
12.150083541870115,8.764472961425781,-0.535079836845398,0.640941244708665,-0.1254404939645202,-0.7572707595736444,0.1087781675474444,3.0
11.886272430419922,8.921453475952148,-0.5444097518920898,-0.0,-0.0,-1.0,0.058698942991632,2.0
11.56351089477539,9.17498016357422,-0.5535868406295776,-0.0,-0.0,-1.0,0.043412067666493,1.0
12.343664169311523,8.64822006225586,-0.528329610824585,0.8683824699176005,0.3402248673885041,-0.3607754503154041,0.1013135670792978,5.0
12.433845520019531,8.148489952087402,-0.5428217649459839,-0.0,-0.0,-1.0,0.0179619849841435,1.0
12.340768814086914,10.595508575439451,-0.0877085924148559,0.5598963123712235,-0.7027429988783451,-0.4389400835200353,0.2242945578944361,6.0
12.405498504638672,10.46651554107666,-0.0884625911712646,0.3249389076575054,-0.584887353720899,-0.7431833486749496,0.0869775569443706,4.0
12.60240364074707,10.22665309906006,-0.5511138439178467,-0.0,-0.0,-1.0,0.1272804041881908,1.0
12.298786163330078,10.03302001953125,-0.5804619789123535,-0.0,-0.0,-1.0,0.183633957988154,2.0
11.986896514892578,9.83395004272461,-0.6106557846069336,-0.0,-0.0,-1.0,0.0232163409866734,1.0
12.644002914428713,9.238497734069824,-0.5890529155731201,-0.0,-0.0,-1.0,0.0402534761449023,1.0
12.288257598876951,9.45933723449707,-0.604844331741333,-0.0,-0.0,-1.0,0.0231753813799381,1.0
12.061573028564451,9.672855377197266,-0.6119871139526367,-0.0,-0.0,-1.0,0.0204411641845826,1.0
12.564952850341797,10.474563598632812,-0.1920125484466552,-0.3929363805631534,-0.7137632713461277,-0.579778400173034,0.155415203599712,6.0
10.41262435913086,9.076393127441406,-0.3653647899627685,-0.0,-0.0,-1.0,0.0558356191017312,1.0
10.946975708007812,8.37869644165039,-0.3620885610580444,-0.6502804664177854,-0.0279382012448788,-0.7591803289776861,0.0613136503440548,3.0
10.500980377197266,8.479471206665039,-0.3831769227981567,0.9821119727046238,0.1870465722449309,0.0216714762223018,0.0355237083433099,3.0
10.429887771606444,8.732236862182617,-0.3774350881576538,-0.0,-0.0,-1.0,0.0419419991045555,1.0
10.612558364868164,9.567060470581056,-0.4219701290130615,-0.0,-0.0,-1.0,0.0551891064176838,1.0
10.396635055541992,9.731993675231934,-0.4292390346527099,-0.0,-0.0,-1.0,0.0857422531121495,2.0
11.901845932006836,8.727651596069336,-0.3744690418243408,-0.0,-0.0,-1.0,0.1987808052918713,2.0
10.836664199829102,9.101468086242676,-0.4265193939208984,-0.0,-0.0,-1.0,0.0262061157144283,2.0
10.769731521606444,9.34570598602295,-0.4208306074142456,-0.0,-0.0,-1.0,0.0343196640712915,2.0
12.02585792541504,8.59225845336914,-0.3723961114883423,-0.7731757397184973,0.5922188910282168,-0.2268833634713295,0.1595225819237331,6.0
11.131620407104492,8.619915008544922,-0.4278091192245483,-0.0,-0.0,-1.0,0.0255970492388151,2.0
10.939001083374023,8.819320678710938,-0.4316804409027099,-0.0,-0.0,-1.0,0.0418657931946336,2.0
11.513519287109377,8.171828269958496,-0.4228390455245971,-0.015461284605218,0.6527241974854022,-0.7574378328915146,0.1211390964318595,4.0
12.606983184814451,10.435108184814451,-0.2597963809967041,-0.8807351933970581,0.4322011299511721,-0.1936690537509204,0.1102276071549227,5.0
12.653242111206056,10.449121475219728,-0.2832202911376953,-0.0,-0.0,-1.0,0.0978802860705101,2.0
10.359485626220703,10.347475051879885,-0.4455957412719726,-0.0,-0.0,-1.0,0.0205377415177333,2.0
10.926044464111328,9.573001861572266,-0.4397127628326416,-0.0,-0.0,-1.0,0.0384826243559106,1.0
10.791543960571287,9.694533348083496,-0.4436386823654175,-0.0,-0.0,-1.0,0.0517355808519666,1.0
11.04484748840332,9.322454452514648,-0.4426527023315429,-0.0,-0.0,-1.0,0.0391099762692033,1.0
12.089385986328123,8.590468406677246,-0.4050790071487427,0.5267309599706759,0.3001746855231591,-0.7952670331275169,0.1349272283901469,3.0
11.52606964111328,8.626766204833984,-0.4414368867874145,-0.0,-0.0,-1.0,0.0508129965279474,2.0
11.34723663330078,8.851665496826172,-0.4432483911514282,-0.0,-0.0,-1.0,0.027018141121659,1.0
11.121042251586914,9.05661392211914,-0.4493184089660644,-0.0,-0.0,-1.0,0.0321026973766688,1.0
11.695537567138672,8.235477447509766,-0.4482825994491577,0.4692903514992619,0.3882167612761996,-0.7931294423068139,0.0514496124442925,4.0
12.584043502807615,10.403711318969728,-0.2552783489227295,-0.7790308515508455,0.5968315762179537,0.1921015407568548,0.1193032592270045,3.0
10.693866729736328,9.516876220703123,-0.4172098636627197,0.5941779431070022,-0.285888138628243,-0.751811508369492,0.0569175265360012,3.0
10.564434051513672,9.631940841674805,-0.42465341091156,-0.0,-0.0,-1.0,0.0451731743585236,2.0
10.846061706542969,9.01373291015625,-0.4165023565292358,-0.0297210625392355,-0.998976896698346,-0.0340854559083537,0.0390846532878199,3.0
10.79751205444336,9.235240936279297,-0.4153462648391723,-0.0,-0.0,-1.0,0.020389016901895,2.0
11.903398513793944,8.639957427978516,-0.3456021547317505,-0.0,-0.0,-1.0,0.1976857413714303,2.0
10.934024810791016,8.729607582092285,-0.4162772893905639,-0.0,-0.0,-1.0,0.0398897173636529,1.0
11.277273178100586,8.27863883972168,-0.4010865688323974,-0.0,-0.0,-1.0,0.0489121467566174,1.0
11.050470352172852,8.453092575073242,-0.4139001369476318,-0.0,-0.0,-1.0,0.0328503209350128,2.0
12.512218475341797,10.38816261291504,-0.2165954113006591,-0.674736197901421,0.6700105520202053,0.3095430881527063,0.1436591089247688,5.0
10.548215866088867,9.319868087768556,-0.4007985591888428,-0.0,-0.0,-1.0,0.0562937450024297,1.0
10.39325714111328,9.45688247680664,-0.4058130979537964,-0.0,-0.0,-1.0,0.033464006030266,1.0
11.991947174072266,8.580183029174805,-0.3331619501113891,-0.1955242724665409,0.4486755093520913,-0.8720438900560402,0.1667398669397336,4.0
10.603193283081056,9.06881332397461,-0.4078881740570068,-0.0,-0.0,-1.0,0.0503352181983039,2.0
10.88953971862793,8.445296287536621,-0.4157552719116211,0.7128339759875905,0.0899444329935684,-0.695541315560182,0.045731249214147,3.0
10.654523849487305,8.702203750610352,-0.4205361604690552,-0.0,-0.0,-1.0,0.0262349103151173,2.0
11.209609985351562,8.153478622436523,-0.4070051908493042,-0.0,-0.0,-1.0,0.0397067339522447,2.0
10.940210342407228,8.194116592407227,-0.4237294197082519,-0.0,-0.0,-1.0,0.039445169942561,2.0
12.631927490234377,10.20486068725586,-0.5985206365585327,-0.1071918935167936,0.7399327006578826,0.6640854587034842,0.1197671121893417,3.0
12.646200180053713,9.643194198608398,-0.629358172416687,-0.0,-0.0,-1.0,0.0299921195520779,2.0
11.38027572631836,10.58216667175293,-0.551755428314209,-0.0,-0.0,-1.0,0.0541083084503413,2.0
12.443577766418455,10.23155117034912,-0.4797210693359375,-0.6746725109280962,0.5465553103398836,0.4960789208757529,0.1774378683235685,7.0
11.45159912109375,10.378292083740234,-0.5578038692474365,-0.0,-0.0,-1.0,0.0544700574479066,2.0
11.87982177734375,9.566542625427246,-0.5718021392822266,-0.0,-0.0,-1.0,0.0127226889787516,1.0
11.741840362548828,9.7055025100708,-0.5747542381286621,-0.0,-0.0,-1.0,0.018663303921712,1.0
12.036772727966309,9.336929321289062,-0.5734894275665283,-0.0,-0.0,-1.0,0.011023577459866,1.0
12.313544273376465,8.84206771850586,-0.583530068397522,-0.0,-0.0,-1.0,0.0525625797763569,2.0
12.150968551635742,9.08664608001709,-0.5805220603942871,-0.0629150249804527,0.9614899988866984,-0.267541925074494,0.0320278117818505,3.0
12.49977970123291,8.622693061828613,-0.5831048488616943,-0.0,-0.0,-1.0,0.057053306741814,2.0
10.308536529541016,10.59532356262207,-0.488083004951477,-0.0,-0.0,-1.0,0.042128978089548,2.0
10.59384536743164,10.217212677001951,-0.4979903697967529,-0.0,-0.0,-1.0,0.0184342277865394,2.0
10.432479858398438,10.41591453552246,-0.4934980869293213,-0.95872802882116,0.1081833423647865,0.2629390256076053,0.0286880977571006,3.0
11.09139919281006,9.646920204162598,-0.5099459886550903,-0.0,-0.0,-1.0,0.0196648959866221,1.0
11.480544090270996,9.339048385620115,-0.5087847709655762,-0.0999737279828434,0.0674621992639504,-0.9927004106897928,0.0435918249258831,3.0
11.187491416931152,9.526870727539062,-0.5134471654891968,-0.0,-0.0,-1.0,0.0177372568261106,1.0
11.86125373840332,8.936229705810547,-0.5179728269577026,-0.56081692593726,-0.7439395062225047,-0.3633708665588055,0.0580973820033811,4.0
11.64730739593506,9.121553421020508,-0.5163265466690063,-0.0,-0.0,-1.0,0.043537695368831,1.0
12.49725341796875,8.43033218383789,-0.5206016302108765,-0.7313517410116279,0.5796221746015922,-0.359392216984985,0.0908740836908926,4.0
12.271029472351074,8.633137702941895,-0.5171874761581421,-0.0,-0.0,-1.0,0.1007840461623531,2.0
12.045499801635742,8.772358894348145,-0.5200175046920776,-0.0,-0.0,-1.0,0.1636102441608916,2.0
12.54408359527588,8.3244047164917,-0.5275229215621948,-0.0,-0.0,-1.0,0.0581629473416836,2.0
10.254464149475098,10.497739791870115,-0.4740626811981201,-0.5993544664439109,0.5348350456213827,0.5955885303873037,0.0314739511139367,4.0
10.428444862365724,10.162330627441406,-0.4905726909637451,-0.0,-0.0,-1.0,0.0106070331670636,1.0
11.197375297546388,9.361132621765137,-0.5066001415252686,-0.7637361842628609,-0.1239738387489191,-0.6335120584120416,0.0292585895689349,3.0
11.00434112548828,9.516304969787598,-0.506335973739624,-0.0,-0.0,-1.0,0.032607884247051,1.0
11.591141700744627,8.936981201171875,-0.5185105800628662,-0.0,-0.0,-1.0,0.0274619404039105,1.0
11.43237590789795,9.10255241394043,-0.5140647888183594,-0.0,-0.0,-1.0,0.0259202935426683,2.0
12.072937965393066,8.702150344848633,-0.5067895650863647,-0.7002204606133865,-0.5013447650659967,-0.5082762369807358,0.1271350960945392,3.0
11.8024320602417,8.832406997680664,-0.5134164094924927,-0.0,-0.0,-1.0,0.0562263780374553,1.0
12.283523559570312,8.540519714355469,-0.5080142021179199,-0.0,-0.0,-1.0,0.0878278224983646,2.0
11.477432250976562,10.410526275634766,-0.5487720966339111,-0.0,-0.0,-1.0,0.0472605851792933,2.0
12.467164039611816,10.266956329345703,-0.4670490026473999,-0.7826807116405291,0.2509480552774054,0.5695928170003228,0.2111052797076332,4.0
11.81524658203125,9.852036476135254,-0.568692684173584,-0.0,-0.0,-1.0,0.0108042938460487,1.0
11.950494766235352,9.611221313476562,-0.5794527530670166,-0.0,-0.0,-1.0,0.0097270243844248,1.0
12.453750610351562,9.296649932861328,-0.5644216537475586,-0.0,-0.0,-1.0,0.034238350270105,1.0
12.1856689453125,9.397583961486816,-0.5787590742111206,-0.0,-0.0,-1.0,0.0102974626666866,1.0
12.656572341918944,9.046920776367188,-0.5718333721160889,-0.0,-0.0,-1.0,0.0438012191514042,1.0
10.395095825195312,10.218159675598145,-0.4823083877563476,-0.5788359578682729,0.4943587816951069,-0.6485046868293616,0.0141055116848185,3.0
10.52036476135254,10.028894424438477,-0.484453797340393,-0.0,-0.0,-1.0,0.0156656814548591,2.0
10.99057388305664,9.459217071533203,-0.4847340583801269,-0.0,-0.0,-1.0,0.0490418211702996,2.0
11.21043586730957,9.214441299438477,-0.4845988750457763,-0.0,-0.0,-1.0,0.0207347857129721,1.0
11.635008811950684,8.785444259643555,-0.4827519655227661,-0.0,-0.0,-1.0,0.040800141573395,1.0
11.451991081237791,8.90168285369873,-0.489294171333313,-0.0,-0.0,-1.0,0.0247421574604338,1.0
12.07280158996582,8.554546356201172,-0.4640552997589111,-0.0,-0.0,-1.0,0.2511471500610785,2.0
11.91260051727295,8.656023979187012,-0.4691978693008423,-0.0,-0.0,-1.0,0.1636857616001757,1.0
12.197583198547363,8.174175262451172,-0.4892479181289673,-0.3700117385137003,0.4690439118945212,-0.8019283771489528,0.0257542952062066,3.0
12.074955940246582,8.294044494628906,-0.4886288642883301,-0.0,-0.0,-1.0,0.0527815425815891,2.0
12.52987289428711,10.413570404052734,-0.2562066316604614,-0.0,-0.0,-1.0,0.125880218951291,2.0
10.308321952819824,9.767318725585938,-0.3703228235244751,-0.0,-0.0,-1.0,0.0689221224063961,2.0
11.989015579223633,10.529155731201172,-0.5625640153884888,-0.0,-0.0,-1.0,0.0980966333442398,2.0
11.901119232177734,10.555055618286133,-0.5701354742050171,0.8177855037244723,-0.5752288528230309,0.0184020862407241,0.1053981251020566,3.0
12.45259952545166,10.089122772216797,-0.5606800317764282,-0.0,-0.0,-1.0,0.1443681737426186,1.0
12.073575019836426,9.8853120803833,-0.6295613050460815,-0.0,-0.0,-1.0,0.0231372937444041,1.0
10.595946311950684,9.149282455444336,-0.4089607000350952,-0.0,-0.0,-1.0,0.0703858584720062,1.0
12.66073989868164,10.067981719970703,-0.5394793748855591,-0.0,-0.0,-1.0,0.0883865495596793,1.0
12.482120513916016,9.554620742797852,-0.6254830360412598,-0.0,-0.0,-1.0,0.0317254031093221,2.0
12.249089241027832,9.63107681274414,-0.6416959762573242,-0.0,-0.0,-1.0,0.0141420713621334,1.0
10.705819129943848,8.779558181762695,-0.439745545387268,0.4020786487482116,-0.3870261472264856,-0.8297852261783375,0.0357183338034073,3.0
12.644733428955078,9.394222259521484,-0.628960132598877,-0.0,-0.0,-1.0,0.0298895863429541,2.0
10.985265731811523,8.48149585723877,-0.4505246877670288,0.3524378286709034,0.9300125311793616,0.1042318030693895,0.0530809347106395,3.0
11.463445663452148,8.178671836853027,-0.448421835899353,0.9381805076638474,0.0763310242919133,0.3376253985856998,0.0478380980542902,4.0
11.242671966552734,8.285280227661133,-0.4528475999832153,-0.0,-0.0,-1.0,0.054627399499461,2.0
12.46179485321045,10.53995132446289,-0.105390191078186,-0.4621595119310231,0.0221237290365109,-0.8865207984842758,0.0835750066945066,7.0
12.477535247802734,10.395230293273926,-0.118828535079956,-0.3665614693053067,0.1914706565477328,-0.910478817382324,0.1556277670221487,8.0
10.430685997009276,10.397793769836426,-0.4925832748413086,-0.95872802882116,0.1081833423647865,0.2629390256076053,0.0284736876516526,3.0
10.6102294921875,10.107467651367188,-0.5044182538986206,0.4709005581062276,-0.0307735518116847,-0.8816493934008781,0.0196447608122675,3.0
11.22111988067627,9.424102783203123,-0.5183086395263672,-0.0,-0.0,-1.0,0.0161814550403578,1.0
11.500650405883787,9.211099624633787,-0.5155313014984131,-0.0,-0.0,-1.0,0.0404610231769267,2.0
11.796578407287598,8.923519134521484,-0.5221865177154541,-0.0,-0.0,-1.0,0.0372154943862503,1.0
12.101350784301758,8.679786682128906,-0.5238734483718872,-0.7002204606133865,-0.5013447650659967,-0.5082762369807358,0.16875997858212,3.0
12.349207878112791,8.402458190917969,-0.5360262393951416,0.2154877349808333,-0.0347883852187414,-0.9758866759653514,0.0305420497028928,3.0
10.528141975402832,10.435623168945312,-0.4765081405639648,-0.9884572842055516,0.0825791400716848,-0.1270152861903088,0.0225331265713013,3.0
11.058279991149902,9.676382064819336,-0.4865388870239258,-0.0,-0.0,-1.0,0.02360604579989,2.0
11.278481483459473,9.464664459228516,-0.4829782247543335,-0.0,-0.0,-1.0,0.0254482059290533,2.0
12.606928825378418,10.31038761138916,-0.5575137138366699,-0.0,-0.0,-1.0,0.0943643195548383,2.0
12.577470779418944,10.162224769592283,-0.5810360908508301,-0.0,-0.0,-1.0,0.1053737954615741,2.0
11.534090042114258,9.15602684020996,-0.488269567489624,-0.0,-0.0,-1.0,0.0413221958531487,1.0
12.673128128051758,9.884145736694336,-0.6030360460281372,-0.0,-0.0,-1.0,0.0400862509613067,2.0
11.859593391418455,8.906377792358398,-0.4805042743682861,-0.0745094026382201,-0.7783331529895519,-0.6234146708859506,0.0853014607751865,3.0
12.177692413330078,8.656323432922363,-0.4762837886810303,-0.0,-0.0,-1.0,0.1299095142575632,1.0
12.347363471984863,8.361747741699219,-0.4972803592681885,-0.0,-0.0,-1.0,0.0246681407985179,2.0
12.436129570007324,8.20547103881836,-0.5095303058624268,-0.4517484239477085,-0.2012099115939968,-0.8691593254042078,0.0448270812977285,3.0
12.552648544311523,10.50290870666504,-0.2068624496459961,-0.2240637366159682,-0.658107599726279,-0.7188114002408462,0.1009713166566461,4.0
10.95474338531494,10.581978797912598,-0.5061670541763306,-0.0,-0.0,-1.0,0.0391709292318852,2.0
11.204319953918455,9.848260879516602,-0.5141665935516357,-0.5495239292932587,-0.2357487744023309,-0.8015272712153323,0.0088917050022906,3.0
10.245930671691896,8.860180854797363,-0.3457192182540893,-0.0,-0.0,-1.0,0.0335982859298301,1.0
10.341029167175291,8.616693496704102,-0.3525127172470093,-0.0,-0.0,-1.0,0.0558751394862644,1.0
11.359164237976074,9.595416069030762,-0.509151816368103,-0.0,-0.0,-1.0,0.0253626765160614,2.0
11.487250328063965,9.388483047485352,-0.5061006546020508,-0.0,-0.0,-1.0,0.0377459331689695,2.0
10.493775367736816,8.274377822875977,-0.3617230653762817,-0.0,-0.0,-1.0,0.037615888690962,2.0
12.56137466430664,10.33148956298828,-0.5673624277114868,-0.0,-0.0,-1.0,0.1153475189669901,1.0
11.585528373718262,9.228594779968262,-0.5049874782562256,-0.0,-0.0,-1.0,0.0522012234658187,2.0
12.65934944152832,10.302518844604492,-0.5507439374923706,-0.0,-0.0,-1.0,0.0842582764468418,1.0
12.600319862365724,9.904831886291504,-0.5998586416244507,0.3794816289866679,0.1478798444009693,-0.9133045739957566,0.092394450360127,3.0
11.88157081604004,8.91141414642334,-0.4894188642501831,-0.0745094026382201,-0.7783331529895519,-0.6234146708859506,0.088546624604129,3.0
12.694446563720703,9.638662338256836,-0.6091407537460327,-0.0,-0.0,-1.0,0.0284834189205875,1.0
12.148202896118164,8.69669246673584,-0.4714210033416748,-0.0,-0.0,-1.0,0.1141347644628864,1.0
12.19168758392334,8.418584823608398,-0.4956518411636352,-0.4640393769040282,0.8009125799132841,-0.3784263416031825,0.0604188424359797,3.0
12.395303726196287,8.170848846435547,-0.4951537847518921,-0.0,-0.0,-1.0,0.015829724792947,1.0
12.60239028930664,10.51119327545166,-0.2363015413284301,-0.0,-0.0,-1.0,0.0817853370314104,2.0
10.345417022705078,10.601688385009766,-0.5218944549560547,-0.0,-0.0,-1.0,0.041737879122941,2.0
10.68703556060791,9.926837921142578,-0.5194143056869507,-0.0,-0.0,-1.0,0.0175897675095238,2.0
10.85637092590332,9.701757431030272,-0.51307213306427,-0.8064291135708906,-0.5592764809655897,-0.192046615757774,0.0520101844421701,3.0
11.018637657165527,9.461359024047852,-0.5110158920288086,-0.6745197212699966,-0.1134017809123639,-0.729495155366881,0.0436532505360051,3.0
11.150065422058104,9.283679962158203,-0.5092771053314209,-0.0,-0.0,-1.0,0.0297180336403324,2.0
10.255249977111816,8.220382690429688,-0.3971918821334839,-0.0,-0.0,-1.0,0.0584921935910807,1.0
11.342040061950684,8.996452331542969,-0.5122935771942139,-0.0,-0.0,-1.0,0.0199777688984394,1.0
11.55343246459961,8.771827697753906,-0.507317304611206,-0.0,-0.0,-1.0,0.0273636803552994,1.0
10.218353271484377,8.526938438415527,-0.3673715591430664,-0.0,-0.0,-1.0,0.0635521324550357,2.0
10.294757843017578,8.373187065124512,-0.3750662803649902,-0.8557632466301286,-0.3735935647146637,-0.3579065717765627,0.0708511421154645,6.0
12.51585292816162,10.525811195373535,-0.1633819341659546,-0.3667103738583675,-0.9211260713432072,0.1305766533362124,0.0880787500531615,4.0
12.455276489257812,10.421472549438477,-0.1824609041213989,-0.7631334864094277,0.1491956729155134,0.6287828982279011,0.1071283241863062,5.0
11.900186538696287,8.763544082641602,-0.4553594589233398,-0.0,-0.0,-1.0,0.1096324379219214,1.0
12.018967628479004,8.648720741271973,-0.4529075622558594,-0.760477968281511,-0.3879488758916019,-0.5207388303678415,0.2424817372011927,6.0
11.968621253967283,8.327621459960938,-0.5053637027740479,-0.7662655550825341,0.3032633314244931,-0.56645251425638,0.0688914937449873,3.0
10.644587516784668,10.066485404968262,-0.5140191316604614,-0.0,-0.0,-1.0,0.0208125363203404,2.0
10.22508716583252,8.41135311126709,-0.2966543436050415,-0.0,-0.0,-1.0,0.0978256654818254,2.0
10.769126892089844,9.8644437789917,-0.4926736354827881,0.6035911164442109,-0.576072921472887,-0.5511966557367015,0.0490566729827381,4.0
10.892868995666504,9.479411125183104,-0.4778635501861572,-0.4980512568609926,-0.3609632932050124,-0.7884481254323445,0.0347649132649013,3.0
10.990145683288574,9.116479873657228,-0.4718756675720215,-0.0,-0.0,-1.0,0.0247360192901344,1.0
11.046357154846191,8.972286224365234,-0.4673562049865722,-0.0,-0.0,-1.0,0.0255330230054335,1.0
11.210104942321776,8.666163444519043,-0.4518308639526367,0.2031656118992294,0.5621433873867419,-0.8016972908517097,0.027629732466051,3.0
11.340076446533203,8.399857521057129,-0.4431489706039428,0.2367006459305911,0.6153614661844987,-0.751866391156903,0.0328340701325835,3.0
11.47033977508545,8.167584419250488,-0.4349416494369507,0.0784689594766664,0.010980254538024,-0.996856086107182,0.0478380980542902,5.0
12.513500213623049,10.56968116760254,-0.1389939785003662,-0.1655185150303549,-0.0046532117913777,-0.986195705122554,0.0727864714869212,3.0
12.416528701782228,10.361018180847168,-0.1593333482742309,-0.2922660702379766,-0.1772746991421873,-0.9397628558480572,0.1698227753510978,4.0
10.808287620544434,10.013062477111816,-0.5173230171203613,-0.0,-0.0,-1.0,0.0192779231837696,1.0
10.870474815368652,9.82566738128662,-0.5090686082839966,-0.7867172531619367,-0.4107202116905446,-0.4608523313233983,0.045868174874585,3.0
10.93077278137207,9.709699630737305,-0.5001943111419678,-0.0,-0.0,-1.0,0.0418503816160969,1.0
11.061691284179688,9.376556396484377,-0.4855055809020996,-0.1750129337199739,-0.4916633635119555,-0.853016770064246,0.038236705368325,3.0
11.208142280578612,8.992934226989746,-0.4740369319915771,-0.0,-0.0,-1.0,0.0178520399705666,2.0
11.373037338256836,8.68100643157959,-0.4595470428466797,-0.0,-0.0,-1.0,0.0303353153455564,2.0
11.511788368225098,8.270397186279297,-0.4610040187835693,-0.0,-0.0,-1.0,0.0572670286116372,1.0
11.501060485839844,8.518753051757812,-0.4453144073486328,-0.0,-0.0,-1.0,0.0728603394765916,2.0
11.587638854980469,8.198845863342285,-0.4522328376770019,0.4935285692327165,-0.3672197979620773,-0.7884029244845548,0.0436908865031171,3.0
11.89759922027588,8.589313507080078,-0.364727258682251,-0.0,-0.0,-1.0,0.1443592961787465,2.0
12.447860717773438,10.346146583557127,-0.1792906522750854,0.1058647896351888,0.3083378904658305,-0.9453678604747356,0.1347849942393288,8.0
12.537508010864258,10.474221229553224,-0.1594361066818237,-0.5174299653187104,-0.7482845116569997,0.4151343404303277,0.135980797162828,6.0
10.27376651763916,9.886119842529297,-0.4583497047424316,-0.0,-0.0,-1.0,0.0550463846553723,2.0
10.56304931640625,9.06124496459961,-0.4039376974105835,-0.0,-0.0,-1.0,0.0620123270909399,2.0
10.556320190429688,8.724912643432617,-0.409624695777893,-0.7698299014969274,-0.6336969295106093,-0.0760928662231684,0.0320062253741841,3.0
10.604681968688965,8.314023971557617,-0.409766674041748,-0.0,-0.0,-1.0,0.0155718154096809,2.0
10.243422508239746,10.181134223937988,-0.4684218168258667,-0.83394787484115,-0.2369445289721977,-0.4983856260347736,0.0477396853015893,3.0
10.371017456054688,9.749988555908203,-0.4388716220855713,-0.0,-0.0,-1.0,0.0754063292974026,2.0
10.48122215270996,9.56534481048584,-0.4175760746002197,-0.0,-0.0,-1.0,0.0458231478010698,1.0
10.58121109008789,9.26960563659668,-0.3992128372192383,0.1833133593309799,-0.8340611987459478,-0.5203250224977302,0.0604499882648431,3.0
11.370962142944336,10.125591278076172,-0.5647616386413574,0.2732068231623933,0.116311696758234,-0.9548977018376016,0.0317295973026059,3.0
11.38443088531494,9.87730884552002,-0.5604606866836548,-0.0,-0.0,-1.0,0.0132815205777465,1.0
11.46351432800293,9.488045692443848,-0.5445759296417236,-0.0,-0.0,-1.0,0.032546792613895,1.0
11.556282997131348,9.08117961883545,-0.5311315059661865,0.4361475370907886,-0.8284988756140039,0.351233453697068,0.0371746366364512,3.0
11.823308944702148,8.763394355773926,-0.482923150062561,-0.0,-0.0,-1.0,0.0696000765829513,2.0
11.945718765258787,8.378288269042969,-0.4728856086730957,-0.8658109297839267,-0.4428245351114197,-0.2329761038605624,0.1030325783548803,3.0
12.29847526550293,10.306581497192385,-0.0866740942001342,-0.0,-0.0,-1.0,0.1090499684869358,1.0
12.315677642822266,10.592235565185549,-0.0892425775527954,-0.0132917468049438,0.5060763776241127,-0.8623862414705663,0.2234341208608905,3.0
12.603656768798828,10.430880546569824,-0.2939293384552002,-0.1759475536857194,0.9174545674096736,-0.3568186865778466,0.1075820168628538,5.0
10.530021667480469,8.757830619812012,-0.4177020788192749,-0.7698299014969274,-0.6336969295106093,-0.0760928662231684,0.0287555382766703,3.0
10.581110954284668,8.336267471313477,-0.4189858436584472,-0.0,-0.0,-1.0,0.0225329637055204,2.0
10.239213943481444,9.970939636230469,-0.4677532911300659,-0.0,-0.0,-1.0,0.0619899692621237,1.0
10.41892433166504,9.678364753723145,-0.4321504831314087,0.0393752791670124,-0.3193532068604882,-0.9468173618277406,0.0647413306984328,6.0
10.54404067993164,9.267791748046877,-0.4094005823135376,-0.0,-0.0,-1.0,0.0639139147780784,2.0
10.513250350952148,8.975996017456055,-0.4171470403671264,-0.0,-0.0,-1.0,0.0502751246694088,1.0
10.232891082763672,10.572589874267578,-0.4834474325180053,-0.0,-0.0,-1.0,0.0345680455638655,1.0
10.253218650817873,10.146679878234863,-0.4684332609176636,0.3044551601639864,0.0868784898657872,-0.9485563680921448,0.0511322439714252,3.0
12.397915840148926,10.333785057067873,-0.0828564167022705,-0.0,-0.0,-1.0,0.1143169886215607,1.0
12.406604766845703,10.572617530822754,-0.0870091915130615,-0.832031430392534,-0.3440381746257879,-0.4351567915580657,0.1049555154639309,9.0
11.533327102661133,8.933281898498535,-0.5209057331085205,-0.0,-0.0,-1.0,0.0313275081452577,1.0
11.420683860778809,9.44691276550293,-0.5414100885391235,-0.0,-0.0,-1.0,0.0340994732434151,2.0
11.532596588134766,9.073526382446287,-0.5197713375091553,0.4361475370907886,-0.8284988756140039,0.351233453697068,0.037881935328238,3.0
11.370577812194824,9.930639266967772,-0.5566071271896362,-0.0,-0.0,-1.0,0.0134172372764825,1.0
11.381596565246582,9.709735870361328,-0.5509811639785767,-0.0,-0.0,-1.0,0.0184954788715978,1.0
10.357178688049316,8.288013458251953,-0.3847421407699585,-0.5268225408080243,-0.8205954480517705,0.2215425943995672,0.0598993212945214,3.0
10.337112426757812,8.806682586669922,-0.3837214708328247,-0.0,-0.0,-1.0,0.0480361609926458,1.0
10.35576343536377,8.524142265319824,-0.3822518587112427,-0.0,-0.0,-1.0,0.0625841301547413,2.0
10.30889892578125,9.422966003417969,-0.3907995223999023,-0.0,-0.0,-1.0,0.0222331868202318,1.0
10.413639068603516,9.13742446899414,-0.3716201782226562,-0.0,-0.0,-1.0,0.0573307583583289,1.0
10.274055480957031,9.664952278137209,-0.3996673822402954,-0.0,-0.0,-1.0,0.0755452256326397,1.0
11.608346939086914,8.869405746459961,-0.5070544481277466,-0.0,-0.0,-1.0,0.02385758090197,2.0
11.672253608703612,8.714523315429688,-0.4975038766860962,0.2140058586654621,-0.0029430355654773,-0.976827943395621,0.0428214042911135,3.0
11.82174301147461,8.300450325012207,-0.4786561727523803,-0.0,-0.0,-1.0,0.0296100118545314,2.0
11.524917602539062,9.198423385620115,-0.5205765962600708,-0.0,-0.0,-1.0,0.0461009605126597,2.0
11.9879150390625,8.703890800476074,-0.4362596273422241,0.0114638696452588,-0.6960453498013697,-0.717906296610251,0.1774795061977971,4.0
12.041914939880373,8.607010841369629,-0.427998423576355,0.0362552480706856,-0.8072232994284384,-0.5891316506921003,0.2051262440486535,7.0
12.480682373046877,10.234881401062012,-0.1288546323776245,0.5794361778475049,0.6992833460941044,-0.4186364982618066,0.1347832121347587,3.0
11.522640228271484,9.908029556274414,-0.5981980562210083,-0.0,-0.0,-1.0,0.0146543730585231,1.0
11.597917556762695,9.62935733795166,-0.5906380414962769,-0.0,-0.0,-1.0,0.0215332239515817,1.0
11.56418228149414,10.08785343170166,-0.5966717004776001,-0.5950116322537202,0.761804826450579,0.2561533991173384,0.0198792434403787,3.0
11.70917510986328,9.393882751464844,-0.5810223817825317,-0.0,-0.0,-1.0,0.0260467298597761,1.0
11.815616607666016,9.11228847503662,-0.5718200206756592,-0.0,-0.0,-1.0,0.0258374494074369,1.0
11.963184356689451,8.841790199279785,-0.5599490404129028,-0.0,-0.0,-1.0,0.0948968076605911,1.0
12.240327835083008,8.158531188964844,-0.5385075807571411,-0.0,-0.0,-1.0,0.0254183847069993,1.0
12.38951301574707,8.419013023376465,-0.5277165174484253,0.3319785251302335,0.0856401221021459,-0.9393913073574208,0.0371650529680438,4.0
12.526227951049805,10.120973587036133,-0.5268425941467285,-0.0,-0.0,-1.0,0.0999715714923881,1.0
11.081342697143556,10.347633361816406,-0.5152812004089355,-0.0,-0.0,-1.0,0.0200298725807605,1.0
11.146900177001951,10.012707710266112,-0.505939245223999,-0.0,-0.0,-1.0,0.0275986874823679,1.0
11.149200439453123,9.590438842773438,-0.5000178813934326,-0.0,-0.0,-1.0,0.0219194269863199,1.0
11.312633514404297,9.385486602783203,-0.4868975877761841,-0.0,-0.0,-1.0,0.0171314483513564,1.0
11.422021865844728,8.958087921142578,-0.4751349687576294,-0.0,-0.0,-1.0,0.0271620256101896,1.0
11.622831344604492,8.39024543762207,-0.4571113586425781,-0.1553897827515128,0.1693204591349503,-0.9732340918477772,0.1048187160850014,3.0
12.056825637817385,8.580731391906738,-0.4303200244903564,-0.4785251594378545,-0.7726980228252768,0.4170748581572429,0.1529092574140458,8.0
12.372602462768556,8.956937789916992,-0.5879838466644287,-0.7398305774778908,0.1972502377163215,-0.6432286221473558,0.0312962536614571,3.0
12.380029678344728,8.819751739501953,-0.5854692459106445,-0.0,-0.0,-1.0,0.0542962930701399,1.0
12.635372161865234,9.902207374572754,-0.5857192277908325,0.1486868762757019,0.5306012600741027,-0.8344785890789219,0.0430561520193747,4.0
12.476511001586914,9.482053756713867,-0.5891320705413818,-0.0,-0.0,-1.0,0.020384218311647,1.0
12.589481353759766,9.152471542358398,-0.5757339000701904,-0.0,-0.0,-1.0,0.0371253916395149,1.0
12.515233993530272,8.716014862060547,-0.5744860172271729,-0.0,-0.0,-1.0,0.0598776128387694,2.0
10.261823654174805,10.05826187133789,-0.4283851385116577,-0.9019930003543845,0.4317470295428703,0.0017691219865893,0.0509288780477744,5.0
10.509675979614258,9.651285171508787,-0.3998206853866577,-0.0,-0.0,-1.0,0.0412339808745172,1.0
10.566211700439451,9.470441818237305,-0.3898851871490478,-0.0,-0.0,-1.0,0.0588579956081948,1.0
10.486732482910156,8.872417449951172,-0.3709067106246948,-0.0,-0.0,-1.0,0.046490333681051,1.0
10.41220474243164,8.473138809204102,-0.3598719835281372,-0.0,-0.0,-1.0,0.0693985182857776,2.0
10.654268264770508,9.243670463562012,-0.3766895532608032,-0.0,-0.0,-1.0,0.0484088851354618,1.0
12.51728630065918,10.363277435302734,-0.331424355506897,0.516585771827028,-0.3749670294729175,-0.769765462432636,0.2032810109994434,4.0
12.68452262878418,10.461259841918944,-0.3276448249816894,0.0103923298370406,0.9836221913342508,0.179942724763645,0.1623514787255721,3.0
10.718198776245115,10.570561408996582,-0.5363224744796753,-0.0,-0.0,-1.0,0.0417482392482243,1.0
10.661920547485352,10.197113990783691,-0.5288547277450562,-0.0,-0.0,-1.0,0.0228136231617404,1.0
10.828084945678713,9.74065399169922,-0.5075697898864746,-0.5103091855557207,-0.069162820603001,-0.8572053659326302,0.0610225030800505,4.0
10.920482635498049,9.48032283782959,-0.495724081993103,-0.0,-0.0,-1.0,0.0378612848357808,2.0
11.032316207885742,9.215752601623535,-0.4828650951385498,-0.0,-0.0,-1.0,0.0269156010637111,2.0
11.231084823608398,8.649818420410156,-0.4579751491546631,0.2031656118992294,0.5621433873867419,-0.8016972908517097,0.0272578298508836,3.0
12.432334899902344,10.220344543457031,-0.435630202293396,0.0522310258412658,0.9590143862455486,0.2785019334109601,0.1529211636365481,4.0
11.306432723999023,8.40682601928711,-0.4480372667312622,0.288133754240728,0.4867939007911637,-0.8246275752239111,0.0305674204776829,4.0
11.325822830200195,8.238967895507812,-0.4430397748947143,-0.0,-0.0,-1.0,0.0534169976048921,2.0
12.08456802368164,8.499346733093262,-0.4076570272445678,0.820010361846476,-0.2492548595126655,-0.5152232734201095,0.2221709685218509,4.0
10.210088729858398,10.619674682617188,-0.4188921451568603,-0.0,-0.0,-1.0,0.0389577147776522,1.0
10.265007019042969,10.022754669189451,-0.398714542388916,-0.0,-0.0,-1.0,0.0553050165771324,2.0
10.55086898803711,9.55143928527832,-0.3717997074127197,-0.0,-0.0,-1.0,0.0608721707803497,1.0
10.618829727172852,9.181884765625,-0.3583683967590332,-0.0,-0.0,-1.0,0.0622624606184224,1.0
10.522466659545898,8.950498580932617,-0.3568155765533447,-0.0,-0.0,-1.0,0.0552133958252869,2.0
10.486412048339844,8.577896118164062,-0.3488794565200805,-0.3325863430511595,-0.8112876321758409,-0.480831261769006,0.0269203062028702,3.0
12.649877548217772,10.432161331176758,-0.300832986831665,-0.2526199602223965,0.8204561350411089,-0.5128692681089797,0.0996757657317972,5.0
12.441730499267578,10.385799407958984,-0.0955790281295776,-0.2316101586972879,-0.7235969569404269,-0.6502031823167056,0.1466036543641031,3.0
12.407567977905272,10.217100143432615,-0.0517677068710327,-0.0,-0.0,-1.0,0.1229724391781928,1.0
12.51301383972168,10.505342483520508,-0.3817558288574219,-0.0,-0.0,-1.0,0.1572650717887743,1.0
10.42552375793457,10.23137664794922,-0.5313647985458374,-0.0,-0.0,-1.0,0.0135223202134254,1.0
10.401239395141602,10.418024063110352,-0.5325958728790283,-0.0,-0.0,-1.0,0.0325163510876196,2.0
10.743549346923828,9.833828926086426,-0.5096601247787476,0.7628442173104261,-0.3282398153892728,-0.5570703040992756,0.0468984887514935,3.0
10.562856674194336,10.04322338104248,-0.5220332145690918,-0.0,-0.0,-1.0,0.0193806629760364,2.0
10.848432540893556,9.559843063354492,-0.5030086040496826,-0.0,-0.0,-1.0,0.0458193668949628,1.0
12.048921585083008,8.830245018005371,-0.4187769889831543,-0.0,-0.0,-1.0,0.1444541932699387,1.0
10.966470718383787,9.05714511871338,-0.49639892578125,-0.0,-0.0,-1.0,0.0305914188410091,1.0
11.371471405029297,8.531893730163574,-0.4692472219467163,-0.0,-0.0,-1.0,0.0264590608583473,1.0
11.324016571044922,8.662209510803223,-0.4721055030822754,-0.0,-0.0,-1.0,0.0326971527373622,2.0
12.305110931396484,10.33902645111084,-0.5675599575042725,-0.0,-0.0,-1.0,0.0992247479208491,1.0
12.060558319091797,10.203899383544922,-0.5877227783203125,-0.0,-0.0,-1.0,0.0397957127290814,1.0
12.007728576660156,9.959983825683594,-0.593144416809082,-0.0,-0.0,-1.0,0.0132197604114202,1.0
