x,y,z,nx,ny,nz,curvature,density
14.177125930786133,16.361087799072266,-0.2266411781311035,-0.5145339319418645,0.2835546606234111,-0.8092290079570721,0.132716126465648,3.0
14.473572731018066,15.6962251663208,-1.0374228954315186,-0.0,-0.0,-1.0,0.0650956506644212,2.0
14.052796363830566,17.62472915649414,-0.7724003791809082,-0.0,-0.0,-1.0,0.0370472199204502,2.0
14.903834342956545,17.589092254638672,-0.9099977016448976,-0.0,-0.0,-1.0,0.0232366065046065,2.0
14.027998924255373,17.403854370117188,-0.7761244773864746,0.7724983723348977,-0.4063321075366149,-0.4879963966309454,0.0495076742368883,3.0
14.909358024597168,17.252939224243164,-0.9038925170898438,-0.0,-0.0,-1.0,0.0450003048398913,2.0
14.891837120056152,16.853967666625977,-0.9069085121154784,-0.7461207821621044,0.2008358211645732,-0.6347981973532698,0.0730624204848526,4.0
14.816792488098145,16.636524200439453,-0.9271848201751708,0.4840060935718174,-0.0813237957200026,-0.8712775342191722,0.0498629450389865,3.0
14.141959190368652,16.402273178100586,-0.7577781677246094,-0.0,-0.0,-1.0,0.1944296569699347,2.0
14.85576057434082,16.5736083984375,-0.917922019958496,-0.0,-0.0,-1.0,0.0404689058941559,1.0
14.735194206237791,16.3389949798584,-0.9524803161621094,-0.8387635010313335,0.0127723094664948,-0.5443460824223427,0.0169374600827964,3.0
14.094649314880373,16.236957550048828,-0.7715427875518799,0.4377185061332074,-0.8141223493146038,-0.3815852588019923,0.1503184509447925,3.0
14.69605541229248,16.017789840698242,-0.9699199199676514,-0.0,-0.0,-1.0,0.0281824013665487,1.0
14.545110702514648,15.791015625,-1.015763759613037,-0.0,-0.0,-1.0,0.0501951026927897,1.0
14.147506713867188,16.47625732421875,-0.4160163402557373,-0.0,-0.0,-1.0,0.0997938961964429,1.0
14.130311965942385,16.217967987060547,-0.4245283603668213,0.8373013331999446,0.4884969529980825,0.2455548906725035,0.1208902449499651,6.0
14.205418586730955,16.563720703125,-0.070949912071228,0.7069648425883522,0.3034122269421448,-0.6388597122107753,0.1442368120291509,6.0
14.165729522705078,16.30917739868164,-0.0818774700164794,0.6997197205163455,-0.2907498285170348,-0.6525770835218184,0.1593954847186593,4.0
14.226278305053713,16.433225631713867,-0.460452675819397,-0.0,-0.0,-1.0,0.173501894342601,2.0
14.18128776550293,16.206298828125,-0.4712295532226562,0.7634587747723787,-0.0227082568051572,-0.6454572288664289,0.2091026966170151,9.0
14.25316047668457,16.51232147216797,-0.1534024477005005,-0.0,-0.0,-1.0,0.1647930484820705,1.0
14.191217422485352,16.258256912231445,-0.1659799814224243,0.7605741576939823,-0.6344097252732984,-0.1380262696980108,0.1983828477767864,4.0
14.22469711303711,16.380281448364258,-0.4591634273529053,0.6932474321318424,0.7128992405785884,0.1057481471472632,0.2161243947752116,3.0
14.21047019958496,16.163360595703125,-0.4626752138137817,0.970431399475223,-0.0004756003804415,0.2413766200708722,0.1563317410524018,4.0
14.202186584472656,16.13766098022461,-0.4646954536437988,0.970431399475223,-0.0004756003804415,0.2413766200708722,0.1434424847224013,4.0
14.21926498413086,16.343074798583984,-0.1776819229125976,-0.0,-0.0,-1.0,0.1773169819710137,1.0
14.209590911865234,16.47621726989746,-0.1177637577056884,-0.0,-0.0,-1.0,0.1150552409964945,1.0
14.197092056274414,16.2398738861084,0.0236881971359252,-0.0,-0.0,-1.0,0.2142021702386049,2.0
14.1051664352417,16.13900375366211,-0.2557892799377441,-0.0,-0.0,-1.0,0.1005085692277791,1.0
14.168079376220703,16.351884841918945,-0.2996448278427124,0.3247634553062828,0.9387305643947672,-0.1153846851562466,0.1112623291860353,3.0
14.143956184387209,16.165830612182617,-0.151619553565979,-0.0,-0.0,-1.0,0.1483367735694072,1.0
14.14559841156006,16.43603515625,-0.0386971235275268,-0.0,-0.0,-1.0,0.1186443847039975,1.0
14.119939804077148,16.183189392089844,-0.0103311538696289,-0.0,-0.0,-1.0,0.0921858827137425,1.0
14.21050262451172,17.341991424560547,-0.7645479440689087,-0.0,-0.0,-1.0,0.0545911172937957,1.0
14.054616928100586,17.283010482788086,-0.7597306966781616,0.775139086475635,-0.5563437152716766,-0.2994011808517558,0.06257646863922,4.0
14.43317985534668,17.48866081237793,-0.7903174161911011,-0.0,-0.0,-1.0,0.0171435976581854,1.0
14.200389862060549,16.533935546875,-0.2628922462463379,-0.0,-0.0,-1.0,0.0959385105270971,1.0
14.186298370361328,16.22553062438965,-0.331405758857727,0.8908410258768689,0.1223361604311765,0.4375341477708974,0.1253887011437754,6.0
14.199554443359377,16.406824111938477,-0.4732738733291626,0.4604641967402779,-0.0353506691707386,-0.8869740997963308,0.2025976088602028,3.0
14.167720794677734,16.203548431396484,-0.2996385097503662,-0.2378709046707242,-0.7280665258971993,-0.642912565267715,0.1542722412488881,3.0
14.209774017333984,16.15913200378418,-0.5012049674987793,0.970431399475223,-0.0004756003804415,0.2413766200708722,0.2303093730688216,4.0
14.04483413696289,17.26677131652832,-0.7616837024688721,0.8003846350118501,-0.4322054838308549,-0.4154309278128963,0.0617853235303465,3.0
14.071596145629885,17.05196762084961,-0.7489206790924072,-0.0,-0.0,-1.0,0.1021682410660522,1.0
14.18328857421875,17.459766387939453,-0.7637615203857422,-0.0,-0.0,-1.0,0.042253192968018,2.0
14.201576232910156,16.083425521850586,-0.9233909845352172,-0.0,-0.0,-1.0,0.1245168328521808,2.0
14.499732971191406,16.143938064575195,-0.9059497117996216,-0.0,-0.0,-1.0,0.0385659482913381,1.0
14.961688995361328,16.318208694458008,-0.8831073045730591,-0.0,-0.0,-1.0,0.0277488922252046,1.0
15.049356460571287,16.375629425048828,-0.8800352811813354,-0.0,-0.0,-1.0,0.0374381097177917,1.0
14.996955871582031,16.14744758605957,-0.8724998235702515,-0.0,-0.0,-1.0,0.0264710837278037,1.0
15.41741943359375,16.843231201171875,-0.8791109323501587,-0.0,-0.0,-1.0,0.0272529002331138,1.0
15.204919815063477,16.448331832885742,-0.8732374906539917,-0.0,-0.0,-1.0,0.0461687900667655,1.0
15.602678298950195,17.305578231811523,-0.8912934064865112,-0.0,-0.0,-1.0,0.0131253829164422,1.0
15.56427001953125,17.02420997619629,-0.8789070844650269,-0.0,-0.0,-1.0,0.0253157094128861,1.0
15.543872833251951,16.575847625732422,-0.8571549654006958,-0.0,-0.0,-1.0,0.0554438006176822,2.0
14.162567138671877,16.22527503967285,-0.1699540615081787,0.6208046022809772,-0.7796550076608468,0.0820957661278734,0.1945301627072105,4.0
14.22205924987793,16.14986228942871,-0.5571593046188354,0.3194097077044398,-0.2308781704783114,-0.9190607754771998,0.2086042958014091,5.0
14.375696182250977,15.870112419128418,-0.9776368141174316,-0.4646886645800804,0.101364012871076,-0.8796532168448278,0.0874574777779179,3.0
14.837636947631836,15.70136547088623,-0.941659927368164,-0.0,-0.0,-1.0,0.0365243870689614,1.0
15.187606811523438,15.941174507141112,-0.9371871948242188,-0.0,-0.0,-1.0,0.032518350064996,1.0
15.064538955688477,15.79292106628418,-0.9347212314605712,-0.0,-0.0,-1.0,0.0353812041763454,1.0
15.506977081298828,16.13854217529297,-0.932302713394165,-0.0,-0.0,-1.0,0.0884750175296276,1.0
15.58848762512207,16.32944107055664,-1.0172998905181885,-0.0,-0.0,-1.0,0.0487430910721634,2.0
15.405912399291992,16.07560157775879,-1.0128192901611328,-0.0,-0.0,-1.0,0.0327847434240273,2.0
15.416131973266602,15.672945022583008,-0.9889488220214844,-0.0,-0.0,-1.0,0.0448731272607217,2.0
15.565454483032228,17.350051879882812,-0.945159077644348,-0.0,-0.0,-1.0,0.0171830825408917,2.0
15.504308700561523,17.08219337463379,-0.9320682287216188,-0.0,-0.0,-1.0,0.0244810829772042,1.0
15.393121719360352,16.811838150024414,-0.9213253259658812,-0.0,-0.0,-1.0,0.0225990314772842,1.0
14.809600830078123,16.366539001464844,-0.9236170053482056,-0.0,-0.0,-1.0,0.0212173066581401,2.0
14.556940078735352,16.30431365966797,-0.9324747323989868,-0.0,-0.0,-1.0,0.0312613045924971,1.0
14.212251663208008,16.107812881469727,-0.9385138750076294,0.6470952532070195,-0.5858302787868348,-0.4879248074585702,0.1540717452992918,3.0
15.581605911254885,16.921855926513672,-0.9189060926437378,-0.0,-0.0,-1.0,0.0255034029826625,2.0
15.487344741821287,16.46213722229004,-0.8963814973831177,0.2261488341584382,-0.7940513264941481,0.5642155578337618,0.0627894403139602,3.0
15.043487548828123,16.43689727783203,-0.9162873029708862,-0.0,-0.0,-1.0,0.0300011621606689,1.0
14.04664421081543,16.14822006225586,-1.0189858675003052,-0.6467452122695677,0.6018302338875675,-0.4685306820105042,0.1456134719633057,3.0
15.670188903808594,16.270193099975586,-0.9649499654769896,-0.0,-0.0,-1.0,0.1310764817790666,2.0
15.213682174682615,16.10010528564453,-0.9694887399673462,-0.0,-0.0,-1.0,0.0249459059056761,1.0
14.325227737426758,16.103994369506836,-1.004604697227478,-0.0,-0.0,-1.0,0.104194612473577,2.0
15.040380477905272,15.914119720458984,-0.9625533819198608,-0.0,-0.0,-1.0,0.0377659195781231,1.0
14.805402755737305,15.865507125854492,-0.9682718515396118,-0.0,-0.0,-1.0,0.0489633520650691,2.0
14.24649429321289,16.70201301574707,-0.0058687925338745,0.3111262777975247,-0.3403807232403436,-0.8873226034032036,0.1939529878806117,3.0
14.361703872680664,16.351940155029297,-0.438464879989624,-0.0,-0.0,-1.0,0.0941785246418615,1.0
14.23788833618164,16.564895629882812,-0.524844765663147,-0.0,-0.0,-1.0,0.1052997956941551,1.0
14.250837326049805,16.26726531982422,-0.5137821435928345,-0.0,-0.0,-1.0,0.1641015978409868,2.0
13.790306091308594,17.081260681152344,-0.8902608156204224,-0.0159470100623915,-0.0072031639227685,-0.9998468919287452,0.1144920064607411,4.0
14.201702117919922,16.822420120239258,-0.877027153968811,-0.0,-0.0,-1.0,0.0897499988841272,1.0
14.63070297241211,16.844316482543945,-0.9064704179763794,-0.1829795923184551,0.4159537987884877,-0.8907866782055051,0.0294054510001143,3.0
14.337430953979492,16.815921783447266,-0.8843156099319458,-0.0,-0.0,-1.0,0.0788515694462647,2.0
14.203554153442385,16.346654891967773,-0.8071776628494263,-0.0,-0.0,-1.0,0.1651969456116267,1.0
15.679693222045898,16.934890747070312,-0.9855574369430542,-0.0,-0.0,-1.0,0.1501444167355268,1.0
15.016586303710938,16.832178115844727,-0.92851459980011,-0.0,-0.0,-1.0,0.0402836350297241,2.0
14.216217041015623,16.1763858795166,-0.7829653024673462,-0.4629718668567687,-0.4553120981630058,0.760491909073042,0.1668365864462069,4.0
15.675477981567385,16.542797088623047,-0.9266747236251832,-0.0,-0.0,-1.0,0.072961859451363,1.0
15.619373321533203,16.456024169921875,-0.9102011919021606,-0.8732700970504021,-0.484917104100809,-0.0474840999500465,0.1034538128628286,3.0
14.96860122680664,17.4288387298584,-0.8178186416625977,-0.0,-0.0,-1.0,0.0726973349143944,2.0
14.968072891235352,17.100019454956055,-0.8136019706726074,-0.0,-0.0,-1.0,0.0632889915968537,1.0
14.877683639526367,16.806982040405273,-0.8190820217132568,-0.0,-0.0,-1.0,0.0652180234165493,2.0
14.32197380065918,16.534799575805664,-0.8728189468383789,-0.0,-0.0,-1.0,0.1164156109913515,2.0
14.733919143676758,16.664234161376953,-0.8320193290710449,-0.0,-0.0,-1.0,0.0687114978005392,1.0
14.465618133544922,16.46355438232422,-0.8572299480438232,-0.0,-0.0,-1.0,0.0933921823403536,2.0
14.256170272827148,16.13768768310547,-0.8753082752227783,-0.0,-0.0,-1.0,0.165962118383408,2.0
14.567636489868164,16.514286041259766,-0.9932190179824828,-0.0,-0.0,-1.0,0.0755494007924258,1.0
14.38216781616211,16.356475830078125,-0.9599987268447876,0.0689250381857361,-0.7383866092164331,-0.6708461481151643,0.0446746746878665,3.0
15.552248001098633,16.321563720703125,-1.0226260423660278,0.1927552165563348,-0.972935678158866,0.1274425072566768,0.0484391348294152,3.0
15.186349868774414,16.231857299804688,-0.9878028631210328,-0.0,-0.0,-1.0,0.0308054938475353,2.0
15.627023696899414,17.053150177001953,-1.2239078283309937,-0.0,-0.0,-1.0,0.2121965175068484,2.0
15.121465682983398,17.26752281188965,-1.2383850812911987,-0.0,-0.0,-1.0,0.2108214209123505,1.0
14.913755416870115,17.130615234375,-1.2187162637710571,-0.0,-0.0,-1.0,0.2180817259137931,1.0
15.122077941894531,17.51647186279297,-0.6766527891159058,-0.0,-0.0,-1.0,0.0795368557869821,1.0
14.17229461669922,16.22784423828125,-0.392840027809143,0.7431825865596073,-0.4755483304933297,-0.4706733776193196,0.1462724003222068,10.0
15.006473541259766,17.24230194091797,-0.8461242914199829,-0.0,-0.0,-1.0,0.0372206219341994,1.0
15.029498100280762,17.540746688842773,-0.860019326210022,-0.0,-0.0,-1.0,0.0817454291815425,2.0
14.891860961914062,16.972978591918945,-0.8399602174758911,-0.0,-0.0,-1.0,0.0689076926904232,1.0
14.599261283874512,16.768056869506836,-0.8492299318313599,-0.0,-0.0,-1.0,0.0629304307540309,1.0
14.311532974243164,16.565088272094727,-0.8585258722305298,-0.0,-0.0,-1.0,0.1436065080254343,2.0
14.159110069274902,16.666059494018555,-0.8740295171737671,-0.0,-0.0,-1.0,0.1368739272631545,2.0
14.173065185546877,16.183801651000977,-0.8488482236862183,-0.1310134264601601,-0.1366289970169207,-0.9819205666760008,0.1601477898984736,4.0
14.272114753723145,16.48952865600586,0.0613784790039062,-0.0,-0.0,-1.0,0.0887411367010246,1.0
14.18392848968506,16.16132354736328,-0.5662692785263062,0.1612222590637127,-0.4862714390147479,-0.85880583997835,0.1631935521491906,4.0
15.551495552062988,16.218509674072266,-0.9785106182098388,-0.0,-0.0,-1.0,0.1066804236337736,2.0
15.26196575164795,16.138565063476562,-0.9602270126342772,-0.0,-0.0,-1.0,0.0200677403847226,1.0
14.788467407226562,16.19646644592285,-0.9553158283233644,-0.0,-0.0,-1.0,0.0160386514373427,1.0
14.43270778656006,16.350791931152344,-0.9662430286407472,-0.0,-0.0,-1.0,0.0457063787769189,2.0
14.306941032409668,16.162212371826172,-0.9385206699371338,0.3111276444727651,0.4003921116865981,-0.8619082002997626,0.0855558164112201,4.0
14.257421493530272,16.378307342529297,-0.1258084774017334,-0.0,-0.0,-1.0,0.094950365845903,1.0
14.461929321289062,16.139318466186523,-0.9797847270965576,-0.0,-0.0,-1.0,0.050448719518681,1.0
15.370687484741213,15.993228912353516,-0.9860236644744872,-0.0,-0.0,-1.0,0.0427852729821562,1.0
15.176102638244627,15.872692108154297,-0.9635460376739502,-0.0,-0.0,-1.0,0.0549964969229011,1.0
14.94830322265625,15.92909812927246,-0.9647080898284912,-0.0,-0.0,-1.0,0.0479655232870024,1.0
14.628969192504885,16.105886459350586,-0.9798908233642578,-0.0,-0.0,-1.0,0.0292144319825435,2.0
15.406014442443848,17.47228240966797,-0.9891527891159058,-0.0,-0.0,-1.0,0.0157396722874315,1.0
15.28098201751709,17.006818771362305,-0.9584606885910034,-0.0,-0.0,-1.0,0.0210226491882457,1.0
15.467367172241213,17.226118087768555,-0.9651294946670532,-0.0,-0.0,-1.0,0.0184249228316518,1.0
14.983637809753418,16.741683959960938,-0.955095648765564,-0.0,-0.0,-1.0,0.0423079775872165,1.0
14.636592864990234,16.61769676208496,-0.9666258096694946,-0.0,-0.0,-1.0,0.0925806214480633,1.0
14.281245231628418,16.220462799072266,-0.9569939374923706,0.7132322170517302,-0.5868887163096931,-0.3832250503657533,0.1505558353842714,5.0
14.315064430236816,16.578256607055664,-0.9836682081222534,-0.0,-0.0,-1.0,0.1037020008750689,1.0
14.167848587036133,16.31610679626465,-0.1754505634307861,-0.0,-0.0,-1.0,0.192002039028161,2.0
14.167710304260254,16.211044311523438,-0.4505276679992676,0.7498073829420121,-0.2575883822309898,0.6094564084700991,0.1200130059663097,6.0
14.877723693847656,17.0932674407959,-0.867174506187439,-0.0,-0.0,-1.0,0.0569260036649098,1.0
14.917327880859377,17.415334701538086,-0.8881293535232544,-0.0,-0.0,-1.0,0.0237636356602101,1.0
14.654253005981444,16.9080753326416,-0.8696430921554565,-0.0,-0.0,-1.0,0.0328390478551279,2.0
14.322128295898438,16.689706802368164,-0.8777989149093628,0.6164691513542866,-0.3860369865899452,-0.6862515795341241,0.1216771433823328,4.0
14.340548515319824,16.75808334350586,-0.8814407587051392,0.7712011416860146,-0.1440309552493218,-0.6200837709472449,0.1023320344073243,3.0
14.127906799316406,16.172725677490234,-0.8547254800796509,-0.0,-0.0,-1.0,0.2222209182805133,2.0
14.15617847442627,16.421104431152344,-0.870514988899231,-0.0978481626532928,-0.9362825493446756,-0.33734363023186,0.202452318981931,3.0
14.167649269104004,16.577959060668945,-0.1513208150863647,-0.0,-0.0,-1.0,0.0879756168210619,2.0
14.12206745147705,16.289518356323242,-0.1407442092895507,0.415061920132661,0.8732428282658508,0.2552852626730467,0.1956826784484945,7.0
14.128846168518066,16.213186264038086,-0.6133812665939331,0.2908197652778186,-0.8971294599109221,-0.3325396161116621,0.1901571101262598,9.0
14.181002616882324,16.342626571655273,0.0695620775222778,0.1840059086442753,0.8077542466930808,-0.5600668732689773,0.2777734820109243,5.0
14.211549758911133,16.686304092407227,0.0598196983337402,0.099730185155811,0.4632541510985937,-0.88059609450571,0.2079220433546754,3.0
14.140844345092772,16.207801818847656,-0.6265299320220947,0.2291452194964637,-0.9510523004804556,0.2073450991288454,0.181659530663648,7.0
14.191844940185549,16.332168579101562,0.0228008031845092,-0.1927614929678425,0.964993341821519,-0.1778506594560316,0.2777734820109242,7.0
14.198355674743652,16.610200881958008,0.0138435363769531,-0.0,-0.0,-1.0,0.1789343565087401,2.0
15.091179847717283,17.1570987701416,-0.8822782039642334,-0.0,-0.0,-1.0,0.0376929611641041,2.0
15.164522171020508,17.6115665435791,-0.9141387939453124,-0.0,-0.0,-1.0,0.067844422424114,2.0
14.83857536315918,16.83807945251465,-0.8781681060791016,-0.0,-0.0,-1.0,0.0546394509867828,1.0
14.98545265197754,16.9950008392334,-0.8780667781829834,-0.0,-0.0,-1.0,0.0723016572123229,2.0
14.511269569396973,16.652936935424805,-0.8924710750579834,-0.0,-0.0,-1.0,0.092454740359034,1.0
14.173086166381836,16.249887466430664,-0.8910889625549316,-0.0,-0.0,-1.0,0.210300364105607,1.0
14.21070671081543,16.568815231323242,-0.913055181503296,-0.0,-0.0,-1.0,0.1945528485423492,2.0
14.20118236541748,16.485713958740234,-0.2825901508331299,-0.0,-0.0,-1.0,0.0855872644973947,2.0
15.696739196777344,16.166139602661133,-0.854888916015625,-0.0,-0.0,-1.0,0.1025883451416408,1.0
15.471095085144045,15.973773956298828,-0.8780512809753418,-0.0,-0.0,-1.0,0.0472211979843484,1.0
14.151058197021484,16.1949520111084,-0.4954373836517334,0.6978737861878739,-0.2913884902186331,-0.654266708858022,0.1092038739625521,7.0
14.170034408569336,16.28485679626465,0.0936696529388427,-0.0,-0.0,-1.0,0.2448525907605975,1.0
14.1987886428833,16.502174377441406,0.0973944664001464,-0.0,-0.0,-1.0,0.0853994686319436,1.0
15.601364135742188,16.48856544494629,-0.9113160371780396,-0.8732700970504021,-0.484917104100809,-0.0474840999500465,0.0646895249401656,3.0
15.604155540466309,16.798965454101562,-0.9400988817214966,-0.0,-0.0,-1.0,0.0214535975824595,2.0
15.697221755981444,17.059558868408203,-0.953992247581482,-0.0,-0.0,-1.0,0.0760407033082861,2.0
15.279553413391112,16.331804275512695,-0.9347292184829712,-0.0,-0.0,-1.0,0.0538048594375587,2.0
14.88365650177002,15.95097541809082,-0.9474648237228394,-0.5434221701097471,-0.1679144112739247,-0.8224944349475831,0.029312181477622,5.0
15.035036087036133,16.09190559387207,-0.9419597387313844,-0.0,-0.0,-1.0,0.0203264302480358,2.0
14.69711685180664,15.9041748046875,-0.9658700227737428,-0.0,-0.0,-1.0,0.0339198158282338,1.0
14.459898948669434,15.941118240356444,-0.9980040788650512,-0.0,-0.0,-1.0,0.0611663656416705,1.0
14.121271133422852,15.994565963745115,-1.0441228151321411,-0.0,-0.0,-1.0,0.1635912280500211,1.0
13.731937408447266,16.04354476928711,-1.0963155031204224,-0.0,-0.0,-1.0,0.2745985987503951,1.0
14.148567199707031,16.18534278869629,-0.4997156858444214,0.6978737861878739,-0.2913884902186331,-0.654266708858022,0.105990764695233,7.0
14.243332862854004,16.622913360595703,0.0424824953079223,0.1187749319911753,0.1165369340054404,-0.9860586486325766,0.2079220433546755,3.0
14.214866638183594,16.34372901916504,0.0518888235092163,-0.3366373541737873,0.927519198213031,-0.1624297655022882,0.2426681289507033,5.0
15.291563987731934,16.303194046020508,-0.9400554895401,0.5593809728225347,0.3726683313294722,-0.7404128862116202,0.0550412859218779,3.0
15.448991775512695,16.387786865234375,-0.9383951425552368,-0.0,-0.0,-1.0,0.0827320432106835,2.0
15.063737869262695,16.144594192504883,-0.9379864931106568,-0.0,-0.0,-1.0,0.033640078538745,1.0
15.20311450958252,16.32028579711914,-0.9501601457595824,-0.0,-0.0,-1.0,0.0458819538613315,2.0
14.70028018951416,16.073333740234375,-0.960663676261902,-0.0,-0.0,-1.0,0.0296890200993844,2.0
14.273821830749512,16.14540672302246,-1.0093024969100952,-0.0,-0.0,-1.0,0.1860966595829599,1.0
13.78041648864746,16.258716583251953,-1.0700808763504028,-0.0,-0.0,-1.0,0.0840873002266485,2.0
14.15678596496582,16.210723876953125,-0.5009646415710449,0.4490029811991511,0.02462755745082,-0.8931908006066125,0.1415378059396415,10.0
14.251327514648438,16.474239349365234,0.0026863813400268,-0.0,-0.0,-1.0,0.1090912869904768,1.0
15.5078706741333,15.75225830078125,-0.9971586465835572,-0.0,-0.0,-1.0,0.0600566953104,2.0
15.675105094909668,15.945877075195312,-1.0087956190109253,-0.0,-0.0,-1.0,0.0429471401402769,1.0
14.524045944213867,17.436429977416992,-0.8363078832626343,-0.0,-0.0,-1.0,0.0231331854485483,1.0
14.6983060836792,17.618167877197266,-0.8468397855758667,-0.0,-0.0,-1.0,0.0306490648362567,1.0
14.145950317382812,16.25067138671875,-0.7152284383773804,0.9296440237702008,0.2280222079481947,0.2894267813295451,0.2041439548749825,5.0
14.17138671875,16.419363021850586,-0.7342201471328735,-0.1579633011486602,-0.7826745754591954,0.6020532405194627,0.2164536564363491,4.0
14.20513153076172,16.996559143066406,-0.8043931722640991,-0.0,-0.0,-1.0,0.0524780800700161,2.0
14.32016944885254,17.279476165771484,-0.8316527605056763,-0.0,-0.0,-1.0,0.036518897062645,1.0
13.746752738952637,17.061363220214844,-0.8486443758010864,-0.0,-0.0,-1.0,0.0657978870540945,1.0
14.156436920166016,16.246959686279297,-0.2174544334411621,0.5307173795486521,0.0778063714230377,-0.8439699234042599,0.1985920308747439,3.0
15.551583290100098,15.952888488769531,-1.0053997039794922,-0.0,-0.0,-1.0,0.0428318774019142,1.0
15.305462837219238,15.771846771240234,-1.0104482173919678,-0.0,-0.0,-1.0,0.0428266246957953,1.0
14.726032257080078,17.545732498168945,-0.860593318939209,-0.0,-0.0,-1.0,0.0299865925825529,1.0
14.17380428314209,16.329925537109375,-0.7614588737487793,0.9242504174893212,-0.2730365711619319,-0.2668561346099251,0.1821079155991055,3.0
14.256032943725586,16.88799285888672,-0.8219621181488037,0.7519964966486806,-0.5625871338771385,0.3435068934155725,0.0566496709498958,3.0
14.391437530517578,17.11449432373047,-0.8372373580932617,0.0553980409114224,-0.9003350823765411,-0.4316570357415756,0.0120682502515427,3.0
14.518638610839844,17.3470458984375,-0.8545358180999756,-0.0,-0.0,-1.0,0.030320451475597,2.0
14.13042449951172,16.169565200805664,-0.7464978694915771,-0.0,-0.0,-1.0,0.1597562454466056,2.0
13.958979606628418,16.872188568115234,-0.8497183322906494,-0.0,-0.0,-1.0,0.0926021245903424,1.0
14.130315780639648,16.25425148010254,-0.2852040529251098,0.0228541648967899,0.3872137044900556,-0.9217066964072456,0.2116624722759702,3.0
15.397966384887695,16.107454299926758,-0.9812413454055786,-0.7814977066889498,-0.0628068249761074,-0.6207387833673139,0.0324050250723553,4.0
15.09699535369873,15.745335578918455,-0.9783052206039428,-0.0,-0.0,-1.0,0.0593714139575444,2.0
14.581426620483398,17.56498908996582,-0.8323172330856323,-0.0,-0.0,-1.0,0.0196710309000949,1.0
14.225912094116213,17.10214614868164,-0.8183926343917847,-0.0,-0.0,-1.0,0.0368157711061879,2.0
14.401168823242188,17.383785247802734,-0.831192135810852,-0.0,-0.0,-1.0,0.0542307730301287,2.0
13.83718967437744,16.96034812927246,-0.847511887550354,-0.0,-0.0,-1.0,0.082086386871846,2.0
14.17144775390625,16.294692993164062,-0.7335721254348755,0.984978353589013,0.0617556466495107,0.1612571953990837,0.1875912299374972,3.0
14.243582725524902,16.985929489135742,-0.8028775453567505,-0.0,-0.0,-1.0,0.0479358250839758,2.0
14.14516830444336,16.258516311645508,-0.2830440998077392,-0.0,-0.0,-1.0,0.1793313663981773,2.0
14.172874450683594,16.498435974121094,-0.3026312589645386,-0.0,-0.0,-1.0,0.0687041660396767,2.0
15.355544090270996,17.04869842529297,-0.9100353717803956,-0.0,-0.0,-1.0,0.0354001983613698,1.0
15.471121788024902,17.432147979736328,-0.9355947971343994,-0.0,-0.0,-1.0,0.0178428143034853,1.0
14.833104133605955,16.4337158203125,-0.9246923923492432,-0.0,-0.0,-1.0,0.0343664147416412,2.0
15.069271087646484,16.653820037841797,-0.9111638069152832,-0.7975943373081623,-0.4562894317341689,-0.3945164477961126,0.0319904944690795,3.0
15.20166301727295,16.882282257080078,-0.9151971340179444,-0.0,-0.0,-1.0,0.021644550021459,2.0
14.660639762878418,16.27116584777832,-0.9351210594177246,-0.7724180615860868,-0.5320816933888004,-0.3467843850234596,0.0153192900467442,3.0
14.340928077697754,16.19921112060547,-0.9782092571258544,0.4791081396685754,0.4017375714498017,-0.7804244448945279,0.0795076650388857,3.0
15.235300064086914,16.569366455078125,-0.9009029865264891,-0.0,-0.0,-1.0,0.0363022797058331,2.0
15.26451301574707,16.852018356323242,-0.9189121723175048,-0.0,-0.0,-1.0,0.0215790061780837,1.0
15.405609130859377,17.19194793701172,-0.9226198196411132,-0.0,-0.0,-1.0,0.0178122685988353,1.0
15.449212074279783,17.496652603149414,-0.9418418407440186,-0.0,-0.0,-1.0,0.0150937213665665,2.0
14.862955093383787,16.06110382080078,-0.9297270774841307,-0.0,-0.0,-1.0,0.0229403805858474,2.0
15.027207374572754,16.389789581298828,-0.9246580600738524,-0.0,-0.0,-1.0,0.0366467967003135,1.0
13.90379810333252,16.91437530517578,-0.7322955131530762,-0.0,-0.0,-1.0,0.108191617636727,1.0
13.93892765045166,17.12815284729004,-0.7409433126449585,-0.0,-0.0,-1.0,0.1004393822835647,1.0
14.067747116088867,17.58307647705078,-0.7524130344390869,0.8370960986312868,0.4498462541946619,0.3113012515929079,0.0384001986592671,3.0
13.865777015686035,17.293058395385742,-0.7627391815185547,-0.0,-0.0,-1.0,0.0631830178178664,1.0
13.800854682922363,17.46784019470215,-0.7840828895568848,-0.0,-0.0,-1.0,0.04561768302103,2.0
15.70559310913086,16.192232131958008,-1.0317654609680176,-0.0,-0.0,-1.0,0.0848182998048991,1.0
15.575740814208984,15.967352867126465,-1.0496606826782229,-0.0,-0.0,-1.0,0.0350340409892717,1.0
14.76023292541504,17.04977798461914,-0.9020402431488036,-0.0,-0.0,-1.0,0.0259668886966576,1.0
14.826255798339844,17.47780418395996,-0.9117789268493652,-0.0,-0.0,-1.0,0.0195264848591506,1.0
14.440718650817873,16.628671646118164,-0.9441123008728028,-0.0,-0.0,-1.0,0.1191859027045121,2.0
14.620519638061523,16.815937042236328,-0.9176304340362548,-0.1829795923184551,0.4159537987884877,-0.8907866782055051,0.0388303256733128,3.0
14.305989265441896,16.245681762695312,-0.954038143157959,-0.209915037682054,-0.0189346694461977,-0.9775362679961832,0.0676089927622743,4.0
14.322471618652344,16.470949172973633,-0.9602835178375244,-0.0,-0.0,-1.0,0.0875935524990114,2.0
14.271641731262209,16.278860092163086,-0.562096118927002,-0.0,-0.0,-1.0,0.1132426546039635,1.0
14.303308486938477,16.405010223388672,-0.5609591007232666,-0.0,-0.0,-1.0,0.1179475683241897,1.0
14.366195678710938,16.649660110473633,-0.1625592708587646,-0.0,-0.0,-1.0,0.1130618023630342,1.0
14.303404808044434,16.388525009155273,-0.164860725402832,-0.0,-0.0,-1.0,0.154204729068293,1.0
14.36129379272461,15.777236938476562,-1.0609039068222046,-0.0,-0.0,-1.0,0.0777442885220854,1.0
14.218031883239746,15.667011260986328,-1.089868187904358,-0.0,-0.0,-1.0,0.0773737570115899,2.0
15.358548164367676,17.345701217651367,-0.9170163869857788,-0.0,-0.0,-1.0,0.0183743169636399,1.0
15.180253028869627,16.850961685180664,-0.9256635904312134,-0.0,-0.0,-1.0,0.0189621250645723,2.0
15.312475204467772,17.091398239135742,-0.9108651876449584,-0.0,-0.0,-1.0,0.0278340891548351,1.0
14.970379829406738,16.293729782104492,-0.944071888923645,-0.0,-0.0,-1.0,0.0236828566278045,2.0
15.080687522888184,16.5598201751709,-0.9322327375411988,-0.0,-0.0,-1.0,0.0306129634335472,2.0
14.81659984588623,16.07898712158203,-0.9695035219192504,-0.0,-0.0,-1.0,0.0197835824579055,2.0
14.143132209777832,17.26436996459961,-0.7813292741775513,-0.0,-0.0,-1.0,0.0700964284149181,1.0
14.167603492736816,17.515567779541016,-0.7889102697372437,-0.058244762225222,0.545721148440557,-0.8359401747840852,0.0436476918307146,3.0
14.503127098083496,15.860498428344728,-1.031716227531433,-0.0,-0.0,-1.0,0.0601709928296292,1.0
14.249781608581545,16.276351928710938,-0.7224538326263428,-0.0,-0.0,-1.0,0.1059728659317849,1.0
13.81959629058838,17.22055435180664,-0.8391827344894409,-0.0,-0.0,-1.0,0.0659355183412071,1.0
14.272432327270508,16.48627281188965,-0.3475066423416137,-0.0,-0.0,-1.0,0.0838885090778353,1.0
14.313363075256348,16.399864196777344,0.0326480865478515,-0.0,-0.0,-1.0,0.1521081792420123,1.0
15.233061790466309,17.200769424438477,-0.9028998613357544,0.8668803625242015,0.1894187832557794,-0.4611279232705487,0.0228306802836325,4.0
15.20665168762207,17.57317352294922,-0.933186411857605,-0.0,-0.0,-1.0,0.0589269758416369,1.0
15.69168758392334,15.656601905822754,-1.031452775001526,-0.0,-0.0,-1.0,0.0540516117042346,1.0
15.05175495147705,16.68830680847168,-0.9156380891799928,-0.7975943373081623,-0.4562894317341689,-0.3945164477961126,0.0368512876923656,3.0
15.129785537719728,16.948261260986328,-0.9113892316818236,-0.0,-0.0,-1.0,0.0470329915809153,2.0
14.8660306930542,16.16838836669922,-0.9352988004684448,-0.0,-0.0,-1.0,0.0181552613622968,2.0
14.945509910583496,16.416271209716797,-0.9270683526992798,-0.0,-0.0,-1.0,0.0330968428467312,1.0
14.216047286987305,17.524019241333008,-0.7867683172225952,-0.0,-0.0,-1.0,0.0331499300262193,2.0
14.618156433105469,15.840516090393066,-0.9814504384994508,-0.9740728198340176,-0.2206738759451684,-0.0498516011371914,0.0348209416725955,3.0
14.039426803588867,17.144447326660156,-0.802078127861023,0.6114201407223971,-0.7704622436411924,-0.1804254489876193,0.0964952091804915,4.0
14.444839477539062,15.711312294006348,-1.0180951356887815,-0.620663542306266,-0.6783848004538722,-0.3931549691470244,0.0662965510782293,3.0
14.190081596374512,16.364669799804688,-0.7406316995620728,0.9275161646109732,-0.3342896624702804,-0.1672249561245463,0.1436178032456709,3.0
14.11805248260498,16.193498611450195,-0.5707200765609741,-0.0,-0.0,-1.0,0.1620483696219463,2.0
14.18248462677002,16.286649703979492,-0.0340539216995239,0.0134573308107545,0.711081913449466,-0.7029803785401806,0.1669707983091302,5.0
15.547060012817385,17.52075958251953,-0.9599834680557252,-0.3529577040321318,0.2080301005547258,-0.9122194562864562,0.0160165587314358,3.0
15.635817527770996,16.578332901000977,-0.9157835245132446,-0.0,-0.0,-1.0,0.0472933340733302,1.0
15.55436897277832,16.93672752380371,-0.943421483039856,0.1658281469455224,-0.7506231748620172,-0.6395825787501404,0.0255034029826625,3.0
15.534671783447266,17.326486587524414,-0.9575260877609252,-0.0,-0.0,-1.0,0.0187187454392792,2.0
15.532965660095217,16.404006958007812,-0.9446719884872437,-0.0,-0.0,-1.0,0.1193941680215365,2.0
14.656057357788086,17.48113250732422,-0.8781942129135132,-0.0,-0.0,-1.0,0.0210979662971562,1.0
15.30373191833496,15.833459854125977,-1.0140081644058228,-0.0,-0.0,-1.0,0.0469397560081938,2.0
15.374517440795898,16.11304473876953,-0.990334153175354,0.1302997855711815,0.9585664185709742,0.2533226935513671,0.0366816011574351,3.0
14.634182929992676,16.90386390686035,-0.8756238222122192,-0.0,-0.0,-1.0,0.0260030550782961,2.0
14.63353157043457,17.235334396362305,-0.8794468641281128,-0.0947900076130916,0.3787431328390828,-0.920634831941496,0.0224800770152913,3.0
14.467391967773438,16.57921028137207,-0.9154914617538452,-0.0,-0.0,-1.0,0.1150205067100199,2.0
14.254138946533203,16.191198348999023,-0.9699331521987916,0.7487828350175457,-0.5024078549296429,-0.4323316010750104,0.1932853843885917,3.0
14.311511993408203,16.372737884521484,-0.9544347524642944,-0.0,-0.0,-1.0,0.0543088356397086,2.0
13.717721939086914,15.99074649810791,-1.105061173439026,-0.0,-0.0,-1.0,0.2570875454328732,1.0
14.16378402709961,16.216108322143555,-0.654974102973938,0.7146801366755782,0.2267804314414537,0.6616667878597243,0.2180119763784346,11.0
14.17477798461914,16.393457412719727,-0.6511667966842651,-0.0,-0.0,-1.0,0.1846833405170489,1.0
14.277298927307127,16.664155960083008,0.0261807441711425,-0.2270455581609008,-0.4531848340218122,-0.862017297234822,0.2079220433546754,5.0
14.155914306640623,16.22896957397461,-0.3240584135055542,0.1471533978281268,-0.9070779709816688,-0.3944051623234873,0.1577594094725508,5.0
14.224285125732422,16.34958267211914,0.0154396295547485,-0.4067812418815279,0.9053863529079692,-0.1216740449780805,0.2426681289507034,8.0
15.584844589233398,17.10994529724121,-0.967902660369873,-0.0,-0.0,-1.0,0.0288525158128739,2.0
15.552061080932615,17.425291061401367,-0.980971336364746,-0.0,-0.0,-1.0,0.0168546839097503,2.0
15.63966178894043,16.322858810424805,-0.959343433380127,-0.0,-0.0,-1.0,0.1274115370828333,2.0
15.633134841918944,16.616718292236328,-0.9554827213287354,-0.0,-0.0,-1.0,0.0332863652383545,1.0
15.569746971130373,16.863590240478516,-0.9727325439453124,-0.0,-0.0,-1.0,0.0194319029253346,1.0
14.897916793823242,17.16013526916504,-0.8937928676605225,-0.0,-0.0,-1.0,0.0536991543105529,2.0
14.874711990356444,17.490713119506836,-0.9022185802459716,-0.0,-0.0,-1.0,0.0207988989508462,1.0
15.468061447143556,16.03925132751465,-1.0233397483825684,-0.0,-0.0,-1.0,0.0388940712883486,1.0
14.840616226196287,16.6334285736084,-0.9136614799499512,-0.0,-0.0,-1.0,0.0493952818697935,2.0
14.890642166137695,16.88994789123535,-0.8967392444610596,-0.7461207821621044,0.2008358211645732,-0.6347981973532698,0.076692408579778,4.0
14.14771842956543,17.602741241455078,-0.7901003360748291,-0.0,-0.0,-1.0,0.0373374244895806,2.0
15.437528610229492,15.772112846374512,-1.044090986251831,-0.0,-0.0,-1.0,0.0612618581301756,1.0
14.725990295410156,16.081615447998047,-0.9586377143859864,0.0867346692260961,-0.0256346757777855,-0.9959015817599686,0.0194856428841241,3.0
14.733360290527344,16.317134857177734,-0.9501674175262452,-0.8387635010313335,0.0127723094664948,-0.5443460824223427,0.0171794829553446,3.0
14.050888061523438,16.996816635131836,-0.8135201930999756,-0.0,-0.0,-1.0,0.1434120819747319,2.0
14.01687717437744,17.250593185424805,-0.8208041191101074,-0.0,-0.0,-1.0,0.0801449029540861,2.0
14.618764877319336,15.841390609741213,-0.9972102642059326,-0.9740728198340176,-0.2206738759451684,-0.0498516011371914,0.0348209416725955,3.0
14.12565803527832,16.280040740966797,-0.8062915802001953,0.6160393794927348,-0.7631650109360006,-0.1951272635929178,0.1632477516453595,4.0
13.797460556030272,16.885744094848633,-0.8761329650878906,-0.0,-0.0,-1.0,0.0833388384629392,2.0
14.157988548278809,16.191516876220703,-0.4914925098419189,0.7921340541288077,-0.5382791383458344,-0.2877137631590202,0.116018840302122,8.0
14.16046142578125,16.381223678588867,-0.1827558279037475,-0.0,-0.0,-1.0,0.1365680145135791,2.0
15.079896926879885,17.334787368774414,-0.9242959022521972,-0.0,-0.0,-1.0,0.0224503442526011,2.0
15.070530891418455,16.80862808227539,-0.9438555240631104,-0.0,-0.0,-1.0,0.0347012500327446,1.0
15.087930679321287,17.073450088500977,-0.9283018112182616,-0.0,-0.0,-1.0,0.0380927522920518,1.0
14.39324951171875,17.403066635131836,-0.8600401878356934,-0.0,-0.0,-1.0,0.0542307730301288,2.0
15.099893569946287,16.267786026000977,-0.9626944065093994,-0.0,-0.0,-1.0,0.0291634664884216,1.0
15.086492538452148,16.519956588745117,-0.952202081680298,-0.0,-0.0,-1.0,0.0365626972205269,2.0
14.338775634765623,16.797090530395508,-0.8927061557769775,0.997833491579644,0.0555374705427688,0.035269142996218,0.0757097248745478,3.0
14.377212524414062,17.062198638916016,-0.873133659362793,-0.0,-0.0,-1.0,0.0784724698119067,1.0
15.08441925048828,15.64625072479248,-1.014042615890503,-0.0,-0.0,-1.0,0.0530115451243007,1.0
15.057924270629885,15.952195167541504,-0.9977397918701172,-0.0,-0.0,-1.0,0.0344067454255797,1.0
14.240524291992188,16.557823181152344,-0.9306817054748536,-0.0,-0.0,-1.0,0.1869980633208691,2.0
14.205421447753906,16.226926803588867,-0.9568986892700196,-0.0,-0.0,-1.0,0.1988704860039673,2.0
14.116218566894531,16.441547393798828,-0.5369818210601807,-0.0,-0.0,-1.0,0.1157174007436326,1.0
14.133856773376465,16.218236923217773,-0.6861684322357178,0.0818724179051368,-0.8433823850923643,-0.5310396027626202,0.235403747457868,10.0
14.187904357910156,16.57554054260254,-0.0954867601394653,0.7069648425883522,0.3034122269421448,-0.6388597122107753,0.1457661235409705,6.0
14.13747215270996,16.296659469604492,-0.1141586303710937,0.0413387480417706,0.973704509023293,-0.224032669532921,0.1593274631582026,8.0
13.831851959228516,15.960086822509766,-0.9305925369262696,-0.0,-0.0,-1.0,0.210088917377145,1.0
14.02096176147461,17.45224952697754,-0.7884242534637451,0.3603180456358964,0.398656005629328,-0.8433530074439751,0.0575297794724209,3.0
13.996647834777832,17.074993133544922,-0.8099486827850342,-0.0,-0.0,-1.0,0.100430768890892,2.0
13.817707061767578,16.94162940979004,-0.8683888912200928,-0.0,-0.0,-1.0,0.0950739520615426,2.0
14.127735137939451,16.29344367980957,-0.6860059499740601,0.3538425209579128,-0.0929658283685348,-0.9306733181508432,0.2219308803711753,4.0
13.790168762207031,16.887496948242188,-0.8791637420654297,-0.0,-0.0,-1.0,0.0804417428486438,2.0
14.111064910888672,16.124263763427734,-0.8374395370483398,-0.0,-0.0,-1.0,0.1844909305124121,1.0
14.146989822387695,16.361268997192383,-0.2826575040817261,-0.0,-0.0,-1.0,0.1588630471278135,2.0
14.230504989624023,16.652652740478516,0.0027432441711425,0.2835786049025534,-0.9584701607945898,0.0303005892337799,0.2079220433546754,4.0
14.158895492553713,16.31434440612793,-0.0258920192718505,-0.7460689325474587,-0.1593261265390526,-0.6465263593153474,0.143433081555552,6.0
13.902013778686523,17.257915496826172,-0.7828881740570068,-0.0,-0.0,-1.0,0.0664575081705384,1.0
13.752230644226074,17.45414161682129,-0.8044888973236084,-0.0,-0.0,-1.0,0.039549302639603,2.0
14.121841430664062,16.265201568603516,-0.8650338649749756,-0.0,-0.0,-1.0,0.202955744280736,2.0
14.1256103515625,16.449569702148438,-0.5867946147918701,-0.0,-0.0,-1.0,0.1383348000556636,2.0
14.114458084106444,16.233169555664062,-0.5004496574401855,0.4937507778056294,0.2312774437220381,-0.8382845062636763,0.1202611394577292,6.0
14.172786712646484,16.560884475708008,-0.0856462717056274,0.7069648425883522,0.3034122269421448,-0.6388597122107753,0.1326335264256107,6.0
14.125709533691406,16.281768798828125,-0.1292643547058105,0.415061920132661,0.8732428282658508,0.2552852626730467,0.1940968502000389,7.0
14.092557907104492,16.220947265625,-0.6804687976837158,-0.5363451804974965,-0.7855868045926384,0.3085242612940443,0.205397333741844,7.0
14.085535049438477,16.3616886138916,-0.541642427444458,-0.0,-0.0,-1.0,0.1080010356359834,1.0
14.147846221923828,16.56223487854004,-0.1660676002502441,-0.0,-0.0,-1.0,0.0760581088769392,2.0
14.114917755126951,16.305076599121094,-0.1109954118728637,0.4950208616209982,0.8518081272695913,-0.1713979605405977,0.1670986044622984,7.0
14.115022659301758,16.536312103271484,-0.222182035446167,-0.0,-0.0,-1.0,0.0719704487760458,1.0
14.037506103515623,16.277254104614258,-0.2978119850158691,-0.0,-0.0,-1.0,0.2004848885016831,2.0
14.186256408691406,16.67788314819336,0.0044000148773193,-0.91692767068558,0.0890480420673532,-0.3889911219232236,0.1679918000394984,3.0
14.085018157958984,16.31983757019043,-0.087303876876831,-0.6431273000576636,-0.0804591847715393,-0.7615205811443568,0.1511299243735809,3.0
14.15431785583496,16.338294982910156,-0.0122010707855224,0.8022575493390292,0.5725842018554337,-0.1689087218414472,0.1467882137638029,7.0
14.13173484802246,16.358230590820312,-0.011720061302185,-0.0704330757639778,-0.0557447276618676,-0.9959576834265248,0.1467882137638029,4.0
14.082901000976562,17.622547149658203,-0.724690318107605,-0.0,-0.0,-1.0,0.0367693465815314,2.0
14.144271850585938,16.098541259765625,-0.5875979661941528,-0.0,-0.0,-1.0,0.1039014024888253,1.0
13.990171432495115,17.238643646240234,-0.8183847665786743,-0.0,-0.0,-1.0,0.0825324271000941,2.0
14.3015775680542,17.414325714111328,-0.8302091360092163,-0.4537803847043835,-0.6987268424116482,-0.5530498731136185,0.052063279249663,3.0
13.991360664367676,17.032794952392578,-0.7999237775802612,-0.0,-0.0,-1.0,0.1367133265671279,2.0
14.109861373901367,16.14147186279297,-0.718741774559021,-0.0,-0.0,-1.0,0.1798121670294785,2.0
13.71285629272461,16.581863403320312,-1.0150344371795654,-0.0,-0.0,-1.0,0.0628030158785333,1.0
15.22220516204834,16.317798614501953,-0.9646334648132324,-0.0,-0.0,-1.0,0.0436509076190805,2.0
15.534526824951172,16.34420394897461,-0.9628429412841796,-0.1673317863306476,-0.7897556304995171,0.5901577055141319,0.0954144578322091,3.0
15.39455509185791,16.38162612915039,-0.851283073425293,-0.0,-0.0,-1.0,0.0800033154070064,2.0
15.009005546569824,16.833877563476562,-0.8941378593444824,-0.0,-0.0,-1.0,0.0402836350297241,2.0
15.4504976272583,16.64352798461914,-0.8802335262298584,-0.0,-0.0,-1.0,0.0271371449966286,1.0
15.54028606414795,17.026756286621094,-0.9227588176727296,-0.0,-0.0,-1.0,0.0280166102842868,2.0
14.428876876831056,15.703123092651367,-0.9787650108337402,-0.0,-0.0,-1.0,0.0662965510782293,2.0
14.841171264648438,15.87993049621582,-0.983318567276001,0.5070032182261468,-0.8523806791011583,-0.1280426280711949,0.0476612511243505,4.0
14.627925872802734,15.797445297241213,-0.981682062149048,-0.9740728198340176,-0.2206738759451684,-0.0498516011371914,0.0356174858443042,3.0
15.145248413085938,15.92619514465332,-0.9798221588134766,-0.0,-0.0,-1.0,0.0322421257152186,2.0
15.63283920288086,16.816381454467773,-0.9736313819885254,0.5759781284674317,-0.8144914000334877,0.0696631523737204,0.0214535975824595,3.0
14.905616760253906,16.25956153869629,-0.9380433559417723,-0.0,-0.0,-1.0,0.0206246374524205,2.0
15.443191528320312,16.314550399780273,-0.9339911937713624,-0.0,-0.0,-1.0,0.0954587648030957,1.0
15.162931442260742,16.231721878051758,-0.9314696788787842,0.8694915332349047,0.4576842529824796,0.1857675919117346,0.0397136818143981,3.0
15.2285795211792,16.575212478637695,-0.9209837913513184,0.5195457703694356,-0.7579067129381323,-0.3945245327917457,0.0349636954847361,3.0
15.562596321105955,16.45073890686035,-0.9012069702148438,-0.0404120416532338,-0.2350510569872179,-0.971142557763076,0.1045516718159768,3.0
14.300155639648438,17.33786392211914,-0.8244113922119141,-0.0,-0.0,-1.0,0.0457312234675979,1.0
15.63914680480957,15.661270141601562,-1.0274083614349363,-0.7281080630292388,0.029957032655007,-0.6848074362522041,0.0581602889750521,4.0
14.175687789916992,16.232831954956055,-0.3456902503967285,0.2901378833449472,-0.95692907857695,0.0103318547213821,0.1297028945064889,7.0
14.371621131896973,16.299097061157227,-0.990382194519043,-0.2671069402430979,-0.2501088434246551,-0.9306446415870836,0.0372544377974205,3.0
14.025562286376951,16.204294204711914,-1.007335186004639,-0.0,-0.0,-1.0,0.1508755680258735,1.0
14.226465225219728,16.206310272216797,-0.5336580276489258,-0.0,-0.0,-1.0,0.2278600678136842,2.0
14.319228172302246,17.63301658630371,-0.8025870323181152,-0.0,-0.0,-1.0,0.0186096402161433,2.0
14.182674407958984,17.422578811645508,-0.7865912914276123,-0.0,-0.0,-1.0,0.0659204013255376,2.0
14.220544815063477,16.17721939086914,-0.6470212936401367,-0.4647659017727759,-0.8390835322598323,-0.2827215634501577,0.1166454072560469,3.0
15.51754665374756,17.038816452026367,-0.9560885429382324,-0.0,-0.0,-1.0,0.0250731350778814,2.0
15.607170104980469,17.239046096801758,-0.9763283729553224,0.594201674118727,0.5851369946281139,-0.5518505848434705,0.0193348417365141,3.0
15.37134075164795,16.88011932373047,-0.9440264701843262,-0.0,-0.0,-1.0,0.0209013011963317,1.0
14.58036994934082,16.575380325317383,-0.949094295501709,-0.0,-0.0,-1.0,0.088324993878747,1.0
14.24283218383789,16.247066497802734,-0.9275693893432616,-0.0,-0.0,-1.0,0.0908252782201524,1.0
14.13858413696289,16.56684684753418,-0.973111629486084,-0.0,-0.0,-1.0,0.1652147300679462,2.0
13.791559219360352,16.622072219848633,-0.9999804496765136,-0.0,-0.0,-1.0,0.0827569136269008,2.0
14.553285598754885,17.414112091064453,-0.8861989974975586,-0.0,-0.0,-1.0,0.0243080003135781,2.0
14.695175170898438,17.60090446472168,-0.9007091522216797,-0.0,-0.0,-1.0,0.0306969384570156,1.0
14.321377754211426,17.099489212036133,-0.8615684509277344,-0.0,-0.0,-1.0,0.0819883122427793,1.0
14.230181694030762,16.216257095336914,-0.7587325572967529,-0.4629718668567687,-0.4553120981630058,0.760491909073042,0.177579232053063,4.0
13.824705123901367,17.131507873535156,-0.8962836265563965,-0.0,-0.0,-1.0,0.1256626022152984,2.0
15.649455070495604,16.304250717163086,-0.9905951023101808,-0.8634399235718554,-0.5036010329404444,0.0292830668398315,0.1352591695875523,3.0
14.793030738830566,15.989215850830078,-0.9948070049285888,-0.0,-0.0,-1.0,0.0351672160944438,1.0
14.594152450561523,16.01818084716797,-1.0109426975250244,-0.0,-0.0,-1.0,0.0336598770903047,1.0
14.34179973602295,16.110870361328125,-1.0396945476531982,-0.0,-0.0,-1.0,0.1184430659116095,2.0
13.922776222229004,16.23578453063965,-1.0838148593902588,-0.0,-0.0,-1.0,0.1112350471330555,1.0
13.771543502807615,16.27039337158203,-1.0984203815460205,-0.0,-0.0,-1.0,0.0752378113309187,2.0
14.251060485839844,16.58387565612793,-0.1000382900238037,-0.0,-0.0,-1.0,0.1677169528998204,1.0
14.442683219909668,17.58369255065918,-0.8418960571289062,-0.0,-0.0,-1.0,0.0129282370170052,1.0
14.129990577697754,17.328598022460938,-0.831230878829956,-0.0,-0.0,-1.0,0.0779853213641505,1.0
14.16387939453125,16.30797576904297,-0.6924304962158203,-0.4023062576959265,0.8470042672371809,-0.3474671873727143,0.1856481028051661,3.0
13.735316276550291,17.228899002075195,-0.8480710983276367,-0.0,-0.0,-1.0,0.0521122966128921,1.0
14.245049476623535,16.278583526611328,-0.401646614074707,-0.0,-0.0,-1.0,0.1625031341354151,1.0
13.793055534362791,17.614830017089844,-0.8235225677490234,-0.0,-0.0,-1.0,0.0350714686238449,2.0
14.253092765808104,16.25253677368164,-0.513113260269165,-0.0,-0.0,-1.0,0.1967802536018816,2.0
15.233209609985352,15.979039192199709,-1.0187346935272217,-0.0,-0.0,-1.0,0.0226128800415707,2.0
15.002864837646484,15.81834316253662,-0.99550461769104,-0.0,-0.0,-1.0,0.0370983169283661,1.0
14.704961776733398,15.826876640319824,-1.0076773166656494,-0.0,-0.0,-1.0,0.0384161926551569,2.0
14.443519592285156,15.906535148620604,-1.03296160697937,-0.0,-0.0,-1.0,0.0748375164160487,1.0
14.10274887084961,16.088104248046875,-1.0817577838897705,-0.0,-0.0,-1.0,0.1475879476311071,1.0
13.954004287719728,16.103347778320312,-1.091073751449585,-0.0,-0.0,-1.0,0.0887598990758564,2.0
15.514147758483888,16.478633880615234,-0.8839080333709717,0.2261488341584382,-0.7940513264941481,0.5642155578337618,0.0577078519187081,3.0
15.436532974243164,16.68868637084961,-0.926454782485962,-0.0,-0.0,-1.0,0.0186282320641629,1.0
15.080312728881836,16.651630401611328,-0.9309542179107666,-0.7975943373081623,-0.4562894317341689,-0.3945164477961126,0.0205845227868217,3.0
14.665878295898438,16.570308685302734,-0.930328607559204,-0.0,-0.0,-1.0,0.0740254047180279,1.0
14.251260757446287,16.298858642578125,-0.8947560787200928,-0.0,-0.0,-1.0,0.091907442118881,1.0
14.181474685668944,16.607547760009766,-0.9569203853607178,-0.0,-0.0,-1.0,0.1605750095366633,1.0
13.81626033782959,16.653507232666016,-0.9816715717315674,-0.0,-0.0,-1.0,0.0566895346596456,2.0
15.058959007263184,17.521331787109375,-0.8950738906860352,-0.0,-0.0,-1.0,0.0857749206430918,2.0
14.759591102600098,17.436857223510742,-0.8883895874023438,-0.0,-0.0,-1.0,0.023444788766619,2.0
14.757453918457031,17.46487045288086,-0.8937902450561523,-0.9658018072395892,-0.0239091389607813,0.2581767266949075,0.0288329877190845,3.0
14.450040817260742,17.213655471801758,-0.8560183048248291,-0.3607472699839964,0.3504735977900182,-0.864308778418462,0.0294201856094216,3.0
14.07745361328125,17.03508949279785,-0.8355748653411865,-0.0,-0.0,-1.0,0.1073960478652731,1.0
13.902774810791016,17.13968276977539,-0.8627321720123291,-0.2774964395675768,-0.6700735503033635,-0.6884745189265643,0.0636351096686342,3.0
14.18998908996582,16.202091217041016,-0.670607328414917,-0.004517937878491,-0.4449172744201577,-0.8955602755593082,0.1063919213063266,12.0
14.319674491882324,16.582744598388672,-0.0078682899475097,-0.0,-0.0,-1.0,0.1957346963638495,1.0
14.208451271057127,17.465492248535156,-0.8314917087554932,-0.0,-0.0,-1.0,0.055842742042148,1.0
14.147991180419922,16.225231170654297,-0.5961730480194092,0.9520327521845432,-0.2365030651863441,-0.1941647211142847,0.2046708864795931,4.0
13.981484413146973,17.3709716796875,-0.822547435760498,-0.1508115855844397,0.3236391437602351,-0.9340843485893816,0.0627243192422483,3.0
