x,y,z,nx,ny,nz,curvature,density
4.004106044769287,14.653474807739258,-0.0843677520751953,-0.0,-0.0,-1.0,0.2162720217597854,2.0
4.844048500061035,15.445178985595703,-0.2431466579437255,-0.0,-0.0,-1.0,0.1612854350096553,1.0
4.385175704956055,15.188562393188477,-0.2386934757232666,-0.0,-0.0,-1.0,0.2092642642688989,1.0
4.443039894104004,15.547577857971191,-0.3184373378753662,-0.0,-0.0,-1.0,0.147226907010764,1.0
5.263571739196777,13.943621635437012,0.1772594451904297,-0.0,-0.0,-1.0,0.1474468256551079,1.0
5.215565204620361,14.173378944396973,0.1149659156799316,0.3062490649683055,0.1077283514054969,-0.9458361975043524,0.2663822490608262,3.0
4.943037986755371,13.76565647125244,0.1792895793914795,-0.0,-0.0,-1.0,0.223363191729713,1.0
4.962029933929443,15.296783447265623,-0.192324161529541,-0.0,-0.0,-1.0,0.125234143474305,1.0
4.425418376922607,13.752652168273926,0.1106162071228027,-0.3379139315168287,0.8603137154486848,0.3816732711334643,0.0751740800311204,3.0
4.454017162322998,14.447568893432615,-0.0509490966796875,-0.0,-0.0,-1.0,0.1114878030105597,2.0
4.38530158996582,14.636390686035156,-0.105705976486206,0.2892364350917365,0.6820437064868613,-0.6716834574835739,0.0661939428816015,3.0
4.396432399749756,14.94967555999756,-0.1794891357421875,-0.9667831597495798,-0.2386522827026374,-0.0915172660509426,0.0661475361300572,3.0
4.019967555999756,14.410523414611816,-0.1035432815551757,-0.0,-0.0,-1.0,0.1156548851005725,1.0
4.061209201812744,14.617947578430176,-0.1468369960784912,-0.0,-0.0,-1.0,0.1825602325177562,1.0
3.7276782989501953,14.414061546325684,-0.1479096412658691,-0.0,-0.0,-1.0,0.0972790203391206,1.0
4.592851638793945,15.019247055053713,-0.0496959686279296,-0.0,-0.0,-1.0,0.2450916967269235,1.0
4.721673011779785,15.33232307434082,-0.1062533855438232,-0.0,-0.0,-1.0,0.1606220632711437,1.0
4.1724934577941895,14.68376350402832,-0.030684471130371,0.7297085084864007,0.5577579726445625,-0.3955142685087108,0.2458115739110688,3.0
4.195590972900391,14.79982566833496,-0.0537261962890625,0.2922830239738693,0.9555603753376068,-0.0384057675531007,0.1768208673088869,5.0
3.998408794403076,14.65515422821045,-0.049640417098999,0.6264260230253746,0.7767487767783506,0.0652056397096863,0.270665098827097,3.0
4.14988899230957,14.811209678649902,-0.0628285408020019,0.2800202250249554,0.957787175918906,-0.0650568921964433,0.2017080299051835,5.0
3.9789280891418457,15.365788459777832,-0.2132720947265625,0.0229228056445157,0.8325217631124614,-0.5535178939524016,0.2370655815056489,3.0
4.8160600662231445,14.090173721313477,0.0045046806335449,-0.042439425214283,-0.9984903280000772,0.0348706191195339,0.1073405699218181,3.0
4.946940898895264,13.894628524780272,-0.019568920135498,-0.0,-0.0,-1.0,0.1695384135151335,2.0
4.558663368225098,14.198974609375,0.0164599418640136,0.5687528461222874,0.4354510119130466,-0.6977840756650305,0.1229172719846863,5.0
4.175807476043701,14.569347381591797,0.0595440864562988,-0.7197427571613384,0.4317424066078342,0.5436624484459731,0.1850660742002054,3.0
4.337027072906494,14.402948379516602,0.0403094291687011,-0.0,-0.0,-1.0,0.1883340839512527,2.0
3.9145827293396,14.741636276245115,0.0781102180480957,0.1856037823390428,-0.683667510063901,-0.7057974012876975,0.1232907113849774,3.0
5.236763000488281,13.93817901611328,-0.2776415348052978,-0.0,-0.0,-1.0,0.1175744270093082,2.0
5.679103374481201,14.01357078552246,-0.2569336891174316,-0.0,-0.0,-1.0,0.1597162825621474,1.0
4.914515495300293,14.447877883911133,-0.2196183204650879,-0.0,-0.0,-1.0,0.0243405716555781,1.0
5.066648006439209,14.259111404418944,-0.2399060726165771,-0.0,-0.0,-1.0,0.0506572614934573,1.0
4.406351566314697,14.751791000366213,-0.1969776153564453,-0.0,-0.0,-1.0,0.0469665720860315,2.0
4.735663890838623,14.5517578125,-0.2116672992706298,-0.5489932718240667,0.3178502828512569,-0.7730314257410769,0.0395294147473029,3.0
4.005554676055908,14.998767852783203,-0.1804766654968261,-0.0,-0.0,-1.0,0.0398143169854401,1.0
4.668051719665527,13.98353385925293,-0.0478134155273437,0.7798440550186204,-0.0850407154122492,0.6201704012400846,0.0567534378912698,4.0
4.951904296875,13.766801834106444,-0.0673880577087402,-0.0,-0.0,-1.0,0.1588964936883473,2.0
5.25484037399292,13.758977890014648,-0.0623154640197753,-0.0,-0.0,-1.0,0.2213369889720435,2.0
4.028663158416748,14.558761596679688,0.0038239955902099,-0.0,-0.0,-1.0,0.1595260274017933,1.0
4.2894673347473145,14.36359977722168,-0.0121760368347167,0.4398442109619064,0.5873229627878207,-0.6794032730753026,0.132825276289575,4.0
4.490859031677246,14.211481094360352,-0.0250356197357177,0.1887489546809658,0.9307673696021428,-0.3131228765049765,0.1173765775292565,3.0
5.5222930908203125,13.85817527770996,-0.0455315113067626,-0.0,-0.0,-1.0,0.1617252869667652,1.0
3.879937171936035,14.748023986816406,0.0216972827911376,0.1937910958922532,0.9755371503964732,0.1037895917190552,0.1251777791536073,5.0
3.876291275024414,13.670141220092772,-0.1228337287902832,-0.0,-0.0,-1.0,0.1015641772996771,1.0
4.127197265625,13.885005950927734,-0.0894036293029785,-0.0,-0.0,-1.0,0.0398916134456133,1.0
4.297455787658691,14.009689331054688,-0.0692834854125976,-0.0,-0.0,-1.0,0.0653458392541598,2.0
4.727070331573486,14.067256927490234,-0.0493278503417968,-0.0,-0.0,-1.0,0.1400178466163996,2.0
5.026393890380859,13.910163879394531,-0.0594856739044189,-0.0,-0.0,-1.0,0.1733882599126017,1.0
5.395501136779785,13.659772872924805,-0.0801119804382324,-0.1147611825910939,0.9777978942406276,0.175331540199955,0.1979068945476028,3.0
5.102989673614502,14.010883331298828,-0.045499563217163,-0.0,-0.0,-1.0,0.2205085449489831,1.0
5.325860500335693,13.89777946472168,-0.0531928539276123,-0.0,-0.0,-1.0,0.1642853758883451,1.0
3.889450073242187,14.841096878051758,0.0131652355194091,0.3171018663630733,0.8600469446287842,0.3997069668941841,0.1240111062993672,3.0
4.082691192626953,14.767513275146484,0.0116691589355468,-0.0,-0.0,-1.0,0.1407668378277135,1.0
4.497377872467041,14.30526351928711,-0.0282528400421142,0.8788521915275229,0.3471184383232163,-0.3273035521092335,0.1469966240225984,5.0
4.705613613128662,14.253210067749023,-0.0279550552368164,-0.0,-0.0,-1.0,0.1253670397940528,1.0
3.71037483215332,15.144416809082031,-0.19222092628479,-0.0,-0.0,-1.0,0.0570497973504382,1.0
4.023141860961914,15.279056549072266,-0.1585288047790527,-0.9920998950937224,-0.0547611563360134,0.1128672402062162,0.1526455401071916,3.0
4.181397438049316,15.03183937072754,-0.1795411109924316,-0.0,-0.0,-1.0,0.083935569301551,1.0
4.554172515869141,14.80076026916504,-0.1880567073822021,-0.0,-0.0,-1.0,0.0713972880046603,1.0
4.897880554199219,14.58124542236328,-0.1980395317077636,0.9086846395287324,0.4016950861099472,-0.1137245957550953,0.0215505787923419,3.0
5.207383632659912,14.432205200195312,-0.2020862102508545,-0.4940725259805736,0.682603441225715,-0.5384653016657498,0.206490431828818,3.0
5.488912105560303,14.051206588745115,-0.237344741821289,-0.0,-0.0,-1.0,0.098469511566441,2.0
5.690668106079102,13.802059173583984,-0.2603802680969238,-0.0,-0.0,-1.0,0.1399657612569773,1.0
5.381543159484863,14.312257766723633,-0.2092761993408203,-0.0,-0.0,-1.0,0.170239189414437,1.0
3.986804962158203,15.617794036865234,-0.2771577835083008,-0.0,-0.0,-1.0,0.1369075779833378,1.0
4.003411293029785,15.351312637329102,-0.3126082420349121,-0.0,-0.0,-1.0,0.2589300865856919,1.0
4.487886428833008,15.381107330322266,-0.2886834144592285,-0.0,-0.0,-1.0,0.1523841293131578,1.0
4.907320022583008,15.078943252563477,-0.3147363662719726,-0.0,-0.0,-1.0,0.0464081800195505,1.0
4.931304931640625,15.586345672607422,-0.2431051731109619,-0.0,-0.0,-1.0,0.0782088576924444,1.0
5.004551410675049,15.285726547241213,-0.2823946475982666,-0.0,-0.0,-1.0,0.0572364653578344,1.0
5.325178623199463,14.971841812133787,-0.3155746459960937,-0.0,-0.0,-1.0,0.1710857279197843,2.0
5.585207462310791,14.72764015197754,-0.342020034790039,-0.0,-0.0,-1.0,0.0429321709796456,2.0
5.357418060302734,15.587165832519531,-0.2277431488037109,-0.0,-0.0,-1.0,0.0737911488891338,1.0
5.473104953765869,15.206716537475586,-0.2775225639343261,-0.0,-0.0,-1.0,0.1366137343962525,2.0
5.709409236907959,14.767326354980469,-0.3326828479766845,-0.0,-0.0,-1.0,0.0476339636816826,1.0
5.096879959106445,13.717397689819336,0.2153310775756836,-0.0,-0.0,-1.0,0.1146045147807046,1.0
5.274115562438965,13.86745262145996,0.2346982955932617,-0.0,-0.0,-1.0,0.2235624648444708,1.0
3.766131401062012,15.05214500427246,-0.1351714134216308,-0.0,-0.0,-1.0,0.0593139890058039,2.0
4.024125099182129,15.243173599243164,-0.1029314994812011,-0.0,-0.0,-1.0,0.1056158308860917,2.0
4.249391555786133,15.021329879760742,-0.131706953048706,-0.0,-0.0,-1.0,0.150539458039166,2.0
4.713038444519043,14.700969696044922,-0.1728036403656005,-0.0,-0.0,-1.0,0.1783715752466468,2.0
4.965324401855469,14.5404052734375,-0.1942059993743896,-0.0,-0.0,-1.0,0.0202369679319227,2.0
4.854306221008301,15.565454483032228,-0.0432574748992919,0.5551337109602533,-0.8044888699301369,-0.2112444581853663,0.1858759343406874,5.0
5.245805740356445,14.458118438720703,-0.2044909000396728,0.005547381284928,0.5074800337027386,-0.8616456591627134,0.2419566283403161,4.0
5.478878498077393,14.130170822143556,-0.2527434825897217,-0.0,-0.0,-1.0,0.1041752022362945,2.0
5.634739875793457,14.061075210571287,-0.2627260684967041,-0.0,-0.0,-1.0,0.1981833897689465,2.0
3.943211555480957,15.351909637451172,-0.2356257438659668,-0.0,-0.0,-1.0,0.237065581505649,2.0
4.159079551696777,15.103668212890623,-0.264418363571167,-0.7237516461298437,-0.5657175072493945,-0.3951547250329584,0.0941384433947162,3.0
4.367266654968262,15.086374282836914,-0.2602934837341308,-0.0,-0.0,-1.0,0.2247654250951568,2.0
4.726653099060059,15.45466423034668,-0.194343090057373,-0.0,-0.0,-1.0,0.2762740776691876,1.0
4.773210525512695,15.099392890930176,-0.2461419105529785,-0.0,-0.0,-1.0,0.1434271249551972,1.0
4.945775985717773,14.862452507019045,-0.2772352695465088,-0.0,-0.0,-1.0,0.1082935326456259,2.0
5.236191749572754,14.879237174987791,-0.2675573825836181,-0.0,-0.0,-1.0,0.1153593944443871,1.0
5.459184646606445,14.517553329467772,-0.3183026313781738,-0.0,-0.0,-1.0,0.1563230745771938,1.0
5.605948448181152,14.23575210571289,-0.3592305183410644,-0.0,-0.0,-1.0,0.0999131316854363,2.0
4.131220817565918,15.555896759033203,-0.3615500926971435,-0.7819590455478715,0.5463700256479007,-0.3000330751090194,0.1250376875086564,3.0
4.4483747482299805,15.621763229370115,-0.3352549076080322,-0.0,-0.0,-1.0,0.1576041383537051,1.0
5.426390647888184,15.309860229492188,-0.340620756149292,-0.0,-0.0,-1.0,0.1927754315728148,1.0
5.565585136413574,14.968931198120115,-0.3906691074371338,-0.0,-0.0,-1.0,0.0771970133254574,1.0
4.314426422119141,13.846378326416016,0.0506916046142578,-0.0,-0.0,-1.0,0.1084337005179341,1.0
4.207358360290527,14.573025703430176,0.1415233612060547,-0.0,-0.0,-1.0,0.1368466587854664,2.0
4.6069746017456055,13.820249557495115,0.0539309978485107,-0.0,-0.0,-1.0,0.0344318411061966,1.0
4.797151565551758,13.758747100830078,0.0499897003173828,-0.1955224251325645,-0.2915989595763675,-0.936344502864336,0.1916556271590759,5.0
3.984349250793457,15.037554740905762,-0.1246328353881836,-0.0,-0.0,-1.0,0.0486205026815773,1.0
4.113222122192383,14.955157279968262,-0.1301240921020507,-0.0,-0.0,-1.0,0.0716154816866757,2.0
4.310417175292969,14.863812446594238,-0.1341636180877685,0.0902109409637039,0.2828814117613882,-0.954903185150373,0.0543402715669484,3.0
4.566007614135742,14.657397270202637,-0.1527106761932373,0.1959531038911423,0.9376329820631966,-0.2871354593614387,0.0782804233962282,3.0
4.789624214172363,14.4992094039917,-0.16670823097229,-0.0,-0.0,-1.0,0.0526408436347512,2.0
4.994720458984375,14.312673568725586,-0.1863925457000732,-0.0,-0.0,-1.0,0.0432214219070688,1.0
5.305826187133789,14.188924789428713,-0.1939105987548828,-0.0,-0.0,-1.0,0.0719490767261945,1.0
5.444008827209473,13.800310134887695,-0.2482304573059082,-0.0,-0.0,-1.0,0.1695395853391123,2.0
5.416862487792969,13.67581272125244,-0.2679877281188965,-0.0,-0.0,-1.0,0.1368715727451457,1.0
3.988723754882813,15.554647445678713,-0.4566302299499511,-0.0,-0.0,-1.0,0.1430017325585341,1.0
4.214171409606934,15.513004302978516,-0.4447247982025146,-0.0,-0.0,-1.0,0.090760358998184,1.0
4.532965660095215,15.532407760620115,-0.4161789417266845,-0.0,-0.0,-1.0,0.1326746159595085,1.0
5.145475387573242,15.44656467437744,-0.3837902545928955,-0.0,-0.0,-1.0,0.0448572513658534,1.0
5.397814750671387,15.45565128326416,-0.3642566204071045,0.804168232785048,-0.4080706355813262,-0.4321941806128645,0.1621575178676093,3.0
4.299267768859863,14.52595329284668,0.0208430290222167,-0.0,-0.0,-1.0,0.105316058894735,2.0
4.299468040466309,14.430130004882812,0.007899522781372,0.1153588683471983,0.5832258165775944,-0.8040770972805109,0.159005993240027,3.0
4.4239654541015625,13.790387153625488,-0.0737271308898925,-0.0,-0.0,-1.0,0.1560998998241216,2.0
4.785989761352539,13.768038749694824,-0.0603272914886474,-0.0,-0.0,-1.0,0.1195475677332196,1.0
4.924639701843262,13.702692985534668,-0.0635106563568115,-0.0,-0.0,-1.0,0.1729715239725483,1.0
5.633283615112305,15.445802688598633,-0.3495783805847168,-0.0,-0.0,-1.0,0.1331745434939503,1.0
5.437124252319336,13.733675003051758,-0.2787785530090332,-0.0,-0.0,-1.0,0.156285226912603,1.0
3.8000783920288086,15.164874076843262,-0.1723508834838867,-0.0,-0.0,-1.0,0.0652547354614945,1.0
4.071478843688965,15.115907669067385,-0.1592559814453125,0.0312802479894441,-0.4223887795705525,-0.9058748616550842,0.084876882562103,3.0
4.276399612426758,14.91889190673828,-0.172835111618042,-0.0,-0.0,-1.0,0.0687310015993445,2.0
4.341742515563965,15.15426254272461,-0.1342082023620605,-0.0,-0.0,-1.0,0.1593765189171739,1.0
4.474416732788086,14.801477432250977,-0.1761958599090576,-0.0,-0.0,-1.0,0.0478042893826379,1.0
4.724391937255859,14.661341667175291,-0.1800522804260254,-0.0,-0.0,-1.0,0.0815718826962581,2.0
4.918597221374512,14.53780460357666,-0.1859493255615234,0.0326614062732645,-0.0365798140662665,-0.9987968510879128,0.0240281155782167,4.0
5.1527509689331055,14.359210968017578,-0.1984176635742187,-0.0,-0.0,-1.0,0.0900869564220151,2.0
5.394976615905762,13.960798263549805,-0.2455589771270752,-0.0,-0.0,-1.0,0.1625257702110246,2.0
5.3715009689331055,14.20331573486328,-0.2092237472534179,-0.0,-0.0,-1.0,0.1112914324289088,2.0
5.585707664489746,13.883131980895996,-0.2470588684082031,-0.0,-0.0,-1.0,0.161281956954871,1.0
4.857198715209961,13.703057289123535,0.2874388694763183,-0.0,-0.0,-1.0,0.1430632103056445,2.0
4.112726211547852,15.610979080200195,-0.3836932182312011,-0.0,-0.0,-1.0,0.1819784573351211,2.0
4.715066909790039,15.558663368225098,-0.3282930850982666,-0.0,-0.0,-1.0,0.1277648434713622,1.0
5.139585494995117,15.511065483093262,-0.2924115657806396,-0.0,-0.0,-1.0,0.0396565985149205,1.0
5.296860694885254,14.894481658935549,-0.3740251064300537,-0.0,-0.0,-1.0,0.1184578402747659,2.0
5.551933288574219,14.439458847045898,-0.4248025417327881,-0.0,-0.0,-1.0,0.0361813732389573,1.0
5.456765174865723,15.43248176574707,-0.2735054492950439,-0.0,-0.0,-1.0,0.1311390653258968,1.0
5.621608734130859,14.802742958068848,-0.3590166568756103,-0.0,-0.0,-1.0,0.0508950874159249,1.0
5.645413398742676,14.540783882141112,-0.399871826171875,-0.0,-0.0,-1.0,0.0244423240036347,1.0
5.7059478759765625,14.214303970336914,-0.4489681720733642,-0.0,-0.0,-1.0,0.0950167075029902,1.0
3.940221786499023,14.77375316619873,0.0537426471710205,-0.2637463210730595,-0.7513265888168866,-0.6049349015036306,0.1404284558739534,5.0
4.183253288269043,14.637933731079102,0.0546939373016357,-0.5567529762491172,0.5991311863390476,0.5753850406412346,0.1515767447174876,6.0
4.1318769454956055,14.25864315032959,0.0019941329956054,-0.0,-0.0,-1.0,0.0948810395490111,1.0
4.485317230224609,13.898025512695312,-0.0209360122680664,-0.2434247349500944,0.7725292168415058,0.5864665442638022,0.0452902829450282,4.0
4.538754463195801,14.247018814086914,0.0293545722961425,0.6229116536731374,0.1335005058120477,-0.7708168956802419,0.1372299977059183,5.0
4.752579689025879,13.932034492492676,0.0016658306121826,-0.0,-0.0,-1.0,0.0666469079064378,2.0
4.982826232910156,13.895625114440918,0.0118234157562255,0.6639614518241618,-0.1083854940324921,-0.739870106961272,0.1265020828874093,4.0
5.188370704650879,13.714288711547852,-0.0002343654632568,0.7241497782270205,0.3072653961142316,-0.6174099732305282,0.1484243786666045,3.0
5.411479949951172,13.672181129455566,0.0075800418853759,0.0206439515260985,0.9704503962736212,-0.2404160053693578,0.1569616568286347,3.0
3.981717109680176,15.398004531860352,-0.2734062671661377,0.3398820104781583,0.9319516019448378,-0.126279177166212,0.2272292133358104,3.0
4.150333404541016,15.201586723327637,-0.2759187221527099,-0.0,-0.0,-1.0,0.1371900999776417,1.0
4.519906997680664,15.462787628173828,-0.1988008022308349,-0.0,-0.0,-1.0,0.1513066181249011,1.0
4.47027587890625,15.060091972351074,-0.2544856071472168,-0.0,-0.0,-1.0,0.1490873777274835,1.0
4.616954803466797,14.877002716064451,-0.2601301670074463,-0.0,-0.0,-1.0,0.0711709601066177,1.0
4.8109130859375,15.632054328918455,-0.1423890590667724,-0.0,-0.0,-1.0,0.1175161824949399,2.0
4.902364730834961,14.7522611618042,-0.2431414127349853,0.4563440450899717,-0.2845033163290711,-0.8430942862507622,0.0739667715363262,3.0
5.125583648681641,14.573564529418944,-0.2414135932922363,-0.0,-0.0,-1.0,0.0875784393387387,1.0
5.288220405578613,14.37416648864746,-0.2505018711090088,-0.6617687967235469,0.4927715866537215,-0.5650117017105425,0.1921266542113036,4.0
5.434926986694336,14.124631881713867,-0.2693407535552978,-0.0,-0.0,-1.0,0.1022931421045181,2.0
5.55689811706543,13.7865571975708,-0.3045442104339599,-0.0,-0.0,-1.0,0.1256951746967411,1.0
4.445734024047852,13.746222496032717,0.1430954933166504,-0.0,-0.0,-1.0,0.0794766982388539,2.0
4.56077766418457,13.665847778320312,0.1438286304473877,-0.0,-0.0,-1.0,0.0808671526157992,1.0
4.915645599365234,13.815362930297852,0.1901650428771972,-0.0,-0.0,-1.0,0.1678932747431686,1.0
4.978589057922363,13.637739181518556,0.1749868392944336,-0.0,-0.0,-1.0,0.112018285381288,2.0
5.427867889404297,15.400300979614258,-0.3778939247131347,-0.0,-0.0,-1.0,0.1630311895614781,2.0
5.683330535888672,14.951472282409668,-0.4030530452728271,-0.0,-0.0,-1.0,0.0737313629830176,1.0
4.04007625579834,14.95261001586914,-0.1034908294677734,-0.0,-0.0,-1.0,0.0470105296841772,2.0
4.256962776184082,14.697257995605469,-0.1047136783599853,-0.0,-0.0,-1.0,0.1642343740084407,2.0
4.477717399597168,14.584896087646484,-0.090836763381958,-0.0,-0.0,-1.0,0.0392406251719344,1.0
4.6785478591918945,14.288273811340332,-0.1017911434173584,-0.0,-0.0,-1.0,0.1381720193069651,1.0
4.922650337219238,14.092455863952637,-0.097285509109497,-0.0,-0.0,-1.0,0.1592241144557176,1.0
4.932493209838867,14.163795471191406,-0.0874898433685302,-0.0,-0.0,-1.0,0.1307288189122599,2.0
5.065038681030273,13.9443359375,-0.0997178554534912,-0.0,-0.0,-1.0,0.170025172580497,1.0
5.67243766784668,15.383991241455078,-0.3439717292785644,-0.0,-0.0,-1.0,0.1688078592988501,1.0
4.888880729675293,15.456619262695312,-0.332754373550415,-0.0504498460019333,0.9884088347920932,-0.1431879476189159,0.1245764368515318,4.0
5.104133605957031,15.060068130493164,-0.341538667678833,-0.0,-0.0,-1.0,0.1039238135425796,2.0
5.152121543884277,15.207000732421877,-0.316967248916626,-0.8041947475745618,-0.5863488209815333,0.0972926929787274,0.1117283942422868,3.0
5.267351150512695,14.926629066467283,-0.3309583663940429,-0.0,-0.0,-1.0,0.1543544873649542,2.0
5.446737289428711,14.684396743774414,-0.3317887783050537,-0.0,-0.0,-1.0,0.0479271128369699,1.0
5.582098960876465,14.22836685180664,-0.3686680793762207,-0.0,-0.0,-1.0,0.0905273435386599,2.0
3.923537254333496,14.77666473388672,-0.027963638305664,-0.0,-0.0,-1.0,0.2398688045319393,2.0
4.163734436035156,14.71616268157959,-0.0011548995971679,0.8958702552830277,0.4062323525506255,-0.179977113657007,0.2017968342291433,3.0
4.331935882568359,14.360466957092283,-0.0126011371612548,-0.0,-0.0,-1.0,0.1642934852277481,2.0
4.504805564880371,13.899638175964355,-0.0365741252899169,0.078072431858859,0.9770768327735548,0.198054432520059,0.0346856431625937,3.0
4.583054542541504,14.29949188232422,0.0139555931091308,0.8156808540446038,0.5306160309300935,0.2304590463944947,0.1305101453401405,4.0
4.770783424377441,13.999929428100586,0.0071520805358886,-0.0,-0.0,-1.0,0.0736784945612083,2.0
5.016749382019043,13.672333717346191,0.0027000904083251,-0.7245596246275346,-0.5200726064130599,-0.4522585924206777,0.1292017978692665,3.0
5.202139854431152,13.664915084838867,0.0243082046508789,-0.2238165391243472,0.942947780399648,0.2464865924422195,0.1169849573686813,4.0
5.113857269287109,15.41549301147461,-0.2999780178070068,-0.0,-0.0,-1.0,0.0582732100705988,1.0
4.138009071350098,15.547757148742676,-0.3940644264221191,-0.7819590455478715,0.5463700256479007,-0.3000330751090194,0.1250376875086564,3.0
4.533530235290527,15.497289657592772,-0.3338851928710937,-0.0,-0.0,-1.0,0.1640239061687097,1.0
4.705939292907715,15.397756576538086,-0.3164770603179931,-0.0,-0.0,-1.0,0.1251204457628001,1.0
4.839364051818848,15.130430221557615,-0.3252789974212646,-0.0,-0.0,-1.0,0.0780600820419342,1.0
5.043046951293945,14.81684684753418,-0.3304407596588135,-0.0245118676818581,-0.0234069135933897,-0.9994254773312408,0.0940515032662509,3.0
5.683801651000977,13.858024597167969,-0.3600208759307861,-0.0,-0.0,-1.0,0.1256450710695718,1.0
3.9215803146362305,14.796310424804688,0.017571210861206,-0.0253597937056049,0.9967927136176692,0.0759023513597054,0.176721109819552,5.0
3.9604616165161137,14.730981826782228,0.0162491798400878,0.7976620079914597,-0.265520233760276,-0.5415111508278672,0.1743415141875274,3.0
4.094381332397461,14.172455787658691,-0.0236022472381591,-0.0,-0.0,-1.0,0.0593520733554037,2.0
4.058777809143066,13.704641342163086,-0.0787408351898193,-0.0,-0.0,-1.0,0.0790302959469903,1.0
4.127628326416016,14.67747688293457,0.0325002670288085,-0.0940241197723198,0.8279160716802412,-0.5529144989549452,0.2312953606904922,5.0
4.339468955993652,14.399641036987305,0.0310709476470947,-0.0,-0.0,-1.0,0.1883340839512527,2.0
4.46110725402832,13.781200408935549,-0.0211882591247558,-0.0,-0.0,-1.0,0.1451193919194833,2.0
4.872772216796875,13.79531478881836,0.0299720764160156,-0.0,-0.0,-1.0,0.1837369900874802,2.0
4.833963394165039,15.357383728027344,-0.3001112937927246,-0.4562413696094566,-0.1968302546036567,-0.8678143024458327,0.180674425813622,3.0
5.138699531555176,14.836584091186523,-0.312793493270874,-0.0,-0.0,-1.0,0.0842371717364989,1.0
5.304906845092773,15.13619613647461,-0.2501664161682129,-0.0,-0.0,-1.0,0.1601378416543385,2.0
5.2938432693481445,14.870180130004885,-0.2844765186309814,-0.0,-0.0,-1.0,0.1447232631682491,2.0
5.351445198059082,14.53830909729004,-0.3175368309020996,-0.0,-0.0,-1.0,0.1953179776065918,1.0
5.481771469116211,14.20869255065918,-0.3412983417510986,-0.0,-0.0,-1.0,0.0988982271332667,2.0
3.7598628997802734,14.94422721862793,-0.0742278099060058,-0.0,-0.0,-1.0,0.0702390453692763,2.0
3.861021041870117,14.798032760620115,-0.0713670253753662,0.3402188258309087,0.7552242946444111,-0.5602565620580356,0.2161114920975315,4.0
4.092581748962402,14.844325065612791,-0.0333759784698486,-0.0,-0.0,-1.0,0.1361857060142631,1.0
4.220869064331055,14.63507080078125,-0.0328896045684814,0.4629884019024034,0.7513993476616666,-0.4701497208735535,0.2217733401289627,5.0
4.281508445739746,14.352581024169922,-0.0497498512268066,0.9677376419439097,-0.2248881148732965,0.1136186259095602,0.1066045197119504,4.0
4.5460052490234375,14.182455062866213,-0.028214693069458,0.5555513704797376,0.7377060401421357,-0.3836045790861929,0.1489433225399072,4.0
4.660150527954102,14.096349716186523,-0.0204806327819824,-0.0,-0.0,-1.0,0.091742362111029,1.0
5.031429290771484,15.45424747467041,-0.3182671070098877,-0.0,-0.0,-1.0,0.0717686896237728,2.0
5.1082763671875,15.117530822753906,-0.3379178047180176,-0.0,-0.0,-1.0,0.1030749684193423,2.0
5.176031112670898,15.575387954711914,-0.280529260635376,0.3677452884578619,0.1898325256310735,-0.9103444485630544,0.0514163910211915,4.0
5.181713104248047,15.152042388916016,-0.3213341236114502,-0.0,-0.0,-1.0,0.1499766778182445,2.0
5.335175514221191,14.90305519104004,-0.3203752040863037,-0.0,-0.0,-1.0,0.156476250849643,2.0
5.511747360229492,14.389638900756836,-0.3476531505584717,-0.0,-0.0,-1.0,0.0772754100552983,1.0
5.642617225646973,14.10425853729248,-0.3597793579101562,0.8300552824499435,0.4312868683430601,-0.3535532000587477,0.1357465555245527,3.0
4.5978498458862305,14.279024124145508,-0.0115091800689697,0.8972977704830404,0.3066553837694827,0.3175203720887152,0.1197270591144519,5.0
4.746590614318848,14.060834884643556,-0.0118844509124755,-0.0,-0.0,-1.0,0.0982063787402236,2.0
4.946793556213379,13.944246292114258,0.0041353702545166,-0.0353020554404917,-0.5441858685910512,-0.8382216325695011,0.0966980201683528,4.0
5.246364593505859,13.674121856689451,0.0167157649993896,-0.0,-0.0,-1.0,0.1797623568934857,2.0
3.7683496475219727,13.676666259765623,-0.1047577857971191,-0.0,-0.0,-1.0,0.1100026734928846,2.0
3.9043922424316406,14.84853744506836,-0.0146987438201904,-0.0,-0.0,-1.0,0.1769239464059964,2.0
4.0923662185668945,14.230789184570312,-0.0184977054595947,-0.0,-0.0,-1.0,0.1246832750609926,1.0
4.129402160644531,13.759815216064451,-0.0431668758392334,-0.0,-0.0,-1.0,0.0669269880421939,1.0
4.260406494140625,14.600141525268556,0.0294156074523925,-0.0,-0.0,-1.0,0.1502220734470016,2.0
4.314639091491699,13.770883560180664,-0.0139095783233642,-0.0,-0.0,-1.0,0.093215860014444,1.0
4.78787899017334,13.773111343383787,0.0588095188140869,-0.1955224251325645,-0.2915989595763675,-0.936344502864336,0.1862516027108739,5.0
4.929847717285156,13.759642601013184,0.0794060230255127,-0.0,-0.0,-1.0,0.1982297071616997,1.0
4.026108741760254,15.363189697265623,-0.2152268886566162,-0.0498334411322014,-0.1636097504373286,-0.9852656888914572,0.1608670905040582,3.0
4.260851860046387,15.003780364990234,-0.1853103637695312,-0.8436162102403543,-0.3447095852788774,0.41168797849411,0.1039383568774338,3.0
4.382739067077637,15.318408966064451,-0.1520698070526123,-0.0,-0.0,-1.0,0.1573203126566211,1.0
4.342650413513184,15.006629943847656,-0.1706819534301757,-0.0,-0.0,-1.0,0.1642043946858179,1.0
4.569887161254883,14.658958435058594,-0.1449651718139648,-0.0,-0.0,-1.0,0.0817477464997958,2.0
4.434841156005859,15.287331581115724,-0.1437227725982666,0.7775602198599292,-0.3423447728476945,-0.5274468323871507,0.1285041103387112,3.0
4.674868583679199,14.637374877929688,-0.12736177444458,-0.0,-0.0,-1.0,0.1736782456080109,2.0
4.819025039672852,14.343814849853516,-0.1169862747192382,-0.0,-0.0,-1.0,0.0814817796619097,1.0
5.040030479431152,14.064708709716797,-0.0944819450378418,-0.2451183771174944,0.0577599298466062,-0.9677710326845916,0.2186291098738828,5.0
5.245523452758789,13.674726486206056,-0.0843474864959716,-0.0,-0.0,-1.0,0.1650253649267618,1.0
4.842799186706543,15.618159294128418,-0.0593328475952148,0.0554510335592739,0.2362231981517596,-0.9701153454781358,0.1507021796198425,3.0
5.195045471191406,13.935352325439451,-0.0758943557739257,0.8436865919764749,-0.4754203941671586,0.2493358845594933,0.2567433045730538,4.0
5.352312088012695,13.65253734588623,-0.0680294036865234,-0.0610621004383475,0.9979124503556238,-0.0210276321846257,0.1267216713875956,4.0
4.052371978759766,15.425942420959473,-0.2970960140228271,-0.0,-0.0,-1.0,0.1888851090636848,1.0
4.324725151062012,15.06080436706543,-0.2500476837158203,-0.0,-0.0,-1.0,0.1948878773024799,1.0
4.551567077636719,14.756595611572266,-0.2134888172149658,-0.0,-0.0,-1.0,0.0670651144919969,1.0
4.789244651794434,14.460969924926758,-0.1772081851959228,-0.0,-0.0,-1.0,0.0407321873912907,2.0
4.911985397338867,14.23077392578125,-0.1618640422821045,-0.0,-0.0,-1.0,0.0627227739422307,2.0
5.0709733963012695,14.123746871948242,-0.1368515491485595,-0.0,-0.0,-1.0,0.1219611903838815,1.0
5.215502738952637,13.797691345214844,-0.1238949298858642,0.7398443761522546,0.6565116956247006,-0.1470465660389995,0.1926688188570408,4.0
4.809526443481445,15.501291275024414,-0.1532013416290283,-0.0,-0.0,-1.0,0.1715044962030726,2.0
4.552332878112793,14.843976020812988,-0.2783362865447998,-0.5884316618048293,-0.2135357347655474,-0.7798401562908549,0.0605502471834031,4.0
4.73294734954834,14.68077278137207,-0.2457726001739502,-0.0,-0.0,-1.0,0.0662591289102478,1.0
5.066780090332031,14.303874969482422,-0.1891486644744873,-0.0,-0.0,-1.0,0.045849561394942,1.0
5.244712829589844,13.929231643676758,-0.1648776531219482,-0.0,-0.0,-1.0,0.2138017411678744,2.0
5.388157844543457,13.691289901733398,-0.1453793048858642,-0.0,-0.0,-1.0,0.1798530014467085,1.0
3.941591262817383,15.595414161682127,-0.3955495357513428,-0.0,-0.0,-1.0,0.1511324335035613,2.0
4.380677223205566,15.347023010253906,-0.3102669715881347,-0.0,-0.0,-1.0,0.1288322369715206,1.0
4.508772850036621,15.035494804382324,-0.285768985748291,-0.0,-0.0,-1.0,0.0935122003036997,1.0
4.879735946655273,14.61630153656006,-0.2191946506500244,-0.0,-0.0,-1.0,0.026527694141646,2.0
5.649538993835449,14.319058418273926,-0.4088006019592285,-0.0,-0.0,-1.0,0.0537255321730394,1.0
5.4461212158203125,14.978883743286133,-0.441788911819458,-0.0,-0.0,-1.0,0.1373813295170325,1.0
5.594447135925293,15.511504173278809,-0.4113380908966064,-0.0,-0.0,-1.0,0.1819774126656464,2.0
5.596385955810547,15.297218322753906,-0.4104290008544922,-0.0,-0.0,-1.0,0.1572470722445797,1.0
4.8781938552856445,13.812679290771484,-0.040351390838623,-0.0,-0.0,-1.0,0.152817053182817,2.0
4.278977394104004,14.694272994995115,-0.1330480575561523,-0.0,-0.0,-1.0,0.0774186935300066,2.0
4.554142951965332,14.36412239074707,-0.0882213115692138,-0.0,-0.0,-1.0,0.0827741151625908,2.0
4.786216735839844,14.02635097503662,-0.0527629852294921,-0.0,-0.0,-1.0,0.1278062629437194,1.0
5.112482070922852,13.721763610839844,-0.0036311149597167,-0.0,-0.0,-1.0,0.1675625436981378,1.0
4.1690826416015625,14.96255874633789,-0.152048110961914,-0.4592993656378299,-0.599369686300339,-0.6555913909356351,0.0811743079590111,3.0
4.276802062988281,14.876123428344728,-0.1336922645568847,0.0902109409637039,0.2828814117613882,-0.954903185150373,0.0754000080954609,3.0
4.575018882751465,14.621949195861816,-0.0837318897247314,-0.0,-0.0,-1.0,0.1053556953916561,1.0
5.261936187744141,15.322463989257812,-0.307914137840271,-0.0,-0.0,-1.0,0.0999957860949279,1.0
5.478294372558594,13.981412887573242,-0.3048440217971802,-0.0,-0.0,-1.0,0.1229791161545115,2.0
4.243873596191406,14.805049896240234,0.014707326889038,-0.0,-0.0,-1.0,0.0938715108616833,1.0
4.802696228027344,14.291544914245604,0.0358010530471801,-0.0,-0.0,-1.0,0.0951211437880831,1.0
5.08062744140625,13.884657859802246,0.0477967262268066,-0.0,-0.0,-1.0,0.1951295822410918,2.0
4.096752166748047,13.671316146850586,0.0898715257644653,-0.0,-0.0,-1.0,0.0471468874187041,1.0
5.664447784423828,15.584293365478516,-0.4134879112243652,0.5465679585000388,0.4586607871609729,-0.700638101349032,0.1429114876541203,5.0
4.358440399169922,14.489571571350098,0.0133852958679199,-0.0,-0.0,-1.0,0.1576683359346424,1.0
4.1606292724609375,14.730448722839355,0.0156340599060058,0.5819546295692967,0.6693130681615116,-0.461896986254605,0.2017968342291434,3.0
5.280769348144531,13.829325675964355,0.0212039947509765,0.8177165965360463,0.309727888858005,-0.4851888319129655,0.2351020540822251,3.0
5.002445220947266,14.06554889678955,0.0203529596328735,-0.0,-0.0,-1.0,0.1911927438192111,2.0
4.595874786376953,14.24534511566162,0.0124467611312866,0.0728806265947398,-0.5795344541313092,-0.8116823459592327,0.1235061606279128,4.0
5.556972503662109,14.747397422790527,-0.3063384294509887,-0.6713238989406993,0.2799789456170332,-0.6862477779360979,0.044982306389125,3.0
5.178783416748047,15.096471786499023,-0.3155573606491089,-0.0,-0.0,-1.0,0.1353274888778427,2.0
5.444866180419922,14.46127986907959,-0.3200756311416626,-0.0,-0.0,-1.0,0.1681762008525872,2.0
5.595264434814453,14.119301795959473,-0.322231650352478,-0.0,-0.0,-1.0,0.1403824066853926,1.0
4.413661956787109,14.52393627166748,-0.0535097122192382,-0.0,-0.0,-1.0,0.0893982537041543,1.0
4.147621154785156,14.694973945617676,-0.0607638359069824,-0.0,-0.0,-1.0,0.255921767300292,2.0
3.849655151367187,14.92719554901123,-0.0679988861083984,-0.0,-0.0,-1.0,0.0776257637510458,2.0
5.33465576171875,13.701211929321287,-0.0338129997253418,0.0488127904016003,0.2294089716157933,-0.9721053622089498,0.1382222705160893,3.0
5.1878204345703125,13.918623924255373,-0.0349524021148681,0.6679726638981885,-0.6111575308965074,-0.4246162887987725,0.2089884764623543,5.0
4.788551330566406,14.13034439086914,-0.0467820167541503,0.2289276247239569,-0.3353066713230251,-0.9138717518363936,0.1520132495530663,3.0
4.4936065673828125,14.295812606811523,-0.0553338527679443,-0.0,-0.0,-1.0,0.1424044420619044,2.0
4.2666473388671875,14.436634063720703,0.1208528280258178,-0.0,-0.0,-1.0,0.12497571992308,1.0
5.01173210144043,13.693062782287598,0.1258878707885742,-0.0,-0.0,-1.0,0.1416563419688238,2.0
5.663902282714844,15.547194480895996,-0.4402183294296264,0.4522799559772362,0.5284001811492063,-0.7184957132667632,0.1446645585109431,4.0
5.11915397644043,15.572888374328612,-0.2431977987289428,-0.0,-0.0,-1.0,0.1157739062431933,1.0
4.703672409057617,15.46272087097168,-0.270067811012268,-0.0,-0.0,-1.0,0.1779279954834004,2.0
5.147239685058594,14.94118881225586,-0.2644864320755005,-0.0,-0.0,-1.0,0.1320692966908229,2.0
5.311531066894531,14.557244300842283,-0.2694336175918579,-0.0,-0.0,-1.0,0.2139421355685535,1.0
5.24439811706543,14.70060920715332,-0.2678934335708618,-0.0,-0.0,-1.0,0.0776162301245087,2.0
5.552364349365234,14.08527946472168,-0.2735049724578857,-0.0,-0.0,-1.0,0.1318648725596733,1.0
5.389154434204102,14.220393180847168,-0.2775171995162964,-0.0,-0.0,-1.0,0.1094648507874815,2.0
4.203699111938477,14.57682991027832,0.090527057647705,-0.3670418402775462,0.8294846610601934,0.4209934495351779,0.1688422598369547,4.0
4.961374282836914,13.70287036895752,0.240374207496643,-0.1084361805579727,0.8924004474201112,-0.4380217302718937,0.1567297723299263,3.0
5.545097351074219,15.413419723510742,-0.256172776222229,-0.0,-0.0,-1.0,0.1252225988079796,2.0
5.169673919677734,15.599825859069824,-0.2755459547042846,0.1306777356573677,-0.3022072560281834,-0.9442426085532144,0.1153318444111117,4.0
4.869211196899414,15.463534355163574,-0.2985574007034302,-0.6922937224358485,-0.6722743700180566,-0.2622528804279203,0.1524597378009117,3.0
5.058080673217773,15.222334861755373,-0.2927805185317993,-0.0,-0.0,-1.0,0.0673130444591013,1.0
5.377168655395508,14.57732391357422,-0.290014386177063,-0.0,-0.0,-1.0,0.2137969697375452,2.0
5.630023956298828,14.101609230041504,-0.2874771356582641,-0.0,-0.0,-1.0,0.1303471055001314,2.0
5.400421142578125,14.299569129943848,-0.2964957952499389,-0.0,-0.0,-1.0,0.1130008656084449,2.0
5.587398529052734,14.014713287353516,-0.2927957773208618,-0.0,-0.0,-1.0,0.1359318991559384,1.0
4.789302825927734,15.592390060424805,-0.1223264932632446,-0.0,-0.0,-1.0,0.1152151257120595,2.0
3.714519500732422,15.626543045043944,-0.1847574710845947,-0.0,-0.0,-1.0,0.1883519823486599,1.0
4.329366683959961,15.204668045043944,-0.1621209383010864,-0.0,-0.0,-1.0,0.2234892527043497,2.0
4.625396728515625,14.653956413269045,-0.1631321907043457,-0.0,-0.0,-1.0,0.1117653965843613,2.0
4.388166427612305,14.839590072631836,-0.1708189249038696,-0.0,-0.0,-1.0,0.0473918368317261,1.0
5.355321884155273,14.52197551727295,-0.1246532201766967,-0.0,-0.0,-1.0,0.1953477003801995,2.0
5.184482574462891,14.265156745910645,-0.1437025070190429,-0.0,-0.0,-1.0,0.0645145304670112,2.0
5.361412048339844,13.851524353027344,-0.1480640172958374,-0.0,-0.0,-1.0,0.1741152896895353,2.0
5.181802749633789,14.027181625366213,-0.1522911787033081,-0.0,-0.0,-1.0,0.1946691778474965,1.0
4.196897506713867,14.556745529174805,0.0974723100662231,-0.8553582874753398,0.4220926522962649,0.3003331365746349,0.1791552564892782,4.0
5.0354461669921875,13.799030303955078,0.0930829048156738,-0.0,-0.0,-1.0,0.2320629403817195,2.0
4.937482833862305,13.708218574523926,0.0832830667495727,-0.2659488138813494,-0.3902586484128706,-0.8814586863455725,0.221150772233548,3.0
4.022914886474609,13.743204116821287,0.0430916547775268,-0.0,-0.0,-1.0,0.0912171019871656,2.0
4.182197570800781,14.636137008666992,0.097033143043518,-0.2929016594337537,0.9554574046175716,0.0361906875094579,0.0897379274460572,4.0
5.031650543212891,13.846071243286133,0.0899806022644043,-0.0,-0.0,-1.0,0.139808207118094,2.0
4.057939529418945,13.787364959716797,0.0388410091400146,-0.0,-0.0,-1.0,0.0794433813931108,1.0
5.098537445068359,13.662128448486328,0.0816717147827148,-0.5470813283400378,0.8000478086699327,-0.2462225091744033,0.099882720864063,3.0
4.974905014038086,13.69521713256836,0.0777485370635986,-0.1449527066983495,0.0039677815071725,-0.9894306289633112,0.1587806443301029,3.0
4.362789154052734,15.506143569946287,-0.2445676326751709,0.1851837880595525,0.9721039535289,-0.143947449346614,0.2187045742794182,3.0
4.812496185302734,15.284703254699709,-0.2215527296066284,0.3524425788584691,0.2941563419928084,-0.888400965258932,0.2930956322326186,3.0
4.609247207641602,15.203339576721191,-0.2399839162826538,-0.0,-0.0,-1.0,0.0878543721118862,1.0
5.362489700317383,15.117719650268556,-0.188934326171875,-0.0,-0.0,-1.0,0.2245559800904953,2.0
4.931049346923828,14.777414321899414,-0.2361031770706176,0.4563440450899717,-0.2845033163290711,-0.8430942862507622,0.0967515359351489,3.0
4.530923843383789,14.84780979156494,-0.2619472742080688,-0.5930471757761632,-0.4459702852806497,-0.6703771714121927,0.0495116216291066,3.0
5.154855728149414,14.525800704956056,-0.2317928075790405,-0.0,-0.0,-1.0,0.120767133425155,2.0
5.41644287109375,14.178847312927246,-0.2298067808151245,-0.0,-0.0,-1.0,0.1174623850502604,1.0
5.334480285644531,14.238439559936523,-0.2327929735183715,-0.0,-0.0,-1.0,0.0843679733941613,2.0
5.481557846069336,13.987295150756836,-0.2346889972686767,-0.0,-0.0,-1.0,0.1257839665290115,2.0
4.370563507080078,15.5770263671875,-0.1805922985076904,-0.0,-0.0,-1.0,0.1413788444638585,1.0
3.8599929809570312,15.49970531463623,-0.2212805747985839,-0.0,-0.0,-1.0,0.1674273409891577,1.0
4.147462844848633,15.239341735839844,-0.2073442935943603,-0.0,-0.0,-1.0,0.0993979510866454,1.0
4.326519012451172,14.914137840270996,-0.2039227485656738,-0.0,-0.0,-1.0,0.0632708641305504,1.0
4.6453704833984375,14.703280448913574,-0.1867235898971557,-0.0,-0.0,-1.0,0.1022655906659191,1.0
5.165397644042969,14.3236083984375,-0.1605019569396972,-0.0,-0.0,-1.0,0.0672182815013376,2.0
5.262533187866211,13.916926383972168,-0.1677432060241699,-0.0,-0.0,-1.0,0.215410299892954,2.0
5.171857833862305,13.906524658203123,-0.1749438047409057,-0.0,-0.0,-1.0,0.1306147700518027,1.0
5.251579284667969,14.523927688598633,-0.1471579074859619,-0.0,-0.0,-1.0,0.1978497186556797,2.0
5.421928405761719,13.93397331237793,-0.1551810503005981,-0.0,-0.0,-1.0,0.1977537086711494,1.0
5.690984725952148,15.620824813842772,-0.4585053920745849,-0.0,-0.0,-1.0,0.1429114876541203,1.0
4.212671279907227,14.639141082763672,0.0008654594421386,-0.0,-0.0,-1.0,0.1989716018570796,2.0
4.022430419921875,14.632640838623049,-0.0122283697128295,-0.0,-0.0,-1.0,0.1637799245184848,2.0
4.51655387878418,14.311540603637695,0.0088714361190795,0.8609122738337275,0.3403638499932438,-0.3781302769948707,0.1493495463578274,4.0
4.713247299194336,14.20042610168457,0.0176876783370971,-0.0,-0.0,-1.0,0.1180366174564552,1.0
4.453948974609375,13.86887550354004,-0.0133568048477172,-0.5847516316524307,0.6315642287374362,0.5091091771507433,0.1078419608378163,5.0
5.261226654052734,14.00172996520996,0.0463782548904418,-0.0,-0.0,-1.0,0.20650275891449,1.0
4.942331314086914,13.726414680480955,0.0132418870925903,-0.0,-0.0,-1.0,0.2060112745118414,1.0
4.133609771728516,15.563024520874023,-0.2516462802886963,-0.0,-0.0,-1.0,0.2537089614527693,2.0
4.017034530639648,15.26087760925293,-0.2756580114364624,-0.0,-0.0,-1.0,0.2196159258399292,1.0
4.825933456420898,15.32823657989502,-0.2018077373504638,-0.0,-0.0,-1.0,0.2446125474041516,2.0
4.487022399902344,15.396259307861328,-0.2282991409301757,-0.0,-0.0,-1.0,0.2106256838502669,1.0
4.7302703857421875,14.974543571472168,-0.2269713878631591,-0.0,-0.0,-1.0,0.1805092284206219,1.0
4.512855529785156,14.85659122467041,-0.2518050670623779,-0.5930471757761632,-0.4459702852806497,-0.6703771714121927,0.0495116216291066,3.0
5.431251525878906,14.853028297424316,-0.1716381311416626,-0.0,-0.0,-1.0,0.0886596619671955,1.0
5.025949478149414,14.509933471679688,-0.2245625257492065,-0.0,-0.0,-1.0,0.0318352846282961,1.0
5.323965072631836,14.342997550964355,-0.2073177099227905,-0.0,-0.0,-1.0,0.1538375235104365,2.0
5.412313461303711,14.088704109191896,-0.2134385108947754,-0.0,-0.0,-1.0,0.0901086669683282,1.0
5.435663223266602,13.91777515411377,-0.2209600210189819,-0.0,-0.0,-1.0,0.163681707196432,1.0
5.697933197021484,14.551234245300291,-0.359942078590393,-0.0,-0.0,-1.0,0.0228010962791324,1.0
5.4686431884765625,14.29261875152588,-0.3919923305511474,-0.0,-0.0,-1.0,0.0692041320589301,1.0
5.66181755065918,14.055843353271484,-0.3791896104812622,-0.0,-0.0,-1.0,0.1348655377006105,2.0
4.108737945556641,14.478108406066896,0.0705814361572265,-0.0,-0.0,-1.0,0.1070175650670115,1.0
4.303483963012695,14.18490505218506,0.0751816034317016,-0.0,-0.0,-1.0,0.0734478865245168,2.0
5.455635070800781,15.544600486755373,-0.3320659399032593,-0.0,-0.0,-1.0,0.1607131022445534,1.0
5.132869720458984,15.226566314697266,-0.3581826686859131,-0.0,-0.0,-1.0,0.0587809658265382,2.0
5.21367073059082,15.051725387573242,-0.3465207815170288,-0.0,-0.0,-1.0,0.1498367179193687,2.0
5.069401741027832,14.72691249847412,-0.3561756610870361,-0.0,-0.0,-1.0,0.0532637365328998,1.0
5.305864334106445,14.212714195251465,-0.325384259223938,-0.0,-0.0,-1.0,0.0885879586060778,1.0
5.394344329833984,13.914401054382324,-0.3136826753616333,-0.0,-0.0,-1.0,0.1518747172525437,1.0
5.485883712768555,13.910755157470703,-0.3041779994964599,-0.0,-0.0,-1.0,0.1186512891267033,1.0
4.41552734375,15.137434005737305,-0.3195050954818725,-0.0,-0.0,-1.0,0.212843432525822,1.0
4.767887115478516,15.505449295043944,-0.288736343383789,-0.0,-0.0,-1.0,0.1952155047966813,2.0
4.698740005493164,15.09259033203125,-0.2916891574859619,-0.0,-0.0,-1.0,0.0834293054021084,2.0
5.427855491638184,15.20387363433838,-0.221640944480896,-0.0,-0.0,-1.0,0.1822262538379183,1.0
4.999049186706543,14.783201217651367,-0.2603069543838501,-0.0,-0.0,-1.0,0.1206176645011737,1.0
4.984559059143066,14.705530166625977,-0.2614026069641113,0.0396787823690327,-0.9494004660462988,-0.3115515194968271,0.0937413000680617,4.0
5.377691268920898,14.533944129943848,-0.222247838973999,-0.0,-0.0,-1.0,0.2411645050150579,1.0
5.257635116577148,14.34548568725586,-0.2339658737182617,-0.0,-0.0,-1.0,0.129692949540706,2.0
5.456423759460449,14.058162689208984,-0.2147707939147949,-0.0,-0.0,-1.0,0.0970246549420442,2.0
5.43255615234375,13.832390785217283,-0.2183053493499755,-0.0,-0.0,-1.0,0.2089551470374645,2.0
3.8700218200683594,13.64480972290039,0.1958009004592895,-0.0,-0.0,-1.0,0.0919124132989895,1.0
5.1289567947387695,15.038122177124023,-0.3628679513931274,0.0112453982142364,0.7034278096395961,-0.710677745285895,0.1152532225409762,3.0
5.035730361938477,14.904614448547363,-0.3551760911941528,-0.0,-0.0,-1.0,0.0738545167633119,2.0
5.378202438354492,15.445306777954102,-0.3909814357757568,0.804168232785048,-0.4080706355813262,-0.4321941806128645,0.1317052815466938,3.0
5.304887771606445,15.16365909576416,-0.3634079694747925,-0.0,-0.0,-1.0,0.1801261783121616,2.0
5.147649765014648,14.71898078918457,-0.3252577781677246,-0.0,-0.0,-1.0,0.0685348520902148,2.0
5.312519073486328,14.372174263000488,-0.2739418745040893,-0.6675629887841352,-0.3382876002169267,-0.6632655241643916,0.1742192382530313,3.0
5.23516845703125,13.931060791015623,-0.2344105243682861,-0.0,-0.0,-1.0,0.1093562830046007,2.0
5.415157318115234,14.35285758972168,-0.2633544206619262,-0.0,-0.0,-1.0,0.1282121402658105,2.0
5.4583024978637695,13.963418960571287,-0.219059944152832,-0.6231491737828585,0.0991189533838154,-0.7757967132527938,0.1304856498974701,3.0
4.376337051391602,15.121962547302246,-0.2902929782867431,-0.0,-0.0,-1.0,0.2239516318970272,2.0
4.8038225173950195,15.531489372253418,-0.2782454490661621,-0.0,-0.0,-1.0,0.1310423585335177,2.0
4.731311798095703,15.031205177307127,-0.2536683082580566,-0.0,-0.0,-1.0,0.1823806053668037,1.0
4.943169593811035,14.743852615356444,-0.2182173728942871,0.4563440450899717,-0.2845033163290711,-0.8430942862507622,0.0896922251904993,3.0
5.194456100463867,15.06984519958496,-0.2152376174926757,-0.0,-0.0,-1.0,0.1099822864165807,1.0
4.979883193969727,14.698999404907228,-0.2123889923095703,-0.0,-0.0,-1.0,0.0878217993195211,2.0
5.181967735290527,14.284679412841797,-0.1717140674591064,-0.9240736633565524,-0.3474760039299431,-0.1592114675005511,0.0647793933993608,3.0
5.13356876373291,13.8276948928833,-0.1529281139373779,0.6292983656930852,0.1982380367935078,0.7514554196386288,0.1049610970941916,5.0
5.367214202880859,14.452093124389648,-0.1641411781311035,-0.0,-0.0,-1.0,0.1640070001695532,2.0
5.356200218200684,13.83675479888916,-0.1332510709762573,-0.0,-0.0,-1.0,0.1552849387329319,2.0
4.985608100891113,15.459118843078612,-0.2895213365554809,-0.0,-0.0,-1.0,0.0999862530372839,1.0
5.063258171081543,14.94252586364746,-0.2528848648071289,-0.0,-0.0,-1.0,0.1422877133922519,1.0
5.111721038818359,14.649412155151367,-0.2327630519866943,-0.0,-0.0,-1.0,0.097920713698219,1.0
5.32452392578125,14.27405834197998,-0.1939915418624878,-0.0,-0.0,-1.0,0.1020982685728629,1.0
5.23875617980957,13.803260803222656,-0.1804244518280029,0.8392042217907618,0.2280631676749737,0.4936835683700831,0.1398628440008422,3.0
5.435919761657715,15.032569885253906,-0.2234324216842651,-0.0,-0.0,-1.0,0.1519590459701168,1.0
5.408102035522461,14.409578323364258,-0.1928019523620605,-0.0,-0.0,-1.0,0.2038746798551747,1.0
4.086485862731934,15.554282188415527,-0.2384359836578369,-0.0,-0.0,-1.0,0.1975891529226711,2.0
4.239960670471191,15.232742309570312,-0.2029383182525634,-0.0,-0.0,-1.0,0.1397256317263423,1.0
4.406647682189941,14.903244972229004,-0.1663243770599365,-0.9667831597495798,-0.2386522827026374,-0.0915172660509426,0.0544549560137866,3.0
4.679821968078613,14.508336067199709,-0.1175538301467895,-0.0,-0.0,-1.0,0.0307251695379186,1.0
4.5996246337890625,15.383636474609377,-0.1863001585006714,-0.0,-0.0,-1.0,0.2032172097267536,1.0
4.682522773742676,14.643194198608398,-0.1265815496444702,-0.0,-0.0,-1.0,0.1736782456080109,2.0
4.9703168869018555,14.230072021484377,-0.075951337814331,-0.0,-0.0,-1.0,0.0781429454757876,1.0
5.291882514953613,14.010321617126465,-0.0360838174819946,-0.0,-0.0,-1.0,0.2140525618414305,2.0
4.840803146362305,15.372258186340332,-0.1667996644973755,-0.0,-0.0,-1.0,0.1532834415570351,2.0
5.5157318115234375,13.734469413757324,-0.0005936622619628,0.8273840137017183,-0.3653520995946606,-0.4265601214279271,0.2324461650800316,3.0
5.695957183837891,15.430328369140623,-0.5246158838272095,-0.0,-0.0,-1.0,0.1664667469908838,2.0
4.295562744140625,14.277819633483888,0.0106880664825439,-0.0,-0.0,-1.0,0.1634553392876379,2.0
4.19696044921875,14.791175842285156,-0.0578024387359619,0.9138384519179472,0.3980686082393873,-0.0802537658341796,0.1842072575382051,4.0
4.483234405517578,14.460289001464844,-0.0412486791610717,-0.1403228602267779,0.7837254352997143,-0.6050487062725197,0.089866308677286,3.0
5.180133819580078,14.03326416015625,-0.0090863704681396,-0.0,-0.0,-1.0,0.238734182901127,1.0
5.202022552490234,13.911548614501951,-0.0059092044830322,0.5560292000248278,-0.4304022616610886,-0.7110453022675629,0.1652806957558793,4.0
5.41265869140625,13.735862731933594,0.0046795606613159,-0.5475820202858857,-0.5891752065451485,-0.5941603378315569,0.152959281655558,5.0
5.205066680908203,15.262483596801758,-0.3159550428390503,-0.0,-0.0,-1.0,0.1183487825979091,2.0
5.562934875488281,15.01930046081543,-0.2963978052139282,-0.0,-0.0,-1.0,0.1025494180277906,1.0
5.56146240234375,14.649372100830078,-0.289300799369812,-0.0,-0.0,-1.0,0.0655613056331735,1.0
4.872108459472656,15.13088607788086,-0.2177323102951049,-0.0,-0.0,-1.0,0.1225588437168323,1.0
4.991584777832031,14.758700370788574,-0.202579379081726,-0.0,-0.0,-1.0,0.1014900625324262,1.0
