x,y,z,nx,ny,nz,curvature,density
14.159817695617676,23.117124557495117,-1.3210101127624512,-0.0,-0.0,-1.0,0.0346986684692092,1.0
14.412726402282717,23.05554580688477,-1.3134095668792725,-0.0,-0.0,-1.0,0.1148466169111143,1.0
15.59820556640625,23.61283493041992,-1.3671668767929075,-0.8696686295635939,0.4846937610863475,-0.0935330568138936,0.1160772759065688,4.0
15.592720985412598,23.6170654296875,-1.3173555135726929,-0.0,-0.0,-1.0,0.1160772759065689,1.0
15.151105880737305,22.6734676361084,-0.816758394241333,-0.0,-0.0,-1.0,0.100553472672302,1.0
13.718700408935549,22.643421173095703,-1.1041767597198486,-0.0,-0.0,-1.0,0.1480935758746861,1.0
14.725584030151367,23.535099029541016,-1.3486790657043457,-0.0,-0.0,-1.0,0.1626943712603964,1.0
15.468978881835938,22.25232696533203,-1.3808696269989014,-0.0,-0.0,-1.0,0.0269235604618458,2.0
13.98369598388672,22.49467086791992,-1.3333053588867188,-0.0,-0.0,-1.0,0.0913462173122773,1.0
14.944222450256348,23.516422271728516,-1.1227912902832031,-0.1109870304824187,-0.64613029958844,-0.7551142397137316,0.2318144110673899,3.0
13.988012313842772,22.717697143554688,-1.2649133205413818,-0.0,-0.0,-1.0,0.0402455146145884,1.0
14.57752799987793,22.135875701904297,-0.8754122257232666,-0.0,-0.0,-1.0,0.2544507898924052,2.0
14.115497589111328,21.642513275146484,-1.3027043342590332,-0.0,-0.0,-1.0,0.0713067847816869,2.0
14.817508697509766,23.49640655517578,-1.119859218597412,-0.1907287977479909,-0.9335514641796696,0.3034867203645017,0.1403718097650036,3.0
15.468884468078612,23.1152400970459,-1.346942901611328,-0.0,-0.0,-1.0,0.0227902412341298,1.0
13.723566055297852,21.822471618652344,-1.2137055397033691,-0.0,-0.0,-1.0,0.1558590331247234,1.0
14.496895790100098,22.19468879699707,-1.2895197868347168,0.1462354695040552,0.6047301047827299,-0.7828899589523406,0.0588494760061064,3.0
13.91774559020996,22.58121681213379,-1.208261013031006,-0.0,-0.0,-1.0,0.1055848017021797,1.0
15.331626892089844,22.214271545410156,-1.3099212646484375,-0.0,-0.0,-1.0,0.0434017235217766,1.0
14.129095077514648,22.78839111328125,-1.2780227661132812,-0.0,-0.0,-1.0,0.029550331546051,1.0
14.08871078491211,22.087894439697266,-1.1795806884765625,-0.0,-0.0,-1.0,0.1168665511711641,2.0
14.757450103759766,22.02256965637207,-1.366713047027588,-0.0,-0.0,-1.0,0.0361391627851456,1.0
14.119180679321287,22.2700252532959,-1.14625883102417,-0.8597620759902641,0.4509081027163518,-0.2397729250638015,0.0894560644203107,3.0
14.43523406982422,22.471378326416016,-1.195204257965088,-0.772812175037121,-0.0237659162459815,-0.6341896588082963,0.0625053468549658,3.0
15.017091751098633,22.666568756103516,-1.2493069171905518,0.6646763623148151,-0.6774359946929012,-0.3150965034309083,0.2101788141838947,3.0
14.8634672164917,23.4798583984375,-1.3322269916534424,-0.0,-0.0,-1.0,0.2295651584022962,1.0
14.400039672851562,22.26435089111328,-1.297882080078125,-0.0,-0.0,-1.0,0.1017208960042212,2.0
14.902225494384766,22.274778366088867,-1.3821282386779783,-0.0,-0.0,-1.0,0.0824457338562009,1.0
13.72983455657959,22.651119232177734,-1.2402563095092771,-0.0,-0.0,-1.0,0.0677608231679698,1.0
14.00966453552246,22.40596389770508,-1.252859115600586,-0.0,-0.0,-1.0,0.1295056366678625,1.0
14.163471221923828,22.30733299255371,-1.2648191452026367,-0.0,-0.0,-1.0,0.1883238536227686,1.0
14.78419303894043,22.44593620300293,-1.3850398063659668,-0.0,-0.0,-1.0,0.0457316854937182,1.0
14.033051490783691,22.988611221313477,-1.334251880645752,-0.0,-0.0,-1.0,0.0626174498927601,1.0
14.1764497756958,23.048606872558594,-1.365431785583496,-0.0,-0.0,-1.0,0.0365754169839254,1.0
15.157465934753418,22.60636329650879,-0.7934789657592773,-0.0,-0.0,-1.0,0.1286970221625307,2.0
15.098896980285645,22.77098846435547,-1.3436527252197266,-0.0,-0.0,-1.0,0.1763331072933104,2.0
15.339468002319336,22.74140167236328,-1.3724298477172852,-0.0,-0.0,-1.0,0.0833609783227943,1.0
13.931682586669922,23.0822696685791,-1.2398834228515625,-0.7038371511197391,-0.6827304084663728,0.1961949389229728,0.0802228816710783,3.0
14.192160606384276,23.238740921020508,-1.3040122985839844,-0.0,-0.0,-1.0,0.0212433731872593,2.0
15.008455276489258,23.185298919677734,-1.4065322875976562,-0.1355963734616068,0.4297745856942915,-0.8926967172536037,0.0838071776153145,3.0
15.66890811920166,22.99021339416504,-1.4646286964416504,-0.0,-0.0,-1.0,0.0661750153799878,1.0
14.282100677490234,23.438127517700195,-1.353017807006836,-0.0,-0.0,-1.0,0.0317640831370743,1.0
14.206512451171877,22.4149227142334,-1.1540956497192385,-0.0,-0.0,-1.0,0.0962359505586927,2.0
14.440210342407228,22.502614974975582,-1.2024388313293457,-0.0,-0.0,-1.0,0.0483321276966244,2.0
15.493453979492188,23.442228317260746,-1.3559999465942385,-0.0,-0.0,-1.0,0.1178462265702759,2.0
14.14051342010498,23.47743797302246,-1.320359706878662,-0.3359030106162314,0.205032615781887,-0.9193099553059292,0.0335194422961345,3.0
14.661865234375,23.533206939697266,-1.3491415977478027,-0.0,-0.0,-1.0,0.1660916601095344,2.0
15.62201690673828,23.632572174072266,-1.405686855316162,-0.8696686295635939,0.4846937610863475,-0.0935330568138936,0.1125994777945812,4.0
14.919506072998049,22.68240547180176,-1.1555352210998535,-0.0,-0.0,-1.0,0.1423159744572333,1.0
15.06394100189209,22.83695411682129,-1.1972346305847168,-0.0,-0.0,-1.0,0.172698491692908,1.0
13.753952026367188,23.067161560058594,-1.2117762565612793,-0.0,-0.0,-1.0,0.05114575057716,2.0
14.85903549194336,23.045202255249023,-1.2394413948059082,-0.0,-0.0,-1.0,0.1235610089393385,2.0
13.922128677368164,23.18523597717285,-1.244473934173584,-0.0,-0.0,-1.0,0.0580507752888935,2.0
14.729843139648438,23.511497497558594,-1.162740707397461,-0.0,-0.0,-1.0,0.1222231531401409,1.0
14.923454284667969,22.73141288757324,-0.9948315620422364,-0.0,-0.0,-1.0,0.1719365802859081,1.0
14.984132766723633,22.598669052124023,-1.038628101348877,-0.7919098267339276,-0.1088921142581513,-0.6008505086746873,0.2390034224652342,3.0
14.760570526123049,23.43391227722168,-1.1983871459960938,0.0353737252985874,-0.989347013141021,-0.1412132683122975,0.2345956939186248,4.0
15.07033348083496,22.614971160888672,-1.353196620941162,-0.0,-0.0,-1.0,0.2350782491866027,2.0
15.349517822265623,22.801023483276367,-1.4035000801086426,-0.0,-0.0,-1.0,0.0661382429609072,1.0
15.578859329223633,22.94474983215332,-1.442615985870361,-0.0,-0.0,-1.0,0.0780487153710624,1.0
14.3447265625,22.19268226623535,-1.2402806282043457,-0.0,-0.0,-1.0,0.1031803194127403,2.0
14.538689613342283,22.415130615234375,-1.2996397018432615,-0.0,-0.0,-1.0,0.0622418870692718,1.0
14.9056396484375,22.63584327697754,-1.358604907989502,-0.0,-0.0,-1.0,0.1096705759253307,1.0
13.886512756347656,22.455650329589844,-1.312891960144043,-0.0,-0.0,-1.0,0.0801709037583042,1.0
14.123065948486328,22.12886428833008,-1.2237834930419922,-0.3984673187383945,0.7909631998821649,-0.464328560751545,0.0752598374463673,3.0
13.970317840576172,22.18328285217285,-1.2390632629394531,-0.0,-0.0,-1.0,0.0692508421313603,1.0
15.616649627685549,23.36090850830078,-1.399958610534668,-0.0,-0.0,-1.0,0.0649720704124246,1.0
15.009485244750977,23.341758728027344,-1.349687099456787,-0.2470594952081422,0.5122798384647558,-0.822515028999484,0.104061269381843,3.0
15.162847518920898,23.44412612915039,-1.3865909576416016,-0.0,-0.0,-1.0,0.0943356690656425,1.0
14.76308822631836,23.57044219970703,-1.390153408050537,-0.0,-0.0,-1.0,0.0696619560257562,1.0
14.846878051757812,23.618181228637695,-1.4079508781433103,-0.3912093341659586,-0.912824285508453,0.1170772422266995,0.1161385021359227,3.0
14.55267333984375,23.605060577392575,-1.3845252990722656,-0.0,-0.0,-1.0,0.0956151649907274,2.0
15.241662979125977,21.9830379486084,-1.026082992553711,-0.0,-0.0,-1.0,0.1443797259763769,1.0
15.127305030822754,22.711750030517575,-1.1998467445373535,-0.0,-0.0,-1.0,0.1545418753058961,2.0
15.062774658203123,22.884737014770508,-1.2385010719299316,-0.0,-0.0,-1.0,0.2168920808169574,1.0
13.951120376586914,23.070890426635746,-1.209749698638916,0.4026551568831169,0.1996717661080299,-0.8933084632167841,0.0784265610147708,6.0
14.227489471435549,23.231172561645508,-1.268205165863037,-0.0,-0.0,-1.0,0.1211132845739811,1.0
15.550138473510742,22.76670837402344,-1.458235263824463,0.9930037496618076,0.0837545338649799,-0.0832390005625376,0.1107416816895227,3.0
15.153101921081545,21.843324661254883,-1.1743297576904297,-0.0,-0.0,-1.0,0.1702449343252943,1.0
15.44003677368164,22.55478858947754,-1.3918542861938477,-0.0,-0.0,-1.0,0.11058525789414,1.0
15.055164337158203,22.547996520996097,-1.3632001876831057,-0.0,-0.0,-1.0,0.2056467294116998,2.0
14.366071701049805,22.236330032348633,-1.2323522567749023,-0.7885493696831838,0.401028247785906,-0.4662255205906458,0.1013102196809434,4.0
14.6923828125,22.46689224243164,-1.31695556640625,-0.0,-0.0,-1.0,0.0709963929222557,2.0
14.06968879699707,22.34646987915039,-1.2461671829223633,-0.0,-0.0,-1.0,0.147943372182137,2.0
15.166366577148438,22.86271858215332,-0.659940242767334,-0.0,-0.0,-1.0,0.0979593071466292,1.0
15.189269065856934,22.595497131347656,-1.1991956233978271,-0.0904954764396923,-0.5580096646209615,-0.8248853150187331,0.1800309246229836,3.0
15.573759078979492,22.674915313720703,-1.2330586910247805,-0.0,-0.0,-1.0,0.2002367760896896,2.0
15.60719871520996,23.299755096435547,-1.3842999935150146,-0.0,-0.0,-1.0,0.0519689303990757,1.0
15.58119773864746,23.566648483276367,-1.4474785327911377,-0.0,-0.0,-1.0,0.1160772759065689,2.0
15.130149841308594,22.63443374633789,-1.2064416408538818,-0.0,-0.0,-1.0,0.2244290821736711,2.0
15.137779235839844,22.872289657592773,-1.2640950679779053,-0.0,-0.0,-1.0,0.1513814649504163,1.0
15.061986923217772,23.33119773864746,-1.3724792003631592,-0.0,-0.0,-1.0,0.1165074122395585,2.0
14.511999130249023,23.198999404907227,-1.3238375186920166,-0.0,-0.0,-1.0,0.1166085606842795,1.0
14.869945526123049,23.554534912109375,-1.4206326007843018,-0.0,-0.0,-1.0,0.1555871092455985,1.0
14.126190185546877,22.426652908325195,-1.125269651412964,-0.0,-0.0,-1.0,0.1305920102916753,1.0
14.15349006652832,23.059844970703125,-1.2807095050811768,-0.0,-0.0,-1.0,0.0441426267429002,1.0
14.513458251953123,23.452207565307617,-1.385606050491333,-0.0,-0.0,-1.0,0.0577611865353496,1.0
13.777709007263184,22.823699951171875,-1.2145946025848389,-0.0,-0.0,-1.0,0.0222012963338691,1.0
14.029403686523438,22.998844146728516,-1.262890100479126,-0.2749876994995482,-0.900155103657229,-0.3377906962658834,0.0653927659994435,3.0
15.218326568603516,21.846261978149418,-1.020195245742798,-0.0,-0.0,-1.0,0.2662654798107022,2.0
15.597637176513672,23.598880767822266,-1.4145371913909912,-0.845760223873873,0.5311986027727427,-0.0501765694832002,0.1160772759065689,5.0
15.13707160949707,22.555015563964844,-1.1702239513397217,-0.0,-0.0,-1.0,0.1802086149564873,2.0
15.037042617797852,22.772048950195312,-1.212324857711792,-0.0,-0.0,-1.0,0.2378825313361881,2.0
14.3849458694458,23.61283493041992,-1.3690907955169678,-0.0,-0.0,-1.0,0.0319627055854785,1.0
13.939897537231444,23.02887725830078,-1.2275559902191162,0.9223983610242296,-0.0868951246817262,-0.3763382798578452,0.0727295856695633,3.0
13.780938148498535,23.09286880493164,-1.2368590831756592,-0.0,-0.0,-1.0,0.0458220001589577,2.0
14.98721694946289,23.40325927734375,-1.259979009628296,-0.8240329738655251,-0.4837342341764887,-0.2949082037991231,0.0995773533395939,4.0
14.825565338134766,23.439373016357425,-1.2595431804656982,-0.0,-0.0,-1.0,0.2109501752704959,2.0
15.133512496948242,22.621686935424805,-1.1061561107635498,0.0594136653661131,0.8229389615696819,-0.5650145855625118,0.1600672064253379,5.0
14.49488925933838,23.26166534423828,-1.207014799118042,-0.0,-0.0,-1.0,0.1662909800923695,1.0
15.607399940490724,23.595521926879883,-1.3821115493774414,-0.8696686295635939,0.4846937610863475,-0.0935330568138936,0.1160772759065689,4.0
14.959156036376951,23.575580596923828,-1.335313320159912,-0.0,-0.0,-1.0,0.2085888297526899,1.0
13.799222946166992,23.63317489624023,-1.2862005233764648,-0.0,-0.0,-1.0,0.0518686847607377,1.0
15.049598693847656,22.62876319885254,-1.1325879096984863,-0.5152590862808801,0.1000487367288976,-0.8511746731922566,0.2458048416047585,3.0
13.933173179626465,23.10565185546875,-1.173567771911621,0.2304108599496112,-0.7875448146998213,0.5715627703557196,0.0688472481232173,5.0
15.129842758178713,22.763051986694336,-0.5234942436218262,-0.0,-0.0,-1.0,0.1473905751202984,1.0
15.102693557739258,22.571693420410156,-0.7288241386413574,-0.0,-0.0,-1.0,0.1049563978412283,1.0
14.967041015625,22.537992477416992,-0.6286592483520508,-0.0,-0.0,-1.0,0.0962005341217743,1.0
15.267608642578123,21.8162784576416,-1.0520215034484863,-0.0,-0.0,-1.0,0.2434773547454468,1.0
15.121402740478516,22.57913398742676,-0.8555965423583984,-0.0,-0.0,-1.0,0.0944780350158972,2.0
15.185040473937988,22.63875961303711,-0.8532531261444092,-0.0,-0.0,-1.0,0.0989162965759656,1.0
15.081040382385254,22.46941375732422,-0.8702547550201416,-0.0,-0.0,-1.0,0.0758339947569303,1.0
14.969974517822266,22.367563247680664,-0.9114856719970704,-0.0,-0.0,-1.0,0.08813584257423,1.0
15.07872486114502,22.65097427368164,-0.6965131759643555,-0.0,-0.0,-1.0,0.1234094281687893,1.0
13.714401245117188,22.83049774169922,-1.2357772588729858,-0.0,-0.0,-1.0,0.0237413860808606,1.0
14.105506896972656,21.711820602416992,-1.1719073057174685,-0.0,-0.0,-1.0,0.0827480582002508,1.0
14.289913177490234,21.94617080688477,-1.1691066026687622,-0.0,-0.0,-1.0,0.1314537238479033,1.0
14.927440643310549,22.330074310302734,-1.1448394060134888,-0.0,-0.0,-1.0,0.0957679144773795,1.0
14.993717193603516,22.18108367919922,-1.1354135274887085,-0.0,-0.0,-1.0,0.2207267852998563,1.0
14.36362075805664,23.50083923339844,-1.3462339639663696,-0.0,-0.0,-1.0,0.0342423163108646,1.0
14.387550354003906,23.217811584472656,-1.339431881904602,-0.0,-0.0,-1.0,0.0773015764738951,2.0
14.350040435791016,22.891101837158203,-1.3362218141555786,-0.0,-0.0,-1.0,0.024449666571814,2.0
14.458984375,22.65664291381836,-1.3247896432876587,-0.0,-0.0,-1.0,0.0286818498941379,1.0
14.603397369384766,22.076780319213867,-1.305510640144348,-0.0,-0.0,-1.0,0.0354571748972522,2.0
14.706050872802734,21.654878616333008,-1.29202139377594,-0.0,-0.0,-1.0,0.0427593484945504,1.0
14.919631958007812,22.941022872924805,-1.2983359098434448,-0.0,-0.0,-1.0,0.1430578585567797,1.0
15.086071014404297,22.35754776000977,-1.2769938707351685,-0.0,-0.0,-1.0,0.1445427661241508,1.0
15.06534194946289,22.229015350341797,-1.276302456855774,-0.0,-0.0,-1.0,0.0998057057984482,1.0
15.358654022216797,23.35165786743164,-1.276079535484314,-0.0,-0.0,-1.0,0.100108094732175,1.0
13.72970962524414,22.46804428100586,-1.7165765762329102,-0.0,-0.0,-1.0,0.1267160731057196,1.0
14.194190979003906,21.936145782470703,-1.6850862503051758,-0.0,-0.0,-1.0,0.193617642013094,1.0
14.057052612304688,21.65972137451172,-1.7072691917419434,-0.0,-0.0,-1.0,0.1866108540561046,1.0
15.015377044677734,23.232608795166016,0.7120058536529541,-0.0,-0.0,-1.0,0.0199547962132786,1.0
14.579635620117188,23.19364356994629,0.6970126628875732,-0.0,-0.0,-1.0,0.0447272086527027,1.0
14.81201171875,22.856061935424805,0.6934177875518799,-0.0,-0.0,-1.0,0.0199769207707853,1.0
14.688827514648438,23.026681900024418,0.695077657699585,-0.0,-0.0,-1.0,0.0199769207707853,1.0
15.127517700195312,22.681934356689453,-1.2077898979187012,0.985616583302794,0.0500340039500444,-0.1614204112473177,0.1844382445679247,3.0
14.209945678710938,23.42983627319336,-1.2817652225494385,-0.0,-0.0,-1.0,0.032029100684154,1.0
15.085994720458984,22.56740951538086,-1.2110180854797363,0.7252577558491005,0.1354486451372635,-0.6750221123127791,0.2046478763037675,4.0
14.623828887939451,22.47107315063477,-1.247894287109375,-0.0,-0.0,-1.0,0.0656416563032614,1.0
14.320182800292969,23.073734283447266,-1.2725334167480469,-0.0,-0.0,-1.0,0.0979941383433286,2.0
14.55331802368164,22.13652801513672,-1.2535195350646973,-0.0,-0.0,-1.0,0.1016926693005853,2.0
14.570018768310549,22.312580108642575,-1.2521722316741943,-0.0,-0.0,-1.0,0.052426986381174,1.0
14.55031967163086,21.886398315429688,-1.253862380981445,-0.0,-0.0,-1.0,0.0516848682640364,2.0
14.098892211914062,22.68050765991211,-1.1795899868011477,-0.0,-0.0,-1.0,0.0262957182610562,1.0
13.859283447265623,22.99532127380371,-1.1963107585906982,-0.0,-0.0,-1.0,0.0470339401457062,2.0
14.287118911743164,22.38445281982422,-1.1670851707458496,-0.0,-0.0,-1.0,0.0948149259383369,1.0
14.108591079711914,21.97431373596191,-1.1870205402374268,0.2932067575385766,0.8806563555077165,-0.3721211910622409,0.1551781245183153,3.0
14.09062957763672,21.97967529296875,-1.1884844303131104,-0.0,-0.0,-1.0,0.1659244837683516,2.0
13.958316802978516,21.78534698486328,-1.202076435089111,-0.0,-0.0,-1.0,0.1589925337572557,1.0
14.16396713256836,22.365047454833984,-1.1146081686019895,-0.0,-0.0,-1.0,0.1071617885669014,2.0
14.95395278930664,23.468505859375,-1.0922495126724243,-0.0,-0.0,-1.0,0.2110454126086618,1.0
14.797719955444336,23.332178115844727,-1.1095062494277954,-0.0,-0.0,-1.0,0.2168779666592206,1.0
15.070037841796877,22.563255310058594,-1.0900696516036987,-0.0,-0.0,-1.0,0.2273624878479358,2.0
13.86167335510254,23.125932693481445,-1.2074743509292605,0.8985986803661019,-0.4093923722054877,-0.1578553047073943,0.057949691812243,3.0
14.392389297485352,22.40272521972656,-1.1618376970291138,-0.0,-0.0,-1.0,0.067206848284853,1.0
14.221580505371094,22.601985931396484,-1.1768580675125122,-0.0,-0.0,-1.0,0.0195437123405979,2.0
14.30344581604004,22.29407501220703,-1.1724742650985718,-0.0,-0.0,-1.0,0.0948053019834334,1.0
14.083755493164062,22.124462127685547,-1.1975477933883667,-0.6285214280204434,0.7654820397013989,0.1378334553500289,0.0604018707462205,4.0
14.169681549072266,21.99658203125,-1.190503478050232,-0.0,-0.0,-1.0,0.1630471030824214,2.0
14.990373611450195,23.307750701904297,-1.365127444267273,-0.1985858339250452,0.4505963423357337,-0.8703600420733665,0.148551819184621,4.0
14.691307067871094,23.60721015930176,-1.4002684354782104,-0.0,-0.0,-1.0,0.1217991175709202,1.0
15.351781845092772,22.720680236816406,-1.3225218057632446,-0.0,-0.0,-1.0,0.1053215388814699,1.0
15.056493759155272,22.91739273071289,-1.356838583946228,-0.0,-0.0,-1.0,0.0881013759769723,1.0
14.588630676269531,23.273361206054688,-1.411335825920105,-0.0,-0.0,-1.0,0.1003386851302382,1.0
15.238763809204102,22.309953689575195,-1.3355792760849,-0.0,-0.0,-1.0,0.0335406280382329,1.0
15.16617202758789,22.575157165527344,-1.3439558744430542,-0.0,-0.0,-1.0,0.1821658411334578,1.0
15.013872146606444,21.97591781616211,-1.3621801137924194,-0.0,-0.0,-1.0,0.0641145989291349,1.0
15.153955459594728,21.71357536315918,-1.3464471101760864,-0.5625370557897528,-0.0868438359400637,-0.8221984000365189,0.1155961911389712,3.0
14.92538070678711,23.520313262939453,-1.1233513355255127,-0.2129764783507694,-0.294830309380534,-0.931512806320924,0.2318144110673899,4.0
14.844541549682615,23.327083587646484,-1.13025164604187,-0.0,-0.0,-1.0,0.1925496199201808,1.0
13.762203216552734,23.59917640686035,-1.2476608753204346,-0.0,-0.0,-1.0,0.0402252165777269,1.0
15.06208038330078,22.66840362548828,-1.1020522117614746,-0.4889181625006687,0.8582474422873192,0.1561100835444142,0.1396838502026065,3.0
13.995752334594728,23.045818328857425,-1.218632459640503,-0.8254349855193409,-0.3701111032552416,-0.4262333350734941,0.0666174980111261,3.0
13.804561614990234,23.298355102539062,-1.2408130168914795,-0.3294431920804238,-0.1885758721375298,-0.925152054334546,0.0560027656108951,3.0
15.047876358032228,22.503448486328125,-1.1025164127349854,-0.0,-0.0,-1.0,0.2226066629472293,1.0
14.331043243408203,22.528709411621097,-1.17960786819458,-0.0,-0.0,-1.0,0.0473072468130293,2.0
14.194049835205078,22.210124969482425,-1.1928589344024658,-0.0,-0.0,-1.0,0.1083514013972259,1.0
13.891695022583008,22.307315826416016,-1.225839376449585,-0.0,-0.0,-1.0,0.0799250600877037,1.0
14.137622833251951,21.96000862121582,-1.1979997158050537,-0.178364980327629,0.3452057722031936,-0.9214222206080775,0.1647403807639255,3.0
14.935447692871094,23.38096046447754,-1.319645643234253,-0.0,-0.0,-1.0,0.1390433575073731,2.0
14.95598030090332,23.29141616821289,-1.3153913021087646,-0.373180652719248,-0.7033494503580091,-0.6050088851555178,0.169155754903678,3.0
14.440380096435549,23.285436630249023,-1.3773326873779297,-0.0,-0.0,-1.0,0.0664482738174992,1.0
15.566965103149414,22.660823822021484,-1.2299129962921145,-0.0,-0.0,-1.0,0.1932281858719435,2.0
15.057167053222656,22.611291885375977,-1.2908201217651367,0.7021254113567333,-0.133070753480339,-0.6995084569147917,0.2326537488363642,3.0
14.811124801635742,22.86051368713379,-1.3248507976531982,-0.0,-0.0,-1.0,0.1265563412181685,1.0
14.801166534423828,22.344322204589844,-1.3177852630615234,-0.0,-0.0,-1.0,0.0650145829495984,1.0
14.67342758178711,22.592029571533203,-1.337104558944702,-0.0,-0.0,-1.0,0.0631592451876507,2.0
14.743175506591797,21.967140197753903,-1.3197245597839355,-0.0,-0.0,-1.0,0.0419714209196184,1.0
14.4287109375,23.497350692749023,-1.3311424255371094,-0.0,-0.0,-1.0,0.091542435934497,1.0
14.41452407836914,23.185564041137695,-1.3274004459381104,-0.0,-0.0,-1.0,0.0774267979704466,2.0
14.31245231628418,23.384138107299805,-1.3438847064971924,-0.0,-0.0,-1.0,0.0717583808397071,1.0
15.183176040649414,22.62692070007324,-1.2197842597961426,-0.0904954764396923,-0.5580096646209615,-0.8248853150187331,0.1474666369928501,3.0
14.665853500366213,22.589277267456055,-1.2857553958892822,-0.2009868875688268,0.2477943190203331,-0.9477353251233414,0.0643926513244015,3.0
14.64448356628418,22.292146682739254,-1.284517526626587,-0.1884184413855737,-0.3436128125550895,-0.9200156118206976,0.0356030176019308,3.0
14.882810592651367,21.910213470458984,-1.2489831447601318,-0.0,-0.0,-1.0,0.0642807412793863,1.0
14.542692184448242,21.837099075317383,-1.2924857139587402,-0.0,-0.0,-1.0,0.0467490209427338,1.0
15.706682205200195,22.207244873046875,-1.4048078060150146,-0.0,-0.0,-1.0,0.0145000127101921,1.0
13.908863067626951,23.42355728149414,-1.2431484460830688,-0.0,-0.0,-1.0,0.0428146465646555,1.0
13.84162712097168,23.27723693847656,-1.2497073411941528,-0.3294431920804238,-0.1885758721375298,-0.925152054334546,0.0693561424073994,3.0
14.844419479370115,23.49077606201172,-1.1202667951583862,-0.1907287977479909,-0.9335514641796696,0.3034867203645017,0.17736441949359,3.0
14.691591262817385,23.305376052856445,-1.1370669603347778,-0.0,-0.0,-1.0,0.1199337735951685,1.0
15.024505615234377,22.643339157104492,-1.0819348096847534,-0.0,-0.0,-1.0,0.1956713424925801,2.0
14.161396026611328,22.79924774169922,-1.1998330354690552,-0.0,-0.0,-1.0,0.0904443833606654,1.0
13.983095169067385,23.08464813232422,-1.2278379201889038,-0.6226872016549138,-0.554598740920655,-0.5519790625235682,0.0666174980111262,4.0
14.408367156982422,22.465951919555664,-1.1622613668441772,-0.0,-0.0,-1.0,0.051795379348995,2.0
14.310142517089844,22.557701110839844,-1.1766782999038696,0.5140566403980881,0.4447103297762923,-0.733470171890372,0.0290152633704814,3.0
14.135942459106444,22.17404556274414,-1.1958423852920532,-0.0,-0.0,-1.0,0.0982185210473052,1.0
13.89303970336914,21.86607360839844,-1.226033091545105,-0.0,-0.0,-1.0,0.1631664982590282,2.0
14.918205261230469,23.375995635986328,-1.2875757217407229,-0.8707658221502581,-0.0937379441891153,-0.4826801019248495,0.146335771684633,3.0
14.565824508666992,23.57719039916992,-1.3457632064819336,0.2453915048832202,-0.7457145287053116,-0.6194294560391548,0.1026252059558327,3.0
14.705951690673828,22.931140899658203,-1.2978768348693848,-0.0,-0.0,-1.0,0.1242608947075427,1.0
14.457250595092772,23.232112884521484,-1.3455760478973389,-0.0,-0.0,-1.0,0.0662710439635429,1.0
15.049294471740724,22.598915100097656,-1.2358191013336182,0.6042918743977637,0.6968906294937058,0.3862315122574851,0.177610030587692,5.0
14.669401168823242,22.58084297180176,-1.288712978363037,-0.6072746762591857,0.7939145307754092,0.0302850688948016,0.0643926513244015,4.0
14.660484313964844,22.265296936035156,-1.277766466140747,-0.0,-0.0,-1.0,0.0396152292289218,2.0
14.903398513793944,21.849937438964844,-1.227855920791626,-0.0,-0.0,-1.0,0.0613145141066376,1.0
14.56235694885254,21.899391174316406,-1.2783803939819336,-0.0,-0.0,-1.0,0.0531293034442949,2.0
15.08460521697998,22.80541229248047,-0.6297636032104492,-0.0,-0.0,-1.0,0.1508707895996769,2.0
15.636530876159668,23.189197540283203,-1.3734170198440552,-0.0,-0.0,-1.0,0.0214489804551983,1.0
15.47469997406006,22.988496780395508,-1.3920773267745972,-0.0,-0.0,-1.0,0.0913469183377162,1.0
15.64146327972412,22.733972549438477,-1.3545602560043335,-0.0,-0.0,-1.0,0.1107965081350172,1.0
15.418389320373535,22.815881729125977,-1.3949259519577026,-0.0,-0.0,-1.0,0.1157881084618897,1.0
15.4700927734375,22.437265396118164,-1.372675538063049,-0.0,-0.0,-1.0,0.0706533960792535,1.0
15.490337371826172,21.889862060546875,-1.3517566919326782,-0.0,-0.0,-1.0,0.0339767578806105,1.0
15.241615295410156,22.0321044921875,-1.3982468843460083,-0.0,-0.0,-1.0,0.0569308550599614,1.0
14.945738792419434,23.508220672607425,-1.1876226663589478,0.4243416825572711,-0.5239933745487649,-0.7384883749074607,0.217928584998656,3.0
14.809270858764648,23.43871307373047,-1.2055615186691284,0.0961423038890305,-0.9952777215048788,-0.0133758917073292,0.271399910889853,3.0
14.189666748046877,23.54983901977539,-1.3067859411239624,-0.0,-0.0,-1.0,0.0335194422961346,1.0
14.16877555847168,23.278959274291992,-1.2986072301864624,-0.0,-0.0,-1.0,0.0201608047670959,2.0
14.056585311889648,23.362232208251953,-1.319592833518982,-0.0,-0.0,-1.0,0.026284722100647,1.0
14.480542182922363,22.632030487060547,-1.2241476774215698,-0.0,-0.0,-1.0,0.0511950845197263,1.0
14.17056369781494,22.944175720214844,-1.2849775552749634,-0.0,-0.0,-1.0,0.0428210766467655,2.0
14.448591232299805,22.364076614379883,-1.2197283506393433,-0.0,-0.0,-1.0,0.0520621328144747,2.0
14.45913791656494,22.147930145263672,-1.210765719413757,-0.0,-0.0,-1.0,0.1463682029001391,1.0
14.234737396240234,22.030277252197266,-1.243148922920227,-0.0,-0.0,-1.0,0.1513052903108974,1.0
15.0606689453125,22.673418045043945,-1.1340404748916626,0.8718978901330718,0.2593556599793104,-0.4153657554712404,0.2218259580253521,4.0
14.954694747924805,23.554828643798828,-1.436131477355957,-0.0,-0.0,-1.0,0.1972770356033318,1.0
15.083244323730469,23.37494468688965,-1.4022221565246582,-0.0,-0.0,-1.0,0.1557569616409115,2.0
15.096797943115234,23.08817481994629,-1.3829843997955322,-0.0,-0.0,-1.0,0.041521394603529,1.0
15.134550094604492,22.618268966674805,-1.3503367900848389,-0.0,-0.0,-1.0,0.2436091056004469,2.0
15.010655403137209,22.251405715942383,-1.3548235893249512,-0.0,-0.0,-1.0,0.0812288592364308,1.0
14.991052627563477,21.909175872802734,-1.342937707901001,-0.0,-0.0,-1.0,0.0651691636831541,2.0
15.010022163391112,21.6697940826416,-1.3292768001556396,-0.0,-0.0,-1.0,0.122445964494852,1.0
15.07789134979248,22.68038749694824,-0.8595137596130371,-0.0208052560905103,0.5450083424457957,-0.8381724452542537,0.1509009042788135,4.0
15.017184257507324,23.36872100830078,-1.405692219734192,-0.0,-0.0,-1.0,0.1557569616409116,1.0
15.082756042480469,22.994232177734375,-1.3709975481033323,-0.0,-0.0,-1.0,0.0383568714341232,1.0
15.103127479553224,22.602344512939453,-1.3460077047348022,0.0603192103198446,-0.3709465510965733,-0.9266931795885558,0.2253146225883911,3.0
14.95106029510498,22.15715789794922,-1.3559061288833618,-0.0,-0.0,-1.0,0.0731374298291084,2.0
14.970538139343262,21.810302734375,-1.3378206491470337,-0.0,-0.0,-1.0,0.0823531050637655,2.0
14.88930320739746,23.45531463623047,-1.2277395725250244,-0.0,-0.0,-1.0,0.2001590854363084,2.0
14.31525421142578,23.53759002685547,-1.3439629077911377,-0.0,-0.0,-1.0,0.0293685513114399,1.0
14.312581062316896,23.23237991333008,-1.326042652130127,-0.0,-0.0,-1.0,0.0668545523821093,2.0
14.226956367492676,23.07471466064453,-1.334017992019653,-0.0,-0.0,-1.0,0.0308964425540485,1.0
14.470010757446287,22.68931579589844,-1.2649705410003662,-0.0,-0.0,-1.0,0.0371033077444324,1.0
15.6405029296875,22.64255714416504,-1.4550702571868896,-0.0,-0.0,-1.0,0.1180263574696899,1.0
15.57598876953125,22.403228759765625,-1.451418161392212,-0.0,-0.0,-1.0,0.0804568972944356,1.0
14.46337604522705,22.389347076416016,-1.251483678817749,-0.0,-0.0,-1.0,0.0510410869423461,2.0
14.372620582580566,22.239362716674805,-1.262998342514038,-0.545148914111933,-0.8148328873374011,-0.1971294680051021,0.1008952122060096,3.0
15.568883895874023,22.13764190673828,-1.4341723918914795,-0.0,-0.0,-1.0,0.022097867668918,1.0
14.198253631591797,21.97100257873535,-1.2874984741210938,-0.0,-0.0,-1.0,0.0628531542395584,1.0
14.08595371246338,21.749582290649418,-1.3025116920471191,-0.0,-0.0,-1.0,0.0843945838388818,1.0
15.521088600158691,21.741943359375,-1.4194698333740234,-0.0,-0.0,-1.0,0.0368497851546333,2.0
15.039299964904783,22.76024627685547,-1.1557493209838867,-0.0,-0.0,-1.0,0.2055491709256467,1.0
15.06203556060791,22.607328414916992,-1.1426360607147217,-0.0,-0.0,-1.0,0.2212787244187318,2.0
15.187671661376951,21.667171478271484,-1.071479082107544,-0.0,-0.0,-1.0,0.123963829984332,1.0
15.253520965576172,23.538408279418945,-1.4341332912445068,-0.0,-0.0,-1.0,0.0565079140234442,1.0
14.41161060333252,23.295698165893555,-1.1281633377075195,-0.0,-0.0,-1.0,0.1313055725417136,1.0
13.96820068359375,23.072261810302734,-1.1882381439208984,-0.6226872016549138,-0.554598740920655,-0.5519790625235682,0.0784265610147708,4.0
13.806591987609863,23.252422332763672,-1.2321734428405762,0.0185878025000101,0.1667433501827862,-0.985825110639834,0.0755528602811204,4.0
15.254486083984377,23.222503662109375,-1.3965308666229248,-0.0,-0.0,-1.0,0.029555043954504,1.0
15.132725715637209,23.225780487060547,-1.4211783409118652,-0.0,-0.0,-1.0,0.0979831728569998,1.0
13.770310401916504,22.905113220214844,-1.2110319137573242,-0.0,-0.0,-1.0,0.0234809644670859,2.0
15.24534797668457,22.833343505859375,-1.3540782928466797,-0.0,-0.0,-1.0,0.0579329623329677,1.0
15.19013214111328,22.73662376403809,-1.3549885749816897,-0.0,-0.0,-1.0,0.1286079647663578,2.0
13.803860664367676,22.54421615600586,-1.1774251461029053,-0.0,-0.0,-1.0,0.0943606795392166,1.0
15.006354331970217,22.332765579223633,-1.3516416549682615,-0.0,-0.0,-1.0,0.1079341266922054,1.0
14.94747257232666,22.11618423461914,-1.3431005477905271,-0.0,-0.0,-1.0,0.0707390836956931,2.0
14.88769817352295,21.89099884033203,-1.335230827331543,-0.0,-0.0,-1.0,0.0316023734655913,1.0
15.074966430664062,22.632404327392575,-0.9531068801879884,-0.0,-0.0,-1.0,0.1341323522523363,1.0
15.169987678527832,22.72651481628418,-0.5362932682037354,-0.0,-0.0,-1.0,0.1394297913943479,1.0
15.010388374328612,23.534175872802734,-1.4397521018981934,-0.0,-0.0,-1.0,0.1418671466188371,1.0
15.01827907562256,23.24960708618164,-1.3964166641235352,-0.4814987730097962,-0.287201401229459,-0.828054519172437,0.1394992904852995,3.0
15.097023010253906,22.727500915527344,-1.3067994117736816,-0.0,-0.0,-1.0,0.1916092115933776,1.0
14.780884742736816,22.596179962158203,-1.3516700267791748,-0.0,-0.0,-1.0,0.0721533173779239,2.0
14.70193862915039,22.32725715637207,-1.332580327987671,-0.0,-0.0,-1.0,0.0324915374837434,2.0
14.565226554870604,22.120357513427734,-1.334942102432251,-0.0,-0.0,-1.0,0.0345927786533018,2.0
14.37197494506836,21.854576110839844,-1.3437588214874268,-0.0,-0.0,-1.0,0.057406246090156,1.0
14.311439514160156,21.75968360900879,-1.3457887172698977,-0.3845396940961499,0.6806005135586081,-0.6236282262760389,0.0530795876420663,3.0
15.089953422546388,22.738534927368164,-0.916085958480835,-0.0,-0.0,-1.0,0.1172640867283918,1.0
15.552245140075684,22.71719741821289,-1.2166805267333984,-0.0,-0.0,-1.0,0.191906491248425,1.0
13.728375434875488,21.9266357421875,-1.0724279880523682,-0.0,-0.0,-1.0,0.1297584435502778,1.0
15.174264907836914,21.6527099609375,-1.150336503982544,-0.0,-0.0,-1.0,0.123963829984332,1.0
15.434436798095703,23.633705139160156,-1.088742971420288,-0.0,-0.0,-1.0,0.0991453551107895,1.0
13.739883422851562,21.812719345092773,-1.3006080389022827,-0.0,-0.0,-1.0,0.1281763550998918,1.0
14.596454620361328,22.35447120666504,-1.3314067125320437,-0.9722670522519246,0.2323836159956133,0.0263559124705829,0.0543787242244867,3.0
14.381223678588867,22.064552307128903,-1.287786841392517,-0.0,-0.0,-1.0,0.0811988368368471,2.0
14.050901412963867,21.818763732910156,-1.2685235738754272,-0.0,-0.0,-1.0,0.0900947168300719,1.0
15.359509468078612,22.892986297607425,-1.392556071281433,-0.0,-0.0,-1.0,0.1094441097830856,1.0
15.02524185180664,22.561189651489254,-1.3413070440292358,0.0542340875788693,0.8862810486157676,-0.4599614838320949,0.2059060219430827,3.0
15.59339427947998,22.880176544189453,-1.3733776807785034,-0.0,-0.0,-1.0,0.149990251310125,1.0
15.30104637145996,22.6138916015625,-1.3317490816116333,-0.0,-0.0,-1.0,0.1702492001985231,1.0
14.858271598815918,23.404212951660156,-1.1140867471694946,-0.0,-0.0,-1.0,0.2267192064351126,2.0
15.422252655029297,23.552488327026367,-1.1142922639846802,-0.0,-0.0,-1.0,0.1323199691766529,1.0
14.134553909301758,23.52405166625977,-1.307785987854004,-0.3359030106162314,0.205032615781887,-0.9193099553059292,0.0335194422961345,3.0
13.89964771270752,23.27235984802246,-1.2629411220550537,-0.0,-0.0,-1.0,0.0251666015347038,1.0
14.74864101409912,23.3207950592041,-1.2507505416870115,-0.0,-0.0,-1.0,0.2001661108545961,2.0
14.938676834106444,22.55200958251953,-1.084235668182373,-0.0,-0.0,-1.0,0.1575505866782004,1.0
14.846056938171388,22.455989837646484,-0.647514820098877,-0.0,-0.0,-1.0,0.0659146794152665,1.0
14.21159839630127,22.269874572753903,-1.1268242597579956,-0.8503192946286915,0.091890379998115,-0.5181826466082848,0.1261702598315694,3.0
14.356730461120604,22.344894409179688,-1.130829691886902,-0.6072269092218003,-0.7405741257409978,-0.2877941017461895,0.0632919029005926,3.0
14.266472816467283,22.650493621826172,-1.1824675798416138,-0.0,-0.0,-1.0,0.0190703841967666,1.0
15.524657249450684,21.76418685913086,-1.3452318906784058,-0.0,-0.0,-1.0,0.0368497851546334,1.0
14.321163177490234,23.58397674560547,-1.3938852548599243,-0.0,-0.0,-1.0,0.0304470973769004,1.0
14.34174919128418,22.847524642944336,-1.344416260719299,-0.0,-0.0,-1.0,0.0223045946136216,2.0
14.999528884887695,22.62897300720215,-1.3034557104110718,-0.0,-0.0,-1.0,0.2327610732751997,2.0
14.605478286743164,22.38907241821289,-1.3036080598831177,-0.0,-0.0,-1.0,0.0547443955962185,2.0
13.722356796264648,23.36672019958496,-1.0616103410720823,-0.0,-0.0,-1.0,0.093268904113715,1.0
14.293449401855469,23.130290985107425,-1.0409419536590576,-0.0,-0.0,-1.0,0.1537362573317778,1.0
14.757429122924805,22.790449142456055,-1.0098044872283936,-0.0,-0.0,-1.0,0.1738508759445609,1.0
14.952203750610352,23.45819664001465,-1.180151104927063,-0.939242932070114,0.3367611242113617,-0.0664429061392959,0.1936644077052352,3.0
15.102408409118652,22.710569381713867,-1.1301418542861938,-0.0,-0.0,-1.0,0.1415674203820114,2.0
13.963557243347168,23.632781982421875,-1.2513700723648071,-0.0,-0.0,-1.0,0.049706087148766,1.0
14.423649787902832,22.35761833190918,-1.1536914110183716,-0.0,-0.0,-1.0,0.06751946478624,1.0
14.230838775634766,22.257568359375,-1.1605793237686155,-0.890491128231187,0.1458268493113065,-0.4309989333646727,0.1072610841823462,4.0
15.135771751403809,22.60165786743164,-1.1148817539215088,0.2788537936920867,0.3861602291189683,-0.8792729037052814,0.1765866481017894,6.0
15.361599922180176,22.57978630065918,-1.4202996492385864,-0.0,-0.0,-1.0,0.0796785110438998,1.0
15.4617280960083,22.931060791015625,-1.444620966911316,-0.0,-0.0,-1.0,0.066347841525134,1.0
15.073486328125,22.58618927001953,-1.2696644067764282,0.7782453867357942,0.6198643236752142,0.1005103888119219,0.2616784442151056,6.0
14.934033393859863,23.320531845092773,-1.3357023000717163,-0.3781669253940335,-0.6957399412341638,-0.6106846245890799,0.1346694714507339,4.0
14.47482681274414,22.211772918701172,-1.2804456949234009,-0.0,-0.0,-1.0,0.0753193425503862,2.0
14.390618324279783,23.54412078857422,-1.3885990381240845,-0.0,-0.0,-1.0,0.0351782429713928,1.0
14.266935348510742,21.951322555541992,-1.2744535207748413,-0.0,-0.0,-1.0,0.1285108370528859,2.0
14.310885429382324,22.058574676513672,-1.2796915769577026,-0.0,-0.0,-1.0,0.0917758219487163,1.0
15.297754287719728,22.852434158325195,-1.3686532974243164,-0.0,-0.0,-1.0,0.0513470895451074,1.0
15.28655242919922,23.275869369506836,-1.4085638523101809,-0.0,-0.0,-1.0,0.032238748841745,1.0
15.186866760253906,22.51262092590332,-1.3458659648895264,-0.0,-0.0,-1.0,0.1968413045838889,1.0
14.557024955749512,22.547670364379883,-1.366661548614502,-0.0,-0.0,-1.0,0.0506598450608362,1.0
14.271303176879885,21.73169708251953,-1.3515832424163818,-0.0757359642247402,0.3051616694690991,-0.949284161465776,0.0502304039680924,3.0
14.28093147277832,22.058685302734375,-1.370761156082153,-0.0,-0.0,-1.0,0.0737327207110383,1.0
14.324418067932127,22.208112716674805,-1.374544382095337,-0.0,-0.0,-1.0,0.0969321156745322,1.0
14.18556785583496,23.48383522033691,-1.4742393493652344,-0.0,-0.0,-1.0,0.0313579780544891,1.0
13.974653244018556,21.90412712097168,-1.4010188579559326,-0.0,-0.0,-1.0,0.0414922742133384,1.0
15.388059616088867,22.62854766845703,-1.2122679948806765,-0.0,-0.0,-1.0,0.2236215825618699,1.0
15.347323417663574,23.148204803466797,-1.2810941934585571,-0.0,-0.0,-1.0,0.0289664186261699,1.0
15.071585655212402,22.574594497680664,-1.2197750806808472,0.7031593644769599,0.1880094219533074,-0.6857254300411653,0.1905313209983714,5.0
15.093520164489746,22.78445053100586,-1.2456456422805786,-0.0,-0.0,-1.0,0.2605338566420154,1.0
14.314794540405272,22.315181732177734,-1.2228845357894895,-0.0,-0.0,-1.0,0.0987753577480793,1.0
14.38940143585205,23.31186866760254,-1.3456615209579468,-0.0,-0.0,-1.0,0.0648329748554505,1.0
14.071186065673828,22.304515838623047,-1.233596682548523,-0.9190541320367572,0.0826655860360476,0.3853646367681904,0.1136943836075427,3.0
15.58675479888916,21.84394645690918,-1.3676646947860718,0.9194251568270292,0.235324998772612,0.3150865372342378,0.0377456544515349,3.0
15.546213150024414,21.67076873779297,-1.3743572235107422,-0.0,-0.0,-1.0,0.022337253309432,1.0
15.672666549682615,21.802772521972656,-1.3849167823791504,-0.0,-0.0,-1.0,0.0350979486649142,1.0
15.53809928894043,22.411096572875977,-1.3866647481918335,-0.0,-0.0,-1.0,0.0804568972944356,2.0
15.257844924926758,22.17916488647461,-1.3781872987747192,-0.0,-0.0,-1.0,0.0455075464665726,2.0
15.37618637084961,22.39510726928711,-1.398664116859436,-0.0,-0.0,-1.0,0.0252446967172868,1.0
15.034855842590332,22.7103271484375,-1.114171028137207,-0.0,-0.0,-1.0,0.2169426240593814,2.0
14.797332763671877,23.490379333496097,-1.2259600162506104,-0.0,-0.0,-1.0,0.1720794411646,2.0
14.205038070678713,22.32110595703125,-1.15932035446167,-0.2348827890564349,-0.41427752233591,-0.8793203113156718,0.1351711485215562,3.0
14.202035903930664,22.5673770904541,-1.186284065246582,-0.0,-0.0,-1.0,0.0292753700314716,2.0
13.717714309692385,22.54058074951172,-1.235532283782959,-0.0,-0.0,-1.0,0.0869931308408148,1.0
14.021860122680664,22.84288787841797,-1.2354729175567627,-0.0,-0.0,-1.0,0.0439019163855,1.0
13.983551025390623,23.010967254638672,-1.2578685283660889,-0.2750610706931482,-0.8792970815294032,-0.3888162159722929,0.0515528559500582,3.0
14.039605140686035,23.42510223388672,-1.2973792552947998,-0.0,-0.0,-1.0,0.0271361498100903,1.0
15.093775749206545,22.727542877197266,-0.5606715679168701,-0.0,-0.0,-1.0,0.1473905751202983,2.0
15.49013900756836,21.663982391357425,-1.3716614246368408,-0.0,-0.0,-1.0,0.0291274672108612,2.0
15.6437349319458,21.90198135375977,-1.3756961822509766,-0.0,-0.0,-1.0,0.0319435837961011,1.0
15.642769813537598,22.381874084472656,-1.4331653118133545,-0.0,-0.0,-1.0,0.0680600485756203,2.0
14.979580879211426,22.638504028320312,-1.0398480892181396,-0.0,-0.0,-1.0,0.2299049906636204,2.0
14.946822166442873,22.744029998779297,-1.0539085865020752,-0.0,-0.0,-1.0,0.2704264915874302,1.0
14.036399841308594,22.361366271972656,-1.1390035152435305,-0.0,-0.0,-1.0,0.1159914341414126,2.0
13.784513473510742,22.70838928222656,-1.2036287784576416,-0.0,-0.0,-1.0,0.1279132349276982,1.0
13.845821380615234,23.100147247314453,-1.2308387756347656,0.8997028498367805,-0.2029243656701812,-0.3864666658496307,0.0577534268053129,3.0
13.723956108093262,23.369617462158203,-1.2714331150054932,-0.0,-0.0,-1.0,0.0475082093874388,1.0
15.479741096496582,22.594018936157227,-1.1936988830566406,-0.0,-0.0,-1.0,0.2249027683277908,1.0
15.01382541656494,22.518096923828125,-1.2643117904663086,-0.0,-0.0,-1.0,0.148587544879453,1.0
15.000432968139648,22.66451644897461,-1.2800352573394775,0.8333253347367209,0.289214882153726,-0.4710877183993853,0.2026645010607236,3.0
14.95384120941162,23.229875564575195,-1.340662956237793,-0.0,-0.0,-1.0,0.1406724588875473,1.0
14.865554809570312,23.612268447875977,-1.391643762588501,-0.0,-0.0,-1.0,0.1161385021359227,2.0
15.11195468902588,21.730823516845703,-1.176802635192871,-0.0,-0.0,-1.0,0.1073364700695972,1.0
14.681927680969238,22.319721221923828,-1.3024847507476809,-0.3384185533634768,-0.4971908983960347,-0.7989205800901087,0.0342693975203428,4.0
14.742210388183594,22.66396713256836,-1.3234128952026367,-0.0,-0.0,-1.0,0.0993352097177524,2.0
14.63094425201416,23.19723892211914,-1.3911309242248535,-0.0,-0.0,-1.0,0.0906004777678847,1.0
14.46800136566162,21.788087844848633,-1.2927350997924805,-0.0,-0.0,-1.0,0.0535162804664428,1.0
14.61109447479248,22.20621109008789,-1.3044822216033936,-0.0,-0.0,-1.0,0.0328638704769057,1.0
14.335577011108398,21.68081283569336,-1.3066143989562988,-0.0,-0.0,-1.0,0.0443412267874205,1.0
15.643547058105469,22.461814880371097,-1.3938628435134888,-0.0,-0.0,-1.0,0.0854813568814071,2.0
15.316614151000977,22.108182907104492,-1.4029780626296997,-0.0,-0.0,-1.0,0.0613212646563019,1.0
15.678494453430176,22.42755889892578,-1.3832603693008425,-0.0,-0.0,-1.0,0.1499716079261229,1.0
15.47950267791748,22.21106338500977,-1.3893240690231323,-0.0,-0.0,-1.0,0.032559356048001,2.0
15.00549602508545,22.75628662109375,-1.0730286836624146,-0.0,-0.0,-1.0,0.2459767242428745,1.0
14.841974258422852,23.39895248413086,-1.1660794019699097,-0.0,-0.0,-1.0,0.2326670148961575,2.0
14.773475646972656,23.434913635253903,-1.1801379919052124,0.0961423038890305,-0.9952777215048788,-0.0133758917073292,0.2164153123527939,3.0
15.288219451904297,21.96105194091797,-1.389417290687561,-0.0,-0.0,-1.0,0.082423470710618,1.0
14.99955940246582,22.5775146484375,-1.0551263093948364,-0.8629769566505016,-0.3329240726218343,-0.3800425425648158,0.2602730510764104,3.0
14.888784408569336,22.742008209228516,-1.0889884233474731,-0.0,-0.0,-1.0,0.2821758033705173,1.0
14.333301544189451,22.364784240722656,-1.1325782537460327,-0.6072269092218003,-0.7405741257409978,-0.2877941017461895,0.0611351556166035,3.0
14.049665451049805,22.983436584472656,-1.2383261919021606,-0.0,-0.0,-1.0,0.0653927659994435,2.0
14.07993507385254,23.182666778564453,-1.2541383504867554,-0.0,-0.0,-1.0,0.0434674439399525,1.0
13.904468536376951,22.727109909057617,-1.2350784540176392,-0.0,-0.0,-1.0,0.0500093975140551,2.0
13.995429039001465,21.69574928283691,-1.1218897104263306,-0.0,-0.0,-1.0,0.1442424448783218,1.0
15.04527759552002,22.769752502441406,-0.6040248870849609,-0.0,-0.0,-1.0,0.1473905751202983,1.0
15.557656288146973,22.401355743408203,-1.3872205018997192,-0.0,-0.0,-1.0,0.0804568972944356,2.0
15.547158241271973,22.812358856201172,-1.4478548765182495,0.2430527092832079,0.2301392726971713,-0.9423169825873402,0.0957318036328361,3.0
15.368400573730469,22.270919799804688,-1.4043179750442505,-0.0,-0.0,-1.0,0.0425490800111834,2.0
14.736742973327637,23.4395809173584,-1.2249103784561155,-0.0,-0.0,-1.0,0.2177862386542631,2.0
15.237605094909668,21.73612403869629,-1.356958031654358,-0.0,-0.0,-1.0,0.0884298420680656,1.0
15.16130542755127,21.977813720703125,-1.4036177396774292,-0.0,-0.0,-1.0,0.0759641263131951,1.0
14.256111145019531,23.567794799804688,-1.315224289894104,-0.0,-0.0,-1.0,0.0290532278000198,1.0
14.081789016723633,22.949264526367188,-1.2727917432785034,-0.0,-0.0,-1.0,0.0679443766694377,1.0
14.063605308532717,23.276752471923828,-1.3124107122421265,-0.0,-0.0,-1.0,0.0182450794232477,1.0
13.769486427307127,22.506376266479492,-1.2761205434799194,-0.0,-0.0,-1.0,0.0871259838652421,2.0
14.954171180725098,23.53655433654785,-1.2028814554214478,0.2216232103598276,-0.2914677947568509,-0.9305534252526196,0.2342580561259405,5.0
15.078670501708984,22.60737037658691,-1.0741981267929075,-0.7337196772491853,0.3525472010443555,-0.5808320809434874,0.2268339892894939,3.0
14.87264633178711,23.462371826171875,-1.2065657377243042,-0.0,-0.0,-1.0,0.2029492365704493,2.0
15.14794921875,21.85489273071289,-0.9787431955337524,-0.0,-0.0,-1.0,0.1952486742336151,1.0
14.358723640441896,22.355588912963867,-1.1625550985336304,-0.6072269092218003,-0.7405741257409978,-0.2877941017461895,0.0744057372614006,3.0
14.288981437683104,22.55148696899414,-1.1952768564224243,-0.0,-0.0,-1.0,0.0290152633704815,2.0
14.133527755737305,22.230812072753903,-1.186510443687439,-0.0,-0.0,-1.0,0.1163718132454861,2.0
14.136049270629885,22.278356552124023,-1.1910775899887085,-0.8262600640626182,0.547027124136005,0.1343712469047233,0.1187472551089585,5.0
15.106788635253906,22.802032470703125,-0.663474440574646,-0.6823601677237672,0.5311321674556755,-0.5022780327645522,0.140125516677629,3.0
15.56992530822754,22.811588287353516,-1.4421707391738892,-0.0,-0.0,-1.0,0.1138313752010097,2.0
15.366205215454102,22.30513381958008,-1.421500563621521,-0.8313576016139036,-0.2910915936933416,-0.4734028119053036,0.0312725074982401,3.0
15.42063331604004,22.45203399658203,-1.427887797355652,-0.0,-0.0,-1.0,0.0674269535728685,1.0
15.627679824829102,22.50750732421875,-1.3878697156906128,-0.0,-0.0,-1.0,0.106940358031653,2.0
14.92158031463623,23.483978271484375,-1.2564901113510132,-0.0,-0.0,-1.0,0.2112358651720893,1.0
15.421241760253906,22.259750366210938,-1.402987360954285,-0.0,-0.0,-1.0,0.0400338206772206,2.0
15.12279987335205,22.567964553833008,-1.115910887718201,-0.8677851040031216,0.2201361902630641,-0.4455211229636094,0.1856640865788279,6.0
15.095440864562988,22.73287582397461,-1.1390126943588257,-0.0,-0.0,-1.0,0.1459655206679143,2.0
14.53289031982422,23.56342124938965,-1.3422340154647827,-0.0,-0.0,-1.0,0.0836659093094371,2.0
15.37785530090332,21.68573951721191,-1.3418172597885132,-0.0,-0.0,-1.0,0.069657054235455,1.0
15.181720733642578,21.93692970275879,-1.229101538658142,-0.0,-0.0,-1.0,0.175056173806947,1.0
14.5750732421875,22.58739471435547,-1.2299662828445437,-0.0,-0.0,-1.0,0.0634903478464415,1.0
14.308488845825195,23.001928329467773,-1.3271936178207395,-0.0,-0.0,-1.0,0.0276043080008748,2.0
14.340428352355955,23.241355895996097,-1.3458915948867798,-0.0,-0.0,-1.0,0.0703965922478709,2.0
14.448657035827637,22.30952262878418,-1.2287789583206177,-0.0,-0.0,-1.0,0.0620327495007569,1.0
14.152825355529783,21.93743133544922,-1.2565511465072632,-0.0,-0.0,-1.0,0.1003334432645399,1.0
14.166374206542969,22.114582061767575,-1.2699419260025024,-0.0,-0.0,-1.0,0.0686052890461078,1.0
15.046247482299805,22.579618453979492,-0.7405580282211304,-0.0,-0.0,-1.0,0.1184409768503234,2.0
15.13110637664795,22.75540542602539,-0.7405115365982056,-0.0,-0.0,-1.0,0.1024178410069074,1.0
15.275344848632812,21.723285675048828,-0.9984351396560668,-0.0,-0.0,-1.0,0.1863866188938087,1.0
15.218360900878906,21.852996826171875,-1.023062825202942,-0.0,-0.0,-1.0,0.2662654798107022,2.0
15.660565376281738,22.572185516357425,-1.4449584484100342,-0.0,-0.0,-1.0,0.117257035604772,1.0
15.668922424316406,22.74169921875,-1.4698162078857422,-0.0,-0.0,-1.0,0.0861991935283974,1.0
15.514432907104492,22.000991821289062,-1.3953983783721924,-0.0,-0.0,-1.0,0.0232586772114056,1.0
15.44280242919922,22.271583557128903,-1.4542958736419678,-0.0,-0.0,-1.0,0.0281345341187576,2.0
14.635929107666016,23.320762634277344,-1.4309816360473633,-0.0,-0.0,-1.0,0.1113637295933519,1.0
14.578271865844728,23.36903381347656,-1.4503676891326904,-0.0,-0.0,-1.0,0.0807134595438864,1.0
15.391395568847656,21.846195220947266,-1.4059264659881592,-0.0,-0.0,-1.0,0.0429464045451428,1.0
15.37789821624756,21.95853614807129,-1.4253056049346924,0.2328147753607155,0.8174191637682933,-0.5268996024652927,0.0339291891449498,3.0
14.940564155578612,23.344104766845703,-1.3658339977264404,-0.378590715180137,-0.6873837165298496,-0.6198166637232366,0.1364219967776835,3.0
15.064891815185549,22.55842399597168,-1.2340433597564695,0.7939311230050418,0.598710002763757,0.1059231066131243,0.178013149697656,6.0
