//X;Y;Z;Rf;Gf;Bf;Intensity;Return Number;Number Of Returns;Scan Direction Flag;Point Source ID;C2M signed distances[-][<0.8];C2M signed distances[<0.4];C2M signed distances[-][<0.2];Stump79
299
445638.63879974;5696570.51889904;470.81384995;0.407843;0.392157;0.290196;25186.000000;1.000000;1.000000;1.000000;1.000000;-0.113077;0.113077;-0.113077;1.000000
445638.84190186;5696570.56549843;470.81425001;0.564706;0.54902;0.427451;35209.000000;1.000000;1.000000;1.000000;1.000000;-0.027525;0.027525;-0.027525;1.000000
445638.88550003;5696570.45629890;470.81264998;0.580392;0.576471;0.501961;37265.000000;1.000000;1.000000;1.000000;1.000000;-0.085715;0.085715;-0.085715;1.000000
445638.92040070;5696570.45769890;470.81885006;0.784314;0.784314;0.709804;50629.000000;1.000000;1.000000;1.000000;1.000000;-0.115698;0.115698;-0.115698;1.000000
445638.88780029;5696570.38139923;470.81414988;0.890196;0.901961;0.858824;58339.000000;1.000000;1.000000;1.000000;1.000000;-0.051399;0.051399;-0.051399;1.000000
445638.92280014;5696570.38269909;470.81804993;0.596078;0.611765;0.564706;39321.000000;1.000000;1.000000;1.000000;1.000000;-0.052699;0.052699;-0.052699;1.000000
445638.81200226;5696570.41659935;470.80414989;0.309804;0.282353;0.215686;18504.000000;1.000000;1.000000;1.000000;1.000000;0.060125;-0.060125;0.060125;1.000000
445638.97440155;5696570.53439911;470.81754996;0.396078;0.411765;0.270588;25443.000000;1.000000;1.000000;1.000000;1.000000;-0.160025;0.160025;-0.160025;1.000000
445639.04540070;5696570.15459927;470.78834989;0.67451;0.662745;0.588235;42919.000000;1.000000;1.000000;1.000000;1.000000;-0.018976;0.018976;-0.018976;1.000000
445638.56649979;5696570.44389923;470.80974986;0.588235;0.560784;0.478431;36494.000000;1.000000;1.000000;1.000000;1.000000;-0.146180;0.146180;-0.146180;1.000000
445638.90649994;5696570.38189896;470.81504991;0.815686;0.831373;0.788235;53713.000000;1.000000;1.000000;1.000000;1.000000;0.051899;-0.051899;0.051899;1.000000
445639.04330261;5696570.23859985;470.80314996;0.52549;0.517647;0.458824;33410.000000;1.000000;1.000000;1.000000;1.000000;-0.085556;0.085556;-0.085556;1.000000
445638.98070343;5696570.34939964;470.81334998;0.678431;0.666667;0.615686;43433.000000;1.000000;1.000000;1.000000;1.000000;0.021861;-0.021861;0.021861;1.000000
445639.05949982;5696570.28619965;470.80215003;0.372549;0.364706;0.278431;23387.000000;1.000000;1.000000;1.000000;1.000000;-0.043800;0.043800;-0.043800;1.000000
445638.96490295;5696570.53299912;470.81944992;0.4;0.423529;0.254902;25957.000000;1.000000;1.000000;1.000000;1.000000;-0.150526;0.150526;-0.150526;1.000000
445638.88739975;5696570.13889893;470.78565003;0.541176;0.52549;0.443137;33924.000000;1.000000;1.000000;1.000000;1.000000;-0.176977;0.176977;-0.176977;1.000000
445638.90880020;5696570.29789932;470.79784991;0.764706;0.752941;0.682353;48830.000000;1.000000;1.000000;1.000000;1.000000;0.032101;-0.032101;0.032101;1.000000
445638.62020309;5696570.31519897;470.80364992;0.647059;0.619608;0.552941;40606.000000;1.000000;1.000000;1.000000;1.000000;0.040710;-0.040710;0.040710;1.000000
445638.81870087;5696570.43479927;470.79775002;0.505882;0.458824;0.368627;30326.000000;1.000000;1.000000;1.000000;1.000000;0.066824;-0.066824;0.066824;1.000000
445638.98790176;5696569.98489960;470.77904989;0.584314;0.568627;0.462745;36751.000000;1.000000;1.000000;1.000000;1.000000;-0.076475;0.076475;-0.076475;1.000000
445638.75850113;5696570.57099922;470.80824997;0.588235;0.572549;0.470588;37008.000000;1.000000;1.000000;1.000000;1.000000;0.006624;-0.006624;0.006624;1.000000
445638.67710312;5696570.53159912;470.82044985;0.313725;0.294118;0.227451;19018.000000;1.000000;1.000000;1.000000;1.000000;-0.074774;0.074774;-0.074774;1.000000
445639.05830200;5696570.24889954;470.80164983;0.466667;0.454902;0.388235;29555.000000;1.000000;1.000000;1.000000;1.000000;-0.081100;0.081100;-0.081100;1.000000
445638.64949997;5696570.25189980;470.79954984;0.631373;0.619608;0.568627;40349.000000;1.000000;1.000000;1.000000;1.000000;0.078575;-0.078575;0.078575;1.000000
445638.56950195;5696570.37819870;470.81375005;0.294118;0.262745;0.196078;17219.000000;1.000000;1.000000;1.000000;1.000000;-0.100884;0.100884;-0.100884;1.000000
445638.72220047;5696570.53229912;470.80614998;0.623529;0.615686;0.537255;39835.000000;1.000000;1.000000;1.000000;1.000000;-0.029676;0.029676;-0.029676;1.000000
445638.89750107;5696570.12159927;470.78584983;0.513725;0.494118;0.415686;32125.000000;1.000000;1.000000;1.000000;1.000000;-0.166876;0.166876;-0.166876;1.000000
445638.83440216;5696570.51009949;470.81324985;0.568627;0.560784;0.45098;35980.000000;1.000000;1.000000;1.000000;1.000000;-0.020025;0.020025;-0.020025;1.000000
445638.83520325;5696570.46349915;470.80344989;0.541176;0.513725;0.415686;33410.000000;1.000000;1.000000;1.000000;1.000000;-0.045829;0.045829;-0.045829;1.000000
445638.61680038;5696570.37859924;470.80425002;0.580392;0.545098;0.466667;35723.000000;1.000000;1.000000;1.000000;1.000000;-0.063795;0.063795;-0.063795;1.000000
445638.88860138;5696570.10139854;470.78524997;0.654902;0.639216;0.560784;41634.000000;1.000000;1.000000;1.000000;1.000000;-0.175776;0.175776;-0.175776;1.000000
445638.88050278;5696570.53139885;470.82025005;0.160784;0.152941;0.027451;9252.000000;1.000000;1.000000;1.000000;1.000000;-0.066126;0.066126;-0.066126;1.000000
445638.51290329;5696570.40199860;470.82305004;0.278431;0.258824;0.196078;16705.000000;1.000000;1.000000;1.000000;1.000000;-0.162092;0.162092;-0.162092;1.000000
445638.95790298;5696570.45879944;470.82054998;0.607843;0.603922;0.509804;38807.000000;1.000000;1.000000;1.000000;1.000000;-0.128799;0.128799;-0.128799;1.000000
445639.01370056;5696570.29519852;470.79784991;0.454902;0.431373;0.352941;28013.000000;1.000000;1.000000;1.000000;1.000000;-0.034801;0.034801;-0.034801;1.000000
445638.83860214;5696570.42579849;470.80544998;0.345098;0.309804;0.239216;20303.000000;1.000000;1.000000;1.000000;1.000000;-0.082131;0.082131;-0.082131;1.000000
445638.57290085;5696570.34049900;470.81574990;0.619608;0.592157;0.52549;38807.000000;1.000000;1.000000;1.000000;1.000000;-0.085870;0.085870;-0.085870;1.000000
445638.53660019;5696570.30179985;470.81594994;0.615686;0.592157;0.533333;38807.000000;1.000000;1.000000;1.000000;1.000000;0.124756;-0.124756;0.124756;1.000000
445638.57420166;5696570.30299957;470.81305005;0.768627;0.745098;0.690196;48830.000000;1.000000;1.000000;1.000000;1.000000;0.088162;-0.088162;0.088162;1.000000
445638.90990265;5696570.26039894;470.79974987;0.478431;0.462745;0.372549;29812.000000;1.000000;1.000000;1.000000;1.000000;0.069601;-0.069601;0.069601;1.000000
445638.94760330;5696570.26389893;470.79915001;0.698039;0.690196;0.603922;44718.000000;1.000000;1.000000;1.000000;1.000000;0.066101;-0.066101;0.066101;1.000000
445638.67189987;5696570.18689926;470.79044988;0.654902;0.639216;0.588235;41634.000000;1.000000;1.000000;1.000000;1.000000;-0.143101;0.143101;-0.143101;1.000000
445638.96600159;5696570.10589893;470.78884985;0.592157;0.576471;0.501961;37522.000000;1.000000;1.000000;1.000000;1.000000;-0.098375;0.098375;-0.098375;1.000000
445638.67310150;5696570.14939888;470.79005005;0.466667;0.447059;0.368627;29041.000000;1.000000;1.000000;1.000000;1.000000;-0.180601;0.180601;-0.180601;1.000000
445638.58279999;5696570.51939972;470.81364991;0.54902;0.545098;0.411765;34695.000000;1.000000;1.000000;1.000000;1.000000;-0.169077;0.169077;-0.169077;1.000000
445639.04409988;5696570.16639908;470.79075005;0.67451;0.662745;0.584314;42919.000000;1.000000;1.000000;1.000000;1.000000;-0.023060;0.023060;-0.023060;1.000000
445638.98520096;5696570.26509865;470.79854991;0.529412;0.509804;0.431373;33153.000000;1.000000;1.000000;1.000000;1.000000;-0.066518;0.066518;-0.066518;1.000000
445638.97240265;5696570.12399872;470.78935005;0.639216;0.615686;0.545098;40092.000000;1.000000;1.000000;1.000000;1.000000;-0.091974;0.091974;-0.091974;1.000000
445638.65570267;5696570.34469898;470.80324986;0.564706;0.545098;0.482353;35466.000000;1.000000;1.000000;1.000000;1.000000;-0.014898;0.014898;-0.014898;1.000000
445639.04780014;5696570.12869843;470.78574993;0.592157;0.584314;0.505882;37779.000000;1.000000;1.000000;1.000000;1.000000;-0.016577;0.016577;-0.016577;1.000000
445638.93610199;5696570.55189903;470.82305004;0.282353;0.305882;0.121569;18247.000000;1.000000;1.000000;1.000000;1.000000;-0.121725;0.121725;-0.121725;1.000000
445639.03880127;5696570.10849960;470.78744986;0.603922;0.588235;0.509804;38293.000000;1.000000;1.000000;1.000000;1.000000;-0.025576;0.025576;-0.025576;1.000000
445639.04930313;5696570.04449852;470.78484990;0.639216;0.631373;0.552941;40863.000000;1.000000;1.000000;1.000000;1.000000;-0.015074;0.015074;-0.015074;1.000000
445638.90480240;5696569.99949844;470.78475000;0.568627;0.556863;0.45098;35723.000000;1.000000;1.000000;1.000000;1.000000;-0.159575;0.159575;-0.159575;1.000000
445638.61870010;5696570.55579956;470.81804993;0.619608;0.623529;0.513725;39835.000000;1.000000;1.000000;1.000000;1.000000;-0.133177;0.133177;-0.133177;1.000000
445638.94030197;5696570.00319870;470.78405001;0.592157;0.576471;0.47451;37265.000000;1.000000;1.000000;1.000000;1.000000;-0.124075;0.124075;-0.124075;1.000000
445638.92760284;5696570.06749924;470.78425004;0.619608;0.596078;0.513725;38807.000000;1.000000;1.000000;1.000000;1.000000;-0.136774;0.136774;-0.136774;1.000000
445639.00970276;5696570.30259903;470.79775002;0.482353;0.462745;0.388235;30069.000000;1.000000;1.000000;1.000000;1.000000;0.027401;-0.027401;0.027401;1.000000
445639.04000290;5696570.07099922;470.78705003;0.552941;0.545098;0.462745;35209.000000;1.000000;1.000000;1.000000;1.000000;-0.024374;0.024374;-0.024374;1.000000
445639.04890259;5696570.09119900;470.78775002;0.654902;0.647059;0.568627;41891.000000;1.000000;1.000000;1.000000;1.000000;-0.015474;0.015474;-0.015474;1.000000
445639.02270325;5696570.26629932;470.79795005;0.286275;0.266667;0.188235;17219.000000;1.000000;1.000000;1.000000;1.000000;-0.063701;0.063701;-0.063701;1.000000
445638.96630295;5696570.03119858;470.78324987;0.729412;0.713725;0.623529;46260.000000;1.000000;1.000000;1.000000;1.000000;-0.098074;0.098074;-0.098074;1.000000
445638.84090240;5696570.35079964;470.80464985;0.490196;0.482353;0.407843;31097.000000;1.000000;1.000000;1.000000;1.000000;0.020800;-0.020800;0.020800;1.000000
445638.93070038;5696570.23279961;470.79804995;0.443137;0.435294;0.345098;28013.000000;1.000000;1.000000;1.000000;1.000000;-0.097200;0.097200;-0.097200;1.000000
445638.87610062;5696570.22389896;470.79775002;0.654902;0.639216;0.564706;41634.000000;1.000000;1.000000;1.000000;1.000000;-0.106101;0.106101;-0.106101;1.000000
445638.70090302;5696570.40129860;470.79894998;0.619608;0.588235;0.509804;38550.000000;1.000000;1.000000;1.000000;1.000000;-0.050974;0.050974;-0.050974;1.000000
445638.70210083;5696570.36379917;470.79854991;0.658824;0.635294;0.564706;41377.000000;1.000000;1.000000;1.000000;1.000000;-0.033799;0.033799;-0.033799;1.000000
445638.92749985;5696570.29849918;470.79865005;0.631373;0.619608;0.545098;40092.000000;1.000000;1.000000;1.000000;1.000000;0.031501;-0.031501;0.031501;1.000000
445638.96510132;5696570.30199917;470.80044987;0.631373;0.615686;0.541176;40092.000000;1.000000;1.000000;1.000000;1.000000;-0.028001;0.028001;-0.028001;1.000000
445639.00280197;5696570.30319984;470.79744985;0.470588;0.45098;0.376471;29298.000000;1.000000;1.000000;1.000000;1.000000;0.026800;-0.026800;0.026800;1.000000
445638.63440140;5696570.21359928;470.79604985;0.752941;0.752941;0.705882;48830.000000;1.000000;1.000000;1.000000;1.000000;0.118794;-0.118794;0.118794;1.000000
445638.87860306;5696570.35429962;470.80644991;0.384314;0.384314;0.301961;24415.000000;1.000000;1.000000;1.000000;1.000000;-0.024300;0.024300;-0.024300;1.000000
445638.73190125;5696570.30959900;470.80394985;0.627451;0.603922;0.521569;39321.000000;1.000000;1.000000;1.000000;1.000000;-0.020401;0.020401;-0.020401;1.000000
445638.70730026;5696570.21619900;470.79244997;0.564706;0.552941;0.505882;35980.000000;1.000000;1.000000;1.000000;1.000000;0.113801;-0.113801;0.113801;1.000000
445638.92880066;5696570.26329906;470.80064990;0.596078;0.584314;0.494118;37779.000000;1.000000;1.000000;1.000000;1.000000;-0.066701;0.066701;-0.066701;1.000000
445638.89260300;5696570.22469910;470.79624989;0.643137;0.627451;0.545098;40606.000000;1.000000;1.000000;1.000000;1.000000;0.105301;-0.105301;0.105301;1.000000
445638.96770294;5696570.22709854;470.79495003;0.419608;0.411765;0.321569;26471.000000;1.000000;1.000000;1.000000;1.000000;-0.102901;0.102901;-0.102901;1.000000
445638.94890030;5696570.22649963;470.79644992;0.4;0.392157;0.294118;24929.000000;1.000000;1.000000;1.000000;1.000000;0.103500;-0.103500;0.103500;1.000000
445639.08020218;5696570.23059853;470.79775002;0.607843;0.592157;0.529412;38550.000000;1.000000;1.000000;1.000000;1.000000;0.076679;-0.076679;0.076679;1.000000
445639.05010040;5696570.05369957;470.78734996;0.729412;0.72549;0.654902;47031.000000;1.000000;1.000000;1.000000;1.000000;-0.014277;0.014277;-0.014277;1.000000
445639.06130035;5696570.22999962;470.79924991;0.647059;0.635294;0.576471;41377.000000;1.000000;1.000000;1.000000;1.000000;-0.074463;0.074463;-0.074463;1.000000
445638.71870239;5696570.16149910;470.78994991;0.494118;0.478431;0.419608;31097.000000;1.000000;1.000000;1.000000;1.000000;-0.168501;0.168501;-0.168501;1.000000
445638.90470322;5696569.97379883;470.78674986;0.658824;0.643137;0.537255;41634.000000;1.000000;1.000000;1.000000;1.000000;-0.159674;0.159674;-0.159674;1.000000
445638.98780258;5696570.19019897;470.79314997;0.34902;0.333333;0.254902;21588.000000;1.000000;1.000000;1.000000;1.000000;-0.084082;0.084082;-0.084082;1.000000
445638.68120010;5696570.16029938;470.78824999;0.494118;0.47451;0.407843;30840.000000;1.000000;1.000000;1.000000;1.000000;-0.169701;0.169701;-0.169701;1.000000
445638.60950287;5696570.35119923;470.80585005;0.505882;0.486275;0.423529;31611.000000;1.000000;1.000000;1.000000;1.000000;-0.053044;0.053044;-0.053044;1.000000
445638.79870041;5696570.27529915;470.80655005;0.647059;0.639216;0.568627;41377.000000;1.000000;1.000000;1.000000;1.000000;-0.054701;0.054701;-0.054701;1.000000
445638.91200073;5696570.00119980;470.78514983;0.533333;0.52549;0.423529;33667.000000;1.000000;1.000000;1.000000;1.000000;-0.152376;0.152376;-0.152376;1.000000
445638.63610275;5696570.56579979;470.81664993;0.592157;0.584314;0.513725;37779.000000;1.000000;1.000000;1.000000;1.000000;-0.115774;0.115774;-0.115774;1.000000
445638.64480026;5696570.35269936;470.80285003;0.635294;0.611765;0.552941;40092.000000;1.000000;1.000000;1.000000;1.000000;-0.026322;0.026322;-0.026322;1.000000
445639.09190186;5696570.40929897;470.80504992;0.729412;0.717647;0.670588;46774.000000;1.000000;1.000000;1.000000;1.000000;-0.079299;0.079299;-0.079299;1.000000
445638.79990204;5696570.23779877;470.80614998;0.780392;0.780392;0.721569;50629.000000;1.000000;1.000000;1.000000;1.000000;-0.092201;0.092201;-0.092201;1.000000
445639.05420120;5696570.17469891;470.79125001;0.678431;0.662745;0.584314;43176.000000;1.000000;1.000000;1.000000;1.000000;-0.021792;0.021792;-0.021792;1.000000
445638.94460114;5696570.36659916;470.82124998;0.890196;0.898039;0.858824;58339.000000;1.000000;1.000000;1.000000;1.000000;-0.036599;0.036599;-0.036599;1.000000
445638.59980209;5696570.52719887;470.81454994;0.619608;0.619608;0.482353;39578.000000;1.000000;1.000000;1.000000;1.000000;-0.152075;0.152075;-0.152075;1.000000
445638.64830215;5696570.31499870;470.80254986;0.666667;0.643137;0.572549;41891.000000;1.000000;1.000000;1.000000;1.000000;0.017932;-0.017932;0.017932;1.000000
445638.57430084;5696570.27509888;470.80574991;0.768627;0.74902;0.690196;48830.000000;1.000000;1.000000;1.000000;1.000000;0.100205;-0.100205;0.100205;1.000000
445638.61180313;5696570.27629860;470.80515005;0.717647;0.694118;0.631373;45489.000000;1.000000;1.000000;1.000000;1.000000;0.070921;-0.070921;0.070921;1.000000
445638.57560165;5696570.23759850;470.80305006;0.580392;0.568627;0.521569;37008.000000;1.000000;1.000000;1.000000;1.000000;0.123889;-0.123889;0.123889;1.000000
445638.79930313;5696570.45289906;470.79935004;0.647059;0.607843;0.505882;39835.000000;1.000000;1.000000;1.000000;1.000000;0.047426;-0.047426;0.047426;1.000000
445638.95020111;5696570.18899925;470.79374983;0.611765;0.592157;0.517647;38550.000000;1.000000;1.000000;1.000000;1.000000;-0.118994;0.118994;-0.118994;1.000000
445638.49730118;5696570.33569916;470.82394983;0.580392;0.560784;0.498039;36494.000000;1.000000;1.000000;1.000000;1.000000;-0.160927;0.160927;-0.160927;1.000000
445638.94220169;5696569.97499855;470.78615000;0.529412;0.513725;0.411765;33153.000000;1.000000;1.000000;1.000000;1.000000;-0.122175;0.122175;-0.122175;1.000000
445638.80240067;5696570.16289909;470.80305006;0.847059;0.847059;0.788235;54998.000000;1.000000;1.000000;1.000000;1.000000;-0.167101;0.167101;-0.167101;1.000000
445639.02520187;5696570.19139870;470.79484989;0.588235;0.580392;0.505882;37522.000000;1.000000;1.000000;1.000000;1.000000;-0.053133;0.053133;-0.053133;1.000000
445638.90760239;5696570.12999924;470.78644993;0.576471;0.560784;0.482353;36494.000000;1.000000;1.000000;1.000000;1.000000;-0.156775;0.156775;-0.156775;1.000000
445638.90910156;5696570.09489925;470.78374984;0.623529;0.607843;0.533333;39578.000000;1.000000;1.000000;1.000000;1.000000;-0.155275;0.155275;-0.155275;1.000000
445638.57170303;5696570.55309875;470.81824996;0.4;0.388235;0.258824;24672.000000;1.000000;1.000000;1.000000;1.000000;-0.180174;0.180174;-0.180174;1.000000
445638.68230255;5696570.55929955;470.81394984;0.309804;0.290196;0.231373;18761.000000;1.000000;1.000000;1.000000;1.000000;-0.069574;0.069574;-0.069574;1.000000
445638.79510315;5696570.56289871;470.80985000;0.619608;0.6;0.494118;38807.000000;1.000000;1.000000;1.000000;1.000000;0.019274;-0.019274;0.019274;1.000000
445638.53920181;5696570.47909935;470.81355001;0.541176;0.533333;0.470588;34438.000000;1.000000;1.000000;1.000000;1.000000;-0.190719;0.190719;-0.190719;1.000000
445638.64949997;5696570.48289879;470.81394984;0.713725;0.694118;0.619608;45232.000000;1.000000;1.000000;1.000000;1.000000;-0.102377;0.102377;-0.102377;1.000000
445638.68680008;5696570.48399933;470.81795003;0.878431;0.843137;0.772549;55255.000000;1.000000;1.000000;1.000000;1.000000;-0.065077;0.065077;-0.065077;1.000000
445638.72240265;5696570.48549850;470.81025006;0.411765;0.388235;0.309804;25186.000000;1.000000;1.000000;1.000000;1.000000;-0.029474;0.029474;-0.029474;1.000000
445638.54040344;5696570.44159897;470.81314995;0.443137;0.423529;0.341176;27499.000000;1.000000;1.000000;1.000000;1.000000;-0.162213;0.162213;-0.162213;1.000000
445638.98400314;5696570.53589924;470.81565001;0.411765;0.423529;0.301961;26471.000000;1.000000;1.000000;1.000000;1.000000;-0.169626;0.169626;-0.169626;1.000000
445638.87250336;5696570.49259956;470.81244995;0.713725;0.698039;0.596078;45232.000000;1.000000;1.000000;1.000000;1.000000;-0.059263;0.059263;-0.059263;1.000000
445638.58040054;5696570.36789902;470.81174995;0.356863;0.329412;0.258824;21588.000000;1.000000;1.000000;1.000000;1.000000;-0.086474;0.086474;-0.086474;1.000000
445639.01379974;5696570.22049912;470.79694988;0.701961;0.694118;0.635294;44975.000000;1.000000;1.000000;1.000000;1.000000;-0.082318;0.082318;-0.082318;1.000000
445638.86020096;5696570.53799923;470.81714990;0.454902;0.435294;0.309804;27756.000000;1.000000;1.000000;1.000000;1.000000;-0.045824;0.045824;-0.045824;1.000000
445638.64110001;5696570.49299915;470.81364991;0.541176;0.521569;0.439216;33924.000000;1.000000;1.000000;1.000000;1.000000;-0.110777;0.110777;-0.110777;1.000000
445638.71389969;5696570.49559982;470.81235005;0.407843;0.384314;0.309804;24929.000000;1.000000;1.000000;1.000000;1.000000;-0.037977;0.037977;-0.037977;1.000000
445638.56710251;5696570.45089920;470.81215002;0.509804;0.490196;0.407843;31868.000000;1.000000;1.000000;1.000000;1.000000;-0.151334;0.151334;-0.151334;1.000000
445638.98270233;5696570.13469894;470.78985002;0.670588;0.65098;0.580392;42405.000000;1.000000;1.000000;1.000000;1.000000;-0.081675;0.081675;-0.081675;1.000000
445639.09510239;5696570.52109917;470.80884983;0.458824;0.427451;0.345098;28013.000000;1.000000;1.000000;1.000000;1.000000;-0.188025;0.188025;-0.188025;1.000000
445638.63830002;5696570.53989895;470.81644990;0.65098;0.631373;0.537255;40863.000000;1.000000;1.000000;1.000000;1.000000;-0.113577;0.113577;-0.113577;1.000000
445638.60050018;5696570.56429871;470.82434990;0.490196;0.486275;0.368627;31097.000000;1.000000;1.000000;1.000000;1.000000;-0.151377;0.151377;-0.151377;1.000000
445639.01790054;5696570.13609894;470.78915002;0.615686;0.596078;0.521569;38807.000000;1.000000;1.000000;1.000000;1.000000;-0.046476;0.046476;-0.046476;1.000000
445638.58130081;5696570.33029945;470.81604983;0.654902;0.627451;0.560784;41120.000000;1.000000;1.000000;1.000000;1.000000;-0.076827;0.076827;-0.076827;1.000000
445638.54530151;5696570.29399879;470.81394984;0.556863;0.533333;0.470588;34952.000000;1.000000;1.000000;1.000000;1.000000;0.118430;-0.118430;0.118430;1.000000
445638.91740234;5696570.31809910;470.80314996;0.690196;0.678431;0.619608;44204.000000;1.000000;1.000000;1.000000;1.000000;0.011901;-0.011901;0.011901;1.000000
445638.52420242;5696570.34719856;470.82294991;0.631373;0.611765;0.552941;39835.000000;1.000000;1.000000;1.000000;1.000000;-0.135024;0.135024;-0.135024;1.000000
445639.00610168;5696569.95739944;470.78414990;0.588235;0.568627;0.470588;36751.000000;1.000000;1.000000;1.000000;1.000000;-0.058275;0.058275;-0.058275;1.000000
445638.73170288;5696570.53379925;470.80655005;0.701961;0.690196;0.607843;44718.000000;1.000000;1.000000;1.000000;1.000000;-0.020174;0.020174;-0.020174;1.000000
445639.05560120;5696570.13729866;470.78624990;0.631373;0.623529;0.54902;40349.000000;1.000000;1.000000;1.000000;1.000000;-0.008776;0.008776;-0.008776;1.000000
445638.89070328;5696570.30649956;470.80174996;0.658824;0.647059;0.584314;42148.000000;1.000000;1.000000;1.000000;1.000000;0.023500;-0.023500;0.023500;1.000000
445638.62380035;5696570.45499905;470.80775001;0.286275;0.262745;0.188235;16962.000000;1.000000;1.000000;1.000000;1.000000;-0.128077;0.128077;-0.128077;1.000000
445638.80949982;5696570.46359928;470.80224993;0.592157;0.564706;0.462745;36751.000000;1.000000;1.000000;1.000000;1.000000;0.041038;-0.041038;0.041038;1.000000
445638.73540314;5696570.42139919;470.80305006;0.533333;0.505882;0.419608;32896.000000;1.000000;1.000000;1.000000;1.000000;-0.016474;0.016474;-0.016474;1.000000
445638.68610199;5696570.31629951;470.79725005;0.682353;0.654902;0.576471;42662.000000;1.000000;1.000000;1.000000;1.000000;-0.013700;0.013700;-0.013700;1.000000
445638.95050247;5696570.21699913;470.79405000;0.407843;0.392157;0.305882;25186.000000;1.000000;1.000000;1.000000;1.000000;0.113001;-0.113001;0.113001;1.000000
445638.93610199;5696570.08529861;470.78725006;0.619608;0.6;0.52549;39064.000000;1.000000;1.000000;1.000000;1.000000;-0.128275;0.128275;-0.128275;1.000000
445638.73900040;5696570.38369949;470.80044987;0.513725;0.501961;0.431373;32382.000000;1.000000;1.000000;1.000000;1.000000;-0.012877;0.012877;-0.012877;1.000000
445638.64700134;5696570.55779846;470.81705000;0.615686;0.592157;0.521569;38550.000000;1.000000;1.000000;1.000000;1.000000;-0.104876;0.104876;-0.104876;1.000000
445638.88970001;5696570.11299904;470.78545000;0.545098;0.529412;0.45098;34438.000000;1.000000;1.000000;1.000000;1.000000;-0.174677;0.174677;-0.174677;1.000000
445638.95500000;5696570.31929977;470.80244996;0.494118;0.478431;0.419608;31097.000000;1.000000;1.000000;1.000000;1.000000;0.010700;-0.010700;0.010700;1.000000
445638.99260147;5696570.32269867;470.80425002;0.67451;0.658824;0.592157;42919.000000;1.000000;1.000000;1.000000;1.000000;0.011804;-0.011804;0.011804;1.000000
445638.83390244;5696570.52889927;470.81114985;0.588235;0.572549;0.462745;37008.000000;1.000000;1.000000;1.000000;1.000000;-0.019526;0.019526;-0.019526;1.000000
445638.87110336;5696570.52999886;470.81754996;0.298039;0.270588;0.137255;17219.000000;1.000000;1.000000;1.000000;1.000000;-0.056726;0.056726;-0.056726;1.000000
445638.65100296;5696570.44779976;470.81124999;0.654902;0.627451;0.556863;41120.000000;1.000000;1.000000;1.000000;1.000000;-0.100874;0.100874;-0.100874;1.000000
445638.90990265;5696570.49369915;470.81655004;0.396078;0.388235;0.266667;24672.000000;1.000000;1.000000;1.000000;1.000000;-0.096087;0.096087;-0.096087;1.000000
445638.94760330;5696570.49719913;470.81594994;0.403922;0.403922;0.286275;25443.000000;1.000000;1.000000;1.000000;1.000000;-0.133404;0.133404;-0.133404;1.000000
445638.54150208;5696570.40409859;470.81504991;0.360784;0.329412;0.258824;21588.000000;1.000000;1.000000;1.000000;1.000000;-0.138174;0.138174;-0.138174;1.000000
445638.91110046;5696570.45629890;470.81614997;0.780392;0.776471;0.705882;50372.000000;1.000000;1.000000;1.000000;1.000000;-0.107876;0.107876;-0.107876;1.000000
445638.87710007;5696570.41739853;470.81414988;0.172549;0.14902;0.0980392;9766.000000;1.000000;1.000000;1.000000;1.000000;-0.087399;0.087399;-0.087399;1.000000
445638.91250046;5696570.42109879;470.81574990;0.45098;0.435294;0.356863;28270.000000;1.000000;1.000000;1.000000;1.000000;-0.091099;0.091099;-0.091099;1.000000
445638.94989975;5696570.42229851;470.81744983;0.34902;0.341176;0.239216;21588.000000;1.000000;1.000000;1.000000;1.000000;-0.092299;0.092299;-0.092299;1.000000
445638.98770340;5696570.42349918;470.81215002;0.423529;0.419608;0.329412;26728.000000;1.000000;1.000000;1.000000;1.000000;-0.094567;0.094567;-0.094567;1.000000
445638.87130173;5696570.09129913;470.78664996;0.513725;0.505882;0.419608;32639.000000;1.000000;1.000000;1.000000;1.000000;-0.193075;0.193075;-0.193075;1.000000
445638.80330093;5696570.37749870;470.81264998;0.54902;0.54902;0.486275;35466.000000;1.000000;1.000000;1.000000;1.000000;0.047499;-0.047499;0.047499;1.000000
445638.98870285;5696570.38599976;470.81644990;0.470588;0.470588;0.403922;30326.000000;1.000000;1.000000;1.000000;1.000000;-0.057528;0.057528;-0.057528;1.000000
445639.02639969;5696570.38719948;470.81114985;0.541176;0.537255;0.482353;34695.000000;1.000000;1.000000;1.000000;1.000000;0.057199;-0.057199;0.057199;1.000000
445638.80450256;5696570.34009941;470.81224992;0.780392;0.780392;0.713725;50629.000000;1.000000;1.000000;1.000000;1.000000;0.010099;-0.010099;0.010099;1.000000
445638.95500000;5696570.34949883;470.81215002;0.772549;0.768627;0.721569;49858.000000;1.000000;1.000000;1.000000;1.000000;-0.019499;0.019499;-0.019499;1.000000
445638.80590256;5696570.30489929;470.81184985;0.823529;0.819608;0.756863;53199.000000;1.000000;1.000000;1.000000;1.000000;-0.025101;0.025101;-0.025101;1.000000
445638.92840012;5696570.04879959;470.77944996;0.494118;0.47451;0.368627;30583.000000;1.000000;1.000000;1.000000;1.000000;-0.135977;0.135977;-0.135977;1.000000
445638.91710098;5696570.13149937;470.78684999;0.631373;0.615686;0.541176;40092.000000;1.000000;1.000000;1.000000;1.000000;-0.147276;0.147276;-0.147276;1.000000
445638.96930130;5696570.01229866;470.78084995;0.713725;0.698039;0.603922;45232.000000;1.000000;1.000000;1.000000;1.000000;-0.095076;0.095076;-0.095076;1.000000
445638.94410141;5696570.09629925;470.78764989;0.588235;0.568627;0.494118;37008.000000;1.000000;1.000000;1.000000;1.000000;-0.120275;0.120275;-0.120275;1.000000
445639.00460251;5696570.01369865;470.78014996;0.576471;0.556863;0.447059;35980.000000;1.000000;1.000000;1.000000;1.000000;-0.059774;0.059774;-0.059774;1.000000
445638.97510345;5696570.05139931;470.78624990;0.572549;0.560784;0.470588;36237.000000;1.000000;1.000000;1.000000;1.000000;-0.089273;0.089273;-0.089273;1.000000
445638.52300079;5696570.38469894;470.82334997;0.290196;0.262745;0.207843;17219.000000;1.000000;1.000000;1.000000;1.000000;-0.145777;0.145777;-0.145777;1.000000
445639.04350098;5696569.97969921;470.77915003;0.647059;0.623529;0.545098;40606.000000;1.000000;1.000000;1.000000;1.000000;-0.020876;0.020876;-0.020876;1.000000
445638.92720230;5696570.53169926;470.82235004;0.301961;0.309804;0.117647;18761.000000;1.000000;1.000000;1.000000;1.000000;-0.112825;0.112825;-0.112825;1.000000
445638.60010345;5696570.35209854;470.80784990;0.466667;0.443137;0.380392;29041.000000;1.000000;1.000000;1.000000;1.000000;-0.062089;0.062089;-0.062089;1.000000
445639.06530197;5696570.32529934;470.80524995;0.521569;0.505882;0.435294;32896.000000;1.000000;1.000000;1.000000;1.000000;0.004701;-0.004701;0.004701;1.000000
445639.06369980;5696570.40729912;470.80375006;0.85098;0.85098;0.807843;55255.000000;1.000000;1.000000;1.000000;1.000000;0.077299;-0.077299;0.077299;1.000000
445639.06480225;5696570.36979874;470.80574991;0.439216;0.427451;0.368627;27756.000000;1.000000;1.000000;1.000000;1.000000;-0.039799;0.039799;-0.039799;1.000000
445638.98400314;5696570.09719856;470.78714993;0.627451;0.611765;0.533333;39835.000000;1.000000;1.000000;1.000000;1.000000;-0.080374;0.080374;-0.080374;1.000000
445639.01920135;5696570.09859856;470.78644993;0.701961;0.686275;0.607843;44718.000000;1.000000;1.000000;1.000000;1.000000;-0.045176;0.045176;-0.045176;1.000000
445638.91030319;5696570.05739983;470.78335001;0.384314;0.360784;0.258824;23130.000000;1.000000;1.000000;1.000000;1.000000;-0.154074;0.154074;-0.154074;1.000000
445638.86580093;5696570.00999935;470.79014995;0.333333;0.313725;0.196078;20046.000000;1.000000;1.000000;1.000000;1.000000;-0.198576;0.198576;-0.198576;1.000000
445638.94790085;5696570.05859955;470.78274991;0.572549;0.556863;0.466667;35980.000000;1.000000;1.000000;1.000000;1.000000;-0.116476;0.116476;-0.116476;1.000000
445638.91870316;5696570.28059967;470.80034997;0.466667;0.454902;0.372549;29298.000000;1.000000;1.000000;1.000000;1.000000;0.049400;-0.049400;0.049400;1.000000
445638.93660172;5696570.50519951;470.81784989;0.411765;0.411765;0.270588;25957.000000;1.000000;1.000000;1.000000;1.000000;-0.122225;0.122225;-0.122225;1.000000
445638.56840332;5696570.41339882;470.80944993;0.372549;0.337255;0.239216;21845.000000;1.000000;1.000000;1.000000;1.000000;-0.122498;0.122498;-0.122498;1.000000
445638.95430191;5696570.10459908;470.78824999;0.560784;0.545098;0.462745;35209.000000;1.000000;1.000000;1.000000;1.000000;-0.110075;0.110075;-0.110075;1.000000
445638.81340225;5696570.36019905;470.81285002;0.588235;0.588235;0.52549;38036.000000;1.000000;1.000000;1.000000;1.000000;0.030199;-0.030199;0.030199;1.000000
445638.88080032;5696570.09279926;470.78475000;0.611765;0.603922;0.521569;39064.000000;1.000000;1.000000;1.000000;1.000000;-0.183577;0.183577;-0.183577;1.000000
445638.65770157;5696570.28849895;470.79804995;0.631373;0.607843;0.541176;39578.000000;1.000000;1.000000;1.000000;1.000000;0.041503;-0.041503;0.041503;1.000000
445638.94900330;5696570.02109917;470.78234984;0.713725;0.701961;0.607843;45489.000000;1.000000;1.000000;1.000000;1.000000;-0.115374;0.115374;-0.115374;1.000000
445638.90390213;5696570.42889984;470.81544997;0.352941;0.341176;0.266667;21845.000000;1.000000;1.000000;1.000000;1.000000;0.098900;-0.098900;0.098900;1.000000
445638.94130142;5696570.43009956;470.81714990;0.360784;0.352941;0.243137;22359.000000;1.000000;1.000000;1.000000;1.000000;-0.100100;0.100100;-0.100100;1.000000
445638.97670181;5696570.43149956;470.81414988;0.380392;0.368627;0.262745;23387.000000;1.000000;1.000000;1.000000;1.000000;0.101681;-0.101681;0.101681;1.000000
445638.86750229;5696570.39019974;470.81565001;0.866667;0.87451;0.827451;56797.000000;1.000000;1.000000;1.000000;1.000000;0.060200;-0.060200;0.060200;1.000000
445638.98019989;5696570.39609917;470.81854989;0.533333;0.52549;0.458824;33924.000000;1.000000;1.000000;1.000000;1.000000;0.066789;-0.066789;0.066789;1.000000
445639.02400024;5696570.02349861;470.78344991;0.568627;0.552941;0.462745;35723.000000;1.000000;1.000000;1.000000;1.000000;-0.040377;0.040377;-0.040377;1.000000
445638.95010193;5696569.98359879;470.78434994;0.505882;0.494118;0.392157;31868.000000;1.000000;1.000000;1.000000;1.000000;-0.114275;0.114275;-0.114275;1.000000
445639.01570328;5696570.39759930;470.81084992;0.509804;0.505882;0.447059;32639.000000;1.000000;1.000000;1.000000;1.000000;0.067599;-0.067599;0.067599;1.000000
445638.94370087;5696570.35509880;470.81635000;0.858824;0.866667;0.815686;56026.000000;1.000000;1.000000;1.000000;1.000000;-0.025099;0.025099;-0.025099;1.000000
445638.67820175;5696570.49409874;470.82235004;0.807843;0.772549;0.717647;50886.000000;1.000000;1.000000;1.000000;1.000000;-0.073675;0.073675;-0.073675;1.000000
445639.07010086;5696570.25019844;470.80224993;0.592157;0.584314;0.513725;37779.000000;1.000000;1.000000;1.000000;1.000000;0.079802;-0.079802;0.079802;1.000000
445638.93990143;5696570.46749886;470.82224991;0.627451;0.627451;0.541176;40349.000000;1.000000;1.000000;1.000000;1.000000;-0.130709;0.130709;-0.130709;1.000000
445638.88780029;5696570.35339935;470.80684998;0.392157;0.392157;0.317647;24929.000000;1.000000;1.000000;1.000000;1.000000;-0.023399;0.023399;-0.023399;1.000000
445638.67380341;5696570.33599861;470.79924991;0.635294;0.615686;0.545098;40092.000000;1.000000;1.000000;1.000000;1.000000;0.005999;-0.005999;0.005999;1.000000
445638.74139984;5696570.31099899;470.80434992;0.647059;0.627451;0.541176;40863.000000;1.000000;1.000000;1.000000;1.000000;-0.019001;0.019001;-0.019001;1.000000
445638.96440323;5696570.32069977;470.80294992;0.576471;0.560784;0.498039;36494.000000;1.000000;1.000000;1.000000;1.000000;-0.009300;0.009300;-0.009300;1.000000
445639.06300171;5696570.19489868;470.79425003;0.662745;0.643137;0.568627;41891.000000;1.000000;1.000000;1.000000;1.000000;-0.039430;0.039430;-0.039430;1.000000
445639.06670197;5696570.51899918;470.81224992;0.368627;0.352941;0.27451;22873.000000;1.000000;1.000000;1.000000;1.000000;-0.188999;0.188999;-0.188999;1.000000
445638.87550171;5696570.47359856;470.81235005;0.419608;0.407843;0.309804;26214.000000;1.000000;1.000000;1.000000;1.000000;-0.068333;0.068333;-0.068333;1.000000
445638.98110016;5696570.14409931;470.79224994;0.65098;0.635294;0.564706;41377.000000;1.000000;1.000000;1.000000;1.000000;-0.083277;0.083277;-0.083277;1.000000
445638.53510101;5696570.33919914;470.82334997;0.552941;0.529412;0.466667;34695.000000;1.000000;1.000000;1.000000;1.000000;-0.123369;0.123369;-0.123369;1.000000
445638.63550003;5696570.35359962;470.80244996;0.619608;0.6;0.537255;39064.000000;1.000000;1.000000;1.000000;1.000000;-0.032694;0.032694;-0.032694;1.000000
445638.72550018;5696570.41299923;470.79784991;0.533333;0.501961;0.419608;32896.000000;1.000000;1.000000;1.000000;1.000000;-0.026377;0.026377;-0.026377;1.000000
445638.90170105;5696570.06519897;470.78304984;0.490196;0.466667;0.376471;30326.000000;1.000000;1.000000;1.000000;1.000000;-0.162676;0.162676;-0.162676;1.000000
445638.97450073;5696570.07009895;470.78644993;0.45098;0.443137;0.34902;28270.000000;1.000000;1.000000;1.000000;1.000000;-0.089876;0.089876;-0.089876;1.000000
445639.01200302;5696570.07129868;470.78584983;0.501961;0.498039;0.411765;31868.000000;1.000000;1.000000;1.000000;1.000000;-0.052374;0.052374;-0.052374;1.000000
445638.86510284;5696570.02649887;470.78795006;0.376471;0.352941;0.247059;22616.000000;1.000000;1.000000;1.000000;1.000000;-0.199274;0.199274;-0.199274;1.000000
445638.91310318;5696570.40239914;470.81554987;0.305882;0.290196;0.235294;18761.000000;1.000000;1.000000;1.000000;1.000000;-0.072399;0.072399;-0.072399;1.000000
445639.08010300;5696570.40809925;470.80454995;0.878431;0.870588;0.831373;56797.000000;1.000000;1.000000;1.000000;1.000000;-0.078099;0.078099;-0.078099;1.000000
445638.66640289;5696570.30639847;470.79865005;0.686275;0.666667;0.592157;43433.000000;1.000000;1.000000;1.000000;1.000000;0.023602;-0.023602;0.023602;1.000000
445638.70380219;5696570.30749901;470.80034997;0.627451;0.603922;0.529412;39321.000000;1.000000;1.000000;1.000000;1.000000;0.022501;-0.022501;0.022501;1.000000
445639.06360062;5696570.17389877;470.78935005;0.647059;0.627451;0.541176;40863.000000;1.000000;1.000000;1.000000;1.000000;-0.018524;0.018524;-0.018524;1.000000
445638.85670288;5696570.44509895;470.80655005;0.223529;0.196078;0.12549;12850.000000;1.000000;1.000000;1.000000;1.000000;-0.072741;0.072741;-0.072741;1.000000
445638.73050125;5696570.57129868;470.80694987;0.529412;0.505882;0.415686;32896.000000;1.000000;1.000000;1.000000;1.000000;-0.021376;0.021376;-0.021376;1.000000
445638.80850037;5696570.45199974;470.79974987;0.643137;0.603922;0.505882;39578.000000;1.000000;1.000000;1.000000;1.000000;0.052723;-0.052723;0.052723;1.000000
445638.58810242;5696570.58189972;470.82394983;0.341176;0.333333;0.247059;21331.000000;1.000000;1.000000;1.000000;1.000000;-0.163774;0.163774;-0.163774;1.000000
445639.02960022;5696570.10939892;470.78705003;0.603922;0.588235;0.505882;38036.000000;1.000000;1.000000;1.000000;1.000000;-0.034777;0.034777;-0.034777;1.000000
445638.66760071;5696570.26889904;470.79824998;0.658824;0.631373;0.576471;41377.000000;1.000000;1.000000;1.000000;1.000000;0.061101;-0.061101;0.061101;1.000000
445638.84610184;5696570.45549973;470.80384995;0.470588;0.439216;0.356863;28784.000000;1.000000;1.000000;1.000000;1.000000;-0.058217;0.058217;-0.058217;1.000000
445638.91810043;5696570.06599911;470.78384997;0.564706;0.537255;0.454902;34952.000000;1.000000;1.000000;1.000000;1.000000;-0.146276;0.146276;-0.146276;1.000000
445638.59200104;5696570.54649933;470.82134988;0.486275;0.486275;0.337255;30583.000000;1.000000;1.000000;1.000000;1.000000;-0.159876;0.159876;-0.159876;1.000000
445638.79520233;5696570.13549908;470.80235006;0.854902;0.858824;0.807843;55769.000000;1.000000;1.000000;1.000000;1.000000;-0.194501;0.194501;-0.194501;1.000000
445638.89080246;5696570.28089912;470.79915001;0.498039;0.478431;0.392157;31097.000000;1.000000;1.000000;1.000000;1.000000;0.049101;-0.049101;0.049101;1.000000
445638.79730042;5696570.31269844;470.81154992;0.705882;0.709804;0.643137;45746.000000;1.000000;1.000000;1.000000;1.000000;-0.017302;0.017302;-0.017302;1.000000
445639.09740265;5696570.46499928;470.79664995;0.972549;0.94902;0.905882;62194.000000;1.000000;1.000000;1.000000;1.000000;-0.134999;0.134999;-0.134999;1.000000
445639.00320251;5696570.28219898;470.79725005;0.356863;0.337255;0.254902;21845.000000;1.000000;1.000000;1.000000;1.000000;0.047801;-0.047801;0.047801;1.000000
445638.57150085;5696570.34989937;470.81585004;0.615686;0.588235;0.521569;38550.000000;1.000000;1.000000;1.000000;1.000000;-0.088882;0.088882;-0.088882;1.000000
445638.54240234;5696570.36659916;470.82165005;0.627451;0.615686;0.552941;40092.000000;1.000000;1.000000;1.000000;1.000000;-0.121374;0.121374;-0.121374;1.000000
445638.62830170;5696570.55719955;470.81614997;0.690196;0.682353;0.588235;43947.000000;1.000000;1.000000;1.000000;1.000000;-0.123575;0.123575;-0.123575;1.000000
445638.70190247;5696570.33579929;470.79824998;0.647059;0.631373;0.552941;41120.000000;1.000000;1.000000;1.000000;1.000000;-0.005799;0.005799;-0.005799;1.000000
445638.89170273;5696570.24109848;470.79874994;0.560784;0.545098;0.466667;35466.000000;1.000000;1.000000;1.000000;1.000000;0.088902;-0.088902;0.088902;1.000000
445638.92950256;5696570.24459847;470.79814984;0.529412;0.52549;0.435294;33667.000000;1.000000;1.000000;1.000000;1.000000;-0.085402;0.085402;-0.085402;1.000000
445638.99200256;5696570.13379868;470.79034998;0.643137;0.623529;0.552941;40606.000000;1.000000;1.000000;1.000000;1.000000;-0.072374;0.072374;-0.072374;1.000000
445639.02720078;5696570.13519867;470.78954985;0.552941;0.537255;0.458824;34952.000000;1.000000;1.000000;1.000000;1.000000;-0.037176;0.037176;-0.037176;1.000000
445638.96700104;5696570.24579914;470.79754998;0.627451;0.623529;0.537255;40092.000000;1.000000;1.000000;1.000000;1.000000;-0.084201;0.084201;-0.084201;1.000000
445639.06509979;5696570.13879974;470.78664996;0.639216;0.623529;0.54902;40606.000000;1.000000;1.000000;1.000000;1.000000;0.000723;-0.000723;0.000723;1.000000
445638.57270248;5696570.31249912;470.81544997;0.792157;0.764706;0.705882;50115.000000;1.000000;1.000000;1.000000;1.000000;0.087199;-0.087199;0.087199;1.000000
445638.95590027;5696570.09749897;470.78824999;0.603922;0.584314;0.505882;38036.000000;1.000000;1.000000;1.000000;1.000000;-0.108477;0.108477;-0.108477;1.000000
445638.75350006;5696570.23759850;470.79705002;0.529412;0.517647;0.443137;33410.000000;1.000000;1.000000;1.000000;1.000000;0.092402;-0.092402;0.092402;1.000000
445638.69870193;5696570.22409924;470.79215004;0.611765;0.6;0.552941;39064.000000;1.000000;1.000000;1.000000;1.000000;0.105901;-0.105901;0.105901;1.000000
445639.03070267;5696570.27729900;470.79845001;0.294118;0.278431;0.192157;17733.000000;1.000000;1.000000;1.000000;1.000000;-0.052701;0.052701;-0.052701;1.000000
445638.64090164;5696570.25969894;470.79924991;0.682353;0.666667;0.607843;43433.000000;1.000000;1.000000;1.000000;1.000000;0.072381;-0.072381;0.072381;1.000000
445638.71370132;5696570.26229866;470.79784991;0.717647;0.694118;0.635294;45489.000000;1.000000;1.000000;1.000000;1.000000;-0.067701;0.067701;-0.067701;1.000000
445638.64220245;5696570.22219856;470.79655005;0.847059;0.843137;0.796078;54741.000000;1.000000;1.000000;1.000000;1.000000;0.108971;-0.108971;0.108971;1.000000
445638.67980011;5696570.22339924;470.79585006;0.627451;0.623529;0.576471;40349.000000;1.000000;1.000000;1.000000;1.000000;-0.106601;0.106601;-0.106601;1.000000
445638.81440170;5696570.51909931;470.80784990;0.529412;0.517647;0.411765;33153.000000;1.000000;1.000000;1.000000;1.000000;-0.000025;0.000025;-0.000025;1.000000
445639.02880295;5696570.10009964;470.78454997;0.690196;0.678431;0.596078;43947.000000;1.000000;1.000000;1.000000;1.000000;-0.035574;0.035574;-0.035574;1.000000
445638.93449982;5696570.38389977;470.82095005;0.486275;0.494118;0.447059;31868.000000;1.000000;1.000000;1.000000;1.000000;0.053900;-0.053900;0.053900;1.000000
445638.96960266;5696570.38529976;470.82254984;0.443137;0.439216;0.380392;28270.000000;1.000000;1.000000;1.000000;1.000000;0.055300;-0.055300;0.055300;1.000000
445638.94300278;5696570.16169937;470.79304983;0.486275;0.470588;0.396078;30583.000000;1.000000;1.000000;1.000000;1.000000;-0.121534;0.121534;-0.121534;1.000000
445639.01799973;5696570.16399963;470.79414989;0.431373;0.427451;0.345098;27242.000000;1.000000;1.000000;1.000000;1.000000;-0.047152;0.047152;-0.047152;1.000000
445638.67760284;5696570.51279934;470.82254984;0.529412;0.501961;0.435294;32896.000000;1.000000;1.000000;1.000000;1.000000;-0.074274;0.074274;-0.074274;1.000000
445639.05080231;5696570.03499897;470.78484990;0.537255;0.533333;0.447059;34181.000000;1.000000;1.000000;1.000000;1.000000;-0.013575;0.013575;-0.013575;1.000000
445638.60470016;5696570.22099884;470.79714992;0.619608;0.615686;0.564706;39835.000000;1.000000;1.000000;1.000000;1.000000;0.121391;-0.121391;0.121391;1.000000
445639.01320084;5696570.23919876;470.79714992;0.576471;0.568627;0.498039;36751.000000;1.000000;1.000000;1.000000;1.000000;-0.090801;0.090801;-0.090801;1.000000
445638.92630203;5696570.31029900;470.79874994;0.721569;0.709804;0.639216;46003.000000;1.000000;1.000000;1.000000;1.000000;0.019701;-0.019701;0.019701;1.000000
445638.70820053;5696570.22549923;470.79254987;0.67451;0.662745;0.611765;43176.000000;1.000000;1.000000;1.000000;1.000000;0.104501;-0.104501;0.104501;1.000000
445638.88700302;5696570.34419926;470.80664994;0.431373;0.423529;0.34902;27242.000000;1.000000;1.000000;1.000000;1.000000;-0.014199;0.014199;-0.014199;1.000000
445638.95810135;5696570.06929977;470.78565003;0.6;0.584314;0.498039;37779.000000;1.000000;1.000000;1.000000;1.000000;-0.106276;0.106276;-0.106276;1.000000
445638.99450119;5696570.03319939;470.78454997;0.670588;0.654902;0.564706;42405.000000;1.000000;1.000000;1.000000;1.000000;-0.069876;0.069876;-0.069876;1.000000
445639.03190048;5696570.03439911;470.78624990;0.639216;0.631373;0.541176;40863.000000;1.000000;1.000000;1.000000;1.000000;-0.032476;0.032476;-0.032476;1.000000
445638.77530106;5696570.17239960;470.80195000;0.556863;0.552941;0.486275;35723.000000;1.000000;1.000000;1.000000;1.000000;-0.157600;0.157600;-0.157600;1.000000
445638.90400131;5696569.99019917;470.78464987;0.552941;0.537255;0.427451;34695.000000;1.000000;1.000000;1.000000;1.000000;-0.160376;0.160376;-0.160376;1.000000
445638.92440231;5696570.16109856;470.78994991;0.662745;0.643137;0.568627;41891.000000;1.000000;1.000000;1.000000;1.000000;-0.140091;0.140091;-0.140091;1.000000
445638.88070114;5696570.29819878;470.79884984;0.678431;0.662745;0.592157;43176.000000;1.000000;1.000000;1.000000;1.000000;0.031801;-0.031801;0.031801;1.000000
445639.03080185;5696570.07189949;470.78664996;0.541176;0.533333;0.45098;34438.000000;1.000000;1.000000;1.000000;1.000000;-0.033575;0.033575;-0.033575;1.000000
445639.02990158;5696570.06259926;470.78655006;0.694118;0.694118;0.615686;44718.000000;1.000000;1.000000;1.000000;1.000000;-0.034475;0.034475;-0.034475;1.000000
445638.65880020;5696570.25099953;470.79994990;0.635294;0.619608;0.568627;40349.000000;1.000000;1.000000;1.000000;1.000000;0.079000;-0.079000;0.079000;1.000000
445638.91980179;5696570.05659874;470.77915003;0.482353;0.462745;0.356863;29812.000000;1.000000;1.000000;1.000000;1.000000;-0.144575;0.144575;-0.144575;1.000000
445639.07750137;5696570.27759941;470.79824998;0.443137;0.435294;0.341176;27756.000000;1.000000;1.000000;1.000000;1.000000;0.052401;-0.052401;0.052401;1.000000
445638.65830048;5696570.53099926;470.82184984;0.431373;0.407843;0.341176;26471.000000;1.000000;1.000000;1.000000;1.000000;-0.093576;0.093576;-0.093576;1.000000
445638.62040146;5696570.51839931;470.80604984;0.694118;0.686275;0.564706;44204.000000;1.000000;1.000000;1.000000;1.000000;-0.131475;0.131475;-0.131475;1.000000
445638.87330063;5696570.50179871;470.81495001;0.666667;0.647059;0.545098;41891.000000;1.000000;1.000000;1.000000;1.000000;-0.058969;0.058969;-0.058969;1.000000
445639.07870300;5696570.24009903;470.79784991;0.596078;0.580392;0.513725;37779.000000;1.000000;1.000000;1.000000;1.000000;0.085731;-0.085731;0.085731;1.000000
445638.91820343;5696570.29939850;470.79824998;0.733333;0.721569;0.647059;46774.000000;1.000000;1.000000;1.000000;1.000000;0.030602;-0.030602;0.030602;1.000000
445638.82400330;5696570.54619892;470.80854990;0.584314;0.564706;0.447059;36494.000000;1.000000;1.000000;1.000000;1.000000;-0.009626;0.009626;-0.009626;1.000000
445638.78780182;5696570.50759895;470.80414989;0.576471;0.560784;0.462745;36237.000000;1.000000;1.000000;1.000000;1.000000;0.026575;-0.026575;0.026575;1.000000
445638.79129990;5696570.46989925;470.80384995;0.588235;0.568627;0.458824;36751.000000;1.000000;1.000000;1.000000;1.000000;0.039423;-0.039423;0.039423;1.000000
445638.93230255;5696570.19769867;470.79304983;0.603922;0.584314;0.498039;38036.000000;1.000000;1.000000;1.000000;1.000000;-0.132301;0.132301;-0.132301;1.000000
445638.56950195;5696570.42499931;470.80725004;0.580392;0.560784;0.458824;36237.000000;1.000000;1.000000;1.000000;1.000000;-0.129920;0.129920;-0.129920;1.000000
445638.96990021;5696570.19889935;470.79244997;0.270588;0.25098;0.180392;16191.000000;1.000000;1.000000;1.000000;1.000000;-0.103986;0.103986;-0.103986;1.000000
445638.66840179;5696570.27819927;470.79834988;0.635294;0.611765;0.54902;40092.000000;1.000000;1.000000;1.000000;1.000000;0.051801;-0.051801;0.051801;1.000000
445638.82670029;5696570.47359856;470.80554988;0.529412;0.505882;0.396078;32639.000000;1.000000;1.000000;1.000000;1.000000;-0.033066;0.033066;-0.033066;1.000000
445639.07060059;5696570.27819927;470.79795005;0.423529;0.411765;0.317647;26471.000000;1.000000;1.000000;1.000000;1.000000;0.051801;-0.051801;0.051801;1.000000
445638.69320114;5696570.31789978;470.79764988;0.67451;0.65098;0.572549;42405.000000;1.000000;1.000000;1.000000;1.000000;0.012100;-0.012100;0.012100;1.000000
445638.98970230;5696569.95659931;470.78344991;0.556863;0.533333;0.427451;34438.000000;1.000000;1.000000;1.000000;1.000000;-0.074675;0.074675;-0.074675;1.000000
445638.91930206;5696570.26189907;470.80014994;0.521569;0.505882;0.419608;32639.000000;1.000000;1.000000;1.000000;1.000000;0.068101;-0.068101;0.068101;1.000000
445638.95689972;5696570.26309975;470.79954984;0.698039;0.690196;0.607843;44718.000000;1.000000;1.000000;1.000000;1.000000;0.066900;-0.066900;0.066900;1.000000
