//X;Y;Z;Rf;Gf;Bf;Intensity;Return Number;Number Of Returns;Scan Direction Flag;Point Source ID;C2M signed distances[-][<0.8];C2M signed distances[<0.4];C2M signed distances[-][<0.2];Stump47
299
445640.08430298;5696601.27829941;471.89744999;0.176471;0.2;0.247059;12850.000000;1.000000;1.000000;1.000000;1.000000;-0.052421;0.052421;-0.052421;1.000000
445640.01780136;5696601.16069992;472.04204990;0.258824;0.286275;0.329412;18504.000000;1.000000;1.000000;1.000000;1.000000;-0.169300;0.169300;-0.169300;1.000000
445639.98610123;5696601.17510040;472.05014994;0.443137;0.470588;0.513725;30583.000000;1.000000;1.000000;1.000000;1.000000;-0.154933;0.154933;-0.154933;1.000000
445639.96010025;5696601.27490051;471.94994976;0.0392157;0.0509804;0.0666667;3084.000000;1.000000;1.000000;1.000000;1.000000;-0.055099;0.055099;-0.055099;1.000000
445640.08530243;5696601.17249878;472.07555010;0.0705882;0.0745098;0.0941176;4883.000000;1.000000;1.000000;1.000000;1.000000;-0.157656;0.157656;-0.157656;1.000000
445640.02750214;5696601.50739868;471.92084982;0.329412;0.32549;0.329412;21331.000000;1.000000;1.000000;1.000000;1.000000;0.088125;-0.088125;0.088125;1.000000
445639.73750122;5696601.38099869;471.86665012;0.266667;0.27451;0.282353;17733.000000;1.000000;1.000000;1.000000;1.000000;-0.178084;0.178084;-0.178084;1.000000
445639.94840057;5696601.21399887;472.03254988;0.152941;0.172549;0.207843;11051.000000;1.000000;1.000000;1.000000;1.000000;-0.116002;0.116002;-0.116002;1.000000
445639.93260010;5696601.38109787;471.89645006;0.156863;0.176471;0.219608;11308.000000;1.000000;1.000000;1.000000;1.000000;-0.006777;0.006777;-0.006777;1.000000
445639.86219986;5696601.27029999;471.93384983;0.0901961;0.105882;0.12549;6682.000000;1.000000;1.000000;1.000000;1.000000;0.075322;-0.075322;0.075322;1.000000
445639.97420319;5696601.19280060;472.03814985;0.184314;0.207843;0.254902;13364.000000;1.000000;1.000000;1.000000;1.000000;-0.137246;0.137246;-0.137246;1.000000
445640.01590164;5696601.19879730;472.00745012;0.0431373;0.0588235;0.0862745;3598.000000;1.000000;1.000000;1.000000;1.000000;-0.131203;0.131203;-0.131203;1.000000
445639.97860153;5696601.15899857;472.07984974;0.443137;0.47451;0.513725;30583.000000;1.000000;1.000000;1.000000;1.000000;-0.171187;0.171187;-0.171187;1.000000
445640.01210220;5696601.51059921;471.95974972;0.235294;0.266667;0.301961;16962.000000;1.000000;1.000000;1.000000;1.000000;0.072725;-0.072725;0.072725;1.000000
445639.86000259;5696601.30380066;471.89454987;0.0627451;0.0784314;0.109804;4883.000000;1.000000;1.000000;1.000000;1.000000;0.054794;-0.054794;0.054794;1.000000
445639.92620285;5696601.14369782;472.17514994;0.47451;0.505882;0.541176;32639.000000;1.000000;1.000000;1.000000;1.000000;-0.186302;0.186302;-0.186302;1.000000
445639.90270050;5696601.22970016;472.04234983;0.317647;0.345098;0.388235;22359.000000;1.000000;1.000000;1.000000;1.000000;0.100447;-0.100447;0.100447;1.000000
445640.00970276;5696601.27070053;471.92884972;0.0705882;0.0784314;0.0980392;4883.000000;1.000000;1.000000;1.000000;1.000000;-0.059299;0.059299;-0.059299;1.000000
445639.94429977;5696601.16150101;472.12024977;0.533333;0.560784;0.603922;36494.000000;1.000000;1.000000;1.000000;1.000000;-0.168555;0.168555;-0.168555;1.000000
445640.02110107;5696601.49529846;471.98794987;0.290196;0.329412;0.356863;20817.000000;1.000000;1.000000;1.000000;1.000000;0.081724;-0.081724;0.081724;1.000000
445640.02430161;5696601.46059998;471.94815018;0.0901961;0.12549;0.180392;7710.000000;1.000000;1.000000;1.000000;1.000000;0.084925;-0.084925;0.084925;1.000000
445639.90010269;5696601.30710037;471.89405014;0.176471;0.192157;0.227451;12336.000000;1.000000;1.000000;1.000000;1.000000;0.024265;-0.024265;0.024265;1.000000
445639.90040024;5696601.27079971;471.96824982;0.0627451;0.0823529;0.0980392;4883.000000;1.000000;1.000000;1.000000;1.000000;0.059702;-0.059702;0.059702;1.000000
445639.93560226;5696601.27219971;471.96985008;0.054902;0.0666667;0.0784314;4112.000000;1.000000;1.000000;1.000000;1.000000;-0.057800;0.057800;-0.057800;1.000000
445640.06000336;5696601.46129807;471.98694994;0.145098;0.176471;0.235294;11308.000000;1.000000;1.000000;1.000000;1.000000;0.120626;-0.120626;0.120626;1.000000
445640.03090103;5696601.23329742;471.95265009;0.0352941;0.0431373;0.054902;2570.000000;1.000000;1.000000;1.000000;1.000000;-0.096703;0.096703;-0.096703;1.000000
445639.99650009;5696601.39369782;471.90644981;0.282353;0.313725;0.356863;20046.000000;1.000000;1.000000;1.000000;1.000000;0.057123;-0.057123;0.057123;1.000000
445640.12050064;5696601.35140045;472.07924988;0.898039;0.933333;0.945098;60395.000000;1.000000;1.000000;1.000000;1.000000;0.021400;-0.021400;0.021400;1.000000
445640.12170227;5696601.31619843;472.08355000;0.858824;0.898039;0.909804;58082.000000;1.000000;1.000000;1.000000;1.000000;-0.013802;0.013802;-0.013802;1.000000
445639.93380173;5696601.34369858;471.89605000;0.156863;0.176471;0.223529;11308.000000;1.000000;1.000000;1.000000;1.000000;-0.005575;0.005575;-0.005575;1.000000
445640.10920151;5696601.16530045;472.09985020;0.207843;0.231373;0.25098;14649.000000;1.000000;1.000000;1.000000;1.000000;-0.164700;0.164700;-0.164700;1.000000
445640.09780319;5696601.42619904;472.06285002;0.301961;0.337255;0.364706;21588.000000;1.000000;1.000000;1.000000;1.000000;0.096199;-0.096199;0.096199;1.000000
445640.03890045;5696601.49559982;472.00974991;0.34902;0.384314;0.403922;24415.000000;1.000000;1.000000;1.000000;1.000000;0.099524;-0.099524;0.099524;1.000000
445640.14140137;5696601.30819901;471.88404991;0.0509804;0.0823529;0.133333;5140.000000;1.000000;1.000000;1.000000;1.000000;-0.021801;0.021801;-0.021801;1.000000
445639.97720154;5696601.27589996;471.93444969;0.0392157;0.054902;0.0666667;3341.000000;1.000000;1.000000;1.000000;1.000000;-0.054498;0.054498;-0.054498;1.000000
445640.12600143;5696601.24109848;471.93374969;0.0941176;0.141176;0.168627;8481.000000;1.000000;1.000000;1.000000;1.000000;-0.088902;0.088902;-0.088902;1.000000
445640.08460052;5696601.42539795;472.04355003;0.34902;0.376471;0.4;24158.000000;1.000000;1.000000;1.000000;1.000000;0.095717;-0.095717;0.095717;1.000000
445640.04610260;5696601.23459824;471.92775013;0.0431373;0.054902;0.0823529;3341.000000;1.000000;1.000000;1.000000;1.000000;-0.095402;0.095402;-0.095402;1.000000
445639.93960007;5696601.20279892;472.05065014;0.462745;0.494118;0.533333;31868.000000;1.000000;1.000000;1.000000;1.000000;-0.127201;0.127201;-0.127201;1.000000
445640.08990295;5696601.20249756;471.92705013;0.0627451;0.0784314;0.101961;4883.000000;1.000000;1.000000;1.000000;1.000000;-0.127537;0.127537;-0.127537;1.000000
445640.08749969;5696601.19959839;471.97585012;0.0235294;0.0431373;0.0588235;2313.000000;1.000000;1.000000;1.000000;1.000000;-0.130504;0.130504;-0.130504;1.000000
445640.00539978;5696601.25679977;471.94484999;0.0627451;0.0705882;0.0941176;4626.000000;1.000000;1.000000;1.000000;1.000000;-0.073200;0.073200;-0.073200;1.000000
445640.12680252;5696601.27149780;471.92714979;0.137255;0.2;0.219608;11822.000000;1.000000;1.000000;1.000000;1.000000;-0.058502;0.058502;-0.058502;1.000000
445640.04480179;5696601.35890015;471.90354969;0.294118;0.32549;0.372549;20817.000000;1.000000;1.000000;1.000000;1.000000;0.028900;-0.028900;0.028900;1.000000
445639.98390015;5696601.52739914;471.94474985;0.0901961;0.121569;0.145098;7453.000000;1.000000;1.000000;1.000000;1.000000;0.044523;-0.044523;0.044523;1.000000
445640.00399979;5696601.52979858;471.97135021;0.14902;0.184314;0.223529;11565.000000;1.000000;1.000000;1.000000;1.000000;0.064623;-0.064623;0.064623;1.000000
445640.11070068;5696601.13009842;472.09714987;0.211765;0.215686;0.258824;14135.000000;1.000000;1.000000;1.000000;1.000000;-0.199902;0.199902;-0.199902;1.000000
445640.00320251;5696601.49489792;471.96855022;0.133333;0.168627;0.215686;10537.000000;1.000000;1.000000;1.000000;1.000000;0.063826;-0.063826;0.063826;1.000000
445640.12360199;5696601.28790100;472.08794977;0.85098;0.882353;0.894118;57054.000000;1.000000;1.000000;1.000000;1.000000;-0.042099;0.042099;-0.042099;1.000000
445640.12490280;5696601.42809875;471.93134977;0.52549;0.552941;0.564706;35723.000000;1.000000;1.000000;1.000000;1.000000;0.098099;-0.098099;0.098099;1.000000
445640.12080200;5696601.25499924;471.97335007;0.105882;0.196078;0.207843;11051.000000;1.000000;1.000000;1.000000;1.000000;-0.075001;0.075001;-0.075001;1.000000
445640.00290115;5696601.53399857;472.00624992;0.184314;0.211765;0.235294;13364.000000;1.000000;1.000000;1.000000;1.000000;0.063524;-0.063524;0.063524;1.000000
445639.98540314;5696601.28240021;471.92094995;0.0431373;0.0627451;0.0862745;3855.000000;1.000000;1.000000;1.000000;1.000000;-0.047787;0.047787;-0.047787;1.000000
445639.96570023;5696601.46660049;471.91054966;0.207843;0.231373;0.27451;14906.000000;1.000000;1.000000;1.000000;1.000000;0.026323;-0.026323;0.026323;1.000000
445640.12490280;5696601.27699860;472.03434994;0.0196078;0.0588235;0.0823529;3084.000000;1.000000;1.000000;1.000000;1.000000;-0.053001;0.053001;-0.053001;1.000000
445640.13020142;5696601.37199982;471.90294983;0.419608;0.454902;0.478431;29041.000000;1.000000;1.000000;1.000000;1.000000;0.042000;-0.042000;0.042000;1.000000
445640.05830200;5696601.20719727;471.96525003;0.113725;0.12549;0.156863;7967.000000;1.000000;1.000000;1.000000;1.000000;-0.122803;0.122803;-0.122803;1.000000
445640.09230240;5696601.19980057;472.08085014;0.0431373;0.054902;0.0823529;3341.000000;1.000000;1.000000;1.000000;1.000000;-0.130199;0.130199;-0.130199;1.000000
445640.08889969;5696601.21660049;471.92714979;0.113725;0.12549;0.164706;8224.000000;1.000000;1.000000;1.000000;1.000000;-0.113468;0.113468;-0.113468;1.000000
445640.04020126;5696601.49679764;471.92824986;0.435294;0.435294;0.447059;28527.000000;1.000000;1.000000;1.000000;1.000000;0.100824;-0.100824;0.100824;1.000000
445640.12910278;5696601.33479889;471.90245010;0.215686;0.254902;0.290196;15934.000000;1.000000;1.000000;1.000000;1.000000;0.004799;-0.004799;0.004799;1.000000
445640.08600052;5696601.16599854;472.04524996;0.12549;0.14902;0.192157;9509.000000;1.000000;1.000000;1.000000;1.000000;-0.164127;0.164127;-0.164127;1.000000
445640.12750061;5696601.29120071;472.00435020;0.152941;0.188235;0.223529;11822.000000;1.000000;1.000000;1.000000;1.000000;-0.038799;0.038799;-0.038799;1.000000
445640.01939972;5696601.25329788;471.93844988;0.0862745;0.0980392;0.121569;6168.000000;1.000000;1.000000;1.000000;1.000000;-0.076702;0.076702;-0.076702;1.000000
445640.13640030;5696601.29109772;471.96274998;0.266667;0.294118;0.317647;18761.000000;1.000000;1.000000;1.000000;1.000000;-0.038902;0.038902;-0.038902;1.000000
445639.73880203;5696601.34580048;471.86864998;0.180392;0.188235;0.203922;12079.000000;1.000000;1.000000;1.000000;1.000000;-0.170060;0.170060;-0.170060;1.000000
445639.79549988;5696601.53420074;471.88504984;0.333333;0.34902;0.352941;22359.000000;1.000000;1.000000;1.000000;1.000000;-0.143877;0.143877;-0.143877;1.000000
445639.87030228;5696601.53650101;471.88845016;0.298039;0.317647;0.341176;20560.000000;1.000000;1.000000;1.000000;1.000000;-0.069075;0.069075;-0.069075;1.000000
445639.87390335;5696601.42410095;471.88735010;0.141176;0.156863;0.192157;10023.000000;1.000000;1.000000;1.000000;1.000000;-0.065474;0.065474;-0.065474;1.000000
445639.87530334;5696601.38889893;471.88695004;0.34902;0.368627;0.396078;23901.000000;1.000000;1.000000;1.000000;1.000000;-0.064074;0.064074;-0.064074;1.000000
445639.81369980;5696601.28470047;471.89685013;0.219608;0.223529;0.239216;14649.000000;1.000000;1.000000;1.000000;1.000000;0.104731;-0.104731;0.104731;1.000000
445640.01239975;5696601.50530060;471.99464991;0.254902;0.290196;0.313725;18247.000000;1.000000;1.000000;1.000000;1.000000;0.073023;-0.073023;0.073023;1.000000
445640.05120285;5696601.47130020;471.99604990;0.152941;0.176471;0.227451;11308.000000;1.000000;1.000000;1.000000;1.000000;0.111826;-0.111826;0.111826;1.000000
445640.10190018;5696601.17569931;472.07634975;0.145098;0.215686;0.219608;12593.000000;1.000000;1.000000;1.000000;1.000000;-0.154301;0.154301;-0.154301;1.000000
445639.93120010;5696601.41860016;471.90144970;0.282353;0.301961;0.333333;19532.000000;1.000000;1.000000;1.000000;1.000000;-0.008177;0.008177;-0.008177;1.000000
445639.74610336;5696601.37319763;471.86695005;0.243137;0.25098;0.262745;16191.000000;1.000000;1.000000;1.000000;1.000000;-0.167683;0.167683;-0.167683;1.000000
445639.71210297;5696601.33429916;471.86724998;0.235294;0.223529;0.231373;14906.000000;1.000000;1.000000;1.000000;1.000000;-0.196071;0.196071;-0.196071;1.000000
445640.04620178;5696601.34950073;471.90354969;0.301961;0.333333;0.376471;21331.000000;1.000000;1.000000;1.000000;1.000000;0.019501;-0.019501;0.019501;1.000000
445639.87040146;5696601.31229980;471.88814976;0.14902;0.164706;0.192157;10537.000000;1.000000;1.000000;1.000000;1.000000;0.041671;-0.041671;0.041671;1.000000
445639.85720261;5696601.23729904;471.97744991;0.184314;0.211765;0.239216;13364.000000;1.000000;1.000000;1.000000;1.000000;0.105767;-0.105767;0.105767;1.000000
445640.12750061;5696601.39760025;472.07084991;0.694118;0.72549;0.745098;47031.000000;1.000000;1.000000;1.000000;1.000000;0.067600;-0.067600;0.067600;1.000000
445640.05120285;5696601.17899902;472.01354982;0.054902;0.0745098;0.113725;4626.000000;1.000000;1.000000;1.000000;1.000000;-0.151001;0.151001;-0.151001;1.000000
445640.13010223;5696601.25490006;471.92245008;0.027451;0.0705882;0.0941176;3855.000000;1.000000;1.000000;1.000000;1.000000;-0.075100;0.075100;-0.075100;1.000000
445640.00300034;5696601.17609985;472.03924992;0.223529;0.239216;0.286275;15677.000000;1.000000;1.000000;1.000000;1.000000;-0.153900;0.153900;-0.153900;1.000000
445639.86280258;5696601.48110016;471.88985016;0.27451;0.290196;0.317647;18761.000000;1.000000;1.000000;1.000000;1.000000;-0.076574;0.076574;-0.076574;1.000000
445639.90260132;5696601.40959747;471.89545013;0.223529;0.247059;0.286275;15934.000000;1.000000;1.000000;1.000000;1.000000;-0.036776;0.036776;-0.036776;1.000000
445639.74730118;5696601.54109772;471.87834980;0.380392;0.376471;0.360784;24415.000000;1.000000;1.000000;1.000000;1.000000;-0.192076;0.192076;-0.192076;1.000000
445640.09980209;5696601.27860077;472.07744982;0.00784314;0.0392157;0.0588235;2056.000000;1.000000;1.000000;1.000000;1.000000;-0.051399;0.051399;-0.051399;1.000000
445640.02000244;5696601.47239883;471.96435024;0.105882;0.133333;0.188235;8481.000000;1.000000;1.000000;1.000000;1.000000;0.080626;-0.080626;0.080626;1.000000
445640.09800156;5696601.35829742;472.07364990;0.117647;0.156863;0.180392;9509.000000;1.000000;1.000000;1.000000;1.000000;0.028297;-0.028297;0.028297;1.000000
445640.07110031;5696601.42389877;471.92184975;0.337255;0.360784;0.396078;23387.000000;1.000000;1.000000;1.000000;1.000000;0.094139;0.094139;-0.094139;1.000000
445640.14719971;5696601.38879974;471.92485001;0.564706;0.576471;0.580392;37522.000000;1.000000;1.000000;1.000000;1.000000;0.058800;-0.058800;0.058800;1.000000
445639.86020096;5696601.22739990;471.99384977;0.317647;0.352941;0.380392;22616.000000;1.000000;1.000000;1.000000;1.000000;0.113242;-0.113242;0.113242;1.000000
445640.04170044;5696601.16089828;472.03154995;0.109804;0.129412;0.176471;8224.000000;1.000000;1.000000;1.000000;1.000000;-0.169104;0.169104;-0.169104;1.000000
445639.83680161;5696601.42299850;471.87865021;0.113725;0.133333;0.172549;8481.000000;1.000000;1.000000;1.000000;1.000000;-0.102575;0.102575;-0.102575;1.000000
445639.80410202;5696601.34670074;471.87395002;0.0823529;0.105882;0.133333;6425.000000;1.000000;1.000000;1.000000;1.000000;-0.105357;0.105357;-0.105357;1.000000
445639.80540283;5696601.31149872;471.87585022;0.34902;0.360784;0.372549;23387.000000;1.000000;1.000000;1.000000;1.000000;0.104377;-0.104377;0.104377;1.000000
445639.88580139;5696601.23859985;472.02075006;0.25098;0.278431;0.309804;17733.000000;1.000000;1.000000;1.000000;1.000000;0.094087;-0.094087;0.094087;1.000000
445639.84440048;5696601.23889740;471.95134975;0.0509804;0.0784314;0.105882;4626.000000;1.000000;1.000000;1.000000;1.000000;0.111179;-0.111179;0.111179;1.000000
445640.08110245;5696601.22690018;471.91295006;0.0627451;0.0745098;0.0901961;4626.000000;1.000000;1.000000;1.000000;1.000000;-0.103773;0.103773;-0.103773;1.000000
445640.11440094;5696601.23089798;471.90984966;0.0862745;0.109804;0.137255;6682.000000;1.000000;1.000000;1.000000;1.000000;-0.099102;0.099102;-0.099102;1.000000
445640.05970200;5696601.22419937;471.91664984;0.0745098;0.0784314;0.109804;5140.000000;1.000000;1.000000;1.000000;1.000000;-0.105801;0.105801;-0.105801;1.000000
445639.92660339;5696601.13159760;472.19364979;0.443137;0.47451;0.505882;30583.000000;1.000000;1.000000;1.000000;1.000000;-0.198402;0.198402;-0.198402;1.000000
445639.98170288;5696601.51409729;471.91424992;0.360784;0.376471;0.388235;24415.000000;1.000000;1.000000;1.000000;1.000000;0.042326;-0.042326;0.042326;1.000000
445640.01790054;5696601.51719864;471.94845011;0.207843;0.235294;0.258824;14906.000000;1.000000;1.000000;1.000000;1.000000;0.078524;-0.078524;0.078524;1.000000
445640.09589966;5696601.45159729;471.94894983;0.490196;0.505882;0.541176;32896.000000;1.000000;1.000000;1.000000;1.000000;0.121597;-0.121597;0.121597;1.000000
445640.10010345;5696601.40500076;471.91365005;0.172549;0.203922;0.25098;12850.000000;1.000000;1.000000;1.000000;1.000000;0.075001;-0.075001;0.075001;1.000000
445639.95660217;5696601.25589951;471.98915007;0.0392157;0.0509804;0.0705882;3084.000000;1.000000;1.000000;1.000000;1.000000;-0.074100;0.074100;-0.074100;1.000000
445639.96050079;5696601.14110001;472.13474991;0.509804;0.541176;0.584314;34952.000000;1.000000;1.000000;1.000000;1.000000;-0.188900;0.188900;-0.188900;1.000000
445639.92790039;5696601.26819809;471.97634985;0.0392157;0.0509804;0.0627451;3084.000000;1.000000;1.000000;1.000000;1.000000;-0.061802;0.061802;-0.061802;1.000000
445639.97000320;5696601.38450058;471.90514996;0.243137;0.266667;0.301961;17219.000000;1.000000;1.000000;1.000000;1.000000;0.030626;-0.030626;0.030626;1.000000
445640.06910141;5696601.43549927;471.93814995;0.196078;0.235294;0.27451;14906.000000;1.000000;1.000000;1.000000;1.000000;0.105605;0.105605;-0.105605;1.000000
445639.87100037;5696601.28370102;471.92044975;0.0509804;0.0666667;0.0862745;4112.000000;1.000000;1.000000;1.000000;1.000000;0.059346;-0.059346;0.059346;1.000000
445640.06330307;5696601.14480026;472.03694965;0.129412;0.164706;0.215686;10280.000000;1.000000;1.000000;1.000000;1.000000;-0.185200;0.185200;-0.185200;1.000000
445640.04250153;5696601.38479813;471.90374996;0.262745;0.286275;0.329412;18504.000000;1.000000;1.000000;1.000000;1.000000;0.054798;-0.054798;0.054798;1.000000
445640.08390244;5696601.35069855;471.90054991;0.137255;0.160784;0.2;10280.000000;1.000000;1.000000;1.000000;1.000000;0.022589;-0.022589;0.022589;1.000000
445639.91730316;5696601.52029999;471.90205004;0.447059;0.470588;0.505882;30583.000000;1.000000;1.000000;1.000000;1.000000;-0.022074;0.022074;-0.022074;1.000000
445639.89200027;5696601.24769791;472.00484993;0.14902;0.176471;0.207843;11051.000000;1.000000;1.000000;1.000000;1.000000;0.083867;-0.083867;0.083867;1.000000
445640.07650192;5696601.29540070;471.89724972;0.254902;0.282353;0.329412;18247.000000;1.000000;1.000000;1.000000;1.000000;-0.036662;0.036662;-0.036662;1.000000
445639.91970261;5696601.44529922;471.90124990;0.396078;0.423529;0.466667;27499.000000;1.000000;1.000000;1.000000;1.000000;-0.019674;0.019674;-0.019674;1.000000
445639.94429977;5696601.51299866;471.91015007;0.207843;0.227451;0.270588;14649.000000;1.000000;1.000000;1.000000;1.000000;0.004923;-0.004923;0.004923;1.000000
445639.90229996;5696601.24169739;472.02384998;0.211765;0.239216;0.270588;15163.000000;1.000000;1.000000;1.000000;1.000000;0.088495;-0.088495;0.088495;1.000000
445639.76170166;5696601.46739777;471.87344982;0.270588;0.27451;0.278431;17733.000000;1.000000;1.000000;1.000000;1.000000;-0.177675;0.177675;-0.177675;1.000000
445640.06290253;5696601.40619858;471.91194965;0.286275;0.305882;0.337255;19789.000000;1.000000;1.000000;1.000000;1.000000;0.076199;0.076199;-0.076199;1.000000
445639.76780136;5696601.35709961;471.87235023;0.321569;0.32549;0.329412;21074.000000;1.000000;1.000000;1.000000;1.000000;-0.142918;0.142918;-0.142918;1.000000
445640.01480301;5696601.15619858;472.04885008;0.4;0.427451;0.470588;27756.000000;1.000000;1.000000;1.000000;1.000000;-0.173801;0.173801;-0.173801;1.000000
445640.11440094;5696601.20669754;471.96315004;0.0901961;0.0941176;0.133333;6168.000000;1.000000;1.000000;1.000000;1.000000;-0.123302;0.123302;-0.123302;1.000000
445639.84010132;5696601.35959824;471.88034966;0.207843;0.227451;0.25098;14649.000000;1.000000;1.000000;1.000000;1.000000;-0.074186;0.074186;-0.074186;1.000000
445639.87870224;5696601.28769882;471.91384985;0.0352941;0.0470588;0.0627451;2827.000000;1.000000;1.000000;1.000000;1.000000;0.051529;-0.051529;0.051529;1.000000
445640.05650146;5696601.51700027;472.02705004;0.517647;0.54902;0.556863;35209.000000;1.000000;1.000000;1.000000;1.000000;0.117125;-0.117125;0.117125;1.000000
445639.74680145;5696601.55990036;471.87614967;0.34902;0.341176;0.333333;22359.000000;1.000000;1.000000;1.000000;1.000000;-0.192575;0.192575;-0.192575;1.000000
445639.93780334;5696601.49259766;471.90964987;0.231373;0.254902;0.305882;16448.000000;1.000000;1.000000;1.000000;1.000000;-0.001574;0.001574;-0.001574;1.000000
445639.97690018;5696601.13739975;472.12614967;0.486275;0.513725;0.560784;33410.000000;1.000000;1.000000;1.000000;1.000000;-0.192702;0.192702;-0.192702;1.000000
445639.79180344;5696601.41329773;471.87185003;0.184314;0.192157;0.203922;12336.000000;1.000000;1.000000;1.000000;1.000000;-0.143072;0.143072;-0.143072;1.000000
445640.13510330;5696601.37840088;471.91254999;0.145098;0.184314;0.243137;11565.000000;1.000000;1.000000;1.000000;1.000000;0.048401;-0.048401;0.048401;1.000000
445640.12640198;5696601.41869934;471.92894985;0.486275;0.509804;0.517647;32896.000000;1.000000;1.000000;1.000000;1.000000;0.088699;-0.088699;0.088699;1.000000
445640.09399994;5696601.30549820;471.89354994;0.235294;0.262745;0.313725;16962.000000;1.000000;1.000000;1.000000;1.000000;-0.024502;0.024502;-0.024502;1.000000
445640.02630051;5696601.15279968;472.04465010;0.282353;0.313725;0.356863;20046.000000;1.000000;1.000000;1.000000;1.000000;-0.177200;0.177200;-0.177200;1.000000
445639.88200195;5696601.46299942;471.89274981;0.203922;0.223529;0.254902;14392.000000;1.000000;1.000000;1.000000;1.000000;-0.057375;0.057375;-0.057375;1.000000
445639.88560303;5696601.42529877;471.89015009;0.329412;0.345098;0.368627;22359.000000;1.000000;1.000000;1.000000;1.000000;-0.053774;0.053774;-0.053774;1.000000
445640.13720139;5696601.34799774;471.90525009;0.270588;0.309804;0.313725;19532.000000;1.000000;1.000000;1.000000;1.000000;0.017998;-0.017998;0.017998;1.000000
445639.83279999;5696601.53529938;471.88905003;0.364706;0.392157;0.415686;25186.000000;1.000000;1.000000;1.000000;1.000000;-0.106577;0.106577;-0.106577;1.000000
445639.79660233;5696601.49669846;471.88464977;0.372549;0.392157;0.415686;25443.000000;1.000000;1.000000;1.000000;1.000000;-0.142775;0.142775;-0.142775;1.000000
445640.06040009;5696601.43429764;471.92145016;0.290196;0.309804;0.345098;20046.000000;1.000000;1.000000;1.000000;1.000000;0.104298;0.104298;-0.104298;1.000000
445640.13360031;5696601.43390091;471.95734980;0.670588;0.686275;0.698039;44718.000000;1.000000;1.000000;1.000000;1.000000;0.103901;-0.103901;0.103901;1.000000
445640.13650330;5696601.39909943;471.92444994;0.482353;0.494118;0.517647;32125.000000;1.000000;1.000000;1.000000;1.000000;0.069099;-0.069099;0.069099;1.000000
445639.74200256;5696601.45529755;471.87004997;0.278431;0.278431;0.27451;17990.000000;1.000000;1.000000;1.000000;1.000000;-0.197374;0.197374;-0.197374;1.000000
445640.09080322;5696601.14669998;472.05454971;0.0823529;0.113725;0.156863;6939.000000;1.000000;1.000000;1.000000;1.000000;-0.183307;0.183307;-0.183307;1.000000
445640.00430115;5696601.23539932;471.97714998;0.054902;0.0705882;0.0901961;4369.000000;1.000000;1.000000;1.000000;1.000000;-0.094601;0.094601;-0.094601;1.000000
445639.95720108;5696601.47669800;471.91264965;0.345098;0.364706;0.4;23644.000000;1.000000;1.000000;1.000000;1.000000;0.017824;-0.017824;0.017824;1.000000
445640.14750107;5696601.40239914;471.94595005;0.882353;0.886275;0.898039;58082.000000;1.000000;1.000000;1.000000;1.000000;0.072399;-0.072399;0.072399;1.000000
445639.81340225;5696601.32239731;471.87865021;0.180392;0.196078;0.219608;12593.000000;1.000000;1.000000;1.000000;1.000000;0.095029;-0.095029;0.095029;1.000000
445639.99839981;5696601.36549957;471.90854980;0.227451;0.258824;0.313725;16705.000000;1.000000;1.000000;1.000000;1.000000;0.035500;-0.035500;0.035500;1.000000
445640.05450256;5696601.46909912;471.97055008;0.133333;0.168627;0.227451;10537.000000;1.000000;1.000000;1.000000;1.000000;0.115126;-0.115126;0.115126;1.000000
445639.87960251;5696601.31139954;471.89085009;0.227451;0.239216;0.27451;15677.000000;1.000000;1.000000;1.000000;1.000000;0.034053;-0.034053;0.034053;1.000000
445639.90890320;5696601.28949936;471.92224981;0.0666667;0.0862745;0.101961;5140.000000;1.000000;1.000000;1.000000;1.000000;0.040501;-0.040501;0.040501;1.000000
445639.87600143;5696601.21819885;472.04104998;0.231373;0.266667;0.305882;16962.000000;1.000000;1.000000;1.000000;1.000000;0.116325;-0.116325;0.116325;1.000000
445639.94820221;5696601.18289764;472.07644989;0.584314;0.615686;0.658824;39835.000000;1.000000;1.000000;1.000000;1.000000;-0.147103;0.147103;-0.147103;1.000000
445640.02040298;5696601.22699936;471.96614983;0.101961;0.117647;0.141176;7453.000000;1.000000;1.000000;1.000000;1.000000;-0.103001;0.103001;-0.103001;1.000000
445640.11420258;5696601.29659851;471.89435007;0.0862745;0.113725;0.152941;7196.000000;1.000000;1.000000;1.000000;1.000000;-0.033401;0.033401;-0.033401;1.000000
445640.07100113;5696601.21089752;471.94955017;0.129412;0.141176;0.160784;8995.000000;1.000000;1.000000;1.000000;1.000000;-0.119287;0.119287;-0.119287;1.000000
445640.09990128;5696601.39800079;472.06255009;0.2;0.235294;0.270588;14906.000000;1.000000;1.000000;1.000000;1.000000;0.068001;-0.068001;0.068001;1.000000
445639.90929993;5696601.50929840;471.90154984;0.564706;0.584314;0.607843;38036.000000;1.000000;1.000000;1.000000;1.000000;-0.030077;0.030077;-0.030077;1.000000
445639.95430191;5696601.52129944;471.91305019;0.247059;0.262745;0.298039;16962.000000;1.000000;1.000000;1.000000;1.000000;0.014925;-0.014925;0.014925;1.000000
445639.95549973;5696601.48390015;471.91264965;0.305882;0.32549;0.368627;21074.000000;1.000000;1.000000;1.000000;1.000000;0.016123;-0.016123;0.016123;1.000000
445639.81190308;5696601.40439804;471.87264969;0.25098;0.270588;0.298039;17476.000000;1.000000;1.000000;1.000000;1.000000;-0.121631;0.121631;-0.121631;1.000000
445639.81300171;5696601.36689957;471.87454988;0.0745098;0.0941176;0.121569;5911.000000;1.000000;1.000000;1.000000;1.000000;-0.102031;0.102031;-0.102031;1.000000
445639.84259995;5696601.48999985;471.88905003;0.219608;0.243137;0.286275;15677.000000;1.000000;1.000000;1.000000;1.000000;-0.096777;0.096777;-0.096777;1.000000
445640.04269989;5696601.47239883;471.97935011;0.141176;0.168627;0.219608;10794.000000;1.000000;1.000000;1.000000;1.000000;0.103323;-0.103323;0.103323;1.000000
445639.84760101;5696601.41499908;471.88135006;0.294118;0.301961;0.32549;19789.000000;1.000000;1.000000;1.000000;1.000000;-0.091776;0.091776;-0.091776;1.000000
445640.08830078;5696601.24979980;471.90424969;0.0431373;0.0509804;0.0745098;3341.000000;1.000000;1.000000;1.000000;1.000000;-0.080334;0.080334;-0.080334;1.000000
445640.09230240;5696601.13719757;472.05214979;0.027451;0.0705882;0.121569;4112.000000;1.000000;1.000000;1.000000;1.000000;-0.192802;0.192802;-0.192802;1.000000
445639.89880188;5696601.51969727;471.89654972;0.517647;0.537255;0.560784;34952.000000;1.000000;1.000000;1.000000;1.000000;-0.040575;0.040575;-0.040575;1.000000
445640.12740143;5696601.42040070;471.96394970;0.576471;0.588235;0.596078;38293.000000;1.000000;1.000000;1.000000;1.000000;0.090401;-0.090401;0.090401;1.000000
445639.98360260;5696601.26079758;471.96954967;0.0705882;0.0901961;0.113725;5654.000000;1.000000;1.000000;1.000000;1.000000;-0.069454;0.069454;-0.069454;1.000000
445639.98570068;5696601.22489746;472.00645020;0.0235294;0.0352941;0.0588235;2056.000000;1.000000;1.000000;1.000000;1.000000;-0.105168;0.105168;-0.105168;1.000000
445639.99580200;5696601.25760086;471.95134975;0.0588235;0.0666667;0.0980392;4369.000000;1.000000;1.000000;1.000000;1.000000;-0.072399;0.072399;-0.072399;1.000000
445640.06880005;5696601.22099884;471.91464998;0.054902;0.0588235;0.0745098;3855.000000;1.000000;1.000000;1.000000;1.000000;-0.109091;0.109091;-0.109091;1.000000
445640.10420044;5696601.22249802;471.91165020;0.0980392;0.121569;0.145098;7453.000000;1.000000;1.000000;1.000000;1.000000;-0.107502;0.107502;-0.107502;1.000000
445640.09840210;5696601.40749939;472.06265022;0.254902;0.290196;0.313725;18247.000000;1.000000;1.000000;1.000000;1.000000;0.077499;-0.077499;0.077499;1.000000
445639.86140259;5696601.51629837;471.89015009;0.439216;0.454902;0.47451;29555.000000;1.000000;1.000000;1.000000;1.000000;-0.077974;0.077974;-0.077974;1.000000
445639.91990097;5696601.20199783;472.07074978;0.458824;0.490196;0.529412;31611.000000;1.000000;1.000000;1.000000;1.000000;-0.128002;0.128002;-0.128002;1.000000
445639.99699982;5696601.25029953;471.96294977;0.0705882;0.0823529;0.101961;5140.000000;1.000000;1.000000;1.000000;1.000000;-0.079700;0.079700;-0.079700;1.000000
445640.11630066;5696601.32710083;472.01825001;0.0392157;0.0745098;0.101961;4369.000000;1.000000;1.000000;1.000000;1.000000;-0.002899;0.002899;-0.002899;1.000000
445640.10550125;5696601.25749786;471.90275003;0.0470588;0.0666667;0.0941176;4112.000000;1.000000;1.000000;1.000000;1.000000;-0.072502;0.072502;-0.072502;1.000000
445639.90630157;5696601.37199982;471.89045002;0.192157;0.211765;0.247059;13621.000000;1.000000;1.000000;1.000000;1.000000;-0.033075;0.033075;-0.033075;1.000000
445639.94100006;5696601.37100037;471.89664986;0.152941;0.172549;0.211765;11051.000000;1.000000;1.000000;1.000000;1.000000;0.001623;-0.001623;0.001623;1.000000
445640.09230240;5696601.33830078;471.89615013;0.0862745;0.117647;0.164706;7196.000000;1.000000;1.000000;1.000000;1.000000;0.008327;-0.008327;0.008327;1.000000
445639.83329971;5696601.29450043;471.89794971;0.129412;0.14902;0.172549;9509.000000;1.000000;1.000000;1.000000;1.000000;0.082821;-0.082821;0.082821;1.000000
445639.87110336;5696601.25720032;471.96904995;0.145098;0.168627;0.192157;10537.000000;1.000000;1.000000;1.000000;1.000000;0.081673;-0.081673;0.081673;1.000000
445639.83520325;5696601.25639923;471.93244984;0.105882;0.113725;0.12549;7196.000000;1.000000;1.000000;1.000000;1.000000;0.103610;-0.103610;0.103610;1.000000
445640.13370331;5696601.30409821;471.89295008;0.184314;0.215686;0.239216;13621.000000;1.000000;1.000000;1.000000;1.000000;-0.025902;0.025902;-0.025902;1.000000
445640.03070267;5696601.23100098;471.95265009;0.0509804;0.0627451;0.0784314;3855.000000;1.000000;1.000000;1.000000;1.000000;-0.098999;0.098999;-0.098999;1.000000
445639.99820145;5696601.13109787;472.10605003;0.466667;0.490196;0.533333;31868.000000;1.000000;1.000000;1.000000;1.000000;-0.198902;0.198902;-0.198902;1.000000
445640.10990341;5696601.20709808;471.96064999;0.0745098;0.0784314;0.117647;5140.000000;1.000000;1.000000;1.000000;1.000000;-0.122902;0.122902;-0.122902;1.000000
445639.78040131;5696601.46800049;471.87424995;0.415686;0.435294;0.45098;28013.000000;1.000000;1.000000;1.000000;1.000000;-0.158976;0.158976;-0.158976;1.000000
445640.11830338;5696601.44240006;471.95214989;0.568627;0.584314;0.611765;38036.000000;1.000000;1.000000;1.000000;1.000000;0.112400;-0.112400;0.112400;1.000000
445640.08130081;5696601.40439804;471.91505005;0.345098;0.368627;0.415686;23901.000000;1.000000;1.000000;1.000000;1.000000;0.075296;-0.075296;0.075296;1.000000
445640.04720123;5696601.47870071;471.99595024;0.164706;0.188235;0.235294;12079.000000;1.000000;1.000000;1.000000;1.000000;0.107824;-0.107824;0.107824;1.000000
445640.12750061;5696601.29120071;472.00435020;0.152941;0.188235;0.223529;11822.000000;1.000000;1.000000;1.000000;1.000000;-0.038799;0.038799;-0.038799;1.000000
445640.13640030;5696601.29109772;471.96274998;0.270588;0.294118;0.317647;18761.000000;1.000000;1.000000;1.000000;1.000000;-0.038902;0.038902;-0.038902;1.000000
445639.78400238;5696601.35560043;471.87314989;0.203922;0.215686;0.231373;13878.000000;1.000000;1.000000;1.000000;1.000000;-0.126737;0.126737;-0.126737;1.000000
445639.93190201;5696601.39979752;471.89895012;0.160784;0.180392;0.219608;11565.000000;1.000000;1.000000;1.000000;1.000000;-0.007475;0.007475;-0.007475;1.000000
445639.77309998;5696601.41269882;471.86864998;0.145098;0.152941;0.172549;9766.000000;1.000000;1.000000;1.000000;1.000000;-0.158339;0.158339;-0.158339;1.000000
445640.11980255;5696601.33559998;471.90205004;0.188235;0.223529;0.266667;14135.000000;1.000000;1.000000;1.000000;1.000000;0.005600;-0.005600;0.005600;1.000000
445639.93580063;5696601.24579819;472.01375010;0.0196078;0.0313725;0.0666667;2056.000000;1.000000;1.000000;1.000000;1.000000;-0.084202;0.084202;-0.084202;1.000000
445639.77820023;5696601.49619873;471.87684967;0.160784;0.180392;0.211765;11565.000000;1.000000;1.000000;1.000000;1.000000;-0.161177;0.161177;-0.161177;1.000000
445639.77950104;5696601.45879944;471.87414982;0.337255;0.356863;0.376471;23130.000000;1.000000;1.000000;1.000000;1.000000;-0.159876;0.159876;-0.159876;1.000000
445639.98970230;5696601.15329941;472.08034994;0.486275;0.513725;0.556863;33410.000000;1.000000;1.000000;1.000000;1.000000;-0.176701;0.176701;-0.176701;1.000000
445640.12010010;5696601.43759735;471.95214989;0.529412;0.556863;0.572549;35980.000000;1.000000;1.000000;1.000000;1.000000;0.107597;-0.107597;0.107597;1.000000
445639.82050140;5696601.42219742;471.87554981;0.2;0.211765;0.235294;13621.000000;1.000000;1.000000;1.000000;1.000000;-0.118876;0.118876;-0.118876;1.000000
445640.08070190;5696601.39749725;471.91264965;0.317647;0.337255;0.372549;21845.000000;1.000000;1.000000;1.000000;1.000000;0.068591;-0.068591;0.068591;1.000000
445639.96059998;5696601.38310059;471.90234997;0.2;0.219608;0.254902;14135.000000;1.000000;1.000000;1.000000;1.000000;0.021223;-0.021223;0.021223;1.000000
445639.78540237;5696601.34609802;471.87305023;0.2;0.211765;0.227451;13621.000000;1.000000;1.000000;1.000000;1.000000;-0.123776;0.123776;-0.123776;1.000000
445640.04969986;5696601.44909866;471.93044998;0.392157;0.407843;0.427451;26471.000000;1.000000;1.000000;1.000000;1.000000;0.110323;-0.110323;0.110323;1.000000
445639.90120132;5696601.44479950;471.89575006;0.4;0.419608;0.458824;27242.000000;1.000000;1.000000;1.000000;1.000000;-0.038176;0.038176;-0.038176;1.000000
445639.90720184;5696601.33219727;471.89234974;0.25098;0.270588;0.317647;17476.000000;1.000000;1.000000;1.000000;1.000000;-0.002384;0.002384;-0.002384;1.000000
445639.98520096;5696601.18479736;472.03854992;0.235294;0.254902;0.305882;16448.000000;1.000000;1.000000;1.000000;1.000000;-0.145261;0.145261;-0.145261;1.000000
445640.02210052;5696601.19109924;472.01004984;0.0352941;0.0470588;0.0901961;3084.000000;1.000000;1.000000;1.000000;1.000000;-0.138901;0.138901;-0.138901;1.000000
445640.12780197;5696601.34429749;471.89785006;0.294118;0.337255;0.364706;21331.000000;1.000000;1.000000;1.000000;1.000000;0.014297;-0.014297;0.014297;1.000000
445639.91140182;5696601.22419937;472.04505016;0.462745;0.494118;0.529412;31868.000000;1.000000;1.000000;1.000000;1.000000;0.105801;-0.105801;0.105801;1.000000
445640.02070053;5696601.26269730;471.92695000;0.054902;0.0666667;0.0862745;4112.000000;1.000000;1.000000;1.000000;1.000000;-0.067303;0.067303;-0.067303;1.000000
445639.95520218;5696601.15349777;472.12064983;0.572549;0.6;0.647059;39064.000000;1.000000;1.000000;1.000000;1.000000;-0.176502;0.176502;-0.176502;1.000000
445639.97930344;5696601.17809875;472.05214979;0.478431;0.505882;0.545098;32896.000000;1.000000;1.000000;1.000000;1.000000;-0.152149;0.152149;-0.152149;1.000000
445640.00620087;5696601.19949921;472.01634981;0.0392157;0.054902;0.0901961;3341.000000;1.000000;1.000000;1.000000;1.000000;-0.130501;0.130501;-0.130501;1.000000
445639.94260223;5696601.17849930;472.09014990;0.545098;0.576471;0.611765;37265.000000;1.000000;1.000000;1.000000;1.000000;-0.151535;0.151535;-0.151535;1.000000
445640.01130112;5696601.48779877;471.92924978;0.466667;0.466667;0.486275;30583.000000;1.000000;1.000000;1.000000;1.000000;0.071924;-0.071924;0.071924;1.000000
445640.01060303;5696601.51239975;471.99704983;0.254902;0.294118;0.313725;18504.000000;1.000000;1.000000;1.000000;1.000000;0.071226;-0.071226;0.071226;1.000000
445639.87100037;5696601.29809769;471.89734985;0.054902;0.0705882;0.0901961;4369.000000;1.000000;1.000000;1.000000;1.000000;0.048950;-0.048950;0.048950;1.000000
445640.14010056;5696601.42859848;471.95764973;0.760784;0.772549;0.776471;50372.000000;1.000000;1.000000;1.000000;1.000000;0.098598;-0.098598;0.098598;1.000000
445639.81340225;5696601.30129822;471.88544991;0.27451;0.286275;0.305882;18504.000000;1.000000;1.000000;1.000000;1.000000;0.098978;-0.098978;0.098978;1.000000
445640.03730209;5696601.50729950;472.01674988;0.498039;0.533333;0.541176;34181.000000;1.000000;1.000000;1.000000;1.000000;0.097925;-0.097925;0.097925;1.000000
445640.12910278;5696601.34359940;472.07954981;0.776471;0.807843;0.827451;52428.000000;1.000000;1.000000;1.000000;1.000000;0.013599;-0.013599;0.013599;1.000000
445639.90920074;5696601.25539978;472.00334980;0.054902;0.0705882;0.105882;4369.000000;1.000000;1.000000;1.000000;1.000000;0.074600;-0.074600;0.074600;1.000000
445639.86930283;5696601.32409866;471.88595011;0.156863;0.180392;0.223529;11565.000000;1.000000;1.000000;1.000000;1.000000;0.039270;-0.039270;0.039270;1.000000
445640.04760178;5696601.48779877;472.00775005;0.290196;0.317647;0.34902;20303.000000;1.000000;1.000000;1.000000;1.000000;0.108225;-0.108225;0.108225;1.000000
445640.09740265;5696601.26769836;471.89554979;0.168627;0.188235;0.223529;12079.000000;1.000000;1.000000;1.000000;1.000000;-0.062302;0.062302;-0.062302;1.000000
445640.09520157;5696601.19159897;471.99704983;0.101961;0.145098;0.180392;8738.000000;1.000000;1.000000;1.000000;1.000000;-0.138401;0.138401;-0.138401;1.000000
445639.94470032;5696601.33559998;471.89645006;0.0862745;0.105882;0.14902;6682.000000;1.000000;1.000000;1.000000;1.000000;0.005323;-0.005323;0.005323;1.000000
445640.01130112;5696601.52389725;472.00645020;0.282353;0.321569;0.337255;20303.000000;1.000000;1.000000;1.000000;1.000000;0.071924;-0.071924;0.071924;1.000000
445640.09840210;5696601.19219788;472.08334972;0.0470588;0.0588235;0.0901961;3598.000000;1.000000;1.000000;1.000000;1.000000;-0.137802;0.137802;-0.137802;1.000000
445640.04940231;5696601.28370102;471.90525009;0.231373;0.254902;0.294118;16448.000000;1.000000;1.000000;1.000000;1.000000;-0.046299;0.046299;-0.046299;1.000000
445639.90890320;5696601.29400070;471.93155005;0.0627451;0.0823529;0.12549;5140.000000;1.000000;1.000000;1.000000;1.000000;0.035999;-0.035999;0.035999;1.000000
445639.83400162;5696601.49790009;471.88875010;0.219608;0.243137;0.278431;15677.000000;1.000000;1.000000;1.000000;1.000000;-0.105375;0.105375;-0.105375;1.000000
445640.03090103;5696601.20680054;472.00124981;0.121569;0.129412;0.176471;8481.000000;1.000000;1.000000;1.000000;1.000000;-0.123199;0.123199;-0.123199;1.000000
445640.01000031;5696601.51309784;471.95974972;0.227451;0.258824;0.294118;16448.000000;1.000000;1.000000;1.000000;1.000000;0.070623;-0.070623;0.070623;1.000000
445639.99699982;5696601.37499817;471.90854980;0.301961;0.337255;0.380392;21588.000000;1.000000;1.000000;1.000000;1.000000;0.044998;-0.044998;0.044998;1.000000
445640.01200302;5696601.48940094;471.96884968;0.109804;0.145098;0.2;8995.000000;1.000000;1.000000;1.000000;1.000000;0.072626;-0.072626;0.072626;1.000000
445640.02550323;5696601.26230057;471.92485001;0.0470588;0.0588235;0.0784314;3598.000000;1.000000;1.000000;1.000000;1.000000;-0.067699;0.067699;-0.067699;1.000000
445640.05130203;5696601.45779999;471.96554996;0.137255;0.164706;0.219608;10537.000000;1.000000;1.000000;1.000000;1.000000;0.111925;-0.111925;0.111925;1.000000
445639.95300110;5696601.14159973;472.14605000;0.521569;0.552941;0.6;35723.000000;1.000000;1.000000;1.000000;1.000000;-0.188400;0.188400;-0.188400;1.000000
445639.94630249;5696601.29519852;471.93324997;0.0431373;0.0627451;0.101961;3855.000000;1.000000;1.000000;1.000000;1.000000;-0.034895;0.034895;-0.034895;1.000000
445640.09860046;5696601.26700027;472.07954981;0.00784314;0.0352941;0.0509804;1799.000000;1.000000;1.000000;1.000000;1.000000;-0.063000;0.063000;-0.063000;1.000000
445639.87530334;5696601.22789963;472.02244999;0.286275;0.317647;0.34902;20303.000000;1.000000;1.000000;1.000000;1.000000;0.107247;-0.107247;0.107247;1.000000
445640.09520157;5696601.23219879;472.08365013;0.0235294;0.0431373;0.0627451;2570.000000;1.000000;1.000000;1.000000;1.000000;-0.097801;0.097801;-0.097801;1.000000
445640.08600052;5696601.41589935;472.04355003;0.0784314;0.113725;0.156863;6939.000000;1.000000;1.000000;1.000000;1.000000;0.086138;-0.086138;0.086138;1.000000
445640.09990128;5696601.30660065;472.08015015;0.0588235;0.0980392;0.101961;5654.000000;1.000000;1.000000;1.000000;1.000000;-0.023399;0.023399;-0.023399;1.000000
445639.90839966;5696601.26510056;471.98714973;0.0627451;0.0745098;0.105882;4626.000000;1.000000;1.000000;1.000000;1.000000;0.064899;-0.064899;0.064899;1.000000
445640.05470093;5696601.22909744;471.93274977;0.027451;0.0352941;0.0431373;2056.000000;1.000000;1.000000;1.000000;1.000000;-0.100903;0.100903;-0.100903;1.000000
445639.97340210;5696601.31889923;471.89984991;0.0823529;0.113725;0.160784;6939.000000;1.000000;1.000000;1.000000;1.000000;-0.011442;0.011442;-0.011442;1.000000
445639.98760040;5696601.23670013;471.98805000;0.0588235;0.0666667;0.0862745;4112.000000;1.000000;1.000000;1.000000;1.000000;-0.093318;0.093318;-0.093318;1.000000
445640.12370117;5696601.45269974;472.01074984;0.984314;0.996078;0.992157;64764.000000;1.000000;1.000000;1.000000;1.000000;0.122700;-0.122700;0.122700;1.000000
445640.06070145;5696601.18279846;472.01865007;0.0823529;0.105882;0.129412;6425.000000;1.000000;1.000000;1.000000;1.000000;-0.147202;0.147202;-0.147202;1.000000
445640.02420242;5696601.23629959;471.95244982;0.0509804;0.0588235;0.0745098;3598.000000;1.000000;1.000000;1.000000;1.000000;-0.093700;0.093700;-0.093700;1.000000
445639.80750092;5696601.31119736;471.88065006;0.384314;0.392157;0.392157;25443.000000;1.000000;1.000000;1.000000;1.000000;0.102368;-0.102368;0.102368;1.000000
445639.84620102;5696601.23629959;471.95834972;0.0823529;0.105882;0.133333;6425.000000;1.000000;1.000000;1.000000;1.000000;0.112315;-0.112315;0.112315;1.000000
445639.88730057;5696601.34340103;471.88924982;0.152941;0.184314;0.235294;11822.000000;1.000000;1.000000;1.000000;1.000000;-0.024765;0.024765;-0.024765;1.000000
445639.81990250;5696601.26040085;471.91785004;0.145098;0.152941;0.172549;9766.000000;1.000000;1.000000;1.000000;1.000000;0.112373;-0.112373;0.112373;1.000000
445639.92889984;5696601.22979935;472.03184988;0.145098;0.164706;0.192157;10537.000000;1.000000;1.000000;1.000000;1.000000;-0.100201;0.100201;-0.100201;1.000000
445639.89130219;5696601.25729950;471.98854973;0.12549;0.14902;0.172549;9252.000000;1.000000;1.000000;1.000000;1.000000;0.074622;-0.074622;0.074622;1.000000
445640.05840118;5696601.48200043;472.01515009;0.152941;0.176471;0.211765;11308.000000;1.000000;1.000000;1.000000;1.000000;0.119024;-0.119024;0.119024;1.000000
445639.96090134;5696601.41110046;471.90275003;0.254902;0.270588;0.301961;17476.000000;1.000000;1.000000;1.000000;1.000000;0.021524;-0.021524;0.021524;1.000000
445640.14270218;5696601.30769928;471.90735008;0.333333;0.364706;0.392157;23387.000000;1.000000;1.000000;1.000000;1.000000;-0.022301;0.022301;-0.022301;1.000000
445639.73830231;5696601.36459930;471.86644985;0.137255;0.141176;0.156863;9252.000000;1.000000;1.000000;1.000000;1.000000;-0.173313;0.173313;-0.173313;1.000000
445639.97130020;5696601.34709747;471.90245010;0.152941;0.180392;0.219608;11565.000000;1.000000;1.000000;1.000000;1.000000;0.017111;-0.017111;0.017111;1.000000
445640.00980194;5696601.31069763;471.90605022;0.156863;0.184314;0.227451;11822.000000;1.000000;1.000000;1.000000;1.000000;-0.019302;0.019302;-0.019302;1.000000
445639.96210297;5696601.37359818;471.90234997;0.14902;0.176471;0.219608;11308.000000;1.000000;1.000000;1.000000;1.000000;0.022726;-0.022726;0.022726;1.000000
445640.07880219;5696601.43309982;472.03175022;0.0745098;0.101961;0.14902;6425.000000;1.000000;1.000000;1.000000;1.000000;0.104000;-0.104000;0.104000;1.000000
445639.97010239;5696601.19790085;472.03564980;0.196078;0.219608;0.258824;14135.000000;1.000000;1.000000;1.000000;1.000000;-0.132099;0.132099;-0.132099;1.000000
445639.96780212;5696601.15489777;472.10494997;0.454902;0.486275;0.533333;31354.000000;1.000000;1.000000;1.000000;1.000000;-0.175102;0.175102;-0.175102;1.000000
445640.05230148;5696601.21259888;471.95344975;0.027451;0.0470588;0.0705882;2827.000000;1.000000;1.000000;1.000000;1.000000;-0.117401;0.117401;-0.117401;1.000000
445640.08850296;5696601.17259796;472.05474998;0.0901961;0.109804;0.129412;6939.000000;1.000000;1.000000;1.000000;1.000000;-0.157450;0.157450;-0.157450;1.000000
445639.92180069;5696601.17289932;472.12404968;0.556863;0.588235;0.627451;38036.000000;1.000000;1.000000;1.000000;1.000000;-0.157101;0.157101;-0.157101;1.000000
445640.04800232;5696601.29319962;471.90294983;0.172549;0.2;0.247059;12850.000000;1.000000;1.000000;1.000000;1.000000;-0.036800;0.036800;-0.036800;1.000000
445639.97200211;5696601.32839783;471.89995005;0.0784314;0.113725;0.160784;6939.000000;1.000000;1.000000;1.000000;1.000000;-0.002111;0.002111;-0.002111;1.000000
445640.03569992;5696601.50849731;471.94915010;0.490196;0.498039;0.494118;32382.000000;1.000000;1.000000;1.000000;1.000000;0.096323;-0.096323;0.096323;1.000000
445639.89430054;5696601.44539841;471.89545013;0.396078;0.411765;0.443137;26728.000000;1.000000;1.000000;1.000000;1.000000;-0.045076;0.045076;-0.045076;1.000000
445639.89550217;5696601.40799912;471.89274981;0.2;0.219608;0.258824;14135.000000;1.000000;1.000000;1.000000;1.000000;-0.043875;0.043875;-0.043875;1.000000
445639.86140259;5696601.22239883;472.00775005;0.396078;0.427451;0.458824;27499.000000;1.000000;1.000000;1.000000;1.000000;0.117308;-0.117308;0.117308;1.000000
445639.84990128;5696601.33999832;471.88285019;0.156863;0.176471;0.223529;11308.000000;1.000000;1.000000;1.000000;1.000000;-0.059078;0.059078;-0.059078;1.000000
445640.04210098;5696601.23969849;471.92294981;0.0509804;0.0588235;0.0823529;3855.000000;1.000000;1.000000;1.000000;1.000000;-0.090303;0.090303;-0.090303;1.000000
445639.93110092;5696601.15539749;472.14284994;0.545098;0.576471;0.615686;37265.000000;1.000000;1.000000;1.000000;1.000000;-0.174603;0.174603;-0.174603;1.000000
445639.99830063;5696601.33749969;471.90584995;0.223529;0.254902;0.298039;16191.000000;1.000000;1.000000;1.000000;1.000000;0.007500;-0.007500;0.007500;1.000000
445639.84250076;5696601.27699860;471.91674997;0.129412;0.145098;0.164706;9252.000000;1.000000;1.000000;1.000000;1.000000;0.084356;-0.084356;0.084356;1.000000
445640.14180191;5696601.32409866;471.90984966;0.101961;0.141176;0.180392;8738.000000;1.000000;1.000000;1.000000;1.000000;-0.005901;0.005901;-0.005901;1.000000
445640.13280304;5696601.28280075;471.92065002;0.141176;0.172549;0.196078;10794.000000;1.000000;1.000000;1.000000;1.000000;-0.047199;0.047199;-0.047199;1.000000
445639.89330109;5696601.21389969;472.06265022;0.376471;0.411765;0.447059;26471.000000;1.000000;1.000000;1.000000;1.000000;0.117043;-0.117043;0.117043;1.000000
445639.93280228;5696601.17930038;472.10134985;0.509804;0.541176;0.580392;34952.000000;1.000000;1.000000;1.000000;1.000000;-0.150700;0.150700;-0.150700;1.000000
445640.03810318;5696601.33849915;471.90535023;0.203922;0.239216;0.290196;15163.000000;1.000000;1.000000;1.000000;1.000000;0.009637;-0.009637;0.009637;1.000000
