//X;Y;Z;Rf;Gf;Bf;Intensity;Return Number;Number Of Returns;Scan Direction Flag;Point Source ID;C2M signed distances[-][<0.8];C2M signed distances[<0.4];C2M signed distances[-][<0.2];Stump64
299
445649.37860306;5696557.82059868;469.89964988;0.443137;0.435294;0.403922;28270.000000;1.000000;1.000000;1.000000;1.000000;0.009401;-0.009401;0.009401;1.000000
445649.34100159;5696557.81939896;469.90034987;0.172549;0.164706;0.141176;10537.000000;1.000000;1.000000;1.000000;1.000000;0.010603;-0.010603;0.010603;1.000000
445649.34200104;5696557.85659988;469.90314986;0.415686;0.415686;0.4;26985.000000;1.000000;1.000000;1.000000;1.000000;-0.026626;0.026626;-0.026626;1.000000
445649.37930115;5696557.82979973;469.90214993;0.592157;0.588235;0.564706;38293.000000;1.000000;1.000000;1.000000;1.000000;0.000200;-0.000200;0.000200;1.000000
445649.34180267;5696557.82860001;469.90275003;0.337255;0.329412;0.305882;21331.000000;1.000000;1.000000;1.000000;1.000000;0.001715;-0.001715;0.001715;1.000000
445649.50780304;5696557.87409981;469.89214994;0.509804;0.509804;0.478431;33153.000000;1.000000;1.000000;1.000000;1.000000;-0.108996;0.108996;-0.108996;1.000000
445649.43260010;5696557.86939819;469.89104988;0.529412;0.533333;0.513725;34695.000000;1.000000;1.000000;1.000000;1.000000;-0.046381;0.046381;-0.046381;1.000000
445649.39380081;5696557.90569885;469.89444997;0.592157;0.596078;0.568627;38550.000000;1.000000;1.000000;1.000000;1.000000;-0.075699;0.075699;-0.075699;1.000000
445649.35620316;5696557.90449913;469.89504983;0.25098;0.25098;0.223529;16191.000000;1.000000;1.000000;1.000000;1.000000;-0.076078;0.076078;-0.076078;1.000000
445649.50630005;5696557.90929993;469.89485003;0.635294;0.635294;0.607843;41377.000000;1.000000;1.000000;1.000000;1.000000;-0.126200;0.126200;-0.126200;1.000000
445649.60210236;5696557.85829933;469.89395000;0.792157;0.796078;0.776471;51914.000000;1.000000;1.000000;1.000000;1.000000;-0.196029;0.196029;-0.196029;1.000000
445649.37730225;5696557.85799988;469.90244987;0.27451;0.27451;0.262745;17733.000000;1.000000;1.000000;1.000000;1.000000;-0.028000;0.028000;-0.028000;1.000000
445649.48750122;5696557.93659981;469.90135004;0.533333;0.529412;0.505882;34438.000000;1.000000;1.000000;1.000000;1.000000;-0.132905;0.132905;-0.132905;1.000000
445649.37380035;5696557.97049912;469.90124990;0.52549;0.529412;0.494118;34181.000000;1.000000;1.000000;1.000000;1.000000;-0.140533;0.140533;-0.140533;1.000000
445649.37260254;5696558.00799950;469.90164997;0.443137;0.454902;0.427451;29298.000000;1.000000;1.000000;1.000000;1.000000;-0.178051;0.178051;-0.178051;1.000000
445649.34060104;5696557.86609848;469.90314986;0.192157;0.192157;0.176471;12336.000000;1.000000;1.000000;1.000000;1.000000;-0.036098;0.036098;-0.036098;1.000000
445649.38630112;5696557.67289932;469.88894989;0.556863;0.533333;0.494118;34952.000000;1.000000;1.000000;1.000000;1.000000;0.021826;-0.021826;0.021826;1.000000
445649.42380341;5696557.67409904;469.88835003;0.764706;0.760784;0.737255;49601.000000;1.000000;1.000000;1.000000;1.000000;-0.015676;0.015676;-0.015676;1.000000
445649.35150345;5696557.67159851;469.88034989;0.588235;0.545098;0.494118;35980.000000;1.000000;1.000000;1.000000;1.000000;0.056623;-0.056623;0.056623;1.000000
445649.42270096;5696557.71159943;469.88644983;0.266667;0.270588;0.25098;17476.000000;1.000000;1.000000;1.000000;1.000000;-0.014574;0.014574;-0.014574;1.000000
445649.45710190;5696557.96269806;469.90494992;0.643137;0.639216;0.615686;41634.000000;1.000000;1.000000;1.000000;1.000000;-0.141447;0.141447;-0.141447;1.000000
445649.50900085;5696557.83439835;469.88714983;0.647059;0.647059;0.615686;42148.000000;1.000000;1.000000;1.000000;1.000000;-0.100970;0.100970;-0.100970;1.000000
445649.49559982;5696557.71419914;469.88275005;0.682353;0.678431;0.647059;44204.000000;1.000000;1.000000;1.000000;1.000000;-0.087473;0.087473;-0.087473;1.000000
445649.57080276;5696557.71889885;469.88384988;0.627451;0.619608;0.592157;40349.000000;1.000000;1.000000;1.000000;1.000000;-0.162676;0.162676;-0.162676;1.000000
445649.49440201;5696557.75169952;469.88314988;0.564706;0.564706;0.52549;36494.000000;1.000000;1.000000;1.000000;1.000000;-0.086275;0.086275;-0.086275;1.000000
445649.45560272;5696557.78800018;469.88644983;0.509804;0.501961;0.462745;32639.000000;1.000000;1.000000;1.000000;1.000000;-0.047476;0.047476;-0.047476;1.000000
445649.53059967;5696557.79029854;469.88754990;0.392157;0.380392;0.34902;24929.000000;1.000000;1.000000;1.000000;1.000000;-0.122473;0.122473;-0.122473;1.000000
445649.49300201;5696557.78909882;469.88815000;0.427451;0.419608;0.384314;27242.000000;1.000000;1.000000;1.000000;1.000000;-0.084875;0.084875;-0.084875;1.000000
445649.49210175;5696557.82670029;469.88395001;0.576471;0.576471;0.54902;37522.000000;1.000000;1.000000;1.000000;1.000000;-0.083975;0.083975;-0.083975;1.000000
445649.56460007;5696557.82919891;469.88724997;0.482353;0.47451;0.439216;30840.000000;1.000000;1.000000;1.000000;1.000000;-0.156473;0.156473;-0.156473;1.000000
445649.44980057;5696557.90059860;469.88524987;0.686275;0.686275;0.662745;44718.000000;1.000000;1.000000;1.000000;1.000000;-0.081981;0.081981;-0.081981;1.000000
445649.57450302;5696557.88659866;469.89074995;0.752941;0.760784;0.733333;49344.000000;1.000000;1.000000;1.000000;1.000000;-0.175740;0.175740;-0.175740;1.000000
445649.35480316;5696557.76449974;469.89564993;0.52549;0.521569;0.494118;33924.000000;1.000000;1.000000;1.000000;1.000000;0.053324;-0.053324;0.053324;1.000000
445649.48430069;5696558.01129921;469.92074992;0.372549;0.372549;0.345098;24158.000000;1.000000;1.000000;1.000000;1.000000;-0.196652;0.196652;-0.196652;1.000000
445649.59200104;5696557.87559898;469.89605000;0.952941;0.960784;0.941176;62451.000000;1.000000;1.000000;1.000000;1.000000;-0.189444;0.189444;-0.189444;1.000000
445649.59370239;5696557.84049805;469.88864996;0.839216;0.835294;0.811765;54484.000000;1.000000;1.000000;1.000000;1.000000;-0.185872;0.185872;-0.185872;1.000000
445649.60090073;5696557.64359863;469.89135005;0.215686;0.180392;0.141176;12079.000000;1.000000;1.000000;1.000000;1.000000;-0.192774;0.192774;-0.192774;1.000000
445649.41460236;5696557.67489822;469.88794996;0.784314;0.780392;0.756863;50886.000000;1.000000;1.000000;1.000000;1.000000;-0.006475;0.006475;-0.006475;1.000000
445649.37680252;5696557.67140015;469.88855006;0.494118;0.466667;0.423529;30583.000000;1.000000;1.000000;1.000000;1.000000;0.031324;-0.031324;0.031324;1.000000
445649.49500092;5696557.97299965;469.91604998;0.627451;0.627451;0.603922;40863.000000;1.000000;1.000000;1.000000;1.000000;-0.167320;0.167320;-0.167320;1.000000
445649.41209991;5696557.74989899;469.89104988;0.619608;0.619608;0.596078;40349.000000;1.000000;1.000000;1.000000;1.000000;-0.003973;0.003973;-0.003973;1.000000
445649.54390152;5696557.67939957;469.87984993;0.258824;0.247059;0.239216;16191.000000;1.000000;1.000000;1.000000;1.000000;-0.135775;0.135775;-0.135775;1.000000
445649.44590195;5696557.78649910;469.89065005;0.447059;0.439216;0.407843;28527.000000;1.000000;1.000000;1.000000;1.000000;-0.037775;0.037775;-0.037775;1.000000
445649.59510239;5696557.83099945;469.88864996;0.639216;0.635294;0.607843;41377.000000;1.000000;1.000000;1.000000;1.000000;-0.186978;0.186978;-0.186978;1.000000
445649.44360168;5696557.86139877;469.88914992;0.576471;0.584314;0.560784;37779.000000;1.000000;1.000000;1.000000;1.000000;-0.047374;0.047374;-0.047374;1.000000
445649.51630219;5696557.86399849;469.89014985;0.52549;0.529412;0.490196;34181.000000;1.000000;1.000000;1.000000;1.000000;-0.113392;0.113392;-0.113392;1.000000
445649.48120316;5696557.86259850;469.88855006;0.521569;0.521569;0.494118;33924.000000;1.000000;1.000000;1.000000;1.000000;-0.080017;0.080017;-0.080017;1.000000
445649.36710175;5696557.89649971;469.89544990;0.282353;0.278431;0.258824;17990.000000;1.000000;1.000000;1.000000;1.000000;-0.067214;0.067214;-0.067214;1.000000
445649.36560257;5696557.93159874;469.89814999;0.65098;0.65098;0.615686;42405.000000;1.000000;1.000000;1.000000;1.000000;-0.102222;0.102222;-0.102222;1.000000
445649.40340240;5696557.93289955;469.89284994;0.537255;0.541176;0.501961;34952.000000;1.000000;1.000000;1.000000;1.000000;0.103008;-0.103008;0.103008;1.000000
445649.50980194;5696557.81799896;469.88695004;0.403922;0.403922;0.372549;26214.000000;1.000000;1.000000;1.000000;1.000000;-0.101675;0.101675;-0.101675;1.000000
445649.58720215;5696557.74539955;469.88724997;0.466667;0.470588;0.439216;30326.000000;1.000000;1.000000;1.000000;1.000000;-0.179075;0.179075;-0.179075;1.000000
445649.51390274;5696557.70789917;469.87885000;0.486275;0.470588;0.45098;30840.000000;1.000000;1.000000;1.000000;1.000000;-0.105776;0.105776;-0.105776;1.000000
445649.41909988;5696558.00819977;469.90844991;0.584314;0.588235;0.560784;38036.000000;1.000000;1.000000;1.000000;1.000000;-0.178537;0.178537;-0.178537;1.000000
445649.55140121;5696557.70909889;469.88054993;0.560784;0.54902;0.521569;35980.000000;1.000000;1.000000;1.000000;1.000000;-0.143274;0.143274;-0.143274;1.000000
445649.58870132;5696557.71019943;469.88454988;0.552941;0.54902;0.52549;35723.000000;1.000000;1.000000;1.000000;1.000000;-0.180574;0.180574;-0.180574;1.000000
445649.50970276;5696557.64049919;469.88485004;0.0980392;0.0784314;0.0666667;5397.000000;1.000000;1.000000;1.000000;1.000000;-0.101576;0.101576;-0.101576;1.000000
445649.51710327;5696557.66789825;469.88084986;0.278431;0.262745;0.262745;17476.000000;1.000000;1.000000;1.000000;1.000000;-0.108976;0.108976;-0.108976;1.000000
445649.58979996;5696557.67269905;469.88654997;0.431373;0.411765;0.396078;27242.000000;1.000000;1.000000;1.000000;1.000000;-0.181673;0.181673;-0.181673;1.000000
445649.38800247;5696557.82199867;469.90014984;0.498039;0.490196;0.462745;31868.000000;1.000000;1.000000;1.000000;1.000000;0.008001;-0.008001;0.008001;1.000000
445649.35280045;5696557.82059868;469.90084984;0.227451;0.219608;0.188235;14135.000000;1.000000;1.000000;1.000000;1.000000;0.015240;-0.015240;0.015240;1.000000
445649.59480103;5696557.80299957;469.89065005;0.658824;0.65098;0.623529;42405.000000;1.000000;1.000000;1.000000;1.000000;-0.186674;0.186674;-0.186674;1.000000
445649.48700150;5696557.92969902;469.89894988;0.517647;0.509804;0.478431;33153.000000;1.000000;1.000000;1.000000;1.000000;-0.127126;0.127126;-0.127126;1.000000
445649.52449997;5696557.93089874;469.89824988;0.670588;0.670588;0.635294;43690.000000;1.000000;1.000000;1.000000;1.000000;-0.154024;0.154024;-0.154024;1.000000
445649.42300232;5696557.66479881;469.88824989;0.478431;0.466667;0.443137;30583.000000;1.000000;1.000000;1.000000;1.000000;-0.014875;0.014875;-0.014875;1.000000
445649.34920319;5696557.85829933;469.90345003;0.356863;0.356863;0.341176;23130.000000;1.000000;1.000000;1.000000;1.000000;-0.029516;0.029516;-0.029516;1.000000
445649.49710281;5696557.70479973;469.88275005;0.509804;0.498039;0.47451;32639.000000;1.000000;1.000000;1.000000;1.000000;-0.088976;0.088976;-0.088976;1.000000
445649.42189987;5696557.70229919;469.88625004;0.384314;0.388235;0.372549;25186.000000;1.000000;1.000000;1.000000;1.000000;-0.013773;0.013773;-0.013773;1.000000
445649.42060287;5696557.73979958;469.88894989;0.647059;0.647059;0.623529;42148.000000;1.000000;1.000000;1.000000;1.000000;-0.012476;0.012476;-0.012476;1.000000
445649.49600037;5696557.74230011;469.88074996;0.666667;0.666667;0.631373;43433.000000;1.000000;1.000000;1.000000;1.000000;-0.087873;0.087873;-0.087873;1.000000
445649.45700272;5696557.77849968;469.88644983;0.603922;0.6;0.564706;39064.000000;1.000000;1.000000;1.000000;1.000000;-0.048876;0.048876;-0.048876;1.000000
445649.56720169;5696557.78219803;469.88914992;0.309804;0.305882;0.27451;19789.000000;1.000000;1.000000;1.000000;1.000000;-0.159075;0.159075;-0.159075;1.000000
445649.53199966;5696557.78089912;469.88754990;0.482353;0.47451;0.439216;30840.000000;1.000000;1.000000;1.000000;1.000000;-0.123873;0.123873;-0.123873;1.000000
445649.52729996;5696557.85599907;469.88824989;0.443137;0.443137;0.407843;28784.000000;1.000000;1.000000;1.000000;1.000000;-0.121976;0.121976;-0.121976;1.000000
445649.48590286;5696557.73390015;469.88025000;0.705882;0.705882;0.67451;46003.000000;1.000000;1.000000;1.000000;1.000000;-0.077776;0.077776;-0.077776;1.000000
445649.48970230;5696557.85249908;469.88644983;0.541176;0.545098;0.517647;35209.000000;1.000000;1.000000;1.000000;1.000000;-0.084621;0.084621;-0.084621;1.000000
445649.45470245;5696557.85339935;469.88724997;0.427451;0.431373;0.411765;28013.000000;1.000000;1.000000;1.000000;1.000000;-0.052123;0.052123;-0.052123;1.000000
445649.45110138;5696557.88879974;469.88514997;0.694118;0.694118;0.670588;45232.000000;1.000000;1.000000;1.000000;1.000000;-0.072830;0.072830;-0.072830;1.000000
445649.45000275;5696557.70209892;469.88524987;0.878431;0.882353;0.862745;57568.000000;1.000000;1.000000;1.000000;1.000000;-0.041876;0.041876;-0.041876;1.000000
445649.45140274;5696557.66689880;469.88485004;0.435294;0.427451;0.407843;28013.000000;1.000000;1.000000;1.000000;1.000000;-0.043276;0.043276;-0.043276;1.000000
445649.49699982;5696557.93799980;469.90174987;0.568627;0.564706;0.537255;36751.000000;1.000000;1.000000;1.000000;1.000000;-0.139865;0.139865;-0.139865;1.000000
445649.38310059;5696557.96959885;469.90164997;0.537255;0.537255;0.505882;34952.000000;1.000000;1.000000;1.000000;1.000000;-0.139599;0.139599;-0.139599;1.000000
445649.55109985;5696557.96799858;469.90454986;0.619608;0.615686;0.584314;40092.000000;1.000000;1.000000;1.000000;1.000000;-0.198708;0.198708;-0.198708;1.000000
445649.55410202;5696557.86529930;469.88485004;0.556863;0.560784;0.529412;36237.000000;1.000000;1.000000;1.000000;1.000000;-0.150182;0.150182;-0.150182;1.000000
445649.44849976;5696557.71159943;469.88524987;0.694118;0.698039;0.678431;45489.000000;1.000000;1.000000;1.000000;1.000000;-0.040373;0.040373;-0.040373;1.000000
445649.45220001;5696557.67619904;469.88504984;0.419608;0.411765;0.4;26985.000000;1.000000;1.000000;1.000000;1.000000;-0.044073;0.044073;-0.044073;1.000000
445649.45430191;5696558.01190002;469.91234996;0.427451;0.427451;0.396078;27756.000000;1.000000;1.000000;1.000000;1.000000;-0.187669;0.187669;-0.187669;1.000000
445649.49430283;5696557.72369965;469.88045003;0.823529;0.815686;0.788235;53199.000000;1.000000;1.000000;1.000000;1.000000;-0.086176;0.086176;-0.086176;1.000000
445649.44960220;5696557.95639999;469.90214993;0.635294;0.627451;0.607843;41120.000000;1.000000;1.000000;1.000000;1.000000;-0.133031;0.133031;-0.133031;1.000000
445649.37210281;5696558.02669914;469.89954998;0.313725;0.321569;0.290196;20560.000000;1.000000;1.000000;1.000000;1.000000;-0.196757;0.196757;-0.196757;1.000000
445649.48620041;5696557.94839867;469.90374996;0.576471;0.572549;0.54902;37265.000000;1.000000;1.000000;1.000000;1.000000;-0.141823;0.141823;-0.141823;1.000000
445649.48520096;5696557.96699913;469.91324999;0.619608;0.619608;0.592157;40349.000000;1.000000;1.000000;1.000000;1.000000;-0.157192;0.157192;-0.157192;1.000000
445649.48770340;5696557.67759903;469.87964990;0.376471;0.360784;0.352941;23644.000000;1.000000;1.000000;1.000000;1.000000;-0.079576;0.079576;-0.079576;1.000000
445649.41349991;5696557.71249969;469.88605000;0.239216;0.239216;0.223529;15420.000000;1.000000;1.000000;1.000000;1.000000;-0.005373;0.005373;-0.005373;1.000000
445649.48620041;5696557.71279915;469.88234999;0.690196;0.686275;0.662745;44718.000000;1.000000;1.000000;1.000000;1.000000;-0.078074;0.078074;-0.078074;1.000000
445649.56140335;5696557.71749886;469.88345005;0.505882;0.494118;0.462745;32382.000000;1.000000;1.000000;1.000000;1.000000;-0.153276;0.153276;-0.153276;1.000000
445649.48390015;5696557.78999908;469.88544991;0.462745;0.45098;0.415686;29298.000000;1.000000;1.000000;1.000000;1.000000;-0.075773;0.075773;-0.075773;1.000000
445649.55880173;5696557.79239853;469.88884999;0.321569;0.313725;0.282353;20303.000000;1.000000;1.000000;1.000000;1.000000;-0.150675;0.150675;-0.150675;1.000000
445649.48260315;5696557.82519920;469.88345005;0.52549;0.529412;0.498039;34181.000000;1.000000;1.000000;1.000000;1.000000;-0.074476;0.074476;-0.074476;1.000000
445649.44030197;5696557.89919861;469.88474991;0.694118;0.698039;0.670588;45232.000000;1.000000;1.000000;1.000000;1.000000;-0.076313;0.076313;-0.076313;1.000000
445649.47520264;5696558.01219948;469.91794993;0.384314;0.388235;0.360784;24929.000000;1.000000;1.000000;1.000000;1.000000;-0.194154;0.194154;-0.194154;1.000000
445649.50830276;5696557.64999969;469.88255002;0.137255;0.121569;0.113725;7967.000000;1.000000;1.000000;1.000000;1.000000;-0.100176;0.100176;-0.100176;1.000000
445649.48360260;5696558.00210007;469.91824986;0.352941;0.352941;0.32549;22873.000000;1.000000;1.000000;1.000000;1.000000;-0.187923;0.187923;-0.187923;1.000000
445649.51659973;5696557.68669899;469.87874987;0.501961;0.486275;0.47451;31868.000000;1.000000;1.000000;1.000000;1.000000;-0.108473;0.108473;-0.108473;1.000000
445649.40620239;5696557.88819893;469.89244987;0.403922;0.407843;0.380392;26214.000000;1.000000;1.000000;1.000000;1.000000;0.058231;-0.058231;0.058231;1.000000
445649.36860092;5696557.88699921;469.89535000;0.25098;0.247059;0.231373;15934.000000;1.000000;1.000000;1.000000;1.000000;-0.057597;0.057597;-0.057597;1.000000
445649.46550186;5696557.98279961;469.91485002;0.678431;0.678431;0.654902;44204.000000;1.000000;1.000000;1.000000;1.000000;-0.163216;0.163216;-0.163216;1.000000
445649.59750183;5696557.75609978;469.88784983;0.584314;0.592157;0.556863;38293.000000;1.000000;1.000000;1.000000;1.000000;-0.189375;0.189375;-0.189375;1.000000
445649.33830078;5696557.70779999;469.88485004;0.568627;0.541176;0.505882;35723.000000;1.000000;1.000000;1.000000;1.000000;0.069826;-0.069826;0.069826;1.000000
445649.45340164;5696557.63869865;469.88465001;0.34902;0.333333;0.305882;21845.000000;1.000000;1.000000;1.000000;1.000000;-0.045275;0.045275;-0.045275;1.000000
445649.47580154;5696557.96559914;469.91045000;0.643137;0.643137;0.615686;41891.000000;1.000000;1.000000;1.000000;1.000000;-0.151549;0.151549;-0.151549;1.000000
445649.44620331;5696557.81449898;469.89104988;0.611765;0.603922;0.572549;39321.000000;1.000000;1.000000;1.000000;1.000000;-0.038076;0.038076;-0.038076;1.000000
445649.59420212;5696557.82179840;469.89084985;0.458824;0.45098;0.419608;29298.000000;1.000000;1.000000;1.000000;1.000000;-0.186075;0.186075;-0.186075;1.000000
445649.33450134;5696557.77329834;469.89715006;0.333333;0.337255;0.313725;21845.000000;1.000000;1.000000;1.000000;1.000000;0.056702;-0.056702;0.056702;1.000000
445649.44720276;5696557.74899872;469.88794996;0.647059;0.647059;0.619608;42148.000000;1.000000;1.000000;1.000000;1.000000;-0.039076;0.039076;-0.039076;1.000000
445649.48520096;5696557.75259979;469.88275005;0.454902;0.458824;0.423529;29555.000000;1.000000;1.000000;1.000000;1.000000;-0.077074;0.077074;-0.077074;1.000000
445649.37570007;5696557.70889862;469.88654997;0.509804;0.482353;0.45098;31868.000000;1.000000;1.000000;1.000000;1.000000;0.032427;-0.032427;0.032427;1.000000
445649.57610138;5696557.80249985;469.88745000;0.576471;0.568627;0.533333;37008.000000;1.000000;1.000000;1.000000;1.000000;-0.167974;0.167974;-0.167974;1.000000
445649.49990280;5696557.83529861;469.88434984;0.701961;0.701961;0.67451;45746.000000;1.000000;1.000000;1.000000;1.000000;-0.091929;0.091929;-0.091929;1.000000
445649.37130173;5696558.01750000;469.89934995;0.364706;0.368627;0.341176;23644.000000;1.000000;1.000000;1.000000;1.000000;-0.187583;0.187583;-0.187583;1.000000
445649.37850006;5696557.66429909;469.88855006;0.603922;0.576471;0.529412;37779.000000;1.000000;1.000000;1.000000;1.000000;0.029627;-0.029627;0.029627;1.000000
445649.56480225;5696557.63519867;469.89654996;0.309804;0.270588;0.231373;17990.000000;1.000000;1.000000;1.000000;1.000000;-0.156675;0.156675;-0.156675;1.000000
445649.54480179;5696557.89179810;469.88704993;0.603922;0.607843;0.580392;39321.000000;1.000000;1.000000;1.000000;1.000000;-0.149997;0.149997;-0.149997;1.000000
445649.47100266;5696557.85199936;469.88564994;0.486275;0.486275;0.466667;31611.000000;1.000000;1.000000;1.000000;1.000000;-0.066613;0.066613;-0.066613;1.000000
445649.54740341;5696557.81919868;469.88634994;0.619608;0.615686;0.580392;40092.000000;1.000000;1.000000;1.000000;1.000000;-0.139277;0.139277;-0.139277;1.000000
445649.55550201;5696557.83009918;469.88454988;0.568627;0.564706;0.529412;36751.000000;1.000000;1.000000;1.000000;1.000000;-0.147375;0.147375;-0.147375;1.000000
445649.55480011;5696557.67140015;469.88255002;0.12549;0.113725;0.113725;7453.000000;1.000000;1.000000;1.000000;1.000000;-0.146673;0.146673;-0.146673;1.000000
445649.52250107;5696557.75369843;469.88675000;0.478431;0.466667;0.431373;30326.000000;1.000000;1.000000;1.000000;1.000000;-0.114374;0.114374;-0.114374;1.000000
445649.56000336;5696557.75490006;469.88844993;0.52549;0.517647;0.486275;33667.000000;1.000000;1.000000;1.000000;1.000000;-0.151876;0.151876;-0.151876;1.000000
445649.59870346;5696557.71859940;469.88745000;0.776471;0.772549;0.745098;50372.000000;1.000000;1.000000;1.000000;1.000000;-0.190577;0.190577;-0.190577;1.000000
445649.60020264;5696557.68349846;469.88474991;0.301961;0.278431;0.254902;18504.000000;1.000000;1.000000;1.000000;1.000000;-0.192076;0.192076;-0.192076;1.000000
445649.52630051;5696557.64359863;469.88564994;0.141176;0.117647;0.105882;7967.000000;1.000000;1.000000;1.000000;1.000000;-0.118174;0.118174;-0.118174;1.000000
445649.41600235;5696557.66549881;469.88784983;0.615686;0.611765;0.584314;39835.000000;1.000000;1.000000;1.000000;1.000000;-0.007875;0.007875;-0.007875;1.000000
445649.41480072;5696557.70289810;469.88824989;0.290196;0.290196;0.27451;18761.000000;1.000000;1.000000;1.000000;1.000000;-0.006674;0.006674;-0.006674;1.000000
445649.48780258;5696557.70559891;469.88234999;0.541176;0.537255;0.513725;34952.000000;1.000000;1.000000;1.000000;1.000000;-0.079676;0.079676;-0.079676;1.000000
445649.41110046;5696557.73829849;469.88855006;0.623529;0.623529;0.603922;40606.000000;1.000000;1.000000;1.000000;1.000000;-0.002974;0.002974;-0.002974;1.000000
445649.52169998;5696557.74449928;469.88664987;0.486275;0.466667;0.423529;30583.000000;1.000000;1.000000;1.000000;1.000000;-0.113573;0.113573;-0.113573;1.000000
445649.55790146;5696557.78309830;469.88874986;0.333333;0.32549;0.298039;21074.000000;1.000000;1.000000;1.000000;1.000000;-0.149775;0.149775;-0.149775;1.000000
445649.48170288;5696557.81600006;469.88334991;0.266667;0.266667;0.235294;17219.000000;1.000000;1.000000;1.000000;1.000000;-0.073576;0.073576;-0.073576;1.000000
445649.48270233;5696557.85319908;469.88614990;0.545098;0.545098;0.517647;35466.000000;1.000000;1.000000;1.000000;1.000000;-0.078101;0.078101;-0.078101;1.000000
445649.47920044;5696557.89089973;469.88644983;0.317647;0.313725;0.286275;20303.000000;1.000000;1.000000;1.000000;1.000000;-0.093596;0.093596;-0.093596;1.000000
445649.44170197;5696557.88970001;469.88704993;0.737255;0.741176;0.717647;48316.000000;1.000000;1.000000;1.000000;1.000000;-0.068494;0.068494;-0.068494;1.000000
445649.46809967;5696557.95469864;469.90304996;0.623529;0.619608;0.592157;40349.000000;1.000000;1.000000;1.000000;1.000000;-0.138371;0.138371;-0.138371;1.000000
445649.52390106;5696557.71629913;469.88174989;0.592157;0.572549;0.541176;37522.000000;1.000000;1.000000;1.000000;1.000000;-0.115774;0.115774;-0.115774;1.000000
445649.56270035;5696557.67999847;469.88074996;0.407843;0.4;0.392157;26214.000000;1.000000;1.000000;1.000000;1.000000;-0.154573;0.154573;-0.154573;1.000000
445649.39190109;5696557.98979958;469.90234997;0.537255;0.541176;0.513725;34952.000000;1.000000;1.000000;1.000000;1.000000;-0.159800;0.159800;-0.159800;1.000000
445649.51810272;5696557.63259895;469.88975002;0.290196;0.262745;0.239216;17476.000000;1.000000;1.000000;1.000000;1.000000;-0.109976;0.109976;-0.109976;1.000000
445649.56350143;5696557.86669930;469.88535001;0.768627;0.780392;0.74902;50629.000000;1.000000;1.000000;1.000000;1.000000;-0.159650;0.159650;-0.159650;1.000000
445649.53690155;5696557.85750015;469.88634994;0.435294;0.439216;0.396078;28270.000000;1.000000;1.000000;1.000000;1.000000;-0.131678;0.131678;-0.131678;1.000000
445649.46050079;5696557.63809975;469.88255002;0.541176;0.52549;0.498039;34438.000000;1.000000;1.000000;1.000000;1.000000;-0.052374;0.052374;-0.052374;1.000000
445649.36670120;5696557.94319923;469.89824988;0.494118;0.498039;0.45098;32125.000000;1.000000;1.000000;1.000000;1.000000;-0.113656;0.113656;-0.113656;1.000000
445649.47680099;5696557.94689949;469.90094997;0.584314;0.580392;0.556863;37779.000000;1.000000;1.000000;1.000000;1.000000;-0.135579;0.135579;-0.135579;1.000000
445649.36350067;5696557.75669868;469.89354994;0.690196;0.686275;0.654902;44718.000000;1.000000;1.000000;1.000000;1.000000;0.044626;-0.044626;0.044626;1.000000
445649.58650024;5696557.76409920;469.88975002;0.623529;0.623529;0.592157;40606.000000;1.000000;1.000000;1.000000;1.000000;-0.178373;0.178373;-0.178373;1.000000
445649.32900055;5696557.67840012;469.87474992;0.784314;0.764706;0.721569;50115.000000;1.000000;1.000000;1.000000;1.000000;0.079126;-0.079126;0.079126;1.000000
445649.49110229;5696557.63989838;469.88164999;0.196078;0.176471;0.160784;11822.000000;1.000000;1.000000;1.000000;1.000000;-0.082975;0.082975;-0.082975;1.000000
445649.58390244;5696557.81109818;469.88784983;0.529412;0.521569;0.490196;33924.000000;1.000000;1.000000;1.000000;1.000000;-0.175776;0.175776;-0.175776;1.000000
445649.56140335;5696557.95080002;469.90014984;0.564706;0.560784;0.533333;36494.000000;1.000000;1.000000;1.000000;1.000000;-0.195157;0.195157;-0.195157;1.000000
445649.58440216;5696557.86699875;469.89094998;0.941176;0.945098;0.92549;61680.000000;1.000000;1.000000;1.000000;1.000000;-0.180116;0.180116;-0.180116;1.000000
445649.49450119;5696557.99409874;469.91864993;0.427451;0.427451;0.4;27756.000000;1.000000;1.000000;1.000000;1.000000;-0.185442;0.185442;-0.185442;1.000000
445649.46320160;5696557.84329803;469.88514997;0.541176;0.545098;0.517647;35209.000000;1.000000;1.000000;1.000000;1.000000;-0.056657;0.056657;-0.056657;1.000000
445649.37780197;5696557.88609894;469.89575006;0.254902;0.254902;0.235294;16448.000000;1.000000;1.000000;1.000000;1.000000;-0.056099;0.056099;-0.056099;1.000000
445649.38020142;5696557.81339844;469.89964988;0.27451;0.266667;0.235294;17219.000000;1.000000;1.000000;1.000000;1.000000;0.016602;-0.016602;0.016602;1.000000
445649.34259995;5696557.80989845;469.89794995;0.215686;0.203922;0.180392;13364.000000;1.000000;1.000000;1.000000;1.000000;0.020182;-0.020182;0.020182;1.000000
445649.34110077;5696557.84729965;469.90534999;0.662745;0.662745;0.639216;43176.000000;1.000000;1.000000;1.000000;1.000000;-0.017302;0.017302;-0.017302;1.000000
445649.35300262;5696557.99809845;469.90065004;0.47451;0.486275;0.454902;31354.000000;1.000000;1.000000;1.000000;1.000000;-0.168540;0.168540;-0.168540;1.000000
445649.35420044;5696557.96069916;469.90024998;0.462745;0.470588;0.419608;30069.000000;1.000000;1.000000;1.000000;1.000000;-0.131384;0.131384;-0.131384;1.000000
445649.37870224;5696557.84859856;469.90234997;0.533333;0.533333;0.517647;34695.000000;1.000000;1.000000;1.000000;1.000000;-0.018599;0.018599;-0.018599;1.000000
445649.50230225;5696557.78829964;469.88855006;0.431373;0.427451;0.396078;27756.000000;1.000000;1.000000;1.000000;1.000000;-0.094175;0.094175;-0.094175;1.000000
445649.39550217;5696557.67199905;469.88934996;0.682353;0.666667;0.627451;43690.000000;1.000000;1.000000;1.000000;1.000000;0.012625;-0.012625;0.012625;1.000000
445649.54689987;5696557.64159973;469.89115002;0.360784;0.329412;0.301961;21845.000000;1.000000;1.000000;1.000000;1.000000;-0.138773;0.138773;-0.138773;1.000000
445649.58670242;5696557.79209908;469.89014985;0.556863;0.552941;0.517647;35980.000000;1.000000;1.000000;1.000000;1.000000;-0.178576;0.178576;-0.178576;1.000000
445649.42770203;5696557.76709946;469.89194991;0.466667;0.462745;0.435294;30069.000000;1.000000;1.000000;1.000000;1.000000;-0.019575;0.019575;-0.019575;1.000000
445649.55550201;5696557.85579880;469.88485004;0.490196;0.494118;0.458824;31868.000000;1.000000;1.000000;1.000000;1.000000;-0.149616;0.149616;-0.149616;1.000000
445649.33979996;5696557.69829948;469.88255002;0.45098;0.423529;0.380392;27756.000000;1.000000;1.000000;1.000000;1.000000;0.068327;-0.068327;0.068327;1.000000
445649.59660156;5696557.74679955;469.88774993;0.505882;0.513725;0.482353;33153.000000;1.000000;1.000000;1.000000;1.000000;-0.188475;0.188475;-0.188475;1.000000
445649.41769989;5696557.81229980;469.89674999;0.564706;0.556863;0.52549;36237.000000;1.000000;1.000000;1.000000;1.000000;-0.009573;0.009573;-0.009573;1.000000
445649.34399994;5696557.77479942;469.89754989;0.352941;0.360784;0.333333;23130.000000;1.000000;1.000000;1.000000;1.000000;0.055294;-0.055294;0.055294;1.000000
445649.51990326;5696557.82639893;469.88754990;0.670588;0.666667;0.635294;43433.000000;1.000000;1.000000;1.000000;1.000000;-0.111776;0.111776;-0.111776;1.000000
445649.50920303;5696557.65919884;469.88275005;0.243137;0.227451;0.227451;15163.000000;1.000000;1.000000;1.000000;1.000000;-0.101076;0.101076;-0.101076;1.000000
445649.58200272;5696557.66409882;469.88605000;0.345098;0.321569;0.313725;21331.000000;1.000000;1.000000;1.000000;1.000000;-0.173876;0.173876;-0.173876;1.000000
445649.40500076;5696557.67349823;469.88984992;0.780392;0.772549;0.741176;50372.000000;1.000000;1.000000;1.000000;1.000000;0.003126;-0.003126;0.003126;1.000000
445649.60460098;5696557.78339966;469.89084985;0.454902;0.45098;0.423529;29298.000000;1.000000;1.000000;1.000000;1.000000;-0.196474;0.196474;-0.196474;1.000000
445649.55070313;5696557.75580032;469.88804986;0.541176;0.533333;0.498039;34695.000000;1.000000;1.000000;1.000000;1.000000;-0.142576;0.142576;-0.142576;1.000000
445649.36120041;5696557.78259857;469.89384987;0.462745;0.462745;0.431373;30069.000000;1.000000;1.000000;1.000000;1.000000;0.046926;-0.046926;0.046926;1.000000
445649.58329971;5696557.82979973;469.88804986;0.505882;0.501961;0.47451;32639.000000;1.000000;1.000000;1.000000;1.000000;-0.175173;0.175173;-0.175173;1.000000
445649.43410309;5696557.85999878;469.89104988;0.411765;0.419608;0.4;26985.000000;1.000000;1.000000;1.000000;1.000000;-0.039682;0.039682;-0.039682;1.000000
445649.50940140;5696557.86469849;469.88984992;0.552941;0.556863;0.521569;35980.000000;1.000000;1.000000;1.000000;1.000000;-0.107054;0.107054;-0.107054;1.000000
445649.39520081;5696557.89620026;469.89434983;0.552941;0.556863;0.533333;36237.000000;1.000000;1.000000;1.000000;1.000000;-0.066200;0.066200;-0.066200;1.000000
445649.50810059;5696557.90209969;469.89255001;0.596078;0.592157;0.564706;38550.000000;1.000000;1.000000;1.000000;1.000000;-0.123260;0.123260;-0.123260;1.000000
445649.42830093;5696557.98169907;469.90855004;0.564706;0.564706;0.541176;36751.000000;1.000000;1.000000;1.000000;1.000000;-0.153035;0.153035;-0.153035;1.000000
445649.39400299;5696557.93369873;469.89474990;0.466667;0.470588;0.435294;30326.000000;1.000000;1.000000;1.000000;1.000000;-0.103699;0.103699;-0.103699;1.000000
445649.55440338;5696557.69019897;469.87815001;0.596078;0.584314;0.572549;38293.000000;1.000000;1.000000;1.000000;1.000000;-0.146276;0.146276;-0.146276;1.000000
445649.34740265;5696557.73479851;469.89494993;0.494118;0.482353;0.454902;31611.000000;1.000000;1.000000;1.000000;1.000000;0.060724;-0.060724;0.060724;1.000000
445649.34819992;5696557.66020020;469.87774994;0.54902;0.501961;0.45098;33410.000000;1.000000;1.000000;1.000000;1.000000;0.059927;-0.059927;0.059927;1.000000
445649.60140045;5696557.87710007;469.89645006;0.937255;0.945098;0.92549;61423.000000;1.000000;1.000000;1.000000;1.000000;-0.198930;0.198930;-0.198930;1.000000
445649.42710312;5696558.01919945;469.90894987;0.67451;0.678431;0.647059;43947.000000;1.000000;1.000000;1.000000;1.000000;-0.190149;0.190149;-0.190149;1.000000
445649.54090317;5696557.95730026;469.90164997;0.580392;0.584314;0.552941;37779.000000;1.000000;1.000000;1.000000;1.000000;-0.183943;0.183943;-0.183943;1.000000
445649.39260300;5696557.94319923;469.89474990;0.45098;0.45098;0.411765;29041.000000;1.000000;1.000000;1.000000;1.000000;-0.113199;0.113199;-0.113199;1.000000
445649.43000229;5696557.94429977;469.89654996;0.564706;0.564706;0.533333;36751.000000;1.000000;1.000000;1.000000;1.000000;-0.116374;0.116374;-0.116374;1.000000
445649.43640335;5696557.75929840;469.88995006;0.65098;0.647059;0.623529;42148.000000;1.000000;1.000000;1.000000;1.000000;-0.028276;0.028276;-0.028276;1.000000
445649.40350159;5696557.68289955;469.88984992;0.647059;0.639216;0.611765;41634.000000;1.000000;1.000000;1.000000;1.000000;0.004625;-0.004625;0.004625;1.000000
445649.60280045;5696557.83959969;469.89144995;0.788235;0.780392;0.760784;51143.000000;1.000000;1.000000;1.000000;1.000000;-0.194910;0.194910;-0.194910;1.000000
445649.49540146;5696557.94750031;469.90415003;0.619608;0.615686;0.588235;40092.000000;1.000000;1.000000;1.000000;1.000000;-0.146367;0.146367;-0.146367;1.000000
445649.59250076;5696557.65369995;469.89104988;0.160784;0.129412;0.105882;8738.000000;1.000000;1.000000;1.000000;1.000000;-0.184374;0.184374;-0.184374;1.000000
445649.38400085;5696557.74790009;469.88745000;0.556863;0.552941;0.529412;35980.000000;1.000000;1.000000;1.000000;1.000000;0.024126;-0.024126;0.024126;1.000000
445649.45680054;5696557.75049980;469.88605000;0.619608;0.619608;0.592157;40349.000000;1.000000;1.000000;1.000000;1.000000;-0.048674;0.048674;-0.048674;1.000000
445649.34520157;5696557.70709808;469.88514997;0.458824;0.435294;0.4;28527.000000;1.000000;1.000000;1.000000;1.000000;0.062925;-0.062925;0.062925;1.000000
445649.38520248;5696557.71039970;469.88704993;0.431373;0.411765;0.392157;26985.000000;1.000000;1.000000;1.000000;1.000000;0.022924;-0.022924;0.022924;1.000000
445649.44780167;5696557.96359833;469.90454986;0.639216;0.635294;0.615686;41377.000000;1.000000;1.000000;1.000000;1.000000;-0.139365;0.139365;-0.139365;1.000000
445649.37310226;5696557.96129807;469.89874985;0.415686;0.419608;0.384314;26985.000000;1.000000;1.000000;1.000000;1.000000;-0.131352;0.131352;-0.131352;1.000000
445649.49510010;5696557.73299988;469.88065006;0.807843;0.803922;0.772549;52428.000000;1.000000;1.000000;1.000000;1.000000;-0.086973;0.086973;-0.086973;1.000000
445649.52280243;5696557.96819885;469.91024997;0.6;0.603922;0.576471;39064.000000;1.000000;1.000000;1.000000;1.000000;-0.179581;0.179581;-0.179581;1.000000
445649.56750305;5696557.81029900;469.88714983;0.611765;0.603922;0.568627;39321.000000;1.000000;1.000000;1.000000;1.000000;-0.159376;0.159376;-0.159376;1.000000
445649.54470261;5696557.86609848;469.88675000;0.45098;0.454902;0.419608;29298.000000;1.000000;1.000000;1.000000;1.000000;-0.141266;0.141266;-0.141266;1.000000
445649.44260223;5696557.67469986;469.88684990;0.537255;0.529412;0.513725;34695.000000;1.000000;1.000000;1.000000;1.000000;-0.034475;0.034475;-0.034475;1.000000
445649.36510284;5696557.74719818;469.89124991;0.631373;0.627451;0.596078;40863.000000;1.000000;1.000000;1.000000;1.000000;0.043024;-0.043024;0.043024;1.000000
445649.42640121;5696557.80459984;469.89465000;0.372549;0.356863;0.321569;23387.000000;1.000000;1.000000;1.000000;1.000000;-0.018274;0.018274;-0.018274;1.000000
445649.38050278;5696558.01659973;469.89975001;0.4;0.403922;0.376471;25957.000000;1.000000;1.000000;1.000000;1.000000;-0.186600;0.186600;-0.186600;1.000000
445649.37370117;5696557.73719986;469.88684990;0.603922;0.596078;0.568627;38807.000000;1.000000;1.000000;1.000000;1.000000;0.034426;-0.034426;0.034426;1.000000
445649.44880112;5696557.73959930;469.88555004;0.490196;0.490196;0.470588;31868.000000;1.000000;1.000000;1.000000;1.000000;-0.040674;0.040674;-0.040674;1.000000
445649.48430069;5696557.74329956;469.88255002;0.533333;0.537255;0.505882;34695.000000;1.000000;1.000000;1.000000;1.000000;-0.076174;0.076174;-0.076174;1.000000
445649.37479980;5696557.69969948;469.88874986;0.466667;0.435294;0.396078;28784.000000;1.000000;1.000000;1.000000;1.000000;0.033327;-0.033327;0.033327;1.000000
445649.48910339;5696557.66819962;469.87955000;0.321569;0.301961;0.298039;20046.000000;1.000000;1.000000;1.000000;1.000000;-0.080976;0.080976;-0.080976;1.000000
445649.36760147;5696557.67229851;469.88815000;0.596078;0.564706;0.517647;37265.000000;1.000000;1.000000;1.000000;1.000000;0.040525;-0.040525;0.040525;1.000000
445649.47810181;5696557.67619904;469.88154985;0.388235;0.372549;0.364706;24415.000000;1.000000;1.000000;1.000000;1.000000;-0.069975;0.069975;-0.069975;1.000000
445649.47680099;5696557.71359833;469.88424994;0.772549;0.772549;0.752941;50372.000000;1.000000;1.000000;1.000000;1.000000;-0.068674;0.068674;-0.068674;1.000000
445649.40390213;5696557.71099861;469.88784983;0.231373;0.231373;0.211765;14906.000000;1.000000;1.000000;1.000000;1.000000;0.004225;-0.004225;0.004225;1.000000
445649.55210312;5696557.71829803;469.88304998;0.47451;0.454902;0.419608;29812.000000;1.000000;1.000000;1.000000;1.000000;-0.143976;0.143976;-0.143976;1.000000
445649.43800171;5696557.74989899;469.88754990;0.666667;0.666667;0.639216;43433.000000;1.000000;1.000000;1.000000;1.000000;-0.029875;0.029875;-0.029875;1.000000
445649.51300247;5696557.75229843;469.88634994;0.52549;0.513725;0.482353;33667.000000;1.000000;1.000000;1.000000;1.000000;-0.104876;0.104876;-0.104876;1.000000
445649.47560318;5696557.75109871;469.88465001;0.458824;0.462745;0.431373;29812.000000;1.000000;1.000000;1.000000;1.000000;-0.067476;0.067476;-0.067476;1.000000
445649.47430237;5696557.78849991;469.88734986;0.505882;0.501961;0.466667;32639.000000;1.000000;1.000000;1.000000;1.000000;-0.066175;0.066175;-0.066175;1.000000
445649.54930313;5696557.79089935;469.88844993;0.34902;0.341176;0.309804;22102.000000;1.000000;1.000000;1.000000;1.000000;-0.141176;0.141176;-0.141176;1.000000
445649.47330292;5696557.82609947;469.88304998;0.396078;0.396078;0.368627;25700.000000;1.000000;1.000000;1.000000;1.000000;-0.065176;0.065176;-0.065176;1.000000
445649.43309982;5696557.89749916;469.88675000;0.65098;0.654902;0.627451;42405.000000;1.000000;1.000000;1.000000;1.000000;-0.071971;0.071971;-0.071971;1.000000
445649.46830185;5696557.89889915;469.88605000;0.588235;0.584314;0.556863;38036.000000;1.000000;1.000000;1.000000;1.000000;-0.091477;0.091477;-0.091477;1.000000
445649.50290115;5696557.76949890;469.88844993;0.717647;0.721569;0.686275;46774.000000;1.000000;1.000000;1.000000;1.000000;-0.094774;0.094774;-0.094774;1.000000
445649.35620316;5696557.72699936;469.89054992;0.568627;0.54902;0.517647;35980.000000;1.000000;1.000000;1.000000;1.000000;0.051924;-0.051924;0.051924;1.000000
445649.39080246;5696558.02729996;469.90034987;0.466667;0.466667;0.443137;30326.000000;1.000000;1.000000;1.000000;1.000000;-0.197300;0.197300;-0.197300;1.000000
445649.35450180;5696557.98869904;469.90065004;0.466667;0.482353;0.45098;30840.000000;1.000000;1.000000;1.000000;1.000000;-0.159289;0.159289;-0.159289;1.000000
445649.35570343;5696557.95119865;469.90024998;0.454902;0.458824;0.407843;29555.000000;1.000000;1.000000;1.000000;1.000000;-0.122111;0.122111;-0.122111;1.000000
445649.35810287;5696557.87619980;469.89944984;0.176471;0.176471;0.164706;11308.000000;1.000000;1.000000;1.000000;1.000000;-0.049334;0.049334;-0.049334;1.000000
445649.56140335;5696557.89489944;469.88784983;0.603922;0.611765;0.584314;39578.000000;1.000000;1.000000;1.000000;1.000000;-0.166450;0.166450;-0.166450;1.000000
445649.56500061;5696557.85729797;469.88524987;0.635294;0.643137;0.607843;41634.000000;1.000000;1.000000;1.000000;1.000000;-0.159231;0.159231;-0.159231;1.000000
445649.60610016;5696557.74829872;469.88815000;0.545098;0.556863;0.521569;35980.000000;1.000000;1.000000;1.000000;1.000000;-0.197973;0.197973;-0.197973;1.000000
445649.43160065;5696557.93489845;469.89415004;0.486275;0.490196;0.458824;31611.000000;1.000000;1.000000;1.000000;1.000000;-0.107493;0.107493;-0.107493;1.000000
445649.59150131;5696557.64439972;469.89325001;0.12549;0.0901961;0.0588235;6168.000000;1.000000;1.000000;1.000000;1.000000;-0.183374;0.183374;-0.183374;1.000000
445649.58800323;5696557.75459869;469.88745000;0.556863;0.560784;0.52549;36237.000000;1.000000;1.000000;1.000000;1.000000;-0.179876;0.179876;-0.179876;1.000000
445649.32909973;5696557.70870026;469.88214995;0.65098;0.631373;0.592157;41377.000000;1.000000;1.000000;1.000000;1.000000;0.079027;-0.079027;0.079027;1.000000
445649.44160278;5696557.71219833;469.88494994;0.501961;0.509804;0.494118;32896.000000;1.000000;1.000000;1.000000;1.000000;-0.033476;0.033476;-0.033476;1.000000
445649.48180206;5696557.64079865;469.88124992;0.376471;0.360784;0.345098;23644.000000;1.000000;1.000000;1.000000;1.000000;-0.073675;0.073675;-0.073675;1.000000
445649.42440231;5696557.65529831;469.88815000;0.286275;0.27451;0.247059;17990.000000;1.000000;1.000000;1.000000;1.000000;-0.016275;0.016275;-0.016275;1.000000
445649.46220215;5696557.65659912;469.88284995;0.517647;0.505882;0.490196;33153.000000;1.000000;1.000000;1.000000;1.000000;-0.054075;0.054075;-0.054075;1.000000
445649.34840210;5696557.69049843;469.88284995;0.333333;0.298039;0.25098;19789.000000;1.000000;1.000000;1.000000;1.000000;0.059725;-0.059725;0.059725;1.000000
445649.49630173;5696557.69549950;469.88025000;0.439216;0.427451;0.411765;28013.000000;1.000000;1.000000;1.000000;1.000000;-0.088175;0.088175;-0.088175;1.000000
445649.42210205;5696557.73029907;469.88664987;0.45098;0.454902;0.431373;29555.000000;1.000000;1.000000;1.000000;1.000000;-0.013975;0.013975;-0.013975;1.000000
445649.53250320;5696557.73409851;469.88465001;0.517647;0.494118;0.447059;32382.000000;1.000000;1.000000;1.000000;1.000000;-0.124376;0.124376;-0.124376;1.000000
445649.45620163;5696557.76919945;469.88625004;0.654902;0.654902;0.627451;42662.000000;1.000000;1.000000;1.000000;1.000000;-0.048075;0.048075;-0.048075;1.000000
445649.56880005;5696557.77509888;469.88914992;0.443137;0.439216;0.411765;28527.000000;1.000000;1.000000;1.000000;1.000000;-0.160673;0.160673;-0.160673;1.000000
445649.53120239;5696557.77159889;469.88734986;0.670588;0.666667;0.631373;43433.000000;1.000000;1.000000;1.000000;1.000000;-0.123075;0.123075;-0.123075;1.000000
445649.52880295;5696557.84649857;469.88815000;0.52549;0.52549;0.490196;34181.000000;1.000000;1.000000;1.000000;1.000000;-0.121799;0.121799;-0.121799;1.000000
445649.49150284;5696557.84539993;469.88415005;0.643137;0.643137;0.615686;41891.000000;1.000000;1.000000;1.000000;1.000000;-0.084786;0.084786;-0.084786;1.000000
445649.48770340;5696557.88299950;469.88905003;0.262745;0.262745;0.235294;16962.000000;1.000000;1.000000;1.000000;1.000000;-0.095610;0.095610;-0.095610;1.000000
445649.45260056;5696557.88169868;469.88745000;0.647059;0.65098;0.627451;42405.000000;1.000000;1.000000;1.000000;1.000000;-0.068196;0.068196;-0.068196;1.000000
445649.40970047;5696557.77579887;469.89354994;0.572549;0.568627;0.541176;37008.000000;1.000000;1.000000;1.000000;1.000000;-0.001574;0.001574;-0.001574;1.000000
445649.45129974;5696557.91679962;469.88544991;0.52549;0.521569;0.490196;33924.000000;1.000000;1.000000;1.000000;1.000000;-0.096944;0.096944;-0.096944;1.000000
445649.50740250;5696557.68749817;469.87835004;0.423529;0.403922;0.396078;26728.000000;1.000000;1.000000;1.000000;1.000000;-0.099276;0.099276;-0.099276;1.000000
445649.45630081;5696557.98369797;469.91444995;0.690196;0.690196;0.662745;44975.000000;1.000000;1.000000;1.000000;1.000000;-0.161071;0.161071;-0.161071;1.000000
445649.53140076;5696557.98609932;469.91324999;0.615686;0.615686;0.588235;40092.000000;1.000000;1.000000;1.000000;1.000000;-0.198906;0.198906;-0.198906;1.000000
445649.40270050;5696557.74849899;469.88824989;0.568627;0.568627;0.545098;37008.000000;1.000000;1.000000;1.000000;1.000000;0.005426;-0.005426;0.005426;1.000000
445649.36639984;5696557.70979889;469.88855006;0.490196;0.458824;0.427451;30326.000000;1.000000;1.000000;1.000000;1.000000;0.041727;-0.041727;0.041727;1.000000
445649.51910217;5696557.81709869;469.88734986;0.537255;0.529412;0.498039;34438.000000;1.000000;1.000000;1.000000;1.000000;-0.110975;0.110975;-0.110975;1.000000
445649.38250168;5696557.98839958;469.90185000;0.580392;0.588235;0.560784;38036.000000;1.000000;1.000000;1.000000;1.000000;-0.158400;0.158400;-0.158400;1.000000
445649.42150314;5696557.95439919;469.89855005;0.611765;0.615686;0.580392;39835.000000;1.000000;1.000000;1.000000;1.000000;-0.125116;0.125116;-0.125116;1.000000
445649.53380020;5696557.95799835;469.90365006;0.592157;0.592157;0.568627;38550.000000;1.000000;1.000000;1.000000;1.000000;-0.179380;0.179380;-0.179380;1.000000
445649.56140335;5696557.74539955;469.88844993;0.439216;0.427451;0.392157;27756.000000;1.000000;1.000000;1.000000;1.000000;-0.153276;0.153276;-0.153276;1.000000
445649.56290253;5696557.70799835;469.88104989;0.478431;0.466667;0.439216;30583.000000;1.000000;1.000000;1.000000;1.000000;-0.154776;0.154776;-0.154776;1.000000
445649.59780319;5696557.70929916;469.88734986;0.572549;0.568627;0.541176;37008.000000;1.000000;1.000000;1.000000;1.000000;-0.189676;0.189676;-0.189676;1.000000
445649.52630051;5696557.66699799;469.88124992;0.270588;0.258824;0.25098;16962.000000;1.000000;1.000000;1.000000;1.000000;-0.118174;0.118174;-0.118174;1.000000
445649.59900101;5696557.67189987;469.88695004;0.305882;0.27451;0.262745;18504.000000;1.000000;1.000000;1.000000;1.000000;-0.190874;0.190874;-0.190874;1.000000
445649.56400116;5696557.67049988;469.88294985;0.239216;0.223529;0.219608;14906.000000;1.000000;1.000000;1.000000;1.000000;-0.155874;0.155874;-0.155874;1.000000
445649.56810196;5696557.79149826;469.88695004;0.34902;0.341176;0.309804;22102.000000;1.000000;1.000000;1.000000;1.000000;-0.159975;0.159975;-0.159975;1.000000
445649.56929977;5696557.75409897;469.88654997;0.529412;0.529412;0.494118;34438.000000;1.000000;1.000000;1.000000;1.000000;-0.161173;0.161173;-0.161173;1.000000
445649.57209976;5696557.68149956;469.88115003;0.466667;0.458824;0.447059;30069.000000;1.000000;1.000000;1.000000;1.000000;-0.163973;0.163973;-0.163973;1.000000
445649.52729996;5696557.63169868;469.89014985;0.443137;0.415686;0.388235;27499.000000;1.000000;1.000000;1.000000;1.000000;-0.119173;0.119173;-0.119173;1.000000
445649.52040298;5696557.78189857;469.88934996;0.470588;0.470588;0.431373;30326.000000;1.000000;1.000000;1.000000;1.000000;-0.112276;0.112276;-0.112276;1.000000
445649.59539993;5696557.78429993;469.89045002;0.419608;0.415686;0.384314;26985.000000;1.000000;1.000000;1.000000;1.000000;-0.187273;0.187273;-0.187273;1.000000
445649.51650055;5696557.89200027;469.89284994;0.517647;0.521569;0.490196;33667.000000;1.000000;1.000000;1.000000;1.000000;-0.124855;0.124855;-0.124855;1.000000
445649.46669968;5696557.93629845;469.89575006;0.690196;0.686275;0.65098;44718.000000;1.000000;1.000000;1.000000;1.000000;-0.121368;0.121368;-0.121368;1.000000
445649.54600342;5696557.82869919;469.88404991;0.635294;0.631373;0.6;41120.000000;1.000000;1.000000;1.000000;1.000000;-0.137877;0.137877;-0.137877;1.000000
445649.51440247;5696557.71479996;469.88124992;0.603922;0.588235;0.560784;38550.000000;1.000000;1.000000;1.000000;1.000000;-0.106276;0.106276;-0.106276;1.000000
445649.58940323;5696557.71949966;469.88704993;0.756863;0.752941;0.72549;49087.000000;1.000000;1.000000;1.000000;1.000000;-0.181276;0.181276;-0.181276;1.000000
445649.59070023;5696557.68199928;469.88434984;0.372549;0.356863;0.341176;23387.000000;1.000000;1.000000;1.000000;1.000000;-0.182573;0.182573;-0.182573;1.000000
445649.51680191;5696557.64209946;469.88514997;0.109804;0.0901961;0.0745098;6168.000000;1.000000;1.000000;1.000000;1.000000;-0.108675;0.108675;-0.108675;1.000000
445649.58080109;5696557.90469940;469.89354994;0.337255;0.341176;0.313725;21845.000000;1.000000;1.000000;1.000000;1.000000;-0.188139;0.188139;-0.188139;1.000000
445649.40100296;5696557.78349884;469.89564993;0.666667;0.658824;0.631373;42919.000000;1.000000;1.000000;1.000000;1.000000;0.007124;-0.007124;0.007124;1.000000
445649.43660172;5696557.78729828;469.89264991;0.443137;0.435294;0.403922;28270.000000;1.000000;1.000000;1.000000;1.000000;-0.028475;0.028475;-0.028475;1.000000
445649.51180084;5696557.78969963;469.88905003;0.415686;0.411765;0.372549;26728.000000;1.000000;1.000000;1.000000;1.000000;-0.103674;0.103674;-0.103674;1.000000
