//X;Y;Z;Rf;Gf;Bf;Intensity;Return Number;Number Of Returns;Scan Direction Flag;Point Source ID;C2M signed distances[-][<0.8];C2M signed distances[<0.4];C2M signed distances[-][<0.2];Stump105
300
445604.45260151;5696562.91699989;472.83774998;0.560784;0.568627;0.443137;35980.000000;1.000000;1.000000;1.000000;1.000000;-0.097709;0.097709;-0.097709;1.000000
445604.21070107;5696562.93459900;472.84805014;0.686275;0.678431;0.52549;43433.000000;1.000000;1.000000;1.000000;1.000000;-0.105069;0.105069;-0.105069;1.000000
445604.34720142;5696562.59709938;472.85484983;0.780392;0.792157;0.756863;51400.000000;1.000000;1.000000;1.000000;1.000000;0.060925;-0.060925;0.060925;1.000000
445604.53500183;5696562.56619843;472.82334997;0.447059;0.45098;0.392157;29041.000000;1.000000;1.000000;1.000000;1.000000;-0.126875;0.126875;-0.126875;1.000000
445604.42160137;5696562.58799942;472.84415009;0.490196;0.498039;0.447059;31868.000000;1.000000;1.000000;1.000000;1.000000;-0.013474;0.013474;-0.013474;1.000000
445604.29950150;5696562.40779884;472.84574987;0.701961;0.717647;0.666667;46260.000000;1.000000;1.000000;1.000000;1.000000;0.078279;-0.078279;0.078279;1.000000
445604.41850098;5696562.42269905;472.83034994;0.454902;0.47451;0.4;30069.000000;1.000000;1.000000;1.000000;1.000000;-0.042375;0.042375;-0.042375;1.000000
445604.46130188;5696562.52629860;472.82184984;0.627451;0.631373;0.580392;40863.000000;1.000000;1.000000;1.000000;1.000000;-0.053175;0.053175;-0.053175;1.000000
445604.49910172;5696562.52989967;472.81895020;0.6;0.596078;0.541176;38550.000000;1.000000;1.000000;1.000000;1.000000;-0.090975;0.090975;-0.090975;1.000000
445604.53450211;5696562.53129967;472.81594994;0.639216;0.635294;0.564706;41120.000000;1.000000;1.000000;1.000000;1.000000;-0.126375;0.126375;-0.126375;1.000000
445604.31300171;5696562.54909904;472.83874990;0.243137;0.247059;0.168627;15420.000000;1.000000;1.000000;1.000000;1.000000;0.095125;-0.095125;0.095125;1.000000
445604.53750141;5696562.48219879;472.80154993;0.815686;0.815686;0.772549;52942.000000;1.000000;1.000000;1.000000;1.000000;-0.129375;0.129375;-0.129375;1.000000
445604.31520088;5696562.47409828;472.84264996;0.356863;0.360784;0.317647;23130.000000;1.000000;1.000000;1.000000;1.000000;0.092926;-0.092926;0.092926;1.000000
445604.35390099;5696562.43789871;472.84154989;0.478431;0.494118;0.419608;31354.000000;1.000000;1.000000;1.000000;1.000000;0.059993;-0.059993;0.059993;1.000000
445604.46240147;5696562.48879822;472.82144978;0.576471;0.580392;0.533333;37522.000000;1.000000;1.000000;1.000000;1.000000;-0.054275;0.054275;-0.054275;1.000000
445604.42730148;5696562.48969849;472.82455017;0.533333;0.545098;0.482353;34952.000000;1.000000;1.000000;1.000000;1.000000;-0.019175;0.019175;-0.019175;1.000000
445604.58720215;5696562.39329918;472.81204988;0.466667;0.466667;0.447059;30326.000000;1.000000;1.000000;1.000000;1.000000;-0.063299;0.063299;-0.063299;1.000000
445604.66220100;5696562.39569862;472.81314995;0.631373;0.623529;0.603922;40863.000000;1.000000;1.000000;1.000000;1.000000;0.065825;-0.065825;0.065825;1.000000
445604.51300152;5696562.42589958;472.81374981;0.333333;0.333333;0.290196;21331.000000;1.000000;1.000000;1.000000;1.000000;-0.095900;0.095900;-0.095900;1.000000
445604.43020161;5696562.60809906;472.85174992;0.690196;0.698039;0.658824;45232.000000;1.000000;1.000000;1.000000;1.000000;-0.022075;0.022075;-0.022075;1.000000
445604.39280136;5696562.60929878;472.85234978;0.721569;0.733333;0.698039;47545.000000;1.000000;1.000000;1.000000;1.000000;0.015326;-0.015326;0.015326;1.000000
445604.57540138;5696562.69109924;472.81034996;0.780392;0.788235;0.752941;51143.000000;1.000000;1.000000;1.000000;1.000000;-0.167274;0.167274;-0.167274;1.000000
445604.41500099;5696562.94369896;472.84574987;0.486275;0.486275;0.356863;30840.000000;1.000000;1.000000;1.000000;1.000000;-0.113907;0.113907;-0.113907;1.000000
445604.37740143;5696562.94249924;472.84865000;0.619608;0.627451;0.486275;39835.000000;1.000000;1.000000;1.000000;1.000000;-0.112499;0.112499;-0.112499;1.000000
445604.32490166;5696562.45449837;472.84515001;0.25098;0.266667;0.215686;16705.000000;1.000000;1.000000;1.000000;1.000000;0.083710;-0.083710;0.083710;1.000000
445604.24980171;5696562.45209892;472.84635021;0.345098;0.360784;0.32549;22873.000000;1.000000;1.000000;1.000000;1.000000;0.122099;-0.122099;0.122099;1.000000
445604.17680176;5696562.44940002;472.85234978;0.294118;0.301961;0.25098;19018.000000;1.000000;1.000000;1.000000;1.000000;0.119400;-0.119400;0.119400;1.000000
445604.28740128;5696562.45329865;472.84574987;0.164706;0.172549;0.137255;10794.000000;1.000000;1.000000;1.000000;1.000000;0.121154;-0.121154;0.121154;1.000000
445604.20130165;5696562.71109970;472.85195019;0.317647;0.329412;0.266667;20817.000000;1.000000;1.000000;1.000000;1.000000;0.120461;-0.120461;0.120461;1.000000
445604.20020111;5696562.74859818;472.84994986;0.407843;0.415686;0.309804;26214.000000;1.000000;1.000000;1.000000;1.000000;0.083925;-0.083925;0.083925;1.000000
445604.23660095;5696562.78729828;472.84975006;0.505882;0.517647;0.352941;32382.000000;1.000000;1.000000;1.000000;1.000000;0.042702;-0.042702;0.042702;1.000000
445604.27080162;5696562.82629974;472.84474995;0.568627;0.596078;0.34902;36494.000000;1.000000;1.000000;1.000000;1.000000;0.003700;-0.003700;0.003700;1.000000
445604.46680172;5696562.38789948;472.82744982;0.207843;0.215686;0.176471;13621.000000;1.000000;1.000000;1.000000;1.000000;-0.057899;0.057899;-0.057899;1.000000
445604.34220131;5696562.94100006;472.84934999;0.505882;0.513725;0.364706;32382.000000;1.000000;1.000000;1.000000;1.000000;-0.111053;0.111053;-0.111053;1.000000
445604.46380146;5696562.45369919;472.82114985;0.458824;0.454902;0.396078;29298.000000;1.000000;1.000000;1.000000;1.000000;-0.056615;0.056615;-0.056615;1.000000
445604.45610149;5696562.87929924;472.83745005;0.517647;0.517647;0.368627;32639.000000;1.000000;1.000000;1.000000;1.000000;-0.068789;0.068789;-0.068789;1.000000
445604.42840202;5696562.44999893;472.82184984;0.478431;0.486275;0.407843;31097.000000;1.000000;1.000000;1.000000;1.000000;-0.024617;0.024617;-0.024617;1.000000
445604.57840164;5696562.60649879;472.82814981;0.517647;0.52549;0.478431;33924.000000;1.000000;1.000000;1.000000;1.000000;-0.170275;0.170275;-0.170275;1.000000
445604.18470200;5696562.43239983;472.85015013;0.537255;0.545098;0.486275;34952.000000;1.000000;1.000000;1.000000;1.000000;0.102400;-0.102400;0.102400;1.000000
445604.16780098;5696562.40349968;472.85374977;0.364706;0.360784;0.305882;23130.000000;1.000000;1.000000;1.000000;1.000000;0.073831;-0.073831;0.073831;1.000000
445604.41870125;5696562.87809952;472.83575012;0.529412;0.529412;0.356863;33410.000000;1.000000;1.000000;1.000000;1.000000;-0.049248;0.049248;-0.049248;1.000000
445604.24810226;5696562.93569954;472.84975006;0.643137;0.639216;0.490196;40863.000000;1.000000;1.000000;1.000000;1.000000;-0.105767;0.105767;-0.105767;1.000000
445604.19530113;5696562.89619835;472.85155012;0.529412;0.537255;0.360784;33667.000000;1.000000;1.000000;1.000000;1.000000;-0.070652;0.070652;-0.070652;1.000000
445604.27440174;5696562.71379860;472.84364988;0.478431;0.505882;0.372549;31611.000000;1.000000;1.000000;1.000000;1.000000;0.116201;-0.116201;0.116201;1.000000
445604.17800148;5696562.41199883;472.85195019;0.458824;0.462745;0.4;29555.000000;1.000000;1.000000;1.000000;1.000000;0.081999;-0.081999;0.081999;1.000000
445604.27060135;5696562.87299927;472.84305002;0.682353;0.690196;0.521569;43690.000000;1.000000;1.000000;1.000000;1.000000;-0.042999;0.042999;-0.042999;1.000000
445604.30580147;5696562.87439926;472.84224989;0.45098;0.458824;0.298039;28527.000000;1.000000;1.000000;1.000000;1.000000;-0.044399;0.044399;-0.044399;1.000000
445604.52020176;5696562.91079910;472.82914974;0.760784;0.780392;0.670588;49858.000000;1.000000;1.000000;1.000000;1.000000;-0.138164;0.138164;-0.138164;1.000000
445604.24680145;5696562.77009972;472.84765007;0.541176;0.556863;0.392157;34952.000000;1.000000;1.000000;1.000000;1.000000;0.059989;-0.059989;0.059989;1.000000
445604.20900162;5696562.76649864;472.84824993;0.419608;0.431373;0.301961;26985.000000;1.000000;1.000000;1.000000;1.000000;0.064557;-0.064557;0.064557;1.000000
445604.21010216;5696562.72899826;472.85024979;0.541176;0.54902;0.447059;34952.000000;1.000000;1.000000;1.000000;1.000000;0.101549;-0.101549;0.101549;1.000000
445604.62980087;5696562.52479942;472.81314995;0.494118;0.490196;0.427451;31611.000000;1.000000;1.000000;1.000000;1.000000;-0.194799;0.194799;-0.194799;1.000000
445604.34690102;5696562.83789833;472.84135010;0.623529;0.631373;0.431373;39578.000000;1.000000;1.000000;1.000000;1.000000;-0.007898;0.007898;-0.007898;1.000000
445604.38220222;5696562.83939941;472.83834984;0.552941;0.556863;0.364706;34952.000000;1.000000;1.000000;1.000000;1.000000;-0.009399;0.009399;-0.009399;1.000000
445604.30950172;5696562.83679970;472.83964970;0.576471;0.6;0.360784;37008.000000;1.000000;1.000000;1.000000;1.000000;-0.007636;0.007636;-0.007636;1.000000
445604.34830101;5696562.80049904;472.83634998;0.462745;0.486275;0.345098;30326.000000;1.000000;1.000000;1.000000;1.000000;0.029501;-0.029501;0.029501;1.000000
445604.38350113;5696562.80189903;472.83564999;0.490196;0.494118;0.337255;31097.000000;1.000000;1.000000;1.000000;1.000000;0.024626;-0.024626;0.024626;1.000000
445604.31050117;5696562.79929932;472.84165003;0.623529;0.635294;0.482353;40092.000000;1.000000;1.000000;1.000000;1.000000;0.030944;-0.030944;0.030944;1.000000
445604.38470085;5696562.76449974;472.83524992;0.52549;0.541176;0.415686;34181.000000;1.000000;1.000000;1.000000;1.000000;0.023426;-0.023426;0.023426;1.000000
445604.31190117;5696562.76179894;472.83654978;0.529412;0.541176;0.439216;34438.000000;1.000000;1.000000;1.000000;1.000000;0.068246;-0.068246;0.068246;1.000000
445604.31310089;5696562.72439964;472.83614971;0.396078;0.415686;0.321569;25957.000000;1.000000;1.000000;1.000000;1.000000;0.095026;0.095026;-0.095026;1.000000
445604.27550133;5696562.72539909;472.84384968;0.466667;0.498039;0.345098;30840.000000;1.000000;1.000000;1.000000;1.000000;0.104603;-0.104603;0.104603;1.000000
445604.28570183;5696562.93689926;472.84915020;0.541176;0.537255;0.403922;34181.000000;1.000000;1.000000;1.000000;1.000000;-0.106899;0.106899;-0.106899;1.000000
445604.39280136;5696562.40159996;472.83824970;0.443137;0.466667;0.392157;29555.000000;1.000000;1.000000;1.000000;1.000000;0.063888;-0.063888;0.063888;1.000000
445604.31430157;5696562.68919952;472.84044983;0.227451;0.254902;0.211765;15677.000000;1.000000;1.000000;1.000000;1.000000;0.093825;-0.093825;0.093825;1.000000
445604.32330139;5696562.94039925;472.85085012;0.643137;0.639216;0.498039;40863.000000;1.000000;1.000000;1.000000;1.000000;-0.110399;0.110399;-0.110399;1.000000
445604.53840168;5696562.65909966;472.83855011;0.341176;0.337255;0.309804;21845.000000;1.000000;1.000000;1.000000;1.000000;-0.130275;0.130275;-0.130275;1.000000
445604.40550144;5696562.53369911;472.82875015;0.360784;0.368627;0.305882;23387.000000;1.000000;1.000000;1.000000;1.000000;0.002625;-0.002625;0.002625;1.000000
445604.50330170;5696562.65769966;472.83694984;0.278431;0.278431;0.247059;17990.000000;1.000000;1.000000;1.000000;1.000000;-0.095175;0.095175;-0.095175;1.000000
445604.28010185;5696562.39799889;472.84014990;0.701961;0.705882;0.647059;45746.000000;1.000000;1.000000;1.000000;1.000000;0.067999;-0.067999;0.067999;1.000000
445604.54170139;5696562.62129982;472.84294989;0.560784;0.572549;0.541176;37008.000000;1.000000;1.000000;1.000000;1.000000;-0.133574;0.133574;-0.133574;1.000000
445604.52290161;5696562.38059814;472.81124975;0.329412;0.333333;0.282353;21331.000000;1.000000;1.000000;1.000000;1.000000;-0.050598;0.050598;-0.050598;1.000000
445604.32470139;5696562.90299995;472.84585001;0.631373;0.635294;0.509804;40606.000000;1.000000;1.000000;1.000000;1.000000;-0.073000;0.073000;-0.073000;1.000000
445604.56060226;5696562.38179977;472.80835011;0.517647;0.513725;0.478431;33410.000000;1.000000;1.000000;1.000000;1.000000;0.051800;-0.051800;0.051800;1.000000
445604.59540184;5696562.66559990;472.83194973;0.494118;0.490196;0.462745;31868.000000;1.000000;1.000000;1.000000;1.000000;-0.187275;0.187275;-0.187275;1.000000
445604.71770103;5696562.37919815;472.79215004;0.6;0.592157;0.560784;38550.000000;1.000000;1.000000;1.000000;1.000000;0.077263;-0.077263;0.077263;1.000000
445604.43820198;5696562.38579948;472.83544971;0.368627;0.380392;0.333333;24158.000000;1.000000;1.000000;1.000000;1.000000;0.055799;-0.055799;0.055799;1.000000
445604.43170174;5696562.36759956;472.83724977;0.192157;0.2;0.164706;12593.000000;1.000000;1.000000;1.000000;1.000000;0.037600;-0.037600;0.037600;1.000000
445604.51680191;5696562.77109917;472.82264997;0.431373;0.435294;0.345098;27756.000000;1.000000;1.000000;1.000000;1.000000;-0.108675;0.108675;-0.108675;1.000000
445604.55230148;5696562.77259834;472.81724979;0.345098;0.356863;0.305882;22616.000000;1.000000;1.000000;1.000000;1.000000;-0.144175;0.144175;-0.144175;1.000000
445604.51810177;5696562.73359879;472.81995012;0.282353;0.305882;0.254902;19018.000000;1.000000;1.000000;1.000000;1.000000;-0.109975;0.109975;-0.109975;1.000000
445604.35770138;5696562.57769974;472.84114983;0.607843;0.611765;0.564706;39578.000000;1.000000;1.000000;1.000000;1.000000;0.050426;-0.050426;0.050426;1.000000
445604.43040092;5696562.58029945;472.83974983;0.501961;0.505882;0.45098;32639.000000;1.000000;1.000000;1.000000;1.000000;-0.022274;0.022274;-0.022274;1.000000
445604.30230148;5696562.51039894;472.84014990;0.380392;0.388235;0.329412;24672.000000;1.000000;1.000000;1.000000;1.000000;0.105825;-0.105825;0.105825;1.000000
445604.48050125;5696562.73239906;472.82284977;0.301961;0.317647;0.254902;20046.000000;1.000000;1.000000;1.000000;1.000000;-0.072374;0.072374;-0.072374;1.000000
445604.39480217;5696562.57199867;472.83575012;0.462745;0.466667;0.415686;30069.000000;1.000000;1.000000;1.000000;1.000000;0.013325;-0.013325;0.013325;1.000000
445604.44290169;5696562.73119934;472.82345011;0.341176;0.360784;0.278431;22616.000000;1.000000;1.000000;1.000000;1.000000;-0.034775;0.034775;-0.034775;1.000000
445604.69280155;5696562.34169968;472.79985001;0.4;0.392157;0.345098;25443.000000;1.000000;1.000000;1.000000;1.000000;0.036595;-0.036595;0.036595;1.000000
445604.36230095;5696562.90419968;472.84515001;0.592157;0.592157;0.454902;37779.000000;1.000000;1.000000;1.000000;1.000000;-0.074200;0.074200;-0.074200;1.000000
445604.14910133;5696562.40289886;472.85284998;0.364706;0.352941;0.294118;22873.000000;1.000000;1.000000;1.000000;1.000000;0.072899;-0.072899;0.072899;1.000000
445604.24950226;5696562.90059860;472.84934999;0.447059;0.45098;0.301961;28270.000000;1.000000;1.000000;1.000000;1.000000;-0.070639;0.070639;-0.070639;1.000000
445604.18650158;5696562.40189941;472.84994986;0.447059;0.447059;0.388235;28784.000000;1.000000;1.000000;1.000000;1.000000;0.071899;-0.071899;0.071899;1.000000
445604.46460159;5696562.41379936;472.82534983;0.545098;0.556863;0.494118;35723.000000;1.000000;1.000000;1.000000;1.000000;-0.075484;0.075484;-0.075484;1.000000
445604.59420212;5696562.69169815;472.80884983;0.545098;0.552941;0.52549;35723.000000;1.000000;1.000000;1.000000;1.000000;-0.186075;0.186075;-0.186075;1.000000
445604.50130089;5696562.91019829;472.83295013;0.678431;0.694118;0.596078;44461.000000;1.000000;1.000000;1.000000;1.000000;-0.122936;0.122936;-0.122936;1.000000
445604.60630138;5696562.37509926;472.81734993;0.560784;0.560784;0.541176;36494.000000;1.000000;1.000000;1.000000;1.000000;-0.045099;0.045099;-0.045099;1.000000
445604.59620102;5696562.65359886;472.84114983;0.67451;0.678431;0.654902;44204.000000;1.000000;1.000000;1.000000;1.000000;-0.188074;0.188074;-0.188074;1.000000
445604.48180206;5696562.69499977;472.82014992;0.27451;0.298039;0.227451;18504.000000;1.000000;1.000000;1.000000;1.000000;-0.073675;0.073675;-0.073675;1.000000
445604.51930149;5696562.69619949;472.81955006;0.521569;0.533333;0.47451;34181.000000;1.000000;1.000000;1.000000;1.000000;-0.111175;0.111175;-0.111175;1.000000
445604.46500214;5696562.87150009;472.83314993;0.486275;0.482353;0.337255;30583.000000;1.000000;1.000000;1.000000;1.000000;-0.070406;0.070406;-0.070406;1.000000
445604.53800209;5696562.87419899;472.82714989;0.623529;0.639216;0.501961;40349.000000;1.000000;1.000000;1.000000;1.000000;-0.137190;0.137190;-0.137190;1.000000
445604.50150116;5696562.83549889;472.82975008;0.513725;0.513725;0.411765;32896.000000;1.000000;1.000000;1.000000;1.000000;-0.093536;0.093536;-0.093536;1.000000
445604.42870148;5696562.83289917;472.83104994;0.396078;0.392157;0.227451;24415.000000;1.000000;1.000000;1.000000;1.000000;-0.020778;0.020778;-0.020778;1.000000
445604.46630104;5696562.83409889;472.83045008;0.501961;0.505882;0.360784;31868.000000;1.000000;1.000000;1.000000;1.000000;-0.058318;0.058318;-0.058318;1.000000
445604.38240154;5696562.86739929;472.84104969;0.623529;0.623529;0.447059;39578.000000;1.000000;1.000000;1.000000;1.000000;-0.037399;0.037399;-0.037399;1.000000
445604.55780132;5696562.61519821;472.83664991;0.529412;0.537255;0.501961;34695.000000;1.000000;1.000000;1.000000;1.000000;-0.149674;0.149674;-0.149674;1.000000
445604.41640099;5696562.90629967;472.84065010;0.729412;0.729412;0.568627;46517.000000;1.000000;1.000000;1.000000;1.000000;-0.076747;0.076747;-0.076747;1.000000
445604.48810204;5696562.94639977;472.83745005;0.509804;0.529412;0.415686;33410.000000;1.000000;1.000000;1.000000;1.000000;-0.141227;0.141227;-0.141227;1.000000
445604.26060112;5696562.41609962;472.84415009;0.47451;0.482353;0.431373;30840.000000;1.000000;1.000000;1.000000;1.000000;0.086100;-0.086100;0.086100;1.000000
445604.32400139;5696562.49209984;472.83855011;0.211765;0.219608;0.164706;13621.000000;1.000000;1.000000;1.000000;1.000000;0.084126;-0.084126;0.084126;1.000000
445604.29950150;5696562.61319931;472.85755016;0.243137;0.262745;0.223529;16448.000000;1.000000;1.000000;1.000000;1.000000;0.108625;-0.108625;0.108625;1.000000
445604.56180199;5696562.54979904;472.81734993;0.360784;0.372549;0.294118;23387.000000;1.000000;1.000000;1.000000;1.000000;-0.153675;0.153675;-0.153675;1.000000
445604.31690224;5696562.64219864;472.84235003;0.247059;0.278431;0.235294;17219.000000;1.000000;1.000000;1.000000;1.000000;0.091225;-0.091225;0.091225;1.000000
445604.40590103;5696562.73919876;472.83124973;0.615686;0.635294;0.545098;40349.000000;1.000000;1.000000;1.000000;1.000000;0.002226;-0.002226;0.002226;1.000000
445604.44010170;5696562.77809914;472.82854988;0.447059;0.443137;0.305882;28013.000000;1.000000;1.000000;1.000000;1.000000;-0.031975;0.031975;-0.031975;1.000000
445604.52770145;5696562.94049843;472.82984974;0.780392;0.807843;0.698039;51400.000000;1.000000;1.000000;1.000000;1.000000;-0.162813;0.162813;-0.162813;1.000000
445604.28380211;5696562.53779991;472.84194996;0.419608;0.423529;0.368627;27242.000000;1.000000;1.000000;1.000000;1.000000;0.124325;-0.124325;0.124325;1.000000
445604.69150169;5696562.37909897;472.80254986;0.388235;0.380392;0.352941;24672.000000;1.000000;1.000000;1.000000;1.000000;0.059368;-0.059368;0.059368;1.000000
445604.59640129;5696562.62799843;472.83614971;0.376471;0.384314;0.34902;24672.000000;1.000000;1.000000;1.000000;1.000000;-0.188274;0.188274;-0.188274;1.000000
445604.56050117;5696562.62189873;472.84144976;0.541176;0.556863;0.521569;35723.000000;1.000000;1.000000;1.000000;1.000000;-0.152374;0.152374;-0.152374;1.000000
445604.54610165;5696562.47439964;472.80184986;0.843137;0.843137;0.803922;54741.000000;1.000000;1.000000;1.000000;1.000000;-0.137975;0.137975;-0.137975;1.000000
445604.56470116;5696562.47499855;472.80494978;0.592157;0.592157;0.552941;38293.000000;1.000000;1.000000;1.000000;1.000000;-0.144999;0.144999;-0.144999;1.000000
445604.28490170;5696562.50029953;472.84154989;0.482353;0.498039;0.447059;31868.000000;1.000000;1.000000;1.000000;1.000000;0.123225;-0.123225;0.123225;1.000000
445604.32620152;5696562.46609886;472.84065010;0.282353;0.290196;0.239216;18247.000000;1.000000;1.000000;1.000000;1.000000;0.081925;-0.081925;0.081925;1.000000
445604.60620125;5696562.63410004;472.83904984;0.435294;0.443137;0.411765;28527.000000;1.000000;1.000000;1.000000;1.000000;-0.198074;0.198074;-0.198074;1.000000
445604.50180157;5696562.86349876;472.83005001;0.513725;0.517647;0.403922;32896.000000;1.000000;1.000000;1.000000;1.000000;-0.099484;0.099484;-0.099484;1.000000
445604.72750099;5696562.41549881;472.80464985;0.513725;0.505882;0.47451;32896.000000;1.000000;1.000000;1.000000;1.000000;0.110104;-0.110104;0.110104;1.000000
445604.57630165;5696562.44819839;472.80515005;0.717647;0.717647;0.686275;46774.000000;1.000000;1.000000;1.000000;1.000000;-0.118198;0.118198;-0.118198;1.000000
445604.53880127;5696562.44699867;472.80345013;0.45098;0.447059;0.415686;29041.000000;1.000000;1.000000;1.000000;1.000000;-0.116999;0.116999;-0.116999;1.000000
445604.71740158;5696562.40709885;472.80404999;0.517647;0.513725;0.482353;33410.000000;1.000000;1.000000;1.000000;1.000000;0.097251;-0.097251;0.097251;1.000000
445604.46440132;5696562.64709862;472.84674980;0.384314;0.388235;0.352941;24929.000000;1.000000;1.000000;1.000000;1.000000;-0.056274;0.056274;-0.056274;1.000000
445604.53950127;5696562.64949997;472.84555008;0.403922;0.407843;0.384314;26471.000000;1.000000;1.000000;1.000000;1.000000;-0.131374;0.131374;-0.131374;1.000000
445604.19910152;5696562.78609856;472.84805014;0.654902;0.666667;0.533333;42405.000000;1.000000;1.000000;1.000000;1.000000;0.048895;-0.048895;0.048895;1.000000
445604.68120201;5696562.36839874;472.80195000;0.32549;0.313725;0.294118;20560.000000;1.000000;1.000000;1.000000;1.000000;0.044799;-0.044799;0.044799;1.000000
445604.19550140;5696562.84949883;472.85335018;0.564706;0.584314;0.396078;36494.000000;1.000000;1.000000;1.000000;1.000000;-0.031605;0.031605;-0.031605;1.000000
445604.38420113;5696562.58689888;472.84244968;0.580392;0.584314;0.533333;37779.000000;1.000000;1.000000;1.000000;1.000000;0.023926;-0.023926;0.023926;1.000000
445604.49480160;5696562.59299858;472.83815004;0.580392;0.584314;0.545098;37779.000000;1.000000;1.000000;1.000000;1.000000;-0.086675;0.086675;-0.086675;1.000000
445604.45950134;5696562.59159859;472.84124996;0.494118;0.498039;0.458824;32125.000000;1.000000;1.000000;1.000000;1.000000;-0.051374;0.051374;-0.051374;1.000000
445604.34590157;5696562.62779816;472.84345009;0.333333;0.345098;0.309804;22102.000000;1.000000;1.000000;1.000000;1.000000;0.062225;-0.062225;0.062225;1.000000
445604.60470207;5696562.66469963;472.83234980;0.486275;0.486275;0.454902;31611.000000;1.000000;1.000000;1.000000;1.000000;-0.196575;0.196575;-0.196575;1.000000
445604.71680172;5696562.39789970;472.79925014;0.52549;0.513725;0.486275;33667.000000;1.000000;1.000000;1.000000;1.000000;0.089739;-0.089739;0.089739;1.000000
445604.56900223;5696562.60729988;472.83005001;0.552941;0.552941;0.505882;35723.000000;1.000000;1.000000;1.000000;1.000000;-0.160875;0.160875;-0.160875;1.000000
445604.42380150;5696562.96159943;472.84394981;0.596078;0.596078;0.486275;38036.000000;1.000000;1.000000;1.000000;1.000000;-0.132530;0.132530;-0.132530;1.000000
445604.53000172;5696562.86549957;472.82905008;0.435294;0.447059;0.32549;28013.000000;1.000000;1.000000;1.000000;1.000000;-0.126940;0.126940;-0.126940;1.000000
445604.42530163;5696562.92639931;472.84135010;0.498039;0.498039;0.360784;31611.000000;1.000000;1.000000;1.000000;1.000000;-0.097917;0.097917;-0.097917;1.000000
445604.42660149;5696562.88900002;472.83864977;0.643137;0.643137;0.482353;40863.000000;1.000000;1.000000;1.000000;1.000000;-0.061825;0.061825;-0.061825;1.000000
445604.46430214;5696562.89019974;472.83564999;0.454902;0.458824;0.313725;28784.000000;1.000000;1.000000;1.000000;1.000000;-0.082339;0.082339;-0.082339;1.000000
445604.49470146;5696562.86409958;472.83204987;0.556863;0.560784;0.443137;35723.000000;1.000000;1.000000;1.000000;1.000000;-0.093048;0.093048;-0.093048;1.000000
445604.27850159;5696562.88169868;472.84114983;0.686275;0.686275;0.545098;43947.000000;1.000000;1.000000;1.000000;1.000000;-0.051833;0.051833;-0.051833;1.000000
445604.35490139;5696562.84889992;472.84184982;0.596078;0.607843;0.407843;38036.000000;1.000000;1.000000;1.000000;1.000000;-0.018900;0.018900;-0.018900;1.000000
445604.35630138;5696562.81149872;472.83684971;0.537255;0.54902;0.392157;34438.000000;1.000000;1.000000;1.000000;1.000000;0.018501;-0.018501;0.018501;1.000000
445604.39390190;5696562.81269844;472.83624985;0.580392;0.576471;0.415686;36494.000000;1.000000;1.000000;1.000000;1.000000;0.014225;-0.014225;0.014225;1.000000
445604.31870087;5696562.81019981;472.83974983;0.635294;0.65098;0.490196;41120.000000;1.000000;1.000000;1.000000;1.000000;0.019800;-0.019800;0.019800;1.000000
445604.32010086;5696562.77279861;472.83474972;0.643137;0.654902;0.552941;41891.000000;1.000000;1.000000;1.000000;1.000000;0.057201;-0.057201;0.057201;1.000000
445604.35750206;5696562.77399834;472.83645012;0.466667;0.486275;0.360784;30326.000000;1.000000;1.000000;1.000000;1.000000;0.050625;-0.050625;0.050625;1.000000
445604.68270119;5696562.35899933;472.79964973;0.321569;0.309804;0.290196;20303.000000;1.000000;1.000000;1.000000;1.000000;0.038011;-0.038011;0.038011;1.000000
445604.32450111;5696562.69759949;472.83874990;0.384314;0.407843;0.360784;25700.000000;1.000000;1.000000;1.000000;1.000000;0.083626;0.083626;-0.083626;1.000000
445604.64730175;5696562.35750015;472.80494978;0.321569;0.317647;0.294118;20560.000000;1.000000;1.000000;1.000000;1.000000;-0.027500;0.027500;-0.027500;1.000000
445604.24010094;5696562.89909943;472.84894993;0.52549;0.52549;0.364706;33153.000000;1.000000;1.000000;1.000000;1.000000;-0.069099;0.069099;-0.069099;1.000000
445604.47600182;5696562.59239967;472.83964970;0.482353;0.490196;0.447059;31611.000000;1.000000;1.000000;1.000000;1.000000;-0.067875;0.067875;-0.067875;1.000000
445604.51390179;5696562.59599884;472.83675005;0.396078;0.4;0.356863;25700.000000;1.000000;1.000000;1.000000;1.000000;-0.105775;0.105775;-0.105775;1.000000
445604.20840176;5696562.78529938;472.84845020;0.698039;0.709804;0.572549;45232.000000;1.000000;1.000000;1.000000;1.000000;0.046342;-0.046342;0.046342;1.000000
445604.52650173;5696562.54829987;472.82044985;0.592157;0.592157;0.529412;38293.000000;1.000000;1.000000;1.000000;1.000000;-0.118375;0.118375;-0.118375;1.000000
445604.36880119;5696562.51379974;472.82455017;0.305882;0.309804;0.25098;19789.000000;1.000000;1.000000;1.000000;1.000000;0.039326;-0.039326;0.039326;1.000000
445604.29160126;5696562.54640015;472.84244968;0.356863;0.360784;0.298039;22873.000000;1.000000;1.000000;1.000000;1.000000;0.116526;-0.116526;0.116526;1.000000
445604.29790123;5696562.41719826;472.84814980;0.686275;0.705882;0.654902;45489.000000;1.000000;1.000000;1.000000;1.000000;0.087798;-0.087798;0.087798;1.000000
445604.49020203;5696562.50969894;472.81834986;0.576471;0.572549;0.521569;37008.000000;1.000000;1.000000;1.000000;1.000000;-0.082075;0.082075;-0.082075;1.000000
445604.29530151;5696562.51099976;472.84214975;0.431373;0.443137;0.384314;28270.000000;1.000000;1.000000;1.000000;1.000000;0.112825;-0.112825;0.112825;1.000000
445604.16660126;5696562.44100006;472.85414984;0.513725;0.517647;0.470588;33410.000000;1.000000;1.000000;1.000000;1.000000;0.111302;-0.111302;0.111302;1.000000
445604.52110107;5696562.48369987;472.80544998;0.796078;0.792157;0.74902;51657.000000;1.000000;1.000000;1.000000;1.000000;-0.112974;0.112974;-0.112974;1.000000
445604.42150124;5696562.38489922;472.83934977;0.435294;0.447059;0.396078;28527.000000;1.000000;1.000000;1.000000;1.000000;-0.054899;0.054899;-0.054899;1.000000
445604.33190163;5696562.47499855;472.83634998;0.333333;0.337255;0.278431;21588.000000;1.000000;1.000000;1.000000;1.000000;0.076225;-0.076225;0.076225;1.000000
445604.60320099;5696562.67189987;472.82765009;0.52549;0.52549;0.498039;34181.000000;1.000000;1.000000;1.000000;1.000000;-0.195074;0.195074;-0.195074;1.000000
445604.37050159;5696562.43869980;472.83774998;0.211765;0.227451;0.137255;13878.000000;1.000000;1.000000;1.000000;1.000000;0.045141;-0.045141;0.045141;1.000000
445604.55520161;5696562.93109901;472.82165005;0.572549;0.6;0.45098;37522.000000;1.000000;1.000000;1.000000;1.000000;-0.178471;0.178471;-0.178471;1.000000
445604.40930183;5696562.40239914;472.83664991;0.454902;0.470588;0.4;29812.000000;1.000000;1.000000;1.000000;1.000000;-0.061267;0.061267;-0.061267;1.000000
445604.37380226;5696562.40099915;472.84205009;0.458824;0.478431;0.411765;30326.000000;1.000000;1.000000;1.000000;1.000000;0.070999;-0.070999;0.070999;1.000000
445604.47370155;5696562.64619835;472.84714987;0.376471;0.380392;0.34902;24415.000000;1.000000;1.000000;1.000000;1.000000;-0.065575;0.065575;-0.065575;1.000000
445604.26130112;5696562.39739998;472.84154989;0.607843;0.611765;0.552941;39578.000000;1.000000;1.000000;1.000000;1.000000;0.067400;-0.067400;0.067400;1.000000
445604.41290100;5696562.36699875;472.83874990;0.278431;0.286275;0.243137;18247.000000;1.000000;1.000000;1.000000;1.000000;-0.036999;0.036999;-0.036999;1.000000
445604.41950138;5696562.43199928;472.82585003;0.560784;0.580392;0.498039;37008.000000;1.000000;1.000000;1.000000;1.000000;-0.033846;0.033846;-0.033846;1.000000
445604.41490181;5696562.50719841;472.82424976;0.392157;0.403922;0.341176;25700.000000;1.000000;1.000000;1.000000;1.000000;-0.006775;0.006775;-0.006775;1.000000
445604.52880104;5696562.46429832;472.80324986;0.654902;0.654902;0.619608;42662.000000;1.000000;1.000000;1.000000;1.000000;-0.120674;0.120674;-0.120674;1.000000
445604.56630142;5696562.46549995;472.80264999;0.678431;0.682353;0.65098;44204.000000;1.000000;1.000000;1.000000;1.000000;-0.135500;0.135500;-0.135500;1.000000
445604.19430168;5696562.88690002;472.85374977;0.643137;0.65098;0.470588;41120.000000;1.000000;1.000000;1.000000;1.000000;-0.061627;0.061627;-0.061627;1.000000
445604.55970200;5696562.83019836;472.82294991;0.576471;0.588235;0.494118;37522.000000;1.000000;1.000000;1.000000;1.000000;-0.151575;0.151575;-0.151575;1.000000
445604.57190140;5696562.53249939;472.81764986;0.372549;0.388235;0.290196;24415.000000;1.000000;1.000000;1.000000;1.000000;-0.163774;0.163774;-0.163774;1.000000
445604.45300110;5696562.94729813;472.84044983;0.545098;0.556863;0.447059;35466.000000;1.000000;1.000000;1.000000;1.000000;-0.125589;0.125589;-0.125589;1.000000
445604.46740158;5696562.57459839;472.83675005;0.501961;0.505882;0.458824;32639.000000;1.000000;1.000000;1.000000;1.000000;-0.059275;0.059275;-0.059275;1.000000
445604.58730133;5696562.63349922;472.84044983;0.4;0.415686;0.380392;26471.000000;1.000000;1.000000;1.000000;1.000000;-0.179174;0.179174;-0.179174;1.000000
445604.54970177;5696562.43899925;472.80384972;0.486275;0.482353;0.447059;31354.000000;1.000000;1.000000;1.000000;1.000000;-0.108999;0.108999;-0.108999;1.000000
445604.36260136;5696562.43009956;472.83955004;0.333333;0.356863;0.278431;22359.000000;1.000000;1.000000;1.000000;1.000000;0.056524;-0.056524;0.056524;1.000000
445604.43900116;5696562.39499863;472.83564999;0.478431;0.494118;0.439216;31611.000000;1.000000;1.000000;1.000000;1.000000;0.064999;-0.064999;0.064999;1.000000
445604.36370094;5696562.39259918;472.84154989;0.423529;0.439216;0.384314;28013.000000;1.000000;1.000000;1.000000;1.000000;0.062599;-0.062599;0.062599;1.000000
445604.40140160;5696562.39379890;472.83855011;0.392157;0.411765;0.34902;25957.000000;1.000000;1.000000;1.000000;1.000000;0.063799;-0.063799;0.063799;1.000000
445604.25350197;5696562.38879974;472.84114983;0.545098;0.545098;0.494118;35209.000000;1.000000;1.000000;1.000000;1.000000;0.058800;-0.058800;0.058800;1.000000
445604.73760136;5696562.39139946;472.79085018;0.4;0.392157;0.360784;25443.000000;1.000000;1.000000;1.000000;1.000000;0.100429;-0.100429;0.100429;1.000000
445604.29080208;5696562.38769920;472.84044983;0.545098;0.545098;0.490196;35209.000000;1.000000;1.000000;1.000000;1.000000;0.058207;-0.058207;0.058207;1.000000
445604.41350182;5696562.57259949;472.83654978;0.419608;0.419608;0.364706;26985.000000;1.000000;1.000000;1.000000;1.000000;-0.005375;0.005375;-0.005375;1.000000
445604.46090134;5696562.95589836;472.83864977;0.431373;0.447059;0.337255;28013.000000;1.000000;1.000000;1.000000;1.000000;-0.136512;0.136512;-0.136512;1.000000
445604.42530163;5696562.95209892;472.84394981;0.564706;0.560784;0.443137;35980.000000;1.000000;1.000000;1.000000;1.000000;-0.123301;0.123301;-0.123301;1.000000
445604.45200165;5696562.93569954;472.83794977;0.611765;0.619608;0.509804;39578.000000;1.000000;1.000000;1.000000;1.000000;-0.114444;0.114444;-0.114444;1.000000
445604.49980171;5696562.91959961;472.83524992;0.584314;0.603922;0.501961;38293.000000;1.000000;1.000000;1.000000;1.000000;-0.128189;0.128189;-0.128189;1.000000
445604.56100090;5696562.79269989;472.82025005;0.4;0.407843;0.352941;25957.000000;1.000000;1.000000;1.000000;1.000000;-0.152874;0.152874;-0.152874;1.000000
445604.44720085;5696562.65589912;472.83215000;0.505882;0.521569;0.466667;33410.000000;1.000000;1.000000;1.000000;1.000000;-0.039074;0.039074;-0.039074;1.000000
445604.42680176;5696562.91699989;472.84124996;0.592157;0.588235;0.439216;37522.000000;1.000000;1.000000;1.000000;1.000000;-0.088982;0.088982;-0.088982;1.000000
445604.46340187;5696562.88099869;472.83554985;0.431373;0.431373;0.286275;26985.000000;1.000000;1.000000;1.000000;1.000000;-0.075208;0.075208;-0.075208;1.000000
445604.37030132;5696562.68179901;472.82894995;0.262745;0.290196;0.25098;17990.000000;1.000000;1.000000;1.000000;1.000000;0.037826;-0.037826;0.037826;1.000000
445604.46160133;5696562.73179825;472.82434990;0.254902;0.27451;0.2;16962.000000;1.000000;1.000000;1.000000;1.000000;-0.053474;0.053474;-0.053474;1.000000
445604.49930199;5696562.73299988;472.82135012;0.282353;0.301961;0.247059;18761.000000;1.000000;1.000000;1.000000;1.000000;-0.091175;0.091175;-0.091175;1.000000
445604.46280106;5696562.69429977;472.82394983;0.254902;0.282353;0.188235;17219.000000;1.000000;1.000000;1.000000;1.000000;-0.054674;0.054674;-0.054674;1.000000
445604.42820175;5696562.87949951;472.83624985;0.560784;0.556863;0.388235;35209.000000;1.000000;1.000000;1.000000;1.000000;-0.053415;0.053415;-0.053415;1.000000
445604.28000172;5696562.87219818;472.84104969;0.666667;0.67451;0.513725;42662.000000;1.000000;1.000000;1.000000;1.000000;-0.042314;0.042314;-0.042314;1.000000
445604.52910145;5696562.93099983;472.82975008;0.670588;0.698039;0.588235;44204.000000;1.000000;1.000000;1.000000;1.000000;-0.157594;0.157594;-0.157594;1.000000
445604.68030174;5696562.44289978;472.82144978;0.466667;0.466667;0.443137;30326.000000;1.000000;1.000000;1.000000;1.000000;0.115057;-0.115057;0.115057;1.000000
445604.48960121;5696562.93689926;472.83734991;0.568627;0.588235;0.470588;37265.000000;1.000000;1.000000;1.000000;1.000000;-0.134408;0.134408;-0.134408;1.000000
445604.39890106;5696562.86819847;472.83944990;0.627451;0.631373;0.447059;39835.000000;1.000000;1.000000;1.000000;1.000000;-0.038198;0.038198;-0.038198;1.000000
445604.35290154;5696562.87710007;472.84214975;0.541176;0.54902;0.392157;34695.000000;1.000000;1.000000;1.000000;1.000000;-0.047100;0.047100;-0.047100;1.000000
445604.47280128;5696562.90809830;472.83855011;0.615686;0.623529;0.498039;39578.000000;1.000000;1.000000;1.000000;1.000000;-0.101401;0.101401;-0.101401;1.000000
445604.49260147;5696562.89229973;472.83465006;0.588235;0.6;0.494118;38293.000000;1.000000;1.000000;1.000000;1.000000;-0.104963;0.104963;-0.104963;1.000000
445604.54160126;5696562.83649834;472.82455017;0.611765;0.611765;0.517647;39321.000000;1.000000;1.000000;1.000000;1.000000;-0.133632;0.133632;-0.133632;1.000000
445604.35650166;5696562.83939941;472.83955004;0.603922;0.611765;0.419608;38550.000000;1.000000;1.000000;1.000000;1.000000;-0.009399;0.009399;-0.009399;1.000000
445604.54320152;5696562.80139931;472.81955006;0.647059;0.654902;0.588235;42148.000000;1.000000;1.000000;1.000000;1.000000;-0.135075;0.135075;-0.135075;1.000000
445604.39760216;5696562.90559967;472.84214975;0.478431;0.482353;0.317647;30326.000000;1.000000;1.000000;1.000000;1.000000;-0.075600;0.075600;-0.075600;1.000000
445604.53030212;5696562.89349945;472.82935001;0.462745;0.486275;0.356863;30326.000000;1.000000;1.000000;1.000000;1.000000;-0.137692;0.137692;-0.137692;1.000000
445604.47160156;5696562.94549950;472.83894970;0.552941;0.568627;0.462745;35980.000000;1.000000;1.000000;1.000000;1.000000;-0.131792;0.131792;-0.131792;1.000000
445604.54450138;5696562.76400002;472.81685020;0.282353;0.286275;0.231373;18247.000000;1.000000;1.000000;1.000000;1.000000;-0.136374;0.136374;-0.136374;1.000000
445604.43400200;5696562.94429977;472.84194996;0.592157;0.596078;0.478431;38036.000000;1.000000;1.000000;1.000000;1.000000;-0.117192;0.117192;-0.117192;1.000000
445604.49390133;5696562.85479935;472.83194973;0.529412;0.537255;0.427451;34181.000000;1.000000;1.000000;1.000000;1.000000;-0.089288;0.089288;-0.089288;1.000000
445604.51750191;5696562.75239952;472.82014992;0.192157;0.207843;0.141176;12593.000000;1.000000;1.000000;1.000000;1.000000;-0.109375;0.109375;-0.109375;1.000000
445604.53150185;5696562.85609825;472.82894995;0.462745;0.470588;0.352941;29812.000000;1.000000;1.000000;1.000000;1.000000;-0.126105;0.126105;-0.126105;1.000000
445604.35550125;5696562.80219849;472.83664991;0.45098;0.470588;0.313725;29298.000000;1.000000;1.000000;1.000000;1.000000;0.027802;-0.027802;0.027802;1.000000
445604.18820198;5696562.79419907;472.84765007;0.443137;0.454902;0.317647;28527.000000;1.000000;1.000000;1.000000;1.000000;0.039901;-0.039901;0.039901;1.000000
445604.40860184;5696562.44009979;472.82544996;0.360784;0.376471;0.294118;23644.000000;1.000000;1.000000;1.000000;1.000000;-0.023791;0.023791;-0.023791;1.000000
445604.55670174;5696562.92159851;472.82154991;0.541176;0.568627;0.407843;35466.000000;1.000000;1.000000;1.000000;1.000000;-0.174542;0.174542;-0.174542;1.000000
445604.40620144;5696562.51499947;472.82625010;0.321569;0.337255;0.27451;21331.000000;1.000000;1.000000;1.000000;1.000000;0.001925;-0.001925;0.001925;1.000000
445604.39300163;5696562.80340012;472.83605005;0.537255;0.537255;0.380392;33924.000000;1.000000;1.000000;1.000000;1.000000;0.015125;-0.015125;0.015125;1.000000
445604.73800095;5696562.37039955;472.79064991;0.662745;0.654902;0.615686;42662.000000;1.000000;1.000000;1.000000;1.000000;0.089510;-0.089510;0.089510;1.000000
445604.40480145;5696562.55239876;472.83124973;0.533333;0.533333;0.470588;34438.000000;1.000000;1.000000;1.000000;1.000000;0.003325;-0.003325;0.003325;1.000000
445604.55890091;5696562.84659966;472.82315018;0.596078;0.603922;0.498039;38550.000000;1.000000;1.000000;1.000000;1.000000;-0.151685;0.151685;-0.151685;1.000000
445604.52490147;5696562.80769928;472.82345011;0.560784;0.564706;0.478431;36237.000000;1.000000;1.000000;1.000000;1.000000;-0.116775;0.116775;-0.116775;1.000000
445604.52410133;5696562.77279861;472.82065012;0.278431;0.282353;0.2;17733.000000;1.000000;1.000000;1.000000;1.000000;-0.115974;0.115974;-0.115974;1.000000
445604.58440216;5696562.67129906;472.82914974;0.486275;0.486275;0.458824;31611.000000;1.000000;1.000000;1.000000;1.000000;-0.176275;0.176275;-0.176275;1.000000
445604.51170166;5696562.66869934;472.82814981;0.490196;0.486275;0.443137;31611.000000;1.000000;1.000000;1.000000;1.000000;-0.103575;0.103575;-0.103575;1.000000
445604.56180199;5696562.77399834;472.81535007;0.341176;0.352941;0.313725;22359.000000;1.000000;1.000000;1.000000;1.000000;-0.153675;0.153675;-0.153675;1.000000
445604.52540215;5696562.73530014;472.81794979;0.286275;0.305882;0.266667;19275.000000;1.000000;1.000000;1.000000;1.000000;-0.117275;0.117275;-0.117275;1.000000
445604.49000175;5696562.73390015;472.82095005;0.290196;0.309804;0.25098;19275.000000;1.000000;1.000000;1.000000;1.000000;-0.081875;0.081875;-0.081875;1.000000
445604.56060226;5696562.83939941;472.82315018;0.623529;0.631373;0.529412;40349.000000;1.000000;1.000000;1.000000;1.000000;-0.152765;0.152765;-0.152765;1.000000
445604.43550117;5696562.70379837;472.82744982;0.2;0.227451;0.14902;13621.000000;1.000000;1.000000;1.000000;1.000000;-0.027374;0.027374;-0.027374;1.000000
445604.38420113;5696562.61709984;472.85204985;0.521569;0.537255;0.498039;34438.000000;1.000000;1.000000;1.000000;1.000000;0.023926;-0.023926;0.023926;1.000000
445604.49120148;5696562.69639977;472.82054998;0.407843;0.423529;0.360784;26985.000000;1.000000;1.000000;1.000000;1.000000;-0.083075;0.083075;-0.083075;1.000000
445604.52420147;5696562.80079849;472.82334997;0.635294;0.639216;0.556863;41120.000000;1.000000;1.000000;1.000000;1.000000;-0.116075;0.116075;-0.116075;1.000000
445604.14920147;5696562.43089874;472.85554983;0.588235;0.588235;0.541176;38036.000000;1.000000;1.000000;1.000000;1.000000;0.100899;-0.100899;0.100899;1.000000
445604.28990181;5696562.58599861;472.85675003;0.658824;0.670588;0.623529;43176.000000;1.000000;1.000000;1.000000;1.000000;0.118225;-0.118225;0.118225;1.000000
445604.65290173;5696562.36859901;472.80765011;0.454902;0.447059;0.423529;29041.000000;1.000000;1.000000;1.000000;1.000000;0.038599;-0.038599;0.038599;1.000000
445604.50450142;5696562.81649979;472.82725002;0.517647;0.52549;0.427451;33410.000000;1.000000;1.000000;1.000000;1.000000;-0.096375;0.096375;-0.096375;1.000000
445604.46240147;5696562.94639977;472.83855011;0.509804;0.52549;0.415686;33153.000000;1.000000;1.000000;1.000000;1.000000;-0.128431;0.128431;-0.128431;1.000000
445604.39100178;5696562.83159836;472.83634998;0.545098;0.545098;0.372549;34438.000000;1.000000;1.000000;1.000000;1.000000;-0.001598;0.001598;-0.001598;1.000000
445604.32010086;5696562.80069931;472.83974983;0.678431;0.690196;0.556863;43947.000000;1.000000;1.000000;1.000000;1.000000;0.029301;-0.029301;0.029301;1.000000
445604.52550133;5696562.76330002;472.82065012;0.2;0.203922;0.137255;12593.000000;1.000000;1.000000;1.000000;1.000000;-0.117374;0.117374;-0.117374;1.000000
445604.49000175;5696562.75959976;472.82364990;0.447059;0.458824;0.364706;29041.000000;1.000000;1.000000;1.000000;1.000000;-0.081875;0.081875;-0.081875;1.000000
445604.35910137;5696562.76449974;472.83404972;0.427451;0.447059;0.333333;28013.000000;1.000000;1.000000;1.000000;1.000000;0.049026;-0.049026;0.049026;1.000000
445604.31590088;5696562.88279922;472.84515001;0.447059;0.45098;0.309804;28270.000000;1.000000;1.000000;1.000000;1.000000;-0.052799;0.052799;-0.052799;1.000000
445604.20770176;5696562.80399902;472.85094978;0.611765;0.631373;0.470588;39578.000000;1.000000;1.000000;1.000000;1.000000;0.029036;-0.029036;0.029036;1.000000
445604.52680214;5696562.72589882;472.81785013;0.345098;0.360784;0.321569;22873.000000;1.000000;1.000000;1.000000;1.000000;-0.118675;0.118675;-0.118675;1.000000
445604.47420128;5696562.64859970;472.84025003;0.454902;0.466667;0.427451;29812.000000;1.000000;1.000000;1.000000;1.000000;-0.066074;0.066074;-0.066074;1.000000
445604.19290169;5696562.72129829;472.85164978;0.45098;0.458824;0.388235;29298.000000;1.000000;1.000000;1.000000;1.000000;0.110963;-0.110963;0.110963;1.000000
445604.48920162;5696562.72459991;472.82084991;0.219608;0.247059;0.184314;15163.000000;1.000000;1.000000;1.000000;1.000000;-0.081075;0.081075;-0.081075;1.000000
445604.47700127;5696562.57599838;472.83484985;0.52549;0.533333;0.482353;34181.000000;1.000000;1.000000;1.000000;1.000000;-0.068874;0.068874;-0.068874;1.000000
445604.39450176;5696562.54169853;472.83064987;0.396078;0.396078;0.341176;25443.000000;1.000000;1.000000;1.000000;1.000000;0.013625;-0.013625;0.013625;1.000000
445604.50600155;5696562.58509834;472.83395006;0.509804;0.517647;0.478431;33410.000000;1.000000;1.000000;1.000000;1.000000;-0.097875;0.097875;-0.097875;1.000000
445604.50320156;5696562.85399826;472.83005001;0.541176;0.545098;0.439216;34695.000000;1.000000;1.000000;1.000000;1.000000;-0.098057;0.098057;-0.098057;1.000000
445604.45360191;5696562.72089966;472.82385017;0.243137;0.262745;0.184314;16191.000000;1.000000;1.000000;1.000000;1.000000;-0.045475;0.045475;-0.045475;1.000000
445604.32150085;5696562.76330002;472.83465006;0.54902;0.564706;0.466667;35980.000000;1.000000;1.000000;1.000000;1.000000;0.066700;-0.066700;0.066700;1.000000
445604.32260139;5696562.72579964;472.83664991;0.427451;0.447059;0.360784;28270.000000;1.000000;1.000000;1.000000;1.000000;0.085526;0.085526;-0.085526;1.000000
445604.31240089;5696562.94849976;472.85045006;0.568627;0.564706;0.423529;35980.000000;1.000000;1.000000;1.000000;1.000000;-0.118516;0.118516;-0.118516;1.000000
445604.38750179;5696562.95089920;472.84924986;0.709804;0.709804;0.576471;45489.000000;1.000000;1.000000;1.000000;1.000000;-0.120899;0.120899;-0.120899;1.000000
445604.35000141;5696562.94969948;472.84985020;0.47451;0.482353;0.337255;30326.000000;1.000000;1.000000;1.000000;1.000000;-0.119699;0.119699;-0.119699;1.000000
445604.23970135;5696562.94589813;472.84945013;0.666667;0.662745;0.509804;42405.000000;1.000000;1.000000;1.000000;1.000000;-0.115898;0.115898;-0.115898;1.000000
445604.35150154;5696562.91449936;472.84714987;0.6;0.603922;0.462745;38293.000000;1.000000;1.000000;1.000000;1.000000;-0.084499;0.084499;-0.084499;1.000000
445604.23860176;5696562.90859993;472.84894993;0.623529;0.619608;0.470588;39578.000000;1.000000;1.000000;1.000000;1.000000;-0.078600;0.078600;-0.078600;1.000000
445604.31370171;5696562.91099937;472.84775021;0.639216;0.635294;0.513725;40606.000000;1.000000;1.000000;1.000000;1.000000;-0.081002;0.081002;-0.081002;1.000000
445604.20450218;5696562.86969955;472.85164978;0.619608;0.627451;0.435294;39578.000000;1.000000;1.000000;1.000000;1.000000;-0.042849;0.042849;-0.042849;1.000000
445604.31510170;5696562.87359818;472.84264996;0.501961;0.509804;0.34902;31868.000000;1.000000;1.000000;1.000000;1.000000;-0.043598;0.043598;-0.043598;1.000000
445604.24210175;5696562.87089928;472.84865000;0.541176;0.560784;0.360784;34695.000000;1.000000;1.000000;1.000000;1.000000;-0.040899;0.040899;-0.040899;1.000000
445604.20570190;5696562.83219917;472.85125019;0.505882;0.529412;0.309804;32639.000000;1.000000;1.000000;1.000000;1.000000;-0.015086;0.015086;-0.015086;1.000000
445604.27150162;5696562.38009842;472.83955004;0.682353;0.686275;0.639216;44461.000000;1.000000;1.000000;1.000000;1.000000;0.050098;-0.050098;0.050098;1.000000
445604.32370193;5696562.68829926;472.83855011;0.341176;0.368627;0.333333;23130.000000;1.000000;1.000000;1.000000;1.000000;0.084425;-0.084425;0.084425;1.000000
445604.54790123;5696562.66049965;472.83904984;0.329412;0.329412;0.305882;21331.000000;1.000000;1.000000;1.000000;1.000000;-0.139774;0.139774;-0.139774;1.000000
445604.33610161;5696562.39969833;472.84735014;0.494118;0.501961;0.45098;32125.000000;1.000000;1.000000;1.000000;1.000000;0.069698;-0.069698;0.069698;1.000000
445604.45760162;5696562.81619843;472.82984974;0.505882;0.509804;0.376471;32125.000000;1.000000;1.000000;1.000000;1.000000;-0.049475;0.049475;-0.049475;1.000000
445604.51270111;5696562.65909966;472.83745005;0.294118;0.294118;0.266667;19018.000000;1.000000;1.000000;1.000000;1.000000;-0.104574;0.104574;-0.104574;1.000000
445604.54950150;5696562.63219841;472.84805014;0.741176;0.756863;0.729412;49087.000000;1.000000;1.000000;1.000000;1.000000;-0.141375;0.141375;-0.141375;1.000000
445604.42230137;5696562.81469925;472.83285000;0.588235;0.584314;0.435294;37265.000000;1.000000;1.000000;1.000000;1.000000;-0.014174;0.014174;-0.014174;1.000000
445604.20690163;5696562.79479988;472.84854986;0.666667;0.682353;0.533333;43176.000000;1.000000;1.000000;1.000000;1.000000;0.037781;-0.037781;0.037781;1.000000
445604.57670219;5696562.66499908;472.83104994;0.439216;0.439216;0.407843;28527.000000;1.000000;1.000000;1.000000;1.000000;-0.168575;0.168575;-0.168575;1.000000
445604.42870148;5696562.65769966;472.83124973;0.458824;0.47451;0.419608;30326.000000;1.000000;1.000000;1.000000;1.000000;-0.020575;0.020575;-0.020575;1.000000
445604.49530132;5696562.81740006;472.82684996;0.513725;0.521569;0.415686;33153.000000;1.000000;1.000000;1.000000;1.000000;-0.087174;0.087174;-0.087174;1.000000
445604.42400177;5696562.73059853;472.82725002;0.364706;0.388235;0.301961;24158.000000;1.000000;1.000000;1.000000;1.000000;-0.015875;0.015875;-0.015875;1.000000
445604.45670135;5696562.80689819;472.82964994;0.560784;0.560784;0.427451;35723.000000;1.000000;1.000000;1.000000;1.000000;-0.048574;0.048574;-0.048574;1.000000
