//X;Y;Z;Rf;Gf;Bf;Intensity;Return Number;Number Of Returns;Scan Direction Flag;Point Source ID;C2M signed distances[-][<0.8];C2M signed distances[<0.4];C2M signed distances[-][<0.2];Stump57
299
445636.44460114;5696583.23899849;471.34585001;0.501961;0.52549;0.415686;33153.000000;1.000000;1.000000;1.000000;1.000000;-0.005224;0.005224;-0.005224;1.000000
445636.33180054;5696583.06689842;471.36434986;0.631373;0.631373;0.572549;40863.000000;1.000000;1.000000;1.000000;1.000000;-0.013826;0.013826;-0.013826;1.000000
445636.30470093;5696583.02739914;471.36494972;0.827451;0.823529;0.780392;53713.000000;1.000000;1.000000;1.000000;1.000000;-0.040926;0.040926;-0.040926;1.000000
445636.29549988;5696583.02819832;471.36455013;0.678431;0.67451;0.623529;43690.000000;1.000000;1.000000;1.000000;1.000000;-0.050127;0.050127;-0.050127;1.000000
445636.33080109;5696583.02969940;471.36154987;0.729412;0.72549;0.678431;47031.000000;1.000000;1.000000;1.000000;1.000000;-0.014826;0.014826;-0.014826;1.000000
445636.11030014;5696583.20629890;471.38164999;0.564706;0.552941;0.447059;35466.000000;1.000000;1.000000;1.000000;1.000000;-0.123701;0.123701;-0.123701;1.000000
445636.20400055;5696583.18359955;471.38324978;0.501961;0.517647;0.278431;31868.000000;1.000000;1.000000;1.000000;1.000000;-0.142565;0.142565;-0.142565;1.000000
445636.14650162;5696582.81749924;471.38094999;0.160784;0.168627;0.164706;10794.000000;1.000000;1.000000;1.000000;1.000000;-0.199517;0.199517;-0.199517;1.000000
445636.25800140;5696582.78389938;471.37865021;0.129412;0.137255;0.109804;8481.000000;1.000000;1.000000;1.000000;1.000000;-0.099013;0.099013;-0.099013;1.000000
445636.09550293;5696583.32669838;471.38934996;0.6;0.588235;0.501961;38036.000000;1.000000;1.000000;1.000000;1.000000;-0.003302;0.003302;-0.003302;1.000000
445636.28020294;5696583.14849861;471.38164999;0.415686;0.423529;0.227451;25957.000000;1.000000;1.000000;1.000000;1.000000;-0.065424;0.065424;-0.065424;1.000000
445636.38550003;5696583.11569984;471.36275007;0.458824;0.470588;0.388235;29812.000000;1.000000;1.000000;1.000000;1.000000;0.039873;-0.039873;0.039873;1.000000
445636.18290146;5696582.80719955;471.38014986;0.403922;0.411765;0.4;26728.000000;1.000000;1.000000;1.000000;1.000000;-0.164315;0.164315;-0.164315;1.000000
445636.57320221;5696583.07709892;471.37305023;0.490196;0.560784;0.376471;33924.000000;1.000000;1.000000;1.000000;1.000000;-0.133825;0.133825;-0.133825;1.000000
445636.17300232;5696582.84569939;471.36854984;0.341176;0.34902;0.341176;22616.000000;1.000000;1.000000;1.000000;1.000000;-0.172625;0.172625;-0.172625;1.000000
445636.34500320;5696583.34559830;471.39155008;0.376471;0.368627;0.211765;23130.000000;1.000000;1.000000;1.000000;1.000000;0.015598;-0.015598;0.015598;1.000000
445636.32810028;5696582.91809853;471.34614994;0.529412;0.513725;0.470588;33410.000000;1.000000;1.000000;1.000000;1.000000;-0.017527;0.017527;-0.017527;1.000000
445636.55420120;5696582.86199959;471.34865000;0.282353;0.270588;0.211765;17476.000000;1.000000;1.000000;1.000000;1.000000;0.119200;-0.119200;0.119200;1.000000
445636.13200195;5696583.33749969;471.37955000;0.670588;0.654902;0.564706;42405.000000;1.000000;1.000000;1.000000;1.000000;0.009042;-0.009042;0.009042;1.000000
445636.56330307;5696583.28169830;471.34244968;0.188235;0.215686;0.0745098;12336.000000;1.000000;1.000000;1.000000;1.000000;-0.048302;0.048302;-0.048302;1.000000
445636.47020157;5696583.32489975;471.37134983;0.529412;0.580392;0.431373;35723.000000;1.000000;1.000000;1.000000;1.000000;-0.005100;0.005100;-0.005100;1.000000
445636.63340195;5696582.96649940;471.36514999;0.470588;0.541176;0.345098;32639.000000;1.000000;1.000000;1.000000;1.000000;-0.195839;0.195839;-0.195839;1.000000
445636.24910172;5696582.81049927;471.37155010;0.239216;0.243137;0.207843;15420.000000;1.000000;1.000000;1.000000;1.000000;-0.098475;0.098475;-0.098475;1.000000
445636.13660248;5696583.26229866;471.38114979;0.537255;0.521569;0.376471;33410.000000;1.000000;1.000000;1.000000;1.000000;-0.067703;0.067703;-0.067703;1.000000
445636.32600220;5696582.97419937;471.35364964;0.560784;0.533333;0.470588;34952.000000;1.000000;1.000000;1.000000;1.000000;-0.019625;0.019625;-0.019625;1.000000
445636.21050079;5696583.25759895;471.39144995;0.32549;0.329412;0.145098;20046.000000;1.000000;1.000000;1.000000;1.000000;-0.072401;0.072401;-0.072401;1.000000
445636.51570328;5696583.07499893;471.40074970;0.258824;0.321569;0.152941;18504.000000;1.000000;1.000000;1.000000;1.000000;-0.076326;0.076326;-0.076326;1.000000
445636.55540283;5696582.82449921;471.34824993;0.411765;0.4;0.352941;25957.000000;1.000000;1.000000;1.000000;1.000000;-0.116156;0.116156;-0.116156;1.000000
445636.59570129;5696582.75309952;471.34224989;0.670588;0.662745;0.631373;43176.000000;1.000000;1.000000;1.000000;1.000000;-0.174215;0.174215;-0.174215;1.000000
445636.60080154;5696583.28289993;471.34184982;0.164706;0.192157;0.054902;11051.000000;1.000000;1.000000;1.000000;1.000000;-0.047311;0.047311;-0.047311;1.000000
445636.60540207;5696583.20769890;471.34345009;0.360784;0.380392;0.286275;23644.000000;1.000000;1.000000;1.000000;1.000000;-0.122301;0.122301;-0.122301;1.000000
445636.25430115;5696582.93409927;471.35695030;0.556863;0.537255;0.490196;35209.000000;1.000000;1.000000;1.000000;1.000000;-0.091326;0.091326;-0.091326;1.000000
445636.23730286;5696583.29479988;471.39304974;0.321569;0.352941;0.164706;21074.000000;1.000000;1.000000;1.000000;1.000000;-0.035200;0.035200;-0.035200;1.000000
445636.21300323;5696582.76429947;471.40194990;0.207843;0.219608;0.2;13878.000000;1.000000;1.000000;1.000000;1.000000;-0.148005;0.148005;-0.148005;1.000000
445636.36470230;5696582.93789871;471.35265018;0.45098;0.431373;0.384314;28270.000000;1.000000;1.000000;1.000000;1.000000;0.019075;-0.019075;0.019075;1.000000
445636.47860153;5696582.87839897;471.34775021;0.729412;0.729412;0.686275;47288.000000;1.000000;1.000000;1.000000;1.000000;0.062298;-0.062298;0.062298;1.000000
445636.55970200;5696583.16989906;471.34555008;0.278431;0.305882;0.254902;19018.000000;1.000000;1.000000;1.000000;1.000000;-0.120325;0.120325;-0.120325;1.000000
445636.45129974;5696583.05319984;471.38355019;0.290196;0.32549;0.184314;19532.000000;1.000000;1.000000;1.000000;1.000000;-0.011923;0.011923;-0.011923;1.000000
445636.38860138;5696582.79099854;471.34734966;0.529412;0.517647;0.470588;33667.000000;1.000000;1.000000;1.000000;1.000000;-0.039001;0.039001;-0.039001;1.000000
445636.18040283;5696583.33059891;471.38164999;0.47451;0.47451;0.356863;30069.000000;1.000000;1.000000;1.000000;1.000000;0.000599;-0.000599;0.000599;1.000000
445636.60659988;5696583.17249878;471.34775021;0.427451;0.45098;0.396078;28527.000000;1.000000;1.000000;1.000000;1.000000;-0.157501;0.157501;-0.157501;1.000000
445636.28550156;5696583.25999840;471.39255001;0.333333;0.360784;0.156863;21588.000000;1.000000;1.000000;1.000000;1.000000;-0.070042;0.070042;-0.070042;1.000000
445636.11140259;5696583.16879852;471.38355019;0.533333;0.517647;0.411765;33410.000000;1.000000;1.000000;1.000000;1.000000;-0.161201;0.161201;-0.161201;1.000000
445636.25430115;5696583.33499916;471.41064980;0.717647;0.733333;0.486275;45746.000000;1.000000;1.000000;1.000000;1.000000;0.005556;-0.005556;0.005556;1.000000
445636.32090195;5696583.26139839;471.38714983;0.207843;0.239216;0.0666667;13621.000000;1.000000;1.000000;1.000000;1.000000;-0.068698;0.068698;-0.068698;1.000000
445636.28660019;5696583.22249992;471.39444973;0.247059;0.278431;0.0627451;15934.000000;1.000000;1.000000;1.000000;1.000000;-0.080679;0.080679;-0.080679;1.000000
445636.17120178;5696583.28239830;471.38065006;0.4;0.388235;0.243137;24415.000000;1.000000;1.000000;1.000000;1.000000;-0.047602;0.047602;-0.047602;1.000000
445636.28720291;5696583.17579849;471.38695004;0.462745;0.490196;0.223529;29555.000000;1.000000;1.000000;1.000000;1.000000;-0.059033;0.059033;-0.059033;1.000000
445636.17189987;5696583.33849915;471.37894966;0.427451;0.423529;0.321569;26985.000000;1.000000;1.000000;1.000000;1.000000;0.008499;-0.008499;0.008499;1.000000
445636.61830338;5696583.32099922;471.34534981;0.109804;0.137255;0.0196078;7453.000000;1.000000;1.000000;1.000000;1.000000;-0.009001;0.009001;-0.009001;1.000000
445636.57300003;5696583.28319939;471.33824970;0.196078;0.219608;0.0823529;12850.000000;1.000000;1.000000;1.000000;1.000000;-0.047588;0.047588;-0.047588;1.000000
445636.53650101;5696583.24229820;471.33605005;0.227451;0.243137;0.160784;14906.000000;1.000000;1.000000;1.000000;1.000000;-0.087767;0.087767;-0.087767;1.000000
445636.51060303;5696583.01719864;471.39284994;0.462745;0.533333;0.32549;31868.000000;1.000000;1.000000;1.000000;1.000000;-0.071226;0.071226;-0.071226;1.000000
445636.27400024;5696583.10249908;471.37144997;0.419608;0.419608;0.341176;26728.000000;1.000000;1.000000;1.000000;1.000000;-0.071627;0.071627;-0.071627;1.000000
445636.55500229;5696582.79649933;471.35024979;0.552941;0.545098;0.498039;35466.000000;1.000000;1.000000;1.000000;1.000000;-0.120381;0.120381;-0.120381;1.000000
445636.47089966;5696583.09099968;471.38954975;0.156863;0.176471;0.0901961;10537.000000;1.000000;1.000000;1.000000;1.000000;-0.031523;0.031523;-0.031523;1.000000
445636.58430298;5696583.25409897;471.33834984;0.337255;0.356863;0.231373;21845.000000;1.000000;1.000000;1.000000;1.000000;-0.078473;0.078473;-0.078473;1.000000
445636.52970322;5696582.77779968;471.35354998;0.521569;0.509804;0.454902;33153.000000;1.000000;1.000000;1.000000;1.000000;-0.104325;0.104325;-0.104325;1.000000
445636.53090103;5696582.74029930;471.35314991;0.407843;0.396078;0.34902;25700.000000;1.000000;1.000000;1.000000;1.000000;-0.128152;0.128152;-0.128152;1.000000
445636.49180038;5696583.01879890;471.39895012;0.431373;0.490196;0.290196;29298.000000;1.000000;1.000000;1.000000;1.000000;-0.052423;0.052423;-0.052423;1.000000
445636.24139984;5696582.99829872;471.36175014;0.556863;0.541176;0.501961;35466.000000;1.000000;1.000000;1.000000;1.000000;-0.104227;0.104227;-0.104227;1.000000
445636.62180145;5696583.25529869;471.33774998;0.741176;0.772549;0.639216;48830.000000;1.000000;1.000000;1.000000;1.000000;-0.074701;0.074701;-0.074701;1.000000
445636.24370010;5696582.92329987;471.36095001;0.431373;0.415686;0.352941;26985.000000;1.000000;1.000000;1.000000;1.000000;-0.101927;0.101927;-0.101927;1.000000
445636.15040024;5696583.13489922;471.38025000;0.556863;0.52549;0.419608;34181.000000;1.000000;1.000000;1.000000;1.000000;-0.195101;0.195101;-0.195101;1.000000
445636.44920166;5696582.91379936;471.34684994;0.486275;0.482353;0.427451;31097.000000;1.000000;1.000000;1.000000;1.000000;-0.080251;0.080251;-0.080251;1.000000
445636.16220291;5696582.85599907;471.37045004;0.184314;0.192157;0.184314;12336.000000;1.000000;1.000000;1.000000;1.000000;-0.183424;0.183424;-0.183424;1.000000
445636.34020050;5696582.87259872;471.34614994;0.792157;0.796078;0.760784;51657.000000;1.000000;1.000000;1.000000;1.000000;-0.005426;0.005426;-0.005426;1.000000
445636.22900208;5696583.30489929;471.39045002;0.482353;0.505882;0.32549;31354.000000;1.000000;1.000000;1.000000;1.000000;-0.025164;0.025164;-0.025164;1.000000
445636.23000153;5696583.26739891;471.39475014;0.286275;0.305882;0.109804;17990.000000;1.000000;1.000000;1.000000;1.000000;-0.062606;0.062606;-0.062606;1.000000
445636.33320053;5696583.00149925;471.35434963;0.768627;0.74902;0.694118;48830.000000;1.000000;1.000000;1.000000;1.000000;-0.012426;0.012426;-0.012426;1.000000
445636.45930298;5696583.10869987;471.37295010;0.341176;0.364706;0.294118;22873.000000;1.000000;1.000000;1.000000;1.000000;-0.019926;0.019926;-0.019926;1.000000
445636.53940018;5696582.96579941;471.37255003;0.447059;0.513725;0.298039;30583.000000;1.000000;1.000000;1.000000;1.000000;-0.103641;0.103641;-0.103641;1.000000
445636.33800323;5696582.92639931;471.35134985;0.670588;0.65098;0.6;42662.000000;1.000000;1.000000;1.000000;1.000000;-0.007624;0.007624;-0.007624;1.000000
445636.26620300;5696582.88629921;471.35695030;0.321569;0.301961;0.247059;19532.000000;1.000000;1.000000;1.000000;1.000000;-0.079424;0.079424;-0.079424;1.000000
445636.23660095;5696583.10139854;471.36975004;0.513725;0.509804;0.427451;32639.000000;1.000000;1.000000;1.000000;1.000000;-0.109026;0.109026;-0.109026;1.000000
445636.25530060;5696583.07399948;471.36564972;0.588235;0.588235;0.52549;38036.000000;1.000000;1.000000;1.000000;1.000000;-0.090326;0.090326;-0.090326;1.000000
445636.16480072;5696583.05889900;471.37064983;0.352941;0.345098;0.270588;22102.000000;1.000000;1.000000;1.000000;1.000000;-0.180826;0.180826;-0.180826;1.000000
445636.44190033;5696583.05179985;471.38075020;0.333333;0.368627;0.231373;22359.000000;1.000000;1.000000;1.000000;1.000000;-0.002523;0.002523;-0.002523;1.000000
445636.37550171;5696582.89969833;471.34574987;0.505882;0.494118;0.45098;32125.000000;1.000000;1.000000;1.000000;1.000000;0.029875;-0.029875;0.029875;1.000000
445636.23840149;5696582.82090004;471.37115004;0.168627;0.164706;0.137255;10537.000000;1.000000;1.000000;1.000000;1.000000;-0.107611;0.107611;-0.107611;1.000000
445636.57690247;5696582.99259956;471.37454988;0.294118;0.360784;0.137255;20560.000000;1.000000;1.000000;1.000000;1.000000;-0.137526;0.137526;-0.137526;1.000000
445636.29530151;5696583.00029953;471.36194994;0.345098;0.32549;0.27451;21331.000000;1.000000;1.000000;1.000000;1.000000;-0.050325;0.050325;-0.050325;1.000000
445636.23050125;5696582.77439888;471.39825012;0.207843;0.215686;0.2;13621.000000;1.000000;1.000000;1.000000;1.000000;-0.127849;0.127849;-0.127849;1.000000
445636.15580185;5696582.81670006;471.37904980;0.172549;0.176471;0.172549;11308.000000;1.000000;1.000000;1.000000;1.000000;-0.190290;0.190290;-0.190290;1.000000
445636.32110031;5696582.87189873;471.35224964;0.780392;0.780392;0.745098;50886.000000;1.000000;1.000000;1.000000;1.000000;-0.024527;0.024527;-0.024527;1.000000
445636.43400009;5696582.82869919;471.35214998;0.47451;0.454902;0.407843;29812.000000;1.000000;1.000000;1.000000;1.000000;-0.001301;0.001301;-0.001301;1.000000
445636.59520157;5696583.01199921;471.37325003;0.117647;0.176471;0.0313725;9252.000000;1.000000;1.000000;1.000000;1.000000;-0.155825;0.155825;-0.155825;1.000000
445636.39600189;5696583.30159958;471.36074974;0.521569;0.513725;0.407843;32896.000000;1.000000;1.000000;1.000000;1.000000;0.043375;-0.043375;0.043375;1.000000
445636.13720139;5696583.24349983;471.38094999;0.501961;0.490196;0.345098;31097.000000;1.000000;1.000000;1.000000;1.000000;-0.086500;0.086500;-0.086500;1.000000
445636.59670074;5696582.97679909;471.37054970;0.443137;0.517647;0.290196;30583.000000;1.000000;1.000000;1.000000;1.000000;-0.158154;0.158154;-0.158154;1.000000
445636.40210159;5696583.11649902;471.36114981;0.388235;0.403922;0.329412;25443.000000;1.000000;1.000000;1.000000;1.000000;0.037275;-0.037275;0.037275;1.000000
445636.28330048;5696582.86829956;471.35514977;0.290196;0.282353;0.235294;18247.000000;1.000000;1.000000;1.000000;1.000000;-0.062326;0.062326;-0.062326;1.000000
445636.56870087;5696582.74149902;471.34784986;0.713725;0.698039;0.654902;45489.000000;1.000000;1.000000;1.000000;1.000000;-0.156707;0.156707;-0.156707;1.000000
445636.43630035;5696583.15549858;471.35615017;0.4;0.411765;0.341176;26214.000000;1.000000;1.000000;1.000000;1.000000;0.003077;-0.003077;0.003077;1.000000
445636.42650040;5696583.00659950;471.37024977;0.643137;0.654902;0.560784;41891.000000;1.000000;1.000000;1.000000;1.000000;0.012877;-0.012877;0.012877;1.000000
445636.58889969;5696583.16009911;471.35144999;0.211765;0.239216;0.192157;14649.000000;1.000000;1.000000;1.000000;1.000000;-0.149523;0.149523;-0.149523;1.000000
445636.17400177;5696582.79149826;471.39125015;0.137255;0.14902;0.133333;9252.000000;1.000000;1.000000;1.000000;1.000000;-0.175891;0.175891;-0.175891;1.000000
445636.59230240;5696583.03089912;471.37334969;0.192157;0.235294;0.0901961;13364.000000;1.000000;1.000000;1.000000;1.000000;-0.152925;0.152925;-0.152925;1.000000
445636.56590088;5696582.78849991;471.35064985;0.494118;0.486275;0.439216;31611.000000;1.000000;1.000000;1.000000;1.000000;-0.133156;0.133156;-0.133156;1.000000
445636.39630325;5696583.07969864;471.36045029;0.580392;0.588235;0.52549;37779.000000;1.000000;1.000000;1.000000;1.000000;0.043074;-0.043074;0.043074;1.000000
445636.39740189;5696583.04219826;471.36235001;0.596078;0.596078;0.517647;38293.000000;1.000000;1.000000;1.000000;1.000000;0.041975;-0.041975;0.041975;1.000000
445636.28840073;5696583.00089844;471.36165001;0.407843;0.388235;0.337255;25443.000000;1.000000;1.000000;1.000000;1.000000;-0.057226;0.057226;-0.057226;1.000000
445636.39859970;5696583.00469978;471.36194994;0.517647;0.517647;0.45098;33410.000000;1.000000;1.000000;1.000000;1.000000;0.040777;-0.040777;0.040777;1.000000
445636.18140228;5696582.88459976;471.36704971;0.596078;0.607843;0.588235;39321.000000;1.000000;1.000000;1.000000;1.000000;-0.164225;0.164225;-0.164225;1.000000
445636.21870239;5696582.88349922;471.36634972;0.321569;0.298039;0.243137;19532.000000;1.000000;1.000000;1.000000;1.000000;-0.126925;0.126925;-0.126925;1.000000
445636.51370056;5696582.93559845;471.36165001;0.447059;0.470588;0.337255;29298.000000;1.000000;1.000000;1.000000;1.000000;-0.094004;0.094004;-0.094004;1.000000
445636.54620178;5696583.02089890;471.38975002;0.388235;0.458824;0.227451;26985.000000;1.000000;1.000000;1.000000;1.000000;-0.106825;0.106825;-0.106825;1.000000
445636.57470139;5696583.02079971;471.37944986;0.254902;0.305882;0.12549;17733.000000;1.000000;1.000000;1.000000;1.000000;-0.135324;0.135324;-0.135324;1.000000
445636.31990250;5696582.88139923;471.34765007;0.792157;0.8;0.764706;51914.000000;1.000000;1.000000;1.000000;1.000000;-0.025724;0.025724;-0.025724;1.000000
445636.29770096;5696582.77809914;471.36634972;0.329412;0.337255;0.305882;21588.000000;1.000000;1.000000;1.000000;1.000000;-0.070644;0.070644;-0.070644;1.000000
445636.50980194;5696583.00789841;471.39265015;0.54902;0.611765;0.411765;37265.000000;1.000000;1.000000;1.000000;1.000000;-0.070425;0.070425;-0.070425;1.000000
445636.24419983;5696583.13789948;471.37984993;0.611765;0.611765;0.462745;38807.000000;1.000000;1.000000;1.000000;1.000000;-0.101427;0.101427;-0.101427;1.000000
445636.50480087;5696583.14869888;471.38014986;0.294118;0.333333;0.270588;20560.000000;1.000000;1.000000;1.000000;1.000000;-0.065424;0.065424;-0.065424;1.000000
445636.36740311;5696583.06839951;471.35664989;0.662745;0.662745;0.603922;42919.000000;1.000000;1.000000;1.000000;1.000000;0.021776;-0.021776;0.021776;1.000000
445636.47130020;5696583.09559830;471.38964989;0.188235;0.203922;0.113725;12336.000000;1.000000;1.000000;1.000000;1.000000;-0.031923;0.031923;-0.031923;1.000000
445636.29100235;5696583.32689865;471.40984966;0.780392;0.784314;0.533333;49344.000000;1.000000;1.000000;1.000000;1.000000;-0.003839;0.003839;-0.003839;1.000000
445636.54440125;5696583.31579979;471.36525013;0.494118;0.513725;0.360784;32125.000000;1.000000;1.000000;1.000000;1.000000;-0.014200;0.014200;-0.014200;1.000000
445636.22730072;5696582.87570007;471.36665012;0.533333;0.505882;0.45098;33153.000000;1.000000;1.000000;1.000000;1.000000;-0.118326;0.118326;-0.118326;1.000000
445636.26630219;5696582.83949860;471.36105015;0.247059;0.243137;0.2;15677.000000;1.000000;1.000000;1.000000;1.000000;-0.079325;0.079325;-0.079325;1.000000
445636.65070160;5696583.19179924;471.34294989;0.352941;0.376471;0.286275;23387.000000;1.000000;1.000000;1.000000;1.000000;-0.138201;0.138201;-0.138201;1.000000
445636.33699997;5696583.30900009;471.38845016;0.427451;0.443137;0.243137;27242.000000;1.000000;1.000000;1.000000;1.000000;-0.021000;0.021000;-0.021000;1.000000
445636.25570114;5696582.87780006;471.36334993;0.243137;0.211765;0.160784;13878.000000;1.000000;1.000000;1.000000;1.000000;-0.089926;0.089926;-0.089926;1.000000
445636.28980072;5696582.96349915;471.35654976;0.482353;0.466667;0.419608;30326.000000;1.000000;1.000000;1.000000;1.000000;-0.055826;0.055826;-0.055826;1.000000
445636.47030075;5696583.08179863;471.38474991;0.137255;0.152941;0.0705882;8995.000000;1.000000;1.000000;1.000000;1.000000;-0.030924;0.030924;-0.030924;1.000000
445636.32510193;5696582.96489914;471.35354998;0.631373;0.607843;0.552941;39835.000000;1.000000;1.000000;1.000000;1.000000;-0.020525;0.020525;-0.020525;1.000000
445636.25690277;5696582.84029968;471.36294987;0.211765;0.203922;0.160784;13107.000000;1.000000;1.000000;1.000000;1.000000;-0.088724;0.088724;-0.088724;1.000000
445636.39290054;5696582.93989952;471.35395004;0.619608;0.603922;0.54902;39321.000000;1.000000;1.000000;1.000000;1.000000;0.047274;-0.047274;0.047274;1.000000
445636.41960342;5696583.20139893;471.35594990;0.243137;0.27451;0.109804;15934.000000;1.000000;1.000000;1.000000;1.000000;0.019773;-0.019773;0.019773;1.000000
445636.42060287;5696583.16159828;471.35554983;0.458824;0.47451;0.364706;29812.000000;1.000000;1.000000;1.000000;1.000000;0.018774;-0.018774;0.018774;1.000000
445636.40979965;5696582.74449928;471.35234978;0.360784;0.34902;0.305882;22616.000000;1.000000;1.000000;1.000000;1.000000;-0.085517;0.085517;-0.085517;1.000000
445636.58490189;5696583.00359924;471.37505009;0.2;0.266667;0.0823529;14649.000000;1.000000;1.000000;1.000000;1.000000;-0.145525;0.145525;-0.145525;1.000000
445636.31640060;5696583.15919884;471.37874987;0.298039;0.321569;0.129412;19018.000000;1.000000;1.000000;1.000000;1.000000;-0.029226;0.029226;-0.029226;1.000000
445636.51250275;5696582.98209961;471.38084986;0.537255;0.592157;0.4;36237.000000;1.000000;1.000000;1.000000;1.000000;-0.073902;0.073902;-0.073902;1.000000
445636.21300323;5696582.78549965;471.39524986;0.223529;0.231373;0.207843;14649.000000;1.000000;1.000000;1.000000;1.000000;-0.139890;0.139890;-0.139890;1.000000
445636.32520111;5696583.20729836;471.38905003;0.498039;0.533333;0.270588;32125.000000;1.000000;1.000000;1.000000;1.000000;-0.044833;0.044833;-0.044833;1.000000
445636.28450211;5696583.06419952;471.37155010;0.517647;0.521569;0.454902;33410.000000;1.000000;1.000000;1.000000;1.000000;-0.061125;0.061125;-0.061125;1.000000
445636.39380081;5696583.15229996;471.35885002;0.458824;0.47451;0.368627;29812.000000;1.000000;1.000000;1.000000;1.000000;0.045576;-0.045576;0.045576;1.000000
445636.52219971;5696582.74809845;471.35514977;0.419608;0.403922;0.356863;26214.000000;1.000000;1.000000;1.000000;1.000000;-0.116480;0.116480;-0.116480;1.000000
445636.36480148;5696582.90999992;471.34534981;0.52549;0.509804;0.466667;33153.000000;1.000000;1.000000;1.000000;1.000000;0.019175;-0.019175;0.019175;1.000000
445636.55400284;5696583.02949913;471.39024975;0.407843;0.466667;0.247059;27756.000000;1.000000;1.000000;1.000000;1.000000;-0.114626;0.114626;-0.114626;1.000000
445636.49010284;5696582.80479820;471.35444977;0.431373;0.415686;0.364706;26985.000000;1.000000;1.000000;1.000000;1.000000;-0.056641;0.056641;-0.056641;1.000000
445636.53980072;5696583.32300003;471.37914993;0.580392;0.611765;0.462745;38293.000000;1.000000;1.000000;1.000000;1.000000;-0.007827;0.007827;-0.007827;1.000000
445636.58070190;5696583.31979950;471.34604980;0.666667;0.694118;0.537255;43690.000000;1.000000;1.000000;1.000000;1.000000;-0.019250;0.019250;-0.019250;1.000000
445636.48080261;5696583.27759941;471.34795000;0.454902;0.458824;0.356863;29041.000000;1.000000;1.000000;1.000000;1.000000;-0.041426;0.041426;-0.041426;1.000000
445636.55370148;5696583.28019913;471.34434988;0.2;0.219608;0.0980392;13107.000000;1.000000;1.000000;1.000000;1.000000;-0.049801;0.049801;-0.049801;1.000000
445636.31240280;5696583.27149971;471.38924982;0.219608;0.247059;0.054902;14135.000000;1.000000;1.000000;1.000000;1.000000;-0.058500;0.058500;-0.058500;1.000000
445636.30120285;5696583.09299858;471.37255003;0.6;0.596078;0.529412;38550.000000;1.000000;1.000000;1.000000;1.000000;-0.044424;0.044424;-0.044424;1.000000
445636.59620102;5696583.20859917;471.34305002;0.298039;0.317647;0.247059;19789.000000;1.000000;1.000000;1.000000;1.000000;-0.121738;0.121738;-0.121738;1.000000
445636.59729965;5696583.17109879;471.34495022;0.392157;0.419608;0.372549;26471.000000;1.000000;1.000000;1.000000;1.000000;-0.157923;0.157923;-0.157923;1.000000
445636.56280334;5696583.09429939;471.37974979;0.27451;0.345098;0.180392;19789.000000;1.000000;1.000000;1.000000;1.000000;-0.123426;0.123426;-0.123426;1.000000
445636.56410034;5696583.05909927;471.38174965;0.458824;0.52549;0.333333;31611.000000;1.000000;1.000000;1.000000;1.000000;-0.124723;0.124723;-0.124723;1.000000
445636.62400253;5696582.93939980;471.35975029;0.25098;0.317647;0.14902;18247.000000;1.000000;1.000000;1.000000;1.000000;-0.192303;0.192303;-0.192303;1.000000
445636.54790314;5696583.16859825;471.34504988;0.278431;0.313725;0.270588;19532.000000;1.000000;1.000000;1.000000;1.000000;-0.108526;0.108526;-0.108526;1.000000
445636.68540009;5696583.30569847;471.32725002;0.329412;0.376471;0.164706;22102.000000;1.000000;1.000000;1.000000;1.000000;-0.024302;0.024302;-0.024302;1.000000
445636.48240097;5696582.77499969;471.36065008;0.568627;0.556863;0.513725;36237.000000;1.000000;1.000000;1.000000;1.000000;-0.069829;0.069829;-0.069829;1.000000
445636.44470032;5696582.77379997;471.36364986;0.443137;0.431373;0.376471;28013.000000;1.000000;1.000000;1.000000;1.000000;-0.056452;0.056452;-0.056452;1.000000
445636.48360260;5696582.73759850;471.36035015;0.647059;0.635294;0.592157;41377.000000;1.000000;1.000000;1.000000;1.000000;-0.102440;0.102440;-0.102440;1.000000
445636.43660172;5696582.95919998;471.35844995;0.647059;0.643137;0.564706;41634.000000;1.000000;1.000000;1.000000;1.000000;0.034137;-0.034137;0.034137;1.000000
445636.20310028;5696583.22789963;471.39074995;0.329412;0.352941;0.14902;21074.000000;1.000000;1.000000;1.000000;1.000000;-0.102100;0.102100;-0.102100;1.000000
445636.31350143;5696583.23399933;471.39115002;0.419608;0.458824;0.227451;27499.000000;1.000000;1.000000;1.000000;1.000000;-0.073910;0.073910;-0.073910;1.000000
445636.33270081;5696583.23469933;471.38264992;0.364706;0.407843;0.184314;24158.000000;1.000000;1.000000;1.000000;1.000000;-0.068661;0.068661;-0.068661;1.000000
445636.16280182;5696582.86289986;471.37054970;0.192157;0.2;0.192157;12850.000000;1.000000;1.000000;1.000000;1.000000;-0.182825;0.182825;-0.182825;1.000000
445636.55750092;5696583.21469887;471.33204987;0.254902;0.27451;0.196078;16962.000000;1.000000;1.000000;1.000000;1.000000;-0.115301;0.115301;-0.115301;1.000000
445636.27820023;5696583.23259933;471.39414980;0.262745;0.298039;0.0823529;17219.000000;1.000000;1.000000;1.000000;1.000000;-0.093727;0.093727;-0.093727;1.000000
445636.47420319;5696582.99739845;471.38164999;0.407843;0.454902;0.266667;27499.000000;1.000000;1.000000;1.000000;1.000000;-0.034826;0.034826;-0.034826;1.000000
445636.36730011;5696583.09629829;471.36394979;0.494118;0.498039;0.427451;31868.000000;1.000000;1.000000;1.000000;1.000000;0.021673;-0.021673;0.021673;1.000000
445636.33390244;5696583.19719894;471.38234999;0.407843;0.45098;0.203922;26728.000000;1.000000;1.000000;1.000000;1.000000;-0.032159;0.032159;-0.032159;1.000000
445636.47710236;5696582.88789948;471.34784986;0.858824;0.858824;0.819608;55769.000000;1.000000;1.000000;1.000000;1.000000;0.069105;-0.069105;0.069105;1.000000
445636.22770126;5696582.90369995;471.36464979;0.215686;0.2;0.141176;12850.000000;1.000000;1.000000;1.000000;1.000000;-0.117926;0.117926;-0.117926;1.000000
445636.34300049;5696582.75989922;471.36124994;0.298039;0.290196;0.254902;18761.000000;1.000000;1.000000;1.000000;1.000000;-0.070150;0.070150;-0.070150;1.000000
445636.24200256;5696583.19399841;471.38975002;0.27451;0.309804;0.0666667;17733.000000;1.000000;1.000000;1.000000;1.000000;-0.106983;0.106983;-0.106983;1.000000
445636.27950104;5696583.19509895;471.39144995;0.313725;0.341176;0.0862745;19789.000000;1.000000;1.000000;1.000000;1.000000;-0.071680;0.071680;-0.071680;1.000000
445636.40279968;5696582.92039879;471.35185005;0.521569;0.509804;0.462745;33153.000000;1.000000;1.000000;1.000000;1.000000;0.057173;-0.057173;0.057173;1.000000
445636.49890335;5696582.86949928;471.34625008;0.403922;0.4;0.337255;25700.000000;1.000000;1.000000;1.000000;1.000000;0.071439;-0.071439;0.071439;1.000000
445636.32069977;5696583.34519966;471.41144993;0.435294;0.423529;0.180392;26214.000000;1.000000;1.000000;1.000000;1.000000;0.015671;-0.015671;0.015671;1.000000
445636.29340179;5696583.08439835;471.37214996;0.478431;0.478431;0.411765;30840.000000;1.000000;1.000000;1.000000;1.000000;-0.052225;0.052225;-0.052225;1.000000
445636.29980286;5696583.15839966;471.38264992;0.376471;0.392157;0.176471;23644.000000;1.000000;1.000000;1.000000;1.000000;-0.045824;0.045824;-0.045824;1.000000
445636.23200043;5696582.76499947;471.39814999;0.215686;0.223529;0.211765;14392.000000;1.000000;1.000000;1.000000;1.000000;-0.130905;0.130905;-0.130905;1.000000
445636.28810318;5696582.97059830;471.35654976;0.576471;0.556863;0.505882;36494.000000;1.000000;1.000000;1.000000;1.000000;-0.057524;0.057524;-0.057524;1.000000
445636.28960236;5696582.93549927;471.35384991;0.54902;0.533333;0.490196;34695.000000;1.000000;1.000000;1.000000;1.000000;-0.056025;0.056025;-0.056025;1.000000
445636.38610275;5696582.86359985;471.34574987;0.560784;0.560784;0.517647;36237.000000;1.000000;1.000000;1.000000;1.000000;0.033614;-0.033614;0.033614;1.000000
445636.36950119;5696582.78799828;471.35104992;0.415686;0.403922;0.364706;26214.000000;1.000000;1.000000;1.000000;1.000000;-0.042002;0.042002;-0.042002;1.000000
445636.37310226;5696582.75259979;471.35314991;0.321569;0.313725;0.270588;20303.000000;1.000000;1.000000;1.000000;1.000000;-0.077400;0.077400;-0.077400;1.000000
445636.63920029;5696583.26540001;471.33634998;0.243137;0.27451;0.141176;16191.000000;1.000000;1.000000;1.000000;1.000000;-0.064600;0.064600;-0.064600;1.000000
445636.29580124;5696582.80399902;471.35955002;0.180392;0.184314;0.145098;11565.000000;1.000000;1.000000;1.000000;1.000000;-0.056202;0.056202;-0.056202;1.000000
445636.22240265;5696582.76349838;471.40004971;0.262745;0.270588;0.254902;17219.000000;1.000000;1.000000;1.000000;1.000000;-0.140024;0.140024;-0.140024;1.000000
445636.66110046;5696583.22149857;471.32984974;0.592157;0.607843;0.486275;38550.000000;1.000000;1.000000;1.000000;1.000000;0.108501;-0.108501;0.108501;1.000000
445636.32909973;5696583.14180000;471.37214996;0.317647;0.329412;0.184314;20303.000000;1.000000;1.000000;1.000000;1.000000;-0.016527;0.016527;-0.016527;1.000000
445636.10379990;5696583.18820007;471.38345005;0.47451;0.458824;0.356863;29555.000000;1.000000;1.000000;1.000000;1.000000;-0.141814;0.141814;-0.141814;1.000000
445636.45779999;5696582.76319893;471.36415007;0.490196;0.478431;0.431373;31097.000000;1.000000;1.000000;1.000000;1.000000;-0.069295;0.069295;-0.069295;1.000000
445636.27800186;5696582.99019821;471.36105015;0.552941;0.533333;0.482353;34952.000000;1.000000;1.000000;1.000000;1.000000;-0.067625;0.067625;-0.067625;1.000000
445636.11980255;5696583.23339851;471.38234999;0.513725;0.498039;0.364706;31868.000000;1.000000;1.000000;1.000000;1.000000;-0.096601;0.096601;-0.096601;1.000000
445636.64040192;5696583.22799881;471.33594992;0.435294;0.458824;0.329412;28527.000000;1.000000;1.000000;1.000000;1.000000;-0.102001;0.102001;-0.102001;1.000000
445636.44180115;5696582.88410004;471.34614994;0.760784;0.760784;0.721569;49344.000000;1.000000;1.000000;1.000000;1.000000;0.054154;-0.054154;0.054154;1.000000
445636.10510071;5696583.15069969;471.38075020;0.694118;0.67451;0.580392;43690.000000;1.000000;1.000000;1.000000;1.000000;-0.179302;0.179302;-0.179302;1.000000
445636.14260300;5696583.15189941;471.38245012;0.384314;0.360784;0.227451;23130.000000;1.000000;1.000000;1.000000;1.000000;-0.178101;0.178101;-0.178101;1.000000
445636.28380020;5696583.32519920;471.40955021;0.752941;0.756863;0.498039;47545.000000;1.000000;1.000000;1.000000;1.000000;-0.004848;0.004848;-0.004848;1.000000
445636.42380341;5696582.86709984;471.34744980;0.568627;0.560784;0.52549;36494.000000;1.000000;1.000000;1.000000;1.000000;0.037100;-0.037100;0.037100;1.000000
445636.16520126;5696582.81589897;471.37715008;0.168627;0.176471;0.164706;11308.000000;1.000000;1.000000;1.000000;1.000000;-0.180976;0.180976;-0.180976;1.000000
445636.45129974;5696582.83879860;471.35304977;0.388235;0.368627;0.317647;24158.000000;1.000000;1.000000;1.000000;1.000000;0.014818;-0.014818;0.014818;1.000000
445636.58220108;5696583.28239830;471.33865025;0.270588;0.290196;0.14902;17476.000000;1.000000;1.000000;1.000000;1.000000;-0.050829;0.050829;-0.050829;1.000000
445636.92020233;5696583.23279961;471.30905010;0.713725;0.729412;0.607843;46517.000000;1.000000;1.000000;1.000000;1.000000;-0.168040;0.168040;-0.168040;1.000000
445636.85610016;5696583.19219978;471.29874994;0.0470588;0.054902;0.0392157;3084.000000;1.000000;1.000000;1.000000;1.000000;-0.155929;0.155929;-0.155929;1.000000
445636.89809998;5696583.29559906;471.30884983;0.615686;0.635294;0.509804;40092.000000;1.000000;1.000000;1.000000;1.000000;-0.120009;0.120009;-0.120009;1.000000
445636.91110046;5696583.25939949;471.30664970;0.243137;0.258824;0.133333;15677.000000;1.000000;1.000000;1.000000;1.000000;-0.146156;0.146156;-0.146156;1.000000
445636.92030151;5696583.25849922;471.30935003;0.239216;0.25098;0.105882;15163.000000;1.000000;1.000000;1.000000;1.000000;-0.154691;0.154691;-0.154691;1.000000
445636.94980057;5696583.22309883;471.30795004;0.501961;0.529412;0.376471;32896.000000;1.000000;1.000000;1.000000;1.000000;-0.198010;0.198010;-0.198010;1.000000
445636.89040192;5696583.28699883;471.30604984;0.631373;0.65098;0.537255;41377.000000;1.000000;1.000000;1.000000;1.000000;-0.115573;0.115573;-0.115573;1.000000
445636.88640030;5696583.19170006;471.30005028;0.0862745;0.0980392;0.0627451;5911.000000;1.000000;1.000000;1.000000;1.000000;-0.172604;0.172604;-0.172604;1.000000
445636.96660049;5696583.26089867;471.32544996;0.384314;0.447059;0.231373;26471.000000;1.000000;1.000000;1.000000;1.000000;-0.196055;0.196055;-0.196055;1.000000
445636.92170151;5696583.19539841;471.30174973;0.2;0.215686;0.14902;13107.000000;1.000000;1.000000;1.000000;1.000000;-0.193185;0.193185;-0.193185;1.000000
445636.95590027;5696583.27129944;471.32515003;0.333333;0.396078;0.192157;23130.000000;1.000000;1.000000;1.000000;1.000000;-0.182473;0.182473;-0.182473;1.000000
445636.92320068;5696583.21389969;471.30664970;0.74902;0.768627;0.67451;49087.000000;1.000000;1.000000;1.000000;1.000000;-0.181934;0.181934;-0.181934;1.000000
445636.90310104;5696583.22279938;471.30585005;0.345098;0.352941;0.282353;22359.000000;1.000000;1.000000;1.000000;1.000000;-0.160891;0.160891;-0.160891;1.000000
445636.83970078;5696583.19139870;471.29795029;0.109804;0.113725;0.0823529;6939.000000;1.000000;1.000000;1.000000;1.000000;-0.149703;0.149703;-0.149703;1.000000
445636.83839996;5696583.22659882;471.29594995;0.352941;0.356863;0.290196;22616.000000;1.000000;1.000000;1.000000;1.000000;-0.117247;0.117247;-0.117247;1.000000
445636.93869980;5696583.25899895;471.31724979;0.498039;0.521569;0.345098;32382.000000;1.000000;1.000000;1.000000;1.000000;-0.171009;0.171009;-0.171009;1.000000
445636.90110214;5696583.24869926;471.29904987;0.235294;0.227451;0.121569;14135.000000;1.000000;1.000000;1.000000;1.000000;-0.143276;0.143276;-0.143276;1.000000
445636.86630066;5696583.20059975;471.29694988;0.0784314;0.0862745;0.0588235;5140.000000;1.000000;1.000000;1.000000;1.000000;-0.153826;0.153826;-0.153826;1.000000
445636.83360107;5696583.20129974;471.29775002;0.266667;0.270588;0.231373;17219.000000;1.000000;1.000000;1.000000;1.000000;-0.138244;0.138244;-0.138244;1.000000
445636.88430222;5696583.21989830;471.30034973;0.117647;0.12549;0.0784314;7710.000000;1.000000;1.000000;1.000000;1.000000;-0.149529;0.149529;-0.149529;1.000000
445636.90270050;5696583.26949890;471.30635025;0.372549;0.388235;0.266667;24158.000000;1.000000;1.000000;1.000000;1.000000;-0.134008;0.134008;-0.134008;1.000000
445636.83130081;5696583.27629860;471.29624989;0.294118;0.286275;0.192157;17990.000000;1.000000;1.000000;1.000000;1.000000;-0.072143;0.072143;-0.072143;1.000000
445636.85890015;5696583.17319878;471.30094959;0.0980392;0.0980392;0.0705882;6168.000000;1.000000;1.000000;1.000000;1.000000;-0.174150;0.174150;-0.174150;1.000000
445636.90390213;5696583.23199852;471.30594971;0.270588;0.282353;0.2;17476.000000;1.000000;1.000000;1.000000;1.000000;-0.155534;0.155534;-0.155534;1.000000
445636.87610062;5696583.23009880;471.29775002;0.2;0.2;0.145098;12593.000000;1.000000;1.000000;1.000000;1.000000;-0.136471;0.136471;-0.136471;1.000000
445636.84080322;5696583.15389832;471.29985001;0.172549;0.188235;0.172549;11822.000000;1.000000;1.000000;1.000000;1.000000;-0.185306;0.185306;-0.185306;1.000000
445636.92090042;5696583.23969849;471.30915024;0.454902;0.462745;0.333333;29041.000000;1.000000;1.000000;1.000000;1.000000;-0.164730;0.164730;-0.164730;1.000000
445636.88599976;5696583.16589935;471.30674984;0.0862745;0.101961;0.0901961;6168.000000;1.000000;1.000000;1.000000;1.000000;-0.193680;0.193680;-0.193680;1.000000
445636.91940125;5696583.24919899;471.30924990;0.258824;0.270588;0.133333;16448.000000;1.000000;1.000000;1.000000;1.000000;-0.158428;0.158428;-0.158428;1.000000
445636.93900116;5696583.23339851;471.30994989;0.666667;0.686275;0.533333;43433.000000;1.000000;1.000000;1.000000;1.000000;-0.183381;0.183381;-0.183381;1.000000
445636.88330276;5696583.25739868;471.29834988;0.317647;0.321569;0.239216;20303.000000;1.000000;1.000000;1.000000;1.000000;-0.123718;0.123718;-0.123718;1.000000
445636.90300186;5696583.19479950;471.30084993;0.0980392;0.113725;0.0627451;6682.000000;1.000000;1.000000;1.000000;1.000000;-0.180691;0.180691;-0.180691;1.000000
445636.92950256;5696583.23189934;471.30944969;0.792157;0.811765;0.670588;51657.000000;1.000000;1.000000;1.000000;1.000000;-0.176209;0.176209;-0.176209;1.000000
445636.91230209;5696583.22189911;471.30625011;0.701961;0.717647;0.635294;46003.000000;1.000000;1.000000;1.000000;1.000000;-0.168440;0.168440;-0.168440;1.000000
445636.83200272;5696583.28319939;471.29635002;0.286275;0.278431;0.180392;17476.000000;1.000000;1.000000;1.000000;1.000000;-0.067669;0.067669;-0.067669;1.000000
445636.87339981;5696583.27699860;471.29814960;0.505882;0.513725;0.415686;32639.000000;1.000000;1.000000;1.000000;1.000000;-0.104682;0.104682;-0.104682;1.000000
445636.83930023;5696583.16339882;471.29995014;0.0941176;0.0980392;0.0823529;6168.000000;1.000000;1.000000;1.000000;1.000000;-0.175816;0.175816;-0.175816;1.000000
445636.90130051;5696583.27899940;471.30644991;0.458824;0.486275;0.34902;30326.000000;1.000000;1.000000;1.000000;1.000000;-0.128709;0.128709;-0.128709;1.000000
445636.91800125;5696583.28889854;471.31895020;0.403922;0.439216;0.270588;26728.000000;1.000000;1.000000;1.000000;1.000000;-0.140998;0.140998;-0.140998;1.000000
445636.84700211;5696583.21879967;471.29624989;0.270588;0.270588;0.219608;17219.000000;1.000000;1.000000;1.000000;1.000000;-0.128240;0.128240;-0.128240;1.000000
445636.88560303;5696583.18470009;471.30224993;0.113725;0.117647;0.0980392;7453.000000;1.000000;1.000000;1.000000;1.000000;-0.177802;0.177802;-0.177802;1.000000
445636.90570267;5696583.17579849;471.30544998;0.0705882;0.0784314;0.0509804;4626.000000;1.000000;1.000000;1.000000;1.000000;-0.196985;0.196985;-0.196985;1.000000
445636.88200195;5696583.26919945;471.29845001;0.490196;0.494118;0.396078;31354.000000;1.000000;1.000000;1.000000;1.000000;-0.116073;0.116073;-0.116073;1.000000
445636.90960129;5696583.26879890;471.30905010;0.34902;0.368627;0.227451;22616.000000;1.000000;1.000000;1.000000;1.000000;-0.140504;0.140504;-0.140504;1.000000
445636.91090210;5696583.23139961;471.30625011;0.490196;0.501961;0.407843;31868.000000;1.000000;1.000000;1.000000;1.000000;-0.161396;0.161396;-0.161396;1.000000
445636.84910019;5696583.14369972;471.30244972;0.447059;0.466667;0.447059;29812.000000;1.000000;1.000000;1.000000;1.000000;-0.197637;0.197637;-0.197637;1.000000
445636.94830139;5696583.23249825;471.30804970;0.552941;0.576471;0.423529;35980.000000;1.000000;1.000000;1.000000;1.000000;-0.191805;0.191805;-0.191805;1.000000
445636.88300140;5696583.22939880;471.29804995;0.141176;0.141176;0.0901961;8738.000000;1.000000;1.000000;1.000000;1.000000;-0.141759;0.141759;-0.141759;1.000000
445636.84760101;5696583.15319832;471.30254986;0.176471;0.192157;0.176471;12079.000000;1.000000;1.000000;1.000000;1.000000;-0.188191;0.188191;-0.188191;1.000000
445636.88980301;5696583.27779968;471.29894974;0.623529;0.635294;0.521569;40349.000000;1.000000;1.000000;1.000000;1.000000;-0.118763;0.118763;-0.118763;1.000000
445636.93180283;5696583.20379837;471.30224993;0.396078;0.415686;0.321569;25957.000000;1.000000;1.000000;1.000000;1.000000;-0.195016;0.195016;-0.195016;1.000000
445636.88680084;5696583.17289932;471.30454971;0.0941176;0.101961;0.0901961;6425.000000;1.000000;1.000000;1.000000;1.000000;-0.188226;0.188226;-0.188226;1.000000
445636.84830292;5696583.18359955;471.29824974;0.0705882;0.0745098;0.054902;4626.000000;1.000000;1.000000;1.000000;1.000000;-0.160253;0.160253;-0.160253;1.000000
445636.83380325;5696583.22699936;471.29575016;0.286275;0.298039;0.219608;18504.000000;1.000000;1.000000;1.000000;1.000000;-0.114792;0.114792;-0.114792;1.000000
445636.86790283;5696583.19339951;471.29925014;0.0666667;0.0705882;0.0509804;4369.000000;1.000000;1.000000;1.000000;1.000000;-0.160769;0.160769;-0.160769;1.000000
445636.92800339;5696583.26929863;471.31685020;0.352941;0.384314;0.2;23130.000000;1.000000;1.000000;1.000000;1.000000;-0.157079;0.157079;-0.157079;1.000000
445636.95520218;5696583.28999908;471.32764961;0.423529;0.478431;0.286275;28784.000000;1.000000;1.000000;1.000000;1.000000;-0.176663;0.176663;-0.176663;1.000000
445636.85750015;5696583.18269928;471.30094959;0.0627451;0.0705882;0.0509804;4112.000000;1.000000;1.000000;1.000000;1.000000;-0.165012;0.165012;-0.165012;1.000000
445636.97510345;5696583.27879913;471.32844975;0.196078;0.266667;0.0588235;14392.000000;1.000000;1.000000;1.000000;1.000000;-0.198687;0.198687;-0.198687;1.000000
445636.83320053;5696583.24579819;471.29594995;0.329412;0.329412;0.243137;20817.000000;1.000000;1.000000;1.000000;1.000000;-0.097966;0.097966;-0.097966;1.000000
445636.86820038;5696583.17229851;471.30135014;0.0784314;0.0862745;0.0705882;5140.000000;1.000000;1.000000;1.000000;1.000000;-0.179185;0.179185;-0.179185;1.000000
445636.95680054;5696583.25259979;471.31794979;0.615686;0.654902;0.466667;40606.000000;1.000000;1.000000;1.000000;1.000000;-0.190140;0.190140;-0.190140;1.000000
445636.93100174;5696583.22249992;471.30714991;0.776471;0.8;0.678431;50886.000000;1.000000;1.000000;1.000000;1.000000;-0.182820;0.182820;-0.182820;1.000000
445636.93029984;5696583.24119957;471.30964996;0.592157;0.603922;0.458824;38293.000000;1.000000;1.000000;1.000000;1.000000;-0.171888;0.171888;-0.171888;1.000000
445636.92730148;5696583.28799828;471.31934978;0.368627;0.411765;0.227451;24672.000000;1.000000;1.000000;1.000000;1.000000;-0.150168;0.150168;-0.150168;1.000000
445636.83049973;5696583.29269989;471.29645016;0.27451;0.270588;0.172549;16962.000000;1.000000;1.000000;1.000000;1.000000;-0.060295;0.060295;-0.060295;1.000000
445636.93630035;5696583.28709991;471.32445004;0.4;0.458824;0.266667;27499.000000;1.000000;1.000000;1.000000;1.000000;-0.159068;0.159068;-0.159068;1.000000
445636.93800171;5696583.25199898;471.31705000;0.564706;0.592157;0.423529;37008.000000;1.000000;1.000000;1.000000;1.000000;-0.173408;0.173408;-0.173408;1.000000
445636.92160233;5696583.22099884;471.30664970;0.835294;0.854902;0.752941;54741.000000;1.000000;1.000000;1.000000;1.000000;-0.176229;0.176229;-0.176229;1.000000
445636.93100174;5696583.25039871;471.31444981;0.431373;0.454902;0.298039;28013.000000;1.000000;1.000000;1.000000;1.000000;-0.167938;0.167938;-0.167938;1.000000
445636.95779999;5696583.23399933;471.30845024;0.521569;0.54902;0.388235;34181.000000;1.000000;1.000000;1.000000;1.000000;-0.199316;0.199316;-0.199316;1.000000
445636.89130219;5696583.26829918;471.29884960;0.509804;0.517647;0.411765;32896.000000;1.000000;1.000000;1.000000;1.000000;-0.124535;0.124535;-0.124535;1.000000
445636.89240082;5696583.23079880;471.30075027;0.160784;0.168627;0.105882;10280.000000;1.000000;1.000000;1.000000;1.000000;-0.147586;0.147586;-0.147586;1.000000
445636.87520035;5696583.22079857;471.29754974;0.105882;0.109804;0.0666667;6682.000000;1.000000;1.000000;1.000000;1.000000;-0.142837;0.142837;-0.142837;1.000000
445636.83559998;5696583.17309959;471.29985001;0.0470588;0.054902;0.0352941;3084.000000;1.000000;1.000000;1.000000;1.000000;-0.165442;0.165442;-0.165442;1.000000
445636.86720093;5696583.20989998;471.29705002;0.0941176;0.101961;0.0666667;6168.000000;1.000000;1.000000;1.000000;1.000000;-0.146603;0.146603;-0.146603;1.000000
445636.83450134;5696583.21059998;471.29795029;0.352941;0.352941;0.305882;22616.000000;1.000000;1.000000;1.000000;1.000000;-0.129983;0.129983;-0.129983;1.000000
445636.91460236;5696583.19369896;471.30135014;0.133333;0.14902;0.0941176;8995.000000;1.000000;1.000000;1.000000;1.000000;-0.189377;0.189377;-0.189377;1.000000
445636.83820160;5696583.20089920;471.29795029;0.227451;0.231373;0.196078;14649.000000;1.000000;1.000000;1.000000;1.000000;-0.140358;0.140358;-0.140358;1.000000
445636.94890030;5696583.24169930;471.31514980;0.580392;0.611765;0.435294;38036.000000;1.000000;1.000000;1.000000;1.000000;-0.187824;0.187824;-0.187824;1.000000
445636.89120300;5696583.29629906;471.30614998;0.603922;0.619608;0.505882;39321.000000;1.000000;1.000000;1.000000;1.000000;-0.113209;0.113209;-0.113209;1.000000
445636.87619980;5696583.18329819;471.30184986;0.109804;0.113725;0.0941176;7196.000000;1.000000;1.000000;1.000000;1.000000;-0.173735;0.173735;-0.173735;1.000000
445636.92100342;5696583.26999863;471.31654980;0.298039;0.329412;0.168627;19789.000000;1.000000;1.000000;1.000000;1.000000;-0.150367;0.150367;-0.150367;1.000000
445636.87050064;5696583.29599960;471.29824974;0.486275;0.494118;0.388235;31354.000000;1.000000;1.000000;1.000000;1.000000;-0.093756;0.093756;-0.093756;1.000000
445636.83990295;5696583.14459999;471.29974987;0.486275;0.505882;0.486275;32382.000000;1.000000;1.000000;1.000000;1.000000;-0.193899;0.193899;-0.193899;1.000000
445636.91120346;5696583.25709923;471.29964973;0.262745;0.262745;0.129412;16191.000000;1.000000;1.000000;1.000000;1.000000;-0.147371;0.147371;-0.147371;1.000000
445636.96510132;5696583.27039917;471.32554962;0.243137;0.301961;0.0980392;16962.000000;1.000000;1.000000;1.000000;1.000000;-0.191486;0.191486;-0.191486;1.000000
445636.93570145;5696583.27789886;471.31965019;0.431373;0.466667;0.270588;28270.000000;1.000000;1.000000;1.000000;1.000000;-0.161225;0.161225;-0.161225;1.000000
445636.89350327;5696583.19339951;471.30044987;0.0745098;0.0823529;0.0470588;4883.000000;1.000000;1.000000;1.000000;1.000000;-0.175621;0.175621;-0.175621;1.000000
445636.83880051;5696583.18209847;471.29785015;0.117647;0.117647;0.0901961;7453.000000;1.000000;1.000000;1.000000;1.000000;-0.158033;0.158033;-0.158033;1.000000
445636.83780106;5696583.21959885;471.29585030;0.360784;0.364706;0.305882;23387.000000;1.000000;1.000000;1.000000;1.000000;-0.123198;0.123198;-0.123198;1.000000
445636.89389999;5696583.17459877;471.30485012;0.0941176;0.101961;0.0784314;6168.000000;1.000000;1.000000;1.000000;1.000000;-0.190841;0.190841;-0.190841;1.000000
445636.90870102;5696583.28749855;471.31615021;0.458824;0.490196;0.337255;30326.000000;1.000000;1.000000;1.000000;1.000000;-0.132572;0.132572;-0.132572;1.000000
445636.86880310;5696583.15589912;471.30585005;0.0784314;0.0980392;0.0823529;5911.000000;1.000000;1.000000;1.000000;1.000000;-0.194040;0.194040;-0.194040;1.000000
445636.88270004;5696583.27619942;471.29855015;0.619608;0.627451;0.521569;40092.000000;1.000000;1.000000;1.000000;1.000000;-0.113178;0.113178;-0.113178;1.000000
445636.88490112;5696583.20119865;471.30014994;0.0705882;0.0823529;0.0470588;4883.000000;1.000000;1.000000;1.000000;1.000000;-0.164158;0.164158;-0.164158;1.000000
445636.83419998;5696583.18259819;471.29754974;0.12549;0.121569;0.0862745;7710.000000;1.000000;1.000000;1.000000;1.000000;-0.155999;0.155999;-0.155999;1.000000
445636.83730133;5696583.14250000;471.30195000;0.52549;0.545098;0.521569;34952.000000;1.000000;1.000000;1.000000;1.000000;-0.195169;0.195169;-0.195169;1.000000
