//X;Y;Z;Rf;Gf;Bf;Intensity;Return Number;Number Of Returns;Scan Direction Flag;Point Source ID;C2M signed distances[-][<0.8];C2M signed distances[<0.4];C2M signed distances[-][<0.2];Stump110
300
445630.35930069;5696556.63550003;471.14794971;0.654902;0.647059;0.6;42148.000000;1.000000;1.000000;1.000000;1.000000;-0.142576;0.142576;-0.142576;1.000000
445630.29240234;5696556.48099907;471.11754992;0.607843;0.596078;0.556863;38807.000000;1.000000;1.000000;1.000000;1.000000;-0.152590;0.152590;-0.152590;1.000000
445630.46380051;5696556.53449829;471.16085007;0.529412;0.529412;0.482353;34181.000000;1.000000;1.000000;1.000000;1.000000;-0.038076;0.038076;-0.038076;1.000000
445630.29390152;5696556.44359978;471.11014988;0.709804;0.701961;0.65098;45746.000000;1.000000;1.000000;1.000000;1.000000;-0.115430;0.115430;-0.115430;1.000000
445630.47250183;5696556.50099953;471.15844967;0.509804;0.501961;0.454902;32639.000000;1.000000;1.000000;1.000000;1.000000;-0.029375;0.029375;-0.029375;1.000000
445630.33360107;5696556.57739838;471.12984993;0.721569;0.717647;0.678431;46774.000000;1.000000;1.000000;1.000000;1.000000;-0.168276;0.168276;-0.168276;1.000000
445630.48620041;5696556.95419891;471.22504999;0.737255;0.733333;0.690196;47802.000000;1.000000;1.000000;1.000000;1.000000;-0.125184;0.125184;-0.125184;1.000000
445630.45010193;5696556.91779907;471.22304966;0.52549;0.52549;0.478431;33924.000000;1.000000;1.000000;1.000000;1.000000;-0.101928;0.101928;-0.101928;1.000000
445630.37120255;5696556.57869919;471.12684967;0.584314;0.576471;0.537255;37522.000000;1.000000;1.000000;1.000000;1.000000;-0.130674;0.130674;-0.130674;1.000000
445630.52270325;5696556.87889870;471.19084980;0.647059;0.615686;0.552941;40349.000000;1.000000;1.000000;1.000000;1.000000;-0.048899;0.048899;-0.048899;1.000000
445630.50360306;5696556.49989899;471.19245007;0.552941;0.552941;0.513725;35723.000000;1.000000;1.000000;1.000000;1.000000;0.001726;-0.001726;0.001726;1.000000
445630.51099976;5696556.84519966;471.17365028;0.8;0.756863;0.717647;50115.000000;1.000000;1.000000;1.000000;1.000000;-0.015200;0.015200;-0.015200;1.000000
445630.46210297;5696556.59979828;471.17785027;0.47451;0.470588;0.423529;30326.000000;1.000000;1.000000;1.000000;1.000000;-0.039774;0.039774;-0.039774;1.000000
445630.54160126;5696556.46430023;471.15654995;0.333333;0.32549;0.282353;21074.000000;1.000000;1.000000;1.000000;1.000000;0.039724;-0.039724;0.039724;1.000000
445630.45980270;5696556.65579803;471.19004967;0.654902;0.654902;0.611765;42405.000000;1.000000;1.000000;1.000000;1.000000;-0.042074;0.042074;-0.042074;1.000000
445630.48000153;5696556.39779861;471.14135029;0.607843;0.603922;0.568627;39321.000000;1.000000;1.000000;1.000000;1.000000;-0.021875;0.021875;-0.021875;1.000000
445630.47580154;5696556.54479797;471.17544987;0.592157;0.596078;0.560784;38550.000000;1.000000;1.000000;1.000000;1.000000;-0.026075;0.026075;-0.026075;1.000000
445630.54280289;5696556.73479851;471.17374994;0.211765;0.196078;0.145098;12593.000000;1.000000;1.000000;1.000000;1.000000;0.082566;-0.082566;0.082566;1.000000
445630.56840332;5696556.94019897;471.18664982;0.678431;0.678431;0.654902;44204.000000;1.000000;1.000000;1.000000;1.000000;-0.110199;0.110199;-0.110199;1.000000
445630.57200058;5696556.90479858;471.18874981;0.380392;0.372549;0.345098;24158.000000;1.000000;1.000000;1.000000;1.000000;-0.074799;0.074799;-0.074799;1.000000
445630.53910263;5696556.54059799;471.21554996;0.713725;0.698039;0.65098;45489.000000;1.000000;1.000000;1.000000;1.000000;0.037226;-0.037226;0.037226;1.000000
445630.55300339;5696556.93199928;471.19984962;0.4;0.4;0.368627;25957.000000;1.000000;1.000000;1.000000;1.000000;-0.101999;0.101999;-0.101999;1.000000
445630.55640228;5696556.89429863;471.20194962;0.458824;0.458824;0.419608;29555.000000;1.000000;1.000000;1.000000;1.000000;-0.064344;0.064344;-0.064344;1.000000
445630.57530029;5696556.78999908;471.18984987;0.34902;0.333333;0.290196;21588.000000;1.000000;1.000000;1.000000;1.000000;0.040001;-0.040001;0.040001;1.000000
445630.61300095;5696556.79349907;471.18925001;0.470588;0.454902;0.4;29555.000000;1.000000;1.000000;1.000000;1.000000;0.036501;-0.036501;0.036501;1.000000
445630.61650284;5696556.75580032;471.18895008;0.768627;0.756863;0.701961;49344.000000;1.000000;1.000000;1.000000;1.000000;0.074200;-0.074200;0.074200;1.000000
445630.45140274;5696556.93400009;471.22794964;0.494118;0.486275;0.435294;31611.000000;1.000000;1.000000;1.000000;1.000000;-0.115601;0.115601;-0.115601;1.000000
445630.44849976;5696556.89929970;471.22034981;0.647059;0.643137;0.6;41891.000000;1.000000;1.000000;1.000000;1.000000;-0.087473;0.087473;-0.087473;1.000000
445630.52630051;5696556.86469849;471.18625023;0.619608;0.592157;0.533333;38807.000000;1.000000;1.000000;1.000000;1.000000;-0.034884;0.034884;-0.034884;1.000000
445630.42430313;5696556.67329987;471.18394997;0.596078;0.588235;0.545098;38293.000000;1.000000;1.000000;1.000000;1.000000;-0.078218;0.078218;-0.078218;1.000000
445630.28090103;5696556.48209961;471.11465027;0.47451;0.466667;0.423529;30326.000000;1.000000;1.000000;1.000000;1.000000;-0.155740;0.155740;-0.155740;1.000000
445630.61580093;5696556.88709839;471.16494991;0.596078;0.596078;0.572549;38807.000000;1.000000;1.000000;1.000000;1.000000;-0.057098;0.057098;-0.057098;1.000000
445630.56369980;5696556.94059952;471.18884995;0.607843;0.611765;0.584314;39578.000000;1.000000;1.000000;1.000000;1.000000;-0.110602;0.110602;-0.110602;1.000000
445630.60480316;5696556.75679977;471.19084980;0.498039;0.482353;0.423529;31354.000000;1.000000;1.000000;1.000000;1.000000;0.073200;-0.073200;0.073200;1.000000
445630.60850342;5696556.71919830;471.18814995;0.596078;0.580392;0.517647;37779.000000;1.000000;1.000000;1.000000;1.000000;0.110802;-0.110802;0.110802;1.000000
445630.45549973;5696556.54459961;471.15824987;0.541176;0.541176;0.498039;34952.000000;1.000000;1.000000;1.000000;1.000000;-0.046377;0.046377;-0.046377;1.000000
445630.49180038;5696556.76980026;471.18354990;0.231373;0.203922;0.172549;13621.000000;1.000000;1.000000;1.000000;1.000000;0.061037;-0.061037;0.061037;1.000000
445630.60030182;5696556.92349823;471.16925003;0.682353;0.686275;0.666667;44718.000000;1.000000;1.000000;1.000000;1.000000;-0.093498;0.093498;-0.093498;1.000000
445630.56300171;5696556.53639801;471.19564964;0.568627;0.572549;0.509804;36751.000000;1.000000;1.000000;1.000000;1.000000;0.061125;-0.061125;0.061125;1.000000
445630.38780029;5696556.61649902;471.14905025;0.670588;0.662745;0.615686;43176.000000;1.000000;1.000000;1.000000;1.000000;-0.114077;0.114077;-0.114077;1.000000
445630.28250130;5696556.47270020;471.11235001;0.478431;0.470588;0.419608;30583.000000;1.000000;1.000000;1.000000;1.000000;-0.146217;0.146217;-0.146217;1.000000
445630.44350250;5696556.86949928;471.21744968;0.611765;0.603922;0.568627;39321.000000;1.000000;1.000000;1.000000;1.000000;-0.070482;0.070482;-0.070482;1.000000
445630.44720276;5696556.83409889;471.21724989;0.568627;0.564706;0.533333;36751.000000;1.000000;1.000000;1.000000;1.000000;-0.054828;0.054828;-0.054828;1.000000
445630.44610031;5696556.79459961;471.21204998;0.733333;0.729412;0.690196;47545.000000;1.000000;1.000000;1.000000;1.000000;0.066062;-0.066062;0.066062;1.000000
445630.55920227;5696556.76359947;471.17954971;0.172549;0.14902;0.101961;9766.000000;1.000000;1.000000;1.000000;1.000000;0.066602;-0.066602;0.066602;1.000000
445630.41750153;5696556.64599808;471.17404987;0.607843;0.607843;0.568627;39321.000000;1.000000;1.000000;1.000000;1.000000;-0.084375;0.084375;-0.084375;1.000000
445630.34070023;5696556.60699852;471.13744976;0.678431;0.678431;0.635294;43947.000000;1.000000;1.000000;1.000000;1.000000;-0.161177;0.161177;-0.161177;1.000000
445630.38010223;5696556.60559853;471.14154961;0.705882;0.694118;0.647059;45232.000000;1.000000;1.000000;1.000000;1.000000;-0.121775;0.121775;-0.121775;1.000000
445630.64299973;5696556.94319923;471.14584972;0.521569;0.521569;0.486275;33924.000000;1.000000;1.000000;1.000000;1.000000;-0.113199;0.113199;-0.113199;1.000000
445630.36400040;5696556.72559937;471.17954971;0.529412;0.521569;0.47451;33924.000000;1.000000;1.000000;1.000000;1.000000;-0.151338;0.151338;-0.151338;1.000000
445630.58870132;5696556.95249947;471.17614986;0.67451;0.682353;0.654902;44204.000000;1.000000;1.000000;1.000000;1.000000;-0.122550;0.122550;-0.122550;1.000000
445630.58979996;5696556.91499908;471.17805006;0.670588;0.670588;0.647059;43690.000000;1.000000;1.000000;1.000000;1.000000;-0.085123;0.085123;-0.085123;1.000000
445630.59320267;5696556.87719925;471.18004992;0.509804;0.505882;0.470588;32896.000000;1.000000;1.000000;1.000000;1.000000;-0.047261;0.047261;-0.047261;1.000000
445630.28400238;5696556.46319969;471.10994961;0.521569;0.513725;0.466667;33410.000000;1.000000;1.000000;1.000000;1.000000;-0.136619;0.136619;-0.136619;1.000000
445630.31929977;5696556.46459969;471.10924961;0.639216;0.631373;0.580392;41120.000000;1.000000;1.000000;1.000000;1.000000;-0.134600;0.134600;-0.134600;1.000000
445630.31860168;5696556.48329933;471.11175014;0.54902;0.545098;0.498039;35209.000000;1.000000;1.000000;1.000000;1.000000;-0.153299;0.153299;-0.153299;1.000000
445630.47410019;5696556.43349846;471.13684990;0.592157;0.584314;0.537255;38036.000000;1.000000;1.000000;1.000000;1.000000;-0.027777;0.027777;-0.027777;1.000000
445630.56410034;5696556.92179878;471.19094994;0.427451;0.427451;0.4;27756.000000;1.000000;1.000000;1.000000;1.000000;-0.091799;0.091799;-0.091799;1.000000
445630.63760193;5696556.88759811;471.14954998;0.356863;0.356863;0.337255;23130.000000;1.000000;1.000000;1.000000;1.000000;-0.057598;0.057598;-0.057598;1.000000
445630.60550125;5696556.81289871;471.18914988;0.407843;0.396078;0.341176;25700.000000;1.000000;1.000000;1.000000;1.000000;0.017101;-0.017101;0.017101;1.000000
445630.60790070;5696556.73789795;471.18835022;0.266667;0.254902;0.188235;16448.000000;1.000000;1.000000;1.000000;1.000000;0.092102;-0.092102;0.092102;1.000000
445630.34610184;5696556.73429878;471.17884972;0.803922;0.8;0.752941;51914.000000;1.000000;1.000000;1.000000;1.000000;-0.171237;0.171237;-0.171237;1.000000
445630.42970093;5696556.74019821;471.20365002;0.580392;0.576471;0.52549;37265.000000;1.000000;1.000000;1.000000;1.000000;-0.105181;0.105181;-0.105181;1.000000
445630.37640198;5696556.90369995;471.22184994;0.74902;0.74902;0.698039;48573.000000;1.000000;1.000000;1.000000;1.000000;-0.145519;0.145519;-0.145519;1.000000
445630.48019989;5696556.45369919;471.14895012;0.537255;0.52549;0.482353;34181.000000;1.000000;1.000000;1.000000;1.000000;-0.021677;0.021677;-0.021677;1.000000
445630.39340027;5696556.69019897;471.17814972;0.533333;0.52549;0.478431;34181.000000;1.000000;1.000000;1.000000;1.000000;-0.111794;0.111794;-0.111794;1.000000
445630.56270035;5696556.93129929;471.19094994;0.529412;0.529412;0.505882;34438.000000;1.000000;1.000000;1.000000;1.000000;-0.101313;0.101313;-0.101313;1.000000
445630.60390289;5696556.82009895;471.18685009;0.411765;0.4;0.34902;25957.000000;1.000000;1.000000;1.000000;1.000000;0.009901;-0.009901;0.009901;1.000000
445630.55610092;5696556.78019913;471.17954971;0.133333;0.109804;0.0705882;7196.000000;1.000000;1.000000;1.000000;1.000000;0.049847;-0.049847;0.049847;1.000000
445630.50890167;5696556.41589935;471.15914967;0.564706;0.560784;0.521569;36494.000000;1.000000;1.000000;1.000000;1.000000;0.007025;-0.007025;0.007025;1.000000
445630.39420135;5696556.70170029;471.18524982;0.560784;0.552941;0.501961;35980.000000;1.000000;1.000000;1.000000;1.000000;-0.114314;0.114314;-0.114314;1.000000
445630.47220047;5696556.55449875;471.17304995;0.572549;0.572549;0.529412;37008.000000;1.000000;1.000000;1.000000;1.000000;-0.029676;0.029676;-0.029676;1.000000
445630.54390152;5696556.66939934;471.16834976;0.45098;0.427451;0.360784;27756.000000;1.000000;1.000000;1.000000;1.000000;0.042514;-0.042514;0.042514;1.000000
445630.53910263;5696556.74459847;471.17135002;0.14902;0.129412;0.0823529;8481.000000;1.000000;1.000000;1.000000;1.000000;0.085402;-0.085402;0.085402;1.000000
445630.60960205;5696556.89689835;471.16704990;0.65098;0.654902;0.631373;42662.000000;1.000000;1.000000;1.000000;1.000000;-0.066898;0.066898;-0.066898;1.000000
445630.35900314;5696556.40969856;471.09874966;0.678431;0.666667;0.619608;43433.000000;1.000000;1.000000;1.000000;1.000000;0.079699;-0.079699;0.079699;1.000000
445630.33680161;5696556.93069847;471.22265007;0.560784;0.556863;0.505882;35980.000000;1.000000;1.000000;1.000000;1.000000;-0.193365;0.193365;-0.193365;1.000000
445630.49880035;5696556.61959847;471.18435003;0.258824;0.243137;0.203922;15934.000000;1.000000;1.000000;1.000000;1.000000;-0.003077;0.003077;-0.003077;1.000000
445630.61790283;5696556.90569885;471.15824987;0.533333;0.537255;0.517647;34952.000000;1.000000;1.000000;1.000000;1.000000;-0.075713;0.075713;-0.075713;1.000000
445630.60310181;5696556.85769852;471.17794992;0.603922;0.6;0.564706;39064.000000;1.000000;1.000000;1.000000;1.000000;-0.027699;0.027699;-0.027699;1.000000
445630.47210129;5696556.61039932;471.18774988;0.411765;0.403922;0.356863;26214.000000;1.000000;1.000000;1.000000;1.000000;-0.029776;0.029776;-0.029776;1.000000
445630.39360245;5696556.48569878;471.11284973;0.654902;0.643137;0.596078;41891.000000;1.000000;1.000000;1.000000;1.000000;-0.108274;0.108274;-0.108274;1.000000
445630.24590118;5696556.48079880;471.11074974;0.494118;0.482353;0.435294;31354.000000;1.000000;1.000000;1.000000;1.000000;-0.165618;0.165618;-0.165618;1.000000
445630.17170151;5696556.43849953;471.11385014;0.772549;0.772549;0.72549;50115.000000;1.000000;1.000000;1.000000;1.000000;-0.179244;0.179244;-0.179244;1.000000
445630.53450211;5696556.85449799;471.19115021;0.576471;0.545098;0.494118;35723.000000;1.000000;1.000000;1.000000;1.000000;-0.024498;0.024498;-0.024498;1.000000
445630.43470200;5696556.56999977;471.15294983;0.67451;0.662745;0.615686;43176.000000;1.000000;1.000000;1.000000;1.000000;-0.067175;0.067175;-0.067175;1.000000
445630.36250122;5696556.53059967;471.11665012;0.682353;0.670588;0.619608;43690.000000;1.000000;1.000000;1.000000;1.000000;-0.139376;0.139376;-0.139376;1.000000
445630.44260223;5696556.46010025;471.11245014;0.576471;0.564706;0.517647;36751.000000;1.000000;1.000000;1.000000;1.000000;-0.059275;0.059275;-0.059275;1.000000
445630.35799988;5696556.87749870;471.21134998;0.752941;0.756863;0.717647;49087.000000;1.000000;1.000000;1.000000;1.000000;-0.151515;0.151515;-0.151515;1.000000
445630.38410004;5696556.91229828;471.22464993;0.462745;0.454902;0.403922;29555.000000;1.000000;1.000000;1.000000;1.000000;-0.143682;0.143682;-0.143682;1.000000
445630.55210312;5696556.44709976;471.14744999;0.388235;0.380392;0.341176;24672.000000;1.000000;1.000000;1.000000;1.000000;0.050226;-0.050226;0.050226;1.000000
445630.55780228;5696556.77309998;471.17954971;0.145098;0.117647;0.0784314;7710.000000;1.000000;1.000000;1.000000;1.000000;0.057030;-0.057030;0.057030;1.000000
445630.37430008;5696556.73859985;471.18485023;0.52549;0.513725;0.466667;33410.000000;1.000000;1.000000;1.000000;1.000000;-0.148135;0.148135;-0.148135;1.000000
445630.41250046;5696556.69989975;471.19074966;0.596078;0.584314;0.545098;38036.000000;1.000000;1.000000;1.000000;1.000000;-0.096534;0.096534;-0.096534;1.000000
445630.48230179;5696556.42549904;471.14634993;0.584314;0.580392;0.537255;37779.000000;1.000000;1.000000;1.000000;1.000000;-0.019575;0.019575;-0.019575;1.000000
445630.59360321;5696556.62509926;471.16774990;0.623529;0.619608;0.564706;40092.000000;1.000000;1.000000;1.000000;1.000000;0.091726;-0.091726;0.091726;1.000000
445630.48830231;5696556.85429962;471.17735006;0.607843;0.568627;0.517647;37522.000000;1.000000;1.000000;1.000000;1.000000;-0.027834;0.027834;-0.027834;1.000000
445630.53690155;5696556.85649879;471.19354965;0.662745;0.635294;0.588235;41634.000000;1.000000;1.000000;1.000000;1.000000;-0.026499;0.026499;-0.026499;1.000000
445630.42010315;5696556.98099907;471.24335005;0.529412;0.529412;0.490196;34181.000000;1.000000;1.000000;1.000000;1.000000;-0.171720;0.171720;-0.171720;1.000000
445630.54570206;5696556.48939903;471.17094995;0.470588;0.45098;0.392157;29298.000000;1.000000;1.000000;1.000000;1.000000;0.043825;-0.043825;0.043825;1.000000
445630.42140015;5696556.94359978;471.24064972;0.737255;0.737255;0.698039;47802.000000;1.000000;1.000000;1.000000;1.000000;-0.139217;0.139217;-0.139217;1.000000
445630.35010345;5696556.86659821;471.20855000;0.666667;0.662745;0.627451;43176.000000;1.000000;1.000000;1.000000;1.000000;-0.156124;0.156124;-0.156124;1.000000
445630.41209991;5696556.97009857;471.24284985;0.74902;0.741176;0.705882;48316.000000;1.000000;1.000000;1.000000;1.000000;-0.166396;0.166396;-0.166396;1.000000
445630.52410324;5696556.90189941;471.20754959;0.898039;0.882353;0.835294;57568.000000;1.000000;1.000000;1.000000;1.000000;-0.071912;0.071912;-0.071912;1.000000
445630.34210022;5696556.85569962;471.20805027;0.607843;0.603922;0.576471;39321.000000;1.000000;1.000000;1.000000;1.000000;-0.161830;0.161830;-0.161830;1.000000
445630.45730026;5696556.78660019;471.20774986;0.662745;0.654902;0.627451;42662.000000;1.000000;1.000000;1.000000;1.000000;0.062214;-0.062214;0.062214;1.000000
445630.39060028;5696556.56049927;471.12754967;0.454902;0.447059;0.4;29041.000000;1.000000;1.000000;1.000000;1.000000;-0.111277;0.111277;-0.111277;1.000000
445630.32390030;5696556.40829857;471.09714987;0.584314;0.572549;0.521569;37265.000000;1.000000;1.000000;1.000000;1.000000;-0.078299;0.078299;-0.078299;1.000000
445630.38610275;5696556.68400009;471.17304995;0.556863;0.545098;0.498039;35466.000000;1.000000;1.000000;1.000000;1.000000;-0.117652;0.117652;-0.117652;1.000000
445630.53569992;5696556.90079887;471.20805027;0.741176;0.729412;0.690196;47545.000000;1.000000;1.000000;1.000000;1.000000;-0.070799;0.070799;-0.070799;1.000000
445630.59970291;5696556.94219978;471.16945030;0.596078;0.603922;0.580392;39064.000000;1.000000;1.000000;1.000000;1.000000;-0.112200;0.112200;-0.112200;1.000000
445630.50630005;5696556.91279800;471.21155025;0.823529;0.807843;0.756863;52685.000000;1.000000;1.000000;1.000000;1.000000;-0.082798;0.082798;-0.082798;1.000000
445630.59210022;5696556.63459976;471.16785004;0.596078;0.596078;0.533333;38550.000000;1.000000;1.000000;1.000000;1.000000;0.090223;-0.090223;0.090223;1.000000
445630.54290207;5696556.52639969;471.20624973;0.584314;0.572549;0.533333;37265.000000;1.000000;1.000000;1.000000;1.000000;0.041025;-0.041025;0.041025;1.000000
445630.53059967;5696556.78039940;471.17374994;0.419608;0.384314;0.345098;25443.000000;1.000000;1.000000;1.000000;1.000000;0.049665;-0.049665;0.049665;1.000000
445630.49400146;5696556.74159821;471.18094971;0.403922;0.384314;0.337255;25186.000000;1.000000;1.000000;1.000000;1.000000;-0.078758;0.078758;-0.078758;1.000000
445630.50240143;5696556.63099869;471.18004992;0.321569;0.305882;0.254902;19789.000000;1.000000;1.000000;1.000000;1.000000;0.000525;-0.000525;0.000525;1.000000
445630.47270020;5696556.44289978;471.13684990;0.627451;0.623529;0.576471;40349.000000;1.000000;1.000000;1.000000;1.000000;-0.029177;0.029177;-0.029177;1.000000
445630.61150177;5696556.61649902;471.16614964;0.596078;0.592157;0.545098;38293.000000;1.000000;1.000000;1.000000;1.000000;0.109625;-0.109625;0.109625;1.000000
445630.46320160;5696556.79780014;471.20354988;0.458824;0.447059;0.411765;29041.000000;1.000000;1.000000;1.000000;1.000000;0.050325;-0.050325;0.050325;1.000000
445630.58090027;5696556.87589844;471.19115021;0.458824;0.454902;0.411765;29555.000000;1.000000;1.000000;1.000000;1.000000;-0.045898;0.045898;-0.045898;1.000000
445630.58310135;5696556.53959854;471.17094995;0.639216;0.631373;0.576471;41120.000000;1.000000;1.000000;1.000000;1.000000;0.081224;-0.081224;0.081224;1.000000
445630.62230118;5696556.87949951;471.16045000;0.529412;0.533333;0.509804;34695.000000;1.000000;1.000000;1.000000;1.000000;-0.049711;0.049711;-0.049711;1.000000
445630.47680099;5696556.58429916;471.18295004;0.760784;0.752941;0.713725;49087.000000;1.000000;1.000000;1.000000;1.000000;-0.025076;0.025076;-0.025076;1.000000
445630.32000168;5696556.49949844;471.11434986;0.533333;0.517647;0.466667;33667.000000;1.000000;1.000000;1.000000;1.000000;-0.169498;0.169498;-0.169498;1.000000
445630.53640182;5696556.63970001;471.17005016;0.529412;0.521569;0.466667;33924.000000;1.000000;1.000000;1.000000;1.000000;0.034525;-0.034525;0.034525;1.000000
445630.41310318;5696556.49559982;471.11385014;0.701961;0.694118;0.643137;45232.000000;1.000000;1.000000;1.000000;1.000000;-0.088774;0.088774;-0.088774;1.000000
445630.58180054;5696556.45629890;471.13025000;0.360784;0.345098;0.305882;22616.000000;1.000000;1.000000;1.000000;1.000000;0.079924;-0.079924;0.079924;1.000000
445630.33110245;5696556.89159973;471.21495010;0.643137;0.639216;0.596078;41634.000000;1.000000;1.000000;1.000000;1.000000;-0.181545;0.181545;-0.181545;1.000000
445630.33780106;5696556.74449928;471.17625000;0.768627;0.764706;0.717647;49601.000000;1.000000;1.000000;1.000000;1.000000;-0.183139;0.183139;-0.183139;1.000000
445630.51160248;5696556.55769928;471.18654968;0.392157;0.396078;0.345098;25443.000000;1.000000;1.000000;1.000000;1.000000;0.009726;-0.009726;0.009726;1.000000
445630.40750320;5696556.83319862;471.21544983;0.560784;0.556863;0.517647;36237.000000;1.000000;1.000000;1.000000;1.000000;-0.094428;0.094428;-0.094428;1.000000
445630.31850250;5696556.70679863;471.16334965;0.717647;0.709804;0.670588;46260.000000;1.000000;1.000000;1.000000;1.000000;-0.188561;0.188561;-0.188561;1.000000
445630.43869980;5696556.59279831;471.16505005;0.647059;0.639216;0.607843;41634.000000;1.000000;1.000000;1.000000;1.000000;-0.063177;0.063177;-0.063177;1.000000
445630.43740280;5696556.77669914;471.21374990;0.478431;0.470588;0.431373;30583.000000;1.000000;1.000000;1.000000;1.000000;0.083653;-0.083653;0.083653;1.000000
445630.25650223;5696556.41449936;471.10115005;0.486275;0.466667;0.403922;30326.000000;1.000000;1.000000;1.000000;1.000000;-0.102419;0.102419;-0.102419;1.000000
445630.51550110;5696556.91199883;471.21194984;0.882353;0.870588;0.819608;56797.000000;1.000000;1.000000;1.000000;1.000000;-0.081999;0.081999;-0.081999;1.000000
445630.52050217;5696556.79759796;471.17584993;0.54902;0.505882;0.454902;33410.000000;1.000000;1.000000;1.000000;1.000000;0.032402;-0.032402;0.032402;1.000000
445630.51110275;5696556.79849823;471.17775013;0.454902;0.411765;0.372549;27499.000000;1.000000;1.000000;1.000000;1.000000;0.031502;-0.031502;0.031502;1.000000
445630.31990250;5696556.66929825;471.15824987;0.713725;0.709804;0.67451;46260.000000;1.000000;1.000000;1.000000;1.000000;-0.182092;0.182092;-0.182092;1.000000
445630.58400162;5696556.41149910;471.14384987;0.356863;0.337255;0.286275;22102.000000;1.000000;1.000000;1.000000;1.000000;0.081499;-0.081499;0.081499;1.000000
445630.37570007;5696556.49439819;471.11214973;0.545098;0.529412;0.470588;34438.000000;1.000000;1.000000;1.000000;1.000000;-0.126177;0.126177;-0.126177;1.000000
445630.19130142;5696556.44839867;471.11485006;0.709804;0.709804;0.666667;46003.000000;1.000000;1.000000;1.000000;1.000000;-0.170780;0.170780;-0.170780;1.000000
445630.36470230;5696556.73489960;471.18205025;0.537255;0.52549;0.482353;34181.000000;1.000000;1.000000;1.000000;1.000000;-0.154757;0.154757;-0.154757;1.000000
445630.36639984;5696556.69979866;471.17474987;0.686275;0.678431;0.631373;44204.000000;1.000000;1.000000;1.000000;1.000000;-0.140359;0.140359;-0.140359;1.000000
445630.46080215;5696556.61149796;471.18024971;0.466667;0.466667;0.419608;30069.000000;1.000000;1.000000;1.000000;1.000000;-0.041075;0.041075;-0.041075;1.000000
445630.46680267;5696556.57369812;471.17544987;0.580392;0.576471;0.537255;37522.000000;1.000000;1.000000;1.000000;1.000000;-0.035074;0.035074;-0.035074;1.000000
445630.50590332;5696556.46499832;471.17355015;0.701961;0.698039;0.666667;45489.000000;1.000000;1.000000;1.000000;1.000000;0.004026;-0.004026;0.004026;1.000000
445630.43260010;5696556.42379959;471.10454990;0.745098;0.733333;0.690196;47802.000000;1.000000;1.000000;1.000000;1.000000;-0.069277;0.069277;-0.069277;1.000000
445630.28450211;5696556.41649826;471.10704996;0.623529;0.607843;0.54902;39578.000000;1.000000;1.000000;1.000000;1.000000;-0.091512;0.091512;-0.091512;1.000000
445630.54610260;5696556.79979904;471.18164970;0.207843;0.176471;0.12549;11565.000000;1.000000;1.000000;1.000000;1.000000;0.030201;-0.030201;0.030201;1.000000
445630.37310226;5696556.97839935;471.24354984;0.647059;0.643137;0.596078;41634.000000;1.000000;1.000000;1.000000;1.000000;-0.196482;0.196482;-0.196482;1.000000
445630.31160172;5696556.65159805;471.14835026;0.6;0.596078;0.560784;38807.000000;1.000000;1.000000;1.000000;1.000000;-0.190275;0.190275;-0.190275;1.000000
445630.35390289;5696556.53839882;471.11634972;0.654902;0.647059;0.6;42148.000000;1.000000;1.000000;1.000000;1.000000;-0.147974;0.147974;-0.147974;1.000000
445630.39290054;5696556.50440033;471.11535027;0.65098;0.639216;0.588235;41634.000000;1.000000;1.000000;1.000000;1.000000;-0.108976;0.108976;-0.108976;1.000000
445630.35560043;5696556.50329979;471.10895016;0.482353;0.462745;0.4;30069.000000;1.000000;1.000000;1.000000;1.000000;-0.146276;0.146276;-0.146276;1.000000
445630.57620056;5696556.51229866;471.16334965;0.592157;0.580392;0.533333;37779.000000;1.000000;1.000000;1.000000;1.000000;0.074324;-0.074324;0.074324;1.000000
445630.32900055;5696556.92209824;471.22225000;0.584314;0.584314;0.537255;37779.000000;1.000000;1.000000;1.000000;1.000000;-0.195878;0.195878;-0.195878;1.000000
445630.60799988;5696556.90409859;471.16704990;0.654902;0.658824;0.639216;42919.000000;1.000000;1.000000;1.000000;1.000000;-0.074099;0.074099;-0.074099;1.000000
445630.54340179;5696556.63909920;471.16804983;0.501961;0.498039;0.454902;32382.000000;1.000000;1.000000;1.000000;1.000000;0.041525;-0.041525;0.041525;1.000000
445630.59119995;5696556.45769890;471.13075020;0.341176;0.321569;0.282353;21074.000000;1.000000;1.000000;1.000000;1.000000;0.089323;-0.089323;0.089323;1.000000
445630.40710266;5696556.77489861;471.20774986;0.533333;0.521569;0.466667;33924.000000;1.000000;1.000000;1.000000;1.000000;0.109628;-0.109628;0.109628;1.000000
445630.37740143;5696556.66160019;471.16305019;0.541176;0.533333;0.490196;34695.000000;1.000000;1.000000;1.000000;1.000000;-0.124475;0.124475;-0.124475;1.000000
445630.35780151;5696556.84729965;471.20634987;0.733333;0.733333;0.694118;47545.000000;1.000000;1.000000;1.000000;1.000000;-0.145110;0.145110;-0.145110;1.000000
445630.32780273;5696556.73379906;471.16874983;0.682353;0.678431;0.631373;43947.000000;1.000000;1.000000;1.000000;1.000000;-0.187925;0.187925;-0.187925;1.000000
445630.46020325;5696556.68609818;471.19275000;0.576471;0.576471;0.533333;37265.000000;1.000000;1.000000;1.000000;1.000000;-0.047426;0.047426;-0.047426;1.000000
445630.42620285;5696556.60799988;471.16235020;0.658824;0.647059;0.6;42148.000000;1.000000;1.000000;1.000000;1.000000;-0.075674;0.075674;-0.075674;1.000000
445630.37940033;5696556.82889946;471.20715000;0.498039;0.486275;0.447059;31611.000000;1.000000;1.000000;1.000000;1.000000;0.122482;-0.122482;0.122482;1.000000
445630.44970139;5696556.72899826;471.20445015;0.654902;0.65098;0.611765;42405.000000;1.000000;1.000000;1.000000;1.000000;-0.083582;0.083582;-0.083582;1.000000
445630.45530136;5696556.60039909;471.17524960;0.513725;0.505882;0.466667;32896.000000;1.000000;1.000000;1.000000;1.000000;-0.046576;0.046576;-0.046576;1.000000
445630.56040009;5696556.49510010;471.16704990;0.470588;0.454902;0.407843;29555.000000;1.000000;1.000000;1.000000;1.000000;0.058523;-0.058523;0.058523;1.000000
445630.55760010;5696556.52989967;471.19764997;0.796078;0.8;0.741176;51914.000000;1.000000;1.000000;1.000000;1.000000;0.055723;-0.055723;0.055723;1.000000
445630.39460190;5696556.46929939;471.10804989;0.709804;0.698039;0.65098;45489.000000;1.000000;1.000000;1.000000;1.000000;-0.107275;0.107275;-0.107275;1.000000
445630.20860107;5696556.45849808;471.11344959;0.423529;0.419608;0.372549;26985.000000;1.000000;1.000000;1.000000;1.000000;-0.166434;0.166434;-0.166434;1.000000
445630.38599976;5696556.68169983;471.17075016;0.576471;0.564706;0.513725;36751.000000;1.000000;1.000000;1.000000;1.000000;-0.117373;0.117373;-0.117373;1.000000
445630.54930313;5696556.78089912;471.17695000;0.145098;0.117647;0.0823529;7967.000000;1.000000;1.000000;1.000000;1.000000;0.049101;-0.049101;0.049101;1.000000
445630.58540161;5696556.80060013;471.19514992;0.776471;0.760784;0.717647;49601.000000;1.000000;1.000000;1.000000;1.000000;0.029400;-0.029400;0.029400;1.000000
445630.44350250;5696556.65509995;471.18695023;0.54902;0.54902;0.509804;35466.000000;1.000000;1.000000;1.000000;1.000000;-0.058374;0.058374;-0.058374;1.000000
445630.47990234;5696556.61899956;471.18814995;0.517647;0.513725;0.462745;33153.000000;1.000000;1.000000;1.000000;1.000000;-0.021975;0.021975;-0.021975;1.000000
445630.48140152;5696556.58379944;471.18555023;0.792157;0.788235;0.74902;51400.000000;1.000000;1.000000;1.000000;1.000000;-0.020475;0.020475;-0.020475;1.000000
445630.55040176;5696556.74339874;471.17654993;0.184314;0.160784;0.117647;10537.000000;1.000000;1.000000;1.000000;1.000000;0.086601;-0.086601;0.086601;1.000000
445630.53190048;5696556.55329903;471.19444992;0.4;0.392157;0.34902;25443.000000;1.000000;1.000000;1.000000;1.000000;0.030024;-0.030024;0.030024;1.000000
445630.54750259;5696556.54939850;471.20435001;0.713725;0.701961;0.647059;45746.000000;1.000000;1.000000;1.000000;1.000000;0.045626;-0.045626;0.045626;1.000000
445630.55910309;5696556.56269844;471.17945005;0.658824;0.65098;0.603922;42405.000000;1.000000;1.000000;1.000000;1.000000;0.057226;-0.057226;0.057226;1.000000
445630.45030029;5696556.46869858;471.11514999;0.780392;0.772549;0.721569;50372.000000;1.000000;1.000000;1.000000;1.000000;-0.051577;0.051577;-0.051577;1.000000
445630.46230133;5696556.62999924;471.18514969;0.556863;0.552941;0.513725;35980.000000;1.000000;1.000000;1.000000;1.000000;-0.039576;0.039576;-0.039576;1.000000
445630.27300079;5696556.44330032;471.10685017;0.529412;0.521569;0.462745;33667.000000;1.000000;1.000000;1.000000;1.000000;-0.120619;0.120619;-0.120619;1.000000
445630.46150024;5696556.46979912;471.12964966;0.6;0.592157;0.545098;38550.000000;1.000000;1.000000;1.000000;1.000000;-0.040377;0.040377;-0.040377;1.000000
445630.51950272;5696556.52849968;471.20984985;0.662745;0.654902;0.627451;42662.000000;1.000000;1.000000;1.000000;1.000000;0.017626;-0.017626;0.017626;1.000000
445630.48930176;5696556.81679924;471.18164970;0.34902;0.305882;0.270588;20560.000000;1.000000;1.000000;1.000000;1.000000;0.018232;-0.018232;0.018232;1.000000
445630.39700134;5696556.61559875;471.15175011;0.67451;0.662745;0.615686;43176.000000;1.000000;1.000000;1.000000;1.000000;-0.104876;0.104876;-0.104876;1.000000
445630.56789978;5696556.78369911;471.18485023;0.172549;0.152941;0.117647;10023.000000;1.000000;1.000000;1.000000;1.000000;0.046301;-0.046301;0.046301;1.000000
445630.57970245;5696556.73589905;471.18704988;0.4;0.392157;0.329412;25186.000000;1.000000;1.000000;1.000000;1.000000;0.094101;-0.094101;0.094101;1.000000
445630.40279968;5696556.91509827;471.23014977;0.545098;0.537255;0.490196;34952.000000;1.000000;1.000000;1.000000;1.000000;-0.130606;0.130606;-0.130606;1.000000
445630.42450150;5696556.89679916;471.22854998;0.705882;0.701961;0.666667;45746.000000;1.000000;1.000000;1.000000;1.000000;-0.102221;0.102221;-0.102221;1.000000
445630.45560272;5696556.47979935;471.12484982;0.627451;0.619608;0.572549;40349.000000;1.000000;1.000000;1.000000;1.000000;-0.046274;0.046274;-0.046274;1.000000
445630.38470276;5696556.69800003;471.18015005;0.580392;0.572549;0.521569;37265.000000;1.000000;1.000000;1.000000;1.000000;-0.122230;0.122230;-0.122230;1.000000
445630.38890274;5696556.40229996;471.09534981;0.572549;0.560784;0.517647;36494.000000;1.000000;1.000000;1.000000;1.000000;0.072300;-0.072300;0.072300;1.000000
445630.60770233;5696556.70989807;471.18575003;0.572549;0.560784;0.494118;36494.000000;1.000000;1.000000;1.000000;1.000000;0.115621;-0.115621;0.115621;1.000000
445630.49730118;5696556.44259842;471.16124966;0.72549;0.717647;0.682353;46774.000000;1.000000;1.000000;1.000000;1.000000;-0.004576;0.004576;-0.004576;1.000000
445630.35630234;5696556.48459824;471.10644962;0.662745;0.639216;0.580392;41891.000000;1.000000;1.000000;1.000000;1.000000;-0.145575;0.145575;-0.145575;1.000000
445630.55040176;5696556.48670013;471.16414978;0.403922;0.392157;0.341176;25443.000000;1.000000;1.000000;1.000000;1.000000;0.048525;-0.048525;0.048525;1.000000
445630.55529984;5696556.85699852;471.20144989;0.847059;0.831373;0.784314;54227.000000;1.000000;1.000000;1.000000;1.000000;-0.027031;0.027031;-0.027031;1.000000
445630.49890335;5696556.69439896;471.18065025;0.333333;0.32549;0.270588;21074.000000;1.000000;1.000000;1.000000;1.000000;-0.031321;0.031321;-0.031321;1.000000
445630.35070236;5696556.61539848;471.14034988;0.631373;0.623529;0.580392;40606.000000;1.000000;1.000000;1.000000;1.000000;-0.151175;0.151175;-0.151175;1.000000
445630.32850082;5696556.74309929;471.17114975;0.670588;0.662745;0.615686;43176.000000;1.000000;1.000000;1.000000;1.000000;-0.190968;0.190968;-0.190968;1.000000
445630.60460098;5696556.56799896;471.16754963;0.698039;0.686275;0.639216;44718.000000;1.000000;1.000000;1.000000;1.000000;0.102724;-0.102724;0.102724;1.000000
445630.42280014;5696556.65479858;471.17904999;0.615686;0.607843;0.564706;39578.000000;1.000000;1.000000;1.000000;1.000000;-0.079077;0.079077;-0.079077;1.000000
445630.46050079;5696556.63709839;471.18755009;0.576471;0.572549;0.533333;37265.000000;1.000000;1.000000;1.000000;1.000000;-0.041376;0.041376;-0.041376;1.000000
445630.60270126;5696556.83189972;471.18695023;0.478431;0.470588;0.427451;30583.000000;1.000000;1.000000;1.000000;1.000000;-0.001900;0.001900;-0.001900;1.000000
445630.49120148;5696556.78849991;471.18374969;0.184314;0.152941;0.113725;10280.000000;1.000000;1.000000;1.000000;1.000000;0.042851;-0.042851;0.042851;1.000000
445630.56610306;5696556.79089935;471.18715002;0.219608;0.2;0.156863;13107.000000;1.000000;1.000000;1.000000;1.000000;0.039101;-0.039101;0.039101;1.000000
445630.49839981;5696556.64069946;471.18464996;0.337255;0.329412;0.286275;21331.000000;1.000000;1.000000;1.000000;1.000000;-0.003477;0.003477;-0.003477;1.000000
445630.31560333;5696556.61399849;471.13874962;0.823529;0.823529;0.784314;53456.000000;1.000000;1.000000;1.000000;1.000000;-0.186274;0.186274;-0.186274;1.000000
445630.31850250;5696556.51129921;471.11905005;0.541176;0.52549;0.47451;34181.000000;1.000000;1.000000;1.000000;1.000000;-0.181299;0.181299;-0.181299;1.000000
445630.51510056;5696556.71399887;471.17464973;0.517647;0.498039;0.443137;32382.000000;1.000000;1.000000;1.000000;1.000000;0.052586;-0.052586;0.052586;1.000000
445630.45140274;5696556.66599854;471.18975021;0.521569;0.521569;0.478431;33667.000000;1.000000;1.000000;1.000000;1.000000;-0.050541;0.050541;-0.050541;1.000000
445630.33990295;5696556.88379868;471.21295025;0.670588;0.670588;0.623529;43433.000000;1.000000;1.000000;1.000000;1.000000;-0.170675;0.170675;-0.170675;1.000000
445630.47000320;5696556.63859947;471.18794968;0.760784;0.760784;0.72549;49601.000000;1.000000;1.000000;1.000000;1.000000;-0.031874;0.031874;-0.031874;1.000000
445630.54040344;5696556.52429970;471.20604994;0.588235;0.584314;0.541176;38036.000000;1.000000;1.000000;1.000000;1.000000;0.038527;-0.038527;0.038527;1.000000
445630.49630173;5696556.93689926;471.22295000;0.85098;0.847059;0.803922;55255.000000;1.000000;1.000000;1.000000;1.000000;-0.107045;0.107045;-0.107045;1.000000
445630.55770309;5696556.82889946;471.19414999;0.666667;0.65098;0.603922;42405.000000;1.000000;1.000000;1.000000;1.000000;0.003892;-0.003892;0.003892;1.000000
445630.60980042;5696556.83129890;471.18265011;0.490196;0.486275;0.439216;31354.000000;1.000000;1.000000;1.000000;1.000000;-0.001299;0.001299;-0.001299;1.000000
445630.61550339;5696556.71859940;471.18615009;0.498039;0.486275;0.419608;31611.000000;1.000000;1.000000;1.000000;1.000000;0.111401;-0.111401;0.111401;1.000000
445630.33049973;5696556.91259964;471.22214987;0.627451;0.623529;0.576471;40349.000000;1.000000;1.000000;1.000000;1.000000;-0.190244;0.190244;-0.190244;1.000000
445630.43220337;5696556.68419846;471.18685009;0.552941;0.54902;0.498039;35466.000000;1.000000;1.000000;1.000000;1.000000;-0.072728;0.072728;-0.072728;1.000000
445630.59290131;5696556.64379890;471.17024996;0.513725;0.505882;0.443137;32639.000000;1.000000;1.000000;1.000000;1.000000;0.091024;-0.091024;0.091024;1.000000
445630.39680298;5696556.64349945;471.16144993;0.545098;0.537255;0.490196;34952.000000;1.000000;1.000000;1.000000;1.000000;-0.105074;0.105074;-0.105074;1.000000
445630.43029984;5696556.74709900;471.20604994;0.509804;0.501961;0.462745;32639.000000;1.000000;1.000000;1.000000;1.000000;0.109526;-0.109526;0.109526;1.000000
445630.57580002;5696556.54239853;471.18225004;0.505882;0.494118;0.447059;32125.000000;1.000000;1.000000;1.000000;1.000000;0.073923;-0.073923;0.073923;1.000000
445630.54750259;5696556.63399895;471.17044975;0.435294;0.431373;0.396078;28013.000000;1.000000;1.000000;1.000000;1.000000;0.045626;-0.045626;0.045626;1.000000
445630.45810135;5696556.51659973;471.14634993;0.52549;0.52549;0.478431;33924.000000;1.000000;1.000000;1.000000;1.000000;-0.043776;0.043776;-0.043776;1.000000
445630.45790298;5696556.98229797;471.23574974;0.552941;0.54902;0.505882;35723.000000;1.000000;1.000000;1.000000;1.000000;-0.158519;0.158519;-0.158519;1.000000
445630.46800049;5696556.79739960;471.19904997;0.290196;0.282353;0.247059;18247.000000;1.000000;1.000000;1.000000;1.000000;0.047015;-0.047015;0.047015;1.000000
445630.46920212;5696556.76000031;471.19864990;0.470588;0.462745;0.423529;30069.000000;1.000000;1.000000;1.000000;1.000000;0.077250;-0.077250;0.077250;1.000000
445630.35990341;5696556.64469917;471.15275003;0.686275;0.678431;0.635294;44204.000000;1.000000;1.000000;1.000000;1.000000;-0.141973;0.141973;-0.141973;1.000000
445630.36330231;5696556.56779869;471.12404968;0.843137;0.835294;0.796078;54484.000000;1.000000;1.000000;1.000000;1.000000;-0.138575;0.138575;-0.138575;1.000000
445630.29110153;5696556.49279984;471.11754992;0.658824;0.647059;0.611765;42148.000000;1.000000;1.000000;1.000000;1.000000;-0.164455;0.164455;-0.164455;1.000000
445630.32970245;5696556.90109833;471.21505024;0.611765;0.611765;0.560784;39578.000000;1.000000;1.000000;1.000000;1.000000;-0.186277;0.186277;-0.186277;1.000000
445630.62210281;5696556.92399796;471.15395023;0.372549;0.380392;0.352941;24415.000000;1.000000;1.000000;1.000000;1.000000;-0.094119;0.094119;-0.094119;1.000000
445630.49760254;5696556.48189934;471.18505003;0.701961;0.701961;0.666667;45746.000000;1.000000;1.000000;1.000000;1.000000;-0.004274;0.004274;-0.004274;1.000000
445630.42860229;5696556.97089966;471.24125006;0.517647;0.513725;0.470588;33410.000000;1.000000;1.000000;1.000000;1.000000;-0.158814;0.158814;-0.158814;1.000000
445630.58340271;5696556.64239891;471.16984989;0.560784;0.54902;0.478431;35466.000000;1.000000;1.000000;1.000000;1.000000;0.081526;-0.081526;0.081526;1.000000
445630.45250137;5696556.88970001;471.21575024;0.678431;0.670588;0.623529;43690.000000;1.000000;1.000000;1.000000;1.000000;-0.077473;0.077473;-0.077473;1.000000
445630.51390274;5696556.67679985;471.17415001;0.321569;0.309804;0.258824;20046.000000;1.000000;1.000000;1.000000;1.000000;0.018240;-0.018240;0.018240;1.000000
445630.44740112;5696556.52459915;471.14135029;0.521569;0.517647;0.47451;33667.000000;1.000000;1.000000;1.000000;1.000000;-0.054476;0.054476;-0.054476;1.000000
445630.58609970;5696556.59770020;471.17174961;0.654902;0.643137;0.592157;41891.000000;1.000000;1.000000;1.000000;1.000000;0.084223;-0.084223;0.084223;1.000000
445630.33760269;5696556.93989952;471.22514965;0.572549;0.568627;0.509804;36751.000000;1.000000;1.000000;1.000000;1.000000;-0.197646;0.197646;-0.197646;1.000000
445630.30380066;5696556.64069946;471.14325001;0.67451;0.670588;0.627451;43690.000000;1.000000;1.000000;1.000000;1.000000;-0.198076;0.198076;-0.198076;1.000000
445630.59930237;5696556.66189964;471.16844990;0.403922;0.392157;0.329412;25443.000000;1.000000;1.000000;1.000000;1.000000;0.097425;-0.097425;0.097425;1.000000
445630.60070236;5696556.62679871;471.16814997;0.611765;0.611765;0.564706;39578.000000;1.000000;1.000000;1.000000;1.000000;0.098825;-0.098825;0.098825;1.000000
445630.30520065;5696556.60330017;471.13814976;0.678431;0.67451;0.635294;43947.000000;1.000000;1.000000;1.000000;1.000000;-0.196676;0.196676;-0.196676;1.000000
445630.61160095;5696556.91549881;471.16274979;0.47451;0.478431;0.458824;31097.000000;1.000000;1.000000;1.000000;1.000000;-0.085499;0.085499;-0.085499;1.000000
445630.38170059;5696556.74489983;471.18995001;0.568627;0.564706;0.513725;36494.000000;1.000000;1.000000;1.000000;1.000000;-0.145197;0.145197;-0.145197;1.000000
445630.38560303;5696556.70949944;471.18505003;0.529412;0.517647;0.466667;33667.000000;1.000000;1.000000;1.000000;1.000000;-0.125112;0.125112;-0.125112;1.000000
445630.34539993;5696556.49259956;471.10605003;0.584314;0.564706;0.509804;36751.000000;1.000000;1.000000;1.000000;1.000000;-0.156477;0.156477;-0.156477;1.000000
445630.58720215;5696556.55789955;471.16904976;0.611765;0.607843;0.556863;39321.000000;1.000000;1.000000;1.000000;1.000000;0.085325;-0.085325;0.085325;1.000000
445630.38670166;5696556.45839890;471.10524990;0.67451;0.662745;0.611765;43176.000000;1.000000;1.000000;1.000000;1.000000;-0.115175;0.115175;-0.115175;1.000000
445630.42180069;5696556.45979889;471.10685017;0.482353;0.470588;0.415686;30583.000000;1.000000;1.000000;1.000000;1.000000;-0.080076;0.080076;-0.080076;1.000000
445630.38810165;5696556.42099960;471.10014965;0.584314;0.568627;0.52549;37008.000000;1.000000;1.000000;1.000000;1.000000;0.091000;-0.091000;0.091000;1.000000
445630.31310089;5696556.41860016;471.09905006;0.831373;0.819608;0.768627;53456.000000;1.000000;1.000000;1.000000;1.000000;-0.088609;0.088609;-0.088609;1.000000
445630.42640121;5696556.58009918;471.15264990;0.662745;0.654902;0.603922;42662.000000;1.000000;1.000000;1.000000;1.000000;-0.075476;0.075476;-0.075476;1.000000
445630.32010086;5696556.47389801;471.10934975;0.545098;0.537255;0.486275;34952.000000;1.000000;1.000000;1.000000;1.000000;-0.143898;0.143898;-0.143898;1.000000
445630.51610001;5696556.88189896;471.18825008;0.592157;0.560784;0.490196;36751.000000;1.000000;1.000000;1.000000;1.000000;-0.051899;0.051899;-0.051899;1.000000
445630.35490234;5696556.52199944;471.11154987;0.615686;0.603922;0.552941;39321.000000;1.000000;1.000000;1.000000;1.000000;-0.146975;0.146975;-0.146975;1.000000
445630.50510223;5696556.48819931;471.18774988;0.678431;0.67451;0.635294;43947.000000;1.000000;1.000000;1.000000;1.000000;0.003225;-0.003225;0.003225;1.000000
445630.22790154;5696556.43349846;471.10004999;0.356863;0.34902;0.298039;22616.000000;1.000000;1.000000;1.000000;1.000000;-0.134870;0.134870;-0.134870;1.000000
445630.55690201;5696556.58639915;471.17495014;0.639216;0.619608;0.568627;40606.000000;1.000000;1.000000;1.000000;1.000000;0.055025;-0.055025;0.055025;1.000000
445630.52580078;5696556.44699867;471.16025021;0.360784;0.345098;0.309804;22616.000000;1.000000;1.000000;1.000000;1.000000;0.023924;-0.023924;0.023924;1.000000
445630.47840317;5696556.46089943;471.15124990;0.533333;0.52549;0.486275;34181.000000;1.000000;1.000000;1.000000;1.000000;-0.023474;0.023474;-0.023474;1.000000
445630.41600235;5696556.65549858;471.17645027;0.588235;0.580392;0.529412;37779.000000;1.000000;1.000000;1.000000;1.000000;-0.085875;0.085875;-0.085875;1.000000
445630.38890274;5696556.80469902;471.20494987;0.478431;0.470588;0.435294;30583.000000;1.000000;1.000000;1.000000;1.000000;0.115773;-0.115773;0.115773;1.000000
445630.56920059;5696556.94940002;471.18685009;0.815686;0.819608;0.796078;53456.000000;1.000000;1.000000;1.000000;1.000000;-0.119400;0.119400;-0.119400;1.000000
445630.51990326;5696556.81639870;471.17604973;0.427451;0.384314;0.341176;25700.000000;1.000000;1.000000;1.000000;1.000000;0.013601;-0.013601;0.013601;1.000000
445630.36919983;5696556.42039879;471.10164978;0.670588;0.658824;0.603922;42919.000000;1.000000;1.000000;1.000000;1.000000;0.090399;-0.090399;0.090399;1.000000
445630.52480133;5696556.84619911;471.18125011;0.694118;0.65098;0.607843;43176.000000;1.000000;1.000000;1.000000;1.000000;-0.016334;0.016334;-0.016334;1.000000
445630.55740173;5696556.48379906;471.15745022;0.47451;0.458824;0.411765;29812.000000;1.000000;1.000000;1.000000;1.000000;0.055525;-0.055525;0.055525;1.000000
445630.36499985;5696556.50469978;471.11175014;0.501961;0.478431;0.415686;31354.000000;1.000000;1.000000;1.000000;1.000000;-0.136877;0.136877;-0.136877;1.000000
445630.40680130;5696556.42159851;471.10104992;0.552941;0.541176;0.490196;35209.000000;1.000000;1.000000;1.000000;1.000000;0.091599;-0.091599;0.091599;1.000000
445630.59630020;5696556.52459915;471.15735008;0.639216;0.631373;0.584314;41120.000000;1.000000;1.000000;1.000000;1.000000;0.094423;-0.094423;0.094423;1.000000
445630.55520065;5696556.55349930;471.19544985;0.662745;0.658824;0.607843;42662.000000;1.000000;1.000000;1.000000;1.000000;0.053324;-0.053324;0.053324;1.000000
445630.31320007;5696556.64209946;471.14594986;0.639216;0.635294;0.6;41377.000000;1.000000;1.000000;1.000000;1.000000;-0.188677;0.188677;-0.188677;1.000000
445630.46680267;5696556.83489807;471.19945004;0.298039;0.27451;0.239216;17990.000000;1.000000;1.000000;1.000000;1.000000;-0.035415;0.035415;-0.035415;1.000000
445630.29630096;5696556.41549881;471.10294964;0.721569;0.713725;0.662745;46517.000000;1.000000;1.000000;1.000000;1.000000;-0.087389;0.087389;-0.087389;1.000000
445630.56789978;5696556.91209991;471.19094994;0.360784;0.356863;0.32549;23130.000000;1.000000;1.000000;1.000000;1.000000;-0.082100;0.082100;-0.082100;1.000000
445630.57370193;5696556.87649925;471.19544985;0.462745;0.458824;0.419608;29812.000000;1.000000;1.000000;1.000000;1.000000;-0.046499;0.046499;-0.046499;1.000000
445630.57610138;5696556.80149849;471.19474985;0.647059;0.631373;0.588235;41120.000000;1.000000;1.000000;1.000000;1.000000;0.028502;-0.028502;0.028502;1.000000
445630.45600327;5696556.51679810;471.14164974;0.541176;0.533333;0.486275;34695.000000;1.000000;1.000000;1.000000;1.000000;-0.045874;0.045874;-0.045874;1.000000
445630.42609985;5696556.40349968;471.10164978;0.682353;0.662745;0.615686;43433.000000;1.000000;1.000000;1.000000;1.000000;0.073500;-0.073500;0.073500;1.000000
445630.32090195;5696556.42729958;471.09954979;0.643137;0.635294;0.584314;41377.000000;1.000000;1.000000;1.000000;1.000000;-0.097300;0.097300;-0.097300;1.000000
445630.44380005;5696556.42269905;471.11204960;0.639216;0.627451;0.584314;40863.000000;1.000000;1.000000;1.000000;1.000000;-0.058077;0.058077;-0.058077;1.000000
445630.58780106;5696556.50449951;471.14744999;0.564706;0.552941;0.498039;35980.000000;1.000000;1.000000;1.000000;1.000000;0.085924;-0.085924;0.085924;1.000000
445630.41010101;5696556.75599869;471.20525028;0.486275;0.482353;0.427451;31097.000000;1.000000;1.000000;1.000000;1.000000;0.117894;-0.117894;0.117894;1.000000
445630.30460175;5696556.62199982;471.13835003;0.835294;0.835294;0.796078;54227.000000;1.000000;1.000000;1.000000;1.000000;-0.197275;0.197275;-0.197275;1.000000
445630.41960342;5696556.78539856;471.21075012;0.47451;0.466667;0.423529;30326.000000;1.000000;1.000000;1.000000;1.000000;0.093585;-0.093585;0.093585;1.000000
445630.30220230;5696556.65009888;471.14794971;0.666667;0.666667;0.623529;43176.000000;1.000000;1.000000;1.000000;1.000000;-0.199675;0.199675;-0.199675;1.000000
445630.33699997;5696556.70730026;471.16884996;0.729412;0.72549;0.686275;47288.000000;1.000000;1.000000;1.000000;1.000000;-0.170728;0.170728;-0.170728;1.000000
445630.54890259;5696556.93939980;471.20214989;0.447059;0.447059;0.415686;29041.000000;1.000000;1.000000;1.000000;1.000000;-0.109400;0.109400;-0.109400;1.000000
445630.59430130;5696556.96129807;471.17415001;0.454902;0.458824;0.427451;29555.000000;1.000000;1.000000;1.000000;1.000000;-0.131305;0.131305;-0.131305;1.000000
445630.39210327;5696556.49519928;471.11284973;0.615686;0.603922;0.552941;39321.000000;1.000000;1.000000;1.000000;1.000000;-0.109774;0.109774;-0.109774;1.000000
