//X;Y;Z;Rf;Gf;Bf;Intensity;Return Number;Number Of Returns;Scan Direction Flag;Point Source ID;C2M signed distances[-][<0.8];C2M signed distances[<0.4];C2M signed distances[-][<0.2];Stump26
299
445639.61550339;5696584.86759956;471.17785027;0.6;0.592157;0.552941;38550.000000;1.000000;1.000000;1.000000;1.000000;0.037600;-0.037600;0.037600;1.000000
445639.84360321;5696585.00679977;471.23164989;0.670588;0.662745;0.627451;43176.000000;1.000000;1.000000;1.000000;1.000000;-0.176800;0.176800;-0.176800;1.000000
445639.43720062;5696584.88649948;471.17925026;0.443137;0.427451;0.360784;27756.000000;1.000000;1.000000;1.000000;1.000000;-0.168200;0.168200;-0.168200;1.000000
445639.73019989;5696585.01059921;471.21264984;0.403922;0.392157;0.356863;25443.000000;1.000000;1.000000;1.000000;1.000000;-0.180599;0.180599;-0.180599;1.000000
445639.69510086;5696585.00919922;471.21105005;0.768627;0.768627;0.741176;50115.000000;1.000000;1.000000;1.000000;1.000000;-0.179199;0.179199;-0.179199;1.000000
445639.77260025;5696584.93890007;471.21374990;0.737255;0.733333;0.686275;47545.000000;1.000000;1.000000;1.000000;1.000000;-0.109408;0.109408;-0.109408;1.000000
445639.81120117;5696584.90259941;471.21505024;0.654902;0.643137;0.603922;41891.000000;1.000000;1.000000;1.000000;1.000000;-0.072599;0.072599;-0.072599;1.000000
445639.66140182;5696584.85869987;471.17974998;0.623529;0.619608;0.588235;40349.000000;1.000000;1.000000;1.000000;1.000000;-0.028700;0.028700;-0.028700;1.000000
445639.77480133;5696584.85489853;471.19654991;0.658824;0.647059;0.603922;42148.000000;1.000000;1.000000;1.000000;1.000000;-0.026254;0.026254;-0.026254;1.000000
445639.81210144;5696584.85369881;471.19815018;0.6;0.592157;0.545098;38550.000000;1.000000;1.000000;1.000000;1.000000;-0.023699;0.023699;-0.023699;1.000000
445639.60700043;5696584.84749992;471.17015030;0.670588;0.658824;0.619608;42919.000000;1.000000;1.000000;1.000000;1.000000;0.017500;-0.017500;0.017500;1.000000
445639.76519974;5696584.88130005;471.20564987;0.768627;0.741176;0.690196;48573.000000;1.000000;1.000000;1.000000;1.000000;-0.052984;0.052984;-0.052984;1.000000
445639.51239975;5696584.88889893;471.17575027;0.717647;0.713725;0.662745;46260.000000;1.000000;1.000000;1.000000;1.000000;-0.101960;0.101960;-0.101960;1.000000
445639.54980286;5696584.89009865;471.17744972;0.54902;0.541176;0.494118;35209.000000;1.000000;1.000000;1.000000;1.000000;-0.075576;0.075576;-0.075576;1.000000
445639.76770218;5696585.01179894;471.21435024;0.321569;0.309804;0.266667;20046.000000;1.000000;1.000000;1.000000;1.000000;-0.182452;0.182452;-0.182452;1.000000
445639.76889999;5696584.97429855;471.21394970;0.372549;0.356863;0.337255;23387.000000;1.000000;1.000000;1.000000;1.000000;-0.144998;0.144998;-0.144998;1.000000
445639.58749969;5696584.89359863;471.17915012;0.584314;0.572549;0.537255;37265.000000;1.000000;1.000000;1.000000;1.000000;-0.064116;0.064116;-0.064116;1.000000
445639.77380188;5696584.90139969;471.21334984;0.701961;0.682353;0.619608;44461.000000;1.000000;1.000000;1.000000;1.000000;-0.072006;0.072006;-0.072006;1.000000
445639.72450073;5696584.94579895;471.20464994;0.478431;0.470588;0.423529;30583.000000;1.000000;1.000000;1.000000;1.000000;-0.115799;0.115799;-0.115799;1.000000
445639.71890076;5696584.88109978;471.19424965;0.541176;0.52549;0.490196;34438.000000;1.000000;1.000000;1.000000;1.000000;-0.051100;0.051100;-0.051100;1.000000
445639.47490128;5696584.88769920;471.17635014;0.564706;0.560784;0.501961;36237.000000;1.000000;1.000000;1.000000;1.000000;-0.133805;0.133805;-0.133805;1.000000
445639.62630280;5696584.85729988;471.17584993;0.478431;0.466667;0.427451;30326.000000;1.000000;1.000000;1.000000;1.000000;0.027300;-0.027300;0.027300;1.000000
445639.68350037;5696585.01029976;471.21054985;0.8;0.8;0.772549;52171.000000;1.000000;1.000000;1.000000;1.000000;-0.180356;0.180356;-0.180356;1.000000
445639.72100266;5696585.01149948;471.21225025;0.576471;0.564706;0.533333;37008.000000;1.000000;1.000000;1.000000;1.000000;-0.181499;0.181499;-0.181499;1.000000
445639.80200012;5696584.90349968;471.21464970;0.560784;0.54902;0.501961;35723.000000;1.000000;1.000000;1.000000;1.000000;-0.073500;0.073500;-0.073500;1.000000
445639.57800110;5696584.89209946;471.17875006;0.643137;0.635294;0.596078;41377.000000;1.000000;1.000000;1.000000;1.000000;-0.064552;0.064552;-0.064552;1.000000
445639.75840195;5696585.01260002;471.21394970;0.305882;0.290196;0.247059;18761.000000;1.000000;1.000000;1.000000;1.000000;-0.182713;0.182713;-0.182713;1.000000
445639.79710205;5696584.97629936;471.21525003;0.286275;0.262745;0.247059;17476.000000;1.000000;1.000000;1.000000;1.000000;-0.146299;0.146299;-0.146299;1.000000
445639.75959976;5696584.97519882;471.21355011;0.580392;0.564706;0.545098;37008.000000;1.000000;1.000000;1.000000;1.000000;-0.145399;0.145399;-0.145399;1.000000
445639.43000229;5696584.88480003;471.17894985;0.458824;0.443137;0.376471;28784.000000;1.000000;1.000000;1.000000;1.000000;-0.174455;0.174455;-0.174455;1.000000
445639.50300034;5696584.88970001;471.17764999;0.823529;0.819608;0.768627;53199.000000;1.000000;1.000000;1.000000;1.000000;-0.110199;0.110199;-0.110199;1.000000
445639.54050262;5696584.89089973;471.17934992;0.47451;0.466667;0.419608;30326.000000;1.000000;1.000000;1.000000;1.000000;-0.082143;0.082143;-0.082143;1.000000
445639.61550339;5696584.89329918;471.18044998;0.576471;0.564706;0.52549;36751.000000;1.000000;1.000000;1.000000;1.000000;0.063299;-0.063299;0.063299;1.000000
445639.65440186;5696584.85929878;471.17945005;0.52549;0.517647;0.482353;33667.000000;1.000000;1.000000;1.000000;1.000000;-0.029535;0.029535;-0.029535;1.000000
445639.76310165;5696584.93750008;471.21324970;0.588235;0.580392;0.533333;37779.000000;1.000000;1.000000;1.000000;1.000000;-0.108074;0.108074;-0.108074;1.000000
445639.76430328;5696584.89999969;471.21285011;0.65098;0.623529;0.568627;40863.000000;1.000000;1.000000;1.000000;1.000000;-0.071077;0.071077;-0.071077;1.000000
445639.46560104;5696584.88859947;471.17594959;0.529412;0.521569;0.458824;33667.000000;1.000000;1.000000;1.000000;1.000000;-0.142621;0.142621;-0.142621;1.000000
445639.61710175;5696584.85819824;471.17544987;0.556863;0.545098;0.509804;35466.000000;1.000000;1.000000;1.000000;1.000000;0.028198;-0.028198;0.028198;1.000000
445639.53660019;5696584.95639999;471.19395020;0.670588;0.654902;0.611765;42662.000000;1.000000;1.000000;1.000000;1.000000;-0.139503;0.139503;-0.139503;1.000000
445639.83410080;5696585.00529869;471.23124983;0.631373;0.627451;0.592157;40863.000000;1.000000;1.000000;1.000000;1.000000;-0.175299;0.175299;-0.175299;1.000000
445639.43660172;5696584.93309982;471.18685009;0.501961;0.498039;0.443137;32125.000000;1.000000;1.000000;1.000000;1.000000;-0.189522;0.189522;-0.189522;1.000000
445639.58300217;5696584.97559937;471.18925001;0.623529;0.619608;0.580392;40349.000000;1.000000;1.000000;1.000000;1.000000;-0.146146;0.146146;-0.146146;1.000000
445639.47410019;5696584.93429955;471.18615009;0.776471;0.772549;0.729412;50372.000000;1.000000;1.000000;1.000000;1.000000;-0.160147;0.160147;-0.160147;1.000000
445639.51140030;5696584.93549927;471.19024994;0.611765;0.6;0.564706;39064.000000;1.000000;1.000000;1.000000;1.000000;-0.134997;0.134997;-0.134997;1.000000
445639.80820282;5696584.94940002;471.22475006;0.552941;0.54902;0.521569;35723.000000;1.000000;1.000000;1.000000;1.000000;-0.119400;0.119400;-0.119400;1.000000
445639.58430298;5696584.93809898;471.18654968;0.356863;0.345098;0.305882;22359.000000;1.000000;1.000000;1.000000;1.000000;-0.108690;0.108690;-0.108690;1.000000
445639.62210281;5696584.94159897;471.18594982;0.615686;0.611765;0.572549;39835.000000;1.000000;1.000000;1.000000;1.000000;0.111599;-0.111599;0.111599;1.000000
445639.80940063;5696584.91199883;471.22205021;0.760784;0.756863;0.717647;49344.000000;1.000000;1.000000;1.000000;1.000000;-0.081999;0.081999;-0.081999;1.000000
445639.66430099;5696584.86769875;471.18464996;0.733333;0.729412;0.701961;47545.000000;1.000000;1.000000;1.000000;1.000000;-0.037699;0.037699;-0.037699;1.000000
445639.83550079;5696584.97019966;471.23084976;0.329412;0.32549;0.290196;21074.000000;1.000000;1.000000;1.000000;1.000000;-0.140200;0.140200;-0.140200;1.000000
445639.72540100;5696584.92719849;471.19745018;0.654902;0.65098;0.6;42148.000000;1.000000;1.000000;1.000000;1.000000;-0.097198;0.097198;-0.097198;1.000000
445639.76540192;5696584.85339935;471.19605019;0.619608;0.607843;0.564706;39578.000000;1.000000;1.000000;1.000000;1.000000;-0.027009;0.027009;-0.027009;1.000000
445639.80280121;5696584.85459908;471.19774963;0.627451;0.611765;0.564706;39835.000000;1.000000;1.000000;1.000000;1.000000;-0.024599;0.024599;-0.024599;1.000000
445639.57170303;5696584.84609993;471.17094995;0.313725;0.305882;0.25098;19789.000000;1.000000;1.000000;1.000000;1.000000;-0.028837;0.028837;-0.028837;1.000000
445639.54910095;5696584.93669899;471.18724968;0.54902;0.529412;0.490196;34695.000000;1.000000;1.000000;1.000000;1.000000;-0.116402;0.116402;-0.116402;1.000000
445639.66069992;5696584.90529831;471.18724968;0.513725;0.505882;0.466667;32896.000000;1.000000;1.000000;1.000000;1.000000;-0.075298;0.075298;-0.075298;1.000000
445639.80570038;5696585.02209862;471.22314980;0.701961;0.690196;0.65098;44975.000000;1.000000;1.000000;1.000000;1.000000;-0.192099;0.192099;-0.192099;1.000000
445639.62339981;5696584.90419968;471.18324997;0.45098;0.439216;0.403922;28527.000000;1.000000;1.000000;1.000000;1.000000;0.074200;-0.074200;0.074200;1.000000
445639.69960220;5696584.87129982;471.18864967;0.513725;0.509804;0.482353;33153.000000;1.000000;1.000000;1.000000;1.000000;-0.041300;0.041300;-0.041300;1.000000
445639.77589996;5696584.83629997;471.18704988;0.454902;0.435294;0.384314;28527.000000;1.000000;1.000000;1.000000;1.000000;-0.009587;0.009587;-0.009587;1.000000
445639.65550049;5696585.00829895;471.20694973;0.819608;0.819608;0.784314;53456.000000;1.000000;1.000000;1.000000;1.000000;-0.178318;0.178318;-0.178318;1.000000
445639.73159988;5696584.97319992;471.20764973;0.94902;0.945098;0.921569;61680.000000;1.000000;1.000000;1.000000;1.000000;-0.143200;0.143200;-0.143200;1.000000
445639.69650085;5696584.97179993;471.20604994;0.505882;0.505882;0.470588;32896.000000;1.000000;1.000000;1.000000;1.000000;-0.141800;0.141800;-0.141800;1.000000
445639.42700012;5696584.93169983;471.18864967;0.505882;0.498039;0.447059;32382.000000;1.000000;1.000000;1.000000;1.000000;-0.196921;0.196921;-0.196921;1.000000
445639.57380112;5696584.97639854;471.18884995;0.65098;0.647059;0.6;41891.000000;1.000000;1.000000;1.000000;1.000000;-0.148017;0.148017;-0.148017;1.000000
445639.46490295;5696584.93519981;471.18575003;0.572549;0.568627;0.52549;37008.000000;1.000000;1.000000;1.000000;1.000000;-0.167797;0.167797;-0.167797;1.000000
445639.50220306;5696584.93629845;471.18984987;0.592157;0.584314;0.54902;38036.000000;1.000000;1.000000;1.000000;1.000000;-0.141518;0.141518;-0.141518;1.000000
445639.61250122;5696584.94019897;471.18785002;0.584314;0.576471;0.541176;37522.000000;1.000000;1.000000;1.000000;1.000000;0.110199;-0.110199;0.110199;1.000000
445639.65010269;5696584.94139870;471.18724968;0.854902;0.847059;0.811765;55255.000000;1.000000;1.000000;1.000000;1.000000;-0.111424;0.111424;-0.111424;1.000000
445639.79880341;5696584.94800003;471.22195007;0.666667;0.662745;0.635294;43176.000000;1.000000;1.000000;1.000000;1.000000;-0.118000;0.118000;-0.118000;1.000000
445639.65150269;5696584.90619858;471.18685009;0.486275;0.478431;0.443137;31097.000000;1.000000;1.000000;1.000000;1.000000;-0.076293;0.076293;-0.076293;1.000000
445639.50770004;5696585.00099953;471.20245029;0.501961;0.486275;0.427451;31611.000000;1.000000;1.000000;1.000000;1.000000;-0.192281;0.192281;-0.192281;1.000000
445639.51390274;5696584.85149963;471.16834976;0.623529;0.615686;0.541176;39835.000000;1.000000;1.000000;1.000000;1.000000;-0.084505;0.084505;-0.084505;1.000000
445639.55140121;5696584.85269936;471.17005016;0.321569;0.305882;0.25098;19789.000000;1.000000;1.000000;1.000000;1.000000;-0.049711;0.049711;-0.049711;1.000000
445639.73290070;5696584.93569954;471.20484974;0.482353;0.478431;0.423529;30840.000000;1.000000;1.000000;1.000000;1.000000;-0.105700;0.105700;-0.105700;1.000000
445639.81280334;5696584.86519821;471.20534994;0.541176;0.52549;0.490196;34438.000000;1.000000;1.000000;1.000000;1.000000;-0.035198;0.035198;-0.035198;1.000000
445639.52820023;5696584.99219902;471.19634964;0.533333;0.517647;0.462745;33667.000000;1.000000;1.000000;1.000000;1.000000;-0.175656;0.175656;-0.175656;1.000000
445639.56350143;5696584.99369820;471.19325020;0.615686;0.603922;0.556863;39321.000000;1.000000;1.000000;1.000000;1.000000;-0.166821;0.166821;-0.166821;1.000000
445639.60080154;5696584.99479874;471.19724991;0.619608;0.611765;0.572549;39835.000000;1.000000;1.000000;1.000000;1.000000;-0.164799;0.164799;-0.164799;1.000000
445639.49190338;5696584.95360001;471.19424965;0.701961;0.698039;0.658824;45489.000000;1.000000;1.000000;1.000000;1.000000;-0.161355;0.161355;-0.161355;1.000000
445639.63990219;5696584.96089943;471.19395020;0.858824;0.85098;0.815686;55512.000000;1.000000;1.000000;1.000000;1.000000;-0.130899;0.130899;-0.130899;1.000000
445639.82730301;5696584.93119820;471.23004963;0.678431;0.67451;0.65098;43947.000000;1.000000;1.000000;1.000000;1.000000;-0.101198;0.101198;-0.101198;1.000000
445639.79640015;5696585.02299889;471.22275021;0.67451;0.666667;0.623529;43433.000000;1.000000;1.000000;1.000000;1.000000;-0.192999;0.192999;-0.192999;1.000000
445639.61410339;5696584.90509995;471.18284990;0.560784;0.545098;0.513725;35723.000000;1.000000;1.000000;1.000000;1.000000;0.075100;-0.075100;0.075100;1.000000
445639.69009979;5696584.86989983;471.18814995;0.603922;0.596078;0.568627;38807.000000;1.000000;1.000000;1.000000;1.000000;-0.039900;0.039900;-0.039900;1.000000
445639.83730133;5696584.91169937;471.22564985;0.890196;0.886275;0.854902;57825.000000;1.000000;1.000000;1.000000;1.000000;-0.081699;0.081699;-0.081699;1.000000
445639.76640137;5696584.83479889;471.18654968;0.478431;0.462745;0.411765;30069.000000;1.000000;1.000000;1.000000;1.000000;-0.015297;0.015297;-0.015297;1.000000
445639.53970154;5696584.93750008;471.18914988;0.564706;0.54902;0.509804;35980.000000;1.000000;1.000000;1.000000;1.000000;-0.121177;0.121177;-0.121177;1.000000
445639.57740219;5696584.93879898;471.18625023;0.352941;0.337255;0.298039;22102.000000;1.000000;1.000000;1.000000;1.000000;-0.110315;0.110315;-0.110315;1.000000
445639.75610168;5696584.88219841;471.20295002;0.717647;0.690196;0.639216;45232.000000;1.000000;1.000000;1.000000;1.000000;-0.052364;0.052364;-0.052364;1.000000
445639.48120316;5696584.99179848;471.20114996;0.596078;0.584314;0.537255;38036.000000;1.000000;1.000000;1.000000;1.000000;-0.198170;0.198170;-0.198170;1.000000
445639.66629990;5696584.99799927;471.20494987;0.72549;0.72549;0.686275;47031.000000;1.000000;1.000000;1.000000;1.000000;-0.167999;0.167999;-0.167999;1.000000
445639.70520218;5696584.96399887;471.20394995;0.470588;0.470588;0.431373;30326.000000;1.000000;1.000000;1.000000;1.000000;-0.133999;0.133999;-0.133999;1.000000
445639.73680313;5696584.90039833;471.20235016;0.482353;0.462745;0.407843;30069.000000;1.000000;1.000000;1.000000;1.000000;-0.070398;0.070398;-0.070398;1.000000
445639.43800171;5696584.92369850;471.18674995;0.572549;0.568627;0.509804;36751.000000;1.000000;1.000000;1.000000;1.000000;-0.183372;0.183372;-0.183372;1.000000
445639.58450134;5696584.96609886;471.18925001;0.482353;0.478431;0.439216;31097.000000;1.000000;1.000000;1.000000;1.000000;-0.136553;0.136553;-0.136553;1.000000
445639.51070221;5696584.92619904;471.18774988;0.615686;0.603922;0.568627;39321.000000;1.000000;1.000000;1.000000;1.000000;-0.128322;0.128322;-0.128322;1.000000
445639.58580215;5696584.92859848;471.18654968;0.482353;0.466667;0.431373;30583.000000;1.000000;1.000000;1.000000;1.000000;-0.099087;0.099087;-0.099087;1.000000
445639.62350281;5696584.93219955;471.18594982;0.545098;0.537255;0.501961;34952.000000;1.000000;1.000000;1.000000;1.000000;0.102200;-0.102200;0.102200;1.000000
445639.80960281;5696584.93999870;471.22475006;0.803922;0.8;0.772549;52171.000000;1.000000;1.000000;1.000000;1.000000;-0.109999;0.109999;-0.109999;1.000000
445639.54850204;5696584.92979820;471.18715002;0.576471;0.556863;0.521569;36494.000000;1.000000;1.000000;1.000000;1.000000;-0.110365;0.110365;-0.110365;1.000000
445639.80500229;5696585.01519974;471.22304966;0.690196;0.686275;0.65098;44718.000000;1.000000;1.000000;1.000000;1.000000;-0.185200;0.185200;-0.185200;1.000000
445639.66220291;5696584.89589890;471.18724968;0.521569;0.513725;0.478431;33410.000000;1.000000;1.000000;1.000000;1.000000;-0.065899;0.065899;-0.065899;1.000000
445639.62479980;5696584.89469917;471.18324997;0.517647;0.501961;0.470588;32896.000000;1.000000;1.000000;1.000000;1.000000;0.064699;-0.064699;0.064699;1.000000
445639.50990112;5696584.97289856;471.19754984;0.752941;0.745098;0.698039;48573.000000;1.000000;1.000000;1.000000;1.000000;-0.166640;0.166640;-0.166640;1.000000
445639.84410294;5696584.98799904;471.23385002;0.541176;0.537255;0.505882;34952.000000;1.000000;1.000000;1.000000;1.000000;-0.157999;0.157999;-0.157999;1.000000
445639.52950104;5696584.95479973;471.19354965;0.639216;0.623529;0.580392;40606.000000;1.000000;1.000000;1.000000;1.000000;-0.141236;0.141236;-0.141236;1.000000
445639.71600159;5696584.92569931;471.19704964;0.690196;0.678431;0.635294;44204.000000;1.000000;1.000000;1.000000;1.000000;-0.095699;0.095699;-0.095699;1.000000
445639.67850311;5696584.92459877;471.19535019;0.737255;0.72549;0.690196;47288.000000;1.000000;1.000000;1.000000;1.000000;-0.094599;0.094599;-0.094599;1.000000
445639.67980011;5696584.88709839;471.19255020;0.788235;0.780392;0.752941;50886.000000;1.000000;1.000000;1.000000;1.000000;-0.057104;0.057104;-0.057104;1.000000
445639.75620087;5696584.85429962;471.19334986;0.615686;0.6;0.560784;39321.000000;1.000000;1.000000;1.000000;1.000000;-0.024677;0.024677;-0.024677;1.000000
445639.79360016;5696584.85549934;471.19735004;0.682353;0.662745;0.619608;43433.000000;1.000000;1.000000;1.000000;1.000000;-0.025499;0.025499;-0.025499;1.000000
445639.47350128;5696584.92739876;471.18604996;0.741176;0.737255;0.694118;48059.000000;1.000000;1.000000;1.000000;1.000000;-0.156209;0.156209;-0.156209;1.000000
445639.77740295;5696584.82679947;471.18464996;0.388235;0.368627;0.317647;24158.000000;1.000000;1.000000;1.000000;1.000000;0.006558;-0.006558;0.006558;1.000000
445639.70090302;5696584.85959824;471.18625023;0.490196;0.482353;0.458824;31354.000000;1.000000;1.000000;1.000000;1.000000;-0.029598;0.029598;-0.029598;1.000000
445639.68950089;5696584.91649826;471.19574978;0.654902;0.643137;0.607843;41891.000000;1.000000;1.000000;1.000000;1.000000;-0.086498;0.086498;-0.086498;1.000000
445639.80620010;5696584.97769936;471.22265007;0.360784;0.352941;0.337255;23130.000000;1.000000;1.000000;1.000000;1.000000;-0.147699;0.147699;-0.147699;1.000000
445639.72820099;5696584.88029869;471.19465019;0.552941;0.537255;0.501961;35209.000000;1.000000;1.000000;1.000000;1.000000;-0.050299;0.050299;-0.050299;1.000000
445639.83820160;5696584.92319878;471.23045017;0.733333;0.72549;0.701961;47288.000000;1.000000;1.000000;1.000000;1.000000;-0.093199;0.093199;-0.093199;1.000000
445639.49450119;5696584.86959847;471.17005016;0.509804;0.505882;0.435294;32639.000000;1.000000;1.000000;1.000000;1.000000;-0.108602;0.108602;-0.108602;1.000000
445639.58910187;5696584.85619934;471.16945030;0.392157;0.380392;0.333333;24672.000000;1.000000;1.000000;1.000000;1.000000;-0.027000;0.027000;-0.027000;1.000000
445639.42840012;5696584.92219933;471.18864967;0.584314;0.572549;0.521569;37265.000000;1.000000;1.000000;1.000000;1.000000;-0.190959;0.190959;-0.190959;1.000000
445639.59750183;5696584.84609993;471.16974976;0.564706;0.556863;0.513725;36237.000000;1.000000;1.000000;1.000000;1.000000;-0.016100;0.016100;-0.016100;1.000000
445639.57520111;5696584.96699913;471.18884995;0.52549;0.517647;0.478431;33667.000000;1.000000;1.000000;1.000000;1.000000;-0.138513;0.138513;-0.138513;1.000000
445639.50119980;5696584.92479904;471.18724968;0.654902;0.65098;0.615686;42405.000000;1.000000;1.000000;1.000000;1.000000;-0.133803;0.133803;-0.133803;1.000000
445639.61410339;5696584.93069847;471.18545010;0.603922;0.596078;0.560784;38807.000000;1.000000;1.000000;1.000000;1.000000;0.100698;-0.100698;0.100698;1.000000
445639.65150269;5696584.93189819;471.18715002;0.831373;0.823529;0.788235;53713.000000;1.000000;1.000000;1.000000;1.000000;-0.101969;0.101969;-0.101969;1.000000
445639.80020340;5696584.93849953;471.22195007;0.917647;0.913725;0.882353;59624.000000;1.000000;1.000000;1.000000;1.000000;-0.108500;0.108500;-0.108500;1.000000
445639.57650192;5696584.92949875;471.18615009;0.462745;0.443137;0.407843;29041.000000;1.000000;1.000000;1.000000;1.000000;-0.101320;0.101320;-0.101320;1.000000
445639.79549988;5696585.01369865;471.22265007;0.682353;0.67451;0.639216;43947.000000;1.000000;1.000000;1.000000;1.000000;-0.183699;0.183699;-0.183699;1.000000
445639.65270050;5696584.89439972;471.18674995;0.486275;0.478431;0.443137;31097.000000;1.000000;1.000000;1.000000;1.000000;-0.064593;0.064593;-0.064593;1.000000
445639.72670181;5696584.86179932;471.18975021;0.701961;0.686275;0.65098;44975.000000;1.000000;1.000000;1.000000;1.000000;-0.031799;0.031799;-0.031799;1.000000
445639.54480179;5696585.02099998;471.19745018;0.458824;0.447059;0.384314;29041.000000;1.000000;1.000000;1.000000;1.000000;-0.197647;0.197647;-0.197647;1.000000
445639.58230026;5696585.02219971;471.19914963;0.470588;0.462745;0.407843;30069.000000;1.000000;1.000000;1.000000;1.000000;-0.192661;0.192661;-0.192661;1.000000
445639.51080139;5696584.98209961;471.19774963;0.717647;0.705882;0.654902;46003.000000;1.000000;1.000000;1.000000;1.000000;-0.174154;0.174154;-0.174154;1.000000
445639.54610260;5696584.98359879;471.19465019;0.603922;0.592157;0.545098;38550.000000;1.000000;1.000000;1.000000;1.000000;-0.161385;0.161385;-0.161385;1.000000
445639.58390244;5696584.98709877;471.19414999;0.658824;0.654902;0.615686;42662.000000;1.000000;1.000000;1.000000;1.000000;-0.157536;0.157536;-0.157536;1.000000
445639.50980194;5696584.94489868;471.19494965;0.603922;0.592157;0.556863;38550.000000;1.000000;1.000000;1.000000;1.000000;-0.143414;0.143414;-0.143414;1.000000
445639.66000183;5696584.95199974;471.19714977;0.568627;0.560784;0.529412;36494.000000;1.000000;1.000000;1.000000;1.000000;-0.122000;0.122000;-0.122000;1.000000
445639.46380051;5696584.92359932;471.18555023;0.529412;0.52549;0.482353;34181.000000;1.000000;1.000000;1.000000;1.000000;-0.161676;0.161676;-0.161676;1.000000
445639.53900345;5696584.92829903;471.18674995;0.568627;0.552941;0.517647;36237.000000;1.000000;1.000000;1.000000;1.000000;-0.113441;0.113441;-0.113441;1.000000
445639.68930252;5696584.86069878;471.18575003;0.572549;0.568627;0.537255;37008.000000;1.000000;1.000000;1.000000;1.000000;-0.030699;0.030699;-0.030699;1.000000
445639.45689972;5696584.89639862;471.17794992;0.427451;0.419608;0.360784;26985.000000;1.000000;1.000000;1.000000;1.000000;-0.153799;0.153799;-0.153799;1.000000
445639.67480286;5696585.01809891;471.21254971;0.811765;0.807843;0.780392;52685.000000;1.000000;1.000000;1.000000;1.000000;-0.188099;0.188099;-0.188099;1.000000
445639.71240051;5696585.01929863;471.21194984;0.501961;0.490196;0.454902;31868.000000;1.000000;1.000000;1.000000;1.000000;-0.189299;0.189299;-0.189299;1.000000
445639.75100143;5696584.98299988;471.21324970;0.517647;0.505882;0.482353;33153.000000;1.000000;1.000000;1.000000;1.000000;-0.153000;0.153000;-0.153000;1.000000
445639.78960236;5696584.94889839;471.21925022;0.823529;0.815686;0.784314;53199.000000;1.000000;1.000000;1.000000;1.000000;-0.118898;0.118898;-0.118898;1.000000
445639.79100235;5696584.91149910;471.21425011;0.564706;0.560784;0.505882;36237.000000;1.000000;1.000000;1.000000;1.000000;-0.081499;0.081499;-0.081499;1.000000
445639.56700333;5696584.90009888;471.18065025;0.639216;0.627451;0.588235;40863.000000;1.000000;1.000000;1.000000;1.000000;-0.075718;0.075718;-0.075718;1.000000
445639.69890030;5696584.91799934;471.19614985;0.588235;0.576471;0.541176;37522.000000;1.000000;1.000000;1.000000;1.000000;-0.087999;0.087999;-0.087999;1.000000
445639.77639969;5696584.84539993;471.19414999;0.568627;0.552941;0.509804;35980.000000;1.000000;1.000000;1.000000;1.000000;-0.016805;0.016805;-0.016805;1.000000
445639.52960022;5696584.89889915;471.17894985;0.466667;0.462745;0.415686;29812.000000;1.000000;1.000000;1.000000;1.000000;-0.095429;0.095429;-0.095429;1.000000
445639.74990280;5696585.02049835;471.21134998;0.266667;0.254902;0.203922;16448.000000;1.000000;1.000000;1.000000;1.000000;-0.190498;0.190498;-0.190498;1.000000
445639.78479965;5696585.02179916;471.21754982;0.521569;0.513725;0.458824;33410.000000;1.000000;1.000000;1.000000;1.000000;-0.191799;0.191799;-0.191799;1.000000
445639.78840073;5696584.98409851;471.21495010;0.313725;0.294118;0.278431;19532.000000;1.000000;1.000000;1.000000;1.000000;-0.154099;0.154099;-0.154099;1.000000
445639.71970184;5696584.83219917;471.17974998;0.517647;0.505882;0.470588;32896.000000;1.000000;1.000000;1.000000;1.000000;-0.002199;0.002199;-0.002199;1.000000
445639.82489975;5696585.00619896;471.23084976;0.580392;0.580392;0.54902;37779.000000;1.000000;1.000000;1.000000;1.000000;-0.176199;0.176199;-0.176199;1.000000
445639.49440201;5696584.89759834;471.17735006;0.882353;0.878431;0.835294;57311.000000;1.000000;1.000000;1.000000;1.000000;-0.121721;0.121721;-0.121721;1.000000
445639.64350327;5696584.86729820;471.17904999;0.490196;0.482353;0.45098;31354.000000;1.000000;1.000000;1.000000;1.000000;-0.037298;0.037298;-0.037298;1.000000
445639.75240143;5696584.94779976;471.21285011;0.662745;0.654902;0.615686;42662.000000;1.000000;1.000000;1.000000;1.000000;-0.117801;0.117801;-0.117801;1.000000
445639.71720322;5696584.88830002;471.19665005;0.439216;0.423529;0.388235;27756.000000;1.000000;1.000000;1.000000;1.000000;-0.058300;0.058300;-0.058300;1.000000
445639.64840134;5696585.00659950;471.20424988;0.686275;0.686275;0.65098;44718.000000;1.000000;1.000000;1.000000;1.000000;-0.176601;0.176601;-0.176601;1.000000
445639.45810135;5696584.85889824;471.17754986;0.521569;0.505882;0.431373;32896.000000;1.000000;1.000000;1.000000;1.000000;-0.140529;0.140529;-0.140529;1.000000
445639.60850342;5696584.86599930;471.17514994;0.576471;0.568627;0.529412;37008.000000;1.000000;1.000000;1.000000;1.000000;0.035999;-0.035999;0.035999;1.000000
445639.72470291;5696584.97379883;471.20725014;0.87451;0.87451;0.843137;57054.000000;1.000000;1.000000;1.000000;1.000000;-0.143799;0.143799;-0.143799;1.000000
445639.44730194;5696584.89489944;471.17985012;0.4;0.392157;0.32549;25186.000000;1.000000;1.000000;1.000000;1.000000;-0.161902;0.161902;-0.161902;1.000000
445639.70290192;5696585.01779945;471.21145012;0.533333;0.52549;0.494118;34181.000000;1.000000;1.000000;1.000000;1.000000;-0.187799;0.187799;-0.187799;1.000000
445639.74180038;5696584.98379906;471.21285011;0.741176;0.733333;0.717647;48059.000000;1.000000;1.000000;1.000000;1.000000;-0.153799;0.153799;-0.153799;1.000000
445639.78030212;5696584.94749840;471.21645023;0.890196;0.886275;0.85098;57825.000000;1.000000;1.000000;1.000000;1.000000;-0.117532;0.117532;-0.117532;1.000000
445639.56010254;5696584.90079887;471.18034985;0.678431;0.670588;0.627451;43690.000000;1.000000;1.000000;1.000000;1.000000;-0.079211;0.079211;-0.079211;1.000000
445639.49820145;5696584.99959953;471.20204975;0.619608;0.603922;0.552941;39321.000000;1.000000;1.000000;1.000000;1.000000;-0.195591;0.195591;-0.195591;1.000000
445639.50470169;5696584.85239990;471.16795017;0.537255;0.529412;0.454902;34181.000000;1.000000;1.000000;1.000000;1.000000;-0.093644;0.093644;-0.093644;1.000000
445639.54210098;5696584.85349854;471.16964962;0.396078;0.384314;0.321569;24929.000000;1.000000;1.000000;1.000000;1.000000;-0.058457;0.058457;-0.058457;1.000000
445639.57950027;5696584.85469826;471.17135002;0.337255;0.329412;0.278431;21331.000000;1.000000;1.000000;1.000000;1.000000;-0.029497;0.029497;-0.029497;1.000000
445639.52029999;5696584.89979942;471.17855026;0.505882;0.498039;0.454902;32382.000000;1.000000;1.000000;1.000000;1.000000;-0.102694;0.102694;-0.102694;1.000000
445639.77800186;5696585.02249916;471.21495010;0.352941;0.341176;0.286275;22102.000000;1.000000;1.000000;1.000000;1.000000;-0.192567;0.192567;-0.192567;1.000000
445639.77919968;5696584.98499878;471.21455004;0.25098;0.231373;0.211765;15163.000000;1.000000;1.000000;1.000000;1.000000;-0.155049;0.155049;-0.155049;1.000000
445639.78410156;5696584.91209991;471.21394970;0.568627;0.556863;0.498039;36237.000000;1.000000;1.000000;1.000000;1.000000;-0.082100;0.082100;-0.082100;1.000000
445639.71040161;5696584.83309944;471.17934992;0.466667;0.454902;0.419608;29555.000000;1.000000;1.000000;1.000000;1.000000;-0.003099;0.003099;-0.003099;1.000000
445639.68700226;5696584.97029884;471.20554974;0.552941;0.54902;0.513725;35723.000000;1.000000;1.000000;1.000000;1.000000;-0.140319;0.140319;-0.140319;1.000000
445639.72610291;5696584.93639954;471.20225002;0.552941;0.545098;0.494118;35466.000000;1.000000;1.000000;1.000000;1.000000;-0.106400;0.106400;-0.106400;1.000000
445639.80130203;5696584.86629875;471.20484974;0.611765;0.596078;0.552941;38807.000000;1.000000;1.000000;1.000000;1.000000;-0.036299;0.036299;-0.036299;1.000000
445639.48520096;5696584.89839943;471.17695000;0.776471;0.772549;0.72549;50115.000000;1.000000;1.000000;1.000000;1.000000;-0.129894;0.129894;-0.129894;1.000000
445639.63400085;5696584.86589821;471.17864992;0.482353;0.47451;0.443137;30840.000000;1.000000;1.000000;1.000000;1.000000;-0.035898;0.035898;-0.035898;1.000000
445639.59530075;5696584.90219887;471.17964985;0.592157;0.580392;0.541176;37779.000000;1.000000;1.000000;1.000000;1.000000;-0.072200;0.072200;-0.072200;1.000000
445639.44880112;5696584.85969933;471.17715027;0.501961;0.486275;0.411765;31611.000000;1.000000;1.000000;1.000000;1.000000;-0.149799;0.149799;-0.149799;1.000000
445639.59920319;5696584.86689957;471.17474987;0.52549;0.517647;0.482353;33667.000000;1.000000;1.000000;1.000000;1.000000;-0.036900;0.036900;-0.036900;1.000000
445639.45829971;5696584.88690002;471.17794992;0.486275;0.478431;0.411765;30840.000000;1.000000;1.000000;1.000000;1.000000;-0.148648;0.148648;-0.148648;1.000000
445639.71150024;5696585.00999840;471.21175005;0.690196;0.678431;0.65098;44461.000000;1.000000;1.000000;1.000000;1.000000;-0.179998;0.179998;-0.179998;1.000000
445639.78870209;5696584.93739899;471.21674969;0.945098;0.945098;0.905882;61423.000000;1.000000;1.000000;1.000000;1.000000;-0.107399;0.107399;-0.107399;1.000000
445639.56880005;5696584.89299973;471.17834999;0.72549;0.717647;0.678431;46774.000000;1.000000;1.000000;1.000000;1.000000;-0.068474;0.068474;-0.068474;1.000000
445639.42070206;5696584.88569839;471.18085005;0.47451;0.454902;0.392157;29555.000000;1.000000;1.000000;1.000000;1.000000;-0.183578;0.183578;-0.183578;1.000000
445639.53100021;5696584.88949974;471.17894985;0.494118;0.490196;0.439216;31611.000000;1.000000;1.000000;1.000000;1.000000;-0.087845;0.087845;-0.087845;1.000000
445639.74390228;5696584.92769821;471.20525028;0.470588;0.462745;0.407843;30069.000000;1.000000;1.000000;1.000000;1.000000;-0.097698;0.097698;-0.097698;1.000000
445639.82130249;5696584.85509880;471.20324995;0.545098;0.533333;0.494118;34695.000000;1.000000;1.000000;1.000000;1.000000;-0.025099;0.025099;-0.025099;1.000000
445639.74910172;5696585.01120003;471.21114971;0.266667;0.25098;0.207843;16191.000000;1.000000;1.000000;1.000000;1.000000;-0.181200;0.181200;-0.181200;1.000000
445639.78630264;5696585.01229866;471.21754982;0.521569;0.513725;0.470588;33410.000000;1.000000;1.000000;1.000000;1.000000;-0.182299;0.182299;-0.182299;1.000000
445639.78780182;5696584.97719963;471.21484997;0.254902;0.235294;0.219608;15677.000000;1.000000;1.000000;1.000000;1.000000;-0.147200;0.147200;-0.147200;1.000000
445639.75250061;5696584.97349937;471.21324970;0.780392;0.772549;0.74902;50372.000000;1.000000;1.000000;1.000000;1.000000;-0.143500;0.143500;-0.143500;1.000000
445639.49600037;5696584.88809975;471.17495014;0.803922;0.8;0.745098;51914.000000;1.000000;1.000000;1.000000;1.000000;-0.115330;0.115330;-0.115330;1.000000
445639.64510162;5696584.85789879;471.17664959;0.498039;0.490196;0.458824;31868.000000;1.000000;1.000000;1.000000;1.000000;-0.027899;0.027899;-0.027899;1.000000
445639.60600098;5696584.89180000;471.17995026;0.596078;0.584314;0.545098;38036.000000;1.000000;1.000000;1.000000;1.000000;-0.061800;0.061800;-0.061800;1.000000
445639.60760315;5696584.85669907;471.17495014;0.576471;0.564706;0.529412;36751.000000;1.000000;1.000000;1.000000;1.000000;0.026699;-0.026699;0.026699;1.000000
445639.79250153;5696584.90199860;471.21414997;0.556863;0.541176;0.494118;35209.000000;1.000000;1.000000;1.000000;1.000000;-0.071999;0.071999;-0.071999;1.000000
445639.44890030;5696584.88539894;471.17744972;0.447059;0.439216;0.368627;28270.000000;1.000000;1.000000;1.000000;1.000000;-0.156837;0.156837;-0.156837;1.000000
445639.73960312;5696585.00980003;471.21075012;0.270588;0.25098;0.215686;16448.000000;1.000000;1.000000;1.000000;1.000000;-0.179800;0.179800;-0.179800;1.000000
445639.70200165;5696585.00859840;471.21134998;0.752941;0.74902;0.721569;48830.000000;1.000000;1.000000;1.000000;1.000000;-0.178598;0.178598;-0.178598;1.000000
445639.74320038;5696584.97439964;471.21274998;0.886275;0.886275;0.862745;57825.000000;1.000000;1.000000;1.000000;1.000000;-0.144400;0.144400;-0.144400;1.000000
445639.77940186;5696584.93820007;471.21635010;0.866667;0.866667;0.823529;56283.000000;1.000000;1.000000;1.000000;1.000000;-0.108264;0.108264;-0.108264;1.000000
445639.55930145;5696584.89149864;471.17785027;0.694118;0.686275;0.647059;44718.000000;1.000000;1.000000;1.000000;1.000000;-0.071426;0.071426;-0.071426;1.000000
445639.69770248;5696584.90639885;471.19824984;0.501961;0.490196;0.458824;32125.000000;1.000000;1.000000;1.000000;1.000000;-0.076399;0.076399;-0.076399;1.000000
445639.52180298;5696584.89029892;471.17855026;0.584314;0.576471;0.529412;37522.000000;1.000000;1.000000;1.000000;1.000000;-0.095320;0.095320;-0.095320;1.000000
445639.77710159;5696585.01319893;471.21474983;0.368627;0.360784;0.317647;23387.000000;1.000000;1.000000;1.000000;1.000000;-0.183298;0.183298;-0.183298;1.000000
445639.77830322;5696584.97569855;471.21444990;0.266667;0.25098;0.231373;16448.000000;1.000000;1.000000;1.000000;1.000000;-0.145778;0.145778;-0.145778;1.000000
445639.48439987;5696584.88919838;471.17444994;0.654902;0.654902;0.592157;42405.000000;1.000000;1.000000;1.000000;1.000000;-0.126000;0.126000;-0.126000;1.000000
445639.63580139;5696584.85879906;471.17625000;0.478431;0.470588;0.435294;30583.000000;1.000000;1.000000;1.000000;1.000000;-0.028799;0.028799;-0.028799;1.000000
445639.59679993;5696584.89269836;471.17954971;0.580392;0.572549;0.533333;37265.000000;1.000000;1.000000;1.000000;1.000000;-0.062698;0.062698;-0.062698;1.000000
445639.81810196;5696584.90189941;471.21764996;0.760784;0.752941;0.709804;49087.000000;1.000000;1.000000;1.000000;1.000000;-0.071899;0.071899;-0.071899;1.000000
445639.51880081;5696584.99309929;471.19824984;0.556863;0.545098;0.486275;35466.000000;1.000000;1.000000;1.000000;1.000000;-0.180288;0.180288;-0.180288;1.000000
445639.55410202;5696584.99449928;471.19514992;0.533333;0.521569;0.470588;33924.000000;1.000000;1.000000;1.000000;1.000000;-0.169659;0.169659;-0.169659;1.000000
445639.59169968;5696584.99569901;471.19455006;0.623529;0.615686;0.568627;40092.000000;1.000000;1.000000;1.000000;1.000000;-0.165746;0.165746;-0.165746;1.000000
445639.62899979;5696584.99689873;471.19854977;0.490196;0.490196;0.443137;31611.000000;1.000000;1.000000;1.000000;1.000000;-0.166899;0.166899;-0.166899;1.000000
445639.48270233;5696584.95439919;471.19385006;0.831373;0.827451;0.788235;53970.000000;1.000000;1.000000;1.000000;1.000000;-0.168009;0.168009;-0.168009;1.000000
445639.63039978;5696584.95939835;471.19354965;0.858824;0.85098;0.819608;55512.000000;1.000000;1.000000;1.000000;1.000000;-0.129398;0.129398;-0.129398;1.000000
445639.66780289;5696584.96059998;471.19754984;0.478431;0.470588;0.431373;30583.000000;1.000000;1.000000;1.000000;1.000000;-0.130600;0.130600;-0.130600;1.000000
445639.78310211;5696584.90059860;471.21134998;0.647059;0.631373;0.576471;41120.000000;1.000000;1.000000;1.000000;1.000000;-0.070599;0.070599;-0.070599;1.000000
445639.45540054;5696584.93379982;471.18534996;0.486275;0.482353;0.431373;31097.000000;1.000000;1.000000;1.000000;1.000000;-0.174464;0.174464;-0.174464;1.000000
445639.56430252;5696584.97499855;471.18844988;0.666667;0.658824;0.615686;42919.000000;1.000000;1.000000;1.000000;1.000000;-0.148344;0.148344;-0.148344;1.000000
445639.49040039;5696584.93509872;471.18925001;0.729412;0.72549;0.686275;47288.000000;1.000000;1.000000;1.000000;1.000000;-0.148722;0.148722;-0.148722;1.000000
445639.60310181;5696584.93869980;471.18744995;0.552941;0.541176;0.509804;35466.000000;1.000000;1.000000;1.000000;1.000000;-0.108700;0.108700;-0.108700;1.000000
445639.68060120;5696584.86839874;471.18774988;0.819608;0.815686;0.788235;53199.000000;1.000000;1.000000;1.000000;1.000000;-0.038434;0.038434;-0.038434;1.000000
445639.53030212;5696584.93610008;471.18874981;0.619608;0.603922;0.564706;39578.000000;1.000000;1.000000;1.000000;1.000000;-0.124598;0.124598;-0.124598;1.000000
445639.56560333;5696584.93750008;471.18575003;0.388235;0.372549;0.337255;24415.000000;1.000000;1.000000;1.000000;1.000000;-0.111614;0.111614;-0.111614;1.000000
445639.41909988;5696584.89509972;471.18324997;0.498039;0.478431;0.419608;31097.000000;1.000000;1.000000;1.000000;1.000000;-0.188148;0.188148;-0.188148;1.000000
445639.64210327;5696584.90479858;471.18415024;0.45098;0.443137;0.407843;28784.000000;1.000000;1.000000;1.000000;1.000000;-0.074799;0.074799;-0.074799;1.000000
445639.82820328;5696584.91259964;471.22284986;0.901961;0.898039;0.866667;58596.000000;1.000000;1.000000;1.000000;1.000000;-0.082600;0.082600;-0.082600;1.000000
445639.64080246;5696584.94219978;471.18685009;0.858824;0.854902;0.811765;55769.000000;1.000000;1.000000;1.000000;1.000000;-0.112200;0.112200;-0.112200;1.000000
445639.75710114;5696584.83569916;471.18615009;0.486275;0.466667;0.423529;30583.000000;1.000000;1.000000;1.000000;1.000000;-0.007733;0.007733;-0.007733;1.000000
445639.60690125;5696584.90339859;471.18485023;0.635294;0.623529;0.596078;40863.000000;1.000000;1.000000;1.000000;1.000000;0.073399;-0.073399;0.073399;1.000000
445639.71809967;5696584.86959847;471.18944981;0.698039;0.686275;0.65098;44718.000000;1.000000;1.000000;1.000000;1.000000;-0.039598;0.039598;-0.039598;1.000000
445639.73680313;5696584.87249954;471.19494965;0.729412;0.717647;0.678431;46774.000000;1.000000;1.000000;1.000000;1.000000;-0.042500;0.042500;-0.042500;1.000000
445639.81290253;5696584.83729942;471.19805004;0.572549;0.556863;0.513725;36237.000000;1.000000;1.000000;1.000000;1.000000;-0.007299;0.007299;-0.007299;1.000000
445639.82570084;5696584.98749931;471.22594978;0.313725;0.305882;0.278431;19789.000000;1.000000;1.000000;1.000000;1.000000;-0.157499;0.157499;-0.157499;1.000000
445639.60210236;5696584.97849854;471.18785002;0.568627;0.560784;0.517647;36494.000000;1.000000;1.000000;1.000000;1.000000;-0.148499;0.148499;-0.148499;1.000000
445639.51780136;5696584.95579918;471.19544985;0.607843;0.596078;0.556863;38807.000000;1.000000;1.000000;1.000000;1.000000;-0.147926;0.147926;-0.147926;1.000000
445639.66909988;5696584.92309959;471.19484999;0.658824;0.65098;0.619608;42405.000000;1.000000;1.000000;1.000000;1.000000;-0.093100;0.093100;-0.093100;1.000000
445639.70670135;5696584.92659958;471.19665005;0.65098;0.639216;0.6;41634.000000;1.000000;1.000000;1.000000;1.000000;-0.096600;0.096600;-0.096600;1.000000
445639.78429993;5696584.85629852;471.19694998;0.698039;0.686275;0.639216;44718.000000;1.000000;1.000000;1.000000;1.000000;-0.026299;0.026299;-0.026299;1.000000
445639.44580276;5696584.93229874;471.18724968;0.478431;0.47451;0.423529;30583.000000;1.000000;1.000000;1.000000;1.000000;-0.181417;0.181417;-0.181417;1.000000
445639.55470093;5696584.97349937;471.19024994;0.65098;0.639216;0.592157;41634.000000;1.000000;1.000000;1.000000;1.000000;-0.149221;0.149221;-0.149221;1.000000
445639.59259995;5696584.97709854;471.18734982;0.572549;0.572549;0.529412;37008.000000;1.000000;1.000000;1.000000;1.000000;-0.147130;0.147130;-0.147130;1.000000
445639.48360260;5696584.93579872;471.18664982;0.823529;0.819608;0.780392;53456.000000;1.000000;1.000000;1.000000;1.000000;-0.154087;0.154087;-0.154087;1.000000
445639.52070053;5696584.93459900;471.19065001;0.647059;0.635294;0.6;41377.000000;1.000000;1.000000;1.000000;1.000000;-0.128666;0.128666;-0.128666;1.000000
445639.59380157;5696584.93960007;471.18704988;0.447059;0.439216;0.403922;28527.000000;1.000000;1.000000;1.000000;1.000000;-0.109615;0.109615;-0.109615;1.000000
445639.81750305;5696584.95089920;471.22755005;0.435294;0.423529;0.4;27756.000000;1.000000;1.000000;1.000000;1.000000;-0.120899;0.120899;-0.120899;1.000000
445639.81870087;5696584.91109856;471.22244980;0.870588;0.866667;0.835294;56540.000000;1.000000;1.000000;1.000000;1.000000;-0.081099;0.081099;-0.081099;1.000000
445639.67370041;5696584.86909874;471.18744995;0.858824;0.858824;0.831373;56026.000000;1.000000;1.000000;1.000000;1.000000;-0.039099;0.039099;-0.039099;1.000000
445639.52520187;5696585.01120003;471.19875004;0.435294;0.423529;0.356863;27499.000000;1.000000;1.000000;1.000000;1.000000;-0.194405;0.194405;-0.194405;1.000000
445639.56280334;5696585.01239975;471.19574978;0.447059;0.435294;0.376471;28270.000000;1.000000;1.000000;1.000000;1.000000;-0.185330;0.185330;-0.185330;1.000000
445639.60010345;5696585.01349838;471.19984962;0.482353;0.478431;0.431373;30840.000000;1.000000;1.000000;1.000000;1.000000;-0.183498;0.183498;-0.183498;1.000000
445639.49110229;5696584.97229965;471.19904997;0.72549;0.721569;0.682353;47031.000000;1.000000;1.000000;1.000000;1.000000;-0.176563;0.176563;-0.176563;1.000000
445639.52880295;5696584.97349937;471.19614985;0.654902;0.647059;0.596078;42148.000000;1.000000;1.000000;1.000000;1.000000;-0.158296;0.158296;-0.158296;1.000000
445639.63920029;5696584.97959908;471.19654991;0.596078;0.588235;0.54902;38293.000000;1.000000;1.000000;1.000000;1.000000;-0.149599;0.149599;-0.149599;1.000000
445639.67780121;5696584.94329842;471.19784977;0.611765;0.6;0.564706;39064.000000;1.000000;1.000000;1.000000;1.000000;-0.113298;0.113298;-0.113298;1.000000
445639.82670029;5696584.94999893;471.23024990;0.345098;0.337255;0.317647;22102.000000;1.000000;1.000000;1.000000;1.000000;-0.119999;0.119999;-0.119999;1.000000
445639.55860336;5696584.93820007;471.18774988;0.454902;0.435294;0.4;28527.000000;1.000000;1.000000;1.000000;1.000000;-0.114359;0.114359;-0.114359;1.000000
445639.40979965;5696584.89589890;471.18514969;0.521569;0.501961;0.443137;32639.000000;1.000000;1.000000;1.000000;1.000000;-0.197166;0.197166;-0.197166;1.000000
445639.63290222;5696584.90559967;471.18374969;0.431373;0.423529;0.388235;27499.000000;1.000000;1.000000;1.000000;1.000000;-0.075600;0.075600;-0.075600;1.000000
445639.74780090;5696584.83419998;471.18335011;0.505882;0.494118;0.454902;32125.000000;1.000000;1.000000;1.000000;1.000000;-0.004200;0.004200;-0.004200;1.000000
445639.81270035;5696585.02379997;471.22584965;0.682353;0.678431;0.635294;44204.000000;1.000000;1.000000;1.000000;1.000000;-0.193800;0.193800;-0.193800;1.000000
445639.63160141;5696584.94310005;471.18645002;0.752941;0.74902;0.709804;48830.000000;1.000000;1.000000;1.000000;1.000000;-0.113100;0.113100;-0.113100;1.000000
445639.70880325;5696584.87049873;471.18905022;0.588235;0.580392;0.54902;37779.000000;1.000000;1.000000;1.000000;1.000000;-0.040499;0.040499;-0.040499;1.000000
445639.81630142;5696584.98609932;471.22324993;0.388235;0.384314;0.368627;24929.000000;1.000000;1.000000;1.000000;1.000000;-0.156099;0.156099;-0.156099;1.000000
445639.78500183;5696584.83539970;471.18975021;0.443137;0.423529;0.372549;27756.000000;1.000000;1.000000;1.000000;1.000000;-0.005400;0.005400;-0.005400;1.000000
445639.41909988;5696584.92299850;471.19054987;0.592157;0.580392;0.529412;37779.000000;1.000000;1.000000;1.000000;1.000000;-0.199526;0.199526;-0.199526;1.000000
445639.56580170;5696584.96549995;471.18835022;0.592157;0.580392;0.541176;37779.000000;1.000000;1.000000;1.000000;1.000000;-0.138744;0.138744;-0.138744;1.000000
445639.60099991;5696584.96689995;471.18765022;0.454902;0.45098;0.407843;29298.000000;1.000000;1.000000;1.000000;1.000000;-0.136900;0.136900;-0.136900;1.000000
445639.49200256;5696584.92569931;471.18685009;0.760784;0.760784;0.72549;49601.000000;1.000000;1.000000;1.000000;1.000000;-0.141054;0.141054;-0.141054;1.000000
445639.60470016;5696584.93149956;471.18734982;0.647059;0.639216;0.603922;41634.000000;1.000000;1.000000;1.000000;1.000000;-0.101500;0.101500;-0.101500;1.000000
445639.56730087;5696584.93039902;471.18564989;0.490196;0.47451;0.439216;31097.000000;1.000000;1.000000;1.000000;1.000000;-0.104318;0.104318;-0.104318;1.000000
445639.75539978;5696584.87299927;471.19815018;0.764706;0.74902;0.705882;48830.000000;1.000000;1.000000;1.000000;1.000000;-0.043140;0.043140;-0.043140;1.000000
445639.79440125;5696584.83679970;471.19255020;0.470588;0.462745;0.411765;30069.000000;1.000000;1.000000;1.000000;1.000000;-0.006800;0.006800;-0.006800;1.000000
445639.64350327;5696584.89529999;471.18634989;0.462745;0.45098;0.419608;29555.000000;1.000000;1.000000;1.000000;1.000000;-0.065300;0.065300;-0.065300;1.000000
445639.82960327;5696584.90309914;471.22284986;0.796078;0.788235;0.752941;51400.000000;1.000000;1.000000;1.000000;1.000000;-0.073099;0.073099;-0.073099;1.000000
445639.71960266;5696584.86019905;471.18704988;0.635294;0.627451;0.596078;40863.000000;1.000000;1.000000;1.000000;1.000000;-0.030199;0.030199;-0.030199;1.000000
445639.64000137;5696584.93299873;471.18664982;0.8;0.796078;0.760784;51914.000000;1.000000;1.000000;1.000000;1.000000;-0.102999;0.102999;-0.102999;1.000000
445639.67990311;5696584.85919960;471.18524982;0.792157;0.788235;0.760784;51400.000000;1.000000;1.000000;1.000000;1.000000;-0.029215;0.029215;-0.029215;1.000000
445639.78250320;5696584.89139946;471.20655014;0.698039;0.682353;0.627451;44461.000000;1.000000;1.000000;1.000000;1.000000;-0.061403;0.061403;-0.061403;1.000000
445639.45290192;5696584.95959862;471.19014980;0.564706;0.568627;0.52549;36751.000000;1.000000;1.000000;1.000000;1.000000;-0.192785;0.192785;-0.192785;1.000000
445639.45450027;5696584.92449959;471.18514969;0.521569;0.517647;0.466667;33410.000000;1.000000;1.000000;1.000000;1.000000;-0.169844;0.169844;-0.169844;1.000000
445639.52950104;5696584.92689903;471.18625023;0.588235;0.576471;0.537255;37522.000000;1.000000;1.000000;1.000000;1.000000;-0.117312;0.117312;-0.117312;1.000000
445639.82480057;5696584.97829826;471.22584965;0.270588;0.258824;0.231373;16962.000000;1.000000;1.000000;1.000000;1.000000;-0.148298;0.148298;-0.148298;1.000000
445639.79360016;5696584.82759865;471.19004967;0.345098;0.329412;0.27451;21331.000000;1.000000;1.000000;1.000000;1.000000;0.002401;-0.002401;0.002401;1.000000
445639.70790298;5696584.88909920;471.19624998;0.47451;0.466667;0.431373;30326.000000;1.000000;1.000000;1.000000;1.000000;-0.059099;0.059099;-0.059099;1.000000
445639.67910202;5696584.90579994;471.19514992;0.8;0.792157;0.760784;51657.000000;1.000000;1.000000;1.000000;1.000000;-0.075800;0.075800;-0.075800;1.000000
445639.44600113;5696584.96019943;471.18984987;0.572549;0.576471;0.52549;37265.000000;1.000000;1.000000;1.000000;1.000000;-0.198343;0.198343;-0.198343;1.000000
445639.44530304;5696584.92539986;471.18475010;0.54902;0.541176;0.490196;35209.000000;1.000000;1.000000;1.000000;1.000000;-0.178040;0.178040;-0.178040;1.000000
445639.55640228;5696584.96629913;471.19024994;0.639216;0.623529;0.584314;40863.000000;1.000000;1.000000;1.000000;1.000000;-0.141831;0.141831;-0.141831;1.000000
445639.59169968;5696584.96779831;471.18724968;0.45098;0.447059;0.403922;29041.000000;1.000000;1.000000;1.000000;1.000000;-0.137854;0.137854;-0.137854;1.000000
