//X;Y;Z;Rf;Gf;Bf;Intensity;Return Number;Number Of Returns;Scan Direction Flag;Point Source ID;C2M signed distances[-][<0.8];C2M signed distances[<0.4];C2M signed distances[-][<0.2];Stump86
300
445617.30010231;5696575.18279942;472.37404968;0.494118;0.482353;0.454902;31611.000000;1.000000;1.000000;1.000000;1.000000;-0.076775;0.076775;-0.076775;1.000000
445617.18940170;5696575.14109905;472.41045000;0.913725;0.913725;0.882353;59624.000000;1.000000;1.000000;1.000000;1.000000;-0.187476;0.187476;-0.187476;1.000000
445617.22350128;5696575.27359875;472.39494993;0.45098;0.443137;0.427451;29041.000000;1.000000;1.000000;1.000000;1.000000;0.056474;-0.056474;0.056474;1.000000
445617.14980133;5696575.23379906;472.39115002;0.490196;0.466667;0.427451;30583.000000;1.000000;1.000000;1.000000;1.000000;0.096561;-0.096561;0.096561;1.000000
445617.22250183;5696575.23639877;472.39214994;0.345098;0.333333;0.313725;21845.000000;1.000000;1.000000;1.000000;1.000000;0.093620;-0.093620;0.093620;1.000000
445617.22970207;5696575.08859928;472.39304974;0.392157;0.372549;0.345098;24415.000000;1.000000;1.000000;1.000000;1.000000;-0.147175;0.147175;-0.147175;1.000000
445617.23090179;5696575.05109890;472.39265015;0.301961;0.278431;0.239216;18247.000000;1.000000;1.000000;1.000000;1.000000;-0.145976;0.145976;-0.145976;1.000000
445617.23430069;5696575.01339920;472.39465000;0.411765;0.384314;0.309804;25186.000000;1.000000;1.000000;1.000000;1.000000;-0.142577;0.142577;-0.142577;1.000000
445617.20530136;5696575.48759945;472.41295006;0.745098;0.741176;0.709804;48316.000000;1.000000;1.000000;1.000000;1.000000;-0.015326;0.015326;-0.015326;1.000000
445617.35030182;5696575.49349888;472.37064983;0.67451;0.658824;0.623529;43176.000000;1.000000;1.000000;1.000000;1.000000;-0.004674;0.004674;-0.004674;1.000000
445617.04160126;5696575.53779896;472.41314985;0.462745;0.447059;0.4;29041.000000;1.000000;1.000000;1.000000;1.000000;-0.179026;0.179026;-0.179026;1.000000
445617.07910164;5696575.53669937;472.41015007;0.537255;0.521569;0.486275;34181.000000;1.000000;1.000000;1.000000;1.000000;-0.141526;0.141526;-0.141526;1.000000
445617.20210083;5696575.45059879;472.40775015;0.756863;0.768627;0.752941;49858.000000;1.000000;1.000000;1.000000;1.000000;-0.018527;0.018527;-0.018527;1.000000
445617.32460220;5696575.26929958;472.37384989;0.34902;0.333333;0.313725;21845.000000;1.000000;1.000000;1.000000;1.000000;0.060700;-0.060700;0.060700;1.000000
445617.29640205;5696575.04299934;472.37454988;0.517647;0.494118;0.45098;32382.000000;1.000000;1.000000;1.000000;1.000000;-0.080475;0.080475;-0.080475;1.000000
445617.10380180;5696574.96259888;472.38345005;0.666667;0.654902;0.615686;42662.000000;1.000000;1.000000;1.000000;1.000000;-0.132599;0.132599;-0.132599;1.000000
445617.06610115;5696574.95909889;472.38175013;0.380392;0.368627;0.32549;23901.000000;1.000000;1.000000;1.000000;1.000000;-0.129099;0.129099;-0.129099;1.000000
445617.10230072;5696574.99779900;472.38385012;0.580392;0.564706;0.513725;36751.000000;1.000000;1.000000;1.000000;1.000000;-0.167799;0.167799;-0.167799;1.000000
445617.06480225;5696574.99659927;472.38444998;0.54902;0.533333;0.478431;34695.000000;1.000000;1.000000;1.000000;1.000000;-0.166599;0.166599;-0.166599;1.000000
445617.24810226;5696575.07999905;472.38215019;0.270588;0.239216;0.211765;15934.000000;1.000000;1.000000;1.000000;1.000000;-0.128775;0.128775;-0.128775;1.000000
445616.98370178;5696575.36579903;472.40845015;0.435294;0.431373;0.403922;28013.000000;1.000000;1.000000;1.000000;1.000000;-0.178061;0.178061;-0.178061;1.000000
445617.07210167;5696575.30409916;472.39314987;0.513725;0.501961;0.462745;32639.000000;1.000000;1.000000;1.000000;1.000000;0.089840;-0.089840;0.089840;1.000000
445617.14490135;5696575.30669888;472.39174988;0.65098;0.631373;0.6;41377.000000;1.000000;1.000000;1.000000;1.000000;0.026793;-0.026793;0.026793;1.000000
445617.22230156;5696575.31109913;472.39535000;0.321569;0.317647;0.290196;20560.000000;1.000000;1.000000;1.000000;1.000000;0.018975;-0.018975;0.018975;1.000000
445617.22820099;5696575.12369926;472.39564993;0.427451;0.407843;0.372549;26728.000000;1.000000;1.000000;1.000000;1.000000;-0.148676;0.148676;-0.148676;1.000000
445617.00350197;5696575.37569912;472.40485003;0.678431;0.67451;0.639216;43947.000000;1.000000;1.000000;1.000000;1.000000;-0.161237;0.161237;-0.161237;1.000000
445617.00480087;5696575.33819874;472.40214970;0.564706;0.560784;0.521569;36494.000000;1.000000;1.000000;1.000000;1.000000;-0.153546;0.153546;-0.153546;1.000000
445617.04380234;5696575.30429943;472.39884998;0.623529;0.615686;0.584314;40092.000000;1.000000;1.000000;1.000000;1.000000;0.117178;-0.117178;0.117178;1.000000
445617.15490158;5696575.28939922;472.39435007;0.568627;0.552941;0.517647;36237.000000;1.000000;1.000000;1.000000;1.000000;0.040729;-0.040729;0.040729;1.000000
445616.91990097;5696574.99069889;472.42444994;0.384314;0.380392;0.27451;24158.000000;1.000000;1.000000;1.000000;1.000000;-0.161875;0.161875;-0.161875;1.000000
445616.99200066;5696574.99389942;472.38584997;0.560784;0.54902;0.470588;35466.000000;1.000000;1.000000;1.000000;1.000000;-0.164197;0.164197;-0.164197;1.000000
445617.19190224;5696575.52369888;472.42215015;0.843137;0.85098;0.831373;55255.000000;1.000000;1.000000;1.000000;1.000000;-0.028725;0.028725;-0.028725;1.000000
445617.30380066;5696575.52799900;472.38525011;0.184314;0.168627;0.137255;11051.000000;1.000000;1.000000;1.000000;1.000000;0.041827;-0.041827;0.041827;1.000000
445617.26760109;5696575.48929890;472.38315012;0.745098;0.721569;0.670588;47288.000000;1.000000;1.000000;1.000000;1.000000;0.046974;-0.046974;0.046974;1.000000
445617.23600204;5696575.37779911;472.38504984;0.501961;0.478431;0.454902;31611.000000;1.000000;1.000000;1.000000;1.000000;0.015375;-0.015375;0.015375;1.000000
445617.23840149;5696575.30279930;472.38434984;0.384314;0.360784;0.337255;23901.000000;1.000000;1.000000;1.000000;1.000000;-0.027201;0.027201;-0.027201;1.000000
445617.32200249;5696575.11989887;472.38124992;0.607843;0.596078;0.556863;38807.000000;1.000000;1.000000;1.000000;1.000000;-0.054875;0.054875;-0.054875;1.000000
445617.17010124;5696575.38349922;472.40784981;0.701961;0.694118;0.67451;45489.000000;1.000000;1.000000;1.000000;1.000000;-0.050526;0.050526;-0.050526;1.000000
445617.32070168;5696575.35149868;472.36994984;0.407843;0.4;0.376471;25957.000000;1.000000;1.000000;1.000000;1.000000;-0.021499;0.021499;-0.021499;1.000000
445617.28420074;5696575.31269939;472.37484982;0.568627;0.552941;0.517647;36237.000000;1.000000;1.000000;1.000000;1.000000;-0.017334;0.017334;-0.017334;1.000000
445617.32200249;5696575.31629951;472.37194969;0.560784;0.556863;0.529412;36237.000000;1.000000;1.000000;1.000000;1.000000;0.013700;-0.013700;0.013700;1.000000
445617.29250153;5696575.12739952;472.37535002;0.65098;0.639216;0.6;41634.000000;1.000000;1.000000;1.000000;1.000000;-0.084376;0.084376;-0.084376;1.000000
445616.90410240;5696575.00129898;472.43314983;0.427451;0.431373;0.305882;27242.000000;1.000000;1.000000;1.000000;1.000000;-0.174893;0.174893;-0.174893;1.000000
445617.14660080;5696575.45579918;472.40525009;0.686275;0.682353;0.658824;44461.000000;1.000000;1.000000;1.000000;1.000000;-0.074027;0.074027;-0.074027;1.000000
445617.33220108;5696575.50209911;472.37694981;0.823529;0.815686;0.784314;53199.000000;1.000000;1.000000;1.000000;1.000000;0.013426;-0.013426;0.013426;1.000000
445617.26660164;5696575.27469929;472.37365009;0.262745;0.235294;0.211765;15677.000000;1.000000;1.000000;1.000000;1.000000;-0.055301;0.055301;-0.055301;1.000000
445617.27500160;5696575.08929928;472.37414982;0.541176;0.517647;0.478431;33924.000000;1.000000;1.000000;1.000000;1.000000;-0.101876;0.101876;-0.101876;1.000000
445617.12780197;5696575.29669960;472.38625004;0.713725;0.690196;0.65098;45232.000000;1.000000;1.000000;1.000000;1.000000;0.045039;-0.045039;0.045039;1.000000
445617.30530174;5696575.49279888;472.38264992;0.768627;0.756863;0.717647;49344.000000;1.000000;1.000000;1.000000;1.000000;0.040326;-0.040326;0.040326;1.000000
445616.88940247;5696574.99789913;472.44175007;0.384314;0.392157;0.262745;24415.000000;1.000000;1.000000;1.000000;1.000000;-0.175179;0.175179;-0.175179;1.000000
445617.21810158;5696575.49819954;472.40905001;0.545098;0.537255;0.509804;34952.000000;1.000000;1.000000;1.000000;1.000000;-0.002526;0.002526;-0.002526;1.000000
445617.18870171;5696575.38409908;472.41095020;0.85098;0.85098;0.831373;55512.000000;1.000000;1.000000;1.000000;1.000000;-0.031926;0.031926;-0.031926;1.000000
445617.19110115;5696575.30909927;472.41025021;0.831373;0.835294;0.815686;54484.000000;1.000000;1.000000;1.000000;1.000000;-0.020972;0.020972;-0.020972;1.000000
445617.19230087;5696575.27159889;472.40985014;0.792157;0.788235;0.772549;51400.000000;1.000000;1.000000;1.000000;1.000000;-0.058474;0.058474;-0.058474;1.000000
445617.19710167;5696575.19879921;472.41144993;0.54902;0.541176;0.513725;35209.000000;1.000000;1.000000;1.000000;1.000000;-0.131428;0.131428;-0.131428;1.000000
445617.27370079;5696575.12679871;472.37685015;0.462745;0.443137;0.396078;29041.000000;1.000000;1.000000;1.000000;1.000000;-0.103177;0.103177;-0.103177;1.000000
445617.19960220;5696575.12379940;472.40835001;0.882353;0.882353;0.854902;57568.000000;1.000000;1.000000;1.000000;1.000000;-0.177275;0.177275;-0.177275;1.000000
445617.12920197;5696575.00699909;472.37815001;0.709804;0.686275;0.635294;44975.000000;1.000000;1.000000;1.000000;1.000000;-0.176999;0.176999;-0.176999;1.000000
445617.27890213;5696574.97929867;472.37064983;0.65098;0.635294;0.584314;41377.000000;1.000000;1.000000;1.000000;1.000000;-0.097975;0.097975;-0.097975;1.000000
445617.16380127;5696575.49379929;472.41344978;0.509804;0.505882;0.482353;32896.000000;1.000000;1.000000;1.000000;1.000000;-0.056826;0.056826;-0.056826;1.000000
445617.35110100;5696575.50279911;472.37314989;0.67451;0.662745;0.631373;43433.000000;1.000000;1.000000;1.000000;1.000000;-0.005474;0.005474;-0.005474;1.000000
445617.16760071;5696575.45839890;472.41095020;0.533333;0.529412;0.505882;34438.000000;1.000000;1.000000;1.000000;1.000000;-0.053027;0.053027;-0.053027;1.000000
445617.27730186;5696575.46289928;472.37164976;0.568627;0.54902;0.505882;35980.000000;1.000000;1.000000;1.000000;1.000000;0.056674;-0.056674;0.056674;1.000000
445617.16890152;5696575.42099960;472.40824987;0.631373;0.627451;0.607843;40863.000000;1.000000;1.000000;1.000000;1.000000;-0.051726;0.051726;-0.051726;1.000000
445617.24530228;5696575.42369946;472.37675001;0.552941;0.54902;0.517647;35723.000000;1.000000;1.000000;1.000000;1.000000;0.024675;-0.024675;0.024675;1.000000
445617.24770172;5696575.34879883;472.37594988;0.552941;0.529412;0.486275;34695.000000;1.000000;1.000000;1.000000;1.000000;0.018799;-0.018799;0.018799;1.000000
445617.20880135;5696575.34719952;472.40674974;0.686275;0.67451;0.65098;44204.000000;1.000000;1.000000;1.000000;1.000000;-0.011826;0.011826;-0.011826;1.000000
445617.17730148;5696575.23569878;472.40875008;0.811765;0.807843;0.788235;52685.000000;1.000000;1.000000;1.000000;1.000000;0.094301;-0.094301;0.094301;1.000000
445617.25160225;5696575.23869904;472.37255003;0.545098;0.52549;0.501961;34438.000000;1.000000;1.000000;1.000000;1.000000;-0.091301;0.091301;-0.091301;1.000000
445617.25380142;5696575.16369923;472.37634995;0.411765;0.380392;0.341176;25186.000000;1.000000;1.000000;1.000000;1.000000;-0.123076;0.123076;-0.123076;1.000000
445617.25870140;5696575.09079941;472.37575008;0.52549;0.498039;0.462745;32896.000000;1.000000;1.000000;1.000000;1.000000;-0.118176;0.118176;-0.118176;1.000000
445617.29370125;5696575.08989914;472.37494995;0.235294;0.219608;0.180392;14392.000000;1.000000;1.000000;1.000000;1.000000;-0.083176;0.083176;-0.083176;1.000000
445617.29500206;5696575.05469902;472.37694981;0.545098;0.529412;0.486275;34438.000000;1.000000;1.000000;1.000000;1.000000;-0.081875;0.081875;-0.081875;1.000000
445617.26090248;5696575.01359947;472.37494995;0.439216;0.411765;0.352941;26985.000000;1.000000;1.000000;1.000000;1.000000;-0.115975;0.115975;-0.115975;1.000000
445617.04030235;5696575.34199913;472.39914991;0.592157;0.584314;0.545098;38036.000000;1.000000;1.000000;1.000000;1.000000;-0.118434;0.118434;-0.118434;1.000000
445617.27900131;5696575.22919949;472.36665012;0.619608;0.603922;0.572549;39578.000000;1.000000;1.000000;1.000000;1.000000;-0.100801;0.100801;-0.100801;1.000000
445617.28030212;5696575.19409950;472.36864998;0.580392;0.560784;0.529412;36751.000000;1.000000;1.000000;1.000000;1.000000;-0.096838;0.096838;-0.096838;1.000000
445617.24060066;5696574.97789867;472.38754990;0.631373;0.603922;0.52549;39321.000000;1.000000;1.000000;1.000000;1.000000;-0.136277;0.136277;-0.136277;1.000000
445617.28860100;5696575.00639923;472.36674978;0.717647;0.705882;0.658824;46003.000000;1.000000;1.000000;1.000000;1.000000;-0.088276;0.088276;-0.088276;1.000000
445617.09000214;5696575.52869900;472.41055014;0.623529;0.607843;0.572549;39835.000000;1.000000;1.000000;1.000000;1.000000;-0.130625;0.130625;-0.130625;1.000000
445617.16260155;5696575.53129871;472.41384985;0.4;0.392157;0.360784;25443.000000;1.000000;1.000000;1.000000;1.000000;-0.058026;0.058026;-0.058026;1.000000
445617.12890060;5696575.49249943;472.40724995;0.368627;0.356863;0.32549;23387.000000;1.000000;1.000000;1.000000;1.000000;-0.091727;0.091727;-0.091727;1.000000
445617.24650200;5696575.38629921;472.37634995;0.572549;0.545098;0.517647;35980.000000;1.000000;1.000000;1.000000;1.000000;0.025875;-0.025875;0.025875;1.000000
445617.28320129;5696575.35029896;472.37054970;0.352941;0.337255;0.309804;22102.000000;1.000000;1.000000;1.000000;1.000000;0.020299;-0.020299;0.020299;1.000000
445617.20790108;5696575.31229885;472.40634968;0.52549;0.529412;0.509804;34438.000000;1.000000;1.000000;1.000000;1.000000;-0.021801;0.021801;-0.021801;1.000000
445617.08130081;5696575.48289879;472.40494968;0.643137;0.635294;0.596078;41377.000000;1.000000;1.000000;1.000000;1.000000;-0.139327;0.139327;-0.139327;1.000000
445617.12010201;5696575.44659908;472.40164997;0.470588;0.458824;0.423529;29812.000000;1.000000;1.000000;1.000000;1.000000;-0.100525;0.100525;-0.100525;1.000000
445617.04870232;5696575.40659912;472.40024998;0.501961;0.490196;0.439216;31868.000000;1.000000;1.000000;1.000000;1.000000;-0.133571;0.133571;-0.133571;1.000000
445617.08390244;5696575.40799912;472.39954998;0.592157;0.580392;0.537255;37779.000000;1.000000;1.000000;1.000000;1.000000;-0.107672;0.107672;-0.107672;1.000000
445617.11460121;5696575.38189896;472.38894989;0.572549;0.560784;0.52549;36494.000000;1.000000;1.000000;1.000000;1.000000;-0.067735;0.067735;-0.067735;1.000000
445617.15550240;5696575.27059944;472.39414980;0.45098;0.435294;0.396078;28527.000000;1.000000;1.000000;1.000000;1.000000;0.059459;-0.059459;0.059459;1.000000
445617.27070244;5696575.41459950;472.36614992;0.596078;0.584314;0.552941;38293.000000;1.000000;1.000000;1.000000;1.000000;0.050075;-0.050075;0.050075;1.000000
445617.22820099;5696575.34799870;472.39374973;0.427451;0.415686;0.388235;27242.000000;1.000000;1.000000;1.000000;1.000000;0.007574;-0.007574;0.007574;1.000000
445617.22710236;5696575.31079872;472.39085009;0.388235;0.372549;0.34902;24415.000000;1.000000;1.000000;1.000000;1.000000;-0.019355;0.019355;-0.019355;1.000000
445617.22830208;5696575.27329929;472.39045002;0.427451;0.411765;0.396078;26985.000000;1.000000;1.000000;1.000000;1.000000;-0.056714;0.056714;-0.056714;1.000000
445617.23910149;5696575.01299961;472.39024975;0.364706;0.333333;0.262745;21845.000000;1.000000;1.000000;1.000000;1.000000;-0.137776;0.137776;-0.137776;1.000000
445617.17800148;5696575.03949936;472.39944984;0.686275;0.666667;0.627451;43690.000000;1.000000;1.000000;1.000000;1.000000;-0.198876;0.198876;-0.198876;1.000000
445617.22240074;5696575.46069916;472.39244987;0.521569;0.513725;0.478431;33410.000000;1.000000;1.000000;1.000000;1.000000;0.001773;-0.001773;0.001773;1.000000
445617.08140190;5696575.30319889;472.39354994;0.580392;0.564706;0.52549;37008.000000;1.000000;1.000000;1.000000;1.000000;0.081272;-0.081272;0.081272;1.000000
445617.23440178;5696575.16289909;472.38945009;0.4;0.368627;0.337255;24415.000000;1.000000;1.000000;1.000000;1.000000;-0.142476;0.142476;-0.142476;1.000000
445617.23550232;5696575.12539871;472.39134981;0.396078;0.372549;0.341176;24415.000000;1.000000;1.000000;1.000000;1.000000;-0.141375;0.141375;-0.141375;1.000000
445617.34490211;5696575.45679958;472.36305000;0.478431;0.466667;0.427451;30326.000000;1.000000;1.000000;1.000000;1.000000;0.016352;-0.016352;0.016352;1.000000
445617.30850227;5696575.41809948;472.36324980;0.517647;0.505882;0.470588;32896.000000;1.000000;1.000000;1.000000;1.000000;0.066377;-0.066377;0.066377;1.000000
445617.30960091;5696575.38059910;472.36514999;0.372549;0.356863;0.333333;23387.000000;1.000000;1.000000;1.000000;1.000000;0.050599;-0.050599;0.050599;1.000000
445617.34730156;5696575.38179882;472.36224987;0.25098;0.231373;0.207843;15163.000000;1.000000;1.000000;1.000000;1.000000;-0.051799;0.051799;-0.051799;1.000000
445617.15880211;5696575.41029938;472.40294983;0.529412;0.517647;0.494118;33924.000000;1.000000;1.000000;1.000000;1.000000;-0.061825;0.061825;-0.061825;1.000000
445617.16000183;5696575.37289913;472.40254976;0.560784;0.54902;0.521569;35980.000000;1.000000;1.000000;1.000000;1.000000;-0.042899;0.042899;-0.042899;1.000000
445617.30790146;5696574.96029957;472.36245014;0.541176;0.52549;0.47451;34181.000000;1.000000;1.000000;1.000000;1.000000;-0.068976;0.068976;-0.068976;1.000000
445616.89750107;5696574.98089893;472.43494989;0.227451;0.2;0.0823529;12593.000000;1.000000;1.000000;1.000000;1.000000;-0.156602;0.156602;-0.156602;1.000000
445617.00820168;5696575.02259930;472.39855005;0.576471;0.545098;0.454902;35466.000000;1.000000;1.000000;1.000000;1.000000;-0.192599;0.192599;-0.192599;1.000000
445617.27210243;5696575.37939938;472.36574986;0.278431;0.262745;0.231373;17219.000000;1.000000;1.000000;1.000000;1.000000;0.049399;-0.049399;0.049399;1.000000
445617.16710098;5696575.22499950;472.40345003;0.584314;0.572549;0.541176;37522.000000;1.000000;1.000000;1.000000;1.000000;0.105000;-0.105000;0.105000;1.000000
445617.19100197;5696575.10599907;472.40544989;0.913725;0.917647;0.890196;59624.000000;1.000000;1.000000;1.000000;1.000000;-0.185875;0.185875;-0.185875;1.000000
445617.21080215;5696575.11589916;472.40184977;0.764706;0.760784;0.733333;49601.000000;1.000000;1.000000;1.000000;1.000000;-0.166075;0.166075;-0.166075;1.000000
445617.21310242;5696575.04089935;472.40334990;0.541176;0.533333;0.486275;34695.000000;1.000000;1.000000;1.000000;1.000000;-0.163775;0.163775;-0.163775;1.000000
445617.26930244;5696575.48219879;472.38084986;0.737255;0.713725;0.666667;46774.000000;1.000000;1.000000;1.000000;1.000000;0.048675;-0.048675;0.048675;1.000000
445617.02010162;5696575.37649925;472.40094997;0.498039;0.490196;0.447059;31868.000000;1.000000;1.000000;1.000000;1.000000;-0.145648;0.145648;-0.145648;1.000000
445616.98580177;5696575.33759888;472.40595009;0.635294;0.635294;0.603922;41377.000000;1.000000;1.000000;1.000000;1.000000;-0.172493;0.172493;-0.172493;1.000000
445617.02370079;5696575.33879955;472.39834978;0.494118;0.486275;0.447059;31611.000000;1.000000;1.000000;1.000000;1.000000;-0.134714;0.134714;-0.134714;1.000000
445617.23820122;5696575.05279930;472.38835003;0.254902;0.219608;0.184314;14649.000000;1.000000;1.000000;1.000000;1.000000;-0.138676;0.138676;-0.138676;1.000000
445617.23030098;5696575.52519901;472.40284969;0.407843;0.388235;0.337255;25443.000000;1.000000;1.000000;1.000000;1.000000;0.009674;-0.009674;0.009674;1.000000
445617.16120155;5696575.33539875;472.40214970;0.576471;0.568627;0.545098;37008.000000;1.000000;1.000000;1.000000;1.000000;-0.005399;0.005399;-0.005399;1.000000
445617.16490181;5696575.29999931;472.40194990;0.603922;0.596078;0.568627;38807.000000;1.000000;1.000000;1.000000;1.000000;0.030001;-0.030001;0.030001;1.000000
445617.20340164;5696575.26369961;472.40555002;0.764706;0.764706;0.745098;49858.000000;1.000000;1.000000;1.000000;1.000000;-0.067767;0.067767;-0.067767;1.000000
445617.28980072;5696574.96899899;472.36634972;0.564706;0.552941;0.501961;35980.000000;1.000000;1.000000;1.000000;1.000000;-0.087077;0.087077;-0.087077;1.000000
445617.23280151;5696575.44119938;472.38105013;0.8;0.796078;0.768627;51914.000000;1.000000;1.000000;1.000000;1.000000;0.012174;-0.012174;0.012174;1.000000
445617.23750122;5696575.36829956;472.38504984;0.494118;0.470588;0.447059;31097.000000;1.000000;1.000000;1.000000;1.000000;0.016874;-0.016874;0.016874;1.000000
445617.28000076;5696575.24079903;472.36914970;0.705882;0.690196;0.658824;45232.000000;1.000000;1.000000;1.000000;1.000000;-0.089201;0.089201;-0.089201;1.000000
445617.12560089;5696575.53019913;472.40284969;0.388235;0.372549;0.32549;24158.000000;1.000000;1.000000;1.000000;1.000000;-0.095026;0.095026;-0.095026;1.000000
445617.20780190;5696575.45949944;472.40345003;0.635294;0.639216;0.615686;41634.000000;1.000000;1.000000;1.000000;1.000000;-0.012825;0.012825;-0.012825;1.000000
445617.31500061;5696575.46419914;472.36644985;0.588235;0.572549;0.533333;37522.000000;1.000000;1.000000;1.000000;1.000000;0.031885;-0.031885;0.031885;1.000000
445617.20680244;5696575.42229946;472.40065004;0.639216;0.643137;0.631373;41891.000000;1.000000;1.000000;1.000000;1.000000;-0.013825;0.013825;-0.013825;1.000000
445617.17140205;5696575.34609898;472.40504982;0.701961;0.698039;0.678431;45489.000000;1.000000;1.000000;1.000000;1.000000;-0.016099;0.016099;-0.016099;1.000000
445617.17380150;5696575.27109917;472.40434982;0.67451;0.662745;0.635294;43433.000000;1.000000;1.000000;1.000000;1.000000;0.058901;-0.058901;0.058901;1.000000
445617.21000107;5696575.16249950;472.41165020;0.615686;0.6;0.564706;39321.000000;1.000000;1.000000;1.000000;1.000000;-0.166876;0.166876;-0.166876;1.000000
445617.25490196;5696574.97669895;472.37885000;0.670588;0.643137;0.572549;42148.000000;1.000000;1.000000;1.000000;1.000000;-0.121975;0.121975;-0.121975;1.000000
445617.02120216;5696575.41379936;472.40144970;0.388235;0.380392;0.329412;24672.000000;1.000000;1.000000;1.000000;1.000000;-0.160533;0.160533;-0.160533;1.000000
445617.23860176;5696575.33079918;472.38464977;0.439216;0.415686;0.384314;27242.000000;1.000000;1.000000;1.000000;1.000000;0.000799;-0.000799;0.000799;1.000000
445617.23980148;5696575.29329880;472.38425018;0.360784;0.337255;0.313725;22359.000000;1.000000;1.000000;1.000000;1.000000;-0.036701;0.036701;-0.036701;1.000000
445617.09300240;5696575.24859913;472.38404991;0.352941;0.337255;0.294118;21845.000000;1.000000;1.000000;1.000000;1.000000;0.104247;-0.104247;0.104247;1.000000
445617.12850197;5696575.25229939;472.38345005;0.564706;0.537255;0.494118;35209.000000;1.000000;1.000000;1.000000;1.000000;0.083157;-0.083157;0.083157;1.000000
445617.24110229;5696575.25589951;472.38154985;0.662745;0.643137;0.619608;42148.000000;1.000000;1.000000;1.000000;1.000000;-0.074100;0.074100;-0.074100;1.000000
445617.08310135;5696575.45459946;472.40934994;0.552941;0.54902;0.509804;35723.000000;1.000000;1.000000;1.000000;1.000000;-0.137526;0.137526;-0.137526;1.000000
445617.31140144;5696575.35229881;472.37185003;0.490196;0.482353;0.454902;31354.000000;1.000000;1.000000;1.000000;1.000000;0.022299;-0.022299;0.022299;1.000000
445617.27490242;5696575.31359871;472.37444975;0.654902;0.635294;0.603922;41634.000000;1.000000;1.000000;1.000000;1.000000;-0.016401;0.016401;-0.016401;1.000000
445617.31260117;5696575.31479939;472.37155010;0.447059;0.439216;0.411765;28527.000000;1.000000;1.000000;1.000000;1.000000;-0.015201;0.015201;-0.015201;1.000000
445617.24600227;5696575.10829933;472.38234999;0.54902;0.52549;0.498039;34695.000000;1.000000;1.000000;1.000000;1.000000;-0.130875;0.130875;-0.130875;1.000000
445617.24850090;5696575.03329952;472.37925007;0.372549;0.337255;0.290196;22359.000000;1.000000;1.000000;1.000000;1.000000;-0.128376;0.128376;-0.128376;1.000000
445617.25190170;5696574.99559887;472.38124992;0.588235;0.564706;0.501961;37008.000000;1.000000;1.000000;1.000000;1.000000;-0.124976;0.124976;-0.124976;1.000000
445617.02750214;5696575.43179901;472.40424969;0.466667;0.462745;0.415686;29812.000000;1.000000;1.000000;1.000000;1.000000;-0.165608;0.165608;-0.165608;1.000000
445617.02910240;5696575.39669903;472.39925005;0.533333;0.52549;0.486275;34181.000000;1.000000;1.000000;1.000000;1.000000;-0.145245;0.145245;-0.145245;1.000000
445617.03380211;5696575.32159908;472.39855005;0.627451;0.619608;0.584314;40349.000000;1.000000;1.000000;1.000000;1.000000;0.124609;-0.124609;0.124609;1.000000
445617.15690239;5696575.49449928;472.41085007;0.392157;0.384314;0.360784;24929.000000;1.000000;1.000000;1.000000;1.000000;-0.063725;0.063725;-0.063725;1.000000
445617.19560249;5696575.45819958;472.41214993;0.835294;0.839216;0.823529;54741.000000;1.000000;1.000000;1.000000;1.000000;-0.025025;0.025025;-0.025025;1.000000
445617.27010162;5696575.46119888;472.37134983;0.517647;0.494118;0.45098;32382.000000;1.000000;1.000000;1.000000;1.000000;0.049474;-0.049474;0.049474;1.000000
445617.19830139;5696575.38549908;472.40915014;0.733333;0.741176;0.729412;48316.000000;1.000000;1.000000;1.000000;1.000000;-0.022326;0.022326;-0.022326;1.000000
445617.24190147;5696575.23719891;472.37675001;0.529412;0.513725;0.486275;33667.000000;1.000000;1.000000;1.000000;1.000000;-0.092801;0.092801;-0.092801;1.000000
445617.24320229;5696575.19969948;472.37395002;0.254902;0.219608;0.196078;14906.000000;1.000000;1.000000;1.000000;1.000000;-0.130301;0.130301;-0.130301;1.000000
445617.31840141;5696575.20439919;472.37514975;0.529412;0.521569;0.490196;33924.000000;1.000000;1.000000;1.000000;1.000000;-0.060979;0.060979;-0.060979;1.000000
445617.28220184;5696575.16579922;472.37304976;0.384314;0.364706;0.333333;23901.000000;1.000000;1.000000;1.000000;1.000000;-0.094676;0.094676;-0.094676;1.000000
445617.28450211;5696575.09079941;472.37454988;0.345098;0.329412;0.286275;21331.000000;1.000000;1.000000;1.000000;1.000000;-0.092375;0.092375;-0.092375;1.000000
445617.25400169;5696574.93949898;472.37374975;0.305882;0.270588;0.188235;17733.000000;1.000000;1.000000;1.000000;1.000000;-0.109499;0.109499;-0.109499;1.000000
445616.89840134;5696575.01809891;472.44005014;0.619608;0.639216;0.498039;40349.000000;1.000000;1.000000;1.000000;1.000000;-0.192510;0.192510;-0.192510;1.000000
445617.21410187;5696575.47759922;472.40394976;0.545098;0.533333;0.494118;34695.000000;1.000000;1.000000;1.000000;1.000000;-0.006526;0.006526;-0.006526;1.000000
445617.14030083;5696575.43769939;472.40245010;0.733333;0.717647;0.686275;47031.000000;1.000000;1.000000;1.000000;1.000000;-0.080327;0.080327;-0.080327;1.000000
445617.21090134;5696575.44059952;472.39864971;0.603922;0.615686;0.6;39835.000000;1.000000;1.000000;1.000000;1.000000;-0.009726;0.009726;-0.009726;1.000000
445617.32520111;5696575.44689949;472.36434986;0.423529;0.411765;0.376471;26728.000000;1.000000;1.000000;1.000000;1.000000;0.033228;-0.033228;0.033228;1.000000
445617.21440132;5696575.40289886;472.39834978;0.490196;0.494118;0.482353;32125.000000;1.000000;1.000000;1.000000;1.000000;-0.006226;0.006226;-0.006226;1.000000
445617.21940239;5696575.25529869;472.39685013;0.490196;0.482353;0.466667;31611.000000;1.000000;1.000000;1.000000;1.000000;-0.074711;0.074711;-0.074711;1.000000
445617.26180084;5696575.21919926;472.36574986;0.392157;0.368627;0.337255;24158.000000;1.000000;1.000000;1.000000;1.000000;-0.110801;0.110801;-0.110801;1.000000
445617.30760201;5696575.03499897;472.36794998;0.776471;0.760784;0.717647;49601.000000;1.000000;1.000000;1.000000;1.000000;-0.069275;0.069275;-0.069275;1.000000
445617.03770073;5696575.41459950;472.39984991;0.411765;0.4;0.345098;25957.000000;1.000000;1.000000;1.000000;1.000000;-0.147172;0.147172;-0.147172;1.000000
445617.03250130;5696575.35899933;472.40124990;0.501961;0.494118;0.443137;32125.000000;1.000000;1.000000;1.000000;1.000000;-0.128930;0.128930;-0.128930;1.000000
445616.99480064;5696575.35779961;472.40424969;0.639216;0.635294;0.603922;41377.000000;1.000000;1.000000;1.000000;1.000000;-0.165676;0.165676;-0.165676;1.000000
445617.13550194;5696575.51289948;472.40544989;0.501961;0.486275;0.45098;31868.000000;1.000000;1.000000;1.000000;1.000000;-0.085125;0.085125;-0.085125;1.000000
445617.15570076;5696575.53189953;472.41125013;0.368627;0.360784;0.329412;23387.000000;1.000000;1.000000;1.000000;1.000000;-0.064927;0.064927;-0.064927;1.000000
445617.22620209;5696575.53479870;472.40985014;0.415686;0.403922;0.376471;26471.000000;1.000000;1.000000;1.000000;1.000000;0.005575;-0.005575;0.005575;1.000000
445617.20060165;5696575.31059940;472.40835001;0.733333;0.737255;0.713725;48059.000000;1.000000;1.000000;1.000000;1.000000;-0.022414;0.022414;-0.022414;1.000000
445617.20180138;5696575.27309902;472.40794994;0.713725;0.717647;0.698039;46774.000000;1.000000;1.000000;1.000000;1.000000;-0.058242;0.058242;-0.058242;1.000000
445617.20310219;5696575.23569878;472.40525009;0.623529;0.615686;0.596078;40349.000000;1.000000;1.000000;1.000000;1.000000;-0.095295;0.095295;-0.095295;1.000000
445617.20410164;5696575.19809921;472.40945007;0.392157;0.392157;0.364706;25443.000000;1.000000;1.000000;1.000000;1.000000;-0.132720;0.132720;-0.132720;1.000000
445617.28310211;5696575.12599953;472.37494995;0.568627;0.556863;0.513725;36237.000000;1.000000;1.000000;1.000000;1.000000;-0.093775;0.093775;-0.093775;1.000000
445617.11460121;5696575.54049881;472.40714981;0.490196;0.478431;0.439216;31097.000000;1.000000;1.000000;1.000000;1.000000;-0.106026;0.106026;-0.106026;1.000000
445617.30140121;5696574.94219883;472.36424973;0.47451;0.454902;0.388235;29555.000000;1.000000;1.000000;1.000000;1.000000;-0.075476;0.075476;-0.075476;1.000000
445617.21400078;5696575.19969948;472.40065004;0.298039;0.290196;0.270588;19018.000000;1.000000;1.000000;1.000000;1.000000;-0.130469;0.130469;-0.130469;1.000000
445617.15440186;5696575.54149921;472.40894987;0.337255;0.333333;0.305882;21588.000000;1.000000;1.000000;1.000000;1.000000;-0.066226;0.066226;-0.066226;1.000000
445617.27220161;5696575.35829933;472.37024977;0.4;0.380392;0.352941;24929.000000;1.000000;1.000000;1.000000;1.000000;0.028299;-0.028299;0.028299;1.000000
445617.20270164;5696575.28239925;472.40805008;0.639216;0.639216;0.619608;41634.000000;1.000000;1.000000;1.000000;1.000000;-0.049430;0.049430;-0.049430;1.000000
445617.20280083;5696575.20759876;472.40714981;0.47451;0.470588;0.447059;30583.000000;1.000000;1.000000;1.000000;1.000000;-0.123135;0.123135;-0.123135;1.000000
445617.28170212;5696575.13769920;472.37734987;0.564706;0.54902;0.509804;35980.000000;1.000000;1.000000;1.000000;1.000000;-0.095175;0.095175;-0.095175;1.000000
445617.32710083;5696575.17549904;472.38215019;0.509804;0.501961;0.470588;32639.000000;1.000000;1.000000;1.000000;1.000000;-0.049777;0.049777;-0.049777;1.000000
445617.16100128;5696574.97369869;472.38154985;0.490196;0.466667;0.4;30326.000000;1.000000;1.000000;1.000000;1.000000;-0.143699;0.143699;-0.143699;1.000000
445617.10650070;5696575.34299953;472.38584997;0.678431;0.666667;0.627451;43433.000000;1.000000;1.000000;1.000000;1.000000;-0.053238;0.053238;-0.053238;1.000000
445617.06660088;5696575.39789875;472.39864971;0.54902;0.541176;0.498039;35209.000000;1.000000;1.000000;1.000000;1.000000;-0.113962;0.113962;-0.113962;1.000000
445617.11310204;5696575.39139946;472.39134981;0.580392;0.564706;0.529412;37008.000000;1.000000;1.000000;1.000000;1.000000;-0.076139;0.076139;-0.076139;1.000000
445617.33730133;5696575.39909943;472.35965015;0.52549;0.513725;0.47451;33410.000000;1.000000;1.000000;1.000000;1.000000;0.069099;-0.069099;0.069099;1.000000
445617.22500237;5696575.14259918;472.40044977;0.54902;0.529412;0.501961;34695.000000;1.000000;1.000000;1.000000;1.000000;-0.151875;0.151875;-0.151875;1.000000
445617.21460159;5696575.18099888;472.40044977;0.32549;0.305882;0.278431;20046.000000;1.000000;1.000000;1.000000;1.000000;-0.149123;0.149123;-0.149123;1.000000
445617.29960068;5696574.99839886;472.36485006;0.6;0.592157;0.545098;38550.000000;1.000000;1.000000;1.000000;1.000000;-0.077277;0.077277;-0.077277;1.000000
445617.09330185;5696575.43509872;472.40264990;0.72549;0.713725;0.67451;46517.000000;1.000000;1.000000;1.000000;1.000000;-0.123483;0.123483;-0.123483;1.000000
445617.13080223;5696575.43629940;472.40205004;0.662745;0.647059;0.615686;42405.000000;1.000000;1.000000;1.000000;1.000000;-0.089825;0.089825;-0.089825;1.000000
445617.05740173;5696575.39879902;472.39825012;0.529412;0.521569;0.478431;33924.000000;1.000000;1.000000;1.000000;1.000000;-0.121979;0.121979;-0.121979;1.000000
445617.28180130;5696575.40659912;472.36184980;0.286275;0.27451;0.239216;17733.000000;1.000000;1.000000;1.000000;1.000000;0.061174;-0.061174;0.061174;1.000000
445617.29000099;5696575.22119911;472.36704971;0.776471;0.764706;0.733333;50115.000000;1.000000;1.000000;1.000000;1.000000;-0.093384;0.093384;-0.093384;1.000000
445617.21930130;5696575.10579880;472.39974977;0.521569;0.521569;0.498039;33924.000000;1.000000;1.000000;1.000000;1.000000;-0.157576;0.157576;-0.157576;1.000000
445617.18630226;5696575.02939899;472.40205004;0.639216;0.623529;0.564706;40606.000000;1.000000;1.000000;1.000000;1.000000;-0.190575;0.190575;-0.190575;1.000000
445617.35330208;5696575.44669922;472.36324980;0.505882;0.486275;0.454902;31868.000000;1.000000;1.000000;1.000000;1.000000;-0.027522;0.027522;-0.027522;1.000000
445617.31700142;5696575.40799912;472.36114981;0.67451;0.666667;0.627451;43433.000000;1.000000;1.000000;1.000000;1.000000;0.071175;-0.071175;0.071175;1.000000
445617.28040131;5696575.44399937;472.36695005;0.627451;0.615686;0.580392;40092.000000;1.000000;1.000000;1.000000;1.000000;0.059774;-0.059774;0.059774;1.000000
445617.21180161;5696575.32829960;472.40434982;0.643137;0.643137;0.623529;41891.000000;1.000000;1.000000;1.000000;1.000000;-0.008988;0.008988;-0.008988;1.000000
445617.17430122;5696575.25239952;472.40415003;0.65098;0.643137;0.611765;41891.000000;1.000000;1.000000;1.000000;1.000000;0.077600;-0.077600;0.077600;1.000000
445617.21350105;5696575.21849926;472.39844992;0.329412;0.317647;0.301961;20817.000000;1.000000;1.000000;1.000000;1.000000;-0.111728;0.111728;-0.111728;1.000000
445617.21800240;5696575.14319904;472.40245010;0.647059;0.635294;0.596078;41377.000000;1.000000;1.000000;1.000000;1.000000;-0.158875;0.158875;-0.158875;1.000000
445617.18160065;5696575.10459908;472.40264990;0.854902;0.854902;0.831373;55769.000000;1.000000;1.000000;1.000000;1.000000;-0.195277;0.195277;-0.195277;1.000000
445617.18290146;5696575.06709869;472.39995005;0.886275;0.886275;0.858824;57825.000000;1.000000;1.000000;1.000000;1.000000;-0.193976;0.193976;-0.193976;1.000000
445617.22160156;5696575.03079899;472.40124990;0.34902;0.337255;0.278431;21845.000000;1.000000;1.000000;1.000000;1.000000;-0.155276;0.155276;-0.155276;1.000000
445617.22310074;5696574.99569901;472.39864971;0.580392;0.560784;0.470588;36237.000000;1.000000;1.000000;1.000000;1.000000;-0.153777;0.153777;-0.153777;1.000000
445617.32030113;5696575.37029942;472.36555006;0.211765;0.203922;0.180392;13107.000000;1.000000;1.000000;1.000000;1.000000;-0.040299;0.040299;-0.040299;1.000000
445617.09080132;5696575.50999935;472.40574982;0.501961;0.486275;0.447059;31868.000000;1.000000;1.000000;1.000000;1.000000;-0.129826;0.129826;-0.129826;1.000000
445617.23660095;5696575.51529892;472.39844992;0.498039;0.47451;0.435294;31097.000000;1.000000;1.000000;1.000000;1.000000;0.015974;-0.015974;0.015974;1.000000
445617.20720108;5696575.40349873;472.40275003;0.596078;0.603922;0.588235;39064.000000;1.000000;1.000000;1.000000;1.000000;-0.013426;0.013426;-0.013426;1.000000
445617.21060188;5696575.36579903;472.40474989;0.54902;0.545098;0.52549;35466.000000;1.000000;1.000000;1.000000;1.000000;-0.010026;0.010026;-0.010026;1.000000
445617.28300102;5696575.37139900;472.36614992;0.403922;0.384314;0.352941;25186.000000;1.000000;1.000000;1.000000;1.000000;0.041399;-0.041399;0.041399;1.000000
445617.17320068;5696575.28979881;472.40455009;0.72549;0.721569;0.701961;47031.000000;1.000000;1.000000;1.000000;1.000000;0.040201;-0.040201;0.040201;1.000000
445617.21310242;5696575.29089935;472.40164997;0.447059;0.443137;0.423529;28784.000000;1.000000;1.000000;1.000000;1.000000;-0.039818;0.039818;-0.039818;1.000000
445617.12160118;5696575.40919884;472.39424994;0.733333;0.721569;0.686275;47031.000000;1.000000;1.000000;1.000000;1.000000;-0.087216;0.087216;-0.087216;1.000000
445617.34620102;5696575.41929920;472.36025002;0.494118;0.482353;0.447059;31354.000000;1.000000;1.000000;1.000000;1.000000;-0.053888;0.053888;-0.053888;1.000000
445617.08770187;5696575.37039955;472.39225008;0.611765;0.603922;0.564706;39321.000000;1.000000;1.000000;1.000000;1.000000;-0.081190;0.081190;-0.081190;1.000000
445617.23470123;5696575.34039886;472.38924982;0.396078;0.376471;0.356863;24672.000000;1.000000;1.000000;1.000000;1.000000;0.010399;-0.010399;0.010399;1.000000
445617.09020241;5696575.29549892;472.38915016;0.701961;0.686275;0.647059;44975.000000;1.000000;1.000000;1.000000;1.000000;0.076185;-0.076185;0.076185;1.000000
445616.99210175;5696574.96599873;472.37844994;0.564706;0.541176;0.478431;35466.000000;1.000000;1.000000;1.000000;1.000000;-0.136350;0.136350;-0.136350;1.000000
445617.06700142;5696574.96839912;472.38194992;0.482353;0.466667;0.419608;30326.000000;1.000000;1.000000;1.000000;1.000000;-0.138399;0.138399;-0.138399;1.000000
445617.10340126;5696575.00929935;472.38404991;0.498039;0.478431;0.423529;31097.000000;1.000000;1.000000;1.000000;1.000000;-0.179299;0.179299;-0.179299;1.000000
445617.06560143;5696575.00579937;472.38695004;0.529412;0.513725;0.454902;33410.000000;1.000000;1.000000;1.000000;1.000000;-0.175799;0.175799;-0.175799;1.000000
445617.24660118;5696575.08949955;472.38215019;0.388235;0.356863;0.333333;23644.000000;1.000000;1.000000;1.000000;1.000000;-0.130276;0.130276;-0.130276;1.000000
445617.30820091;5696575.19369896;472.37214996;0.607843;0.6;0.568627;39064.000000;1.000000;1.000000;1.000000;1.000000;-0.068998;0.068998;-0.068998;1.000000
445617.19720085;5696575.15199955;472.41554977;0.878431;0.87451;0.847059;57054.000000;1.000000;1.000000;1.000000;1.000000;-0.178172;0.178172;-0.178172;1.000000
445617.07160194;5696575.48139961;472.40915014;0.52549;0.517647;0.482353;33667.000000;1.000000;1.000000;1.000000;1.000000;-0.149025;0.149025;-0.149025;1.000000
445617.10930069;5696575.48259933;472.40625002;0.72549;0.717647;0.682353;46774.000000;1.000000;1.000000;1.000000;1.000000;-0.111327;0.111327;-0.111327;1.000000
445617.30320175;5696575.34129913;472.37374975;0.541176;0.533333;0.501961;34695.000000;1.000000;1.000000;1.000000;1.000000;0.011299;-0.011299;0.011299;1.000000
445617.30240067;5696575.30639942;472.37094976;0.560784;0.552941;0.52549;35980.000000;1.000000;1.000000;1.000000;1.000000;-0.023601;0.023601;-0.023601;1.000000
445617.34220131;5696575.30739887;472.37274982;0.337255;0.329412;0.309804;21588.000000;1.000000;1.000000;1.000000;1.000000;-0.022601;0.022601;-0.022601;1.000000
445617.30710228;5696575.23129948;472.37024977;0.733333;0.717647;0.694118;47031.000000;1.000000;1.000000;1.000000;1.000000;-0.082642;0.082642;-0.082642;1.000000
445617.12120064;5696575.22259911;472.38035013;0.580392;0.556863;0.52549;36494.000000;1.000000;1.000000;1.000000;1.000000;0.113572;-0.113572;0.113572;1.000000
445617.31130226;5696575.15589912;472.38124992;0.494118;0.486275;0.454902;31611.000000;1.000000;1.000000;1.000000;1.000000;-0.065575;0.065575;-0.065575;1.000000
445617.24450119;5696574.96819885;472.38525011;0.541176;0.513725;0.431373;33410.000000;1.000000;1.000000;1.000000;1.000000;-0.132376;0.132376;-0.132376;1.000000
445617.11370094;5696575.37039955;472.38644983;0.72549;0.709804;0.67451;46517.000000;1.000000;1.000000;1.000000;1.000000;-0.060049;0.060049;-0.060049;1.000000
445617.11510094;5696575.33519943;472.38614990;0.635294;0.619608;0.584314;40606.000000;1.000000;1.000000;1.000000;1.000000;-0.043339;0.043339;-0.043339;1.000000
445617.11990173;5696575.26009949;472.38315012;0.603922;0.576471;0.537255;37779.000000;1.000000;1.000000;1.000000;1.000000;0.079670;-0.079670;0.079670;1.000000
445617.23480232;5696575.26569946;472.38604977;0.482353;0.466667;0.447059;30583.000000;1.000000;1.000000;1.000000;1.000000;-0.064301;0.064301;-0.064301;1.000000
445617.23150070;5696575.22869881;472.38315012;0.372549;0.352941;0.333333;23130.000000;1.000000;1.000000;1.000000;1.000000;-0.101301;0.101301;-0.101301;1.000000
445617.25080116;5696575.22939880;472.37234976;0.470588;0.45098;0.423529;29555.000000;1.000000;1.000000;1.000000;1.000000;-0.100601;0.100601;-0.100601;1.000000
445617.24200066;5696575.04089935;472.38364985;0.258824;0.227451;0.184314;15163.000000;1.000000;1.000000;1.000000;1.000000;-0.134877;0.134877;-0.134877;1.000000
445617.24560173;5696575.00549896;472.38574984;0.415686;0.392157;0.321569;25443.000000;1.000000;1.000000;1.000000;1.000000;-0.131276;0.131276;-0.131276;1.000000
445617.22060211;5696575.52589901;472.41174986;0.431373;0.427451;0.388235;27756.000000;1.000000;1.000000;1.000000;1.000000;-0.000025;0.000025;-0.000025;1.000000
445617.14680107;5696575.48609932;472.41034986;0.372549;0.364706;0.341176;23644.000000;1.000000;1.000000;1.000000;1.000000;-0.073826;0.073826;-0.073826;1.000000
445617.04530151;5696575.45329960;472.41694977;0.827451;0.827451;0.788235;53713.000000;1.000000;1.000000;1.000000;1.000000;-0.167130;0.167130;-0.167130;1.000000
445617.25990112;5696575.45279892;472.37304976;0.423529;0.407843;0.368627;26728.000000;1.000000;1.000000;1.000000;1.000000;0.039274;-0.039274;0.039274;1.000000
445617.18550117;5696575.44979961;472.41165020;0.803922;0.807843;0.792157;52685.000000;1.000000;1.000000;1.000000;1.000000;-0.035126;0.035126;-0.035126;1.000000
445617.18680199;5696575.41229923;472.40894987;0.882353;0.886275;0.87451;57825.000000;1.000000;1.000000;1.000000;1.000000;-0.033825;0.033825;-0.033825;1.000000
445617.19130142;5696575.33709915;472.41055014;0.823529;0.823529;0.8;53713.000000;1.000000;1.000000;1.000000;1.000000;0.007355;-0.007355;0.007355;1.000000
445617.26830109;5696575.26749905;472.37354996;0.372549;0.34902;0.321569;23130.000000;1.000000;1.000000;1.000000;1.000000;-0.062501;0.062501;-0.062501;1.000000
445617.30590065;5696575.26869877;472.37064983;0.254902;0.235294;0.211765;15420.000000;1.000000;1.000000;1.000000;1.000000;-0.061301;0.061301;-0.061301;1.000000
445617.19510086;5696575.22699936;472.40945007;0.717647;0.713725;0.694118;46517.000000;1.000000;1.000000;1.000000;1.000000;-0.103160;0.103160;-0.103160;1.000000
445617.23410233;5696575.22859867;472.37624981;0.415686;0.396078;0.364706;25957.000000;1.000000;1.000000;1.000000;1.000000;-0.101401;0.101401;-0.101401;1.000000
445617.20940216;5696575.53389938;472.41834976;0.572549;0.584314;0.560784;37779.000000;1.000000;1.000000;1.000000;1.000000;-0.011225;0.011225;-0.011225;1.000000
445617.09360130;5696575.22979935;472.38385012;0.396078;0.384314;0.34902;24929.000000;1.000000;1.000000;1.000000;1.000000;0.119180;-0.119180;0.119180;1.000000
445617.27180107;5696575.15499886;472.37474968;0.482353;0.458824;0.423529;30069.000000;1.000000;1.000000;1.000000;1.000000;-0.105076;0.105076;-0.105076;1.000000
445617.27520187;5696575.11729916;472.37675001;0.462745;0.443137;0.4;29041.000000;1.000000;1.000000;1.000000;1.000000;-0.101676;0.101676;-0.101676;1.000000
445617.10900124;5696575.26809891;472.38275005;0.545098;0.521569;0.478431;34181.000000;1.000000;1.000000;1.000000;1.000000;0.079026;-0.079026;0.079026;1.000000
445617.11050232;5696575.23299892;472.38005020;0.52549;0.505882;0.470588;33153.000000;1.000000;1.000000;1.000000;1.000000;0.108062;-0.108062;0.108062;1.000000
445617.22730072;5696575.23599918;472.38765003;0.337255;0.321569;0.298039;21074.000000;1.000000;1.000000;1.000000;1.000000;-0.094028;0.094028;-0.094028;1.000000
445617.31550224;5696575.04589947;472.37074997;0.788235;0.776471;0.741176;50629.000000;1.000000;1.000000;1.000000;1.000000;-0.061375;0.061375;-0.061375;1.000000
445617.26430138;5696575.12759884;472.37874987;0.482353;0.45098;0.411765;29812.000000;1.000000;1.000000;1.000000;1.000000;-0.112576;0.112576;-0.112576;1.000000
445617.19050224;5696575.53319939;472.42215015;0.831373;0.839216;0.819608;54484.000000;1.000000;1.000000;1.000000;1.000000;-0.030125;0.030125;-0.030125;1.000000
445617.30590065;5696575.49979885;472.38504984;0.827451;0.819608;0.784314;53456.000000;1.000000;1.000000;1.000000;1.000000;0.039727;-0.039727;0.039727;1.000000
445617.23470123;5696575.38729961;472.38285019;0.470588;0.454902;0.427451;29812.000000;1.000000;1.000000;1.000000;1.000000;0.014074;-0.014074;0.014074;1.000000
445617.12530144;5696575.34369953;472.38434984;0.686275;0.670588;0.635294;43947.000000;1.000000;1.000000;1.000000;1.000000;-0.035570;0.035570;-0.035570;1.000000
445617.32050140;5696575.12939938;472.38135006;0.396078;0.388235;0.34902;25186.000000;1.000000;1.000000;1.000000;1.000000;-0.056376;0.056376;-0.056376;1.000000
445617.27910240;5696575.00729950;472.37094976;0.682353;0.67451;0.627451;43947.000000;1.000000;1.000000;1.000000;1.000000;-0.097775;0.097775;-0.097775;1.000000
445617.18390091;5696575.48719891;472.41895010;0.898039;0.901961;0.886275;58853.000000;1.000000;1.000000;1.000000;1.000000;-0.036726;0.036726;-0.036726;1.000000
445617.22630127;5696575.44869907;472.38555004;0.658824;0.654902;0.619608;42662.000000;1.000000;1.000000;1.000000;1.000000;0.005674;-0.005674;0.005674;1.000000
445617.23840149;5696575.15329941;472.38485004;0.411765;0.392157;0.34902;25700.000000;1.000000;1.000000;1.000000;1.000000;-0.138476;0.138476;-0.138476;1.000000
445617.14550217;5696575.52129944;472.40835001;0.431373;0.419608;0.388235;27499.000000;1.000000;1.000000;1.000000;1.000000;-0.075125;0.075125;-0.075125;1.000000
445617.26240166;5696575.37789925;472.36994984;0.360784;0.333333;0.309804;22102.000000;1.000000;1.000000;1.000000;1.000000;0.041774;-0.041774;0.041774;1.000000
445617.26350220;5696575.34039886;472.37194969;0.329412;0.309804;0.282353;20303.000000;1.000000;1.000000;1.000000;1.000000;0.010399;-0.010399;0.010399;1.000000
445617.19250114;5696575.29959877;472.41015007;0.819608;0.823529;0.803922;53713.000000;1.000000;1.000000;1.000000;1.000000;-0.030561;0.030561;-0.030561;1.000000
445617.19390114;5696575.26449879;472.40975000;0.819608;0.819608;0.8;53456.000000;1.000000;1.000000;1.000000;1.000000;-0.065657;0.065657;-0.065657;1.000000
445617.13100250;5696574.99989899;472.37584974;0.690196;0.662745;0.611765;43433.000000;1.000000;1.000000;1.000000;1.000000;-0.169899;0.169899;-0.169899;1.000000
445617.23470123;5696575.20979889;472.37605001;0.266667;0.239216;0.207843;15934.000000;1.000000;1.000000;1.000000;1.000000;-0.120201;0.120201;-0.120201;1.000000
445617.23710068;5696574.93849953;472.38455011;0.34902;0.309804;0.211765;20303.000000;1.000000;1.000000;1.000000;1.000000;0.108500;-0.108500;0.108500;1.000000
445617.04530151;5696575.50019939;472.41055014;0.52549;0.517647;0.478431;33667.000000;1.000000;1.000000;1.000000;1.000000;-0.175326;0.175326;-0.175326;1.000000
445617.23300179;5696574.94809921;472.39144995;0.431373;0.388235;0.294118;25443.000000;1.000000;1.000000;1.000000;1.000000;0.118099;-0.118099;0.118099;1.000000
445617.32280167;5696575.50299938;472.37885000;0.815686;0.811765;0.780392;52942.000000;1.000000;1.000000;1.000000;1.000000;0.022826;-0.022826;0.022826;1.000000
445617.00880249;5696575.46149929;472.41305019;0.85098;0.854902;0.823529;55512.000000;1.000000;1.000000;1.000000;1.000000;-0.198972;0.198972;-0.198972;1.000000
445616.97370155;5696575.38529881;472.41064980;0.32549;0.317647;0.294118;20560.000000;1.000000;1.000000;1.000000;1.000000;-0.192538;0.192538;-0.192538;1.000000
445616.97500237;5696575.34789951;472.40784981;0.384314;0.380392;0.352941;24672.000000;1.000000;1.000000;1.000000;1.000000;-0.183998;0.183998;-0.183998;1.000000
445617.17530067;5696575.49499901;472.41865017;0.764706;0.768627;0.752941;50115.000000;1.000000;1.000000;1.000000;1.000000;-0.045327;0.045327;-0.045327;1.000000
445617.10760124;5696575.30549915;472.38775017;0.65098;0.635294;0.596078;41634.000000;1.000000;1.000000;1.000000;1.000000;0.056153;-0.056153;0.056153;1.000000
445617.22670181;5696575.35749920;472.39374973;0.482353;0.466667;0.443137;30583.000000;1.000000;1.000000;1.000000;1.000000;0.006074;-0.006074;0.006074;1.000000
