//X;Y;Z;Rf;Gf;Bf;Intensity;Return Number;Number Of Returns;Scan Direction Flag;Point Source ID;C2M signed distances[-][<0.8];C2M signed distances[<0.4];C2M signed distances[-][<0.2];Stump100
300
445595.61160095;5696580.86479958;473.79085018;0.333333;0.305882;0.184314;19532.000000;1.000000;1.000000;1.000000;1.000000;0.034800;-0.034800;0.034800;1.000000
445595.28580101;5696581.02749832;473.83624985;0.443137;0.45098;0.266667;28013.000000;1.000000;1.000000;1.000000;1.000000;-0.184826;0.184826;-0.184826;1.000000
445595.29080208;5696580.95459946;473.83334972;0.678431;0.647059;0.529412;42148.000000;1.000000;1.000000;1.000000;1.000000;-0.136128;0.136128;-0.136128;1.000000
445595.47550209;5696580.92059906;473.86914970;0.494118;0.466667;0.372549;30326.000000;1.000000;1.000000;1.000000;1.000000;0.004875;-0.004875;0.004875;1.000000
445595.48580177;5696580.96459969;473.83295013;0.286275;0.25098;0.160784;16448.000000;1.000000;1.000000;1.000000;1.000000;0.015175;-0.015175;0.015175;1.000000
445595.63960083;5696580.81089981;473.78445007;0.611765;0.580392;0.478431;37779.000000;1.000000;1.000000;1.000000;1.000000;-0.019100;0.019100;-0.019100;1.000000
445595.45880135;5696580.97019966;473.92724993;0.278431;0.282353;0.172549;17476.000000;1.000000;1.000000;1.000000;1.000000;-0.011826;0.011826;-0.011826;1.000000
445595.26110085;5696580.78459938;473.82994987;0.168627;0.137255;0.0862745;8995.000000;1.000000;1.000000;1.000000;1.000000;0.095947;-0.095947;0.095947;1.000000
445595.29260071;5696580.89839943;473.83274986;0.462745;0.419608;0.329412;27499.000000;1.000000;1.000000;1.000000;1.000000;-0.086546;0.086546;-0.086546;1.000000
445595.39970215;5696580.94590004;473.89164974;0.490196;0.470588;0.352941;30326.000000;1.000000;1.000000;1.000000;1.000000;-0.070925;0.070925;-0.070925;1.000000
445595.39750107;5696581.02089890;473.88784983;0.160784;0.164706;0.0705882;10023.000000;1.000000;1.000000;1.000000;1.000000;-0.073126;0.073126;-0.073126;1.000000
445595.43300064;5696581.02469833;473.88714983;0.545098;0.533333;0.435294;34438.000000;1.000000;1.000000;1.000000;1.000000;-0.037626;0.037626;-0.037626;1.000000
445595.43790253;5696581.04549988;473.87134983;0.239216;0.247059;0.145098;15163.000000;1.000000;1.000000;1.000000;1.000000;-0.032724;0.032724;-0.032724;1.000000
445595.37720116;5696580.66889961;473.81514980;0.309804;0.258824;0.180392;17219.000000;1.000000;1.000000;1.000000;1.000000;-0.161100;0.161100;-0.161100;1.000000
445595.39710052;5696580.82979973;473.86224987;0.368627;0.337255;0.254902;22102.000000;1.000000;1.000000;1.000000;1.000000;-0.000200;0.000200;-0.000200;1.000000
445595.44610222;5696581.05189903;473.86014988;0.403922;0.392157;0.282353;24929.000000;1.000000;1.000000;1.000000;1.000000;-0.024525;0.024525;-0.024525;1.000000
445595.48890121;5696580.90789993;473.85564997;0.533333;0.498039;0.392157;32382.000000;1.000000;1.000000;1.000000;1.000000;0.018274;-0.018274;0.018274;1.000000
445595.60520180;5696580.84669884;473.79264977;0.556863;0.52549;0.407843;34181.000000;1.000000;1.000000;1.000000;1.000000;0.016699;-0.016699;0.016699;1.000000
445595.48940094;5696581.02729996;473.83145000;0.317647;0.337255;0.203922;20560.000000;1.000000;1.000000;1.000000;1.000000;0.018774;-0.018774;0.018774;1.000000
445595.53290184;5696580.75959976;473.81624987;0.494118;0.470588;0.294118;29812.000000;1.000000;1.000000;1.000000;1.000000;-0.070552;0.070552;-0.070552;1.000000
445595.38330086;5696580.75189980;473.85134985;0.529412;0.47451;0.384314;31354.000000;1.000000;1.000000;1.000000;1.000000;-0.078100;0.078100;-0.078100;1.000000
445595.60960205;5696580.68769844;473.77934982;0.341176;0.313725;0.203922;20303.000000;1.000000;1.000000;1.000000;1.000000;-0.142302;0.142302;-0.142302;1.000000
445595.49780090;5696580.68349846;473.81384995;0.443137;0.482353;0.286275;29298.000000;1.000000;1.000000;1.000000;1.000000;-0.146502;0.146502;-0.146502;1.000000
445595.32830246;5696580.89009865;473.85514977;0.54902;0.501961;0.403922;32896.000000;1.000000;1.000000;1.000000;1.000000;-0.062546;0.062546;-0.062546;1.000000
445595.27550133;5696581.07259949;473.84795000;0.505882;0.54902;0.309804;33153.000000;1.000000;1.000000;1.000000;1.000000;-0.195126;0.195126;-0.195126;1.000000
445595.31210144;5696581.03659828;473.84224989;0.423529;0.439216;0.239216;26985.000000;1.000000;1.000000;1.000000;1.000000;-0.158525;0.158525;-0.158525;1.000000
445595.31570251;5696580.92639931;473.84574987;0.533333;0.505882;0.396078;32896.000000;1.000000;1.000000;1.000000;1.000000;-0.100937;0.100937;-0.100937;1.000000
445595.50950058;5696580.89909943;473.84714987;0.584314;0.552941;0.427451;35723.000000;1.000000;1.000000;1.000000;1.000000;0.038874;-0.038874;0.038874;1.000000
445595.50640114;5696580.86209877;473.83964970;0.517647;0.494118;0.345098;31611.000000;1.000000;1.000000;1.000000;1.000000;0.032416;-0.032416;0.032416;1.000000
445595.34720238;5696580.73219879;473.83325006;0.254902;0.184314;0.121569;12850.000000;1.000000;1.000000;1.000000;1.000000;0.097801;-0.097801;0.097801;1.000000
445595.30980118;5696580.73099907;473.83145000;0.717647;0.662745;0.580392;43690.000000;1.000000;1.000000;1.000000;1.000000;0.105284;-0.105284;0.105284;1.000000
445595.30500229;5696580.80609901;473.83454992;0.298039;0.235294;0.176471;16191.000000;1.000000;1.000000;1.000000;1.000000;0.047134;-0.047134;0.047134;1.000000
445595.48750122;5696580.89619835;473.86245014;0.368627;0.333333;0.215686;21588.000000;1.000000;1.000000;1.000000;1.000000;0.016874;-0.016874;0.016874;1.000000
445595.30380066;5696580.84359940;473.83484985;0.368627;0.298039;0.203922;20046.000000;1.000000;1.000000;1.000000;1.000000;-0.043982;0.043982;-0.043982;1.000000
445595.30260094;5696580.88109978;473.83524992;0.32549;0.258824;0.156863;17476.000000;1.000000;1.000000;1.000000;1.000000;-0.066801;0.066801;-0.066801;1.000000
445595.26880081;5696580.81429871;473.82364990;0.654902;0.615686;0.529412;40349.000000;1.000000;1.000000;1.000000;1.000000;0.078414;-0.078414;0.078414;1.000000
445595.32700165;5696580.71309860;473.82744982;0.4;0.34902;0.258824;23130.000000;1.000000;1.000000;1.000000;1.000000;0.118376;-0.118376;0.118376;1.000000
445595.57850082;5696580.98469933;473.78844978;0.219608;0.305882;0.0705882;16448.000000;1.000000;1.000000;1.000000;1.000000;0.107874;-0.107874;0.107874;1.000000
445595.54230125;5696580.73309906;473.81174995;0.52549;0.517647;0.341176;32639.000000;1.000000;1.000000;1.000000;1.000000;-0.096901;0.096901;-0.096901;1.000000
445595.53840073;5696580.84539993;473.81984999;0.392157;0.384314;0.243137;24158.000000;1.000000;1.000000;1.000000;1.000000;0.015400;-0.015400;0.015400;1.000000
445595.60810097;5696580.92139824;473.77964975;0.545098;0.541176;0.411765;34438.000000;1.000000;1.000000;1.000000;1.000000;0.091398;-0.091398;0.091398;1.000000
445595.32020195;5696581.10559853;473.85974981;0.290196;0.345098;0.121569;19789.000000;1.000000;1.000000;1.000000;1.000000;-0.150425;0.150425;-0.150425;1.000000
445595.41160210;5696580.95169838;473.89925005;0.513725;0.494118;0.392157;31868.000000;1.000000;1.000000;1.000000;1.000000;-0.059025;0.059025;-0.059025;1.000000
445595.47750099;5696580.72019966;473.82264997;0.368627;0.337255;0.188235;21588.000000;1.000000;1.000000;1.000000;1.000000;-0.109801;0.109801;-0.109801;1.000000
445595.36060150;5696581.05989845;473.85405018;0.533333;0.568627;0.380392;35209.000000;1.000000;1.000000;1.000000;1.000000;-0.110025;0.110025;-0.110025;1.000000
445595.46840103;5696581.06169899;473.85195019;0.321569;0.34902;0.188235;21074.000000;1.000000;1.000000;1.000000;1.000000;-0.002226;0.002226;-0.002226;1.000000
445595.47410210;5696581.00109871;473.80485012;0.137255;0.137255;0.0745098;8481.000000;1.000000;1.000000;1.000000;1.000000;0.003475;-0.003475;0.003475;1.000000
445595.29590233;5696581.01019867;473.83654978;0.372549;0.360784;0.211765;22616.000000;1.000000;1.000000;1.000000;1.000000;-0.174725;0.174725;-0.174725;1.000000
445595.30370148;5696581.01879890;473.83694984;0.254902;0.247059;0.0901961;15163.000000;1.000000;1.000000;1.000000;1.000000;-0.166925;0.166925;-0.166925;1.000000
445595.32540138;5696581.02839859;473.84275009;0.298039;0.282353;0.145098;17733.000000;1.000000;1.000000;1.000000;1.000000;-0.145226;0.145226;-0.145226;1.000000
445595.32430084;5696580.99109848;473.84224989;0.419608;0.396078;0.258824;25186.000000;1.000000;1.000000;1.000000;1.000000;-0.146326;0.146326;-0.146326;1.000000
445595.55470093;5696580.89079865;473.81185009;0.356863;0.34902;0.215686;21845.000000;1.000000;1.000000;1.000000;1.000000;0.060799;-0.060799;0.060799;1.000000
445595.40380104;5696580.88499840;473.88184978;0.329412;0.305882;0.2;19532.000000;1.000000;1.000000;1.000000;1.000000;0.054998;-0.054998;0.054998;1.000000
445595.33130081;5696580.84319885;473.84544994;0.403922;0.34902;0.254902;23130.000000;1.000000;1.000000;1.000000;1.000000;-0.019479;0.019479;-0.019479;1.000000
445595.33530243;5696580.80789955;473.84054996;0.25098;0.188235;0.121569;12850.000000;1.000000;1.000000;1.000000;1.000000;0.024393;-0.024393;0.024393;1.000000
445595.55980118;5696580.74319847;473.80795004;0.619608;0.615686;0.435294;39064.000000;1.000000;1.000000;1.000000;1.000000;-0.086802;0.086802;-0.086802;1.000000
445595.56120117;5696580.70579918;473.80294992;0.356863;0.356863;0.152941;21845.000000;1.000000;1.000000;1.000000;1.000000;-0.124201;0.124201;-0.124201;1.000000
445595.52690132;5696580.66679962;473.80795004;0.262745;0.301961;0.109804;17476.000000;1.000000;1.000000;1.000000;1.000000;-0.163549;0.163549;-0.163549;1.000000
445595.36750229;5696580.89089973;473.86864998;0.290196;0.25098;0.164706;16448.000000;1.000000;1.000000;1.000000;1.000000;0.060900;-0.060900;0.060900;1.000000
445595.56600197;5696580.80809982;473.80434992;0.294118;0.286275;0.156863;17733.000000;1.000000;1.000000;1.000000;1.000000;-0.021900;0.021900;-0.021900;1.000000
445595.42160233;5696580.79929932;473.87925007;0.419608;0.411765;0.298039;26214.000000;1.000000;1.000000;1.000000;1.000000;-0.030701;0.030701;-0.030701;1.000000
445595.38140114;5696580.78239830;473.85395004;0.243137;0.207843;0.129412;13621.000000;1.000000;1.000000;1.000000;1.000000;-0.047602;0.047602;-0.047602;1.000000
445595.59900101;5696580.88219841;473.79745008;0.458824;0.447059;0.32549;28527.000000;1.000000;1.000000;1.000000;1.000000;0.052198;-0.052198;0.052198;1.000000
445595.45390137;5696580.63399895;473.80424978;0.360784;0.392157;0.215686;23644.000000;1.000000;1.000000;1.000000;1.000000;-0.196001;0.196001;-0.196001;1.000000
445595.52780159;5696580.67609985;473.80804970;0.231373;0.27451;0.0823529;15677.000000;1.000000;1.000000;1.000000;1.000000;-0.154210;0.154210;-0.154210;1.000000
445595.45060165;5696580.74339874;473.84494974;0.356863;0.309804;0.192157;20303.000000;1.000000;1.000000;1.000000;1.000000;-0.086601;0.086601;-0.086601;1.000000
445595.63630112;5696580.71809967;473.76924994;0.384314;0.34902;0.266667;22873.000000;1.000000;1.000000;1.000000;1.000000;-0.111900;0.111900;-0.111900;1.000000
445595.48280151;5696580.78489883;473.83995010;0.301961;0.239216;0.117647;15934.000000;1.000000;1.000000;1.000000;1.000000;-0.045101;0.045101;-0.045101;1.000000
445595.54180153;5696580.95500000;473.81664993;0.286275;0.309804;0.160784;18761.000000;1.000000;1.000000;1.000000;1.000000;0.071175;-0.071175;0.071175;1.000000
445595.41660126;5696581.04419907;473.92854979;0.619608;0.607843;0.486275;39064.000000;1.000000;1.000000;1.000000;1.000000;-0.054026;0.054026;-0.054026;1.000000
445595.57260139;5696580.64879997;473.79344990;0.380392;0.380392;0.270588;23901.000000;1.000000;1.000000;1.000000;1.000000;-0.181200;0.181200;-0.181200;1.000000
445595.59990128;5696580.66049965;473.78324987;0.243137;0.223529;0.141176;14392.000000;1.000000;1.000000;1.000000;1.000000;-0.169500;0.169500;-0.169500;1.000000
445595.46080215;5696580.91489990;473.87074997;0.682353;0.631373;0.52549;41377.000000;1.000000;1.000000;1.000000;1.000000;-0.009825;0.009825;-0.009825;1.000000
445595.58180054;5696580.69699867;473.79444983;0.4;0.380392;0.211765;23901.000000;1.000000;1.000000;1.000000;1.000000;-0.133001;0.133001;-0.133001;1.000000
445595.40600212;5696581.05089958;473.86525013;0.207843;0.231373;0.0941176;13621.000000;1.000000;1.000000;1.000000;1.000000;-0.064625;0.064625;-0.064625;1.000000
445595.51430138;5696580.68429955;473.81225016;0.298039;0.337255;0.137255;19789.000000;1.000000;1.000000;1.000000;1.000000;-0.146229;0.146229;-0.146229;1.000000
445595.44890221;5696581.03969963;473.87634995;0.317647;0.309804;0.223529;19789.000000;1.000000;1.000000;1.000000;1.000000;-0.021725;0.021725;-0.021725;1.000000
445595.42820175;5696580.99179848;473.92614986;0.0784314;0.0901961;0.0196078;5140.000000;1.000000;1.000000;1.000000;1.000000;-0.042425;0.042425;-0.042425;1.000000
445595.51590164;5696580.86129959;473.83304979;0.403922;0.384314;0.235294;24415.000000;1.000000;1.000000;1.000000;1.000000;0.034298;-0.034298;0.034298;1.000000
445595.63600166;5696580.93999870;473.76954987;0.556863;0.580392;0.403922;36237.000000;1.000000;1.000000;1.000000;1.000000;0.109999;-0.109999;0.109999;1.000000
445595.42580231;5696580.92479904;473.89024975;0.447059;0.415686;0.32549;26985.000000;1.000000;1.000000;1.000000;1.000000;-0.044825;0.044825;-0.044825;1.000000
445595.33710106;5696580.72149857;473.82795002;0.356863;0.286275;0.2;19275.000000;1.000000;1.000000;1.000000;1.000000;0.108836;-0.108836;0.108836;1.000000
445595.48770149;5696580.73089989;473.82555010;0.580392;0.545098;0.411765;35209.000000;1.000000;1.000000;1.000000;1.000000;-0.099100;0.099100;-0.099100;1.000000
445595.59930237;5696580.73279961;473.79104998;0.517647;0.501961;0.34902;31868.000000;1.000000;1.000000;1.000000;1.000000;-0.097200;0.097200;-0.097200;1.000000
445595.63020142;5696580.81169899;473.78875019;0.607843;0.580392;0.47451;37779.000000;1.000000;1.000000;1.000000;1.000000;-0.018301;0.018301;-0.018301;1.000000
445595.43970116;5696580.95150002;473.89825012;0.207843;0.2;0.117647;12593.000000;1.000000;1.000000;1.000000;1.000000;-0.030926;0.030926;-0.030926;1.000000
445595.36590202;5696580.70479973;473.82905008;0.505882;0.447059;0.364706;29812.000000;1.000000;1.000000;1.000000;1.000000;-0.125200;0.125200;-0.125200;1.000000
445595.39310081;5696580.92099960;473.88175013;0.45098;0.431373;0.321569;27756.000000;1.000000;1.000000;1.000000;1.000000;-0.077526;0.077526;-0.077526;1.000000
445595.57240112;5696581.07619865;473.80324986;0.235294;0.290196;0.0588235;16191.000000;1.000000;1.000000;1.000000;1.000000;0.101774;-0.101774;0.101774;1.000000
445595.36150177;5696580.84499939;473.85384991;0.45098;0.4;0.321569;26471.000000;1.000000;1.000000;1.000000;1.000000;0.014999;-0.014999;0.014999;1.000000
445595.25980194;5696580.79409988;473.82534983;0.203922;0.168627;0.101961;11051.000000;1.000000;1.000000;1.000000;1.000000;0.093031;-0.093031;0.093031;1.000000
445595.36070068;5696580.83569916;473.85365011;0.388235;0.341176;0.262745;22616.000000;1.000000;1.000000;1.000000;1.000000;0.005699;-0.005699;0.005699;1.000000
445595.29330261;5696581.12199982;473.86805012;0.67451;0.698039;0.513725;43947.000000;1.000000;1.000000;1.000000;1.000000;-0.177324;0.177324;-0.177324;1.000000
445595.51350220;5696580.70299919;473.81705000;0.431373;0.458824;0.266667;28013.000000;1.000000;1.000000;1.000000;1.000000;-0.127532;0.127532;-0.127532;1.000000
445595.62680252;5696580.66979988;473.77524998;0.423529;0.403922;0.333333;26214.000000;1.000000;1.000000;1.000000;1.000000;-0.160200;0.160200;-0.160200;1.000000
445595.53830154;5696581.08099945;473.84364988;0.737255;0.768627;0.584314;48316.000000;1.000000;1.000000;1.000000;1.000000;0.067675;-0.067675;0.067675;1.000000
445595.16320236;5696580.86369904;473.83115007;0.407843;0.368627;0.282353;24158.000000;1.000000;1.000000;1.000000;1.000000;-0.185511;0.185511;-0.185511;1.000000
445595.50140198;5696580.77639969;473.82434990;0.4;0.345098;0.219608;22616.000000;1.000000;1.000000;1.000000;1.000000;-0.053600;0.053600;-0.053600;1.000000
445595.61330231;5696580.78059967;473.78754999;0.298039;0.254902;0.141176;16705.000000;1.000000;1.000000;1.000000;1.000000;-0.049400;0.049400;-0.049400;1.000000
445595.46090134;5696580.88699921;473.86345007;0.431373;0.392157;0.290196;25700.000000;1.000000;1.000000;1.000000;1.000000;-0.009726;0.009726;-0.009726;1.000000
445595.56400116;5696580.86429985;473.80964996;0.290196;0.270588;0.141176;16962.000000;1.000000;1.000000;1.000000;1.000000;0.034300;-0.034300;0.034300;1.000000
445595.60970123;5696580.89309891;473.78875019;0.372549;0.352941;0.219608;22359.000000;1.000000;1.000000;1.000000;1.000000;0.063099;-0.063099;0.063099;1.000000
445595.64130219;5696580.80149849;473.77974989;0.482353;0.439216;0.337255;28784.000000;1.000000;1.000000;1.000000;1.000000;-0.028502;0.028502;-0.028502;1.000000
445595.52940186;5696580.79729851;473.81654980;0.47451;0.435294;0.294118;28270.000000;1.000000;1.000000;1.000000;1.000000;-0.033695;0.033695;-0.033695;1.000000
445595.37970169;5696580.78949936;473.85395004;0.258824;0.223529;0.14902;14649.000000;1.000000;1.000000;1.000000;1.000000;-0.040501;0.040501;-0.040501;1.000000
445595.45910080;5696580.96129997;473.90154984;0.376471;0.352941;0.254902;22873.000000;1.000000;1.000000;1.000000;1.000000;-0.011526;0.011526;-0.011526;1.000000
445595.34340103;5696580.95629890;473.86364986;0.454902;0.435294;0.313725;28013.000000;1.000000;1.000000;1.000000;1.000000;-0.126319;0.126319;-0.126319;1.000000
445595.23110207;5696580.98829849;473.82865002;0.341176;0.321569;0.188235;20303.000000;1.000000;1.000000;1.000000;1.000000;-0.195383;0.195383;-0.195383;1.000000
445595.57140167;5696580.89169891;473.80564978;0.513725;0.498039;0.380392;31868.000000;1.000000;1.000000;1.000000;1.000000;0.061699;-0.061699;0.061699;1.000000
445595.47850235;5696580.92509850;473.86235001;0.34902;0.309804;0.207843;20303.000000;1.000000;1.000000;1.000000;1.000000;0.007875;-0.007875;0.007875;1.000000
445595.43740089;5696580.99089821;473.92654993;0.0627451;0.0431373;0.00392157;2827.000000;1.000000;1.000000;1.000000;1.000000;-0.033226;0.033226;-0.033226;1.000000
445595.51260193;5696580.79639824;473.82515003;0.4;0.352941;0.231373;23130.000000;1.000000;1.000000;1.000000;1.000000;-0.035272;0.035272;-0.035272;1.000000
445595.62210091;5696580.80079849;473.78824999;0.364706;0.32549;0.215686;21074.000000;1.000000;1.000000;1.000000;1.000000;-0.029202;0.029202;-0.029202;1.000000
445595.62110146;5696580.83829887;473.78625013;0.458824;0.431373;0.305882;27756.000000;1.000000;1.000000;1.000000;1.000000;0.008299;-0.008299;0.008299;1.000000
445595.40790184;5696580.77039917;473.86434986;0.313725;0.282353;0.160784;17990.000000;1.000000;1.000000;1.000000;1.000000;-0.059601;0.059601;-0.059601;1.000000
445595.59940155;5696580.70719917;473.78835012;0.470588;0.447059;0.282353;28527.000000;1.000000;1.000000;1.000000;1.000000;-0.122801;0.122801;-0.122801;1.000000
445595.60080154;5696580.66969879;473.78335001;0.333333;0.313725;0.219608;20046.000000;1.000000;1.000000;1.000000;1.000000;-0.160301;0.160301;-0.160301;1.000000
445595.60180099;5696580.63219841;473.78524973;0.74902;0.745098;0.670588;48316.000000;1.000000;1.000000;1.000000;1.000000;-0.197802;0.197802;-0.197802;1.000000
445595.39450081;5696580.93939980;473.88905003;0.407843;0.392157;0.286275;25186.000000;1.000000;1.000000;1.000000;1.000000;-0.076126;0.076126;-0.076126;1.000000
445595.55270203;5696581.07529839;473.82324984;0.560784;0.568627;0.368627;35466.000000;1.000000;1.000000;1.000000;1.000000;0.082075;-0.082075;0.082075;1.000000
445595.38670166;5696580.84699829;473.87124969;0.313725;0.282353;0.2;18504.000000;1.000000;1.000000;1.000000;1.000000;0.016998;-0.016998;0.016998;1.000000
445595.43850143;5696581.04789932;473.86434986;0.262745;0.270588;0.160784;16705.000000;1.000000;1.000000;1.000000;1.000000;-0.032125;0.032125;-0.032125;1.000000
445595.28820236;5696581.00159843;473.83374979;0.517647;0.501961;0.352941;32125.000000;1.000000;1.000000;1.000000;1.000000;-0.180952;0.180952;-0.180952;1.000000
445595.49630173;5696580.97079857;473.82184984;0.513725;0.494118;0.396078;31868.000000;1.000000;1.000000;1.000000;1.000000;0.025675;-0.025675;0.025675;1.000000
445595.45520218;5696580.82899864;473.86954977;0.337255;0.356863;0.196078;21588.000000;1.000000;1.000000;1.000000;1.000000;-0.001001;0.001001;-0.001001;1.000000
445595.49220093;5696580.83319862;473.83395006;0.564706;0.552941;0.415686;35466.000000;1.000000;1.000000;1.000000;1.000000;0.003199;-0.003199;0.003199;1.000000
445595.45030220;5696580.90409859;473.87484982;0.270588;0.243137;0.164706;15677.000000;1.000000;1.000000;1.000000;1.000000;-0.020325;0.020325;-0.020325;1.000000
445595.59710129;5696580.91049965;473.79304983;0.521569;0.513725;0.403922;32896.000000;1.000000;1.000000;1.000000;1.000000;0.080500;-0.080500;0.080500;1.000000
445595.34850128;5696581.10549934;473.85405018;0.223529;0.243137;0.0666667;14135.000000;1.000000;1.000000;1.000000;1.000000;-0.122126;0.122126;-0.122126;1.000000
445595.45290192;5696580.77559860;473.86175014;0.360784;0.321569;0.211765;20817.000000;1.000000;1.000000;1.000000;1.000000;-0.054401;0.054401;-0.054401;1.000000
445595.43510254;5696581.11579903;473.87204983;0.541176;0.541176;0.419608;34438.000000;1.000000;1.000000;1.000000;1.000000;-0.035524;0.035524;-0.035524;1.000000
445595.32690247;5696580.74099930;473.83474972;0.568627;0.505882;0.411765;33667.000000;1.000000;1.000000;1.000000;1.000000;0.090949;-0.090949;0.090949;1.000000
445595.28820236;5696580.77729996;473.83575012;0.137255;0.0980392;0.0470588;6682.000000;1.000000;1.000000;1.000000;1.000000;0.077941;-0.077941;0.077941;1.000000
445595.55140121;5696580.95649918;473.81484987;0.156863;0.192157;0.0627451;10794.000000;1.000000;1.000000;1.000000;1.000000;0.080774;-0.080774;0.080774;1.000000
445595.61880119;5696580.70789917;473.77294971;0.529412;0.501961;0.384314;32382.000000;1.000000;1.000000;1.000000;1.000000;-0.122101;0.122101;-0.122101;1.000000
445595.51890190;5696581.09459885;473.83594992;0.454902;0.454902;0.266667;28270.000000;1.000000;1.000000;1.000000;1.000000;0.048275;-0.048275;0.048275;1.000000
445595.37540253;5696580.90179832;473.87144997;0.301961;0.286275;0.180392;18247.000000;1.000000;1.000000;1.000000;1.000000;0.071798;-0.071798;0.071798;1.000000
445595.34880074;5696581.08439835;473.85374977;0.52549;0.564706;0.356863;34695.000000;1.000000;1.000000;1.000000;1.000000;-0.121826;0.121826;-0.121826;1.000000
445595.34360130;5696581.00309952;473.85255005;0.333333;0.321569;0.188235;20303.000000;1.000000;1.000000;1.000000;1.000000;-0.127026;0.127026;-0.127026;1.000000
445595.35980232;5696580.82639893;473.85354998;0.360784;0.313725;0.215686;20560.000000;1.000000;1.000000;1.000000;1.000000;-0.003601;0.003601;-0.003601;1.000000
445595.36340149;5696580.78879936;473.85094978;0.490196;0.439216;0.352941;29041.000000;1.000000;1.000000;1.000000;1.000000;-0.041201;0.041201;-0.041201;1.000000
445595.40290077;5696581.11659821;473.86354973;0.576471;0.592157;0.443137;37265.000000;1.000000;1.000000;1.000000;1.000000;-0.067726;0.067726;-0.067726;1.000000
445595.48580177;5696580.92679985;473.86044981;0.313725;0.27451;0.184314;17990.000000;1.000000;1.000000;1.000000;1.000000;0.015175;-0.015175;0.015175;1.000000
445595.38890083;5696580.79089935;473.86144974;0.298039;0.282353;0.192157;17990.000000;1.000000;1.000000;1.000000;1.000000;-0.039101;0.039101;-0.039101;1.000000
445595.29290207;5696580.92639931;473.83304979;0.72549;0.694118;0.588235;45232.000000;1.000000;1.000000;1.000000;1.000000;-0.109876;0.109876;-0.109876;1.000000
445595.54420097;5696580.70259865;473.80914976;0.356863;0.376471;0.168627;22616.000000;1.000000;1.000000;1.000000;1.000000;-0.127401;0.127401;-0.127401;1.000000
445595.24570091;5696580.91469963;473.81914999;0.415686;0.384314;0.266667;24929.000000;1.000000;1.000000;1.000000;1.000000;-0.130993;0.130993;-0.130993;1.000000
445595.43270119;5696580.84039886;473.87325003;0.27451;0.286275;0.14902;17476.000000;1.000000;1.000000;1.000000;1.000000;0.010399;-0.010399;0.010399;1.000000
445595.35350235;5696580.78039940;473.84574987;0.494118;0.45098;0.360784;29555.000000;1.000000;1.000000;1.000000;1.000000;0.049601;-0.049601;0.049601;1.000000
445595.31600197;5696580.77699860;473.84165003;0.392157;0.345098;0.254902;22873.000000;1.000000;1.000000;1.000000;1.000000;0.060719;-0.060719;0.060719;1.000000
445595.20810135;5696580.91349991;473.81974985;0.329412;0.290196;0.192157;19018.000000;1.000000;1.000000;1.000000;1.000000;-0.160890;0.160890;-0.160890;1.000000
445595.31920059;5696580.91659935;473.85274984;0.635294;0.615686;0.501961;39835.000000;1.000000;1.000000;1.000000;1.000000;-0.090542;0.090542;-0.090542;1.000000
445595.31370171;5696580.85199936;473.84004976;0.376471;0.301961;0.207843;20560.000000;1.000000;1.000000;1.000000;1.000000;-0.038771;0.038771;-0.038771;1.000000
445595.48270233;5696580.80599983;473.83325006;0.2;0.176471;0.0745098;11051.000000;1.000000;1.000000;1.000000;1.000000;-0.024000;0.024000;-0.024000;1.000000
445595.31260117;5696580.89169891;473.84284975;0.384314;0.341176;0.247059;22359.000000;1.000000;1.000000;1.000000;1.000000;-0.069982;0.069982;-0.069982;1.000000
445595.29590233;5696580.83269890;473.83204987;0.415686;0.356863;0.262745;23644.000000;1.000000;1.000000;1.000000;1.000000;-0.049798;0.049798;-0.049798;1.000000
445595.58850105;5696580.92059906;473.79745008;0.509804;0.509804;0.396078;32382.000000;1.000000;1.000000;1.000000;1.000000;0.090599;-0.090599;0.090599;1.000000
445595.28880127;5696580.98279961;473.83355000;0.572549;0.541176;0.403922;34952.000000;1.000000;1.000000;1.000000;1.000000;-0.163024;0.163024;-0.163024;1.000000
445595.36480148;5696580.75129898;473.84585001;0.270588;0.211765;0.137255;14392.000000;1.000000;1.000000;1.000000;1.000000;-0.078701;0.078701;-0.078701;1.000000
445595.49130066;5696581.01799973;473.82214977;0.105882;0.117647;0.0352941;6682.000000;1.000000;1.000000;1.000000;1.000000;0.020674;-0.020674;0.020674;1.000000
445595.46080215;5696581.03869827;473.86994984;0.184314;0.164706;0.0862745;10537.000000;1.000000;1.000000;1.000000;1.000000;-0.009825;0.009825;-0.009825;1.000000
445595.51110085;5696580.80579956;473.82515003;0.266667;0.227451;0.113725;14649.000000;1.000000;1.000000;1.000000;1.000000;-0.025899;0.025899;-0.025899;1.000000
445595.54500206;5696580.88929947;473.81605007;0.47451;0.458824;0.317647;29298.000000;1.000000;1.000000;1.000000;1.000000;0.059299;-0.059299;0.059299;1.000000
445595.56750114;5696581.05079849;473.80734970;0.694118;0.745098;0.521569;46003.000000;1.000000;1.000000;1.000000;1.000000;0.096874;-0.096874;0.096874;1.000000
445595.50600250;5696580.88769920;473.84924986;0.623529;0.592157;0.454902;38293.000000;1.000000;1.000000;1.000000;1.000000;0.035376;-0.035376;0.035376;1.000000
445595.45680054;5696580.97049912;473.92014982;0.160784;0.141176;0.0784314;8995.000000;1.000000;1.000000;1.000000;1.000000;-0.013826;0.013826;-0.013826;1.000000
445595.47040184;5696580.66269882;473.80765011;0.713725;0.737255;0.54902;46260.000000;1.000000;1.000000;1.000000;1.000000;-0.167301;0.167301;-0.167301;1.000000
445595.49550064;5696580.92599876;473.85155012;0.2;0.164706;0.0862745;10794.000000;1.000000;1.000000;1.000000;1.000000;0.024874;-0.024874;0.024874;1.000000
445595.45230110;5696580.96499832;473.85234978;0.160784;0.0784314;0.00784314;6168.000000;1.000000;1.000000;1.000000;1.000000;-0.018326;0.018326;-0.018326;1.000000
445595.39300163;5696580.94889839;473.89144995;0.294118;0.270588;0.160784;17219.000000;1.000000;1.000000;1.000000;1.000000;-0.077625;0.077625;-0.077625;1.000000
445595.38910110;5696580.98419960;473.89395000;0.388235;0.396078;0.266667;24672.000000;1.000000;1.000000;1.000000;1.000000;-0.081526;0.081526;-0.081526;1.000000
445595.39060219;5696581.02159889;473.88754990;0.196078;0.207843;0.105882;12593.000000;1.000000;1.000000;1.000000;1.000000;-0.080025;0.080025;-0.080025;1.000000
445595.32530220;5696580.88109978;473.85024979;0.435294;0.372549;0.270588;24672.000000;1.000000;1.000000;1.000000;1.000000;-0.054993;0.054993;-0.054993;1.000000
445595.36370094;5696580.97529991;473.86945011;0.498039;0.486275;0.372549;31097.000000;1.000000;1.000000;1.000000;1.000000;-0.106926;0.106926;-0.106926;1.000000
445595.32550247;5696580.77839859;473.83974983;0.34902;0.301961;0.211765;20046.000000;1.000000;1.000000;1.000000;1.000000;0.055387;-0.055387;0.055387;1.000000
445595.32300194;5696580.85339935;473.84284975;0.4;0.329412;0.243137;22102.000000;1.000000;1.000000;1.000000;1.000000;-0.032549;0.032549;-0.032549;1.000000
445595.39890106;5696580.79929932;473.86424973;0.341176;0.337255;0.239216;21331.000000;1.000000;1.000000;1.000000;1.000000;-0.030701;0.030701;-0.030701;1.000000
445595.31940086;5696580.89099892;473.84544994;0.415686;0.372549;0.27451;24415.000000;1.000000;1.000000;1.000000;1.000000;-0.066398;0.066398;-0.066398;1.000000
445595.54330261;5696580.66539963;473.80404999;0.219608;0.239216;0.0784314;13878.000000;1.000000;1.000000;1.000000;1.000000;-0.164600;0.164600;-0.164600;1.000000
445595.43570145;5696581.06229980;473.85274984;0.129412;0.117647;0.0392157;7196.000000;1.000000;1.000000;1.000000;1.000000;-0.034925;0.034925;-0.034925;1.000000
445595.57090195;5696580.95729836;473.79705002;0.172549;0.196078;0.0470588;11308.000000;1.000000;1.000000;1.000000;1.000000;0.100275;-0.100275;0.100275;1.000000
445595.56410225;5696581.02739914;473.83484985;0.231373;0.290196;0.054902;15934.000000;1.000000;1.000000;1.000000;1.000000;0.093475;-0.093475;0.093475;1.000000
445595.38670166;5696580.87500008;473.87624981;0.301961;0.286275;0.196078;18247.000000;1.000000;1.000000;1.000000;1.000000;0.045000;-0.045000;0.045000;1.000000
445595.50010117;5696580.84179886;473.83204987;0.572549;0.556863;0.423529;35723.000000;1.000000;1.000000;1.000000;1.000000;0.011799;-0.011799;0.011799;1.000000
445595.42410095;5696580.87609871;473.88035013;0.411765;0.388235;0.290196;25186.000000;1.000000;1.000000;1.000000;1.000000;0.046099;-0.046099;0.046099;1.000000
445595.57290085;5696580.88219841;473.80555012;0.345098;0.32549;0.207843;20817.000000;1.000000;1.000000;1.000000;1.000000;0.052198;-0.052198;0.052198;1.000000
445595.51850136;5696581.06659897;473.83794977;0.501961;0.509804;0.313725;31611.000000;1.000000;1.000000;1.000000;1.000000;0.047874;-0.047874;0.047874;1.000000
445595.48170097;5696580.87059982;473.88754990;0.607843;0.588235;0.47451;38036.000000;1.000000;1.000000;1.000000;1.000000;0.011074;-0.011074;0.011074;1.000000
445595.63540085;5696580.70879944;473.76905014;0.4;0.372549;0.294118;24158.000000;1.000000;1.000000;1.000000;1.000000;-0.121201;0.121201;-0.121201;1.000000
445595.45030220;5696580.73879822;473.84254982;0.419608;0.364706;0.243137;23901.000000;1.000000;1.000000;1.000000;1.000000;-0.091202;0.091202;-0.091202;1.000000
445595.54520233;5696580.91719826;473.81874992;0.333333;0.333333;0.188235;20560.000000;1.000000;1.000000;1.000000;1.000000;0.074575;-0.074575;0.074575;1.000000
445595.29890259;5696580.76919945;473.84074976;0.380392;0.337255;0.262745;22359.000000;1.000000;1.000000;1.000000;1.000000;0.076680;-0.076680;0.076680;1.000000
445595.50700195;5696580.65469940;473.80924990;0.658824;0.701961;0.505882;43690.000000;1.000000;1.000000;1.000000;1.000000;-0.175376;0.175376;-0.175376;1.000000
445595.47220238;5696580.65559967;473.80534985;0.662745;0.694118;0.505882;43433.000000;1.000000;1.000000;1.000000;1.000000;-0.174407;0.174407;-0.174407;1.000000
445595.35490234;5696581.00420006;473.86474993;0.556863;0.564706;0.447059;35980.000000;1.000000;1.000000;1.000000;1.000000;-0.115725;0.115725;-0.115725;1.000000
445595.50230225;5696581.01219948;473.82494976;0.101961;0.117647;0.0235294;6682.000000;1.000000;1.000000;1.000000;1.000000;0.031675;-0.031675;0.031675;1.000000
445595.61940201;5696580.64239891;473.77925016;0.498039;0.494118;0.419608;31868.000000;1.000000;1.000000;1.000000;1.000000;-0.187601;0.187601;-0.187601;1.000000
445595.60210236;5696580.86559875;473.79734995;0.556863;0.52549;0.411765;34181.000000;1.000000;1.000000;1.000000;1.000000;0.035599;-0.035599;0.035599;1.000000
445595.43140228;5696580.67329987;473.81304981;0.580392;0.560784;0.443137;36237.000000;1.000000;1.000000;1.000000;1.000000;-0.156700;0.156700;-0.156700;1.000000
445595.39600189;5696580.66949852;473.81365015;0.596078;0.552941;0.482353;36494.000000;1.000000;1.000000;1.000000;1.000000;-0.160501;0.160501;-0.160501;1.000000
445595.52980240;5696581.09109886;473.84574987;0.34902;0.380392;0.203922;22873.000000;1.000000;1.000000;1.000000;1.000000;0.059175;-0.059175;0.059175;1.000000
445595.61710175;5696580.71739967;473.77764990;0.509804;0.478431;0.34902;30840.000000;1.000000;1.000000;1.000000;1.000000;-0.112600;0.112600;-0.112600;1.000000
445595.24200256;5696580.80279930;473.82464983;0.215686;0.184314;0.105882;12079.000000;1.000000;1.000000;1.000000;1.000000;0.107135;-0.107135;0.107135;1.000000
445595.41410072;5696581.11089905;473.86165001;0.498039;0.501961;0.360784;31611.000000;1.000000;1.000000;1.000000;1.000000;-0.056526;0.056526;-0.056526;1.000000
445595.46350105;5696580.78419884;473.85074999;0.317647;0.282353;0.164706;18247.000000;1.000000;1.000000;1.000000;1.000000;-0.045801;0.045801;-0.045801;1.000000
445595.39880188;5696580.81819923;473.85284998;0.682353;0.647059;0.556863;42405.000000;1.000000;1.000000;1.000000;1.000000;-0.011801;0.011801;-0.011801;1.000000
445595.61480148;5696580.94179924;473.77554991;0.529412;0.541176;0.372549;33924.000000;1.000000;1.000000;1.000000;1.000000;0.111799;-0.111799;0.111799;1.000000
445595.59010132;5696581.08629997;473.79484989;0.239216;0.305882;0.0705882;16962.000000;1.000000;1.000000;1.000000;1.000000;0.119474;-0.119474;0.119474;1.000000
445595.35570152;5696580.96439941;473.86894991;0.376471;0.372549;0.243137;23387.000000;1.000000;1.000000;1.000000;1.000000;-0.114925;0.114925;-0.114925;1.000000
445595.46330078;5696580.63539894;473.80464985;0.384314;0.419608;0.231373;25443.000000;1.000000;1.000000;1.000000;1.000000;-0.194601;0.194601;-0.194601;1.000000
445595.50710114;5696581.07219894;473.84445002;0.341176;0.337255;0.12549;20560.000000;1.000000;1.000000;1.000000;1.000000;0.036474;-0.036474;0.036474;1.000000
445595.42150124;5696580.92989929;473.89244987;0.427451;0.4;0.309804;25957.000000;1.000000;1.000000;1.000000;1.000000;-0.049126;0.049126;-0.049126;1.000000
445595.30660065;5696580.97409828;473.83654978;0.427451;0.392157;0.254902;25186.000000;1.000000;1.000000;1.000000;1.000000;-0.149290;0.149290;-0.149290;1.000000
445595.57430084;5696580.64169891;473.79344990;0.466667;0.470588;0.368627;29812.000000;1.000000;1.000000;1.000000;1.000000;-0.188301;0.188301;-0.188301;1.000000
445595.47040184;5696580.98969849;473.81155016;0.407843;0.411765;0.329412;26214.000000;1.000000;1.000000;1.000000;1.000000;-0.000225;0.000225;-0.000225;1.000000
445595.56960114;5696581.02409943;473.86305000;0.145098;0.180392;0.00392157;9766.000000;1.000000;1.000000;1.000000;1.000000;0.098974;-0.098974;0.098974;1.000000
445595.46370132;5696581.10889824;473.84525015;0.545098;0.537255;0.388235;34181.000000;1.000000;1.000000;1.000000;1.000000;-0.006926;0.006926;-0.006926;1.000000
445595.41250237;5696581.06899841;473.86114981;0.184314;0.196078;0.0901961;11822.000000;1.000000;1.000000;1.000000;1.000000;-0.058125;0.058125;-0.058125;1.000000
445595.30540092;5696581.01159866;473.83694984;0.32549;0.313725;0.164706;19532.000000;1.000000;1.000000;1.000000;1.000000;-0.165226;0.165226;-0.165226;1.000000
445595.46600159;5696580.98629959;473.90444996;0.121569;0.113725;0.0666667;7196.000000;1.000000;1.000000;1.000000;1.000000;-0.004625;0.004625;-0.004625;1.000000
445595.45100220;5696580.94129951;473.88464977;0.219608;0.196078;0.0980392;12593.000000;1.000000;1.000000;1.000000;1.000000;-0.019625;0.019625;-0.019625;1.000000
445595.56360062;5696580.90869911;473.80784990;0.568627;0.560784;0.431373;35723.000000;1.000000;1.000000;1.000000;1.000000;0.078699;-0.078699;0.078699;1.000000
445595.64280136;5696580.76409920;473.77244999;0.678431;0.643137;0.556863;42148.000000;1.000000;1.000000;1.000000;1.000000;-0.065901;0.065901;-0.065901;1.000000
445595.56850250;5696580.76109894;473.80625011;0.627451;0.611765;0.47451;39321.000000;1.000000;1.000000;1.000000;1.000000;-0.068901;0.068901;-0.068901;1.000000
445595.35740097;5696580.71489914;473.83115007;0.501961;0.431373;0.352941;29041.000000;1.000000;1.000000;1.000000;1.000000;0.115101;-0.115101;0.115101;1.000000
445595.31840141;5696580.75109871;473.83675005;0.592157;0.537255;0.439216;35466.000000;1.000000;1.000000;1.000000;1.000000;0.083466;-0.083466;0.083466;1.000000
445595.53560074;5696580.68470009;473.80854990;0.282353;0.313725;0.133333;18504.000000;1.000000;1.000000;1.000000;1.000000;-0.145313;0.145313;-0.145313;1.000000
445595.31490143;5696580.78879936;473.83704998;0.192157;0.145098;0.0745098;9766.000000;1.000000;1.000000;1.000000;1.000000;0.051396;-0.051396;0.051396;1.000000
445595.27970131;5696580.78509911;473.83314993;0.133333;0.0862745;0.0431373;6168.000000;1.000000;1.000000;1.000000;1.000000;0.079764;-0.079764;0.079764;1.000000
445595.29860123;5696580.93750008;473.83344986;0.67451;0.647059;0.537255;42148.000000;1.000000;1.000000;1.000000;1.000000;-0.117336;0.117336;-0.117336;1.000000
445595.55220230;5696580.99139984;473.81754972;0.298039;0.341176;0.137255;19789.000000;1.000000;1.000000;1.000000;1.000000;0.081575;-0.081575;0.081575;1.000000
445595.56320198;5696581.03919991;473.82795002;0.4;0.454902;0.227451;26985.000000;1.000000;1.000000;1.000000;1.000000;0.092575;-0.092575;0.092575;1.000000
445595.45600136;5696580.99149902;473.92974998;0.0156863;0.0352941;0;1542.000000;1.000000;1.000000;1.000000;1.000000;-0.014626;0.014626;-0.014626;1.000000
445595.31260117;5696580.86379822;473.83785011;0.427451;0.352941;0.258824;23901.000000;1.000000;1.000000;1.000000;1.000000;-0.047255;0.047255;-0.047255;1.000000
445595.46670158;5696581.01519974;473.84424974;0.262745;0.27451;0.12549;16448.000000;1.000000;1.000000;1.000000;1.000000;-0.003925;0.003925;-0.003925;1.000000
445595.61790092;5696580.90179832;473.77995016;0.45098;0.435294;0.305882;27756.000000;1.000000;1.000000;1.000000;1.000000;0.071798;-0.071798;0.071798;1.000000
445595.43200119;5696581.09999855;473.85774996;0.215686;0.188235;0.0823529;12079.000000;1.000000;1.000000;1.000000;1.000000;-0.038626;0.038626;-0.038626;1.000000
445595.42810257;5696580.84079941;473.87304976;0.298039;0.301961;0.176471;18761.000000;1.000000;1.000000;1.000000;1.000000;0.010799;-0.010799;0.010799;1.000000
445595.41800125;5696581.02339943;473.90504982;0.705882;0.709804;0.576471;45232.000000;1.000000;1.000000;1.000000;1.000000;-0.052626;0.052626;-0.052626;1.000000
445595.39010056;5696580.96779831;473.89155008;0.368627;0.34902;0.254902;22359.000000;1.000000;1.000000;1.000000;1.000000;-0.080526;0.080526;-0.080526;1.000000
445595.38890083;5696581.00529869;473.89195015;0.411765;0.407843;0.290196;25957.000000;1.000000;1.000000;1.000000;1.000000;-0.081726;0.081726;-0.081726;1.000000
445595.44970139;5696580.93419846;473.89844992;0.12549;0.105882;0.0117647;6425.000000;1.000000;1.000000;1.000000;1.000000;-0.020926;0.020926;-0.020926;1.000000
445595.25280197;5696580.96989830;473.82714989;0.552941;0.521569;0.388235;33667.000000;1.000000;1.000000;1.000000;1.000000;-0.167893;0.167893;-0.167893;1.000000
445595.44240196;5696581.00949867;473.90604975;0.423529;0.423529;0.32549;26985.000000;1.000000;1.000000;1.000000;1.000000;-0.028225;0.028225;-0.028225;1.000000
445595.52920158;5696581.00039871;473.82595016;0.560784;0.568627;0.431373;35980.000000;1.000000;1.000000;1.000000;1.000000;0.058575;-0.058575;0.058575;1.000000
445595.23480232;5696580.92269905;473.81645014;0.635294;0.603922;0.494118;39321.000000;1.000000;1.000000;1.000000;1.000000;-0.144483;0.144483;-0.144483;1.000000
445595.21520050;5696580.96869858;473.83005001;0.521569;0.498039;0.372549;32125.000000;1.000000;1.000000;1.000000;1.000000;-0.190390;0.190390;-0.190390;1.000000
445595.21700104;5696580.93369873;473.82035019;0.741176;0.701961;0.603922;46003.000000;1.000000;1.000000;1.000000;1.000000;-0.165221;0.165221;-0.165221;1.000000
445595.42140205;5696580.69730003;473.82684996;0.560784;0.513725;0.411765;33667.000000;1.000000;1.000000;1.000000;1.000000;-0.132700;0.132700;-0.132700;1.000000
445595.25430115;5696580.93479927;473.82445004;0.352941;0.32549;0.2;20817.000000;1.000000;1.000000;1.000000;1.000000;-0.139008;0.139008;-0.139008;1.000000
445595.43580063;5696580.83049973;473.88964989;0.443137;0.462745;0.282353;28527.000000;1.000000;1.000000;1.000000;1.000000;0.000500;-0.000500;0.000500;1.000000
445595.27800186;5696580.81339844;473.82634975;0.686275;0.639216;0.556863;42148.000000;1.000000;1.000000;1.000000;1.000000;0.069633;-0.069633;0.069633;1.000000
445595.57420166;5696581.06899841;473.80084993;0.231373;0.298039;0.054902;16448.000000;1.000000;1.000000;1.000000;1.000000;0.103575;-0.103575;0.103575;1.000000
445595.20180138;5696580.84849937;473.82564976;0.458824;0.427451;0.34902;28013.000000;1.000000;1.000000;1.000000;1.000000;-0.145010;0.145010;-0.145010;1.000000
445595.34900101;5696580.86239822;473.85575010;0.631373;0.580392;0.498039;38293.000000;1.000000;1.000000;1.000000;1.000000;-0.032398;0.032398;-0.032398;1.000000
445595.34980209;5696581.06799896;473.85125019;0.576471;0.619608;0.411765;38036.000000;1.000000;1.000000;1.000000;1.000000;-0.120825;0.120825;-0.120825;1.000000
445595.28440102;5696581.03689964;473.83634998;0.52549;0.545098;0.356863;33924.000000;1.000000;1.000000;1.000000;1.000000;-0.186226;0.186226;-0.186226;1.000000
445595.55180176;5696580.98219879;473.80585005;0.454902;0.52549;0.294118;31354.000000;1.000000;1.000000;1.000000;1.000000;0.081175;-0.081175;0.081175;1.000000
445595.18010147;5696580.89259918;473.82754995;0.541176;0.513725;0.423529;33410.000000;1.000000;1.000000;1.000000;1.000000;-0.176967;0.176967;-0.176967;1.000000
445595.22160156;5696580.85839851;473.82205011;0.396078;0.356863;0.278431;23387.000000;1.000000;1.000000;1.000000;1.000000;-0.127235;0.127235;-0.127235;1.000000
445595.24190147;5696580.97799881;473.82674982;0.541176;0.517647;0.384314;33410.000000;1.000000;1.000000;1.000000;1.000000;-0.180728;0.180728;-0.180728;1.000000
445595.18380173;5696580.85719879;473.82735016;0.486275;0.45098;0.368627;29555.000000;1.000000;1.000000;1.000000;1.000000;-0.164095;0.164095;-0.164095;1.000000
445595.25680168;5696580.85989960;473.82135012;0.431373;0.376471;0.278431;24929.000000;1.000000;1.000000;1.000000;1.000000;-0.093722;0.093722;-0.093722;1.000000
445595.36750229;5696580.86289986;473.86364986;0.411765;0.372549;0.301961;24672.000000;1.000000;1.000000;1.000000;1.000000;0.032900;-0.032900;0.032900;1.000000
445595.54250153;5696580.88939865;473.82065012;0.521569;0.501961;0.364706;32125.000000;1.000000;1.000000;1.000000;1.000000;0.059399;-0.059399;0.059399;1.000000
445595.56070145;5696581.10509880;473.81234982;0.560784;0.584314;0.384314;36237.000000;1.000000;1.000000;1.000000;1.000000;0.090075;-0.090075;0.090075;1.000000
445595.34780128;5696581.02149971;473.85064985;0.243137;0.235294;0.121569;14649.000000;1.000000;1.000000;1.000000;1.000000;-0.122826;0.122826;-0.122826;1.000000
445595.46710213;5696580.99109848;473.89064981;0.34902;0.368627;0.294118;23130.000000;1.000000;1.000000;1.000000;1.000000;-0.003525;0.003525;-0.003525;1.000000
445595.40400131;5696580.97779854;473.91554977;0.654902;0.662745;0.533333;42148.000000;1.000000;1.000000;1.000000;1.000000;-0.066626;0.066626;-0.066626;1.000000
445595.43110092;5696580.80519875;473.88915016;0.419608;0.419608;0.286275;26471.000000;1.000000;1.000000;1.000000;1.000000;-0.024801;0.024801;-0.024801;1.000000
445595.56690224;5696581.01059921;473.84175016;0.321569;0.372549;0.152941;21588.000000;1.000000;1.000000;1.000000;1.000000;0.096275;-0.096275;0.096275;1.000000
445595.42820175;5696580.80309875;473.89594986;0.501961;0.498039;0.368627;31611.000000;1.000000;1.000000;1.000000;1.000000;-0.026901;0.026901;-0.026901;1.000000
445595.46360214;5696580.84909828;473.88175013;0.298039;0.309804;0.152941;18761.000000;1.000000;1.000000;1.000000;1.000000;-0.007025;0.007025;-0.007025;1.000000
445595.42450150;5696580.88299950;473.88504984;0.498039;0.454902;0.360784;29812.000000;1.000000;1.000000;1.000000;1.000000;-0.046125;0.046125;-0.046125;1.000000
445595.38010223;5696580.81979950;473.85664989;0.286275;0.254902;0.14902;16448.000000;1.000000;1.000000;1.000000;1.000000;-0.010201;0.010201;-0.010201;1.000000
445595.36240204;5696580.98709877;473.86954977;0.545098;0.533333;0.427451;34181.000000;1.000000;1.000000;1.000000;1.000000;-0.108225;0.108225;-0.108225;1.000000
445595.53850182;5696580.94819839;473.82345011;0.266667;0.278431;0.156863;16962.000000;1.000000;1.000000;1.000000;1.000000;0.067875;-0.067875;0.067875;1.000000
445595.44740112;5696581.10809906;473.84224989;0.490196;0.494118;0.337255;31097.000000;1.000000;1.000000;1.000000;1.000000;-0.023226;0.023226;-0.023226;1.000000
445595.39570053;5696580.73439987;473.85174992;0.470588;0.419608;0.317647;27756.000000;1.000000;1.000000;1.000000;1.000000;-0.095600;0.095600;-0.095600;1.000000
445595.65000160;5696580.81939896;473.77804996;0.745098;0.717647;0.619608;46774.000000;1.000000;1.000000;1.000000;1.000000;-0.010601;0.010601;-0.010601;1.000000
445595.53690155;5696580.85259827;473.81754972;0.266667;0.243137;0.105882;15163.000000;1.000000;1.000000;1.000000;1.000000;0.022607;-0.022607;0.022607;1.000000
445595.30530174;5696581.06740006;473.85164978;0.494118;0.54902;0.317647;33153.000000;1.000000;1.000000;1.000000;1.000000;-0.165325;0.165325;-0.165325;1.000000
445595.57550247;5696581.02929886;473.79344990;0.54902;0.631373;0.360784;37779.000000;1.000000;1.000000;1.000000;1.000000;0.104876;-0.104876;0.104876;1.000000
445595.36930092;5696581.10349854;473.85494997;0.25098;0.27451;0.105882;16191.000000;1.000000;1.000000;1.000000;1.000000;-0.101326;0.101326;-0.101326;1.000000
445595.41090210;5696580.83759888;473.88394978;0.321569;0.321569;0.152941;19789.000000;1.000000;1.000000;1.000000;1.000000;-0.007599;0.007599;-0.007599;1.000000
445595.50420197;5696580.97939880;473.81995012;0.47451;0.454902;0.356863;29298.000000;1.000000;1.000000;1.000000;1.000000;0.033575;-0.033575;0.033575;1.000000
445595.45340164;5696580.96139915;473.92695000;0.411765;0.411765;0.294118;25957.000000;1.000000;1.000000;1.000000;1.000000;-0.017225;0.017225;-0.017225;1.000000
445595.30200203;5696580.89979942;473.83544971;0.356863;0.313725;0.219608;20560.000000;1.000000;1.000000;1.000000;1.000000;-0.082311;0.082311;-0.082311;1.000000
445595.42100151;5696580.92299850;473.89004995;0.431373;0.403922;0.313725;26214.000000;1.000000;1.000000;1.000000;1.000000;-0.049625;0.049625;-0.049625;1.000000
445595.52190216;5696581.04089935;473.81444981;0.305882;0.356863;0.156863;20817.000000;1.000000;1.000000;1.000000;1.000000;0.051275;-0.051275;0.051275;1.000000
445595.30900200;5696580.72179993;473.82905008;0.631373;0.580392;0.498039;38293.000000;1.000000;1.000000;1.000000;1.000000;0.114231;-0.114231;0.114231;1.000000
445595.44130142;5696580.89749916;473.90464975;0.117647;0.101961;0.027451;6425.000000;1.000000;1.000000;1.000000;1.000000;-0.029325;0.029325;-0.029325;1.000000
445595.38860138;5696580.97729881;473.89155008;0.427451;0.423529;0.301961;26728.000000;1.000000;1.000000;1.000000;1.000000;-0.082026;0.082026;-0.082026;1.000000
445595.60120209;5696580.65099915;473.78545000;0.298039;0.278431;0.2;17990.000000;1.000000;1.000000;1.000000;1.000000;-0.179001;0.179001;-0.179001;1.000000
445595.56270226;5696581.07689865;473.81215002;0.396078;0.427451;0.192157;25700.000000;1.000000;1.000000;1.000000;1.000000;0.092075;-0.092075;0.092075;1.000000
445595.39050110;5696581.00939949;473.91764977;0.2;0.231373;0.101961;13364.000000;1.000000;1.000000;1.000000;1.000000;-0.080126;0.080126;-0.080126;1.000000
445595.52480133;5696580.90719994;473.83634998;0.372549;0.364706;0.223529;22873.000000;1.000000;1.000000;1.000000;1.000000;0.054174;-0.054174;0.054174;1.000000
445595.24060257;5696580.98969849;473.82674982;0.376471;0.356863;0.215686;22616.000000;1.000000;1.000000;1.000000;1.000000;-0.191138;0.191138;-0.191138;1.000000
445595.52190216;5696581.04089935;473.81444981;0.301961;0.352941;0.156863;20560.000000;1.000000;1.000000;1.000000;1.000000;0.051275;-0.051275;0.051275;1.000000
445595.52410133;5696580.87229927;473.83124973;0.4;0.376471;0.231373;23901.000000;1.000000;1.000000;1.000000;1.000000;0.044350;-0.044350;0.044350;1.000000
