//X;Y;Z;Rf;Gf;Bf;Intensity;Return Number;Number Of Returns;Scan Direction Flag;Point Source ID;C2M signed distances[-][<0.8];C2M signed distances[<0.4];C2M signed distances[-][<0.2];Stump70
299
445615.54170235;5696591.85309990;472.98675014;0.411765;0.384314;0.341176;25186.000000;1.000000;1.000000;1.000000;1.000000;-0.147675;0.147675;-0.147675;1.000000
445615.66720207;5696592.17369850;473.09875013;0.12549;0.12549;0.0980392;7967.000000;1.000000;1.000000;1.000000;1.000000;-0.022175;0.022175;-0.022175;1.000000
445615.63640221;5696592.19969948;473.11154987;0.0666667;0.0509804;0.0392157;3341.000000;1.000000;1.000000;1.000000;1.000000;-0.052975;0.052975;-0.052975;1.000000
445615.80030067;5696592.36709984;473.08834984;0.298039;0.290196;0.282353;19018.000000;1.000000;1.000000;1.000000;1.000000;-0.037100;0.037100;-0.037100;1.000000
445615.65900238;5696592.15879829;473.20064976;0.117647;0.0941176;0.0705882;6425.000000;1.000000;1.000000;1.000000;1.000000;-0.030375;0.030375;-0.030375;1.000000
445615.67110069;5696592.21309860;473.09464981;0.0784314;0.0666667;0.0627451;4369.000000;1.000000;1.000000;1.000000;1.000000;-0.021648;0.021648;-0.021648;1.000000
445615.74690063;5696592.30939873;473.06435015;0.203922;0.192157;0.176471;12593.000000;1.000000;1.000000;1.000000;1.000000;0.020832;-0.020832;0.020832;1.000000
445615.78720100;5696592.19709976;473.13234999;0.733333;0.741176;0.635294;47545.000000;1.000000;1.000000;1.000000;1.000000;0.097824;-0.097824;0.097824;1.000000
445615.57220085;5696592.04059990;473.06255009;0.223529;0.2;0.0941176;12593.000000;1.000000;1.000000;1.000000;1.000000;-0.117176;0.117176;-0.117176;1.000000
445615.65110214;5696591.93289955;473.06015017;0.65098;0.65098;0.541176;41634.000000;1.000000;1.000000;1.000000;1.000000;-0.038275;0.038275;-0.038275;1.000000
445615.67720230;5696592.16319855;473.11534979;0.105882;0.109804;0.0784314;6682.000000;1.000000;1.000000;1.000000;1.000000;-0.012175;0.012175;-0.012175;1.000000
445615.64250191;5696592.19969948;473.07924988;0.117647;0.101961;0.0666667;6682.000000;1.000000;1.000000;1.000000;1.000000;-0.046875;0.046875;-0.046875;1.000000
445615.69630249;5696592.19409950;473.11884977;0.137255;0.12549;0.0980392;8224.000000;1.000000;1.000000;1.000000;1.000000;0.006926;-0.006926;0.006926;1.000000
445615.70270164;5696592.17209824;473.13985016;0.152941;0.152941;0.109804;9509.000000;1.000000;1.000000;1.000000;1.000000;0.013325;-0.013325;0.013325;1.000000
445615.66860207;5696592.13859947;473.09835007;0.172549;0.172549;0.137255;11051.000000;1.000000;1.000000;1.000000;1.000000;-0.020775;0.020775;-0.020775;1.000000
445615.68910225;5696592.16809853;473.17415001;0.14902;0.156863;0.0980392;9509.000000;1.000000;1.000000;1.000000;1.000000;-0.000275;0.000275;-0.000275;1.000000
445615.78070076;5696592.37389954;473.07124998;0.141176;0.133333;0.129412;8738.000000;1.000000;1.000000;1.000000;1.000000;-0.043967;0.043967;-0.043967;1.000000
445615.70740135;5696592.37189873;473.03305008;0.180392;0.188235;0.160784;11822.000000;1.000000;1.000000;1.000000;1.000000;-0.041899;0.041899;-0.041899;1.000000
445615.67110069;5696592.33329971;473.03095009;0.32549;0.333333;0.317647;21331.000000;1.000000;1.000000;1.000000;1.000000;-0.018572;0.018572;-0.018572;1.000000
445615.85930069;5696592.34079941;473.07445004;0.607843;0.611765;0.576471;39578.000000;1.000000;1.000000;1.000000;1.000000;-0.010799;0.010799;-0.010799;1.000000
445615.71890076;5696592.07469948;473.14874985;0.478431;0.505882;0.392157;31611.000000;1.000000;1.000000;1.000000;1.000000;0.029524;-0.029524;0.029524;1.000000
445615.72030075;5696592.03729828;473.14374973;0.25098;0.309804;0.152941;17990.000000;1.000000;1.000000;1.000000;1.000000;0.030924;-0.030924;0.030924;1.000000
445615.57500084;5696591.95669945;473.03375008;0.541176;0.537255;0.403922;34181.000000;1.000000;1.000000;1.000000;1.000000;-0.114376;0.114376;-0.114376;1.000000
445615.68730171;5696591.92469986;473.07105019;0.643137;0.647059;0.533333;41377.000000;1.000000;1.000000;1.000000;1.000000;-0.002075;0.002075;-0.002075;1.000000
445615.61400230;5696591.92279823;473.03275015;0.607843;0.6;0.505882;38550.000000;1.000000;1.000000;1.000000;1.000000;-0.075375;0.075375;-0.075375;1.000000
445615.50260170;5696591.91499908;472.99734976;0.670588;0.658824;0.596078;42919.000000;1.000000;1.000000;1.000000;1.000000;-0.186775;0.186775;-0.186775;1.000000
445615.72510155;5696591.92819984;473.06815006;0.588235;0.592157;0.494118;37779.000000;1.000000;1.000000;1.000000;1.000000;0.035725;-0.035725;0.035725;1.000000
445615.79920204;5696591.92889984;473.03424980;0.494118;0.486275;0.380392;31097.000000;1.000000;1.000000;1.000000;1.000000;0.098900;-0.098900;0.098900;1.000000
445615.54150208;5696591.88099869;472.99634983;0.760784;0.737255;0.678431;48316.000000;1.000000;1.000000;1.000000;1.000000;-0.147875;0.147875;-0.147875;1.000000
445615.69010170;5696591.88769920;473.03345015;0.505882;0.490196;0.411765;31611.000000;1.000000;1.000000;1.000000;1.000000;0.000725;-0.000725;0.000725;1.000000
445615.76510246;5696591.88999947;473.03454973;0.811765;0.807843;0.756863;52428.000000;1.000000;1.000000;1.000000;1.000000;0.059999;-0.059999;0.059999;1.000000
445615.58010109;5696591.84469994;472.99765017;0.729412;0.701961;0.654902;46003.000000;1.000000;1.000000;1.000000;1.000000;-0.109276;0.109276;-0.109276;1.000000
445615.72890099;5696591.85139854;473.03244974;0.835294;0.835294;0.803922;54484.000000;1.000000;1.000000;1.000000;1.000000;0.021399;-0.021399;0.021399;1.000000
445615.63450249;5696592.33909996;473.02465012;0.231373;0.235294;0.203922;14906.000000;1.000000;1.000000;1.000000;1.000000;-0.055624;0.055624;-0.055624;1.000000
445615.75540169;5696592.08549889;473.13894989;0.686275;0.686275;0.580392;44204.000000;1.000000;1.000000;1.000000;1.000000;0.066025;-0.066025;0.066025;1.000000
445615.64650162;5696592.04419907;473.13584997;0.505882;0.541176;0.384314;33410.000000;1.000000;1.000000;1.000000;1.000000;-0.042875;0.042875;-0.042875;1.000000
445615.79140099;5696592.05009850;473.09585001;0.329412;0.286275;0.2;18761.000000;1.000000;1.000000;1.000000;1.000000;0.102024;-0.102024;0.102024;1.000000
445615.72490128;5696591.96739967;473.10354998;0.552941;0.603922;0.396078;37008.000000;1.000000;1.000000;1.000000;1.000000;0.035524;-0.035524;0.035524;1.000000
445615.74550064;5696592.29769905;473.07114985;0.113725;0.0980392;0.0980392;6682.000000;1.000000;1.000000;1.000000;1.000000;0.032345;-0.032345;0.032345;1.000000
445615.68640144;5696591.95919998;473.11095001;0.631373;0.670588;0.482353;41634.000000;1.000000;1.000000;1.000000;1.000000;-0.002975;0.002975;-0.002975;1.000000
445615.82280167;5696592.23639877;473.09714987;0.772549;0.756863;0.713725;49344.000000;1.000000;1.000000;1.000000;1.000000;0.093601;-0.093601;0.093601;1.000000
445615.52040108;5696592.40089996;473.03884985;0.341176;0.294118;0.219608;19532.000000;1.000000;1.000000;1.000000;1.000000;-0.183247;0.183247;-0.183247;1.000000
445615.85830124;5696592.30359848;473.07165005;0.501961;0.501961;0.462745;32382.000000;1.000000;1.000000;1.000000;1.000000;0.026402;-0.026402;0.026402;1.000000
445615.49500092;5696592.10199936;473.03415014;0.486275;0.478431;0.415686;30840.000000;1.000000;1.000000;1.000000;1.000000;-0.194376;0.194376;-0.194376;1.000000
445615.64640244;5696592.07219894;473.14314987;0.490196;0.52549;0.396078;32639.000000;1.000000;1.000000;1.000000;1.000000;-0.042974;0.042974;-0.042974;1.000000
445615.68150146;5696592.07349976;473.14704992;0.113725;0.14902;0.0588235;8224.000000;1.000000;1.000000;1.000000;1.000000;-0.007875;0.007875;-0.007875;1.000000
445615.49620064;5696592.06449898;473.03375008;0.54902;0.541176;0.482353;34952.000000;1.000000;1.000000;1.000000;1.000000;-0.193176;0.193176;-0.193176;1.000000
445615.79120071;5696592.07799919;473.10785009;0.607843;0.572549;0.482353;37522.000000;1.000000;1.000000;1.000000;1.000000;0.101824;-0.101824;0.101824;1.000000
445615.68270119;5696592.03599937;473.14664986;0.145098;0.192157;0.0784314;10794.000000;1.000000;1.000000;1.000000;1.000000;-0.006676;0.006676;-0.006676;1.000000
445615.60960205;5696591.99489983;473.07305004;0.239216;0.223529;0.0862745;13878.000000;1.000000;1.000000;1.000000;1.000000;-0.079775;0.079775;-0.079775;1.000000
445615.71370132;5696592.22529991;473.10844995;0.0941176;0.0901961;0.0784314;5654.000000;1.000000;1.000000;1.000000;1.000000;0.033840;-0.033840;0.033840;1.000000
445615.74910172;5696592.22899826;473.11004974;0.0627451;0.0588235;0.0392157;3598.000000;1.000000;1.000000;1.000000;1.000000;0.065624;-0.065624;0.065624;1.000000
445615.75450142;5696592.04829987;473.13374998;0.145098;0.180392;0.0705882;10280.000000;1.000000;1.000000;1.000000;1.000000;0.065125;-0.065125;0.065125;1.000000
445615.51950081;5696592.36369904;473.03375008;0.541176;0.517647;0.427451;33667.000000;1.000000;1.000000;1.000000;1.000000;-0.173186;0.173186;-0.173186;1.000000
445615.75290115;5696592.18610008;473.14465000;0.631373;0.635294;0.517647;40606.000000;1.000000;1.000000;1.000000;1.000000;0.063524;-0.063524;0.063524;1.000000
445615.79220207;5696592.11519821;473.11065008;0.458824;0.403922;0.329412;26985.000000;1.000000;1.000000;1.000000;1.000000;0.102825;-0.102825;0.102825;1.000000
445615.79740150;5696592.00319870;473.07224991;0.537255;0.52549;0.403922;33667.000000;1.000000;1.000000;1.000000;1.000000;0.108025;-0.108025;0.108025;1.000000
445615.77990158;5696592.38579948;473.06204988;0.368627;0.360784;0.337255;23387.000000;1.000000;1.000000;1.000000;1.000000;-0.055893;0.055893;-0.055893;1.000000
445615.63450249;5696592.29229935;473.03104975;0.294118;0.298039;0.266667;19018.000000;1.000000;1.000000;1.000000;1.000000;0.066577;-0.066577;0.066577;1.000000
445615.70930107;5696592.26129921;473.07364990;0.117647;0.101961;0.0901961;6682.000000;1.000000;1.000000;1.000000;1.000000;0.063425;-0.063425;0.063425;1.000000
445615.78640182;5696592.22789963;473.10934975;0.184314;0.172549;0.137255;11051.000000;1.000000;1.000000;1.000000;1.000000;0.100476;-0.100476;0.100476;1.000000
445615.57220085;5696592.06849869;473.06984999;0.172549;0.160784;0.0941176;10280.000000;1.000000;1.000000;1.000000;1.000000;-0.117176;0.117176;-0.117176;1.000000
445615.63580139;5696592.25709923;473.03305008;0.243137;0.235294;0.207843;15163.000000;1.000000;1.000000;1.000000;1.000000;-0.078100;0.078100;-0.078100;1.000000
445615.59940155;5696592.21839912;473.03564980;0.172549;0.14902;0.109804;9766.000000;1.000000;1.000000;1.000000;1.000000;-0.091774;0.091774;-0.091774;1.000000
445615.85720070;5696592.26639946;473.06874992;0.431373;0.431373;0.380392;27756.000000;1.000000;1.000000;1.000000;1.000000;0.063601;-0.063601;0.063601;1.000000
445615.56530197;5696592.17949875;473.03594973;0.0941176;0.0627451;0.0313725;4369.000000;1.000000;1.000000;1.000000;1.000000;-0.124075;0.124075;-0.124075;1.000000
445615.68730171;5696592.18879898;473.20694973;0.223529;0.215686;0.168627;13878.000000;1.000000;1.000000;1.000000;1.000000;-0.002075;0.002075;-0.002075;1.000000
445615.62520226;5696592.15549858;473.16414978;0.0352941;0.0235294;0;1542.000000;1.000000;1.000000;1.000000;1.000000;-0.064175;0.064175;-0.064175;1.000000
445615.64360245;5696592.23839958;473.13565018;0.254902;0.243137;0.231373;15934.000000;1.000000;1.000000;1.000000;1.000000;-0.058284;0.058284;-0.058284;1.000000
445615.49140175;5696592.18419846;473.02565004;0.27451;0.266667;0.2;16962.000000;1.000000;1.000000;1.000000;1.000000;-0.197975;0.197975;-0.197975;1.000000
445615.55480202;5696592.41189964;473.02425005;0.580392;0.541176;0.490196;35723.000000;1.000000;1.000000;1.000000;1.000000;-0.157537;0.157537;-0.157537;1.000000
445615.82160194;5696592.27389915;473.09754993;0.643137;0.639216;0.607843;41634.000000;1.000000;1.000000;1.000000;1.000000;0.056101;-0.056101;0.056101;1.000000
445615.71260078;5696592.23489960;473.10144999;0.129412;0.121569;0.113725;7967.000000;1.000000;1.000000;1.000000;1.000000;0.040569;-0.040569;0.040569;1.000000
445615.64240082;5696592.21859940;473.06785013;0.129412;0.117647;0.0901961;7710.000000;1.000000;1.000000;1.000000;1.000000;-0.050179;0.050179;-0.050179;1.000000
445615.57180222;5696592.13869865;473.06834986;0.0509804;0.0235294;0.00784314;1799.000000;1.000000;1.000000;1.000000;1.000000;-0.117575;0.117575;-0.117575;1.000000
445615.75290115;5696592.15809830;473.13735010;0.67451;0.678431;0.572549;43433.000000;1.000000;1.000000;1.000000;1.000000;0.063524;-0.063524;0.063524;1.000000
445615.64270218;5696592.07959946;473.13845016;0.545098;0.568627;0.447059;35723.000000;1.000000;1.000000;1.000000;1.000000;-0.046675;0.046675;-0.046675;1.000000
445615.60460098;5696592.07909973;473.09945013;0.184314;0.192157;0.0862745;11565.000000;1.000000;1.000000;1.000000;1.000000;-0.084776;0.084776;-0.084776;1.000000
445615.61280067;5696592.19809921;473.05924990;0.333333;0.313725;0.266667;20560.000000;1.000000;1.000000;1.000000;1.000000;-0.076576;0.076576;-0.076576;1.000000
445615.55840118;5696592.37430008;473.02164986;0.282353;0.239216;0.180392;15934.000000;1.000000;1.000000;1.000000;1.000000;-0.138265;0.138265;-0.138265;1.000000
445615.69500168;5696592.15899857;473.12774994;0.2;0.196078;0.168627;12593.000000;1.000000;1.000000;1.000000;1.000000;0.005625;-0.005625;0.005625;1.000000
445615.65780075;5696592.19339951;473.08914997;0.160784;0.152941;0.121569;9766.000000;1.000000;1.000000;1.000000;1.000000;-0.031576;0.031576;-0.031576;1.000000
445615.57100113;5696592.10599907;473.07025005;0.219608;0.188235;0.137255;12336.000000;1.000000;1.000000;1.000000;1.000000;-0.118376;0.118376;-0.118376;1.000000
445615.60780151;5696592.06019981;473.09235003;0.639216;0.647059;0.513725;41120.000000;1.000000;1.000000;1.000000;1.000000;-0.081575;0.081575;-0.081575;1.000000
445615.64360245;5696592.06089981;473.13124992;0.403922;0.435294;0.294118;26728.000000;1.000000;1.000000;1.000000;1.000000;-0.045774;0.045774;-0.045774;1.000000
445615.75770195;5696592.02939995;473.12664988;0.254902;0.298039;0.14902;17476.000000;1.000000;1.000000;1.000000;1.000000;0.068325;-0.068325;0.068325;1.000000
445615.72420128;5696591.95369919;473.08934977;0.466667;0.494118;0.317647;30326.000000;1.000000;1.000000;1.000000;1.000000;0.034824;-0.034824;0.034824;1.000000
445615.70820244;5696592.27089890;473.06444981;0.0901961;0.0784314;0.0705882;5140.000000;1.000000;1.000000;1.000000;1.000000;0.059101;-0.059101;0.059101;1.000000
445615.52910240;5696592.18540009;473.02274992;0.313725;0.294118;0.235294;19018.000000;1.000000;1.000000;1.000000;1.000000;-0.160275;0.160275;-0.160275;1.000000
445615.49270065;5696592.14899834;473.02764990;0.294118;0.278431;0.192157;17733.000000;1.000000;1.000000;1.000000;1.000000;-0.196676;0.196676;-0.196676;1.000000
445615.60260208;5696592.18969925;473.06104996;0.415686;0.388235;0.333333;25443.000000;1.000000;1.000000;1.000000;1.000000;-0.086775;0.086775;-0.086775;1.000000
445615.52210243;5696592.33559998;473.02185013;0.384314;0.352941;0.266667;22873.000000;1.000000;1.000000;1.000000;1.000000;-0.167368;0.167368;-0.167368;1.000000
445615.63340195;5696592.30409821;473.02885010;0.34902;0.360784;0.32549;23130.000000;1.000000;1.000000;1.000000;1.000000;0.061677;-0.061677;0.061677;1.000000
445615.72260101;5696592.00910004;473.13884975;0.623529;0.682353;0.505882;42148.000000;1.000000;1.000000;1.000000;1.000000;0.033224;-0.033224;0.033224;1.000000
445615.59940155;5696592.26299866;473.02444984;0.258824;0.262745;0.219608;16705.000000;1.000000;1.000000;1.000000;1.000000;-0.109780;0.109780;-0.109780;1.000000
445615.75010117;5696592.23609932;473.10085012;0.0470588;0.0470588;0.0352941;2827.000000;1.000000;1.000000;1.000000;1.000000;0.069828;-0.069828;0.069828;1.000000
445615.72460182;5696592.20519836;473.13665010;0.160784;0.152941;0.109804;9766.000000;1.000000;1.000000;1.000000;1.000000;0.035341;-0.035341;0.035341;1.000000
445615.81930168;5696592.34889992;473.09604980;0.556863;0.552941;0.537255;35980.000000;1.000000;1.000000;1.000000;1.000000;-0.018900;0.018900;-0.018900;1.000000
445615.64980133;5696592.16359909;473.10244991;0.0862745;0.0862745;0.0784314;5397.000000;1.000000;1.000000;1.000000;1.000000;-0.039576;0.039576;-0.039576;1.000000
445615.56860168;5696592.15079887;473.05905010;0.129412;0.0901961;0.0627451;6425.000000;1.000000;1.000000;1.000000;1.000000;-0.120775;0.120775;-0.120775;1.000000
445615.56490143;5696592.11369904;473.06544973;0.239216;0.2;0.156863;13364.000000;1.000000;1.000000;1.000000;1.000000;-0.124475;0.124475;-0.124475;1.000000
445615.67580231;5696592.26719864;473.04894974;0.12549;0.12549;0.109804;7967.000000;1.000000;1.000000;1.000000;1.000000;0.064252;-0.064252;0.064252;1.000000
445615.60080154;5696592.19229897;473.05404999;0.427451;0.403922;0.345098;26471.000000;1.000000;1.000000;1.000000;1.000000;-0.088575;0.088575;-0.088575;1.000000
445615.80320175;5696591.86349876;473.01494982;0.368627;0.352941;0.278431;22873.000000;1.000000;1.000000;1.000000;1.000000;0.033499;-0.033499;0.033499;1.000000
445615.52470215;5696592.26069839;473.01644995;0.427451;0.419608;0.356863;26985.000000;1.000000;1.000000;1.000000;1.000000;-0.175526;0.175526;-0.175526;1.000000
445615.68700226;5696591.97289856;473.12514975;0.47451;0.517647;0.337255;31611.000000;1.000000;1.000000;1.000000;1.000000;-0.002375;0.002375;-0.002375;1.000000
445615.59620102;5696592.30069931;473.01784994;0.203922;0.203922;0.164706;12850.000000;1.000000;1.000000;1.000000;1.000000;0.097674;-0.097674;0.097674;1.000000
445615.59760101;5696592.34029968;473.01604988;0.215686;0.196078;0.168627;12850.000000;1.000000;1.000000;1.000000;1.000000;-0.092352;0.092352;-0.092352;1.000000
445615.59260185;5696592.20019920;473.04444983;0.427451;0.4;0.345098;26214.000000;1.000000;1.000000;1.000000;1.000000;-0.096775;0.096775;-0.096775;1.000000
445615.55760201;5696592.33709915;473.01415016;0.392157;0.368627;0.313725;24158.000000;1.000000;1.000000;1.000000;1.000000;-0.131966;0.131966;-0.131966;1.000000
445615.56350143;5696592.22669991;473.01774981;0.490196;0.470588;0.423529;30840.000000;1.000000;1.000000;1.000000;1.000000;-0.128684;0.128684;-0.128684;1.000000
445615.68290146;5696592.23329933;473.08145000;0.0745098;0.0627451;0.054902;4112.000000;1.000000;1.000000;1.000000;1.000000;-0.032711;0.032711;-0.032711;1.000000
445615.56680115;5696592.15339859;473.05434992;0.188235;0.14902;0.105882;10023.000000;1.000000;1.000000;1.000000;1.000000;-0.122576;0.122576;-0.122576;1.000000
445615.86100204;5696592.38729866;473.07975008;0.501961;0.517647;0.470588;33153.000000;1.000000;1.000000;1.000000;1.000000;-0.057299;0.057299;-0.057299;1.000000
445615.59700211;5696592.28429993;473.01765015;0.254902;0.254902;0.2;16191.000000;1.000000;1.000000;1.000000;1.000000;0.103061;-0.103061;0.103061;1.000000
445615.61170204;5696592.02489861;473.08745005;0.431373;0.439216;0.282353;27499.000000;1.000000;1.000000;1.000000;1.000000;-0.077675;0.077675;-0.077675;1.000000
445615.64750107;5696592.02559860;473.12634995;0.321569;0.34902;0.207843;21074.000000;1.000000;1.000000;1.000000;1.000000;-0.041876;0.041876;-0.041876;1.000000
445615.77940186;5696592.40229996;473.05524971;0.435294;0.431373;0.407843;28013.000000;1.000000;1.000000;1.000000;1.000000;-0.072396;0.072396;-0.072396;1.000000
445615.82010086;5696592.33019836;473.09114983;0.635294;0.631373;0.615686;41120.000000;1.000000;1.000000;1.000000;1.000000;-0.000198;0.000198;-0.000198;1.000000
445615.69630249;5696592.19629868;473.12354996;0.133333;0.121569;0.0941176;7967.000000;1.000000;1.000000;1.000000;1.000000;0.006926;-0.006926;0.006926;1.000000
445615.64910133;5696592.12339981;473.13924982;0.145098;0.117647;0.0980392;7967.000000;1.000000;1.000000;1.000000;1.000000;-0.040276;0.040276;-0.040276;1.000000
445615.79060181;5696592.38449867;473.08115007;0.172549;0.168627;0.164706;11051.000000;1.000000;1.000000;1.000000;1.000000;-0.054499;0.054499;-0.054499;1.000000
445615.75000198;5696592.38410004;473.04675009;0.196078;0.192157;0.172549;12336.000000;1.000000;1.000000;1.000000;1.000000;-0.054133;0.054133;-0.054133;1.000000
445615.69840248;5696592.11139877;473.16225006;0.482353;0.462745;0.388235;30069.000000;1.000000;1.000000;1.000000;1.000000;0.009026;-0.009026;0.009026;1.000000
445615.58650215;5696592.10659988;473.08964970;0.603922;0.580392;0.52549;38036.000000;1.000000;1.000000;1.000000;1.000000;-0.102875;0.102875;-0.102875;1.000000
445615.66270073;5696592.10759933;473.16755011;0.243137;0.207843;0.145098;13621.000000;1.000000;1.000000;1.000000;1.000000;-0.026676;0.026676;-0.026676;1.000000
445615.62680061;5696592.17939957;473.12724974;0.0588235;0.054902;0.0392157;3341.000000;1.000000;1.000000;1.000000;1.000000;-0.062576;0.062576;-0.062576;1.000000
445615.65280159;5696592.21779831;473.20104982;0.294118;0.262745;0.231373;17476.000000;1.000000;1.000000;1.000000;1.000000;-0.039226;0.039226;-0.039226;1.000000
445615.65340240;5696592.21709831;473.24064972;0.494118;0.462745;0.435294;30583.000000;1.000000;1.000000;1.000000;1.000000;-0.038145;0.038145;-0.038145;1.000000
445615.58970078;5696592.13900002;473.08785011;0.0980392;0.0627451;0.0470588;4626.000000;1.000000;1.000000;1.000000;1.000000;-0.099676;0.099676;-0.099676;1.000000
445615.62820061;5696592.11089905;473.16144993;0.490196;0.454902;0.384314;29812.000000;1.000000;1.000000;1.000000;1.000000;-0.061176;0.061176;-0.061176;1.000000
445615.68960197;5696592.12899979;473.13415005;0.180392;0.164706;0.14902;10794.000000;1.000000;1.000000;1.000000;1.000000;0.000225;-0.000225;0.000225;1.000000
445615.65140160;5696592.12850006;473.09744980;0.27451;0.266667;0.223529;17219.000000;1.000000;1.000000;1.000000;1.000000;-0.037975;0.037975;-0.037975;1.000000
445615.85430153;5696592.36909874;473.08855011;0.780392;0.788235;0.752941;51143.000000;1.000000;1.000000;1.000000;1.000000;-0.039099;0.039099;-0.039099;1.000000
445615.56300171;5696592.24549873;473.01564981;0.733333;0.72549;0.682353;47288.000000;1.000000;1.000000;1.000000;1.000000;-0.134343;0.134343;-0.134343;1.000000
445615.70800217;5696592.28979881;473.05534985;0.105882;0.0980392;0.0941176;6425.000000;1.000000;1.000000;1.000000;1.000000;0.040201;-0.040201;0.040201;1.000000
445615.82350166;5696592.29249962;473.09324982;0.490196;0.494118;0.462745;31868.000000;1.000000;1.000000;1.000000;1.000000;0.037500;-0.037500;0.037500;1.000000
445615.80240067;5696591.88209923;473.01984980;0.384314;0.372549;0.301961;23901.000000;1.000000;1.000000;1.000000;1.000000;0.052099;-0.052099;0.052099;1.000000
445615.90020187;5696592.38889893;473.04425003;0.305882;0.313725;0.25098;19789.000000;1.000000;1.000000;1.000000;1.000000;-0.058899;0.058899;-0.058899;1.000000
445615.79190071;5696592.34929855;473.08314993;0.258824;0.239216;0.239216;15934.000000;1.000000;1.000000;1.000000;1.000000;-0.019299;0.019299;-0.019299;1.000000
445615.62190063;5696592.14419945;473.16384985;0.0431373;0.0235294;0.00784314;1799.000000;1.000000;1.000000;1.000000;1.000000;-0.067476;0.067476;-0.067476;1.000000
445615.61470230;5696592.37599953;473.02185013;0.698039;0.698039;0.666667;45489.000000;1.000000;1.000000;1.000000;1.000000;-0.087705;0.087705;-0.087705;1.000000
445615.76320084;5696592.38270004;473.06124975;0.105882;0.0980392;0.109804;6425.000000;1.000000;1.000000;1.000000;1.000000;-0.052700;0.052700;-0.052700;1.000000
445615.64970215;5696592.37739952;473.02584984;0.184314;0.188235;0.164706;12079.000000;1.000000;1.000000;1.000000;1.000000;-0.061813;0.061813;-0.061813;1.000000
445615.68740089;5696592.38089951;473.02754976;0.12549;0.129412;0.113725;8224.000000;1.000000;1.000000;1.000000;1.000000;-0.050938;0.050938;-0.050938;1.000000
445615.87370117;5696592.38879974;473.06164982;0.392157;0.4;0.341176;25443.000000;1.000000;1.000000;1.000000;1.000000;-0.058885;0.058885;-0.058885;1.000000
445615.72820099;5696592.30649956;473.05874969;0.137255;0.129412;0.141176;8481.000000;1.000000;1.000000;1.000000;1.000000;0.023500;-0.023500;0.023500;1.000000
445615.87600143;5696592.31379898;473.06085016;0.580392;0.572549;0.537255;37265.000000;1.000000;1.000000;1.000000;1.000000;0.016225;-0.016225;0.016225;1.000000
445615.87720116;5696592.27629860;473.06054976;0.262745;0.25098;0.207843;16191.000000;1.000000;1.000000;1.000000;1.000000;0.053701;-0.053701;0.053701;1.000000
445615.81010063;5696592.12549980;473.09754993;0.501961;0.443137;0.376471;29555.000000;1.000000;1.000000;1.000000;1.000000;0.120724;-0.120724;0.120724;1.000000
445615.74020203;5696592.04719933;473.13775017;0.168627;0.192157;0.0666667;11051.000000;1.000000;1.000000;1.000000;1.000000;0.050825;-0.050825;0.050825;1.000000
445615.51620110;5696591.99969872;473.02694990;0.419608;0.396078;0.321569;25700.000000;1.000000;1.000000;1.000000;1.000000;-0.173176;0.173176;-0.173176;1.000000
445615.81290062;5696592.01359947;473.06145002;0.313725;0.286275;0.180392;18504.000000;1.000000;1.000000;1.000000;1.000000;0.123524;-0.123524;0.123524;1.000000
445615.66690071;5696591.92899902;473.06544973;0.729412;0.729412;0.611765;46774.000000;1.000000;1.000000;1.000000;1.000000;-0.022476;0.022476;-0.022476;1.000000
445615.74440201;5696591.93349846;473.06675007;0.729412;0.729412;0.639216;47031.000000;1.000000;1.000000;1.000000;1.000000;0.055025;-0.055025;0.055025;1.000000
445615.77570160;5696591.94009979;473.05894997;0.635294;0.635294;0.545098;40863.000000;1.000000;1.000000;1.000000;1.000000;0.086325;-0.086325;0.086325;1.000000
445615.63260086;5696591.89320000;473.02395012;0.556863;0.529412;0.45098;34438.000000;1.000000;1.000000;1.000000;1.000000;-0.056776;0.056776;-0.056776;1.000000
445615.52130135;5696591.88769920;472.99084999;0.745098;0.729412;0.658824;47545.000000;1.000000;1.000000;1.000000;1.000000;-0.168076;0.168076;-0.168076;1.000000
445615.52290161;5696591.85249908;472.98584988;0.309804;0.286275;0.247059;18761.000000;1.000000;1.000000;1.000000;1.000000;-0.166475;0.166475;-0.166475;1.000000
445615.56030090;5696591.85369881;472.98994972;0.615686;0.588235;0.529412;38550.000000;1.000000;1.000000;1.000000;1.000000;-0.129076;0.129076;-0.129076;1.000000
445615.70870216;5696591.85799988;473.02694990;0.843137;0.839216;0.792157;54484.000000;1.000000;1.000000;1.000000;1.000000;0.019325;-0.019325;0.019325;1.000000
445615.71260078;5696591.82269867;473.02204992;0.870588;0.866667;0.835294;56540.000000;1.000000;1.000000;1.000000;1.000000;-0.007301;0.007301;-0.007301;1.000000
445615.60540207;5696592.14189919;473.10715010;0.164706;0.121569;0.0862745;8481.000000;1.000000;1.000000;1.000000;1.000000;-0.083975;0.083975;-0.083975;1.000000
445615.64590080;5696592.21989830;473.25664999;0.2;0.180392;0.172549;12079.000000;1.000000;1.000000;1.000000;1.000000;-0.046044;0.046044;-0.046044;1.000000
445615.76070221;5696592.06409843;473.13194992;0.286275;0.278431;0.172549;17476.000000;1.000000;1.000000;1.000000;1.000000;0.071325;-0.071325;0.071325;1.000000
445615.60200127;5696592.10719879;473.11124994;0.580392;0.568627;0.470588;36751.000000;1.000000;1.000000;1.000000;1.000000;-0.087376;0.087376;-0.087376;1.000000
445615.64300163;5696591.99589928;473.11184980;0.458824;0.482353;0.313725;29812.000000;1.000000;1.000000;1.000000;1.000000;-0.046375;0.046375;-0.046375;1.000000
445615.63790138;5696592.18269928;473.14645006;0.0627451;0.0509804;0.0431373;3341.000000;1.000000;1.000000;1.000000;1.000000;-0.051476;0.051476;-0.051476;1.000000
445615.64050110;5696592.25359924;473.07984974;0.0352941;0.0156863;0.0156863;1285.000000;1.000000;1.000000;1.000000;1.000000;-0.071650;0.071650;-0.071650;1.000000
445615.63780220;5696592.14939888;473.18554976;0.129412;0.113725;0.0901961;7453.000000;1.000000;1.000000;1.000000;1.000000;-0.051575;0.051575;-0.051575;1.000000
445615.64040192;5696592.24969872;473.17994978;0.0980392;0.0745098;0.0745098;5140.000000;1.000000;1.000000;1.000000;1.000000;-0.067527;0.067527;-0.067527;1.000000
445615.60360153;5696592.18009956;473.07025005;0.427451;0.392157;0.337255;25957.000000;1.000000;1.000000;1.000000;1.000000;-0.085775;0.085775;-0.085775;1.000000
445615.65420158;5696591.96229942;473.10494997;0.588235;0.611765;0.435294;38293.000000;1.000000;1.000000;1.000000;1.000000;-0.035175;0.035175;-0.035175;1.000000
445615.67100151;5696592.18129929;473.18744995;0.0470588;0.0509804;0.0156863;2827.000000;1.000000;1.000000;1.000000;1.000000;-0.018375;0.018375;-0.018375;1.000000
445615.67720230;5696592.18429955;473.10624983;0.101961;0.0941176;0.0705882;5911.000000;1.000000;1.000000;1.000000;1.000000;-0.012175;0.012175;-0.012175;1.000000
445615.67600067;5696592.14929970;473.11275007;0.14902;0.145098;0.117647;9252.000000;1.000000;1.000000;1.000000;1.000000;-0.013376;0.013376;-0.013376;1.000000
445615.65660103;5696592.18179901;473.09135010;0.160784;0.152941;0.121569;9766.000000;1.000000;1.000000;1.000000;1.000000;-0.032776;0.032776;-0.032776;1.000000
445615.67610176;5696592.21959885;473.10195019;0.0666667;0.054902;0.0509804;3598.000000;1.000000;1.000000;1.000000;1.000000;-0.022331;0.022331;-0.022331;1.000000
445615.63820084;5696592.14349945;473.11105015;0.2;0.172549;0.133333;11565.000000;1.000000;1.000000;1.000000;1.000000;-0.051176;0.051176;-0.051176;1.000000
445615.64840134;5696592.11049850;473.07385017;0.0941176;0.0784314;0.0705882;5140.000000;1.000000;1.000000;1.000000;1.000000;-0.040976;0.040976;-0.040976;1.000000
445615.64490135;5696592.11259850;473.10395004;0.0313725;0.027451;0.0156863;1542.000000;1.000000;1.000000;1.000000;1.000000;-0.044476;0.044476;-0.044476;1.000000
445615.76200111;5696592.34539993;473.06314995;0.0862745;0.0823529;0.0745098;5397.000000;1.000000;1.000000;1.000000;1.000000;-0.015400;0.015400;-0.015400;1.000000
445615.87490089;5696592.35129936;473.06124975;0.372549;0.372549;0.32549;23901.000000;1.000000;1.000000;1.000000;1.000000;-0.021391;0.021391;-0.021391;1.000000
445615.80890091;5696592.08819969;473.09714987;0.419608;0.364706;0.298039;24415.000000;1.000000;1.000000;1.000000;1.000000;0.119524;-0.119524;0.119524;1.000000
445615.74190147;5696591.97289856;473.09964993;0.686275;0.729412;0.552941;45489.000000;1.000000;1.000000;1.000000;1.000000;0.052525;-0.052525;0.052525;1.000000
445615.71610077;5696592.34529884;473.04244997;0.188235;0.196078;0.184314;12593.000000;1.000000;1.000000;1.000000;1.000000;-0.015710;0.015710;-0.015710;1.000000
445615.74770172;5696591.82409866;473.02364971;0.709804;0.705882;0.67451;46003.000000;1.000000;1.000000;1.000000;1.000000;-0.005901;0.005901;-0.005901;1.000000
445615.90370186;5696592.35119827;473.04395010;0.490196;0.490196;0.431373;31611.000000;1.000000;1.000000;1.000000;1.000000;-0.021198;0.021198;-0.021198;1.000000
445615.90620239;5696592.27859886;473.04554989;0.25098;0.239216;0.203922;15420.000000;1.000000;1.000000;1.000000;1.000000;0.051401;-0.051401;0.051401;1.000000
445615.72800072;5696592.32539948;473.04964973;0.227451;0.227451;0.231373;14906.000000;1.000000;1.000000;1.000000;1.000000;0.004601;-0.004601;0.004601;1.000000
445615.77370079;5696592.37449844;473.07095005;0.0862745;0.0823529;0.0862745;5397.000000;1.000000;1.000000;1.000000;1.000000;-0.044498;0.044498;-0.044498;1.000000
445615.69790085;5696592.37049873;473.03254988;0.145098;0.152941;0.133333;9509.000000;1.000000;1.000000;1.000000;1.000000;-0.040499;0.040499;-0.040499;1.000000
445615.69680222;5696592.33549889;473.03674986;0.313725;0.321569;0.313725;20817.000000;1.000000;1.000000;1.000000;1.000000;-0.005499;0.005499;-0.005499;1.000000
445615.74350174;5696592.18689926;473.14654972;0.603922;0.607843;0.505882;38807.000000;1.000000;1.000000;1.000000;1.000000;0.054125;-0.054125;0.054125;1.000000
445615.81350143;5696592.19039925;473.10554983;0.470588;0.443137;0.364706;28784.000000;1.000000;1.000000;1.000000;1.000000;0.124125;-0.124125;0.124125;1.000000
445615.67080124;5696592.10949905;473.14704992;0.298039;0.305882;0.219608;19018.000000;1.000000;1.000000;1.000000;1.000000;-0.018576;0.018576;-0.018576;1.000000
445615.71070107;5696592.03579910;473.14564993;0.309804;0.368627;0.211765;21845.000000;1.000000;1.000000;1.000000;1.000000;0.021324;-0.021324;0.021324;1.000000
445615.56160172;5696591.99059875;473.03814985;0.376471;0.341176;0.223529;22102.000000;1.000000;1.000000;1.000000;1.000000;-0.127775;0.127775;-0.127775;1.000000
445615.78480156;5696591.96709831;473.06895020;0.572549;0.580392;0.47451;37008.000000;1.000000;1.000000;1.000000;1.000000;0.095425;-0.095425;0.095425;1.000000
445615.68030174;5696591.92539986;473.07074978;0.701961;0.709804;0.596078;45489.000000;1.000000;1.000000;1.000000;1.000000;-0.009075;0.009075;-0.009075;1.000000
445615.49330147;5696591.91589935;472.99695017;0.72549;0.709804;0.647059;46260.000000;1.000000;1.000000;1.000000;1.000000;-0.196075;0.196075;-0.196075;1.000000
445615.79190071;5696591.92719849;473.03615000;0.564706;0.556863;0.454902;35723.000000;1.000000;1.000000;1.000000;1.000000;0.097198;-0.097198;0.097198;1.000000
445615.68090065;5696591.88849838;473.03305008;0.603922;0.576471;0.498039;37522.000000;1.000000;1.000000;1.000000;1.000000;-0.008476;0.008476;-0.008476;1.000000
445615.75560196;5696591.88859947;473.03644993;0.815686;0.811765;0.760784;52685.000000;1.000000;1.000000;1.000000;1.000000;0.058718;0.058718;-0.058718;1.000000
445615.57100113;5696591.84559830;472.99494984;0.647059;0.623529;0.576471;40863.000000;1.000000;1.000000;1.000000;1.000000;-0.118376;0.118376;-0.118376;1.000000
445615.71940239;5696591.84989937;473.03195002;0.901961;0.901961;0.870588;58853.000000;1.000000;1.000000;1.000000;1.000000;0.019899;-0.019899;0.019899;1.000000
445615.87920197;5696592.29489906;473.05614998;0.364706;0.364706;0.32549;23387.000000;1.000000;1.000000;1.000000;1.000000;0.035101;-0.035101;0.035101;1.000000
445615.88150223;5696592.21989830;473.05534985;0.705882;0.690196;0.607843;44718.000000;1.000000;1.000000;1.000000;1.000000;0.110102;-0.110102;0.110102;1.000000
445615.72640236;5696592.15799912;473.15474989;0.12549;0.12549;0.0666667;7710.000000;1.000000;1.000000;1.000000;1.000000;0.037025;-0.037025;0.037025;1.000000
445615.51860245;5696592.38229950;473.04094984;0.627451;0.603922;0.52549;39321.000000;1.000000;1.000000;1.000000;1.000000;-0.178603;0.178603;-0.178603;1.000000
445615.65360077;5696591.94399841;473.07905008;0.615686;0.627451;0.47451;39578.000000;1.000000;1.000000;1.000000;1.000000;-0.035776;0.035776;-0.035776;1.000000
445615.76410110;5696591.90869911;473.04404976;0.854902;0.85098;0.792157;55255.000000;1.000000;1.000000;1.000000;1.000000;0.074724;-0.074724;0.074724;1.000000
445615.77250107;5696592.33719833;473.07284977;0.117647;0.105882;0.101961;6939.000000;1.000000;1.000000;1.000000;1.000000;-0.007198;0.007198;-0.007198;1.000000
445615.74370201;5696592.11219986;473.14335014;0.227451;0.211765;0.133333;13621.000000;1.000000;1.000000;1.000000;1.000000;0.054325;-0.054325;0.054325;1.000000
445615.67690094;5696591.95769890;473.11054995;0.756863;0.788235;0.611765;49601.000000;1.000000;1.000000;1.000000;1.000000;-0.012476;0.012476;-0.012476;1.000000
445615.85240181;5696592.26669891;473.07324984;0.537255;0.537255;0.490196;34695.000000;1.000000;1.000000;1.000000;1.000000;0.063301;-0.063301;0.063301;1.000000
445615.85150154;5696592.22949989;473.06815006;0.47451;0.462745;0.4;30069.000000;1.000000;1.000000;1.000000;1.000000;0.100500;-0.100500;0.100500;1.000000
445615.67430122;5696592.07179840;473.14674999;0.141176;0.176471;0.0745098;10023.000000;1.000000;1.000000;1.000000;1.000000;-0.015076;0.015076;-0.015076;1.000000
445615.70940216;5696592.07319839;473.14834978;0.27451;0.301961;0.196078;18247.000000;1.000000;1.000000;1.000000;1.000000;0.020025;-0.020025;0.020025;1.000000
445615.74720200;5696592.07449921;473.14304974;0.682353;0.690196;0.572549;44204.000000;1.000000;1.000000;1.000000;1.000000;0.057825;-0.057825;0.057825;1.000000
445615.78620155;5696592.07609947;473.10995008;0.647059;0.615686;0.517647;40092.000000;1.000000;1.000000;1.000000;1.000000;0.096825;-0.096825;0.096825;1.000000
445615.67320068;5696592.03459938;473.14624979;0.168627;0.211765;0.101961;12079.000000;1.000000;1.000000;1.000000;1.000000;-0.016176;0.016176;-0.016176;1.000000
445615.59650238;5696592.03119858;473.07515003;0.498039;0.490196;0.333333;31097.000000;1.000000;1.000000;1.000000;1.000000;-0.092875;0.092875;-0.092875;1.000000
445615.78310211;5696592.04139908;473.10704996;0.196078;0.180392;0.0941176;11308.000000;1.000000;1.000000;1.000000;1.000000;0.093725;-0.093725;0.093725;1.000000
445615.71560104;5696591.92679985;473.07004978;0.529412;0.529412;0.431373;33924.000000;1.000000;1.000000;1.000000;1.000000;0.026224;-0.026224;0.026224;1.000000
445615.79860123;5696592.16129883;473.11614992;0.478431;0.447059;0.345098;29041.000000;1.000000;1.000000;1.000000;1.000000;0.109224;-0.109224;0.109224;1.000000
445615.62450226;5696592.01429947;473.09254982;0.447059;0.447059;0.258824;27756.000000;1.000000;1.000000;1.000000;1.000000;-0.064875;0.064875;-0.064875;1.000000
445615.63310249;5696591.97849854;473.08785011;0.737255;0.74902;0.584314;47545.000000;1.000000;1.000000;1.000000;1.000000;-0.056274;0.056274;-0.056274;1.000000
445615.66640099;5696591.97939880;473.12895014;0.662745;0.698039;0.505882;43433.000000;1.000000;1.000000;1.000000;1.000000;-0.022976;0.022976;-0.022976;1.000000
445615.66160210;5696592.33179863;473.03044989;0.321569;0.32549;0.294118;20817.000000;1.000000;1.000000;1.000000;1.000000;-0.027833;0.027833;-0.027833;1.000000
445615.63480194;5696592.03169830;473.10955002;0.282353;0.305882;0.137255;18247.000000;1.000000;1.000000;1.000000;1.000000;-0.054575;0.054575;-0.054575;1.000000
445615.71280106;5696591.96379860;473.10524990;0.470588;0.52549;0.317647;31611.000000;1.000000;1.000000;1.000000;1.000000;0.023424;-0.023424;0.023424;1.000000
445615.52550133;5696592.02899940;473.03704979;0.694118;0.666667;0.592157;43690.000000;1.000000;1.000000;1.000000;1.000000;-0.163876;0.163876;-0.163876;1.000000
445615.60270126;5696591.99559982;473.07035019;0.239216;0.223529;0.0941176;13878.000000;1.000000;1.000000;1.000000;1.000000;-0.086676;0.086676;-0.086676;1.000000
445615.62240227;5696592.12539871;473.16594984;0.313725;0.278431;0.231373;18504.000000;1.000000;1.000000;1.000000;1.000000;-0.066975;0.066975;-0.066975;1.000000
445615.65870102;5696592.13079842;473.20265009;0.372549;0.337255;0.27451;22102.000000;1.000000;1.000000;1.000000;1.000000;-0.030676;0.030676;-0.030676;1.000000
445615.62310226;5696592.16559990;473.12925007;0.0588235;0.0313725;0.0196078;2313.000000;1.000000;1.000000;1.000000;1.000000;-0.066275;0.066275;-0.066275;1.000000
445615.70190247;5696592.22409828;473.10785009;0.0705882;0.0627451;0.0509804;4112.000000;1.000000;1.000000;1.000000;1.000000;0.025609;-0.025609;0.025609;1.000000
445615.73960121;5696592.22759827;473.10965015;0.129412;0.12549;0.101961;7967.000000;1.000000;1.000000;1.000000;1.000000;0.056463;-0.056463;0.056463;1.000000
445615.81440170;5696592.22539909;473.10594990;0.572549;0.54902;0.501961;35980.000000;1.000000;1.000000;1.000000;1.000000;0.104601;-0.104601;0.104601;1.000000
445615.51230247;5696592.36199959;473.03574993;0.588235;0.572549;0.470588;37008.000000;1.000000;1.000000;1.000000;1.000000;-0.179943;0.179943;-0.179943;1.000000
445615.74020203;5696592.14989861;473.14365007;0.329412;0.333333;0.25098;21074.000000;1.000000;1.000000;1.000000;1.000000;0.050825;-0.050825;0.050825;1.000000
445615.66270073;5696592.29659851;473.03704979;0.156863;0.164706;0.141176;10280.000000;1.000000;1.000000;1.000000;1.000000;0.042747;-0.042747;0.042747;1.000000
445615.70220192;5696592.25969894;473.07105019;0.101961;0.0901961;0.0823529;5911.000000;1.000000;1.000000;1.000000;1.000000;0.060052;-0.060052;0.060052;1.000000
445615.65840157;5696592.20379837;473.31064989;0.47451;0.466667;0.443137;30326.000000;1.000000;1.000000;1.000000;1.000000;-0.030975;0.030975;-0.030975;1.000000
445615.64080246;5696591.99609955;473.10934975;0.54902;0.564706;0.396078;35466.000000;1.000000;1.000000;1.000000;1.000000;-0.048574;0.048574;-0.048574;1.000000
445615.58840187;5696592.12519844;473.08754971;0.396078;0.34902;0.309804;23387.000000;1.000000;1.000000;1.000000;1.000000;-0.100975;0.100975;-0.100975;1.000000
445615.66110237;5696592.20539864;473.19894983;0.619608;0.576471;0.54902;38293.000000;1.000000;1.000000;1.000000;1.000000;-0.028333;0.028333;-0.028333;1.000000
445615.58040245;5696592.28119858;473.01685001;0.211765;0.207843;0.156863;13107.000000;1.000000;1.000000;1.000000;1.000000;0.119403;-0.119403;0.119403;1.000000
445615.59250076;5696592.21909912;473.03294994;0.156863;0.137255;0.0941176;8995.000000;1.000000;1.000000;1.000000;1.000000;-0.098690;0.098690;-0.098690;1.000000
445615.55600174;5696592.17809875;473.03314974;0.113725;0.0823529;0.0509804;5654.000000;1.000000;1.000000;1.000000;1.000000;-0.133375;0.133375;-0.133375;1.000000
445615.77920158;5696592.22619827;473.10904982;0.145098;0.137255;0.109804;8738.000000;1.000000;1.000000;1.000000;1.000000;0.093083;-0.093083;0.093083;1.000000
445615.77420242;5696592.10499962;473.12605001;0.552941;0.529412;0.435294;34438.000000;1.000000;1.000000;1.000000;1.000000;0.084826;-0.084826;0.084826;1.000000
445615.65100105;5696592.34219940;473.02775003;0.286275;0.294118;0.278431;18761.000000;1.000000;1.000000;1.000000;1.000000;-0.040268;0.040268;-0.040268;1.000000
445615.62450226;5696592.04219826;473.09985020;0.458824;0.47451;0.309804;29555.000000;1.000000;1.000000;1.000000;1.000000;-0.064875;0.064875;-0.064875;1.000000
445615.78050240;5696592.01129921;473.10185005;0.545098;0.564706;0.423529;35466.000000;1.000000;1.000000;1.000000;1.000000;0.091125;-0.091125;0.091125;1.000000
445615.83250244;5696591.81889923;472.99944975;0.286275;0.270588;0.219608;17476.000000;1.000000;1.000000;1.000000;1.000000;-0.021255;0.021255;-0.021255;1.000000
445615.62890060;5696592.25779922;473.03275015;0.27451;0.270588;0.243137;17476.000000;1.000000;1.000000;1.000000;1.000000;-0.083471;0.083471;-0.083471;1.000000
445615.66360100;5696592.22349937;473.07354977;0.129412;0.12549;0.105882;7967.000000;1.000000;1.000000;1.000000;1.000000;-0.034165;0.034165;-0.034165;1.000000
445615.80280121;5696592.27329834;473.09905006;0.47451;0.458824;0.443137;30069.000000;1.000000;1.000000;1.000000;1.000000;0.056702;-0.056702;0.056702;1.000000
445615.81690224;5696591.93909843;473.02584984;0.392157;0.388235;0.266667;24415.000000;1.000000;1.000000;1.000000;1.000000;0.109128;-0.109128;0.109128;1.000000
445615.63990219;5696592.16429909;473.11595013;0.427451;0.396078;0.34902;26214.000000;1.000000;1.000000;1.000000;1.000000;-0.049475;0.049475;-0.049475;1.000000
445615.77910240;5696591.99059875;473.08995010;0.737255;0.756863;0.615686;48059.000000;1.000000;1.000000;1.000000;1.000000;0.089725;-0.089725;0.089725;1.000000
445615.81390198;5696591.99499901;473.05195000;0.458824;0.447059;0.337255;28527.000000;1.000000;1.000000;1.000000;1.000000;0.124525;-0.124525;0.124525;1.000000
445615.52100189;5696591.94569977;473.01485016;0.713725;0.705882;0.635294;45746.000000;1.000000;1.000000;1.000000;1.000000;-0.168375;0.168375;-0.168375;1.000000
445615.62930115;5696591.94669922;473.05464985;0.682353;0.678431;0.54902;43433.000000;1.000000;1.000000;1.000000;1.000000;-0.060076;0.060076;-0.060076;1.000000
445615.78410156;5696591.95329865;473.05714991;0.560784;0.564706;0.439216;35980.000000;1.000000;1.000000;1.000000;1.000000;0.094725;-0.094725;0.094725;1.000000
445615.67080124;5696591.91489990;473.05154993;0.607843;0.592157;0.490196;38293.000000;1.000000;1.000000;1.000000;1.000000;-0.018576;0.018576;-0.018576;1.000000
445615.55980118;5696591.90939911;473.01384975;0.729412;0.709804;0.635294;46260.000000;1.000000;1.000000;1.000000;1.000000;-0.129576;0.129576;-0.129576;1.000000
445615.74550064;5696591.91489990;473.05494978;0.85098;0.85098;0.788235;55255.000000;1.000000;1.000000;1.000000;1.000000;0.056124;-0.056124;0.056124;1.000000
445615.60270126;5696592.02349861;473.07765009;0.454902;0.447059;0.294118;28270.000000;1.000000;1.000000;1.000000;1.000000;-0.086676;0.086676;-0.086676;1.000000
445615.64080246;5696592.02409943;473.11665012;0.27451;0.298039;0.137255;17733.000000;1.000000;1.000000;1.000000;1.000000;-0.048574;0.048574;-0.048574;1.000000
445615.79600151;5696591.80819901;473.00934984;0.654902;0.647059;0.603922;42148.000000;1.000000;1.000000;1.000000;1.000000;-0.021801;0.021801;-0.021801;1.000000
445615.85550125;5696591.92169960;473.01335003;0.447059;0.45098;0.356863;28784.000000;1.000000;1.000000;1.000000;1.000000;0.094158;-0.094158;0.094158;1.000000
445615.59850128;5696591.87309845;473.01284983;0.666667;0.643137;0.572549;41891.000000;1.000000;1.000000;1.000000;1.000000;-0.090876;0.090876;-0.090876;1.000000
445615.63580139;5696591.87430008;473.01685001;0.701961;0.678431;0.607843;44204.000000;1.000000;1.000000;1.000000;1.000000;-0.053576;0.053576;-0.053576;1.000000
445615.62850197;5696591.97669991;473.08295013;0.776471;0.784314;0.627451;50115.000000;1.000000;1.000000;1.000000;1.000000;-0.060875;0.060875;-0.060875;1.000000
445615.58500107;5696591.96739967;473.04124977;0.666667;0.658824;0.529412;42148.000000;1.000000;1.000000;1.000000;1.000000;-0.104376;0.104376;-0.104376;1.000000
445615.66130074;5696592.10669907;473.09065010;0.0862745;0.0745098;0.054902;4883.000000;1.000000;1.000000;1.000000;1.000000;-0.028076;0.028076;-0.028076;1.000000
445615.77310188;5696591.97259911;473.08244993;0.631373;0.654902;0.517647;41377.000000;1.000000;1.000000;1.000000;1.000000;0.083725;-0.083725;0.083725;1.000000
445615.51260193;5696591.92559822;473.00495007;0.67451;0.662745;0.6;43176.000000;1.000000;1.000000;1.000000;1.000000;-0.176775;0.176775;-0.176775;1.000000
445615.69650085;5696592.12979897;473.19035007;0.305882;0.262745;0.203922;17476.000000;1.000000;1.000000;1.000000;1.000000;0.007124;-0.007124;0.007124;1.000000
445615.66140182;5696592.12839897;473.18874981;0.294118;0.254902;0.192157;16962.000000;1.000000;1.000000;1.000000;1.000000;-0.027975;0.027975;-0.027975;1.000000
445615.61920174;5696592.16849907;473.11744978;0.0980392;0.0745098;0.0431373;4883.000000;1.000000;1.000000;1.000000;1.000000;-0.070175;0.070175;-0.070175;1.000000
445615.62380226;5696592.16049965;473.15485003;0.0352941;0.0156863;0.00784314;1285.000000;1.000000;1.000000;1.000000;1.000000;-0.065575;0.065575;-0.065575;1.000000
445615.69700249;5696591.93299873;473.08085014;0.627451;0.635294;0.505882;40349.000000;1.000000;1.000000;1.000000;1.000000;0.007626;-0.007626;0.007626;1.000000
445615.62360199;5696591.93109901;473.04264977;0.623529;0.615686;0.517647;39578.000000;1.000000;1.000000;1.000000;1.000000;-0.065775;0.065775;-0.065775;1.000000
445615.55150230;5696591.89169891;473.00395014;0.796078;0.768627;0.705882;50372.000000;1.000000;1.000000;1.000000;1.000000;-0.137875;0.137875;-0.137875;1.000000
445615.69980247;5696591.89599998;473.04334976;0.466667;0.454902;0.380392;29298.000000;1.000000;1.000000;1.000000;1.000000;0.010426;-0.010426;0.010426;1.000000
445615.67410095;5696592.25089844;473.05334999;0.0862745;0.0745098;0.0588235;4883.000000;1.000000;1.000000;1.000000;1.000000;-0.052493;0.052493;-0.052493;1.000000
445615.52670105;5696592.20679863;473.01585009;0.270588;0.258824;0.192157;16705.000000;1.000000;1.000000;1.000000;1.000000;-0.162821;0.162821;-0.162821;1.000000
445615.71220215;5696592.24909981;473.08764984;0.164706;0.156863;0.14902;10280.000000;1.000000;1.000000;1.000000;1.000000;0.052913;-0.052913;0.052913;1.000000
445615.74740227;5696592.25280006;473.09165003;0.0745098;0.0627451;0.0509804;4112.000000;1.000000;1.000000;1.000000;1.000000;0.077282;-0.077282;0.077282;1.000000
445615.56830223;5696592.16729935;473.04995014;0.14902;0.129412;0.0941176;8481.000000;1.000000;1.000000;1.000000;1.000000;-0.121075;0.121075;-0.121075;1.000000
445615.65800102;5696592.14669998;473.09095003;0.133333;0.137255;0.109804;8481.000000;1.000000;1.000000;1.000000;1.000000;-0.031376;0.031376;-0.031376;1.000000
445615.62080200;5696592.14779861;473.08934977;0.329412;0.270588;0.184314;18247.000000;1.000000;1.000000;1.000000;1.000000;-0.068575;0.068575;-0.068575;1.000000
445615.66230209;5696592.14979942;473.16104986;0.105882;0.0431373;0.027451;3855.000000;1.000000;1.000000;1.000000;1.000000;-0.027075;0.027075;-0.027075;1.000000
445615.61700066;5696592.30109985;473.02344992;0.317647;0.317647;0.282353;20560.000000;1.000000;1.000000;1.000000;1.000000;0.077933;-0.077933;0.077933;1.000000
445615.65550240;5696592.23139961;473.06395008;0.109804;0.0980392;0.0862745;6425.000000;1.000000;1.000000;1.000000;1.000000;-0.045592;0.045592;-0.045592;1.000000
