//X;Y;Z;Rf;Gf;Bf;Intensity;Return Number;Number Of Returns;Scan Direction Flag;Point Source ID;C2M signed distances[-][<0.8];C2M signed distances[<0.4];C2M signed distances[-][<0.2];Stump90
300
445641.52230270;5696595.37739952;471.47524979;0.807843;0.843137;0.756863;53713.000000;1.000000;1.000000;1.000000;1.000000;0.095517;-0.095517;0.095517;1.000000
445641.39230164;5696595.16819962;471.43424990;0.686275;0.701961;0.647059;45232.000000;1.000000;1.000000;1.000000;1.000000;-0.047075;0.047075;-0.047075;1.000000
445641.40920074;5696595.35329826;471.44424965;0.741176;0.760784;0.713725;49087.000000;1.000000;1.000000;1.000000;1.000000;0.023323;-0.023323;0.023323;1.000000
445641.54290207;5696594.87399872;471.42595007;0.392157;0.392157;0.341176;25186.000000;1.000000;1.000000;1.000000;1.000000;0.044000;-0.044000;0.044000;1.000000
445641.44410141;5696595.40819939;471.45804979;0.419608;0.447059;0.384314;28270.000000;1.000000;1.000000;1.000000;1.000000;0.078342;-0.078342;0.078342;1.000000
445641.41360291;5696595.29699905;471.43674995;0.227451;0.282353;0.137255;16191.000000;1.000000;1.000000;1.000000;1.000000;-0.033324;0.033324;-0.033324;1.000000
445641.94040115;5696594.91909988;471.41414978;0.313725;0.309804;0.247059;19789.000000;1.000000;1.000000;1.000000;1.000000;-0.089100;0.089100;-0.089100;1.000000
445641.91410263;5696594.90999992;471.40815022;0.203922;0.2;0.113725;12336.000000;1.000000;1.000000;1.000000;1.000000;-0.080000;0.080000;-0.080000;1.000000
445641.46910294;5696594.83639915;471.42915012;0.388235;0.372549;0.34902;24415.000000;1.000000;1.000000;1.000000;1.000000;0.006399;-0.006399;0.006399;1.000000
445641.89540298;5696594.90939911;471.40504982;0.470588;0.486275;0.388235;30840.000000;1.000000;1.000000;1.000000;1.000000;-0.079399;0.079399;-0.079399;1.000000
445641.50660141;5696594.83759888;471.42854979;0.333333;0.321569;0.290196;21074.000000;1.000000;1.000000;1.000000;1.000000;0.008948;-0.008948;0.008948;1.000000
445641.41500290;5696595.26179894;471.43634989;0.443137;0.52549;0.333333;31354.000000;1.000000;1.000000;1.000000;1.000000;-0.068277;0.068277;-0.068277;1.000000
445641.54409988;5696594.83879860;471.43024971;0.345098;0.345098;0.309804;22359.000000;1.000000;1.000000;1.000000;1.000000;0.008799;-0.008799;0.008799;1.000000
445641.56290253;5696595.26680000;471.43384983;0.52549;0.552941;0.462745;34952.000000;1.000000;1.000000;1.000000;1.000000;-0.138755;0.138755;-0.138755;1.000000
445641.58170135;5696594.83999832;471.42724993;0.376471;0.372549;0.32549;23901.000000;1.000000;1.000000;1.000000;1.000000;0.010412;-0.010412;0.010412;1.000000
445641.57420166;5696595.29809959;471.45564987;0.435294;0.482353;0.372549;29812.000000;1.000000;1.000000;1.000000;1.000000;-0.138547;0.138547;-0.138547;1.000000
445641.46430023;5696595.21509941;471.43804981;0.494118;0.521569;0.435294;32896.000000;1.000000;1.000000;1.000000;1.000000;0.052960;-0.052960;0.052960;1.000000
445641.42580231;5696595.17899902;471.44054987;0.360784;0.380392;0.298039;23901.000000;1.000000;1.000000;1.000000;1.000000;-0.017214;0.017214;-0.017214;1.000000
445641.89019974;5696594.83489998;471.42014982;0.52549;0.541176;0.407843;34181.000000;1.000000;1.000000;1.000000;1.000000;-0.004900;0.004900;-0.004900;1.000000
445641.44590195;5696595.39889915;471.45104982;0.411765;0.435294;0.360784;27499.000000;1.000000;1.000000;1.000000;1.000000;0.069207;-0.069207;0.069207;1.000000
445641.65530212;5696594.84289940;471.40735008;0.478431;0.498039;0.396078;31354.000000;1.000000;1.000000;1.000000;1.000000;0.012899;-0.012899;0.012899;1.000000
445641.89949997;5696594.80839928;471.41795017;0.270588;0.290196;0.133333;17476.000000;1.000000;1.000000;1.000000;1.000000;-0.021601;0.021601;-0.021601;1.000000
445641.41010101;5696595.36489876;471.44675018;0.501961;0.517647;0.470588;33153.000000;1.000000;1.000000;1.000000;1.000000;0.034955;-0.034955;0.034955;1.000000
445641.49230011;5696595.40359886;471.46724989;0.796078;0.823529;0.756863;52942.000000;1.000000;1.000000;1.000000;1.000000;0.090651;-0.090651;0.090651;1.000000
445641.41140182;5696594.89779861;471.43424990;0.247059;0.239216;0.211765;15420.000000;1.000000;1.000000;1.000000;1.000000;-0.027975;0.027975;-0.027975;1.000000
445641.59940155;5696595.30699928;471.48484995;0.803922;0.839216;0.756863;53456.000000;1.000000;1.000000;1.000000;1.000000;-0.161669;0.161669;-0.161669;1.000000
445641.51950272;5696595.41299828;471.45454981;0.435294;0.458824;0.380392;29041.000000;1.000000;1.000000;1.000000;1.000000;0.115364;-0.115364;0.115364;1.000000
445641.50880249;5696595.42329987;471.45424988;0.415686;0.443137;0.372549;27756.000000;1.000000;1.000000;1.000000;1.000000;0.116296;-0.116296;0.116296;1.000000
445641.37250336;5696594.93400009;471.43984987;0.392157;0.388235;0.360784;25186.000000;1.000000;1.000000;1.000000;1.000000;-0.066874;0.066874;-0.066874;1.000000
445641.41830261;5696595.14929970;471.43984987;0.635294;0.639216;0.580392;41377.000000;1.000000;1.000000;1.000000;1.000000;-0.021074;0.021074;-0.021074;1.000000
445641.38440140;5696595.11039932;471.43785002;0.537255;0.54902;0.466667;34952.000000;1.000000;1.000000;1.000000;1.000000;-0.054976;0.054976;-0.054976;1.000000
445641.42180069;5696595.11159904;471.43954994;0.160784;0.172549;0.0980392;10537.000000;1.000000;1.000000;1.000000;1.000000;-0.017576;0.017576;-0.017576;1.000000
445641.47670181;5696595.34719856;471.43785002;0.415686;0.462745;0.329412;28270.000000;1.000000;1.000000;1.000000;1.000000;0.041097;-0.041097;0.041097;1.000000
445641.49490173;5696595.11659821;471.43594982;0.372549;0.392157;0.305882;24672.000000;1.000000;1.000000;1.000000;1.000000;0.055525;-0.055525;0.055525;1.000000
445641.42100342;5696595.32659920;471.43744995;0.521569;0.545098;0.462745;34438.000000;1.000000;1.000000;1.000000;1.000000;-0.003401;0.003401;-0.003401;1.000000
445641.76300247;5696594.94949921;471.41814997;0.423529;0.439216;0.34902;27756.000000;1.000000;1.000000;1.000000;1.000000;0.119499;-0.119499;0.119499;1.000000
445641.53830154;5696595.18249901;471.44105007;0.454902;0.447059;0.392157;29041.000000;1.000000;1.000000;1.000000;1.000000;0.099921;-0.099921;0.099921;1.000000
445641.80200012;5696594.91549881;471.41715004;0.321569;0.345098;0.231373;21331.000000;1.000000;1.000000;1.000000;1.000000;0.085499;-0.085499;0.085499;1.000000
445641.76410110;5696594.91199883;471.42005016;0.196078;0.235294;0.101961;13621.000000;1.000000;1.000000;1.000000;1.000000;0.081999;-0.081999;0.081999;1.000000
445641.40810211;5696595.40209969;471.46575024;0.380392;0.411765;0.364706;25957.000000;1.000000;1.000000;1.000000;1.000000;0.072100;-0.072100;0.072100;1.000000
445641.45010193;5696595.30999954;471.43155005;0.388235;0.439216;0.317647;26728.000000;1.000000;1.000000;1.000000;1.000000;-0.022695;0.022695;-0.022695;1.000000
445641.55760010;5696595.32749947;471.46925022;0.541176;0.592157;0.466667;36751.000000;1.000000;1.000000;1.000000;1.000000;-0.118250;0.118250;-0.118250;1.000000
445641.77250107;5696594.95099838;471.41855003;0.25098;0.262745;0.176471;16191.000000;1.000000;1.000000;1.000000;1.000000;0.120998;-0.120998;0.120998;1.000000
445641.45070084;5696595.29129990;471.43134977;0.282353;0.329412;0.2;19532.000000;1.000000;1.000000;1.000000;1.000000;-0.040323;0.040323;-0.040323;1.000000
445641.48830231;5696595.29249962;471.42845013;0.427451;0.478431;0.372549;29555.000000;1.000000;1.000000;1.000000;1.000000;-0.061644;0.061644;-0.061644;1.000000
445641.52589996;5696595.29369934;471.42784979;0.4;0.458824;0.337255;28013.000000;1.000000;1.000000;1.000000;1.000000;-0.093830;0.093830;-0.093830;1.000000
445641.45190247;5696595.25379951;471.43094971;0.52549;0.576471;0.447059;35723.000000;1.000000;1.000000;1.000000;1.000000;-0.077223;0.077223;-0.077223;1.000000
445641.48950012;5696595.25499924;471.42805006;0.372549;0.392157;0.298039;24415.000000;1.000000;1.000000;1.000000;1.000000;-0.090208;0.090208;-0.090208;1.000000
445641.89870270;5696594.82479866;471.41814997;0.423529;0.443137;0.301961;27499.000000;1.000000;1.000000;1.000000;1.000000;-0.005201;0.005201;-0.005201;1.000000
445641.54190262;5696595.32909973;471.45694973;0.341176;0.403922;0.243137;23901.000000;1.000000;1.000000;1.000000;1.000000;-0.102530;0.102530;-0.102530;1.000000
445641.77359970;5696594.91339882;471.42054989;0.2;0.231373;0.109804;13621.000000;1.000000;1.000000;1.000000;1.000000;0.083399;-0.083399;0.083399;1.000000
445641.83180054;5696594.90819939;471.41375019;0.129412;0.145098;0.054902;8481.000000;1.000000;1.000000;1.000000;1.000000;-0.078199;0.078199;-0.078199;1.000000
445641.72030075;5696594.86479958;471.41284992;0.403922;0.419608;0.321569;26471.000000;1.000000;1.000000;1.000000;1.000000;0.034800;-0.034800;0.034800;1.000000
445641.42980011;5696595.37249954;471.44074966;0.635294;0.647059;0.592157;41634.000000;1.000000;1.000000;1.000000;1.000000;0.042500;-0.042500;0.042500;1.000000
445641.42390259;5696595.02979858;471.43174984;0.494118;0.529412;0.368627;32639.000000;1.000000;1.000000;1.000000;1.000000;-0.015474;0.015474;-0.015474;1.000000
445641.39000137;5696594.99089821;471.42974998;0.403922;0.403922;0.34902;25957.000000;1.000000;1.000000;1.000000;1.000000;-0.049376;0.049376;-0.049376;1.000000
445641.68290146;5696594.86359985;471.40885021;0.301961;0.313725;0.211765;19532.000000;1.000000;1.000000;1.000000;1.000000;0.033600;-0.033600;0.033600;1.000000
445641.45590027;5696595.15279968;471.44395020;0.494118;0.501961;0.443137;32125.000000;1.000000;1.000000;1.000000;1.000000;0.016523;-0.016523;0.016523;1.000000
445641.80480011;5696594.84969910;471.42584993;0.317647;0.364706;0.192157;21588.000000;1.000000;1.000000;1.000000;1.000000;0.019699;-0.019699;0.019699;1.000000
445641.46850021;5696594.88089951;471.42964985;0.458824;0.458824;0.415686;29555.000000;1.000000;1.000000;1.000000;1.000000;0.029123;-0.029123;0.029123;1.000000
445641.57110031;5696595.32379921;471.47444965;0.678431;0.721569;0.615686;45489.000000;1.000000;1.000000;1.000000;1.000000;-0.131869;0.131869;-0.131869;1.000000
445641.79050262;5696594.94229897;471.41694977;0.12549;0.137255;0.0588235;7967.000000;1.000000;1.000000;1.000000;1.000000;0.112333;-0.112333;0.112333;1.000000
445641.46290024;5696595.02149971;471.43104984;0.34902;0.396078;0.215686;23644.000000;1.000000;1.000000;1.000000;1.000000;0.023523;-0.023523;0.023523;1.000000
445641.42010315;5696595.31740006;471.43724968;0.372549;0.403922;0.309804;24929.000000;1.000000;1.000000;1.000000;1.000000;-0.012600;0.012600;-0.012600;1.000000
445641.53120239;5696594.94979866;471.42625000;0.352941;0.388235;0.254902;23644.000000;1.000000;1.000000;1.000000;1.000000;0.091825;-0.091825;0.091825;1.000000
445641.71899994;5696594.90219887;471.41554977;0.478431;0.501961;0.392157;31611.000000;1.000000;1.000000;1.000000;1.000000;0.072199;-0.072199;0.072199;1.000000
445641.80450256;5696594.82169922;471.42544987;0.329412;0.380392;0.211765;22616.000000;1.000000;1.000000;1.000000;1.000000;-0.008301;0.008301;-0.008301;1.000000
445641.56870087;5696594.95099838;471.42794992;0.705882;0.709804;0.639216;45746.000000;1.000000;1.000000;1.000000;1.000000;0.121076;-0.121076;0.121076;1.000000
445641.75750168;5696594.86589821;471.41925003;0.623529;0.654902;0.521569;41120.000000;1.000000;1.000000;1.000000;1.000000;0.036179;-0.036179;0.036179;1.000000
445641.50040253;5696595.02269943;471.43044998;0.341176;0.396078;0.211765;23387.000000;1.000000;1.000000;1.000000;1.000000;0.061026;-0.061026;0.061026;1.000000
445641.59819992;5696594.88769920;471.41925003;0.537255;0.521569;0.458824;33924.000000;1.000000;1.000000;1.000000;1.000000;0.057699;-0.057699;0.057699;1.000000
445641.82230194;5696594.85989960;471.42205002;0.219608;0.254902;0.0901961;14649.000000;1.000000;1.000000;1.000000;1.000000;-0.029900;0.029900;-0.029900;1.000000
445641.45430191;5696595.42119987;471.46565010;0.713725;0.733333;0.678431;47031.000000;1.000000;1.000000;1.000000;1.000000;0.092413;-0.092413;0.092413;1.000000
445641.53059967;5696595.38839920;471.46875002;0.47451;0.517647;0.419608;32125.000000;1.000000;1.000000;1.000000;1.000000;0.108315;-0.108315;0.108315;1.000000
445641.45720108;5696594.90989883;471.42945005;0.317647;0.313725;0.270588;20303.000000;1.000000;1.000000;1.000000;1.000000;0.017824;-0.017824;0.017824;1.000000
445641.68410309;5696594.82619865;471.40844967;0.447059;0.466667;0.368627;29298.000000;1.000000;1.000000;1.000000;1.000000;-0.003801;0.003801;-0.003801;1.000000
445641.62330063;5696594.95319946;471.41414978;0.552941;0.552941;0.470588;35466.000000;1.000000;1.000000;1.000000;1.000000;0.123199;0.123199;-0.123199;1.000000
445641.42360123;5696595.27969940;471.43704988;0.360784;0.435294;0.262745;25700.000000;1.000000;1.000000;1.000000;1.000000;-0.050301;0.050301;-0.050301;1.000000
445641.55980118;5696595.11049850;471.43645002;0.552941;0.560784;0.501961;35980.000000;1.000000;1.000000;1.000000;1.000000;0.120424;-0.120424;0.120424;1.000000
445641.59010132;5696594.87669952;471.42105009;0.329412;0.317647;0.258824;20560.000000;1.000000;1.000000;1.000000;1.000000;0.046700;-0.046700;0.046700;1.000000
445641.56330307;5696595.07279976;471.43615009;0.533333;0.54902;0.482353;34952.000000;1.000000;1.000000;1.000000;1.000000;0.123926;-0.123926;0.123926;1.000000
445641.70220001;5696594.84549912;471.40945007;0.54902;0.560784;0.466667;35723.000000;1.000000;1.000000;1.000000;1.000000;0.015499;-0.015499;0.015499;1.000000
445641.40750320;5696595.39289864;471.46094992;0.32549;0.352941;0.313725;22102.000000;1.000000;1.000000;1.000000;1.000000;0.062899;-0.062899;0.062899;1.000000
445641.68880280;5696594.92839821;471.41214993;0.501961;0.521569;0.423529;32896.000000;1.000000;1.000000;1.000000;1.000000;0.098398;-0.098398;0.098398;1.000000
445641.48470123;5696595.39499863;471.46444990;0.682353;0.713725;0.635294;45489.000000;1.000000;1.000000;1.000000;1.000000;0.079241;-0.079241;0.079241;1.000000
445641.38440140;5696594.88620003;471.43984987;0.423529;0.419608;0.396078;27242.000000;1.000000;1.000000;1.000000;1.000000;-0.054976;0.054976;-0.054976;1.000000
445641.69220169;5696594.89069946;471.41424992;0.529412;0.545098;0.439216;34438.000000;1.000000;1.000000;1.000000;1.000000;0.060765;-0.060765;0.060765;1.000000
445641.38250168;5696594.91439827;471.43774988;0.45098;0.447059;0.419608;29041.000000;1.000000;1.000000;1.000000;1.000000;-0.056875;0.056875;-0.056875;1.000000
445641.52070053;5696595.35659988;471.46794989;0.517647;0.564706;0.439216;34952.000000;1.000000;1.000000;1.000000;1.000000;0.085563;-0.085563;0.085563;1.000000
445641.48030289;5696595.03159912;471.42964985;0.313725;0.360784;0.184314;21331.000000;1.000000;1.000000;1.000000;1.000000;0.040926;-0.040926;0.040926;1.000000
445641.89010056;5696595.01229866;471.42695000;0.470588;0.501961;0.431373;31611.000000;1.000000;1.000000;1.000000;1.000000;-0.182299;0.182299;-0.182299;1.000000
445641.65610321;5696594.85209854;471.40984966;0.517647;0.533333;0.431373;33667.000000;1.000000;1.000000;1.000000;1.000000;0.022099;-0.022099;0.022099;1.000000
445641.47070129;5696595.03009995;471.43155005;0.372549;0.415686;0.243137;24929.000000;1.000000;1.000000;1.000000;1.000000;0.031324;-0.031324;0.031324;1.000000
445641.49620255;5696595.33129890;471.43855001;0.419608;0.47451;0.333333;28784.000000;1.000000;1.000000;1.000000;1.000000;0.056840;-0.056840;0.056840;1.000000
445641.38380249;5696594.87920006;471.43975021;0.407843;0.4;0.380392;26214.000000;1.000000;1.000000;1.000000;1.000000;0.049685;-0.049685;0.049685;1.000000
445641.38730057;5696594.84149940;471.43944981;0.27451;0.270588;0.247059;17476.000000;1.000000;1.000000;1.000000;1.000000;0.015521;-0.015521;0.015521;1.000000
445641.49610336;5696595.07909973;471.43555023;0.282353;0.317647;0.2;19275.000000;1.000000;1.000000;1.000000;1.000000;0.056726;-0.056726;0.056726;1.000000
445641.42340286;5696595.07650002;471.43695023;0.501961;0.52549;0.407843;32896.000000;1.000000;1.000000;1.000000;1.000000;-0.015974;0.015974;-0.015974;1.000000
445641.60430344;5696594.95249947;471.41795017;0.611765;0.6;0.529412;38807.000000;1.000000;1.000000;1.000000;1.000000;0.122499;-0.122499;0.122499;1.000000
445641.85300262;5696594.81489952;471.42525007;0.360784;0.4;0.239216;24158.000000;1.000000;1.000000;1.000000;1.000000;-0.015100;0.015100;-0.015100;1.000000
445641.61880310;5696594.83209999;471.41725018;0.615686;0.619608;0.560784;40092.000000;1.000000;1.000000;1.000000;1.000000;0.002100;-0.002100;0.002100;1.000000
445641.55960281;5696595.32259949;471.46694996;0.556863;0.6;0.482353;37522.000000;1.000000;1.000000;1.000000;1.000000;-0.120453;0.120453;-0.120453;1.000000
445641.65730103;5696594.81460007;471.40945007;0.203922;0.211765;0.137255;13107.000000;1.000000;1.000000;1.000000;1.000000;-0.015400;0.015400;-0.015400;1.000000
445641.41950043;5696594.90639885;471.43004992;0.235294;0.231373;0.196078;14906.000000;1.000000;1.000000;1.000000;1.000000;-0.019876;0.019876;-0.019876;1.000000
445641.49490173;5696594.91119965;471.42654993;0.458824;0.470588;0.407843;30069.000000;1.000000;1.000000;1.000000;1.000000;0.055525;-0.055525;0.055525;1.000000
445641.50180252;5696595.40509995;471.46764996;0.705882;0.733333;0.662745;46774.000000;1.000000;1.000000;1.000000;1.000000;0.097657;-0.097657;0.097657;1.000000
445641.61910065;5696595.25869949;471.46654989;0.337255;0.384314;0.278431;23387.000000;1.000000;1.000000;1.000000;1.000000;-0.193350;0.193350;-0.193350;1.000000
445641.53240021;5696594.91239937;471.42595007;0.65098;0.662745;0.588235;42662.000000;1.000000;1.000000;1.000000;1.000000;0.082399;-0.082399;0.082399;1.000000
445641.46669968;5696595.33879860;471.43494989;0.313725;0.372549;0.243137;22102.000000;1.000000;1.000000;1.000000;1.000000;0.028705;-0.028705;0.028705;1.000000
445641.38590057;5696594.85099991;471.43715002;0.211765;0.203922;0.176471;13107.000000;1.000000;1.000000;1.000000;1.000000;0.022857;-0.022857;0.022857;1.000000
445641.84850128;5696594.88789948;471.41664984;0.141176;0.164706;0.054902;9509.000000;1.000000;1.000000;1.000000;1.000000;0.057899;-0.057899;0.057899;1.000000
445641.48999985;5696595.23629959;471.43015005;0.588235;0.596078;0.517647;38293.000000;1.000000;1.000000;1.000000;1.000000;0.084841;-0.084841;0.084841;1.000000
445641.76770218;5696594.87659843;471.42215015;0.380392;0.415686;0.262745;25443.000000;1.000000;1.000000;1.000000;1.000000;0.046598;-0.046598;0.046598;1.000000
445641.43500336;5696595.22489937;471.43454983;0.376471;0.423529;0.286275;25700.000000;1.000000;1.000000;1.000000;1.000000;-0.056766;0.056766;-0.056766;1.000000
445641.38300140;5696595.11989983;471.43794968;0.435294;0.447059;0.364706;28270.000000;1.000000;1.000000;1.000000;1.000000;-0.056376;0.056376;-0.056376;1.000000
445641.54520233;5696595.22869881;471.43494989;0.337255;0.341176;0.270588;21588.000000;1.000000;1.000000;1.000000;1.000000;0.121843;-0.121843;0.121843;1.000000
445641.63090332;5696595.00859840;471.41054966;0.4;0.403922;0.313725;25700.000000;1.000000;1.000000;1.000000;1.000000;0.178644;0.178644;-0.178644;1.000000
445641.59140213;5696594.84149940;471.42304995;0.447059;0.443137;0.388235;28527.000000;1.000000;1.000000;1.000000;1.000000;0.011499;-0.011499;0.011499;1.000000
445641.91190155;5696594.93809898;471.41074993;0.34902;0.360784;0.301961;22873.000000;1.000000;1.000000;1.000000;1.000000;-0.108099;0.108099;-0.108099;1.000000
445641.87800034;5696594.89929970;471.40875008;0.25098;0.27451;0.160784;16705.000000;1.000000;1.000000;1.000000;1.000000;-0.069300;0.069300;-0.069300;1.000000
445641.95050247;5696594.90179832;471.41204979;0.243137;0.239216;0.160784;15163.000000;1.000000;1.000000;1.000000;1.000000;-0.071798;0.071798;-0.071798;1.000000
445641.35760315;5696594.84899910;471.43825008;0.27451;0.262745;0.239216;17219.000000;1.000000;1.000000;1.000000;1.000000;-0.018999;0.018999;-0.018999;1.000000
445641.42040070;5696595.12109955;471.43965008;0.215686;0.227451;0.152941;14135.000000;1.000000;1.000000;1.000000;1.000000;-0.018976;0.018976;-0.018976;1.000000
445641.47459991;5696595.15109833;471.44014980;0.32549;0.329412;0.270588;21074.000000;1.000000;1.000000;1.000000;1.000000;0.035223;-0.035223;0.035223;1.000000
445641.51250275;5696595.15459831;471.43724968;0.372549;0.372549;0.313725;23901.000000;1.000000;1.000000;1.000000;1.000000;0.073126;-0.073126;0.073126;1.000000
445641.54980286;5696595.15579994;471.44124987;0.505882;0.505882;0.458824;32639.000000;1.000000;1.000000;1.000000;1.000000;0.110426;-0.110426;0.110426;1.000000
445641.93270309;5696594.91049965;471.41134979;0.188235;0.180392;0.101961;11308.000000;1.000000;1.000000;1.000000;1.000000;-0.080500;0.080500;-0.080500;1.000000
445641.48320206;5696595.40449913;471.46444990;0.811765;0.839216;0.776471;53970.000000;1.000000;1.000000;1.000000;1.000000;0.086434;-0.086434;0.086434;1.000000
445641.49340256;5696595.12379845;471.43365004;0.447059;0.462745;0.380392;29298.000000;1.000000;1.000000;1.000000;1.000000;0.054026;-0.054026;0.054026;1.000000
445641.44070251;5696595.11219986;471.43814995;0.219608;0.235294;0.168627;14392.000000;1.000000;1.000000;1.000000;1.000000;0.001326;-0.001326;0.001326;1.000000
445641.48090179;5696595.01289948;471.42945005;0.423529;0.478431;0.290196;28784.000000;1.000000;1.000000;1.000000;1.000000;0.041525;-0.041525;0.041525;1.000000
445641.55109985;5696595.11829956;471.43855001;0.576471;0.580392;0.521569;37522.000000;1.000000;1.000000;1.000000;1.000000;0.111723;-0.111723;0.111723;1.000000
445641.40460022;5696595.07589920;471.43604996;0.462745;0.490196;0.372549;30583.000000;1.000000;1.000000;1.000000;1.000000;-0.034777;0.034777;-0.034777;1.000000
445641.44210251;5696595.07709892;471.43774988;0.301961;0.329412;0.219608;20046.000000;1.000000;1.000000;1.000000;1.000000;0.002726;-0.002726;0.002726;1.000000
445641.55230148;5696595.08079918;471.43814995;0.580392;0.592157;0.521569;38036.000000;1.000000;1.000000;1.000000;1.000000;0.112925;-0.112925;0.112925;1.000000
445641.55350311;5696595.04339989;471.43774988;0.505882;0.529412;0.45098;33667.000000;1.000000;1.000000;1.000000;1.000000;0.114126;-0.114126;0.114126;1.000000
445641.48750122;5696595.28319939;471.42824986;0.509804;0.552941;0.45098;34438.000000;1.000000;1.000000;1.000000;1.000000;-0.067129;0.067129;-0.067129;1.000000
445641.37059982;5696594.96219833;471.43785002;0.305882;0.301961;0.27451;19532.000000;1.000000;1.000000;1.000000;1.000000;-0.063464;0.063464;-0.063464;1.000000
445641.52510269;5696595.28449829;471.42534973;0.45098;0.501961;0.384314;30840.000000;1.000000;1.000000;1.000000;1.000000;-0.097053;0.097053;-0.097053;1.000000
445641.52760132;5696595.23739822;471.42954971;0.435294;0.443137;0.368627;28270.000000;1.000000;1.000000;1.000000;1.000000;0.112122;-0.112122;0.112122;1.000000
445641.37400253;5696594.92449959;471.43984987;0.517647;0.509804;0.482353;33153.000000;1.000000;1.000000;1.000000;1.000000;-0.065374;0.065374;-0.065374;1.000000
445641.50380142;5696595.16239937;471.43925001;0.254902;0.258824;0.2;16448.000000;1.000000;1.000000;1.000000;1.000000;0.064425;-0.064425;0.064425;1.000000
445641.54120071;5696595.16359909;471.44094994;0.498039;0.494118;0.443137;31868.000000;1.000000;1.000000;1.000000;1.000000;0.101824;-0.101824;0.101824;1.000000
445641.54200180;5696595.33359917;471.46624996;0.403922;0.45098;0.317647;27499.000000;1.000000;1.000000;1.000000;1.000000;0.102688;-0.102688;0.102688;1.000000
445641.93710144;5696594.79069908;471.42875006;0.192157;0.207843;0.101961;12336.000000;1.000000;1.000000;1.000000;1.000000;0.039301;-0.039301;0.039301;1.000000
445641.81720169;5696595.00739868;471.42595007;0.494118;0.517647;0.435294;32639.000000;1.000000;1.000000;1.000000;1.000000;-0.177399;0.177399;-0.177399;1.000000
445641.59380157;5696595.29129990;471.47275021;0.262745;0.321569;0.207843;19018.000000;1.000000;1.000000;1.000000;1.000000;-0.159200;0.159200;-0.159200;1.000000
445641.73940094;5696594.84659966;471.41814997;0.490196;0.517647;0.407843;32382.000000;1.000000;1.000000;1.000000;1.000000;0.016600;-0.016600;0.016600;1.000000
445641.41040237;5696594.93529900;471.43234970;0.407843;0.411765;0.372549;26471.000000;1.000000;1.000000;1.000000;1.000000;-0.028975;0.028975;-0.028975;1.000000
445641.51270111;5696595.39699944;471.46805002;0.721569;0.74902;0.67451;47802.000000;1.000000;1.000000;1.000000;1.000000;0.099325;-0.099325;0.099325;1.000000
445641.59810074;5696595.28399857;471.46595003;0.298039;0.364706;0.239216;21588.000000;1.000000;1.000000;1.000000;1.000000;-0.165256;0.165256;-0.165256;1.000000
445641.77670105;5696594.84769829;471.42215015;0.509804;0.545098;0.392157;33924.000000;1.000000;1.000000;1.000000;1.000000;0.017698;-0.017698;0.017698;1.000000
445641.37630280;5696594.84959991;471.43905022;0.231373;0.219608;0.196078;14392.000000;1.000000;1.000000;1.000000;1.000000;0.019600;-0.019600;0.019600;1.000000
445641.41400345;5696594.85079964;471.43615009;0.219608;0.211765;0.192157;13878.000000;1.000000;1.000000;1.000000;1.000000;-0.025373;0.025373;-0.025373;1.000000
445641.45840271;5696594.87249954;471.42904999;0.513725;0.509804;0.470588;33153.000000;1.000000;1.000000;1.000000;1.000000;0.019026;-0.019026;0.019026;1.000000
445641.41580017;5696595.24309929;471.43155005;0.411765;0.470588;0.278431;28270.000000;1.000000;1.000000;1.000000;1.000000;-0.078479;0.078479;-0.078479;1.000000
445641.45330246;5696595.24429901;471.43094971;0.466667;0.513725;0.376471;31611.000000;1.000000;1.000000;1.000000;1.000000;0.077329;-0.077329;0.077329;1.000000
445641.48670013;5696595.35779961;471.44544985;0.470588;0.517647;0.384314;31868.000000;1.000000;1.000000;1.000000;1.000000;0.054884;-0.054884;0.054884;1.000000
445641.50030334;5696594.99469955;471.42775013;0.356863;0.415686;0.239216;24672.000000;1.000000;1.000000;1.000000;1.000000;0.060926;-0.060926;0.060926;1.000000
445641.82670029;5696594.98099907;471.41904976;0.431373;0.458824;0.356863;28784.000000;1.000000;1.000000;1.000000;1.000000;-0.150999;0.150999;-0.150999;1.000000
445641.90170105;5696594.98329933;471.42014982;0.764706;0.784314;0.72549;50372.000000;1.000000;1.000000;1.000000;1.000000;0.153299;0.153299;-0.153299;1.000000
445641.93820007;5696594.94730003;471.41674997;0.823529;0.827451;0.796078;53713.000000;1.000000;1.000000;1.000000;1.000000;-0.117300;0.117300;-0.117300;1.000000
445641.87010010;5696594.86949928;471.41734983;0.219608;0.25098;0.101961;14649.000000;1.000000;1.000000;1.000000;1.000000;0.039499;-0.039499;0.039499;1.000000
445641.83380325;5696594.83309944;471.42224981;0.329412;0.364706;0.207843;21845.000000;1.000000;1.000000;1.000000;1.000000;-0.003099;0.003099;-0.003099;1.000000
445641.61100204;5696594.82349976;471.41674997;0.580392;0.580392;0.533333;37522.000000;1.000000;1.000000;1.000000;1.000000;-0.006500;0.006500;-0.006500;1.000000
445641.91880234;5696594.83699997;471.41214993;0.447059;0.458824;0.329412;28784.000000;1.000000;1.000000;1.000000;1.000000;-0.007000;0.007000;-0.007000;1.000000
445641.45120056;5696595.04819878;471.43545010;0.517647;0.560784;0.411765;34695.000000;1.000000;1.000000;1.000000;1.000000;0.011824;-0.011824;0.011824;1.000000
445641.35850342;5696594.85819824;471.43835022;0.305882;0.290196;0.270588;19018.000000;1.000000;1.000000;1.000000;1.000000;-0.028198;0.028198;-0.028198;1.000000
445641.41640289;5696595.41989906;471.47324993;0.580392;0.611765;0.560784;39064.000000;1.000000;1.000000;1.000000;1.000000;0.089917;-0.089917;0.089917;1.000000
445641.60560043;5696594.91509827;471.41524984;0.647059;0.639216;0.576471;41377.000000;1.000000;1.000000;1.000000;1.000000;0.085098;-0.085098;0.085098;1.000000
445641.44780167;5696595.36379822;471.43905022;0.862745;0.886275;0.811765;57054.000000;1.000000;1.000000;1.000000;1.000000;0.034832;-0.034832;0.034832;1.000000
445641.90979965;5696594.99429901;471.41834976;0.568627;0.592157;0.529412;37779.000000;1.000000;1.000000;1.000000;1.000000;-0.164299;0.164299;-0.164299;1.000000
445641.49590118;5696594.87360008;471.43074991;0.545098;0.537255;0.501961;34952.000000;1.000000;1.000000;1.000000;1.000000;0.043600;-0.043600;0.043600;1.000000
445641.44930084;5696595.32869919;471.43645002;0.341176;0.392157;0.278431;23644.000000;1.000000;1.000000;1.000000;1.000000;-0.010009;0.010009;-0.010009;1.000000
445641.53350266;5696594.87489899;471.42784979;0.278431;0.278431;0.235294;17733.000000;1.000000;1.000000;1.000000;1.000000;0.044901;-0.044901;0.044901;1.000000
445641.51080139;5696595.18969925;471.44455006;0.662745;0.654902;0.603922;42662.000000;1.000000;1.000000;1.000000;1.000000;0.074505;-0.074505;0.074505;1.000000
445641.74060257;5696594.80909927;471.41774990;0.313725;0.337255;0.239216;20817.000000;1.000000;1.000000;1.000000;1.000000;-0.020901;0.020901;-0.020901;1.000000
445641.93420227;5696594.87309845;471.40395023;0.45098;0.454902;0.32549;28784.000000;1.000000;1.000000;1.000000;1.000000;-0.043098;0.043098;-0.043098;1.000000
445641.77810104;5696594.81259926;471.42184975;0.313725;0.345098;0.2;20817.000000;1.000000;1.000000;1.000000;1.000000;-0.017401;0.017401;-0.017401;1.000000
445641.67100342;5696594.93709953;471.41144993;0.466667;0.47451;0.384314;30069.000000;1.000000;1.000000;1.000000;1.000000;0.107100;-0.107100;0.107100;1.000000
445641.70610245;5696594.93849953;471.41305019;0.513725;0.52549;0.439216;33410.000000;1.000000;1.000000;1.000000;1.000000;0.108500;-0.108500;0.108500;1.000000
445641.67210205;5696594.89959915;471.41344978;0.584314;0.596078;0.505882;38036.000000;1.000000;1.000000;1.000000;1.000000;0.069599;-0.069599;0.069599;1.000000
445641.70960052;5696594.90079887;471.41284992;0.568627;0.592157;0.486275;37522.000000;1.000000;1.000000;1.000000;1.000000;0.070799;-0.070799;0.070799;1.000000
445641.57349976;5696595.28659828;471.44614985;0.447059;0.490196;0.380392;30326.000000;1.000000;1.000000;1.000000;1.000000;-0.140970;0.140970;-0.140970;1.000000
445641.57120331;5696594.87609871;471.42485001;0.364706;0.356863;0.305882;23130.000000;1.000000;1.000000;1.000000;1.000000;0.046601;-0.046601;0.046601;1.000000
445641.71100052;5696594.86569984;471.41244986;0.478431;0.494118;0.4;31354.000000;1.000000;1.000000;1.000000;1.000000;0.035700;-0.035700;0.035700;1.000000
445641.63940247;5696594.82329948;471.40875008;0.533333;0.537255;0.466667;34438.000000;1.000000;1.000000;1.000000;1.000000;-0.006701;0.006701;-0.006701;1.000000
445641.71230133;5696594.82819946;471.40975000;0.45098;0.466667;0.372549;29555.000000;1.000000;1.000000;1.000000;1.000000;-0.001801;0.001801;-0.001801;1.000000
445641.84160049;5696594.84169968;471.42275002;0.301961;0.337255;0.180392;20046.000000;1.000000;1.000000;1.000000;1.000000;0.011700;-0.011700;0.011700;1.000000
445641.49710281;5696595.08839996;471.43335011;0.309804;0.337255;0.227451;20560.000000;1.000000;1.000000;1.000000;1.000000;0.057726;-0.057726;0.057726;1.000000
445641.63590057;5696595.32989891;471.44955017;0.380392;0.439216;0.294118;26471.000000;1.000000;1.000000;1.000000;1.000000;-0.196524;0.196524;-0.196524;1.000000
445641.45360001;5696595.40969856;471.45855000;0.505882;0.533333;0.47451;33924.000000;1.000000;1.000000;1.000000;1.000000;0.080958;-0.080958;0.080958;1.000000
445641.91909988;5696594.99339874;471.41874983;0.45098;0.466667;0.403922;29812.000000;1.000000;1.000000;1.000000;1.000000;-0.163399;0.163399;-0.163399;1.000000
445641.92410095;5696594.89269836;471.40844967;0.25098;0.25098;0.133333;15420.000000;1.000000;1.000000;1.000000;1.000000;-0.062698;0.062698;-0.062698;1.000000
445641.85099991;5696594.84309967;471.42315008;0.419608;0.45098;0.301961;27756.000000;1.000000;1.000000;1.000000;1.000000;0.013100;-0.013100;0.013100;1.000000
445641.52610214;5696595.02269943;471.43155005;0.266667;0.301961;0.156863;17990.000000;1.000000;1.000000;1.000000;1.000000;0.086725;-0.086725;0.086725;1.000000
445641.87610062;5696594.92759903;471.40434982;0.192157;0.215686;0.12549;12850.000000;1.000000;1.000000;1.000000;1.000000;0.097599;-0.097599;0.097599;1.000000
445641.93029984;5696594.98549850;471.41214993;0.345098;0.352941;0.313725;22616.000000;1.000000;1.000000;1.000000;1.000000;-0.155499;0.155499;-0.155499;1.000000
445641.85659988;5696594.94569977;471.40835001;0.415686;0.454902;0.34902;28270.000000;1.000000;1.000000;1.000000;1.000000;0.115700;-0.115700;0.115700;1.000000
445641.89420135;5696594.94679840;471.40774967;0.611765;0.635294;0.564706;40606.000000;1.000000;1.000000;1.000000;1.000000;-0.116798;0.116798;-0.116798;1.000000
445641.95370300;5696594.85729988;471.40465023;0.219608;0.215686;0.109804;13364.000000;1.000000;1.000000;1.000000;1.000000;-0.027300;0.027300;-0.027300;1.000000
445641.43810089;5696595.30869873;471.43564989;0.376471;0.419608;0.313725;25700.000000;1.000000;1.000000;1.000000;1.000000;-0.021301;0.021301;-0.021301;1.000000
445641.43770035;5696595.38340004;471.44354965;0.596078;0.615686;0.560784;39321.000000;1.000000;1.000000;1.000000;1.000000;0.053400;-0.053400;0.053400;1.000000
445641.62650116;5696595.31629951;471.47454979;0.364706;0.407843;0.305882;24929.000000;1.000000;1.000000;1.000000;1.000000;-0.187625;0.187625;-0.187625;1.000000
445641.63470276;5696595.32499893;471.46575024;0.32549;0.364706;0.239216;22102.000000;1.000000;1.000000;1.000000;1.000000;-0.195390;0.195390;-0.195390;1.000000
445641.53630264;5696595.00539978;471.42954971;0.545098;0.580392;0.439216;36237.000000;1.000000;1.000000;1.000000;1.000000;0.096926;-0.096926;0.096926;1.000000
445641.45210083;5696595.28179939;471.43134977;0.403922;0.45098;0.32549;27499.000000;1.000000;1.000000;1.000000;1.000000;-0.049852;0.049852;-0.049852;1.000000
445641.40400131;5696595.26979836;471.43835022;0.341176;0.419608;0.219608;24415.000000;1.000000;1.000000;1.000000;1.000000;-0.060202;0.060202;-0.060202;1.000000
445641.52930267;5696594.97809990;471.42425014;0.517647;0.54902;0.415686;34181.000000;1.000000;1.000000;1.000000;1.000000;0.089926;-0.089926;0.089926;1.000000
445641.48350342;5696595.19919975;471.44574978;0.596078;0.6;0.541176;38807.000000;1.000000;1.000000;1.000000;1.000000;0.053743;-0.053743;0.053743;1.000000
445641.83100327;5696594.87780006;471.42035009;0.376471;0.407843;0.266667;24929.000000;1.000000;1.000000;1.000000;1.000000;-0.047800;0.047800;-0.047800;1.000000
445641.75950058;5696594.83769997;471.41895010;0.337255;0.364706;0.223529;22102.000000;1.000000;1.000000;1.000000;1.000000;0.008096;-0.008096;0.008096;1.000000
445641.50110062;5696595.23049934;471.43295004;0.670588;0.67451;0.603922;43433.000000;1.000000;1.000000;1.000000;1.000000;0.087648;-0.087648;0.087648;1.000000
445641.43480118;5696595.41139992;471.46234991;0.392157;0.419608;0.364706;26471.000000;1.000000;1.000000;1.000000;1.000000;0.081400;-0.081400;0.081400;1.000000
445641.53989990;5696594.96769913;471.42684986;0.470588;0.498039;0.384314;31097.000000;1.000000;1.000000;1.000000;1.000000;0.100523;-0.100523;0.100523;1.000000
445641.62700089;5696595.31869896;471.46764996;0.258824;0.309804;0.192157;18247.000000;1.000000;1.000000;1.000000;1.000000;-0.187964;0.187964;-0.187964;1.000000
445641.49170120;5696594.97689827;471.42485001;0.247059;0.294118;0.14902;17219.000000;1.000000;1.000000;1.000000;1.000000;0.052324;-0.052324;0.052324;1.000000
445641.46190079;5696594.83479889;471.42875006;0.337255;0.317647;0.294118;20817.000000;1.000000;1.000000;1.000000;1.000000;0.004799;-0.004799;0.004799;1.000000
445641.49940308;5696594.83589943;471.43044998;0.262745;0.254902;0.223529;16448.000000;1.000000;1.000000;1.000000;1.000000;0.005899;-0.005899;0.005899;1.000000
445641.41760071;5696595.21479996;471.43594982;0.541176;0.580392;0.462745;36237.000000;1.000000;1.000000;1.000000;1.000000;-0.051321;0.051321;-0.051321;1.000000
445641.50360306;5696594.92909821;471.42474987;0.631373;0.654902;0.572549;41634.000000;1.000000;1.000000;1.000000;1.000000;0.064226;-0.064226;0.064226;1.000000
445641.47290237;5696595.20729836;471.43835022;0.568627;0.580392;0.505882;37265.000000;1.000000;1.000000;1.000000;1.000000;0.051371;-0.051371;0.051371;1.000000
445641.49030121;5696595.21739967;471.43695023;0.564706;0.568627;0.505882;36494.000000;1.000000;1.000000;1.000000;1.000000;0.070706;-0.070706;0.070706;1.000000
445641.52790268;5696595.21859940;471.43634989;0.478431;0.47451;0.419608;30583.000000;1.000000;1.000000;1.000000;1.000000;0.101799;-0.101799;0.101799;1.000000
445641.53460129;5696594.83739861;471.42974998;0.258824;0.254902;0.223529;16448.000000;1.000000;1.000000;1.000000;1.000000;0.007544;-0.007544;0.007544;1.000000
445641.42700012;5696595.16939934;471.44514992;0.384314;0.407843;0.337255;25700.000000;1.000000;1.000000;1.000000;1.000000;-0.012409;0.012409;-0.012409;1.000000
445641.50830276;5696595.00569923;471.42824986;0.388235;0.443137;0.262745;26471.000000;1.000000;1.000000;1.000000;1.000000;0.068926;-0.068926;0.068926;1.000000
445641.43520172;5696595.00070007;471.43184998;0.376471;0.407843;0.266667;24929.000000;1.000000;1.000000;1.000000;1.000000;-0.004175;0.004175;-0.004175;1.000000
445641.54570206;5696595.00679977;471.42994978;0.615686;0.643137;0.513725;40606.000000;1.000000;1.000000;1.000000;1.000000;0.106325;-0.106325;0.106325;1.000000
445641.40120132;5696594.96179970;471.43225004;0.541176;0.545098;0.505882;35209.000000;1.000000;1.000000;1.000000;1.000000;-0.038176;0.038176;-0.038176;1.000000
445641.47420319;5696594.96669968;471.43094971;0.184314;0.227451;0.121569;13107.000000;1.000000;1.000000;1.000000;1.000000;0.034826;-0.034826;0.034826;1.000000
445641.55010040;5696595.35139854;471.47854998;0.835294;0.862745;0.776471;55255.000000;1.000000;1.000000;1.000000;1.000000;0.112772;-0.112772;0.112772;1.000000
445641.42950256;5696594.88909920;471.43024971;0.384314;0.380392;0.34902;24672.000000;1.000000;1.000000;1.000000;1.000000;-0.009874;0.009874;-0.009874;1.000000
445641.57250031;5696594.84089859;471.42684986;0.501961;0.498039;0.458824;32382.000000;1.000000;1.000000;1.000000;1.000000;0.013593;-0.013593;0.013593;1.000000
445641.50270279;5696595.35849960;471.45545008;0.419608;0.470588;0.317647;28527.000000;1.000000;1.000000;1.000000;1.000000;0.069443;-0.069443;0.069443;1.000000
445641.50480087;5696594.89389999;471.42904999;0.254902;0.258824;0.2;16448.000000;1.000000;1.000000;1.000000;1.000000;0.063967;-0.063967;0.063967;1.000000
445641.71759995;5696594.91169937;471.41335012;0.427451;0.45098;0.341176;28270.000000;1.000000;1.000000;1.000000;1.000000;0.081699;-0.081699;0.081699;1.000000
445641.58270081;5696595.28799828;471.45365002;0.294118;0.333333;0.231373;20303.000000;1.000000;1.000000;1.000000;1.000000;-0.149352;0.149352;-0.149352;1.000000
445641.83030136;5696594.91529854;471.41144993;0.133333;0.152941;0.0627451;8738.000000;1.000000;1.000000;1.000000;1.000000;-0.085299;0.085299;-0.085299;1.000000
445641.64600189;5696594.86939819;471.40955021;0.478431;0.494118;0.396078;31354.000000;1.000000;1.000000;1.000000;1.000000;0.039398;-0.039398;0.039398;1.000000
445641.90680130;5696594.88259895;471.40984966;0.447059;0.466667;0.321569;29041.000000;1.000000;1.000000;1.000000;1.000000;0.052599;-0.052599;0.052599;1.000000
445641.59630020;5696594.91589935;471.41715004;0.580392;0.572549;0.509804;37008.000000;1.000000;1.000000;1.000000;1.000000;0.085899;-0.085899;0.085899;1.000000
445641.74630173;5696594.92069824;471.41704990;0.25098;0.278431;0.168627;16705.000000;1.000000;1.000000;1.000000;1.000000;0.090698;-0.090698;0.090698;1.000000
445641.78400238;5696594.92419823;471.41874983;0.172549;0.192157;0.0901961;11308.000000;1.000000;1.000000;1.000000;1.000000;0.094202;-0.094202;0.094202;1.000000
445641.74760254;5696594.88550003;471.41904976;0.407843;0.443137;0.309804;27242.000000;1.000000;1.000000;1.000000;1.000000;0.055500;-0.055500;0.055500;1.000000
445641.43309982;5696594.85369881;471.43234970;0.219608;0.211765;0.184314;13621.000000;1.000000;1.000000;1.000000;1.000000;-0.006277;0.006277;-0.006277;1.000000
445641.85900314;5696594.85179909;471.42135002;0.364706;0.388235;0.243137;23901.000000;1.000000;1.000000;1.000000;1.000000;0.021799;-0.021799;0.021799;1.000000
445641.82360275;5696594.85029991;471.42434980;0.196078;0.235294;0.0705882;13364.000000;1.000000;1.000000;1.000000;1.000000;-0.020300;0.020300;-0.020300;1.000000
445641.47660263;5696594.89180000;471.42775013;0.388235;0.380392;0.337255;24672.000000;1.000000;1.000000;1.000000;1.000000;0.037226;-0.037226;0.037226;1.000000
445641.63280304;5696594.95469864;471.41235020;0.517647;0.513725;0.431373;32896.000000;1.000000;1.000000;1.000000;1.000000;0.124770;-0.124770;0.124770;1.000000
445641.58630188;5696595.31299980;471.47734978;0.678431;0.713725;0.619608;45232.000000;1.000000;1.000000;1.000000;1.000000;-0.147905;0.147905;-0.147905;1.000000
445641.71010025;5696594.88209923;471.41494991;0.45098;0.470588;0.368627;29555.000000;1.000000;1.000000;1.000000;1.000000;0.052099;-0.052099;0.052099;1.000000
445641.44390305;5696595.19829948;471.44164993;0.521569;0.54902;0.466667;34695.000000;1.000000;1.000000;1.000000;1.000000;0.030202;-0.030202;0.030202;1.000000
445641.62110336;5696595.25389870;471.46425011;0.407843;0.443137;0.34902;27499.000000;1.000000;1.000000;1.000000;1.000000;-0.197018;0.197018;-0.197018;1.000000
445641.55640228;5696595.20189865;471.44205000;0.54902;0.545098;0.490196;35209.000000;1.000000;1.000000;1.000000;1.000000;0.121712;-0.121712;0.121712;1.000000
445641.46850021;5696594.85519989;471.42934992;0.482353;0.47451;0.443137;30840.000000;1.000000;1.000000;1.000000;1.000000;0.025200;-0.025200;0.025200;1.000000
445641.50590332;5696594.85629852;471.43104984;0.223529;0.215686;0.180392;13878.000000;1.000000;1.000000;1.000000;1.000000;0.026605;-0.026605;0.026605;1.000000
445641.58120163;5696594.85879906;471.42514994;0.27451;0.266667;0.223529;17219.000000;1.000000;1.000000;1.000000;1.000000;0.029001;-0.029001;0.029001;1.000000
445641.41010101;5696595.15949829;471.43724968;0.784314;0.792157;0.733333;51143.000000;1.000000;1.000000;1.000000;1.000000;-0.029276;0.029276;-0.029276;1.000000
445641.54360016;5696594.85759933;471.42805006;0.301961;0.298039;0.258824;19275.000000;1.000000;1.000000;1.000000;1.000000;0.027599;-0.027599;0.027599;1.000000
445641.41920288;5696595.39189919;471.45674994;0.329412;0.356863;0.305882;22359.000000;1.000000;1.000000;1.000000;1.000000;0.061899;-0.061899;0.061899;1.000000
445641.53190048;5696595.39769943;471.45965006;0.384314;0.419608;0.317647;25957.000000;1.000000;1.000000;1.000000;1.000000;0.114647;-0.114647;0.114647;1.000000
445641.58240326;5696594.82129868;471.42474987;0.439216;0.439216;0.403922;28527.000000;1.000000;1.000000;1.000000;1.000000;-0.008978;0.008978;-0.008978;1.000000
445641.50370224;5696595.33979996;471.44595005;0.317647;0.380392;0.215686;22359.000000;1.000000;1.000000;1.000000;1.000000;0.065068;-0.065068;0.065068;1.000000
445641.41110046;5696595.12199982;471.43925001;0.286275;0.301961;0.227451;18761.000000;1.000000;1.000000;1.000000;1.000000;-0.028276;0.028276;-0.028276;1.000000
445641.51990326;5696594.97669991;471.42145016;0.478431;0.517647;0.372549;31868.000000;1.000000;1.000000;1.000000;1.000000;0.080526;-0.080526;0.080526;1.000000
445641.54530151;5696595.30799873;471.44284966;0.278431;0.337255;0.2;19789.000000;1.000000;1.000000;1.000000;1.000000;-0.108185;0.108185;-0.108185;1.000000
445641.48299988;5696594.98469933;471.42684986;0.270588;0.32549;0.164706;19018.000000;1.000000;1.000000;1.000000;1.000000;0.043623;-0.043623;0.043623;1.000000
445641.48630341;5696595.12439926;471.43564989;0.482353;0.501961;0.423529;31868.000000;1.000000;1.000000;1.000000;1.000000;0.046926;-0.046926;0.046926;1.000000
445641.92260178;5696594.92779930;471.41115000;0.227451;0.227451;0.164706;14392.000000;1.000000;1.000000;1.000000;1.000000;-0.097799;0.097799;-0.097799;1.000000
445641.58370026;5696595.26939972;471.44414999;0.243137;0.270588;0.176471;16448.000000;1.000000;1.000000;1.000000;1.000000;-0.156530;0.156530;-0.156530;1.000000
445641.96020325;5696594.93129929;471.41515018;0.815686;0.819608;0.776471;53199.000000;1.000000;1.000000;1.000000;1.000000;-0.101299;0.101299;-0.101299;1.000000
445641.79549988;5696594.85059937;471.42544987;0.431373;0.478431;0.305882;29041.000000;1.000000;1.000000;1.000000;1.000000;0.020599;-0.020599;0.020599;1.000000
445641.43810089;5696595.18709953;471.44354965;0.435294;0.458824;0.376471;28784.000000;1.000000;1.000000;1.000000;1.000000;-0.018668;0.018668;-0.018668;1.000000
445641.47319992;5696595.18849953;471.44514992;0.603922;0.611765;0.54902;39321.000000;1.000000;1.000000;1.000000;1.000000;0.039290;-0.039290;0.039290;1.000000
445641.43920334;5696595.14959915;471.44544985;0.431373;0.443137;0.384314;28270.000000;1.000000;1.000000;1.000000;1.000000;-0.000174;0.000174;-0.000174;1.000000
445641.72770126;5696594.92009933;471.41384985;0.305882;0.333333;0.215686;20303.000000;1.000000;1.000000;1.000000;1.000000;0.090151;-0.090151;0.090151;1.000000
445641.74360092;5696594.93969925;471.41244986;0.298039;0.313725;0.215686;19532.000000;1.000000;1.000000;1.000000;1.000000;0.109699;-0.109699;0.109699;1.000000
445641.63459976;5696594.89839943;471.41174986;0.345098;0.345098;0.262745;21845.000000;1.000000;1.000000;1.000000;1.000000;0.068442;-0.068442;0.068442;1.000000
445641.85770233;5696594.90809830;471.41025021;0.129412;0.145098;0.0509804;8481.000000;1.000000;1.000000;1.000000;1.000000;0.078098;-0.078098;0.078098;1.000000
445641.89310272;5696594.96549995;471.41725018;0.733333;0.756863;0.686275;48573.000000;1.000000;1.000000;1.000000;1.000000;-0.135500;0.135500;-0.135500;1.000000
445641.48740204;5696595.36929901;471.45254995;0.415686;0.462745;0.337255;28270.000000;1.000000;1.000000;1.000000;1.000000;0.062055;-0.062055;0.062055;1.000000
445641.81649979;5696595.00049980;471.42584993;0.537255;0.564706;0.478431;35723.000000;1.000000;1.000000;1.000000;1.000000;-0.170500;0.170500;-0.170500;1.000000
445641.52639969;5696595.05289848;471.43664982;0.298039;0.32549;0.211765;19789.000000;1.000000;1.000000;1.000000;1.000000;0.087023;-0.087023;0.087023;1.000000
445641.50610168;5696595.37659843;471.46985008;0.709804;0.745098;0.65098;47288.000000;1.000000;1.000000;1.000000;1.000000;0.081386;-0.081386;0.081386;1.000000
445641.59880264;5696594.86889847;471.41904976;0.345098;0.337255;0.278431;21588.000000;1.000000;1.000000;1.000000;1.000000;0.038898;-0.038898;0.038898;1.000000
445641.38080032;5696594.97069939;471.43604996;0.301961;0.301961;0.270588;19532.000000;1.000000;1.000000;1.000000;1.000000;-0.058577;0.058577;-0.058577;1.000000
445641.50360306;5696595.33759888;471.44364979;0.360784;0.431373;0.258824;25443.000000;1.000000;1.000000;1.000000;1.000000;0.064674;-0.064674;0.064674;1.000000
445641.49810226;5696595.35889824;471.45295002;0.431373;0.482353;0.341176;29555.000000;1.000000;1.000000;1.000000;1.000000;0.065451;-0.065451;0.065451;1.000000
445641.43260010;5696595.29989822;471.43534996;0.317647;0.368627;0.235294;22102.000000;1.000000;1.000000;1.000000;1.000000;-0.030102;0.030102;-0.030102;1.000000
445641.54269989;5696595.30359848;471.43804981;0.239216;0.298039;0.152941;17219.000000;1.000000;1.000000;1.000000;1.000000;-0.106643;0.106643;-0.106643;1.000000
445641.37490280;5696594.85899933;471.43914988;0.286275;0.27451;0.25098;17990.000000;1.000000;1.000000;1.000000;1.000000;0.028999;-0.028999;0.028999;1.000000
445641.69149979;5696594.88149841;471.41174986;0.34902;0.364706;0.262745;22616.000000;1.000000;1.000000;1.000000;1.000000;0.051542;-0.051542;0.051542;1.000000
445641.58900269;5696594.91419991;471.41914989;0.556863;0.54902;0.482353;35466.000000;1.000000;1.000000;1.000000;1.000000;0.084200;-0.084200;0.084200;1.000000
445641.73690231;5696594.91919907;471.41655018;0.231373;0.254902;0.14902;15420.000000;1.000000;1.000000;1.000000;1.000000;0.089199;-0.089199;0.089199;1.000000
445641.58139999;5696595.26729973;471.43934967;0.254902;0.290196;0.180392;17476.000000;1.000000;1.000000;1.000000;1.000000;-0.155248;0.155248;-0.155248;1.000000
445641.81320007;5696594.88639839;471.41965010;0.258824;0.298039;0.152941;17476.000000;1.000000;1.000000;1.000000;1.000000;0.056398;-0.056398;0.056398;1.000000
445641.85200317;5696594.85239990;471.42094995;0.384314;0.411765;0.258824;25186.000000;1.000000;1.000000;1.000000;1.000000;0.022400;-0.022400;0.022400;1.000000
445641.47240265;5696595.22609909;471.43625023;0.509804;0.533333;0.45098;33667.000000;1.000000;1.000000;1.000000;1.000000;0.066537;-0.066537;0.066537;1.000000
445641.51390274;5696595.11719902;471.43214991;0.305882;0.317647;0.235294;19789.000000;1.000000;1.000000;1.000000;1.000000;0.074526;-0.074526;0.074526;1.000000
