//X;Y;Z;Rf;Gf;Bf;Intensity;Return Number;Number Of Returns;Scan Direction Flag;Point Source ID;C2M signed distances[-][<0.8];C2M signed distances[<0.4];C2M signed distances[-][<0.2];Stump101
300
445645.19840057;5696599.76209839;471.31384995;0.372549;0.478431;0.305882;28013.000000;1.000000;1.000000;1.000000;1.000000;-0.178679;0.178679;-0.178679;1.000000
445645.10160263;5696599.85959824;471.32935001;0.34902;0.431373;0.305882;25700.000000;1.000000;1.000000;1.000000;1.000000;0.074599;-0.074599;0.074599;1.000000
445645.10099991;5696599.82480057;471.32184984;0.258824;0.329412;0.227451;19275.000000;1.000000;1.000000;1.000000;1.000000;-0.068072;0.068072;-0.068072;1.000000
445645.09150131;5696599.60890015;471.29094984;0.243137;0.301961;0.223529;17990.000000;1.000000;1.000000;1.000000;1.000000;-0.089624;0.089624;-0.089624;1.000000
445645.01550110;5696599.65310104;471.30664970;0.364706;0.4;0.356863;25186.000000;1.000000;1.000000;1.000000;1.000000;-0.013624;0.013624;-0.013624;1.000000
445644.98670013;5696599.46359833;471.34504988;0.592157;0.607843;0.6;39321.000000;1.000000;1.000000;1.000000;1.000000;0.033527;-0.033527;0.033527;1.000000
445644.83970078;5696599.41879852;471.34944965;0.701961;0.713725;0.698039;46260.000000;1.000000;1.000000;1.000000;1.000000;0.088799;-0.088799;0.088799;1.000000
445644.87220200;5696599.72920044;471.32434990;0.462745;0.470588;0.439216;30326.000000;1.000000;1.000000;1.000000;1.000000;0.100908;-0.100908;0.100908;1.000000
445644.92410095;5696599.40679749;471.31825020;0.309804;0.32549;0.321569;20817.000000;1.000000;1.000000;1.000000;1.000000;0.076797;-0.076797;0.076797;1.000000
445644.95400055;5696599.77989777;471.32634975;0.517647;0.52549;0.501961;33924.000000;1.000000;1.000000;1.000000;1.000000;0.047876;0.047876;-0.047876;1.000000
445644.80389984;5696599.38249786;471.34275009;0.768627;0.803922;0.768627;51657.000000;1.000000;1.000000;1.000000;1.000000;0.052498;-0.052498;0.052498;1.000000
445644.90929993;5696599.52709778;471.32595016;0.568627;0.576471;0.584314;37522.000000;1.000000;1.000000;1.000000;1.000000;0.092577;-0.092577;0.092577;1.000000
445644.98260315;5696599.56769760;471.28784992;0.560784;0.568627;0.576471;37008.000000;1.000000;1.000000;1.000000;1.000000;0.019274;-0.019274;0.019274;1.000000
445644.97150238;5696599.41629990;471.32515003;0.498039;0.513725;0.517647;33153.000000;1.000000;1.000000;1.000000;1.000000;0.083316;-0.083316;0.083316;1.000000
445645.17060287;5696599.73229797;471.29594995;0.184314;0.243137;0.137255;13878.000000;1.000000;1.000000;1.000000;1.000000;-0.168657;0.168657;-0.168657;1.000000
445645.17180069;5696599.69479950;471.29554989;0.168627;0.219608;0.145098;12850.000000;1.000000;1.000000;1.000000;1.000000;-0.169924;0.169924;-0.169924;1.000000
445644.88730057;5696599.59900101;471.34215023;0.678431;0.701961;0.701961;45489.000000;1.000000;1.000000;1.000000;1.000000;0.114576;-0.114576;0.114576;1.000000
445645.04640015;5696599.79239853;471.32605030;0.803922;0.831373;0.827451;53713.000000;1.000000;1.000000;1.000000;1.000000;-0.039875;0.039875;-0.039875;1.000000
445645.14389999;5696599.72299774;471.29935028;0.0862745;0.113725;0.0784314;6425.000000;1.000000;1.000000;1.000000;1.000000;-0.142023;0.142023;-0.142023;1.000000
445644.81580170;5696599.78319748;471.33874990;0.32549;0.321569;0.266667;20560.000000;1.000000;1.000000;1.000000;1.000000;0.046803;-0.046803;0.046803;1.000000
445645.18160065;5696599.72429855;471.29635002;0.403922;0.478431;0.352941;28784.000000;1.000000;1.000000;1.000000;1.000000;-0.179724;0.179724;-0.179724;1.000000
445644.95850189;5696599.76059921;471.34264996;0.568627;0.588235;0.568627;37779.000000;1.000000;1.000000;1.000000;1.000000;0.043375;0.043375;-0.043375;1.000000
445645.15630157;5696599.81500061;471.31965019;0.219608;0.305882;0.141176;16962.000000;1.000000;1.000000;1.000000;1.000000;-0.124085;0.124085;-0.124085;1.000000
445645.08150299;5696599.46909912;471.32844975;0.419608;0.466667;0.411765;29041.000000;1.000000;1.000000;1.000000;1.000000;-0.083377;0.083377;-0.083377;1.000000
445644.86870010;5696599.39529999;471.33184959;0.337255;0.333333;0.356863;21845.000000;1.000000;1.000000;1.000000;1.000000;0.065300;-0.065300;0.065300;1.000000
445645.17130096;5696599.74149902;471.30075027;0.105882;0.172549;0.0627451;8995.000000;1.000000;1.000000;1.000000;1.000000;-0.164087;0.164087;-0.164087;1.000000
445645.00380142;5696599.77260025;471.34714987;0.529412;0.572549;0.552941;36494.000000;1.000000;1.000000;1.000000;1.000000;-0.001925;0.001925;-0.001925;1.000000
445644.87000092;5696599.41150101;471.33684971;0.34902;0.364706;0.352941;23387.000000;1.000000;1.000000;1.000000;1.000000;0.081501;-0.081501;0.081501;1.000000
445644.99750336;5696599.67079742;471.32704975;0.294118;0.329412;0.294118;20560.000000;1.000000;1.000000;1.000000;1.000000;0.004374;-0.004374;0.004374;1.000000
445644.79760178;5696599.33650024;471.33494999;0.772549;0.796078;0.768627;51400.000000;1.000000;1.000000;1.000000;1.000000;0.006500;-0.006500;0.006500;1.000000
445645.05760010;5696599.56999786;471.28894999;0.184314;0.203922;0.156863;12593.000000;1.000000;1.000000;1.000000;1.000000;-0.055723;0.055723;-0.055723;1.000000
445645.12899979;5696599.43260010;471.28814985;0.678431;0.690196;0.662745;44718.000000;1.000000;1.000000;1.000000;1.000000;0.102622;-0.102622;0.102622;1.000000
445645.00539978;5696599.73530014;471.33745005;0.411765;0.466667;0.439216;29298.000000;1.000000;1.000000;1.000000;1.000000;-0.003523;0.003523;-0.003523;1.000000
445645.13020142;5696599.57259949;471.29225018;0.427451;0.517647;0.34902;30840.000000;1.000000;1.000000;1.000000;1.000000;-0.128325;0.128325;-0.128325;1.000000
445645.16020020;5696599.77969940;471.31475021;0.403922;0.486275;0.345098;29041.000000;1.000000;1.000000;1.000000;1.000000;-0.136667;0.136667;-0.136667;1.000000
445644.98360260;5696599.53009995;471.29215004;0.282353;0.282353;0.301961;18504.000000;1.000000;1.000000;1.000000;1.000000;0.018274;-0.018274;0.018274;1.000000
445645.15380295;5696599.70339783;471.29954960;0.14902;0.184314;0.14902;11051.000000;1.000000;1.000000;1.000000;1.000000;-0.151926;0.151926;-0.151926;1.000000
445645.02110107;5696599.53129776;471.29145004;0.298039;0.298039;0.294118;19275.000000;1.000000;1.000000;1.000000;1.000000;-0.019224;0.019224;-0.019224;1.000000
445645.09380157;5696599.53389938;471.29244997;0.298039;0.372549;0.223529;21845.000000;1.000000;1.000000;1.000000;1.000000;-0.091925;0.091925;-0.091925;1.000000
445645.04960068;5696599.51460083;471.29954960;0.27451;0.298039;0.239216;18504.000000;1.000000;1.000000;1.000000;1.000000;-0.047724;0.047724;-0.047724;1.000000
445644.96759995;5696599.49169739;471.30725004;0.462745;0.462745;0.478431;30326.000000;1.000000;1.000000;1.000000;1.000000;0.034372;-0.034372;0.034372;1.000000
445645.01400192;5696599.47519882;471.33474972;0.380392;0.388235;0.380392;25186.000000;1.000000;1.000000;1.000000;1.000000;-0.022121;0.022121;-0.022121;1.000000
445645.08820160;5696599.44269760;471.33305027;0.611765;0.635294;0.611765;40863.000000;1.000000;1.000000;1.000000;1.000000;-0.100280;0.100280;-0.100280;1.000000
445644.95810135;5696599.49019821;471.30915024;0.639216;0.639216;0.65098;41891.000000;1.000000;1.000000;1.000000;1.000000;0.043960;-0.043960;0.043960;1.000000
445644.96730240;5696599.45599945;471.34635021;0.647059;0.670588;0.666667;43433.000000;1.000000;1.000000;1.000000;1.000000;0.050981;-0.050981;0.050981;1.000000
445644.97810181;5696599.67000015;471.34244968;0.498039;0.533333;0.509804;33924.000000;1.000000;1.000000;1.000000;1.000000;0.023775;-0.023775;0.023775;1.000000
445645.17480286;5696599.43720062;471.31825020;0.407843;0.423529;0.415686;27242.000000;1.000000;1.000000;1.000000;1.000000;0.117426;-0.117426;0.117426;1.000000
445644.84770020;5696599.89710052;471.33454992;0.584314;0.545098;0.486275;35980.000000;1.000000;1.000000;1.000000;1.000000;-0.067101;0.067101;-0.067101;1.000000
445645.18840225;5696599.72360046;471.29904987;0.482353;0.560784;0.427451;34181.000000;1.000000;1.000000;1.000000;1.000000;-0.186525;0.186525;-0.186525;1.000000
445644.97100266;5696599.64039810;471.33474972;0.435294;0.45098;0.439216;29041.000000;1.000000;1.000000;1.000000;1.000000;0.030874;-0.030874;0.030874;1.000000
445645.15690048;5696599.61199768;471.30094959;0.596078;0.666667;0.572549;41377.000000;1.000000;1.000000;1.000000;1.000000;-0.155024;0.155024;-0.155024;1.000000
445645.11600311;5696599.49909790;471.29775002;0.372549;0.435294;0.337255;26471.000000;1.000000;1.000000;1.000000;1.000000;-0.114126;0.114126;-0.114126;1.000000
445645.15810211;5696599.57459839;471.29814960;0.458824;0.541176;0.435294;32896.000000;1.000000;1.000000;1.000000;1.000000;-0.156225;0.156225;-0.156225;1.000000
445645.04890259;5696599.53100021;471.29734995;0.0941176;0.117647;0.0784314;6939.000000;1.000000;1.000000;1.000000;1.000000;-0.047026;0.047026;-0.047026;1.000000
445645.08680161;5696599.53449829;471.29445030;0.235294;0.309804;0.176471;17733.000000;1.000000;1.000000;1.000000;1.000000;-0.084925;0.084925;-0.084925;1.000000
445645.08730133;5696599.45910080;471.33554985;0.839216;0.866667;0.843137;56026.000000;1.000000;1.000000;1.000000;1.000000;-0.092159;0.092159;-0.092159;1.000000
445645.20269974;5696599.42560013;471.29845001;0.309804;0.309804;0.298039;20046.000000;1.000000;1.000000;1.000000;1.000000;0.122018;-0.122018;0.122018;1.000000
445644.98230179;5696599.34329803;471.29684975;0.733333;0.741176;0.741176;48316.000000;1.000000;1.000000;1.000000;1.000000;0.013298;-0.013298;0.013298;1.000000
445645.09399994;5696599.34749802;471.26464989;0.65098;0.654902;0.643137;42662.000000;1.000000;1.000000;1.000000;1.000000;0.017498;-0.017498;0.017498;1.000000
445645.02620132;5696599.38379868;471.28764965;0.682353;0.686275;0.686275;44718.000000;1.000000;1.000000;1.000000;1.000000;0.053799;-0.053799;0.053799;1.000000
445644.99200256;5696599.34480103;471.29264977;0.658824;0.658824;0.658824;42919.000000;1.000000;1.000000;1.000000;1.000000;0.014801;-0.014801;0.014801;1.000000
445644.78810318;5696599.33499725;471.33454992;0.792157;0.815686;0.784314;52685.000000;1.000000;1.000000;1.000000;1.000000;0.007052;-0.007052;0.007052;1.000000
445644.99330338;5696599.30739792;471.28984978;0.243137;0.235294;0.231373;15420.000000;1.000000;1.000000;1.000000;1.000000;-0.022602;0.022602;-0.022602;1.000000
445645.10130127;5696599.61720093;471.29845001;0.286275;0.337255;0.27451;20560.000000;1.000000;1.000000;1.000000;1.000000;-0.099424;0.099424;-0.099424;1.000000
445644.99440201;5696599.68969925;471.33174994;0.372549;0.419608;0.388235;26214.000000;1.000000;1.000000;1.000000;1.000000;0.007475;-0.007475;0.007475;1.000000
445644.81200226;5696599.42809875;471.36235001;0.858824;0.878431;0.858824;56797.000000;1.000000;1.000000;1.000000;1.000000;0.098099;-0.098099;0.098099;1.000000
445644.88879974;5696599.35619934;471.32305004;0.380392;0.4;0.411765;25700.000000;1.000000;1.000000;1.000000;1.000000;0.026199;-0.026199;0.026199;1.000000
445645.00110062;5696599.77049835;471.35164978;0.713725;0.737255;0.709804;47545.000000;1.000000;1.000000;1.000000;1.000000;0.000776;-0.000776;0.000776;1.000000
445645.04320343;5696599.46769913;471.34524967;0.454902;0.486275;0.443137;30840.000000;1.000000;1.000000;1.000000;1.000000;-0.048714;0.048714;-0.048714;1.000000
445645.06860168;5696599.49629791;471.30714991;0.396078;0.431373;0.345098;26728.000000;1.000000;1.000000;1.000000;1.000000;-0.066725;0.066725;-0.066725;1.000000
445644.88090332;5696599.34760101;471.32484962;0.521569;0.545098;0.54902;35209.000000;1.000000;1.000000;1.000000;1.000000;0.018056;-0.018056;0.018056;1.000000
445645.02770050;5696599.40679749;471.30195000;0.662745;0.666667;0.67451;43433.000000;1.000000;1.000000;1.000000;1.000000;0.076797;-0.076797;0.076797;1.000000
445644.86730011;5696599.87899979;471.32824995;0.490196;0.458824;0.407843;30069.000000;1.000000;1.000000;1.000000;1.000000;-0.049004;0.049004;-0.049004;1.000000
445644.97890289;5696599.84539993;471.32354977;0.384314;0.431373;0.364706;26728.000000;1.000000;1.000000;1.000000;1.000000;-0.015400;0.015400;-0.015400;1.000000
445645.05410202;5696599.85009964;471.32474997;0.270588;0.309804;0.262745;19018.000000;1.000000;1.000000;1.000000;1.000000;0.029051;-0.029051;0.029051;1.000000
445645.01640137;5696599.84659775;471.32534983;0.819608;0.843137;0.827451;54484.000000;1.000000;1.000000;1.000000;1.000000;-0.016598;0.016598;-0.016598;1.000000
445645.02000244;5696599.81119736;471.32735016;0.72549;0.752941;0.745098;48573.000000;1.000000;1.000000;1.000000;1.000000;-0.018126;0.018126;-0.018126;1.000000
445644.87090118;5696599.76659973;471.32704975;0.27451;0.282353;0.235294;17990.000000;1.000000;1.000000;1.000000;1.000000;0.063544;-0.063544;0.063544;1.000000
445645.20290192;5696599.81749924;471.32875015;0.215686;0.317647;0.129412;17219.000000;1.000000;1.000000;1.000000;1.000000;-0.170235;0.170235;-0.170235;1.000000
445645.02230270;5696599.73620041;471.32894995;0.345098;0.4;0.352941;24672.000000;1.000000;1.000000;1.000000;1.000000;-0.020426;0.020426;-0.020426;1.000000
445644.91450317;5696599.65749939;471.32544996;0.698039;0.713725;0.713725;46260.000000;1.000000;1.000000;1.000000;1.000000;0.087374;-0.087374;0.087374;1.000000
445645.06630142;5696599.58790024;471.28954985;0.121569;0.14902;0.101961;8738.000000;1.000000;1.000000;1.000000;1.000000;-0.064425;0.064425;-0.064425;1.000000
445644.92030151;5696599.54479797;471.32665016;0.670588;0.678431;0.682353;44204.000000;1.000000;1.000000;1.000000;1.000000;0.081575;-0.081575;0.081575;1.000000
445644.99250229;5696599.54809769;471.28805019;0.160784;0.156863;0.188235;10537.000000;1.000000;1.000000;1.000000;1.000000;0.009375;-0.009375;0.009375;1.000000
445645.03020294;5696599.55159958;471.28744986;0.164706;0.168627;0.168627;10794.000000;1.000000;1.000000;1.000000;1.000000;-0.028326;0.028326;-0.028326;1.000000
445645.14030273;5696599.55529984;471.29015018;0.52549;0.611765;0.447059;37008.000000;1.000000;1.000000;1.000000;1.000000;-0.138426;0.138426;-0.138426;1.000000
445645.09870346;5696599.41419800;471.29824974;0.407843;0.403922;0.380392;26214.000000;1.000000;1.000000;1.000000;1.000000;-0.084198;0.084198;-0.084198;1.000000
445644.99559982;5696599.47469910;471.32694962;0.376471;0.396078;0.388235;25443.000000;1.000000;1.000000;1.000000;1.000000;0.020160;-0.020160;0.020160;1.000000
445645.10590179;5696599.47859772;471.32494976;0.623529;0.658824;0.611765;41891.000000;1.000000;1.000000;1.000000;1.000000;-0.105144;0.105144;-0.105144;1.000000
445645.14330109;5696599.47970016;471.32665016;0.521569;0.541176;0.521569;34695.000000;1.000000;1.000000;1.000000;1.000000;-0.142132;0.142132;-0.142132;1.000000
445645.00940140;5696599.60489853;471.28954985;0.156863;0.160784;0.156863;10280.000000;1.000000;1.000000;1.000000;1.000000;-0.007524;0.007524;-0.007524;1.000000
445645.03680237;5696599.39909943;471.29295017;0.662745;0.662745;0.662745;43433.000000;1.000000;1.000000;1.000000;1.000000;-0.069099;0.069099;-0.069099;1.000000
445644.86130341;5696599.33999832;471.32854988;0.588235;0.611765;0.6;39321.000000;1.000000;1.000000;1.000000;1.000000;0.009998;-0.009998;0.009998;1.000000
445645.08230026;5696599.60980042;471.29054977;0.145098;0.196078;0.137255;11308.000000;1.000000;1.000000;1.000000;1.000000;-0.080423;0.080423;-0.080423;1.000000
445644.91780289;5696599.57290085;471.33624985;0.682353;0.694118;0.698039;45232.000000;1.000000;1.000000;1.000000;1.000000;0.084074;-0.084074;0.084074;1.000000
445644.91520126;5696599.83510025;471.31594994;0.537255;0.552941;0.494118;35466.000000;1.000000;1.000000;1.000000;1.000000;-0.005100;0.005100;-0.005100;1.000000
445644.94270142;5696599.40500076;471.31904985;0.317647;0.32549;0.341176;21074.000000;1.000000;1.000000;1.000000;1.000000;0.075074;-0.075074;0.075074;1.000000
445644.95700272;5696599.57449921;471.30075027;0.670588;0.678431;0.686275;44204.000000;1.000000;1.000000;1.000000;1.000000;0.044874;-0.044874;0.044874;1.000000
445644.93390091;5696599.41509827;471.32574989;0.443137;0.458824;0.458824;29555.000000;1.000000;1.000000;1.000000;1.000000;0.085098;-0.085098;0.085098;1.000000
445645.10700043;5696599.44109924;471.32694962;0.529412;0.564706;0.521569;35980.000000;1.000000;1.000000;1.000000;1.000000;-0.111099;0.111099;-0.111099;1.000000
445645.18390091;5696599.64929779;471.29554989;0.0862745;0.121569;0.0666667;6682.000000;1.000000;1.000000;1.000000;1.000000;-0.182024;0.182024;-0.182024;1.000000
445644.99750336;5696599.60589798;471.29594995;0.152941;0.156863;0.164706;10023.000000;1.000000;1.000000;1.000000;1.000000;0.004374;-0.004374;0.004374;1.000000
445644.92430313;5696599.56539734;471.33174994;0.717647;0.729412;0.737255;47545.000000;1.000000;1.000000;1.000000;1.000000;0.077574;-0.077574;0.077574;1.000000
445644.96350296;5696599.56699951;471.29624989;0.698039;0.701961;0.717647;46003.000000;1.000000;1.000000;1.000000;1.000000;0.038374;-0.038374;0.038374;1.000000
445645.07610138;5696599.57060059;471.29445030;0.290196;0.333333;0.243137;20303.000000;1.000000;1.000000;1.000000;1.000000;-0.074224;0.074224;-0.074224;1.000000
445645.12990005;5696599.41399963;471.28105022;0.560784;0.556863;0.537255;36237.000000;1.000000;1.000000;1.000000;1.000000;0.084054;-0.084054;0.084054;1.000000
445645.14870270;5696599.57309921;471.29775002;0.376471;0.466667;0.34902;27756.000000;1.000000;1.000000;1.000000;1.000000;-0.146826;0.146826;-0.146826;1.000000
445645.17520340;5696599.42379959;471.28084995;0.317647;0.298039;0.294118;19789.000000;1.000000;1.000000;1.000000;1.000000;0.105517;-0.105517;0.105517;1.000000
445645.17810257;5696599.58449753;471.28984978;0.564706;0.647059;0.490196;39578.000000;1.000000;1.000000;1.000000;1.000000;-0.176226;0.176226;-0.176226;1.000000
445645.02000244;5696599.31659897;471.28655006;0.235294;0.231373;0.227451;15163.000000;1.000000;1.000000;1.000000;1.000000;0.013401;-0.013401;0.013401;1.000000
445645.10420044;5696599.54469879;471.29075005;0.247059;0.329412;0.164706;18761.000000;1.000000;1.000000;1.000000;1.000000;-0.102324;0.102324;-0.102324;1.000000
445644.89180191;5696599.31159790;471.32025005;0.737255;0.756863;0.729412;48830.000000;1.000000;1.000000;1.000000;1.000000;-0.018402;0.018402;-0.018402;1.000000
445645.14180191;5696599.54590042;471.29015018;0.498039;0.576471;0.423529;34952.000000;1.000000;1.000000;1.000000;1.000000;-0.139925;0.139925;-0.139925;1.000000
445644.96470078;5696599.52950104;471.29594995;0.537255;0.537255;0.564706;35209.000000;1.000000;1.000000;1.000000;1.000000;0.037176;-0.037176;0.037176;1.000000
445645.03960236;5696599.53190048;471.29694988;0.117647;0.12549;0.105882;7710.000000;1.000000;1.000000;1.000000;1.000000;-0.037725;0.037725;-0.037725;1.000000
445645.07720001;5696599.53309830;471.29635002;0.192157;0.25098;0.141176;14392.000000;1.000000;1.000000;1.000000;1.000000;-0.075323;0.075323;-0.075323;1.000000
445645.14299973;5696599.43359955;471.28884985;0.686275;0.686275;0.658824;44718.000000;1.000000;1.000000;1.000000;1.000000;0.104847;-0.104847;0.104847;1.000000
445645.06860168;5696599.54089935;471.29604961;0.180392;0.231373;0.14902;13364.000000;1.000000;1.000000;1.000000;1.000000;-0.066725;0.066725;-0.066725;1.000000
445645.12000092;5696599.62000092;471.30635025;0.309804;0.384314;0.313725;23130.000000;1.000000;1.000000;1.000000;1.000000;-0.118124;0.118124;-0.118124;1.000000
445645.08030136;5696599.45969971;471.33524992;0.709804;0.737255;0.709804;47545.000000;1.000000;1.000000;1.000000;1.000000;-0.085473;0.085473;-0.085473;1.000000
445645.07190140;5696599.39589890;471.28515007;0.396078;0.392157;0.388235;25700.000000;1.000000;1.000000;1.000000;1.000000;-0.065899;0.065899;-0.065899;1.000000
445645.01510056;5696599.46789749;471.34635021;0.584314;0.592157;0.580392;38550.000000;1.000000;1.000000;1.000000;1.000000;-0.028787;0.028787;-0.028787;1.000000
445644.98159988;5696599.38999756;471.30434992;0.576471;0.588235;0.603922;38293.000000;1.000000;1.000000;1.000000;1.000000;0.059998;-0.059998;0.059998;1.000000
445645.16640289;5696599.39909943;471.26854994;0.847059;0.839216;0.827451;54998.000000;1.000000;1.000000;1.000000;1.000000;0.079605;-0.079605;0.079605;1.000000
445644.90260132;5696599.67510040;471.31574966;0.552941;0.568627;0.560784;36751.000000;1.000000;1.000000;1.000000;1.000000;0.099276;0.099276;-0.099276;1.000000
445645.04850204;5696599.73629959;471.31844999;0.423529;0.482353;0.443137;30069.000000;1.000000;1.000000;1.000000;1.000000;-0.046625;0.046625;-0.046625;1.000000
445644.81190308;5696599.42579849;471.35994961;0.843137;0.866667;0.843137;56026.000000;1.000000;1.000000;1.000000;1.000000;0.095798;-0.095798;0.095798;1.000000
445644.89030273;5696599.32110031;471.32035019;0.870588;0.890196;0.862745;57568.000000;1.000000;1.000000;1.000000;1.000000;-0.008900;0.008900;-0.008900;1.000000
445645.19330032;5696599.42650040;471.30034973;0.305882;0.301961;0.290196;19532.000000;1.000000;1.000000;1.000000;1.000000;0.117151;-0.117151;0.117151;1.000000
445644.97290237;5696599.34419830;471.29874994;0.666667;0.67451;0.678431;43947.000000;1.000000;1.000000;1.000000;1.000000;0.016095;-0.016095;0.016095;1.000000
445644.97410019;5696599.30669983;471.29834988;0.317647;0.317647;0.309804;20560.000000;1.000000;1.000000;1.000000;1.000000;-0.024159;0.024159;-0.024159;1.000000
445645.10820206;5696599.46169861;471.34355022;0.941176;0.956863;0.952941;62194.000000;1.000000;1.000000;1.000000;1.000000;-0.110986;0.110986;-0.110986;1.000000
445645.03840073;5696599.33600052;471.28064968;0.184314;0.184314;0.176471;11822.000000;1.000000;1.000000;1.000000;1.000000;-0.006001;0.006001;-0.006001;1.000000
445644.92830093;5696599.58139999;471.32984974;0.619608;0.627451;0.631373;40863.000000;1.000000;1.000000;1.000000;1.000000;0.073576;-0.073576;0.073576;1.000000
445644.89340027;5696599.50760086;471.32735016;0.568627;0.576471;0.580392;37522.000000;1.000000;1.000000;1.000000;1.000000;0.108477;-0.108477;0.108477;1.000000
445645.05920227;5696599.49719818;471.30915024;0.407843;0.439216;0.360784;27499.000000;1.000000;1.000000;1.000000;1.000000;-0.057325;0.057325;-0.057325;1.000000
445644.90910156;5696599.74230011;471.30985023;0.247059;0.25098;0.223529;15934.000000;1.000000;1.000000;1.000000;1.000000;0.087700;-0.087700;0.087700;1.000000
445645.06929977;5696599.46769913;471.33715012;0.588235;0.619608;0.580392;39578.000000;1.000000;1.000000;1.000000;1.000000;-0.072245;0.072245;-0.072245;1.000000
445644.94510086;5696599.80660065;471.31924965;0.462745;0.494118;0.427451;31097.000000;1.000000;1.000000;1.000000;1.000000;0.023399;-0.023399;0.023399;1.000000
445645.13060196;5696599.81509979;471.31844999;0.192157;0.266667;0.129412;14906.000000;1.000000;1.000000;1.000000;1.000000;-0.098607;0.098607;-0.098607;1.000000
445645.09430130;5696599.77639969;471.31864979;0.294118;0.329412;0.290196;20560.000000;1.000000;1.000000;1.000000;1.000000;-0.081334;0.081334;-0.081334;1.000000
445645.20450027;5696599.78019913;471.31904985;0.368627;0.458824;0.27451;26728.000000;1.000000;1.000000;1.000000;1.000000;-0.178463;0.178463;-0.178463;1.000000
445645.06020172;5696599.73749741;471.31895020;0.588235;0.639216;0.603922;40606.000000;1.000000;1.000000;1.000000;1.000000;-0.058325;0.058325;-0.058325;1.000000
445645.09550293;5696599.73889740;471.31825020;0.321569;0.356863;0.345098;22359.000000;1.000000;1.000000;1.000000;1.000000;-0.093626;0.093626;-0.093626;1.000000
445644.98680313;5696599.62529953;471.31434967;0.25098;0.266667;0.266667;16962.000000;1.000000;1.000000;1.000000;1.000000;0.015074;-0.015074;0.015074;1.000000
445644.95060165;5696599.58659943;471.31224968;0.545098;0.552941;0.568627;35980.000000;1.000000;1.000000;1.000000;1.000000;0.051275;-0.051275;0.051275;1.000000
445645.02670105;5696599.58699997;471.28305008;0.431373;0.443137;0.435294;28527.000000;1.000000;1.000000;1.000000;1.000000;-0.024824;0.024824;-0.024824;1.000000
445644.95540054;5696599.72590073;471.33974983;0.47451;0.498039;0.490196;31868.000000;1.000000;1.000000;1.000000;1.000000;0.046476;0.046476;-0.046476;1.000000
445645.11359985;5696599.51809891;471.28854992;0.384314;0.466667;0.298039;27499.000000;1.000000;1.000000;1.000000;1.000000;-0.111723;0.111723;-0.111723;1.000000
445644.99780090;5696599.43670090;471.35454990;0.65098;0.678431;0.670588;43690.000000;1.000000;1.000000;1.000000;1.000000;0.056743;-0.056743;0.056743;1.000000
445645.03339966;5696599.44050034;471.35154964;0.72549;0.74902;0.737255;48316.000000;1.000000;1.000000;1.000000;1.000000;-0.061544;0.061544;-0.061544;1.000000
445645.14400299;5696599.48219879;471.31745007;0.588235;0.6;0.552941;38550.000000;1.000000;1.000000;1.000000;1.000000;-0.142619;0.142619;-0.142619;1.000000
445644.96070297;5696599.43789871;471.35055019;0.694118;0.72549;0.717647;46774.000000;1.000000;1.000000;1.000000;1.000000;0.069089;-0.069089;0.069089;1.000000
445645.03650101;5696599.36429794;471.27854969;0.513725;0.513725;0.513725;33667.000000;1.000000;1.000000;1.000000;1.000000;-0.034298;0.034298;-0.034298;1.000000
445645.03980072;5696599.32649811;471.28294994;0.160784;0.160784;0.156863;10280.000000;1.000000;1.000000;1.000000;1.000000;0.003502;-0.003502;0.003502;1.000000
445645.07870300;5696599.29260071;471.28195002;0.380392;0.392157;0.384314;25186.000000;1.000000;1.000000;1.000000;1.000000;0.037399;-0.037399;0.037399;1.000000
445644.99760254;5696599.38159760;471.29565002;0.490196;0.501961;0.517647;32639.000000;1.000000;1.000000;1.000000;1.000000;0.051598;-0.051598;0.051598;1.000000
445645.14980133;5696599.58469971;471.29795029;0.360784;0.447059;0.329412;26728.000000;1.000000;1.000000;1.000000;1.000000;-0.147924;0.147924;-0.147924;1.000000
445644.88470276;5696599.88909729;471.32684996;0.631373;0.603922;0.552941;39578.000000;1.000000;1.000000;1.000000;1.000000;-0.059097;0.059097;-0.059097;1.000000
445645.08699997;5696599.34810074;471.26434996;0.619608;0.627451;0.619608;40863.000000;1.000000;1.000000;1.000000;1.000000;0.018101;-0.018101;0.018101;1.000000
445645.16020020;5696599.53729828;471.27924969;0.541176;0.588235;0.462745;36494.000000;1.000000;1.000000;1.000000;1.000000;-0.158323;0.158323;-0.158323;1.000000
445645.01980026;5696599.73639877;471.33114960;0.341176;0.396078;0.352941;24415.000000;1.000000;1.000000;1.000000;1.000000;-0.017923;0.017923;-0.017923;1.000000
445644.98790176;5696599.69719894;471.33624985;0.431373;0.47451;0.443137;29812.000000;1.000000;1.000000;1.000000;1.000000;0.013975;-0.013975;0.013975;1.000000
445645.17300232;5696599.70639999;471.29344990;0.282353;0.337255;0.247059;20303.000000;1.000000;1.000000;1.000000;1.000000;-0.171125;0.171125;-0.171125;1.000000
445645.03090103;5696599.51399811;471.29874994;0.270588;0.278431;0.254902;17733.000000;1.000000;1.000000;1.000000;1.000000;-0.029024;0.029024;-0.029024;1.000000
445644.88470276;5696599.45189865;471.35424997;0.768627;0.784314;0.772549;50886.000000;1.000000;1.000000;1.000000;1.000000;0.121922;-0.121922;0.121922;1.000000
445644.92270096;5696599.42529877;471.33704998;0.537255;0.560784;0.545098;35980.000000;1.000000;1.000000;1.000000;1.000000;0.095299;-0.095299;0.095299;1.000000
445645.03250320;5696599.45689972;471.35405018;0.788235;0.811765;0.792157;52428.000000;1.000000;1.000000;1.000000;1.000000;-0.047579;0.047579;-0.047579;1.000000
445645.10870178;5696599.86129959;471.32964994;0.333333;0.415686;0.282353;24415.000000;1.000000;1.000000;1.000000;1.000000;0.081800;-0.081800;0.081800;1.000000
445644.96030243;5696599.42650040;471.33645012;0.588235;0.615686;0.611765;39578.000000;1.000000;1.000000;1.000000;1.000000;0.078984;-0.078984;0.078984;1.000000
445645.07340057;5696599.38419922;471.27815010;0.352941;0.352941;0.352941;23130.000000;1.000000;1.000000;1.000000;1.000000;-0.054199;0.054199;-0.054199;1.000000
445644.96350296;5696599.78140076;471.32675030;0.568627;0.576471;0.54902;37265.000000;1.000000;1.000000;1.000000;1.000000;0.038374;0.038374;-0.038374;1.000000
445644.96410187;5696599.78829773;471.32694962;0.572549;0.588235;0.556863;37779.000000;1.000000;1.000000;1.000000;1.000000;0.037775;0.037775;-0.037775;1.000000
445644.86030014;5696599.80269821;471.32474997;0.270588;0.258824;0.215686;16705.000000;1.000000;1.000000;1.000000;1.000000;0.027302;-0.027302;0.027302;1.000000
445644.93309982;5696599.63909729;471.34235003;0.670588;0.698039;0.713725;45232.000000;1.000000;1.000000;1.000000;1.000000;0.068777;-0.068777;0.068777;1.000000
445644.96140106;5696599.85420044;471.31594994;0.298039;0.333333;0.243137;20303.000000;1.000000;1.000000;1.000000;1.000000;-0.024222;0.024222;-0.024222;1.000000
445645.08970078;5696599.42189987;471.30725004;0.423529;0.431373;0.403922;27756.000000;1.000000;1.000000;1.000000;1.000000;0.091900;-0.091900;0.091900;1.000000
445645.19490250;5696599.61339767;471.28865005;0.423529;0.501961;0.372549;30326.000000;1.000000;1.000000;1.000000;1.000000;-0.193026;0.193026;-0.193026;1.000000
445644.90369995;5696599.45260056;471.34814980;0.654902;0.67451;0.658824;43690.000000;1.000000;1.000000;1.000000;1.000000;0.106328;-0.106328;0.106328;1.000000
445645.08570297;5696599.57209976;471.29254963;0.25098;0.305882;0.203922;17990.000000;1.000000;1.000000;1.000000;1.000000;-0.083826;0.083826;-0.083826;1.000000
445645.13350113;5696599.50239761;471.27994968;0.52549;0.568627;0.423529;35209.000000;1.000000;1.000000;1.000000;1.000000;-0.131624;0.131624;-0.131624;1.000000
445644.95280273;5696599.41340073;471.31965019;0.494118;0.513725;0.513725;33153.000000;1.000000;1.000000;1.000000;1.000000;0.084474;-0.084474;0.084474;1.000000
445645.06420334;5696599.38509949;471.27775003;0.341176;0.337255;0.333333;22102.000000;1.000000;1.000000;1.000000;1.000000;0.055099;-0.055099;0.055099;1.000000
445644.93650253;5696599.56450089;471.31834986;0.686275;0.694118;0.698039;45232.000000;1.000000;1.000000;1.000000;1.000000;0.065374;-0.065374;0.065374;1.000000
445644.94560059;5696599.30459793;471.30404999;0.607843;0.607843;0.6;39578.000000;1.000000;1.000000;1.000000;1.000000;-0.026153;0.026153;-0.026153;1.000000
445644.88620193;5696599.85169800;471.31944992;0.513725;0.505882;0.454902;32896.000000;1.000000;1.000000;1.000000;1.000000;-0.021698;0.021698;-0.021698;1.000000
445645.03540237;5696599.42889984;471.33515026;0.45098;0.470588;0.447059;30069.000000;1.000000;1.000000;1.000000;1.000000;-0.072945;0.072945;-0.072945;1.000000
445644.88970001;5696599.81410034;471.31914999;0.639216;0.635294;0.588235;41120.000000;1.000000;1.000000;1.000000;1.000000;0.015900;-0.015900;0.015900;1.000000
445645.10990341;5696599.60939987;471.29874994;0.227451;0.298039;0.203922;17219.000000;1.000000;1.000000;1.000000;1.000000;-0.108027;0.108027;-0.108027;1.000000
445644.95870026;5696599.68810089;471.34415009;0.47451;0.505882;0.513725;32382.000000;1.000000;1.000000;1.000000;1.000000;0.043177;0.043177;-0.043177;1.000000
445644.89130219;5696599.70419891;471.31565001;0.792157;0.8;0.776471;51914.000000;1.000000;1.000000;1.000000;1.000000;0.110575;0.110575;-0.110575;1.000000
445644.92870148;5696599.70529755;471.31734993;0.333333;0.352941;0.345098;22616.000000;1.000000;1.000000;1.000000;1.000000;0.073175;0.073175;-0.073175;1.000000
445644.88530167;5696599.43309982;471.35405018;0.752941;0.764706;0.752941;49601.000000;1.000000;1.000000;1.000000;1.000000;0.103115;-0.103115;0.103115;1.000000
445645.09790237;5696599.86939819;471.32694962;0.419608;0.501961;0.376471;30326.000000;1.000000;1.000000;1.000000;1.000000;0.075816;-0.075816;0.075816;1.000000
445645.09679993;5696599.28389938;471.27794983;0.396078;0.411765;0.403922;26471.000000;1.000000;1.000000;1.000000;1.000000;0.046101;-0.046101;0.046101;1.000000
445644.95480164;5696599.78919800;471.32644989;0.521569;0.541176;0.513725;34695.000000;1.000000;1.000000;1.000000;1.000000;0.040802;-0.040802;0.040802;1.000000
445645.07140167;5696599.64349945;471.29044964;0.152941;0.203922;0.152941;11822.000000;1.000000;1.000000;1.000000;1.000000;-0.069525;0.069525;-0.069525;1.000000
445644.92020233;5696599.48889740;471.31675007;0.631373;0.627451;0.631373;41120.000000;1.000000;1.000000;1.000000;1.000000;0.081838;-0.081838;0.081838;1.000000
445644.81330307;5696599.41189774;471.35055019;0.815686;0.85098;0.819608;54741.000000;1.000000;1.000000;1.000000;1.000000;0.081898;-0.081898;0.081898;1.000000
445645.00140198;5696599.56830032;471.28634979;0.662745;0.662745;0.670588;43433.000000;1.000000;1.000000;1.000000;1.000000;0.000475;-0.000475;0.000475;1.000000
445644.95510300;5696599.77039917;471.33325006;0.556863;0.568627;0.552941;36751.000000;1.000000;1.000000;1.000000;1.000000;0.046774;0.046774;-0.046774;1.000000
445645.15060242;5696599.53809937;471.28574993;0.396078;0.462745;0.341176;28013.000000;1.000000;1.000000;1.000000;1.000000;-0.148726;0.148726;-0.148726;1.000000
445645.04460342;5696599.42349823;471.32624962;0.333333;0.337255;0.321569;21845.000000;1.000000;1.000000;1.000000;1.000000;-0.082319;0.082319;-0.082319;1.000000
445645.11850174;5696599.42189987;471.28994991;0.470588;0.466667;0.435294;30326.000000;1.000000;1.000000;1.000000;1.000000;0.091900;-0.091900;0.091900;1.000000
445644.93980225;5696599.54559906;471.31125023;0.631373;0.639216;0.643137;41634.000000;1.000000;1.000000;1.000000;1.000000;0.062075;-0.062075;0.062075;1.000000
445644.92880066;5696599.45770081;471.32134964;0.682353;0.694118;0.690196;44975.000000;1.000000;1.000000;1.000000;1.000000;0.081580;-0.081580;0.081580;1.000000
445644.91610153;5696599.39579971;471.31775000;0.180392;0.192157;0.203922;12336.000000;1.000000;1.000000;1.000000;1.000000;0.065839;-0.065839;0.065839;1.000000
445644.91730316;5696599.35840042;471.31734993;0.262745;0.278431;0.294118;17990.000000;1.000000;1.000000;1.000000;1.000000;0.028421;-0.028421;0.028421;1.000000
445644.90410049;5696599.43149765;471.34784986;0.698039;0.721569;0.701961;46517.000000;1.000000;1.000000;1.000000;1.000000;0.101498;-0.101498;0.101498;1.000000
445644.90860184;5696599.34049805;471.31904985;0.745098;0.764706;0.760784;49601.000000;1.000000;1.000000;1.000000;1.000000;0.010509;-0.010509;0.010509;1.000000
445644.93610199;5696599.77960022;471.30695011;0.364706;0.368627;0.32549;23644.000000;1.000000;1.000000;1.000000;1.000000;0.050506;-0.050506;0.050506;1.000000
445644.94180115;5696599.43269928;471.34495022;0.705882;0.721569;0.717647;46774.000000;1.000000;1.000000;1.000000;1.000000;0.085466;-0.085466;0.085466;1.000000
445645.00860031;5696599.74659927;471.34235003;0.447059;0.498039;0.466667;31354.000000;1.000000;1.000000;1.000000;1.000000;-0.006723;0.006723;-0.006723;1.000000
445645.08990295;5696599.67420013;471.30795004;0.470588;0.533333;0.482353;33153.000000;1.000000;1.000000;1.000000;1.000000;-0.088026;0.088026;-0.088026;1.000000
445645.03930099;5696599.34530075;471.28074982;0.298039;0.294118;0.290196;19275.000000;1.000000;1.000000;1.000000;1.000000;-0.015301;0.015301;-0.015301;1.000000
445645.04050262;5696599.31009872;471.28504993;0.137255;0.137255;0.137255;8995.000000;1.000000;1.000000;1.000000;1.000000;0.019901;-0.019901;0.019901;1.000000
445645.06320007;5696599.41269882;471.30594971;0.333333;0.329412;0.321569;21588.000000;1.000000;1.000000;1.000000;1.000000;0.082699;-0.082699;0.082699;1.000000
445644.93570145;5696599.55520065;471.31815006;0.741176;0.752941;0.760784;49087.000000;1.000000;1.000000;1.000000;1.000000;0.066175;-0.066175;0.066175;1.000000
445644.91000183;5696599.30299957;471.31405022;0.658824;0.678431;0.658824;43690.000000;1.000000;1.000000;1.000000;1.000000;-0.027065;0.027065;-0.027065;1.000000
445645.03040131;5696599.32739838;471.28484966;0.192157;0.192157;0.188235;12336.000000;1.000000;1.000000;1.000000;1.000000;-0.002602;0.002602;-0.002602;1.000000
445644.99570282;5696599.70579727;471.33664991;0.360784;0.411765;0.368627;25443.000000;1.000000;1.000000;1.000000;1.000000;0.006174;-0.006174;0.006174;1.000000
445644.79520233;5696599.39029892;471.34485008;0.498039;0.541176;0.486275;34181.000000;1.000000;1.000000;1.000000;1.000000;0.060299;-0.060299;0.060299;1.000000
445644.81530197;5696599.75519760;471.34305002;0.72549;0.741176;0.698039;47802.000000;1.000000;1.000000;1.000000;1.000000;0.074802;-0.074802;0.074802;1.000000
445644.90490158;5696599.44299896;471.35504963;0.886275;0.901961;0.890196;58596.000000;1.000000;1.000000;1.000000;1.000000;0.109240;-0.109240;0.109240;1.000000
445645.00670059;5696599.42219742;471.33375027;0.505882;0.517647;0.517647;33667.000000;1.000000;1.000000;1.000000;1.000000;-0.071676;0.071676;-0.071676;1.000000
445644.95450027;5696599.76119812;471.32844975;0.478431;0.494118;0.478431;31868.000000;1.000000;1.000000;1.000000;1.000000;0.047377;0.047377;-0.047377;1.000000
445644.94009979;5696599.44439896;471.35434963;0.901961;0.917647;0.905882;59624.000000;1.000000;1.000000;1.000000;1.000000;0.078791;-0.078791;0.078791;1.000000
445644.97750290;5696599.44560059;471.35605003;0.858824;0.87451;0.866667;56797.000000;1.000000;1.000000;1.000000;1.000000;0.053539;-0.053539;0.053539;1.000000
445645.11820038;5696599.42180069;471.29684975;0.615686;0.619608;0.588235;40092.000000;1.000000;1.000000;1.000000;1.000000;0.091801;-0.091801;0.091801;1.000000
445644.86200150;5696599.34699829;471.32865002;0.509804;0.533333;0.533333;34438.000000;1.000000;1.000000;1.000000;1.000000;0.016998;-0.016998;0.016998;1.000000
445645.01070221;5696599.31749924;471.28615000;0.309804;0.305882;0.298039;20046.000000;1.000000;1.000000;1.000000;1.000000;0.012501;-0.012501;0.012501;1.000000
445645.00650223;5696599.66079910;471.31565001;0.27451;0.317647;0.262745;19532.000000;1.000000;1.000000;1.000000;1.000000;-0.004625;0.004625;-0.004625;1.000000
445645.14760025;5696599.44899948;471.32414963;0.6;0.619608;0.592157;39835.000000;1.000000;1.000000;1.000000;1.000000;0.120790;-0.120790;0.120790;1.000000
445644.94950302;5696599.66559799;471.34574987;0.670588;0.682353;0.686275;44461.000000;1.000000;1.000000;1.000000;1.000000;0.052374;-0.052374;0.052374;1.000000
445645.05940063;5696599.72820099;471.31885006;0.478431;0.537255;0.490196;33667.000000;1.000000;1.000000;1.000000;1.000000;-0.057524;0.057524;-0.057524;1.000000
445644.97290237;5696599.56619843;471.29204990;0.584314;0.584314;0.6;38293.000000;1.000000;1.000000;1.000000;1.000000;0.028975;-0.028975;0.028975;1.000000
445644.87610062;5696599.89699753;471.32655003;0.596078;0.560784;0.505882;37008.000000;1.000000;1.000000;1.000000;1.000000;-0.067002;0.067002;-0.067002;1.000000
445644.91740234;5696599.50789841;471.31444981;0.423529;0.423529;0.427451;27756.000000;1.000000;1.000000;1.000000;1.000000;0.084475;-0.084475;0.084475;1.000000
445645.14190109;5696599.51799973;471.28044989;0.435294;0.498039;0.368627;30326.000000;1.000000;1.000000;1.000000;1.000000;-0.140024;0.140024;-0.140024;1.000000
445644.99590118;5696599.47479828;471.31994965;0.321569;0.34902;0.341176;22102.000000;1.000000;1.000000;1.000000;1.000000;0.020107;-0.020107;0.020107;1.000000
445645.10810287;5696599.48139771;471.28084995;0.341176;0.384314;0.286275;23387.000000;1.000000;1.000000;1.000000;1.000000;-0.107066;0.107066;-0.107066;1.000000
445644.96130188;5696599.40109833;471.31285002;0.537255;0.54902;0.568627;35723.000000;1.000000;1.000000;1.000000;1.000000;0.073622;-0.073622;0.073622;1.000000
445645.01200302;5696599.78140076;471.33834984;0.345098;0.376471;0.372549;23901.000000;1.000000;1.000000;1.000000;1.000000;-0.010126;0.010126;-0.010126;1.000000
445644.99780090;5696599.87399872;471.32714989;0.811765;0.835294;0.796078;53970.000000;1.000000;1.000000;1.000000;1.000000;-0.044187;0.044187;-0.044187;1.000000
445644.87740143;5696599.85949905;471.32385017;0.521569;0.505882;0.454902;32896.000000;1.000000;1.000000;1.000000;1.000000;-0.029499;0.029499;-0.029499;1.000000
445645.04350098;5696599.64380081;471.28684999;0.486275;0.521569;0.486275;33153.000000;1.000000;1.000000;1.000000;1.000000;-0.041624;0.041624;-0.041624;1.000000
445644.96400269;5696599.79059799;471.33395006;0.67451;0.694118;0.666667;44718.000000;1.000000;1.000000;1.000000;1.000000;0.037874;0.037874;-0.037874;1.000000
445644.91310318;5696599.88899811;471.31885006;0.380392;0.376471;0.32549;24158.000000;1.000000;1.000000;1.000000;1.000000;-0.058998;0.058998;-0.058998;1.000000
445644.99900253;5696599.59409912;471.29124977;0.192157;0.192157;0.203922;12593.000000;1.000000;1.000000;1.000000;1.000000;0.002874;-0.002874;0.002874;1.000000
445645.18600281;5696599.56749924;471.28774979;0.615686;0.690196;0.572549;42919.000000;1.000000;1.000000;1.000000;1.000000;-0.184126;0.184126;-0.184126;1.000000
445644.94490250;5696599.79519852;471.30044987;0.611765;0.611765;0.564706;39578.000000;1.000000;1.000000;1.000000;1.000000;0.034801;-0.034801;0.034801;1.000000
445645.08060272;5696599.64489944;471.29785015;0.184314;0.239216;0.184314;14135.000000;1.000000;1.000000;1.000000;1.000000;-0.078726;0.078726;-0.078726;1.000000
445645.14930161;5696599.78769882;471.31434967;0.470588;0.545098;0.403922;33153.000000;1.000000;1.000000;1.000000;1.000000;-0.123636;0.123636;-0.123636;1.000000
445644.89700134;5696599.60050018;471.33795025;0.705882;0.721569;0.717647;46774.000000;1.000000;1.000000;1.000000;1.000000;0.104876;-0.104876;0.104876;1.000000
445644.84830292;5696599.67299850;471.32264997;0.396078;0.392157;0.384314;25700.000000;1.000000;1.000000;1.000000;1.000000;0.153574;0.153574;-0.153574;1.000000
445645.04820068;5696599.56859787;471.28615000;0.196078;0.207843;0.180392;13107.000000;1.000000;1.000000;1.000000;1.000000;-0.046324;0.046324;-0.046324;1.000000
445644.89280136;5696599.44169815;471.36144974;0.952941;0.964706;0.956863;62708.000000;1.000000;1.000000;1.000000;1.000000;0.111698;-0.111698;0.111698;1.000000
445645.18940170;5696599.52070053;471.27105000;0.454902;0.458824;0.388235;29298.000000;1.000000;1.000000;1.000000;1.000000;-0.187525;0.187525;-0.187525;1.000000
445644.96690186;5696599.70590027;471.35405018;0.694118;0.733333;0.729412;47031.000000;1.000000;1.000000;1.000000;1.000000;0.034975;0.034975;-0.034975;1.000000
445645.11639984;5696599.71129807;471.31425001;0.294118;0.333333;0.321569;20817.000000;1.000000;1.000000;1.000000;1.000000;-0.114523;0.114523;-0.114523;1.000000
445645.05020340;5696599.70120056;471.31115009;0.188235;0.282353;0.207843;15934.000000;1.000000;1.000000;1.000000;1.000000;-0.048326;0.048326;-0.048326;1.000000
445644.83510025;5696599.73710068;471.33445026;0.85098;0.866667;0.831373;56026.000000;1.000000;1.000000;1.000000;1.000000;0.093429;-0.093429;0.093429;1.000000
445645.05090149;5696599.48609741;471.31554987;0.290196;0.321569;0.258824;19789.000000;1.000000;1.000000;1.000000;1.000000;-0.049671;0.049671;-0.049671;1.000000
445644.99570282;5696599.46259888;471.35244991;0.780392;0.788235;0.788235;51400.000000;1.000000;1.000000;1.000000;1.000000;0.031360;-0.031360;0.031360;1.000000
445645.01740082;5696599.44660004;471.35554983;0.839216;0.854902;0.839216;55512.000000;1.000000;1.000000;1.000000;1.000000;-0.049193;0.049193;-0.049193;1.000000
445645.18110092;5696599.50969894;471.27745010;0.427451;0.431373;0.352941;27499.000000;1.000000;1.000000;1.000000;1.000000;-0.179224;0.179224;-0.179224;1.000000
445644.86170013;5696599.79319962;471.32694962;0.227451;0.219608;0.172549;14135.000000;1.000000;1.000000;1.000000;1.000000;0.036800;-0.036800;0.036800;1.000000
445644.93940170;5696599.47519882;471.32904961;0.607843;0.631373;0.627451;40863.000000;1.000000;1.000000;1.000000;1.000000;0.065190;-0.065190;0.065190;1.000000
445645.03460129;5696599.86590012;471.32404997;0.145098;0.188235;0.152941;11051.000000;1.000000;1.000000;1.000000;1.000000;0.035930;-0.035930;0.035930;1.000000
445645.10850342;5696599.42259796;471.30574991;0.341176;0.337255;0.313725;21845.000000;1.000000;1.000000;1.000000;1.000000;-0.092598;0.092598;-0.092598;1.000000
445644.85610016;5696599.44969757;471.36224987;0.898039;0.905882;0.894118;59110.000000;1.000000;1.000000;1.000000;1.000000;0.119698;-0.119698;0.119698;1.000000
445645.07349976;5696599.83189972;471.32534983;0.239216;0.290196;0.231373;17476.000000;1.000000;1.000000;1.000000;1.000000;0.040418;-0.040418;0.040418;1.000000
445644.90590103;5696599.86160095;471.31815006;0.505882;0.501961;0.443137;32382.000000;1.000000;1.000000;1.000000;1.000000;-0.031679;0.031679;-0.031679;1.000000
445644.94000061;5696599.65959747;471.33594992;0.533333;0.54902;0.545098;35466.000000;1.000000;1.000000;1.000000;1.000000;0.061876;-0.061876;0.061876;1.000000
445644.93100174;5696599.46419724;471.33785011;0.658824;0.67451;0.666667;43690.000000;1.000000;1.000000;1.000000;1.000000;0.076746;-0.076746;0.076746;1.000000
445645.01570328;5696599.62520035;471.29464962;0.266667;0.278431;0.266667;17733.000000;1.000000;1.000000;1.000000;1.000000;-0.013826;0.013826;-0.013826;1.000000
445644.90480240;5696599.60909851;471.33834984;0.756863;0.772549;0.768627;50115.000000;1.000000;1.000000;1.000000;1.000000;0.097075;-0.097075;0.097075;1.000000
445645.02540024;5696599.86680038;471.32364990;0.290196;0.321569;0.290196;20046.000000;1.000000;1.000000;1.000000;1.000000;0.036800;-0.036800;0.036800;1.000000
445645.14910324;5696599.38899811;471.26994993;0.47451;0.458824;0.439216;30069.000000;1.000000;1.000000;1.000000;1.000000;0.063046;-0.063046;0.063046;1.000000
445644.92590149;5696599.82480057;471.31624987;0.345098;0.368627;0.294118;23130.000000;1.000000;1.000000;1.000000;1.000000;0.005199;-0.005199;0.005199;1.000000
445645.05860336;5696599.71899994;471.31635000;0.392157;0.466667;0.403922;28527.000000;1.000000;1.000000;1.000000;1.000000;-0.056726;0.056726;-0.056726;1.000000
445645.07489975;5696599.79450043;471.32035019;0.247059;0.278431;0.239216;17219.000000;1.000000;1.000000;1.000000;1.000000;-0.054820;0.054820;-0.054820;1.000000
445645.09970291;5696599.68250092;471.31545021;0.862745;0.913725;0.886275;58596.000000;1.000000;1.000000;1.000000;1.000000;-0.097826;0.097826;-0.097826;1.000000
445644.94540222;5696599.77869995;471.30734970;0.423529;0.427451;0.384314;27499.000000;1.000000;1.000000;1.000000;1.000000;0.051300;-0.051300;0.051300;1.000000
445645.02639969;5696599.82929810;471.32554962;0.827451;0.858824;0.843137;55512.000000;1.000000;1.000000;1.000000;1.000000;-0.000702;0.000702;-0.000702;1.000000
445644.91220291;5696599.87969788;471.31864979;0.411765;0.407843;0.352941;26214.000000;1.000000;1.000000;1.000000;1.000000;-0.049698;0.049698;-0.049698;1.000000
445645.11800201;5696599.41499908;471.28744986;0.380392;0.372549;0.34902;24158.000000;1.000000;1.000000;1.000000;1.000000;0.084999;-0.084999;0.084999;1.000000
445645.19330032;5696599.41969879;471.28624966;0.305882;0.286275;0.282353;19018.000000;1.000000;1.000000;1.000000;1.000000;0.111615;-0.111615;0.111615;1.000000
445644.98810013;5696599.78779800;471.36525013;0.768627;0.815686;0.807843;52428.000000;1.000000;1.000000;1.000000;1.000000;0.013777;-0.013777;0.013777;1.000000
445645.03090103;5696599.75409897;471.32955029;0.360784;0.403922;0.380392;25443.000000;1.000000;1.000000;1.000000;1.000000;-0.029024;0.029024;-0.029024;1.000000
445645.07520111;5696599.60809906;471.28784992;0.117647;0.156863;0.109804;8995.000000;1.000000;1.000000;1.000000;1.000000;-0.073324;0.073324;-0.073324;1.000000
445645.11600311;5696599.46129807;471.32525017;0.862745;0.878431;0.866667;57054.000000;1.000000;1.000000;1.000000;1.000000;-0.118688;0.118688;-0.118688;1.000000
445644.91820343;5696599.36759766;471.31745007;0.14902;0.160784;0.180392;10280.000000;1.000000;1.000000;1.000000;1.000000;0.037598;-0.037598;0.037598;1.000000
445645.13770111;5696599.87029846;471.32875015;0.227451;0.313725;0.168627;17733.000000;1.000000;1.000000;1.000000;1.000000;0.112070;-0.112070;0.112070;1.000000
445645.11260040;5696599.79579742;471.31504967;0.239216;0.294118;0.203922;17476.000000;1.000000;1.000000;1.000000;1.000000;-0.086521;0.086521;-0.086521;1.000000
445644.93720062;5696599.34259995;471.31104996;0.54902;0.560784;0.560784;36494.000000;1.000000;1.000000;1.000000;1.000000;0.012600;-0.012600;0.012600;1.000000
445644.99160202;5696599.77129944;471.35584976;0.635294;0.662745;0.631373;42662.000000;1.000000;1.000000;1.000000;1.000000;0.010275;-0.010275;0.010275;1.000000
445645.11140259;5696599.59989746;471.29874994;0.188235;0.266667;0.164706;15163.000000;1.000000;1.000000;1.000000;1.000000;-0.109526;0.109526;-0.109526;1.000000
445645.02729996;5696599.56830032;471.28284981;0.180392;0.184314;0.180392;11822.000000;1.000000;1.000000;1.000000;1.000000;-0.025423;0.025423;-0.025423;1.000000
445644.86960037;5696599.37669952;471.32474997;0.196078;0.207843;0.227451;13364.000000;1.000000;1.000000;1.000000;1.000000;0.046700;-0.046700;0.046700;1.000000
