//X;Y;Z;Rf;Gf;Bf;Intensity;Return Number;Number Of Returns;Scan Direction Flag;Point Source ID;C2M signed distances[-][<0.8];C2M signed distances[<0.4];C2M signed distances[-][<0.2];Stump11;Stump112
283
445625.13270195;5696599.91649826;472.72655012;0.870588;0.843137;0.819608;55512.000000;1.000000;1.000000;1.000000;1.000000;0.110228;-0.110228;0.110228;1.000000;1.000000
445625.04680069;5696599.97799881;472.73735001;0.984314;0.992157;0.988235;64764.000000;1.000000;1.000000;1.000000;1.000000;-0.147999;0.147999;-0.147999;1.000000;1.000000
445625.07080086;5696600.09089859;472.69784977;0.380392;0.352941;0.329412;23387.000000;1.000000;1.000000;1.000000;1.000000;-0.193923;0.193923;-0.193923;1.000000;1.000000
445625.04770096;5696600.17460068;472.70944979;0.701961;0.713725;0.607843;45746.000000;1.000000;1.000000;1.000000;1.000000;-0.170824;0.170824;-0.170824;1.000000;1.000000
445625.02050217;5696599.94999893;472.74274971;0.85098;0.854902;0.858824;55769.000000;1.000000;1.000000;1.000000;1.000000;-0.119999;0.119999;-0.119999;1.000000;1.000000
445625.08490189;5696599.93479736;472.73624994;0.556863;0.533333;0.533333;35209.000000;1.000000;1.000000;1.000000;1.000000;0.106788;-0.106788;0.106788;1.000000;1.000000
445625.07590111;5696600.14639862;472.69875004;0.329412;0.309804;0.239216;20046.000000;1.000000;1.000000;1.000000;1.000000;-0.199024;0.199024;-0.199024;1.000000;1.000000
445625.05780228;5696600.12710007;472.69764997;0.309804;0.298039;0.239216;19275.000000;1.000000;1.000000;1.000000;1.000000;-0.180925;0.180925;-0.180925;1.000000;1.000000
445625.04200180;5696600.04189880;472.71694996;0.215686;0.203922;0.211765;13621.000000;1.000000;1.000000;1.000000;1.000000;-0.165124;0.165124;-0.165124;1.000000;1.000000
445625.03750237;5696599.97889908;472.73694994;0.984314;0.992157;0.992157;64764.000000;1.000000;1.000000;1.000000;1.000000;-0.148899;0.148899;-0.148899;1.000000;1.000000
445625.03830154;5696600.14520081;472.70165016;0.27451;0.278431;0.196078;17476.000000;1.000000;1.000000;1.000000;1.000000;-0.161424;0.161424;-0.161424;1.000000;1.000000
445625.11230095;5696599.92529877;472.73035004;0.717647;0.690196;0.67451;45489.000000;1.000000;1.000000;1.000000;1.000000;0.106670;-0.106670;0.106670;1.000000;1.000000
445625.07670219;5696599.92379959;472.74034979;0.545098;0.529412;0.52549;34952.000000;1.000000;1.000000;1.000000;1.000000;0.094606;-0.094606;0.094606;1.000000;1.000000
445625.05920227;5696600.11759766;472.69764997;0.270588;0.254902;0.219608;16705.000000;1.000000;1.000000;1.000000;1.000000;-0.182325;0.182325;-0.182325;1.000000;1.000000
445625.06740196;5696600.12859924;472.69574978;0.313725;0.301961;0.243137;19532.000000;1.000000;1.000000;1.000000;1.000000;-0.190525;0.190525;-0.190525;1.000000;1.000000
445625.03920181;5696600.15679749;472.70414974;0.47451;0.486275;0.396078;30840.000000;1.000000;1.000000;1.000000;1.000000;-0.162324;0.162324;-0.162324;1.000000;1.000000
445625.05050095;5696600.09969910;472.69934990;0.231373;0.211765;0.188235;13878.000000;1.000000;1.000000;1.000000;1.000000;-0.173624;0.173624;-0.173624;1.000000;1.000000
445625.05490120;5696599.98900040;472.73544981;0.984314;0.992157;0.988235;64764.000000;1.000000;1.000000;1.000000;1.000000;-0.159000;0.159000;-0.159000;1.000000;1.000000
445625.05880173;5696600.13870056;472.70015003;0.282353;0.278431;0.215686;17733.000000;1.000000;1.000000;1.000000;1.000000;-0.181924;0.181924;-0.181924;1.000000;1.000000
445625.07320221;5696600.02720078;472.72044994;0.188235;0.196078;0.2;12593.000000;1.000000;1.000000;1.000000;1.000000;-0.196325;0.196325;-0.196325;1.000000;1.000000
445625.10430153;5696599.91670044;472.73455002;0.690196;0.662745;0.654902;43690.000000;1.000000;1.000000;1.000000;1.000000;0.095451;-0.095451;0.095451;1.000000;1.000000
445625.03930099;5696599.95059784;472.74364998;0.94902;0.956863;0.952941;62451.000000;1.000000;1.000000;1.000000;1.000000;-0.120598;0.120598;-0.120598;1.000000;1.000000
445625.07510193;5696600.19299896;472.71084978;0.419608;0.411765;0.290196;26214.000000;1.000000;1.000000;1.000000;1.000000;-0.198225;0.198225;-0.198225;1.000000;1.000000
445625.05130203;5696600.10899933;472.69945004;0.223529;0.203922;0.172549;13364.000000;1.000000;1.000000;1.000000;1.000000;-0.174425;0.174425;-0.174425;1.000000;1.000000
445625.04910095;5696599.93319901;472.74854996;0.772549;0.776471;0.772549;50629.000000;1.000000;1.000000;1.000000;1.000000;-0.103199;0.103199;-0.103199;1.000000;1.000000
445625.12270172;5696599.93609818;472.72865011;0.764706;0.741176;0.72549;48830.000000;1.000000;1.000000;1.000000;1.000000;0.121073;-0.121073;0.121073;1.000000;1.000000
445625.04780205;5696599.94269760;472.74624969;0.811765;0.815686;0.811765;53199.000000;1.000000;1.000000;1.000000;1.000000;-0.112698;0.112698;-0.112698;1.000000;1.000000
445625.06470116;5696600.18229874;472.71024992;0.364706;0.368627;0.254902;23130.000000;1.000000;1.000000;1.000000;1.000000;-0.187824;0.187824;-0.187824;1.000000;1.000000
445625.02590187;5696600.02449997;472.72524979;0.345098;0.34902;0.364706;22873.000000;1.000000;1.000000;1.000000;1.000000;-0.149024;0.149024;-0.149024;1.000000;1.000000
445625.05290230;5696600.03380020;472.71735003;0.235294;0.231373;0.247059;15163.000000;1.000000;1.000000;1.000000;1.000000;-0.176025;0.176025;-0.176025;1.000000;1.000000
445625.06650169;5696600.17519959;472.70795013;0.388235;0.384314;0.27451;24415.000000;1.000000;1.000000;1.000000;1.000000;-0.189624;0.189624;-0.189624;1.000000;1.000000
445625.03520210;5696600.02359970;472.72574999;0.321569;0.321569;0.341176;21074.000000;1.000000;1.000000;1.000000;1.000000;-0.158325;0.158325;-0.158325;1.000000;1.000000
445625.10390099;5696599.93540009;472.73005011;0.654902;0.635294;0.619608;41891.000000;1.000000;1.000000;1.000000;1.000000;0.112567;-0.112567;0.112567;1.000000;1.000000
445625.15150078;5696599.91710098;472.72504999;0.792157;0.756863;0.729412;49858.000000;1.000000;1.000000;1.000000;1.000000;0.123195;-0.123195;0.123195;1.000000;1.000000
445625.04620178;5696600.18409927;472.70944979;0.690196;0.701961;0.584314;44718.000000;1.000000;1.000000;1.000000;1.000000;-0.169324;0.169324;-0.169324;1.000000;1.000000
445625.06220062;5696600.05409821;472.70865013;0.34902;0.329412;0.321569;21845.000000;1.000000;1.000000;1.000000;1.000000;-0.185323;0.185323;-0.185323;1.000000;1.000000
445625.04690178;5696600.16539963;472.70694973;0.580392;0.592157;0.486275;37779.000000;1.000000;1.000000;1.000000;1.000000;-0.170024;0.170024;-0.170024;1.000000;1.000000
445625.05270203;5696600.05269821;472.70825006;0.305882;0.290196;0.286275;19275.000000;1.000000;1.000000;1.000000;1.000000;-0.175825;0.175825;-0.175825;1.000000;1.000000
445625.08630188;5696599.92529877;472.73614981;0.580392;0.556863;0.556863;36751.000000;1.000000;1.000000;1.000000;1.000000;0.097788;-0.097788;0.097788;1.000000;1.000000
445625.07510193;5696600.16509827;472.70354988;0.27451;0.25098;0.160784;16191.000000;1.000000;1.000000;1.000000;1.000000;-0.198225;0.198225;-0.198225;1.000000;1.000000
445625.03430183;5696600.03549774;472.71884968;0.145098;0.152941;0.168627;9766.000000;1.000000;1.000000;1.000000;1.000000;-0.157424;0.157424;-0.157424;1.000000;1.000000
445625.05710228;5696600.14579971;472.70015003;0.266667;0.266667;0.184314;16705.000000;1.000000;1.000000;1.000000;1.000000;-0.180225;0.180225;-0.180225;1.000000;1.000000
445625.02760132;5696599.99619873;472.73434975;0.960784;0.968627;0.972549;63222.000000;1.000000;1.000000;1.000000;1.000000;-0.150724;0.150724;-0.150724;1.000000;1.000000
445625.03370102;5696600.05200012;472.71434977;0.254902;0.231373;0.223529;15420.000000;1.000000;1.000000;1.000000;1.000000;-0.156824;0.156824;-0.156824;1.000000;1.000000
445625.05330093;5696600.01729782;472.72644999;0.392157;0.403922;0.411765;26214.000000;1.000000;1.000000;1.000000;1.000000;-0.176424;0.176424;-0.176424;1.000000;1.000000
445625.05420120;5696600.00539978;472.73334982;0.815686;0.823529;0.823529;53713.000000;1.000000;1.000000;1.000000;1.000000;-0.175400;0.175400;-0.175400;1.000000;1.000000
445625.05800064;5696600.15740021;472.70505001;0.431373;0.431373;0.337255;27499.000000;1.000000;1.000000;1.000000;1.000000;-0.181123;0.181123;-0.181123;1.000000;1.000000
445625.04770096;5696600.14669998;472.70214989;0.25098;0.258824;0.172549;15934.000000;1.000000;1.000000;1.000000;1.000000;-0.170824;0.170824;-0.170824;1.000000;1.000000
445625.04040154;5696600.11699875;472.69904997;0.180392;0.160784;0.121569;10537.000000;1.000000;1.000000;1.000000;1.000000;-0.163524;0.163524;-0.163524;1.000000;1.000000
445625.04580124;5696599.96869858;472.73955013;0.952941;0.956863;0.956863;62451.000000;1.000000;1.000000;1.000000;1.000000;-0.138699;0.138699;-0.138699;1.000000;1.000000
445625.05560120;5696599.99589737;472.73565008;0.964706;0.976471;0.972549;63479.000000;1.000000;1.000000;1.000000;1.000000;-0.165897;0.165897;-0.165897;1.000000;1.000000
445625.06810196;5696600.13780029;472.69824984;0.32549;0.313725;0.247059;20303.000000;1.000000;1.000000;1.000000;1.000000;-0.191225;0.191225;-0.191225;1.000000;1.000000
445625.05550201;5696600.18319901;472.70984985;0.509804;0.513725;0.4;32639.000000;1.000000;1.000000;1.000000;1.000000;-0.178625;0.178625;-0.178625;1.000000;1.000000
445625.06660088;5696600.14729889;472.70064976;0.317647;0.305882;0.231373;19532.000000;1.000000;1.000000;1.000000;1.000000;-0.189723;0.189723;-0.189723;1.000000;1.000000
445625.07150085;5696600.07440002;472.69994976;0.305882;0.278431;0.270588;18504.000000;1.000000;1.000000;1.000000;1.000000;-0.194623;0.194623;-0.194623;1.000000;1.000000
445625.07050140;5696600.06509979;472.70214989;0.254902;0.227451;0.223529;15163.000000;1.000000;1.000000;1.000000;1.000000;-0.193624;0.193624;-0.193624;1.000000;1.000000
445625.05700119;5696600.17370041;472.70755007;0.568627;0.572549;0.462745;36494.000000;1.000000;1.000000;1.000000;1.000000;-0.180124;0.180124;-0.180124;1.000000;1.000000
445625.02980240;5696599.94909866;472.74324991;0.945098;0.952941;0.952941;62194.000000;1.000000;1.000000;1.000000;1.000000;0.119099;-0.119099;0.119099;1.000000;1.000000
445625.07080086;5696600.04630096;472.70895006;0.376471;0.352941;0.356863;23387.000000;1.000000;1.000000;1.000000;1.000000;-0.193923;0.193923;-0.193923;1.000000;1.000000
445624.33430107;5696599.88130005;472.83675005;0.054902;0.0980392;0.0901961;5397.000000;1.000000;1.000000;1.000000;1.000000;-0.175253;0.175253;-0.175253;1.000000;1.000000
445624.34400185;5696599.86389740;472.84625008;0.235294;0.298039;0.254902;17733.000000;1.000000;1.000000;1.000000;1.000000;-0.161474;0.161474;-0.161474;1.000000;1.000000
445624.31690224;5696599.89010056;472.82674982;0.109804;0.145098;0.141176;8738.000000;1.000000;1.000000;1.000000;1.000000;-0.194494;0.194494;-0.194494;1.000000;1.000000
445624.39500244;5696599.97929962;472.78244974;0.0901961;0.137255;0.141176;7967.000000;1.000000;1.000000;1.000000;1.000000;-0.138125;0.138125;-0.138125;1.000000;1.000000
445624.39790161;5696599.90369995;472.82124998;0.0941176;0.164706;0.133333;8995.000000;1.000000;1.000000;1.000000;1.000000;-0.127447;0.127447;-0.127447;1.000000;1.000000
445624.37890060;5696599.92189987;472.81365015;0.0705882;0.137255;0.109804;7453.000000;1.000000;1.000000;1.000000;1.000000;-0.153522;0.153522;-0.153522;1.000000;1.000000
445624.38030251;5696599.89359863;472.82735016;0.133333;0.211765;0.160784;11822.000000;1.000000;1.000000;1.000000;1.000000;-0.137205;0.137205;-0.137205;1.000000;1.000000
445624.38950165;5696599.89269836;472.82774975;0.109804;0.188235;0.141176;10280.000000;1.000000;1.000000;1.000000;1.000000;-0.128683;0.128683;-0.128683;1.000000;1.000000
445624.39100082;5696599.83869751;472.83874990;0.0862745;0.137255;0.101961;7710.000000;1.000000;1.000000;1.000000;1.000000;-0.111217;0.111217;-0.111217;1.000000;1.000000
445624.39720161;5696599.94129761;472.81005003;0.129412;0.203922;0.14902;11308.000000;1.000000;1.000000;1.000000;1.000000;-0.135926;0.135926;-0.135926;1.000000;1.000000
445624.40860184;5696599.89559753;472.82625010;0.101961;0.176471;0.137255;9766.000000;1.000000;1.000000;1.000000;1.000000;-0.114032;0.114032;-0.114032;1.000000;1.000000
445624.34120186;5696599.92069824;472.81654980;0.109804;0.160784;0.145098;9252.000000;1.000000;1.000000;1.000000;1.000000;-0.184507;0.184507;-0.184507;1.000000;1.000000
445624.33850105;5696599.97519882;472.78214981;0.129412;0.160784;0.176471;10023.000000;1.000000;1.000000;1.000000;1.000000;-0.194626;0.194626;-0.194626;1.000000;1.000000
445624.34070213;5696599.95609863;472.79834988;0.117647;0.152941;0.14902;9252.000000;1.000000;1.000000;1.000000;1.000000;-0.192425;0.192425;-0.192425;1.000000;1.000000
445624.35020073;5696599.93869980;472.81014969;0.145098;0.196078;0.180392;11565.000000;1.000000;1.000000;1.000000;1.000000;-0.182927;0.182927;-0.182927;1.000000;1.000000
445624.38760193;5696599.93979843;472.81194975;0.133333;0.2;0.152941;11308.000000;1.000000;1.000000;1.000000;1.000000;-0.145525;0.145525;-0.145525;1.000000;1.000000
445624.35110100;5696599.86559875;472.84665014;0.243137;0.309804;0.270588;18504.000000;1.000000;1.000000;1.000000;1.000000;-0.154922;0.154922;-0.154922;1.000000;1.000000
445624.38250168;5696599.84869965;472.84084990;0.14902;0.211765;0.176471;12336.000000;1.000000;1.000000;1.000000;1.000000;-0.120831;0.120831;-0.120831;1.000000;1.000000
445624.37900169;5696599.90310104;472.82275011;0.0627451;0.12549;0.0980392;6682.000000;1.000000;1.000000;1.000000;1.000000;-0.142976;0.142976;-0.142976;1.000000;1.000000
445624.35850151;5696599.96859940;472.79225018;0.152941;0.192157;0.192157;11822.000000;1.000000;1.000000;1.000000;1.000000;-0.174626;0.174626;-0.174626;1.000000;1.000000
445624.36150177;5696599.89290054;472.82875015;0.054902;0.109804;0.0980392;5911.000000;1.000000;1.000000;1.000000;1.000000;-0.153824;0.153824;-0.153824;1.000000;1.000000
445624.32470139;5696599.85639771;472.84305002;0.180392;0.215686;0.207843;13364.000000;1.000000;1.000000;1.000000;1.000000;-0.179132;0.179132;-0.179132;1.000000;1.000000
445624.40410240;5696599.95949753;472.79894974;0.196078;0.266667;0.231373;15677.000000;1.000000;1.000000;1.000000;1.000000;-0.129025;0.129025;-0.129025;1.000000;1.000000
445624.37970169;5696599.86770065;472.83864977;0.133333;0.2;0.168627;11565.000000;1.000000;1.000000;1.000000;1.000000;-0.127860;0.127860;-0.127860;1.000000;1.000000
445624.36640175;5696599.95829971;472.80184986;0.164706;0.211765;0.203922;12850.000000;1.000000;1.000000;1.000000;1.000000;-0.166726;0.166726;-0.166726;1.000000;1.000000
445624.33300217;5696599.90970047;472.82074978;0.0980392;0.137255;0.133333;7967.000000;1.000000;1.000000;1.000000;1.000000;-0.186738;0.186738;-0.186738;1.000000;1.000000
445624.31680115;5696599.84549912;472.84014990;0.2;0.231373;0.215686;14392.000000;1.000000;1.000000;1.000000;1.000000;-0.185724;0.185724;-0.185724;1.000000;1.000000
445624.37220200;5696599.83799942;472.84025003;0.14902;0.2;0.164706;11822.000000;1.000000;1.000000;1.000000;1.000000;-0.129922;0.129922;-0.129922;1.000000;1.000000
445624.32200249;5696599.89430054;472.82464983;0.0588235;0.0980392;0.105882;5654.000000;1.000000;1.000000;1.000000;1.000000;-0.191022;0.191022;-0.191022;1.000000;1.000000
445624.33530243;5696599.84599884;472.84564974;0.152941;0.2;0.196078;12079.000000;1.000000;1.000000;1.000000;1.000000;-0.167342;0.167342;-0.167342;1.000000;1.000000
445624.40430077;5696599.94069870;472.80804970;0.137255;0.211765;0.160784;11822.000000;1.000000;1.000000;1.000000;1.000000;-0.128827;0.128827;-0.128827;1.000000;1.000000
445624.37050064;5696599.91089828;472.82014992;0.0627451;0.121569;0.0941176;6425.000000;1.000000;1.000000;1.000000;1.000000;-0.154287;0.154287;-0.154287;1.000000;1.000000
445624.38530167;5696599.95889862;472.80034973;0.137255;0.192157;0.176471;11308.000000;1.000000;1.000000;1.000000;1.000000;-0.147826;0.147826;-0.147826;1.000000;1.000000
445624.32410248;5696599.87290009;472.83855011;0.0823529;0.121569;0.109804;6939.000000;1.000000;1.000000;1.000000;1.000000;-0.182878;0.182878;-0.182878;1.000000;1.000000
445624.36260231;5696599.83659943;472.84214975;0.156863;0.203922;0.172549;12079.000000;1.000000;1.000000;1.000000;1.000000;-0.139431;0.139431;-0.139431;1.000000;1.000000
445624.34820183;5696599.96010025;472.79404976;0.0980392;0.141176;0.14902;8224.000000;1.000000;1.000000;1.000000;1.000000;-0.184926;0.184926;-0.184926;1.000000;1.000000
445624.34770210;5696599.95770081;472.80095007;0.156863;0.196078;0.192157;11822.000000;1.000000;1.000000;1.000000;1.000000;-0.185425;0.185425;-0.185425;1.000000;1.000000
445624.35680206;5696599.97349747;472.78765013;0.196078;0.231373;0.223529;14392.000000;1.000000;1.000000;1.000000;1.000000;-0.176325;0.176325;-0.176325;1.000000;1.000000
445624.33220108;5696599.90279968;472.82294991;0.0705882;0.113725;0.117647;6425.000000;1.000000;1.000000;1.000000;1.000000;-0.184634;0.184634;-0.184634;1.000000;1.000000
445624.40580185;5696599.97130020;472.78515007;0.105882;0.160784;0.160784;9252.000000;1.000000;1.000000;1.000000;1.000000;-0.127326;0.127326;-0.127326;1.000000;1.000000
445624.36010178;5696599.90239914;472.82655003;0.0588235;0.109804;0.0941176;5911.000000;1.000000;1.000000;1.000000;1.000000;-0.159192;0.159192;-0.159192;1.000000;1.000000
445624.38290222;5696599.79299744;472.81925013;0.133333;0.14902;0.12549;9252.000000;1.000000;1.000000;1.000000;1.000000;0.124596;-0.124596;0.124596;1.000000;1.000000
445624.33400162;5696599.89789780;472.82525017;0.0666667;0.109804;0.109804;6168.000000;1.000000;1.000000;1.000000;1.000000;-0.181087;0.181087;-0.181087;1.000000;1.000000
445624.35070236;5696599.88209732;472.83745005;0.0941176;0.152941;0.137255;8738.000000;1.000000;1.000000;1.000000;1.000000;-0.159900;0.159900;-0.159900;1.000000;1.000000
445624.38090141;5696599.83029755;472.83824970;0.101961;0.145098;0.109804;8224.000000;1.000000;1.000000;1.000000;1.000000;-0.120976;0.120976;-0.120976;1.000000;1.000000
445624.38240250;5696599.81849869;472.83355000;0.121569;0.156863;0.109804;8995.000000;1.000000;1.000000;1.000000;1.000000;0.120027;-0.120027;0.120027;1.000000;1.000000
445624.31600197;5696599.83629807;472.83774998;0.176471;0.2;0.192157;12336.000000;1.000000;1.000000;1.000000;1.000000;-0.185982;0.185982;-0.185982;1.000000;1.000000
445624.35550125;5696599.83489807;472.84184982;0.160784;0.207843;0.180392;12336.000000;1.000000;1.000000;1.000000;1.000000;-0.146458;0.146458;-0.146458;1.000000;1.000000
445624.37650116;5696599.96449860;472.79775002;0.25098;0.290196;0.27451;17990.000000;1.000000;1.000000;1.000000;1.000000;-0.156626;0.156626;-0.156626;1.000000;1.000000
445624.30830200;5696599.85339935;472.83754971;0.227451;0.25098;0.247059;15934.000000;1.000000;1.000000;1.000000;1.000000;-0.194985;0.194985;-0.194985;1.000000;1.000000
445624.38860138;5696599.90460022;472.82084991;0.0705882;0.137255;0.101961;7196.000000;1.000000;1.000000;1.000000;1.000000;-0.135634;0.135634;-0.135634;1.000000;1.000000
445624.40580185;5696599.91229828;472.81934978;0.14902;0.231373;0.176471;13107.000000;1.000000;1.000000;1.000000;1.000000;-0.126505;0.126505;-0.126505;1.000000;1.000000
445624.34260185;5696599.89229782;472.83024981;0.0431373;0.0941176;0.0901961;4883.000000;1.000000;1.000000;1.000000;1.000000;-0.171025;0.171025;-0.171025;1.000000;1.000000
445624.33050163;5696599.92880066;472.81154968;0.145098;0.196078;0.176471;11565.000000;1.000000;1.000000;1.000000;1.000000;-0.197816;0.197816;-0.197816;1.000000;1.000000
445624.30670174;5696599.83489807;472.83494999;0.227451;0.243137;0.227451;15420.000000;1.000000;1.000000;1.000000;1.000000;-0.195237;0.195237;-0.195237;1.000000;1.000000
445624.32280167;5696599.90130051;472.82245018;0.0823529;0.121569;0.12549;7196.000000;1.000000;1.000000;1.000000;1.000000;-0.192748;0.192748;-0.192748;1.000000;1.000000
445624.34390076;5696599.83600052;472.84124996;0.168627;0.215686;0.192157;12850.000000;1.000000;1.000000;1.000000;1.000000;-0.158091;0.158091;-0.158091;1.000000;1.000000
445624.36820229;5696599.93229874;472.81325008;0.121569;0.188235;0.156863;10794.000000;1.000000;1.000000;1.000000;1.000000;-0.164925;0.164925;-0.164925;1.000000;1.000000
445624.40580185;5696599.93350037;472.81034996;0.121569;0.196078;0.156863;11051.000000;1.000000;1.000000;1.000000;1.000000;-0.127326;0.127326;-0.127326;1.000000;1.000000
445624.34120186;5696599.89949997;472.82564976;0.0745098;0.121569;0.101961;6682.000000;1.000000;1.000000;1.000000;1.000000;-0.175062;0.175062;-0.175062;1.000000;1.000000
445624.38630112;5696599.94930084;472.80964996;0.121569;0.188235;0.145098;10537.000000;1.000000;1.000000;1.000000;1.000000;-0.146826;0.146826;-0.146826;1.000000;1.000000
445624.39130219;5696599.86669739;472.83914997;0.137255;0.207843;0.168627;11822.000000;1.000000;1.000000;1.000000;1.000000;-0.116506;0.116506;-0.116506;1.000000;1.000000
445624.34890182;5696599.94819839;472.80555012;0.188235;0.231373;0.219608;14135.000000;1.000000;1.000000;1.000000;1.000000;-0.184226;0.184226;-0.184226;1.000000;1.000000
445624.39760216;5696599.92249878;472.81444981;0.101961;0.168627;0.137255;9509.000000;1.000000;1.000000;1.000000;1.000000;-0.135525;0.135525;-0.135525;1.000000;1.000000
445624.34090240;5696599.93950089;472.80975010;0.168627;0.215686;0.192157;12850.000000;1.000000;1.000000;1.000000;1.000000;-0.192225;0.192225;-0.192225;1.000000;1.000000
445624.37840088;5696599.94069870;472.81145002;0.152941;0.219608;0.180392;12593.000000;1.000000;1.000000;1.000000;1.000000;-0.154727;0.154727;-0.154727;1.000000;1.000000
445624.34170158;5696599.94650085;472.80754997;0.14902;0.188235;0.176471;11308.000000;1.000000;1.000000;1.000000;1.000000;-0.191426;0.191426;-0.191426;1.000000;1.000000
445624.37680061;5696599.94790085;472.80914976;0.176471;0.239216;0.196078;13878.000000;1.000000;1.000000;1.000000;1.000000;-0.156327;0.156327;-0.156327;1.000000;1.000000
445624.41360100;5696599.93989761;472.80604984;0.152941;0.235294;0.180392;13364.000000;1.000000;1.000000;1.000000;1.000000;-0.119526;0.119526;-0.119526;1.000000;1.000000
445624.32570084;5696599.86569794;472.84084990;0.117647;0.156863;0.14902;9252.000000;1.000000;1.000000;1.000000;1.000000;-0.179757;0.179757;-0.179757;1.000000;1.000000
445624.36310204;5696599.86689957;472.84254982;0.152941;0.219608;0.188235;12850.000000;1.000000;1.000000;1.000000;1.000000;-0.143597;0.143597;-0.143597;1.000000;1.000000
445624.35740097;5696599.97809799;472.78305008;0.176471;0.207843;0.215686;12850.000000;1.000000;1.000000;1.000000;1.000000;-0.175726;0.175726;-0.175726;1.000000;1.000000
445624.41230209;5696599.96829803;472.79005005;0.14902;0.211765;0.188235;12336.000000;1.000000;1.000000;1.000000;1.000000;-0.120825;0.120825;-0.120825;1.000000;1.000000
445624.38500221;5696599.97550018;472.78894999;0.164706;0.203922;0.196078;12336.000000;1.000000;1.000000;1.000000;1.000000;-0.148125;0.148125;-0.148125;1.000000;1.000000
445624.38170250;5696599.83949860;472.84074976;0.109804;0.160784;0.129412;9252.000000;1.000000;1.000000;1.000000;1.000000;-0.120550;0.120550;-0.120550;1.000000;1.000000
445624.35770233;5696599.96159943;472.79454996;0.137255;0.184314;0.184314;11051.000000;1.000000;1.000000;1.000000;1.000000;-0.175425;0.175425;-0.175425;1.000000;1.000000
445624.36040123;5696599.90479858;472.82424976;0.054902;0.101961;0.0941176;5654.000000;1.000000;1.000000;1.000000;1.000000;-0.160032;0.160032;-0.160032;1.000000;1.000000
445624.33360107;5696599.87430008;472.83894970;0.0784314;0.121569;0.105882;6939.000000;1.000000;1.000000;1.000000;1.000000;-0.174010;0.174010;-0.174010;1.000000;1.000000
445624.37110146;5696599.87549789;472.83834984;0.129412;0.196078;0.164706;11308.000000;1.000000;1.000000;1.000000;1.000000;-0.138464;0.138464;-0.138464;1.000000;1.000000
445624.40200241;5696599.83069809;472.83684971;0.105882;0.156863;0.101961;8738.000000;1.000000;1.000000;1.000000;1.000000;-0.099877;0.099877;-0.099877;1.000000;1.000000
445624.33480080;5696599.86479767;472.84354975;0.176471;0.227451;0.192157;13621.000000;1.000000;1.000000;1.000000;1.000000;-0.170662;0.170662;-0.170662;1.000000;1.000000
445624.34180077;5696599.88529785;472.83484985;0.0313725;0.0784314;0.0784314;4112.000000;1.000000;1.000000;1.000000;1.000000;-0.169359;0.169359;-0.169359;1.000000;1.000000
445624.35050209;5696599.91979797;472.81694986;0.137255;0.196078;0.160784;11308.000000;1.000000;1.000000;1.000000;1.000000;-0.176006;0.176006;-0.176006;1.000000;1.000000
445624.33980186;5696599.94909866;472.80284979;0.133333;0.176471;0.168627;10537.000000;1.000000;1.000000;1.000000;1.000000;-0.193326;0.193326;-0.193326;1.000000;1.000000
445624.41490181;5696599.95149811;472.80165007;0.184314;0.258824;0.211765;14906.000000;1.000000;1.000000;1.000000;1.000000;-0.118226;0.118226;-0.118226;1.000000;1.000000
445624.39820107;5696599.86599930;472.83944990;0.133333;0.207843;0.160784;11565.000000;1.000000;1.000000;1.000000;1.000000;-0.109748;0.109748;-0.109748;1.000000;1.000000
445624.40560158;5696599.95239838;472.80125000;0.168627;0.243137;0.207843;14135.000000;1.000000;1.000000;1.000000;1.000000;-0.127526;0.127526;-0.127526;1.000000;1.000000
445624.31520088;5696599.87380035;472.83115007;0.117647;0.152941;0.156863;9252.000000;1.000000;1.000000;1.000000;1.000000;-0.191746;0.191746;-0.191746;1.000000;1.000000
445624.32490166;5696599.87990006;472.83395006;0.0784314;0.117647;0.101961;6682.000000;1.000000;1.000000;1.000000;1.000000;-0.183876;0.183876;-0.183876;1.000000;1.000000
445624.39900215;5696599.84959991;472.83925011;0.0666667;0.12549;0.0941176;6682.000000;1.000000;1.000000;1.000000;1.000000;-0.104726;0.104726;-0.104726;1.000000;1.000000
445624.31630142;5696599.86429794;472.83804991;0.164706;0.2;0.192157;12336.000000;1.000000;1.000000;1.000000;1.000000;-0.188719;0.188719;-0.188719;1.000000;1.000000
445624.36730202;5696599.96529968;472.79734995;0.215686;0.254902;0.243137;15677.000000;1.000000;1.000000;1.000000;1.000000;-0.165825;0.165825;-0.165825;1.000000;1.000000
445624.39020164;5696599.82939728;472.83864977;0.117647;0.160784;0.113725;9252.000000;1.000000;1.000000;1.000000;1.000000;0.111677;-0.111677;0.111677;1.000000;1.000000
445624.40540131;5696599.96890076;472.78975012;0.172549;0.231373;0.211765;13621.000000;1.000000;1.000000;1.000000;1.000000;-0.127726;0.127726;-0.127726;1.000000;1.000000
445624.34460075;5696599.84519775;472.84604980;0.188235;0.243137;0.223529;14649.000000;1.000000;1.000000;1.000000;1.000000;-0.158009;0.158009;-0.158009;1.000000;1.000000
445624.33880241;5696599.95870026;472.79365017;0.0705882;0.109804;0.121569;6425.000000;1.000000;1.000000;1.000000;1.000000;-0.194325;0.194325;-0.194325;1.000000;1.000000
445624.38400085;5696599.80909927;472.82884981;0.0823529;0.109804;0.0862745;6425.000000;1.000000;1.000000;1.000000;1.000000;0.119715;-0.119715;0.119715;1.000000;1.000000
445624.36190231;5696599.85529907;472.84464981;0.164706;0.219608;0.203922;13107.000000;1.000000;1.000000;1.000000;1.000000;-0.142243;0.142243;-0.142243;1.000000;1.000000
445624.39450081;5696599.78969772;472.81505014;0.282353;0.305882;0.235294;19018.000000;1.000000;1.000000;1.000000;1.000000;0.114691;-0.114691;0.114691;1.000000;1.000000
445624.35940178;5696599.93779953;472.81064989;0.14902;0.211765;0.188235;12336.000000;1.000000;1.000000;1.000000;1.000000;-0.173726;0.173726;-0.173726;1.000000;1.000000
445624.39300163;5696599.80359848;472.82684996;0.133333;0.156863;0.129412;9509.000000;1.000000;1.000000;1.000000;1.000000;0.112031;-0.112031;0.112031;1.000000;1.000000
445624.31260117;5696599.89290054;472.82424976;0.113725;0.145098;0.152941;8738.000000;1.000000;1.000000;1.000000;1.000000;-0.199454;0.199454;-0.199454;1.000000;1.000000
445624.39010246;5696599.89729889;472.82544996;0.0901961;0.156863;0.129412;8738.000000;1.000000;1.000000;1.000000;1.000000;-0.130471;0.130471;-0.130471;1.000000;1.000000
445624.36760147;5696599.94879730;472.80874969;0.227451;0.286275;0.247059;17219.000000;1.000000;1.000000;1.000000;1.000000;-0.165526;0.165526;-0.165526;1.000000;1.000000
445624.33760078;5696599.96819885;472.78665020;0.0509804;0.0862745;0.109804;4883.000000;1.000000;1.000000;1.000000;1.000000;-0.195527;0.195527;-0.195527;1.000000;1.000000
445624.39350136;5696599.81049927;472.82924988;0.12549;0.152941;0.113725;8995.000000;1.000000;1.000000;1.000000;1.000000;0.110116;-0.110116;0.110116;1.000000;1.000000
445624.34790237;5696599.97669800;472.78254988;0.180392;0.211765;0.219608;13107.000000;1.000000;1.000000;1.000000;1.000000;-0.185225;0.185225;-0.185225;1.000000;1.000000
445624.33380135;5696599.85549744;472.84574987;0.176471;0.223529;0.207843;13364.000000;1.000000;1.000000;1.000000;1.000000;-0.169999;0.169999;-0.169999;1.000000;1.000000
445624.35400208;5696599.84659775;472.84655001;0.196078;0.254902;0.223529;15163.000000;1.000000;1.000000;1.000000;1.000000;-0.148804;0.148804;-0.148804;1.000000;1.000000
445624.39350136;5696599.77580078;472.80784990;0.168627;0.180392;0.168627;11308.000000;1.000000;1.000000;1.000000;1.000000;0.121173;-0.121173;0.121173;1.000000;1.000000
445624.34000214;5696599.93020065;472.81194975;0.12549;0.180392;0.164706;10537.000000;1.000000;1.000000;1.000000;1.000000;-0.190378;0.190378;-0.190378;1.000000;1.000000
445624.37740143;5696599.93139847;472.81365015;0.133333;0.2;0.168627;11565.000000;1.000000;1.000000;1.000000;1.000000;-0.155726;0.155726;-0.155726;1.000000;1.000000
445624.40450104;5696599.96190079;472.79425003;0.168627;0.235294;0.207843;13878.000000;1.000000;1.000000;1.000000;1.000000;-0.128626;0.128626;-0.128626;1.000000;1.000000
445624.37000092;5696599.88509949;472.83145000;0.105882;0.172549;0.145098;9766.000000;1.000000;1.000000;1.000000;1.000000;-0.142924;0.142924;-0.142924;1.000000;1.000000
445624.39930161;5696599.87529953;472.83494999;0.117647;0.207843;0.141176;11308.000000;1.000000;1.000000;1.000000;1.000000;-0.112133;0.112133;-0.112133;1.000000;1.000000
445624.40050133;5696599.84009750;472.83925011;0.0666667;0.117647;0.0823529;6425.000000;1.000000;1.000000;1.000000;1.000000;-0.101878;0.101878;-0.101878;1.000000;1.000000
445624.34290131;5696599.87579926;472.84174969;0.113725;0.168627;0.14902;9766.000000;1.000000;1.000000;1.000000;1.000000;-0.165442;0.165442;-0.165442;1.000000;1.000000
445624.39040192;5696599.85740097;472.83894970;0.137255;0.2;0.164706;11565.000000;1.000000;1.000000;1.000000;1.000000;-0.114794;0.114794;-0.114794;1.000000;1.000000
445624.37610062;5696599.97870071;472.78385021;0.101961;0.133333;0.145098;7967.000000;1.000000;1.000000;1.000000;1.000000;-0.157027;0.157027;-0.157027;1.000000;1.000000
445624.40060242;5696599.81220062;472.82964994;0.164706;0.196078;0.14902;11822.000000;1.000000;1.000000;1.000000;1.000000;0.102827;-0.102827;0.102827;1.000000;1.000000
445624.39240082;5696599.79439743;472.81974985;0.227451;0.247059;0.203922;15420.000000;1.000000;1.000000;1.000000;1.000000;0.115120;-0.115120;0.115120;1.000000;1.000000
445624.33180244;5696599.91929825;472.81615021;0.113725;0.156863;0.152941;9252.000000;1.000000;1.000000;1.000000;1.000000;-0.192093;0.192093;-0.192093;1.000000;1.000000
445624.39990242;5696599.85880096;472.83944990;0.113725;0.180392;0.145098;10023.000000;1.000000;1.000000;1.000000;1.000000;-0.105964;0.105964;-0.105964;1.000000;1.000000
445624.38340195;5696599.79989822;472.82404997;0.141176;0.160784;0.121569;9766.000000;1.000000;1.000000;1.000000;1.000000;0.122240;-0.122240;0.122240;1.000000;1.000000
445624.38050087;5696599.87470062;472.83645012;0.12549;0.203922;0.152941;11308.000000;1.000000;1.000000;1.000000;1.000000;-0.129346;0.129346;-0.129346;1.000000;1.000000
445624.35260208;5696599.85610016;472.84655001;0.235294;0.294118;0.258824;17733.000000;1.000000;1.000000;1.000000;1.000000;-0.151540;0.151540;-0.151540;1.000000;1.000000
445624.39410217;5696599.78280075;472.81034996;0.278431;0.298039;0.243137;18504.000000;1.000000;1.000000;1.000000;1.000000;0.117657;-0.117657;0.117657;1.000000;1.000000
445624.35950096;5696599.95899780;472.80154993;0.188235;0.227451;0.223529;13878.000000;1.000000;1.000000;1.000000;1.000000;-0.173626;0.173626;-0.173626;1.000000;1.000000
445624.41290100;5696599.97299774;472.78545000;0.0980392;0.156863;0.152941;8995.000000;1.000000;1.000000;1.000000;1.000000;-0.120226;0.120226;-0.120226;1.000000;1.000000
445624.38830193;5696599.92339905;472.81404974;0.0901961;0.160784;0.12549;8738.000000;1.000000;1.000000;1.000000;1.000000;-0.144825;0.144825;-0.144825;1.000000;1.000000
445624.35870178;5696599.93079956;472.81285002;0.117647;0.180392;0.14902;10280.000000;1.000000;1.000000;1.000000;1.000000;-0.174426;0.174426;-0.174426;1.000000;1.000000
445624.39620216;5696599.93199738;472.81215002;0.12549;0.2;0.152941;11051.000000;1.000000;1.000000;1.000000;1.000000;-0.136925;0.136925;-0.136925;1.000000;1.000000
445624.39600189;5696599.96980103;472.79164984;0.12549;0.180392;0.176471;10537.000000;1.000000;1.000000;1.000000;1.000000;-0.137125;0.137125;-0.137125;1.000000;1.000000
445624.40420158;5696599.97849854;472.78284981;0.109804;0.160784;0.160784;9509.000000;1.000000;1.000000;1.000000;1.000000;-0.128926;0.128926;-0.128926;1.000000;1.000000
445624.41410072;5696599.94449814;472.80384972;0.12549;0.196078;0.164706;11051.000000;1.000000;1.000000;1.000000;1.000000;-0.119027;0.119027;-0.119027;1.000000;1.000000
445624.32380112;5696599.88949783;472.82704975;0.0588235;0.0941176;0.0941176;5397.000000;1.000000;1.000000;1.000000;1.000000;-0.187753;0.187753;-0.187753;1.000000;1.000000
445624.41340073;5696599.95870026;472.79694988;0.243137;0.32549;0.262745;19018.000000;1.000000;1.000000;1.000000;1.000000;-0.119727;0.119727;-0.119727;1.000000;1.000000
445624.36770065;5696599.96769913;472.79264977;0.160784;0.2;0.203922;12336.000000;1.000000;1.000000;1.000000;1.000000;-0.165427;0.165427;-0.165427;1.000000;1.000000
445624.40730103;5696599.90519913;472.82165005;0.113725;0.184314;0.145098;10280.000000;1.000000;1.000000;1.000000;1.000000;-0.120829;0.120829;-0.120829;1.000000;1.000000
445624.40470131;5696599.92420013;472.81484987;0.113725;0.184314;0.152941;10280.000000;1.000000;1.000000;1.000000;1.000000;-0.128426;0.128426;-0.128426;1.000000;1.000000
445624.37720116;5696599.95030029;472.80454971;0.117647;0.180392;0.156863;10280.000000;1.000000;1.000000;1.000000;1.000000;-0.155926;0.155926;-0.155926;1.000000;1.000000
445624.34900101;5696599.96710022;472.79185011;0.113725;0.14902;0.156863;8995.000000;1.000000;1.000000;1.000000;1.000000;-0.184126;0.184126;-0.184126;1.000000;1.000000
445624.33950241;5696599.96570023;472.79134991;0.0823529;0.109804;0.121569;6682.000000;1.000000;1.000000;1.000000;1.000000;-0.193625;0.193625;-0.193625;1.000000;1.000000
445624.36620148;5696599.97489746;472.78805019;0.219608;0.25098;0.247059;15677.000000;1.000000;1.000000;1.000000;1.000000;-0.166926;0.166926;-0.166926;1.000000;1.000000
445624.37720116;5696599.96909912;472.79314997;0.137255;0.176471;0.184314;10794.000000;1.000000;1.000000;1.000000;1.000000;-0.155926;0.155926;-0.155926;1.000000;1.000000
445624.37090118;5696599.89439972;472.82924988;0.105882;0.176471;0.141176;9766.000000;1.000000;1.000000;1.000000;1.000000;-0.145952;0.145952;-0.145952;1.000000;1.000000
445624.36800201;5696599.95109756;472.80415012;0.141176;0.2;0.184314;11822.000000;1.000000;1.000000;1.000000;1.000000;-0.165125;0.165125;-0.165125;1.000000;1.000000
445624.38670166;5696599.95170029;472.80504992;0.101961;0.168627;0.141176;9509.000000;1.000000;1.000000;1.000000;1.000000;-0.146426;0.146426;-0.146426;1.000000;1.000000
445624.36890228;5696599.93929871;472.81104996;0.160784;0.227451;0.2;13364.000000;1.000000;1.000000;1.000000;1.000000;-0.164225;0.164225;-0.164225;1.000000;1.000000
445624.38590248;5696599.96359833;472.79584982;0.0862745;0.137255;0.133333;7710.000000;1.000000;1.000000;1.000000;1.000000;-0.147225;0.147225;-0.147225;1.000000;1.000000
445624.35140236;5696599.88680084;472.83295013;0.0509804;0.101961;0.0980392;5397.000000;1.000000;1.000000;1.000000;1.000000;-0.160839;0.160839;-0.160839;1.000000;1.000000
445624.38880165;5696599.88569839;472.82994987;0.105882;0.184314;0.141176;10023.000000;1.000000;1.000000;1.000000;1.000000;-0.126049;0.126049;-0.126049;1.000000;1.000000
445624.34170158;5696599.90419968;472.82334997;0.0705882;0.117647;0.109804;6682.000000;1.000000;1.000000;1.000000;1.000000;-0.176527;0.176527;-0.176527;1.000000;1.000000
445624.35200127;5696599.91269882;472.81925013;0.0980392;0.152941;0.129412;8738.000000;1.000000;1.000000;1.000000;1.000000;-0.171178;0.171178;-0.171178;1.000000;1.000000
445624.38720139;5696599.91179855;472.81624987;0.054902;0.129412;0.0823529;6425.000000;1.000000;1.000000;1.000000;1.000000;-0.140860;0.140860;-0.140860;1.000000;1.000000
445624.35850151;5696599.94969757;472.80375006;0.152941;0.211765;0.2;12593.000000;1.000000;1.000000;1.000000;1.000000;-0.174626;0.174626;-0.174626;1.000000;1.000000
445624.39910133;5696599.89419754;472.82585003;0.121569;0.203922;0.152941;11308.000000;1.000000;1.000000;1.000000;1.000000;-0.121179;0.121179;-0.121179;1.000000;1.000000
445624.37300117;5696599.84729965;472.84275009;0.14902;0.207843;0.176471;12079.000000;1.000000;1.000000;1.000000;1.000000;-0.130032;0.130032;-0.130032;1.000000;1.000000
445624.35210236;5696599.89380081;472.83075001;0.0352941;0.0901961;0.0784314;4626.000000;1.000000;1.000000;1.000000;1.000000;-0.162798;0.162798;-0.162798;1.000000;1.000000
445624.31590088;5696599.88080032;472.82894995;0.12549;0.156863;0.156863;9509.000000;1.000000;1.000000;1.000000;1.000000;-0.192790;0.192790;-0.192790;1.000000;1.000000
445624.33230217;5696599.88389786;472.83435013;0.0313725;0.0705882;0.0784314;3855.000000;1.000000;1.000000;1.000000;1.000000;-0.177935;0.177935;-0.177935;1.000000;1.000000
445624.39890106;5696599.91300018;472.81675007;0.109804;0.184314;0.141176;10280.000000;1.000000;1.000000;1.000000;1.000000;-0.132262;0.132262;-0.132262;1.000000;1.000000
445624.41390236;5696599.96109970;472.79234983;0.160784;0.227451;0.207843;13364.000000;1.000000;1.000000;1.000000;1.000000;-0.119225;0.119225;-0.119225;1.000000;1.000000
445624.30740173;5696599.84409912;472.83745005;0.219608;0.247059;0.231373;15420.000000;1.000000;1.000000;1.000000;1.000000;-0.194986;0.194986;-0.194986;1.000000;1.000000
445624.40110214;5696599.81909760;472.83435013;0.145098;0.188235;0.129412;11051.000000;1.000000;1.000000;1.000000;1.000000;0.101363;-0.101363;0.101363;1.000000;1.000000
445624.33670242;5696599.83429916;472.84095003;0.176471;0.215686;0.196078;13107.000000;1.000000;1.000000;1.000000;1.000000;-0.165231;0.165231;-0.165231;1.000000;1.000000
445624.34870155;5696599.98369797;472.78034975;0.356863;0.384314;0.384314;24415.000000;1.000000;1.000000;1.000000;1.000000;-0.184426;0.184426;-0.184426;1.000000;1.000000
445624.34720238;5696599.96969803;472.78485014;0.0666667;0.105882;0.129412;6168.000000;1.000000;1.000000;1.000000;1.000000;-0.185925;0.185925;-0.185925;1.000000;1.000000
445624.39450081;5696599.95809753;472.80074980;0.141176;0.196078;0.180392;11565.000000;1.000000;1.000000;1.000000;1.000000;-0.138627;0.138627;-0.138627;1.000000;1.000000
445624.36030205;5696599.88360031;472.83564999;0.12549;0.192157;0.160784;11051.000000;1.000000;1.000000;1.000000;1.000000;-0.151382;0.151382;-0.151382;1.000000;1.000000
445624.34920128;5696599.92939957;472.81234982;0.117647;0.172549;0.152941;10023.000000;1.000000;1.000000;1.000000;1.000000;-0.182182;0.182182;-0.182182;1.000000;1.000000
445624.38700111;5696599.93289764;472.81174995;0.141176;0.215686;0.164706;12079.000000;1.000000;1.000000;1.000000;1.000000;-0.146126;0.146126;-0.146126;1.000000;1.000000
445624.32360085;5696599.84480103;472.84284975;0.180392;0.219608;0.207843;13364.000000;1.000000;1.000000;1.000000;1.000000;-0.178890;0.178890;-0.178890;1.000000;1.000000
445624.34330185;5696599.85700043;472.84614994;0.203922;0.258824;0.235294;15677.000000;1.000000;1.000000;1.000000;1.000000;-0.160858;0.160858;-0.160858;1.000000;1.000000
445624.40750130;5696599.88629730;472.83075001;0.0823529;0.14902;0.117647;8224.000000;1.000000;1.000000;1.000000;1.000000;-0.109892;0.109892;-0.109892;1.000000;1.000000
445624.38550194;5696599.97789963;472.78195002;0.0862745;0.12549;0.137255;7453.000000;1.000000;1.000000;1.000000;1.000000;-0.147625;0.147625;-0.147625;1.000000;1.000000
445624.35840233;5696599.94969757;472.80604984;0.211765;0.266667;0.243137;16191.000000;1.000000;1.000000;1.000000;1.000000;-0.174725;0.174725;-0.174725;1.000000;1.000000
445624.37830170;5696599.95960052;472.80004980;0.164706;0.211765;0.2;12850.000000;1.000000;1.000000;1.000000;1.000000;-0.154826;0.154826;-0.154826;1.000000;1.000000
445624.32380112;5696599.91060074;472.81794979;0.0941176;0.129412;0.137255;7710.000000;1.000000;1.000000;1.000000;1.000000;-0.195468;0.195468;-0.195468;1.000000;1.000000
445624.37780197;5696599.91259964;472.81815006;0.0470588;0.113725;0.0705882;5654.000000;1.000000;1.000000;1.000000;1.000000;-0.149055;0.149055;-0.149055;1.000000;1.000000
445624.34380157;5696599.88279922;472.83715012;0.0705882;0.121569;0.109804;6682.000000;1.000000;1.000000;1.000000;1.000000;-0.166660;0.166660;-0.166660;1.000000;1.000000
445624.33340080;5696599.89319809;472.82984974;0.0431373;0.0862745;0.0901961;4626.000000;1.000000;1.000000;1.000000;1.000000;-0.179940;0.179940;-0.179940;1.000000;1.000000
445624.36360176;5696599.84810074;472.84464981;0.168627;0.223529;0.196078;13364.000000;1.000000;1.000000;1.000000;1.000000;-0.139455;0.139455;-0.139455;1.000000;1.000000
445624.37550171;5696599.97400101;472.78844978;0.152941;0.184314;0.188235;11308.000000;1.000000;1.000000;1.000000;1.000000;-0.157626;0.157626;-0.157626;1.000000;1.000000
445624.39330109;5696599.77129944;472.80314972;0.266667;0.27451;0.219608;17219.000000;1.000000;1.000000;1.000000;1.000000;0.123428;-0.123428;0.123428;1.000000;1.000000
445624.40690239;5696599.94280060;472.80585005;0.129412;0.196078;0.164706;11308.000000;1.000000;1.000000;1.000000;1.000000;-0.126225;0.126225;-0.126225;1.000000;1.000000
445624.35990150;5696599.92130096;472.81745007;0.105882;0.164706;0.129412;9252.000000;1.000000;1.000000;1.000000;1.000000;-0.168799;0.168799;-0.168799;1.000000;1.000000
445624.37250145;5696599.86599930;472.84065010;0.137255;0.203922;0.176471;11822.000000;1.000000;1.000000;1.000000;1.000000;-0.134291;0.134291;-0.134291;1.000000;1.000000
445624.34250076;5696599.91119965;472.82114985;0.0941176;0.141176;0.129412;8224.000000;1.000000;1.000000;1.000000;1.000000;-0.178869;0.178869;-0.178869;1.000000;1.000000
445624.33940132;5696599.98449905;472.77994968;0.321569;0.352941;0.356863;22359.000000;1.000000;1.000000;1.000000;1.000000;-0.193726;0.193726;-0.193726;1.000000;1.000000
445624.39180191;5696599.84789856;472.84124996;0.109804;0.168627;0.133333;9509.000000;1.000000;1.000000;1.000000;1.000000;-0.111521;0.111521;-0.111521;1.000000;1.000000
445624.39750107;5696599.96249969;472.79635002;0.113725;0.172549;0.164706;10023.000000;1.000000;1.000000;1.000000;1.000000;-0.135626;0.135626;-0.135626;1.000000;1.000000
445624.35100182;5696599.90329941;472.82375004;0.0509804;0.0980392;0.0941176;5397.000000;1.000000;1.000000;1.000000;1.000000;-0.167739;0.167739;-0.167739;1.000000;1.000000
445624.36290176;5696599.88569839;472.83344986;0.0823529;0.141176;0.12549;7967.000000;1.000000;1.000000;1.000000;1.000000;-0.149722;0.149722;-0.149722;1.000000;1.000000
445624.39610107;5696599.95089920;472.80305006;0.121569;0.184314;0.156863;10537.000000;1.000000;1.000000;1.000000;1.000000;-0.137026;0.137026;-0.137026;1.000000;1.000000
445624.36180122;5696599.87639816;472.84025003;0.141176;0.207843;0.176471;12079.000000;1.000000;1.000000;1.000000;1.000000;-0.147561;0.147561;-0.147561;1.000000;1.000000
445624.32750137;5696599.83519943;472.84054996;0.168627;0.203922;0.184314;12336.000000;1.000000;1.000000;1.000000;1.000000;-0.174454;0.174454;-0.174454;1.000000;1.000000
445624.35900124;5696599.91200073;472.81955006;0.0784314;0.137255;0.109804;7453.000000;1.000000;1.000000;1.000000;1.000000;-0.164735;0.164735;-0.164735;1.000000;1.000000
445624.39170082;5696599.81769760;472.83155014;0.145098;0.180392;0.121569;10537.000000;1.000000;1.000000;1.000000;1.000000;0.110861;-0.110861;0.110861;1.000000;1.000000
445624.36670120;5696599.97730072;472.78345015;0.168627;0.2;0.207843;12336.000000;1.000000;1.000000;1.000000;1.000000;-0.166426;0.166426;-0.166426;1.000000;1.000000
445624.32320221;5696599.88479813;472.83164980;0.0588235;0.0980392;0.0980392;5654.000000;1.000000;1.000000;1.000000;1.000000;-0.186889;0.186889;-0.186889;1.000000;1.000000
445624.38350113;5696599.80219849;472.82634975;0.0901961;0.109804;0.0941176;6682.000000;1.000000;1.000000;1.000000;1.000000;0.121597;-0.121597;0.121597;1.000000;1.000000
445624.38410194;5696599.96850021;472.79344990;0.109804;0.152941;0.160784;8995.000000;1.000000;1.000000;1.000000;1.000000;-0.149025;0.149025;-0.149025;1.000000;1.000000
445624.39810188;5696599.88489731;472.83034994;0.0941176;0.168627;0.129412;9252.000000;1.000000;1.000000;1.000000;1.000000;-0.117401;0.117401;-0.117401;1.000000;1.000000
445624.34930237;5696599.95049866;472.80334999;0.164706;0.211765;0.203922;12850.000000;1.000000;1.000000;1.000000;1.000000;-0.183825;0.183825;-0.183825;1.000000;1.000000
445624.35230072;5696599.87489899;472.83984997;0.141176;0.203922;0.180392;11822.000000;1.000000;1.000000;1.000000;1.000000;-0.156170;0.156170;-0.156170;1.000000;1.000000
445624.38990219;5696599.87619980;472.83684971;0.129412;0.215686;0.152941;11822.000000;1.000000;1.000000;1.000000;1.000000;-0.121132;0.121132;-0.121132;1.000000;1.000000
445624.35070236;5696599.90099915;472.82604982;0.0431373;0.0901961;0.0823529;4883.000000;1.000000;1.000000;1.000000;1.000000;-0.167017;0.167017;-0.167017;1.000000;1.000000
445624.31530197;5696599.85499771;472.84025003;0.207843;0.239216;0.231373;14906.000000;1.000000;1.000000;1.000000;1.000000;-0.188243;0.188243;-0.188243;1.000000;1.000000
445624.37150200;5696599.85669907;472.84275009;0.137255;0.2;0.176471;11565.000000;1.000000;1.000000;1.000000;1.000000;-0.133081;0.133081;-0.133081;1.000000;1.000000
445624.36920174;5696599.92040070;472.81785013;0.0705882;0.129412;0.0980392;6939.000000;1.000000;1.000000;1.000000;1.000000;-0.160546;0.160546;-0.160546;1.000000;1.000000
445624.39270218;5696599.79899796;472.82214977;0.196078;0.219608;0.172549;13364.000000;1.000000;1.000000;1.000000;1.000000;0.113492;-0.113492;0.113492;1.000000;1.000000
445624.36980064;5696599.90399750;472.82235004;0.0666667;0.117647;0.101961;6425.000000;1.000000;1.000000;1.000000;1.000000;-0.151393;0.151393;-0.151393;1.000000;1.000000
445624.38090141;5696599.85589798;472.84084990;0.152941;0.215686;0.188235;12593.000000;1.000000;1.000000;1.000000;1.000000;-0.123717;0.123717;-0.123717;1.000000;1.000000
445624.39640244;5696599.97209747;472.78704979;0.0784314;0.129412;0.133333;7453.000000;1.000000;1.000000;1.000000;1.000000;-0.136725;0.136725;-0.136725;1.000000;1.000000
445624.37940224;5696599.88659866;472.83185007;0.117647;0.192157;0.152941;10794.000000;1.000000;1.000000;1.000000;1.000000;-0.134921;0.134921;-0.134921;1.000000;1.000000
445624.44400223;5696600.32760056;472.77944996;0.392157;0.345098;0.294118;23130.000000;1.000000;1.000000;1.000000;1.000000;0.089157;-0.089157;0.089157;1.000000;1.000000
445624.41220100;5696600.42809875;472.81185009;0.321569;0.364706;0.25098;22102.000000;1.000000;1.000000;1.000000;1.000000;-0.155713;0.155713;-0.155713;1.000000;1.000000
445624.41730125;5696600.31600006;472.77815010;0.329412;0.282353;0.247059;19018.000000;1.000000;1.000000;1.000000;1.000000;0.116669;-0.116669;0.116669;1.000000;1.000000
445624.41210182;5696600.48390015;472.82644989;0.164706;0.25098;0.105882;13621.000000;1.000000;1.000000;1.000000;1.000000;-0.195787;0.195787;-0.195787;1.000000;1.000000
445624.38820084;5696600.36059769;472.78894999;0.345098;0.294118;0.25098;19789.000000;1.000000;1.000000;1.000000;1.000000;-0.148121;0.148121;-0.148121;1.000000;1.000000
445624.39700134;5696600.35289963;472.78464987;0.372549;0.321569;0.278431;21588.000000;1.000000;1.000000;1.000000;1.000000;-0.138039;0.138039;-0.138039;1.000000;1.000000
445624.38320168;5696600.44470032;472.81535007;0.247059;0.298039;0.192157;17733.000000;1.000000;1.000000;1.000000;1.000000;-0.188769;0.188769;-0.188769;1.000000;1.000000
445624.41890152;5696600.45529755;472.82415010;0.470588;0.54902;0.407843;33410.000000;1.000000;1.000000;1.000000;1.000000;-0.169549;0.169549;-0.169549;1.000000;1.000000
