//X;Y;Z;Rf;Gf;Bf;Intensity;Return Number;Number Of Returns;Scan Direction Flag;Point Source ID;C2M signed distances[-][<0.8];C2M signed distances[<0.4];C2M signed distances[-][<0.2];Stump42
300
445631.75110062;5696599.54070099;472.15234997;0.541176;0.533333;0.521569;34952.000000;1.000000;1.000000;1.000000;1.000000;0.030474;-0.030474;0.030474;1.000000
445631.67960175;5696599.50070007;472.15094997;0.643137;0.639216;0.627451;41634.000000;1.000000;1.000000;1.000000;1.000000;-0.041025;0.041025;-0.041025;1.000000
445631.62700089;5696599.41440018;472.15224983;0.52549;0.529412;0.529412;34438.000000;1.000000;1.000000;1.000000;1.000000;-0.093626;0.093626;-0.093626;1.000000
445631.62800034;5696599.37689789;472.15644981;0.278431;0.278431;0.27451;17990.000000;1.000000;1.000000;1.000000;1.000000;-0.077243;0.077243;-0.077243;1.000000
445631.74070175;5696599.38049896;472.15465023;0.45098;0.443137;0.415686;28784.000000;1.000000;1.000000;1.000000;1.000000;0.020075;-0.020075;0.020075;1.000000
445631.92660339;5696599.35209854;472.11844971;0.392157;0.384314;0.372549;25186.000000;1.000000;1.000000;1.000000;1.000000;0.022099;-0.022099;0.022099;1.000000
445632.00380142;5696599.35429962;472.12194969;0.552941;0.541176;0.513725;35466.000000;1.000000;1.000000;1.000000;1.000000;0.024376;-0.024376;0.024376;1.000000
445632.07660110;5696599.34779938;472.10185005;0.654902;0.647059;0.619608;42148.000000;1.000000;1.000000;1.000000;1.000000;0.017799;-0.017799;0.017799;1.000000
445631.60320099;5696599.33709915;472.15714981;0.470588;0.47451;0.482353;30840.000000;1.000000;1.000000;1.000000;1.000000;-0.086468;0.086468;-0.086468;1.000000
445631.81110199;5696599.65439804;472.14475014;0.34902;0.329412;0.286275;21588.000000;1.000000;1.000000;1.000000;1.000000;0.090475;-0.090475;0.090475;1.000000
445632.14999969;5696599.38080032;472.09854986;0.686275;0.682353;0.666667;44461.000000;1.000000;1.000000;1.000000;1.000000;0.050800;-0.050800;0.050800;1.000000
445632.04260071;5696599.30890091;472.10214998;0.439216;0.435294;0.423529;28270.000000;1.000000;1.000000;1.000000;1.000000;-0.021099;0.021099;-0.021099;1.000000
445631.74180038;5696599.56730087;472.15455009;0.576471;0.568627;0.552941;37265.000000;1.000000;1.000000;1.000000;1.000000;0.021173;-0.021173;0.021173;1.000000
445631.70680054;5696599.49119766;472.14974977;0.278431;0.27451;0.262745;17733.000000;1.000000;1.000000;1.000000;1.000000;-0.013826;0.013826;-0.013826;1.000000
445631.77840240;5696599.32589920;472.13705017;0.494118;0.482353;0.466667;31611.000000;1.000000;1.000000;1.000000;1.000000;-0.004101;0.004101;-0.004101;1.000000
445632.07820328;5696599.31270035;472.09684994;0.368627;0.360784;0.34902;23644.000000;1.000000;1.000000;1.000000;1.000000;-0.017300;0.017300;-0.017300;1.000000
445631.71170242;5696599.59580048;472.15354969;0.380392;0.368627;0.352941;24158.000000;1.000000;1.000000;1.000000;1.000000;-0.008924;0.008924;-0.008924;1.000000
445632.11570175;5696599.31389816;472.09854986;0.882353;0.882353;0.866667;57568.000000;1.000000;1.000000;1.000000;1.000000;-0.016102;0.016102;-0.016102;1.000000
445632.17010315;5696599.75469788;472.11555006;0.47451;0.458824;0.419608;30069.000000;1.000000;1.000000;1.000000;1.000000;0.050524;-0.050524;0.050524;1.000000
445631.68050201;5696599.71309860;472.15584995;0.368627;0.352941;0.333333;23130.000000;1.000000;1.000000;1.000000;1.000000;-0.050326;0.050326;-0.050326;1.000000
445631.69350250;5696599.39669998;472.14564993;0.278431;0.270588;0.254902;17733.000000;1.000000;1.000000;1.000000;1.000000;-0.027124;0.027124;-0.027124;1.000000
445631.76860245;5696599.40130051;472.14914991;0.309804;0.290196;0.258824;19018.000000;1.000000;1.000000;1.000000;1.000000;0.047976;-0.047976;0.047976;1.000000
445631.98800095;5696599.44639786;472.14564993;0.552941;0.541176;0.517647;35466.000000;1.000000;1.000000;1.000000;1.000000;0.116398;-0.116398;0.116398;1.000000
445631.80380066;5696599.40049942;472.14374973;0.329412;0.309804;0.278431;20303.000000;1.000000;1.000000;1.000000;1.000000;0.070499;-0.070499;0.070499;1.000000
445631.65699966;5696599.35799988;472.14825012;0.423529;0.411765;0.384314;26985.000000;1.000000;1.000000;1.000000;1.000000;-0.042805;0.042805;-0.042805;1.000000
445631.95400055;5696599.40759857;472.14594986;0.768627;0.760784;0.72549;49601.000000;1.000000;1.000000;1.000000;1.000000;0.077599;-0.077599;0.077599;1.000000
445632.02700241;5696599.41250046;472.14465000;0.815686;0.811765;0.776471;52942.000000;1.000000;1.000000;1.000000;1.000000;0.082500;-0.082500;0.082500;1.000000
445632.10030182;5696599.45299728;472.10645010;0.607843;0.588235;0.54902;38550.000000;1.000000;1.000000;1.000000;1.000000;0.122950;-0.122950;0.122950;1.000000
445631.66769989;5696599.77950104;472.16305019;0.270588;0.266667;0.25098;17219.000000;1.000000;1.000000;1.000000;1.000000;-0.050499;0.050499;-0.050499;1.000000
445631.83049973;5696599.63629730;472.14304974;0.596078;0.584314;0.556863;38293.000000;1.000000;1.000000;1.000000;1.000000;0.109873;-0.109873;0.109873;1.000000
445631.86980255;5696599.37809952;472.13714983;0.839216;0.831373;0.8;54227.000000;1.000000;1.000000;1.000000;1.000000;0.048100;-0.048100;0.048100;1.000000
445631.65830048;5696599.32049759;472.14554979;0.415686;0.392157;0.356863;25700.000000;1.000000;1.000000;1.000000;1.000000;0.032497;-0.032497;0.032497;1.000000
445631.71590240;5696599.71449860;472.15275003;0.160784;0.141176;0.117647;9252.000000;1.000000;1.000000;1.000000;1.000000;-0.032186;0.032186;-0.032186;1.000000
445631.79080017;5696599.71909912;472.15854980;0.541176;0.517647;0.478431;33924.000000;1.000000;1.000000;1.000000;1.000000;0.079016;-0.079016;0.079016;1.000000
445631.75930222;5696599.57739838;472.14844992;0.603922;0.592157;0.572549;38807.000000;1.000000;1.000000;1.000000;1.000000;0.038675;-0.038675;0.038675;1.000000
445632.07430084;5696599.84259995;472.14255001;0.537255;0.501961;0.423529;32896.000000;1.000000;1.000000;1.000000;1.000000;-0.084768;0.084768;-0.084768;1.000000
445632.03800018;5696599.80399902;472.14045002;0.705882;0.682353;0.635294;44718.000000;1.000000;1.000000;1.000000;1.000000;0.122908;-0.122908;0.122908;1.000000
445631.92990311;5696599.72509964;472.14624979;0.337255;0.32549;0.27451;21074.000000;1.000000;1.000000;1.000000;1.000000;-0.180409;0.180409;-0.180409;1.000000
445631.82200058;5696599.64639862;472.14514973;0.478431;0.466667;0.431373;30326.000000;1.000000;1.000000;1.000000;1.000000;0.101374;-0.101374;0.101374;1.000000
445631.76180084;5696599.70779999;472.15714981;0.368627;0.345098;0.309804;22616.000000;1.000000;1.000000;1.000000;1.000000;0.048196;-0.048196;0.048196;1.000000
445631.60010345;5696599.59919937;472.14855005;0.376471;0.368627;0.352941;24158.000000;1.000000;1.000000;1.000000;1.000000;-0.120523;0.120523;-0.120523;1.000000
445631.63760193;5696599.60040100;472.14794971;0.498039;0.482353;0.45098;31611.000000;1.000000;1.000000;1.000000;1.000000;-0.083025;0.083025;-0.083025;1.000000
445631.78550156;5696599.60539825;472.14535000;0.615686;0.607843;0.576471;39578.000000;1.000000;1.000000;1.000000;1.000000;0.064875;-0.064875;0.064875;1.000000
445631.63879974;5696599.56289871;472.14755013;0.294118;0.286275;0.262745;18504.000000;1.000000;1.000000;1.000000;1.000000;-0.081827;0.081827;-0.081827;1.000000
445631.69610031;5696599.32399948;472.14494993;0.231373;0.203922;0.160784;13364.000000;1.000000;1.000000;1.000000;1.000000;0.006001;-0.006001;0.006001;1.000000
445632.19230087;5696599.66169937;472.10615017;0.517647;0.505882;0.482353;33153.000000;1.000000;1.000000;1.000000;1.000000;0.028326;-0.028326;0.028326;1.000000
445632.12059982;5696599.62159927;472.10944988;0.596078;0.576471;0.541176;37779.000000;1.000000;1.000000;1.000000;1.000000;0.100027;-0.100027;0.100027;1.000000
445631.64000137;5696599.52540024;472.14715006;0.447059;0.443137;0.431373;28784.000000;1.000000;1.000000;1.000000;1.000000;-0.080626;0.080626;-0.080626;1.000000
445631.60250290;5696599.52429779;472.14545013;0.647059;0.647059;0.647059;42405.000000;1.000000;1.000000;1.000000;1.000000;-0.118124;0.118124;-0.118124;1.000000
445631.60590179;5696599.48649796;472.14744999;0.490196;0.494118;0.501961;32125.000000;1.000000;1.000000;1.000000;1.000000;-0.114725;0.114725;-0.114725;1.000000
445631.83720215;5696599.71259888;472.15364983;0.345098;0.32549;0.298039;21331.000000;1.000000;1.000000;1.000000;1.000000;0.120354;-0.120354;0.120354;1.000000
445631.58340271;5696599.32720001;472.16085007;0.356863;0.360784;0.372549;23644.000000;1.000000;1.000000;1.000000;1.000000;0.106011;-0.106011;0.106011;1.000000
445632.03090103;5696599.33790024;472.10895016;0.423529;0.415686;0.396078;27242.000000;1.000000;1.000000;1.000000;1.000000;0.007900;-0.007900;0.007900;1.000000
445631.82850082;5696599.72039993;472.15564968;0.266667;0.25098;0.211765;16448.000000;1.000000;1.000000;1.000000;1.000000;0.114265;-0.114265;0.114265;1.000000
445631.67880066;5696599.49139984;472.14844992;0.537255;0.533333;0.521569;34695.000000;1.000000;1.000000;1.000000;1.000000;-0.041826;0.041826;-0.041826;1.000000
445631.64350327;5696599.48769959;472.14685013;0.647059;0.647059;0.635294;42148.000000;1.000000;1.000000;1.000000;1.000000;-0.077124;0.077124;-0.077124;1.000000
445631.75390060;5696599.49159821;472.14255001;0.2;0.196078;0.188235;12850.000000;1.000000;1.000000;1.000000;1.000000;0.033274;-0.033274;0.033274;1.000000
445631.86390121;5696599.72179993;472.15024998;0.588235;0.576471;0.54902;37779.000000;1.000000;1.000000;1.000000;1.000000;-0.135025;0.135025;-0.135025;1.000000
445631.78460129;5696599.88529785;472.17425014;0.596078;0.607843;0.509804;38807.000000;1.000000;1.000000;1.000000;1.000000;0.055318;-0.055318;0.055318;1.000000
445631.65920074;5696599.71259888;472.16184999;0.396078;0.376471;0.356863;24672.000000;1.000000;1.000000;1.000000;1.000000;-0.068254;0.068254;-0.068254;1.000000
445631.74940308;5696599.37269791;472.15255024;0.572549;0.564706;0.537255;36751.000000;1.000000;1.000000;1.000000;1.000000;0.028776;-0.028776;0.028776;1.000000
445631.88420303;5696599.30219849;472.12754967;0.184314;0.184314;0.172549;11822.000000;1.000000;1.000000;1.000000;1.000000;-0.027867;0.027867;-0.027867;1.000000
445631.69450195;5696599.78879745;472.15735008;0.372549;0.345098;0.305882;22616.000000;1.000000;1.000000;1.000000;1.000000;-0.041404;0.041404;-0.041404;1.000000
445632.14140137;5696599.34179886;472.10475018;0.54902;0.552941;0.537255;35980.000000;1.000000;1.000000;1.000000;1.000000;0.011799;-0.011799;0.011799;1.000000
445631.64410217;5696599.67439850;472.15835001;0.219608;0.196078;0.168627;13107.000000;1.000000;1.000000;1.000000;1.000000;-0.076525;0.076525;-0.076525;1.000000
445631.70660217;5696599.71539886;472.15234997;0.117647;0.101961;0.0784314;6682.000000;1.000000;1.000000;1.000000;1.000000;-0.035622;0.035622;-0.035622;1.000000
445632.17380341;5696599.71710022;472.11294987;0.643137;0.627451;0.592157;41120.000000;1.000000;1.000000;1.000000;1.000000;0.046824;-0.046824;0.046824;1.000000
445632.18690308;5696599.80919846;472.11695005;0.627451;0.596078;0.545098;39064.000000;1.000000;1.000000;1.000000;1.000000;-0.020802;0.020802;-0.020802;1.000000
445632.15050323;5696599.77049835;472.11724998;0.509804;0.494118;0.447059;32125.000000;1.000000;1.000000;1.000000;1.000000;0.059988;-0.059988;0.059988;1.000000
445631.82060059;5696599.68379791;472.15014984;0.286275;0.258824;0.227451;17219.000000;1.000000;1.000000;1.000000;1.000000;0.099981;-0.099981;0.099981;1.000000
445631.71680267;5696599.67700012;472.15704967;0.25098;0.227451;0.192157;14906.000000;1.000000;1.000000;1.000000;1.000000;-0.003824;0.003824;-0.003824;1.000000
445631.69300278;5696599.79829987;472.15975000;0.298039;0.278431;0.247059;18247.000000;1.000000;1.000000;1.000000;1.000000;-0.031907;0.031907;-0.031907;1.000000
445631.64710052;5696599.78610046;472.16685011;0.741176;0.745098;0.733333;48573.000000;1.000000;1.000000;1.000000;1.000000;-0.043900;0.043900;-0.043900;1.000000
445631.60799988;5696599.41150101;472.15364983;0.552941;0.560784;0.564706;36494.000000;1.000000;1.000000;1.000000;1.000000;-0.112627;0.112627;-0.112627;1.000000
445632.07890137;5696599.43139847;472.12155010;0.701961;0.690196;0.65098;44975.000000;1.000000;1.000000;1.000000;1.000000;0.101398;-0.101398;0.101398;1.000000
445631.84150131;5696599.81479843;472.16664984;0.65098;0.639216;0.580392;41634.000000;1.000000;1.000000;1.000000;1.000000;-0.060321;0.060321;-0.060321;1.000000
445631.65860184;5696599.73139771;472.16204979;0.294118;0.282353;0.262745;18504.000000;1.000000;1.000000;1.000000;1.000000;-0.078765;0.078765;-0.078765;1.000000
445631.76360138;5696599.49309738;472.13835003;0.196078;0.184314;0.180392;12079.000000;1.000000;1.000000;1.000000;1.000000;0.042974;-0.042974;0.042974;1.000000
445631.62670334;5696599.60840042;472.14755013;0.603922;0.588235;0.560784;38550.000000;1.000000;1.000000;1.000000;1.000000;-0.093924;0.093924;-0.093924;1.000000
445632.02610214;5696599.85849960;472.15684988;0.564706;0.529412;0.443137;34695.000000;1.000000;1.000000;1.000000;1.000000;-0.135066;0.135066;-0.135066;1.000000
445631.79220016;5696599.68169983;472.15354969;0.207843;0.180392;0.145098;12079.000000;1.000000;1.000000;1.000000;1.000000;0.071573;-0.071573;0.071573;1.000000
445631.89110001;5696599.35059937;472.12614967;0.34902;0.32549;0.317647;21588.000000;1.000000;1.000000;1.000000;1.000000;0.020599;-0.020599;0.020599;1.000000
445631.82990082;5696599.68289764;472.15054991;0.392157;0.368627;0.333333;24158.000000;1.000000;1.000000;1.000000;1.000000;0.109274;-0.109274;0.109274;1.000000
445631.64620026;5696599.59259995;472.14814999;0.498039;0.482353;0.45098;31611.000000;1.000000;1.000000;1.000000;1.000000;-0.074427;0.074427;-0.074427;1.000000
445631.76060303;5696599.74529846;472.15754988;0.509804;0.490196;0.447059;32125.000000;1.000000;1.000000;1.000000;1.000000;0.074221;-0.074221;0.074221;1.000000
445631.73680313;5696599.68919952;472.15345003;0.494118;0.470588;0.435294;30840.000000;1.000000;1.000000;1.000000;1.000000;0.017444;-0.017444;0.017444;1.000000
445632.20280273;5696599.85669907;472.12054970;0.635294;0.596078;0.498039;39064.000000;1.000000;1.000000;1.000000;1.000000;0.026699;-0.026699;0.026699;1.000000
445631.95520218;5696599.74389847;472.14295008;0.478431;0.466667;0.4;30326.000000;1.000000;1.000000;1.000000;1.000000;-0.192415;0.192415;-0.192415;1.000000
445632.18080338;5696599.71639832;472.11095001;0.623529;0.611765;0.576471;39835.000000;1.000000;1.000000;1.000000;1.000000;0.039824;-0.039824;0.039824;1.000000
445631.92469986;5696599.38939865;472.13504984;0.847059;0.839216;0.811765;54741.000000;1.000000;1.000000;1.000000;1.000000;0.059399;-0.059399;0.059399;1.000000
445631.60680206;5696599.42329987;472.15374996;0.768627;0.780392;0.784314;50886.000000;1.000000;1.000000;1.000000;1.000000;-0.113825;0.113825;-0.113825;1.000000
445631.59950073;5696599.37479980;472.16214993;0.294118;0.301961;0.317647;19532.000000;1.000000;1.000000;1.000000;1.000000;-0.100423;0.100423;-0.100423;1.000000
445631.75520142;5696599.45639999;472.14454987;0.839216;0.843137;0.827451;54998.000000;1.000000;1.000000;1.000000;1.000000;0.034575;-0.034575;0.034575;1.000000
445632.16380127;5696599.51009949;472.11235001;0.898039;0.894118;0.870588;58339.000000;1.000000;1.000000;1.000000;1.000000;0.056826;-0.056826;0.056826;1.000000
445631.85810287;5696599.42370041;472.12785007;0.470588;0.439216;0.4;29041.000000;1.000000;1.000000;1.000000;1.000000;0.093700;-0.093700;0.093700;1.000000
445631.68120010;5696599.41649826;472.14764978;0.270588;0.266667;0.247059;17219.000000;1.000000;1.000000;1.000000;1.000000;-0.039427;0.039427;-0.039427;1.000000
445631.97930344;5696599.42849930;472.14734985;0.447059;0.435294;0.407843;28527.000000;1.000000;1.000000;1.000000;1.000000;0.098501;-0.098501;0.098501;1.000000
445631.81320007;5696599.62619980;472.14444973;0.635294;0.623529;0.588235;40606.000000;1.000000;1.000000;1.000000;1.000000;0.092573;-0.092573;0.092573;1.000000
445631.64439972;5696599.42449768;472.15074970;0.780392;0.784314;0.772549;51143.000000;1.000000;1.000000;1.000000;1.000000;-0.076227;0.076227;-0.076227;1.000000
445631.79490097;5696599.38260086;472.14774992;0.568627;0.556863;0.52549;36494.000000;1.000000;1.000000;1.000000;1.000000;0.052601;-0.052601;0.052601;1.000000
445632.04730042;5696599.39459808;472.12435009;0.619608;0.611765;0.572549;39835.000000;1.000000;1.000000;1.000000;1.000000;0.064598;-0.064598;0.064598;1.000000
445631.83260162;5696599.38379868;472.14484980;0.709804;0.701961;0.67451;45746.000000;1.000000;1.000000;1.000000;1.000000;0.053799;-0.053799;0.053799;1.000000
445632.09119995;5696599.43279846;472.11054995;0.490196;0.478431;0.45098;31354.000000;1.000000;1.000000;1.000000;1.000000;0.102798;-0.102798;0.102798;1.000000
445631.64800079;5696599.33779724;472.14995005;0.882353;0.878431;0.854902;57311.000000;1.000000;1.000000;1.000000;1.000000;-0.042104;0.042104;-0.042104;1.000000
445631.68580063;5696599.34129913;472.14934971;0.811765;0.8;0.760784;52171.000000;1.000000;1.000000;1.000000;1.000000;-0.011852;0.011852;-0.011852;1.000000
445631.97290237;5696599.35230072;472.12984993;0.623529;0.619608;0.596078;40349.000000;1.000000;1.000000;1.000000;1.000000;0.022417;-0.022417;0.022417;1.000000
445631.82640274;5696599.30990036;472.12734987;0.380392;0.380392;0.360784;24672.000000;1.000000;1.000000;1.000000;1.000000;-0.020100;0.020100;-0.020100;1.000000
445631.72340210;5696599.34250076;472.14634993;0.6;0.588235;0.54902;38293.000000;1.000000;1.000000;1.000000;1.000000;0.002775;-0.002775;0.002775;1.000000
445632.02079971;5696599.35519989;472.11105015;0.458824;0.443137;0.411765;29041.000000;1.000000;1.000000;1.000000;1.000000;0.025200;-0.025200;0.025200;1.000000
445631.93680008;5696599.31369980;472.12544968;0.207843;0.207843;0.203922;13364.000000;1.000000;1.000000;1.000000;1.000000;-0.016300;0.016300;-0.016300;1.000000
445631.71820267;5696599.64179810;472.15665009;0.490196;0.478431;0.443137;31097.000000;1.000000;1.000000;1.000000;1.000000;-0.002424;0.002424;-0.002424;1.000000
445632.16909988;5696599.36260040;472.10384991;0.411765;0.411765;0.403922;26728.000000;1.000000;1.000000;1.000000;1.000000;0.032600;-0.032600;0.032600;1.000000
445631.85740097;5696599.88789948;472.17294981;0.572549;0.572549;0.490196;36751.000000;1.000000;1.000000;1.000000;1.000000;0.094175;-0.094175;0.094175;1.000000
445631.95260056;5696599.38909729;472.13864996;0.662745;0.654902;0.615686;42662.000000;1.000000;1.000000;1.000000;1.000000;0.059097;-0.059097;0.059097;1.000000
445631.84370239;5696599.34789856;472.13555004;0.156863;0.133333;0.117647;8995.000000;1.000000;1.000000;1.000000;1.000000;0.017899;-0.017899;0.017899;1.000000
445631.77750214;5696599.83000000;472.16624977;0.592157;0.584314;0.498039;37779.000000;1.000000;1.000000;1.000000;1.000000;0.000000;0.000000;0.000000;1.000000
445632.13270004;5696599.32390030;472.10405018;0.870588;0.87451;0.858824;57054.000000;1.000000;1.000000;1.000000;1.000000;-0.007006;0.007006;-0.007006;1.000000
445631.96520050;5696599.37169846;472.13434984;0.372549;0.364706;0.345098;23901.000000;1.000000;1.000000;1.000000;1.000000;0.041698;-0.041698;0.041698;1.000000
445632.11090286;5696599.41469772;472.10185005;0.666667;0.658824;0.631373;42919.000000;1.000000;1.000000;1.000000;1.000000;0.084698;-0.084698;0.084698;1.000000
445632.06940277;5696599.32049759;472.10115005;0.317647;0.309804;0.290196;20303.000000;1.000000;1.000000;1.000000;1.000000;-0.010409;0.010409;-0.010409;1.000000
445631.73570068;5696599.47450073;472.14855005;0.223529;0.219608;0.207843;14135.000000;1.000000;1.000000;1.000000;1.000000;0.015074;-0.015074;0.015074;1.000000
445631.77359970;5696599.47579773;472.14094975;0.368627;0.368627;0.360784;23901.000000;1.000000;1.000000;1.000000;1.000000;0.052973;-0.052973;0.052973;1.000000
445631.77890213;5696599.79260071;472.16124966;0.721569;0.705882;0.65098;46003.000000;1.000000;1.000000;1.000000;1.000000;-0.037399;0.037399;-0.037399;1.000000
445632.16220291;5696599.51959808;472.11474993;0.921569;0.921569;0.905882;60138.000000;1.000000;1.000000;1.000000;1.000000;0.058424;-0.058424;0.058424;1.000000
445631.77460297;5696599.43829926;472.14284994;0.219608;0.215686;0.196078;13878.000000;1.000000;1.000000;1.000000;1.000000;0.053976;-0.053976;0.053976;1.000000
445631.63020142;5696599.57069977;472.14724972;0.27451;0.266667;0.239216;17219.000000;1.000000;1.000000;1.000000;1.000000;-0.090425;0.090425;-0.090425;1.000000
445631.72050293;5696599.38939865;472.15374996;0.239216;0.231373;0.203922;14906.000000;1.000000;1.000000;1.000000;1.000000;-0.000124;0.000124;-0.000124;1.000000
445631.99750336;5696599.44790085;472.14605000;0.690196;0.682353;0.658824;44461.000000;1.000000;1.000000;1.000000;1.000000;0.117901;-0.117901;0.117901;1.000000
445631.77560242;5696599.40069778;472.14715006;0.290196;0.270588;0.239216;17733.000000;1.000000;1.000000;1.000000;1.000000;0.054976;-0.054976;0.054976;1.000000
445631.66650208;5696599.35939987;472.14864971;0.466667;0.454902;0.419608;29555.000000;1.000000;1.000000;1.000000;1.000000;-0.037251;0.037251;-0.037251;1.000000
445631.96120270;5696599.40920074;472.14624979;0.768627;0.760784;0.72549;49601.000000;1.000000;1.000000;1.000000;1.000000;0.079201;-0.079201;0.079201;1.000000
445631.99850281;5696599.41039856;472.15035011;0.839216;0.835294;0.803922;54484.000000;1.000000;1.000000;1.000000;1.000000;0.080399;-0.080399;0.080399;1.000000
445632.03630264;5696599.41160019;472.14274981;0.807843;0.803922;0.768627;52428.000000;1.000000;1.000000;1.000000;1.000000;0.081662;-0.081662;0.081662;1.000000
445631.77900131;5696599.36300095;472.14914991;0.858824;0.85098;0.819608;55512.000000;1.000000;1.000000;1.000000;1.000000;0.033001;-0.033001;0.033001;1.000000
445631.75800140;5696599.39060028;472.15315010;0.376471;0.364706;0.337255;23901.000000;1.000000;1.000000;1.000000;1.000000;0.037374;-0.037374;0.037374;1.000000
445631.61140259;5696599.34810074;472.15535023;0.345098;0.352941;0.352941;22873.000000;1.000000;1.000000;1.000000;1.000000;-0.080048;0.080048;-0.080048;1.000000
445632.04520233;5696599.86149796;472.15315010;0.423529;0.392157;0.305882;25443.000000;1.000000;1.000000;1.000000;1.000000;-0.117235;0.117235;-0.117235;1.000000
445631.75290115;5696599.73670013;472.15474989;0.443137;0.423529;0.384314;27756.000000;1.000000;1.000000;1.000000;1.000000;0.062905;-0.062905;0.062905;1.000000
445632.04580124;5696599.84049805;472.14825012;0.537255;0.505882;0.435294;33153.000000;1.000000;1.000000;1.000000;1.000000;-0.112815;0.112815;-0.112815;1.000000
445632.16500290;5696599.69689758;472.10995008;0.462745;0.443137;0.411765;29041.000000;1.000000;1.000000;1.000000;1.000000;0.055624;-0.055624;0.055624;1.000000
445632.16620071;5696599.65939911;472.10965015;0.654902;0.639216;0.615686;41891.000000;1.000000;1.000000;1.000000;1.000000;0.054426;-0.054426;0.054426;1.000000
445632.18230255;5696599.70699890;472.11084988;0.635294;0.615686;0.588235;40349.000000;1.000000;1.000000;1.000000;1.000000;0.038324;-0.038324;0.038324;1.000000
445631.64930161;5696599.52689941;472.14984991;0.364706;0.360784;0.345098;23387.000000;1.000000;1.000000;1.000000;1.000000;-0.071325;0.071325;-0.071325;1.000000
445631.72560318;5696599.49180038;472.14825012;0.168627;0.160784;0.152941;10537.000000;1.000000;1.000000;1.000000;1.000000;0.004976;-0.004976;0.004976;1.000000
445632.16990097;5696599.54929932;472.11074974;0.494118;0.478431;0.458824;31354.000000;1.000000;1.000000;1.000000;1.000000;0.050726;-0.050726;0.050726;1.000000
445632.08960159;5696599.44219788;472.11284973;0.564706;0.545098;0.505882;35723.000000;1.000000;1.000000;1.000000;1.000000;0.112198;-0.112198;0.112198;1.000000
445631.70530136;5696599.32319839;472.14535000;0.25098;0.223529;0.180392;14649.000000;1.000000;1.000000;1.000000;1.000000;-0.006802;0.006802;-0.006802;1.000000
445631.64910324;5696599.34929855;472.15004971;0.686275;0.682353;0.662745;44461.000000;1.000000;1.000000;1.000000;1.000000;-0.044659;0.044659;-0.044659;1.000000
445631.69170197;5696599.65830048;472.15805008;0.266667;0.25098;0.219608;16448.000000;1.000000;1.000000;1.000000;1.000000;-0.028925;0.028925;-0.028925;1.000000
445631.98620041;5696599.28819855;472.11805012;0.290196;0.301961;0.305882;19532.000000;1.000000;1.000000;1.000000;1.000000;-0.041801;0.041801;-0.041801;1.000000
445631.75510223;5696599.86709793;472.17035009;0.262745;0.27451;0.160784;16705.000000;1.000000;1.000000;1.000000;1.000000;-0.037098;0.037098;-0.037098;1.000000
445631.86760147;5696599.45310028;472.13324978;0.447059;0.435294;0.4;28270.000000;1.000000;1.000000;1.000000;1.000000;0.123100;-0.123100;0.123100;1.000000
445632.12710007;5696599.46229752;472.10085012;0.623529;0.611765;0.576471;39835.000000;1.000000;1.000000;1.000000;1.000000;0.094899;-0.094899;0.094899;1.000000
445631.57930191;5696599.43049820;472.15485003;0.239216;0.254902;0.270588;16448.000000;1.000000;1.000000;1.000000;1.000000;-0.141325;0.141325;-0.141325;1.000000
445631.58040054;5696599.39299973;472.15684988;0.12549;0.141176;0.160784;8995.000000;1.000000;1.000000;1.000000;1.000000;-0.125876;0.125876;-0.125876;1.000000
445631.76570328;5696599.62339981;472.15395023;0.588235;0.576471;0.545098;37779.000000;1.000000;1.000000;1.000000;1.000000;0.045076;-0.045076;0.045076;1.000000
445631.58870132;5696599.42959793;472.15294983;0.341176;0.356863;0.368627;23130.000000;1.000000;1.000000;1.000000;1.000000;-0.131926;0.131926;-0.131926;1.000000
445631.63160141;5696599.53560074;472.14685013;0.541176;0.537255;0.529412;35209.000000;1.000000;1.000000;1.000000;1.000000;-0.089025;0.089025;-0.089025;1.000000
445631.74760254;5696599.83740051;472.16965010;0.576471;0.572549;0.478431;36751.000000;1.000000;1.000000;1.000000;1.000000;0.007401;0.007401;-0.007401;1.000000
445632.11190231;5696599.62940033;472.11144974;0.670588;0.65098;0.615686;42662.000000;1.000000;1.000000;1.000000;1.000000;0.108725;-0.108725;0.108725;1.000000
445631.71260269;5696599.55589874;472.15544989;0.6;0.588235;0.568627;38550.000000;1.000000;1.000000;1.000000;1.000000;-0.008024;0.008024;-0.008024;1.000000
445631.79990204;5696599.50379761;472.13315012;0.172549;0.164706;0.160784;10794.000000;1.000000;1.000000;1.000000;1.000000;0.079275;-0.079275;0.079275;1.000000
445632.14730270;5696599.63089951;472.10605003;0.592157;0.576471;0.54902;37779.000000;1.000000;1.000000;1.000000;1.000000;0.073324;-0.073324;0.073324;1.000000
445631.93160065;5696599.43559845;472.12894966;0.698039;0.666667;0.627451;43947.000000;1.000000;1.000000;1.000000;1.000000;0.105598;-0.105598;0.105598;1.000000
445631.93250092;5696599.44489868;472.12904980;0.694118;0.662745;0.623529;43690.000000;1.000000;1.000000;1.000000;1.000000;0.114899;-0.114899;0.114899;1.000000
445631.65690048;5696599.58219727;472.14855005;0.427451;0.411765;0.380392;26985.000000;1.000000;1.000000;1.000000;1.000000;-0.063726;0.063726;-0.063726;1.000000
445631.84510239;5696599.77709778;472.16405012;0.439216;0.431373;0.384314;28013.000000;1.000000;1.000000;1.000000;1.000000;-0.081484;0.081484;-0.081484;1.000000
445631.95470245;5696599.79059799;472.14584972;0.505882;0.486275;0.4;31611.000000;1.000000;1.000000;1.000000;1.000000;-0.176042;0.176042;-0.176042;1.000000
445632.58370026;5696599.43569763;472.13514997;0.403922;0.388235;0.364706;25443.000000;1.000000;1.000000;1.000000;1.000000;-0.133668;0.133668;-0.133668;1.000000
445632.30870255;5696599.80520065;472.10144999;0.521569;0.505882;0.454902;32896.000000;1.000000;1.000000;1.000000;1.000000;-0.024799;0.024799;-0.024799;1.000000
445632.29990204;5696599.36659821;472.11445000;0.376471;0.376471;0.372549;24415.000000;1.000000;1.000000;1.000000;1.000000;-0.036598;0.036598;-0.036598;1.000000
445632.30230148;5696599.53489883;472.09795000;0.345098;0.329412;0.309804;21588.000000;1.000000;1.000000;1.000000;1.000000;-0.081675;0.081675;-0.081675;1.000000
445632.59700211;5696599.34369858;472.11595013;0.615686;0.607843;0.603922;39835.000000;1.000000;1.000000;1.000000;1.000000;-0.096106;0.096106;-0.096106;1.000000
445632.69260223;5696599.29949768;472.13374998;0.117647;0.12549;0.14902;8224.000000;1.000000;1.000000;1.000000;1.000000;-0.190725;0.190725;-0.190725;1.000000
445632.41930206;5696599.81130035;472.09954979;0.517647;0.509804;0.47451;33153.000000;1.000000;1.000000;1.000000;1.000000;-0.076011;0.076011;-0.076011;1.000000
445632.37110336;5696599.44669922;472.10234978;0.109804;0.121569;0.145098;7710.000000;1.000000;1.000000;1.000000;1.000000;-0.116752;0.116752;-0.116752;1.000000
445632.28090103;5696599.55330093;472.09254982;0.34902;0.337255;0.317647;22102.000000;1.000000;1.000000;1.000000;1.000000;-0.060274;0.060274;-0.060274;1.000000
445632.38510330;5696599.54809769;472.10414984;0.207843;0.215686;0.211765;13878.000000;1.000000;1.000000;1.000000;1.000000;-0.164476;0.164476;-0.164476;1.000000
445632.23090179;5696599.46689804;472.08925011;0.47451;0.443137;0.411765;29298.000000;1.000000;1.000000;1.000000;1.000000;-0.015582;0.015582;-0.015582;1.000000
445632.65170105;5696599.41079910;472.13094999;0.466667;0.470588;0.470588;30583.000000;1.000000;1.000000;1.000000;1.000000;-0.170223;0.170223;-0.170223;1.000000
445632.42960175;5696599.77289780;472.10185005;0.309804;0.298039;0.270588;19532.000000;1.000000;1.000000;1.000000;1.000000;-0.101550;0.101550;-0.101550;1.000000
445632.36840256;5696599.49139984;472.09814980;0.0941176;0.0980392;0.109804;6425.000000;1.000000;1.000000;1.000000;1.000000;-0.147776;0.147776;-0.147776;1.000000
445632.49979980;5696599.25459869;472.11525013;0.341176;0.321569;0.294118;21074.000000;1.000000;1.000000;1.000000;1.000000;0.002077;-0.002077;0.002077;1.000000
445632.33049973;5696599.68409927;472.09404995;0.576471;0.568627;0.556863;37265.000000;1.000000;1.000000;1.000000;1.000000;-0.109873;0.109873;-0.109873;1.000000
445632.33430298;5696599.64879807;472.09145023;0.568627;0.568627;0.560784;37008.000000;1.000000;1.000000;1.000000;1.000000;-0.113676;0.113676;-0.113676;1.000000
445632.37510117;5696599.53969772;472.10134985;0.137255;0.145098;0.145098;9252.000000;1.000000;1.000000;1.000000;1.000000;-0.154474;0.154474;-0.154474;1.000000
445632.24559982;5696599.72929962;472.10004999;0.647059;0.635294;0.611765;41634.000000;1.000000;1.000000;1.000000;1.000000;-0.024973;0.024973;-0.024973;1.000000
445632.25940140;5696599.45009811;472.09734966;0.266667;0.254902;0.239216;16705.000000;1.000000;1.000000;1.000000;1.000000;-0.048033;0.048033;-0.048033;1.000000
445632.20710190;5696599.34499939;472.10535004;0.25098;0.247059;0.243137;16191.000000;1.000000;1.000000;1.000000;1.000000;0.014999;-0.014999;0.014999;1.000000
445632.19090088;5696599.49379929;472.09944965;0.54902;0.533333;0.501961;34952.000000;1.000000;1.000000;1.000000;1.000000;0.029726;-0.029726;0.029726;1.000000
445632.19540222;5696599.39290054;472.10074999;0.486275;0.482353;0.466667;31354.000000;1.000000;1.000000;1.000000;1.000000;0.062984;-0.062984;0.062984;1.000000
445632.41790207;5696599.59649857;472.09924986;0.835294;0.847059;0.854902;55255.000000;1.000000;1.000000;1.000000;1.000000;-0.197275;0.197275;-0.197275;1.000000
445632.66920288;5696599.22690018;472.13884975;0.341176;0.345098;0.356863;22616.000000;1.000000;1.000000;1.000000;1.000000;-0.167326;0.167326;-0.167326;1.000000
445632.36950119;5696599.45379837;472.10004999;0.164706;0.172549;0.192157;11051.000000;1.000000;1.000000;1.000000;1.000000;-0.123813;0.123813;-0.123813;1.000000
445632.36430176;5696599.77210052;472.09664967;0.745098;0.737255;0.709804;48059.000000;1.000000;1.000000;1.000000;1.000000;-0.060837;0.060837;-0.060837;1.000000
445632.22210129;5696599.40209778;472.09975006;0.345098;0.337255;0.32549;22102.000000;1.000000;1.000000;1.000000;1.000000;-0.072098;0.072098;-0.072098;1.000000
445632.53460129;5696599.27709778;472.11704971;0.435294;0.407843;0.396078;26985.000000;1.000000;1.000000;1.000000;1.000000;-0.032724;0.032724;-0.032724;1.000000
445632.21720322;5696599.72719772;472.10335018;0.345098;0.333333;0.305882;21845.000000;1.000000;1.000000;1.000000;1.000000;0.003424;-0.003424;0.003424;1.000000
445632.51930054;5696599.42299850;472.13674976;0.764706;0.74902;0.737255;49087.000000;1.000000;1.000000;1.000000;1.000000;-0.094617;0.094617;-0.094617;1.000000
445632.27940186;5696599.60959824;472.08614971;0.439216;0.435294;0.419608;28270.000000;1.000000;1.000000;1.000000;1.000000;-0.058775;0.058775;-0.058775;1.000000
445632.40150269;5696599.59569748;472.09854986;0.321569;0.333333;0.341176;21588.000000;1.000000;1.000000;1.000000;1.000000;-0.180876;0.180876;-0.180876;1.000000
445632.49540146;5696599.75729950;472.11404993;0.454902;0.439216;0.396078;28527.000000;1.000000;1.000000;1.000000;1.000000;-0.166487;0.166487;-0.166487;1.000000
445632.36940201;5696599.65019806;472.09305002;0.654902;0.65098;0.639216;42405.000000;1.000000;1.000000;1.000000;1.000000;-0.148775;0.148775;-0.148775;1.000000
445632.32220276;5696599.69429977;472.09145023;0.517647;0.509804;0.494118;33410.000000;1.000000;1.000000;1.000000;1.000000;-0.101576;0.101576;-0.101576;1.000000
445632.37230118;5696599.83659943;472.10475018;0.65098;0.647059;0.627451;42148.000000;1.000000;1.000000;1.000000;1.000000;0.027479;-0.027479;0.027479;1.000000
445632.44730194;5696599.83899887;472.10584976;0.819608;0.827451;0.807843;53713.000000;1.000000;1.000000;1.000000;1.000000;0.102072;-0.102072;0.102072;1.000000
445632.37290009;5696599.61249741;472.09275009;0.47451;0.47451;0.478431;31097.000000;1.000000;1.000000;1.000000;1.000000;-0.152273;0.152273;-0.152273;1.000000
445632.62720306;5696599.31749924;472.11704971;0.321569;0.298039;0.301961;19789.000000;1.000000;1.000000;1.000000;1.000000;-0.125326;0.125326;-0.125326;1.000000
445632.32360275;5696599.65909775;472.09104969;0.309804;0.305882;0.298039;20046.000000;1.000000;1.000000;1.000000;1.000000;-0.102976;0.102976;-0.102976;1.000000
445632.25020035;5696599.40419968;472.10104992;0.247059;0.25098;0.247059;16191.000000;1.000000;1.000000;1.000000;1.000000;0.074200;-0.074200;0.074200;1.000000
445632.35880096;5696599.71419724;472.09795000;0.654902;0.65098;0.639216;42405.000000;1.000000;1.000000;1.000000;1.000000;-0.116550;0.116550;-0.116550;1.000000
445632.36079987;5696599.65799912;472.09275009;0.533333;0.529412;0.521569;34695.000000;1.000000;1.000000;1.000000;1.000000;-0.140173;0.140173;-0.140173;1.000000
445632.28720291;5696599.61820038;472.08664991;0.439216;0.439216;0.423529;28527.000000;1.000000;1.000000;1.000000;1.000000;-0.066576;0.066576;-0.066576;1.000000
445632.26320084;5696599.79529770;472.10624983;0.552941;0.529412;0.466667;34695.000000;1.000000;1.000000;1.000000;1.000000;-0.034702;0.034702;-0.034702;1.000000
445632.34630020;5696599.80639847;472.10085012;0.270588;0.254902;0.219608;16705.000000;1.000000;1.000000;1.000000;1.000000;-0.023611;0.023611;-0.023611;1.000000
445632.19980057;5696599.31539734;472.10234978;0.133333;0.137255;0.141176;8738.000000;1.000000;1.000000;1.000000;1.000000;-0.014603;0.014603;-0.014603;1.000000
445632.33970078;5696599.31399735;472.10864975;0.27451;0.278431;0.278431;17990.000000;1.000000;1.000000;1.000000;1.000000;-0.016003;0.016003;-0.016003;1.000000
445632.27430161;5696599.50720032;472.09174969;0.564706;0.545098;0.505882;35723.000000;1.000000;1.000000;1.000000;1.000000;-0.053675;0.053675;-0.053675;1.000000
445632.36219986;5696599.62280090;472.09244968;0.345098;0.345098;0.345098;22616.000000;1.000000;1.000000;1.000000;1.000000;-0.141573;0.141573;-0.141573;1.000000
445632.19390305;5696599.40009888;472.09845020;0.352941;0.345098;0.32549;22616.000000;1.000000;1.000000;1.000000;1.000000;0.070245;-0.070245;0.070245;1.000000
445632.67790039;5696599.24469955;472.13945009;0.32549;0.333333;0.337255;21588.000000;1.000000;1.000000;1.000000;1.000000;-0.176023;0.176023;-0.176023;1.000000
445632.21260269;5696599.42180069;472.09025003;0.415686;0.403922;0.372549;26471.000000;1.000000;1.000000;1.000000;1.000000;0.057347;-0.057347;0.057347;1.000000
445632.29280289;5696599.73200043;472.09524967;0.733333;0.717647;0.694118;47031.000000;1.000000;1.000000;1.000000;1.000000;-0.072176;0.072176;-0.072176;1.000000
445632.30730255;5696599.60930069;472.08974983;0.380392;0.380392;0.372549;24672.000000;1.000000;1.000000;1.000000;1.000000;-0.086676;0.086676;-0.086676;1.000000
445632.28330048;5696599.73049744;472.09714987;0.733333;0.721569;0.698039;47288.000000;1.000000;1.000000;1.000000;1.000000;-0.062674;0.062674;-0.062674;1.000000
445632.37220200;5696599.36229904;472.11074974;0.231373;0.247059;0.254902;15934.000000;1.000000;1.000000;1.000000;1.000000;-0.032623;0.032623;-0.032623;1.000000
445632.20260056;5696599.46479996;472.09034969;0.388235;0.364706;0.329412;23901.000000;1.000000;1.000000;1.000000;1.000000;0.022696;-0.022696;0.022696;1.000000
445632.24100311;5696599.65500076;472.09894993;0.52549;0.521569;0.498039;33924.000000;1.000000;1.000000;1.000000;1.000000;-0.020376;0.020376;-0.020376;1.000000
445632.46710022;5696599.36479767;472.13604977;0.486275;0.501961;0.521569;32639.000000;1.000000;1.000000;1.000000;1.000000;-0.034976;0.034976;-0.034976;1.000000
445632.52079971;5696599.41349991;472.13665010;0.827451;0.819608;0.807843;53713.000000;1.000000;1.000000;1.000000;1.000000;-0.085617;0.085617;-0.085617;1.000000
445632.50480087;5696599.36599930;472.13304998;0.482353;0.494118;0.490196;31868.000000;1.000000;1.000000;1.000000;1.000000;-0.036118;0.036118;-0.036118;1.000000
445632.46910294;5696599.72019775;472.10304977;0.764706;0.756863;0.733333;49344.000000;1.000000;1.000000;1.000000;1.000000;-0.165236;0.165236;-0.165236;1.000000
445632.52390106;5696599.34099777;472.12435009;0.8;0.792157;0.784314;51914.000000;1.000000;1.000000;1.000000;1.000000;-0.024617;0.024617;-0.024617;1.000000
445632.22970016;5696599.42959793;472.09114983;0.537255;0.52549;0.501961;34438.000000;1.000000;1.000000;1.000000;1.000000;-0.049803;0.049803;-0.049803;1.000000
445632.33390244;5696599.40550049;472.11644985;0.666667;0.686275;0.682353;44461.000000;1.000000;1.000000;1.000000;1.000000;-0.075500;0.075500;-0.075500;1.000000
445632.44980057;5696599.76629837;472.10734989;0.560784;0.556863;0.529412;36237.000000;1.000000;1.000000;1.000000;1.000000;-0.122107;0.122107;-0.122107;1.000000
445632.41590317;5696599.67159851;472.09305002;0.737255;0.737255;0.72549;48059.000000;1.000000;1.000000;1.000000;1.000000;-0.173291;0.173291;-0.173291;1.000000
445632.23130234;5696599.85890015;472.11494972;0.462745;0.427451;0.309804;27756.000000;1.000000;1.000000;1.000000;1.000000;0.028900;-0.028900;0.028900;1.000000
445632.52800186;5696599.46199997;472.12824966;0.45098;0.435294;0.423529;28527.000000;1.000000;1.000000;1.000000;1.000000;-0.134560;0.134560;-0.134560;1.000000
445632.48530014;5696599.38410004;472.13705017;0.713725;0.729412;0.741176;47545.000000;1.000000;1.000000;1.000000;1.000000;-0.054100;0.054100;-0.054100;1.000000
445632.43100174;5696599.73779877;472.10155012;0.521569;0.517647;0.494118;33667.000000;1.000000;1.000000;1.000000;1.000000;-0.125658;0.125658;-0.125658;1.000000
445632.64660080;5696599.28050049;472.12914993;0.309804;0.301961;0.305882;19789.000000;1.000000;1.000000;1.000000;1.000000;-0.144724;0.144724;-0.144724;1.000000
445632.59920319;5696599.29669769;472.12484982;0.27451;0.258824;0.254902;17219.000000;1.000000;1.000000;1.000000;1.000000;-0.097326;0.097326;-0.097326;1.000000
445632.63790329;5696599.26259811;472.12855007;0.243137;0.239216;0.25098;15677.000000;1.000000;1.000000;1.000000;1.000000;-0.136026;0.136026;-0.136026;1.000000
445632.58189972;5696599.28660019;472.12395002;0.384314;0.368627;0.360784;24158.000000;1.000000;1.000000;1.000000;1.000000;-0.080023;0.080023;-0.080023;1.000000
445632.36240204;5696599.40759857;472.11084988;0.156863;0.176471;0.180392;11051.000000;1.000000;1.000000;1.000000;1.000000;-0.077599;0.077599;-0.077599;1.000000
445632.61260040;5696599.24159821;472.12944986;0.313725;0.309804;0.317647;20303.000000;1.000000;1.000000;1.000000;1.000000;-0.110723;0.110723;-0.110723;1.000000
445632.56050308;5696599.33289917;472.12585022;0.431373;0.423529;0.403922;27756.000000;1.000000;1.000000;1.000000;1.000000;-0.058698;0.058698;-0.058698;1.000000
445632.56490143;5696599.23800095;472.19484999;0.188235;0.211765;0.184314;13107.000000;1.000000;1.000000;1.000000;1.000000;-0.063025;0.063025;-0.063025;1.000000
445632.23750122;5696599.71829803;472.10185005;0.435294;0.423529;0.4;27756.000000;1.000000;1.000000;1.000000;1.000000;-0.016874;0.016874;-0.016874;1.000000
445632.18990143;5696599.51239975;472.10895016;0.721569;0.717647;0.690196;46774.000000;1.000000;1.000000;1.000000;1.000000;0.030725;-0.030725;0.030725;1.000000
445632.46020325;5696599.50369843;472.10934975;0.12549;0.129412;0.133333;8224.000000;1.000000;1.000000;1.000000;1.000000;-0.173698;0.173698;-0.173698;1.000000
445632.42280014;5696599.50250061;472.10764982;0.611765;0.627451;0.639216;40863.000000;1.000000;1.000000;1.000000;1.000000;-0.172501;0.172501;-0.172501;1.000000
445632.21600159;5696599.79260071;472.11114981;0.631373;0.603922;0.552941;39578.000000;1.000000;1.000000;1.000000;1.000000;0.004625;-0.004625;0.004625;1.000000
445632.53690155;5696599.47999771;472.12424995;0.4;0.384314;0.376471;25186.000000;1.000000;1.000000;1.000000;1.000000;-0.154033;0.154033;-0.154033;1.000000
445632.27100189;5696599.57060059;472.08995010;0.333333;0.321569;0.298039;21074.000000;1.000000;1.000000;1.000000;1.000000;-0.050375;0.050375;-0.050375;1.000000
445632.39770325;5696599.25189789;472.14545013;0.435294;0.415686;0.392157;27242.000000;1.000000;1.000000;1.000000;1.000000;0.078102;-0.078102;0.078102;1.000000
445632.47130020;5696599.45109756;472.11854984;0.145098;0.14902;0.160784;9766.000000;1.000000;1.000000;1.000000;1.000000;-0.121098;0.121098;-0.121098;1.000000
445632.34070023;5696599.25760086;472.12435009;0.596078;0.596078;0.576471;38807.000000;1.000000;1.000000;1.000000;1.000000;-0.072399;0.072399;-0.072399;1.000000
445632.26490219;5696599.30940063;472.09824993;0.478431;0.47451;0.482353;31097.000000;1.000000;1.000000;1.000000;1.000000;0.020599;-0.020599;0.020599;1.000000
445632.19780167;5696599.56789978;472.10064985;0.666667;0.647059;0.623529;42405.000000;1.000000;1.000000;1.000000;1.000000;0.022825;-0.022825;0.022825;1.000000
445632.36210068;5696599.82589920;472.10185005;0.447059;0.439216;0.411765;28527.000000;1.000000;1.000000;1.000000;1.000000;-0.016977;0.016977;-0.016977;1.000000
445632.42420013;5696599.46729858;472.10734989;0.615686;0.635294;0.647059;41120.000000;1.000000;1.000000;1.000000;1.000000;-0.137299;0.137299;-0.137299;1.000000
445632.32160004;5696599.48879822;472.09364988;0.431373;0.423529;0.415686;27756.000000;1.000000;1.000000;1.000000;1.000000;-0.100973;0.100973;-0.100973;1.000000
445632.27520187;5696599.71959885;472.09664967;0.6;0.588235;0.564706;38550.000000;1.000000;1.000000;1.000000;1.000000;-0.054575;0.054575;-0.054575;1.000000
445632.24790009;5696599.28050049;472.10414984;0.494118;0.494118;0.505882;32382.000000;1.000000;1.000000;1.000000;1.000000;-0.049500;0.049500;-0.049500;1.000000
445632.48820313;5696599.52449997;472.10395004;0.0823529;0.0862745;0.101961;5654.000000;1.000000;1.000000;1.000000;1.000000;-0.194500;0.194500;-0.194500;1.000000
445632.38750275;5696599.28809937;472.13614990;0.745098;0.733333;0.713725;48059.000000;1.000000;1.000000;1.000000;1.000000;0.041901;-0.041901;0.041901;1.000000
445632.30490311;5696599.68419846;472.09054996;0.509804;0.501961;0.486275;32896.000000;1.000000;1.000000;1.000000;1.000000;-0.084276;0.084276;-0.084276;1.000000
445632.26870163;5696599.64559753;472.08844997;0.443137;0.435294;0.415686;28527.000000;1.000000;1.000000;1.000000;1.000000;-0.048075;0.048075;-0.048075;1.000000
445632.65730103;5696599.44759949;472.13394978;0.254902;0.258824;0.254902;16705.000000;1.000000;1.000000;1.000000;1.000000;-0.194901;0.194901;-0.194901;1.000000
445632.53510101;5696599.28399857;472.11945011;0.533333;0.505882;0.494118;33410.000000;1.000000;1.000000;1.000000;1.000000;-0.033224;0.033224;-0.033224;1.000000
445632.38120087;5696599.65139969;472.09364988;0.662745;0.662745;0.65098;43176.000000;1.000000;1.000000;1.000000;1.000000;-0.160574;0.160574;-0.160574;1.000000
445632.48180206;5696599.44069870;472.12354996;0.239216;0.235294;0.247059;15420.000000;1.000000;1.000000;1.000000;1.000000;-0.110699;0.110699;-0.110699;1.000000
445632.20730026;5696599.56939896;472.09874966;0.717647;0.694118;0.666667;45746.000000;1.000000;1.000000;1.000000;1.000000;0.013327;-0.013327;0.013327;1.000000
445632.44900330;5696599.34549912;472.13495018;0.337255;0.345098;0.368627;22616.000000;1.000000;1.000000;1.000000;1.000000;-0.015499;0.015499;-0.015499;1.000000
445632.62010010;5696599.26909836;472.12314989;0.223529;0.203922;0.207843;13621.000000;1.000000;1.000000;1.000000;1.000000;-0.118223;0.118223;-0.118223;1.000000
445632.38240250;5696599.61389740;472.09324982;0.498039;0.501961;0.505882;32639.000000;1.000000;1.000000;1.000000;1.000000;-0.161776;0.161776;-0.161776;1.000000
445632.27480133;5696599.27319916;472.11455013;0.458824;0.47451;0.47451;30583.000000;1.000000;1.000000;1.000000;1.000000;-0.056801;0.056801;-0.056801;1.000000
445632.34660156;5696599.55649765;472.09555008;0.447059;0.443137;0.447059;29041.000000;1.000000;1.000000;1.000000;1.000000;-0.125975;0.125975;-0.125975;1.000000
445632.19650085;5696599.38099869;472.10535004;0.588235;0.584314;0.572549;38036.000000;1.000000;1.000000;1.000000;1.000000;0.051044;-0.051044;0.051044;1.000000
445632.45210083;5696599.27969940;472.13665010;0.619608;0.592157;0.560784;39064.000000;1.000000;1.000000;1.000000;1.000000;0.049776;-0.049776;0.049776;1.000000
445632.65880020;5696599.43810089;472.13385012;0.160784;0.164706;0.164706;10537.000000;1.000000;1.000000;1.000000;1.000000;-0.190554;0.190554;-0.190554;1.000000
445632.31770142;5696599.57319839;472.09674980;0.458824;0.454902;0.45098;29812.000000;1.000000;1.000000;1.000000;1.000000;-0.097075;0.097075;-0.097075;1.000000
445632.39010056;5696599.42619904;472.10524990;0.0745098;0.0901961;0.105882;5654.000000;1.000000;1.000000;1.000000;1.000000;-0.096199;0.096199;-0.096199;1.000000
445632.43160065;5696599.26289948;472.14244987;0.705882;0.67451;0.643137;44461.000000;1.000000;1.000000;1.000000;1.000000;0.067116;-0.067116;0.067116;1.000000
445632.66100128;5696599.40999802;472.12894966;0.533333;0.537255;0.537255;34952.000000;1.000000;1.000000;1.000000;1.000000;-0.178102;0.178102;-0.178102;1.000000
445632.39970215;5696599.82710083;472.10115005;0.521569;0.517647;0.490196;33667.000000;1.000000;1.000000;1.000000;1.000000;-0.054153;0.054153;-0.054153;1.000000
445632.29050262;5696599.78579910;472.10274984;0.592157;0.568627;0.521569;37265.000000;1.000000;1.000000;1.000000;1.000000;-0.044242;0.044242;-0.044242;1.000000
445632.67310150;5696599.33650024;472.12404968;0.262745;0.270588;0.290196;17476.000000;1.000000;1.000000;1.000000;1.000000;-0.171348;0.171348;-0.171348;1.000000
445632.61100204;5696599.47529800;472.12984993;0.227451;0.211765;0.188235;13878.000000;1.000000;1.000000;1.000000;1.000000;-0.181714;0.181714;-0.181714;1.000000
445632.36590012;5696599.79059799;472.09924986;0.701961;0.694118;0.666667;45232.000000;1.000000;1.000000;1.000000;1.000000;-0.044312;0.044312;-0.044312;1.000000
445632.42230042;5696599.33399780;472.13364985;0.2;0.2;0.219608;13107.000000;1.000000;1.000000;1.000000;1.000000;-0.003998;0.003998;-0.003998;1.000000
445632.36010178;5696599.45469864;472.10195019;0.168627;0.168627;0.184314;11051.000000;1.000000;1.000000;1.000000;1.000000;-0.124699;0.124699;-0.124699;1.000000
445632.56450089;5696599.50079926;472.12575008;0.490196;0.486275;0.486275;31868.000000;1.000000;1.000000;1.000000;1.000000;-0.181918;0.181918;-0.181918;1.000000
445632.32980164;5696599.75189789;472.09485008;0.545098;0.533333;0.505882;34952.000000;1.000000;1.000000;1.000000;1.000000;-0.078102;0.078102;-0.078102;1.000000
445632.32010086;5696599.30409821;472.10764982;0.305882;0.301961;0.298039;19789.000000;1.000000;1.000000;1.000000;1.000000;0.025902;-0.025902;0.025902;1.000000
445632.57790192;5696599.39669998;472.12974979;0.392157;0.392157;0.392157;25700.000000;1.000000;1.000000;1.000000;1.000000;-0.101137;0.101137;-0.101137;1.000000
445632.40830048;5696599.64189728;472.09474995;0.513725;0.521569;0.513725;33924.000000;1.000000;1.000000;1.000000;1.000000;-0.187674;0.187674;-0.187674;1.000000
445632.56540115;5696599.46319778;472.12995007;0.780392;0.760784;0.745098;50115.000000;1.000000;1.000000;1.000000;1.000000;-0.147570;0.147570;-0.147570;1.000000
