//X;Y;Z;Rf;Gf;Bf;Intensity;Return Number;Number Of Returns;Scan Direction Flag;Point Source ID;C2M signed distances[-][<0.8];C2M signed distances[<0.4];C2M signed distances[-][<0.2];Stump120
300
445602.45290192;5696581.80099876;473.43564989;0.705882;0.639216;0.505882;42148.000000;1.000000;1.000000;1.000000;1.000000;-0.029001;0.029001;-0.029001;1.000000
445602.79030140;5696581.95609863;473.32224991;0.517647;0.517647;0.34902;32639.000000;1.000000;1.000000;1.000000;1.000000;-0.126099;0.126099;-0.126099;1.000000
445602.45950134;5696581.93989952;473.47484972;0.741176;0.690196;0.545098;44975.000000;1.000000;1.000000;1.000000;1.000000;0.109900;-0.109900;0.109900;1.000000
445602.58530148;5696581.72389992;473.39645006;0.662745;0.596078;0.447059;39064.000000;1.000000;1.000000;1.000000;1.000000;-0.106100;0.106100;-0.106100;1.000000
445602.39970215;5696581.71539886;473.39954998;0.666667;0.6;0.466667;39578.000000;1.000000;1.000000;1.000000;1.000000;-0.114601;0.114601;-0.114601;1.000000
445602.56570156;5696582.00779922;473.43615009;0.780392;0.717647;0.576471;47031.000000;1.000000;1.000000;1.000000;1.000000;-0.177799;0.177799;-0.177799;1.000000
445602.65520103;5696581.82790001;473.35885002;0.690196;0.639216;0.498039;41634.000000;1.000000;1.000000;1.000000;1.000000;-0.002100;0.002100;-0.002100;1.000000
445602.68310173;5696581.79279907;473.34114983;0.592157;0.556863;0.431373;36237.000000;1.000000;1.000000;1.000000;1.000000;-0.037201;0.037201;-0.037201;1.000000
445602.39760216;5696581.78059967;473.42584993;0.533333;0.486275;0.337255;31611.000000;1.000000;1.000000;1.000000;1.000000;-0.049400;0.049400;-0.049400;1.000000
445602.49890144;5696581.83889969;473.42654993;0.623529;0.54902;0.368627;35980.000000;1.000000;1.000000;1.000000;1.000000;0.008900;-0.008900;0.008900;1.000000
445602.51090153;5696581.95419891;473.45174982;0.843137;0.784314;0.647059;51400.000000;1.000000;1.000000;1.000000;1.000000;0.124199;-0.124199;0.124199;1.000000
445602.53340157;5696581.85229881;473.41424992;0.576471;0.498039;0.309804;32639.000000;1.000000;1.000000;1.000000;1.000000;-0.022299;0.022299;-0.022299;1.000000
445602.55090149;5696581.91599854;473.41814997;0.65098;0.580392;0.435294;38293.000000;1.000000;1.000000;1.000000;1.000000;0.085999;-0.085999;0.085999;1.000000
445602.38130196;5696581.90059860;473.46614983;0.4;0.376471;0.203922;23644.000000;1.000000;1.000000;1.000000;1.000000;-0.070599;0.070599;-0.070599;1.000000
445602.74990089;5696581.84999855;473.32385017;0.733333;0.709804;0.623529;46260.000000;1.000000;1.000000;1.000000;1.000000;0.019999;-0.019999;0.019999;1.000000
445602.36990173;5696581.87150009;473.45134975;0.392157;0.372549;0.180392;23387.000000;1.000000;1.000000;1.000000;1.000000;0.041500;-0.041500;0.041500;1.000000
445602.63890179;5696581.85499962;473.36084988;0.701961;0.627451;0.501961;41634.000000;1.000000;1.000000;1.000000;1.000000;0.025000;-0.025000;0.025000;1.000000
445602.61360176;5696581.76829918;473.37965014;0.647059;0.580392;0.431373;38036.000000;1.000000;1.000000;1.000000;1.000000;-0.061701;0.061701;-0.061701;1.000000
445602.78260143;5696581.69520004;473.31645014;0.286275;0.27451;0.172549;17476.000000;1.000000;1.000000;1.000000;1.000000;-0.134800;0.134800;-0.134800;1.000000
445602.56560143;5696581.74199875;473.40504982;0.47451;0.411765;0.258824;26985.000000;1.000000;1.000000;1.000000;1.000000;0.088001;-0.088001;0.088001;1.000000
445602.56640156;5696581.77689941;473.40784981;0.435294;0.368627;0.215686;24158.000000;1.000000;1.000000;1.000000;1.000000;0.053101;-0.053101;0.053101;1.000000
445602.39540108;5696581.84799965;473.45924999;0.537255;0.498039;0.301961;31868.000000;1.000000;1.000000;1.000000;1.000000;0.018000;-0.018000;0.018000;1.000000
445602.66590126;5696581.83869942;473.35015013;0.627451;0.584314;0.458824;38036.000000;1.000000;1.000000;1.000000;1.000000;0.008699;-0.008699;0.008699;1.000000
445602.58910187;5696581.83579834;473.38864996;0.647059;0.576471;0.419608;38036.000000;1.000000;1.000000;1.000000;1.000000;0.005798;-0.005798;0.005798;1.000000
445602.44130142;5696581.86469849;473.46145012;0.662745;0.603922;0.427451;39321.000000;1.000000;1.000000;1.000000;1.000000;0.034698;-0.034698;0.034698;1.000000
445602.65690144;5696581.89320000;473.35274984;0.662745;0.611765;0.498039;40092.000000;1.000000;1.000000;1.000000;1.000000;0.063200;-0.063200;0.063200;1.000000
445602.39350136;5696581.88079842;473.46644976;0.541176;0.52549;0.317647;33153.000000;1.000000;1.000000;1.000000;1.000000;0.050798;-0.050798;0.050798;1.000000
445602.72380169;5696581.76610001;473.31465008;0.615686;0.596078;0.470588;38293.000000;1.000000;1.000000;1.000000;1.000000;0.063900;-0.063900;0.063900;1.000000
445602.66090210;5696581.73629959;473.35344984;0.694118;0.65098;0.533333;42662.000000;1.000000;1.000000;1.000000;1.000000;0.093730;-0.093730;0.093730;1.000000
445602.43860157;5696581.94639977;473.48325016;0.623529;0.564706;0.423529;37008.000000;1.000000;1.000000;1.000000;1.000000;0.116400;-0.116400;0.116400;1.000000
445602.46530159;5696581.92319878;473.46554996;0.772549;0.721569;0.564706;47031.000000;1.000000;1.000000;1.000000;1.000000;0.093199;-0.093199;0.093199;1.000000
445602.68060120;5696581.71829994;473.34474995;0.654902;0.623529;0.505882;40606.000000;1.000000;1.000000;1.000000;1.000000;-0.111700;0.111700;-0.111700;1.000000
445602.45190151;5696581.81959923;473.44514992;0.705882;0.643137;0.498039;42148.000000;1.000000;1.000000;1.000000;1.000000;-0.010401;0.010401;-0.010401;1.000000
445602.64200218;5696581.76359947;473.36214973;0.486275;0.423529;0.286275;27756.000000;1.000000;1.000000;1.000000;1.000000;-0.066401;0.066401;-0.066401;1.000000
445602.67950161;5696581.75579842;473.34284975;0.568627;0.533333;0.396078;34438.000000;1.000000;1.000000;1.000000;1.000000;-0.074202;0.074202;-0.074202;1.000000
445602.74400146;5696581.71039970;473.32194998;0.576471;0.568627;0.454902;36494.000000;1.000000;1.000000;1.000000;1.000000;-0.119600;0.119600;-0.119600;1.000000
445602.60430153;5696581.89979942;473.39234974;0.639216;0.584314;0.447059;38293.000000;1.000000;1.000000;1.000000;1.000000;0.069799;-0.069799;0.069799;1.000000
445602.47970207;5696581.81250008;473.43464996;0.686275;0.611765;0.462745;40349.000000;1.000000;1.000000;1.000000;1.000000;-0.017500;0.017500;-0.017500;1.000000
445602.61910160;5696581.82619865;473.37825014;0.635294;0.564706;0.423529;37265.000000;1.000000;1.000000;1.000000;1.000000;-0.003801;0.003801;-0.003801;1.000000
445602.54950150;5696581.92769821;473.42285015;0.741176;0.678431;0.521569;44461.000000;1.000000;1.000000;1.000000;1.000000;0.097698;-0.097698;0.097698;1.000000
445602.55880173;5696581.69359978;473.40415003;0.670588;0.607843;0.466667;39835.000000;1.000000;1.000000;1.000000;1.000000;-0.136400;0.136400;-0.136400;1.000000
445602.45210178;5696581.79179962;473.43314983;0.717647;0.65098;0.521569;42919.000000;1.000000;1.000000;1.000000;1.000000;-0.038200;0.038200;-0.038200;1.000000
445602.40980156;5696581.72609909;473.40485003;0.611765;0.54902;0.415686;36237.000000;1.000000;1.000000;1.000000;1.000000;0.103901;-0.103901;0.103901;1.000000
445602.57670219;5696581.93709953;473.40784981;0.796078;0.741176;0.603922;48573.000000;1.000000;1.000000;1.000000;1.000000;0.107100;-0.107100;0.107100;1.000000
445602.63190086;5696581.73409851;473.36835005;0.647059;0.588235;0.454902;38550.000000;1.000000;1.000000;1.000000;1.000000;0.095901;-0.095901;0.095901;1.000000
445602.35370167;5696581.88959892;473.43454983;0.6;0.572549;0.403922;36751.000000;1.000000;1.000000;1.000000;1.000000;0.059599;-0.059599;0.059599;1.000000
445602.73910149;5696581.86029823;473.32585003;0.439216;0.411765;0.313725;26728.000000;1.000000;1.000000;1.000000;1.000000;0.030298;-0.030298;0.030298;1.000000
445602.59470184;5696581.79789932;473.39304974;0.639216;0.568627;0.419608;37522.000000;1.000000;1.000000;1.000000;1.000000;-0.032101;0.032101;-0.032101;1.000000
445602.37090118;5696581.75999840;473.40584995;0.431373;0.372549;0.227451;24415.000000;1.000000;1.000000;1.000000;1.000000;-0.070002;0.070002;-0.070002;1.000000
445602.63080223;5696581.77159889;473.36875011;0.607843;0.545098;0.4;35723.000000;1.000000;1.000000;1.000000;1.000000;0.058401;-0.058401;0.058401;1.000000
445602.43990143;5696581.90209969;473.46654989;0.6;0.568627;0.376471;36494.000000;1.000000;1.000000;1.000000;1.000000;0.072100;-0.072100;0.072100;1.000000
445602.36140163;5696581.81670006;473.42234995;0.611765;0.580392;0.396078;37265.000000;1.000000;1.000000;1.000000;1.000000;-0.013300;0.013300;-0.013300;1.000000
445602.71000107;5696581.87689980;473.33164980;0.678431;0.643137;0.541176;41891.000000;1.000000;1.000000;1.000000;1.000000;0.046900;-0.046900;0.046900;1.000000
445602.60970123;5696581.82709892;473.38014986;0.619608;0.556863;0.411765;36494.000000;1.000000;1.000000;1.000000;1.000000;-0.002901;0.002901;-0.002901;1.000000
445602.37090118;5696581.73209961;473.39844992;0.572549;0.505882;0.392157;33410.000000;1.000000;1.000000;1.000000;1.000000;-0.097900;0.097900;-0.097900;1.000000
445602.67950161;5696581.93099983;473.34254982;0.603922;0.54902;0.419608;35980.000000;1.000000;1.000000;1.000000;1.000000;0.101000;-0.101000;0.101000;1.000000
445602.71710213;5696581.93219955;473.34194996;0.541176;0.529412;0.4;33924.000000;1.000000;1.000000;1.000000;1.000000;0.102200;-0.102200;0.102200;1.000000
445602.53840168;5696581.73039825;473.41304972;0.6;0.52549;0.376471;34695.000000;1.000000;1.000000;1.000000;1.000000;0.099602;-0.099602;0.099602;1.000000
445602.40670212;5696581.80759819;473.43594982;0.580392;0.533333;0.372549;34695.000000;1.000000;1.000000;1.000000;1.000000;-0.022402;0.022402;-0.022402;1.000000
445602.53810127;5696581.80499847;473.42084982;0.596078;0.517647;0.337255;33924.000000;1.000000;1.000000;1.000000;1.000000;0.025002;-0.025002;0.025002;1.000000
445602.62510117;5696581.68789871;473.37214996;0.619608;0.568627;0.454902;37265.000000;1.000000;1.000000;1.000000;1.000000;-0.142101;0.142101;-0.142101;1.000000
445602.62390144;5696581.72539909;473.37255003;0.529412;0.466667;0.337255;30840.000000;1.000000;1.000000;1.000000;1.000000;-0.104601;0.104601;-0.104601;1.000000
445602.45820148;5696581.83999832;473.45025017;0.529412;0.454902;0.278431;29812.000000;1.000000;1.000000;1.000000;1.000000;0.009998;-0.009998;0.009998;1.000000
445602.59800156;5696581.90959938;473.39685013;0.721569;0.666667;0.533333;43690.000000;1.000000;1.000000;1.000000;1.000000;-0.079599;0.079599;-0.079599;1.000000
445602.57140167;5696582.02119835;473.44124987;0.639216;0.576471;0.423529;37779.000000;1.000000;1.000000;1.000000;1.000000;-0.191198;0.191198;-0.191198;1.000000
445602.35950096;5696581.90759857;473.44665005;0.529412;0.509804;0.341176;32382.000000;1.000000;1.000000;1.000000;1.000000;0.077599;-0.077599;0.077599;1.000000
445602.81700142;5696581.99319847;473.32625010;0.741176;0.737255;0.643137;47545.000000;1.000000;1.000000;1.000000;1.000000;-0.163198;0.163198;-0.163198;1.000000
445602.41810139;5696581.74379929;473.41475012;0.694118;0.631373;0.505882;41634.000000;1.000000;1.000000;1.000000;1.000000;0.086201;-0.086201;0.086201;1.000000
445602.53710182;5696581.79569824;473.42304995;0.501961;0.431373;0.247059;28270.000000;1.000000;1.000000;1.000000;1.000000;0.034302;-0.034302;0.034302;1.000000
445602.69730194;5696581.71919830;473.33855011;0.705882;0.678431;0.556863;43947.000000;1.000000;1.000000;1.000000;1.000000;-0.110802;0.110802;-0.110802;1.000000
445602.49930199;5696581.79449852;473.42834999;0.439216;0.360784;0.2;23901.000000;1.000000;1.000000;1.000000;1.000000;-0.035501;0.035501;-0.035501;1.000000
445602.57020195;5696581.71359833;473.40024998;0.572549;0.513725;0.364706;33667.000000;1.000000;1.000000;1.000000;1.000000;0.116402;-0.116402;0.116402;1.000000
445602.34270103;5696581.77919968;473.39545013;0.670588;0.631373;0.478431;40863.000000;1.000000;1.000000;1.000000;1.000000;-0.050800;0.050800;-0.050800;1.000000
445602.64200218;5696581.78929909;473.36254980;0.705882;0.658824;0.52549;42919.000000;1.000000;1.000000;1.000000;1.000000;-0.040701;0.040701;-0.040701;1.000000
445602.74690159;5696581.86889847;473.32625010;0.388235;0.356863;0.254902;23130.000000;1.000000;1.000000;1.000000;1.000000;0.038898;-0.038898;0.038898;1.000000
445602.63750179;5696581.86449821;473.36084988;0.666667;0.596078;0.466667;39321.000000;1.000000;1.000000;1.000000;1.000000;0.034498;-0.034498;0.034498;1.000000
445602.48630150;5696581.85859879;473.43545010;0.611765;0.545098;0.360784;35466.000000;1.000000;1.000000;1.000000;1.000000;0.028599;-0.028599;0.028599;1.000000
445602.59710129;5696581.90039833;473.39674999;0.611765;0.556863;0.415686;36494.000000;1.000000;1.000000;1.000000;1.000000;-0.070398;0.070398;-0.070398;1.000000
445602.44690140;5696581.92939957;473.47184994;0.713725;0.678431;0.52549;43947.000000;1.000000;1.000000;1.000000;1.000000;0.099400;-0.099400;0.099400;1.000000
445602.78220184;5696581.94509895;473.32415010;0.403922;0.396078;0.219608;24672.000000;1.000000;1.000000;1.000000;1.000000;0.115099;-0.115099;0.115099;1.000000
445602.94600113;5696581.99989899;473.33215000;0.407843;0.407843;0.262745;25443.000000;1.000000;1.000000;1.000000;1.000000;-0.169899;0.169899;-0.169899;1.000000
445602.37840088;5696581.79879959;473.42294981;0.521569;0.490196;0.321569;31354.000000;1.000000;1.000000;1.000000;1.000000;0.031200;-0.031200;0.031200;1.000000
445602.52120216;5696581.69240006;473.40485003;0.466667;0.403922;0.243137;26471.000000;1.000000;1.000000;1.000000;1.000000;-0.137600;0.137600;-0.137600;1.000000
445602.56520088;5696582.00079926;473.43375017;0.733333;0.670588;0.52549;43947.000000;1.000000;1.000000;1.000000;1.000000;-0.170799;0.170799;-0.170799;1.000000
445602.44550140;5696581.73659904;473.41354992;0.635294;0.568627;0.435294;37522.000000;1.000000;1.000000;1.000000;1.000000;-0.093401;0.093401;-0.093401;1.000000
445602.59970100;5696582.01190002;473.41685011;0.768627;0.717647;0.596078;47031.000000;1.000000;1.000000;1.000000;1.000000;-0.181900;0.181900;-0.181900;1.000000
445602.37280090;5696581.93629845;473.47085001;0.47451;0.443137;0.290196;28527.000000;1.000000;1.000000;1.000000;1.000000;0.106298;-0.106298;0.106298;1.000000
445602.68850143;5696581.77369888;473.33645012;0.509804;0.47451;0.341176;30583.000000;1.000000;1.000000;1.000000;1.000000;-0.056301;0.056301;-0.056301;1.000000
445602.69060143;5696581.89509972;473.33334972;0.631373;0.603922;0.501961;39321.000000;1.000000;1.000000;1.000000;1.000000;-0.065100;0.065100;-0.065100;1.000000
445602.67810162;5696581.79089935;473.34315016;0.556863;0.521569;0.388235;33667.000000;1.000000;1.000000;1.000000;1.000000;-0.039101;0.039101;-0.039101;1.000000
445602.39220150;5696581.86459930;473.46154978;0.537255;0.505882;0.317647;32382.000000;1.000000;1.000000;1.000000;1.000000;0.034599;-0.034599;0.034599;1.000000
445602.66780098;5696581.85729988;473.34585001;0.639216;0.6;0.494118;39321.000000;1.000000;1.000000;1.000000;1.000000;0.027300;-0.027300;0.027300;1.000000
445602.64070137;5696581.93169983;473.37575008;0.694118;0.639216;0.509804;41891.000000;1.000000;1.000000;1.000000;1.000000;0.101700;-0.101700;0.101700;1.000000
445602.64370163;5696581.91049965;473.36864998;0.662745;0.611765;0.494118;40092.000000;1.000000;1.000000;1.000000;1.000000;0.080500;-0.080500;0.080500;1.000000
445602.49450119;5696581.68089874;473.40345003;0.439216;0.364706;0.188235;23901.000000;1.000000;1.000000;1.000000;1.000000;-0.149101;0.149101;-0.149101;1.000000
445602.57820137;5696581.92759903;473.40784981;0.764706;0.701961;0.572549;46260.000000;1.000000;1.000000;1.000000;1.000000;0.097599;-0.097599;0.097599;1.000000
445602.71480186;5696581.72699936;473.33015015;0.403922;0.388235;0.254902;24672.000000;1.000000;1.000000;1.000000;1.000000;-0.103001;0.103001;-0.103001;1.000000
445602.56720169;5696581.76050003;473.40765001;0.466667;0.4;0.243137;26214.000000;1.000000;1.000000;1.000000;1.000000;0.069500;-0.069500;0.069500;1.000000
445602.52330215;5696581.82269867;473.42275002;0.517647;0.443137;0.262745;29041.000000;1.000000;1.000000;1.000000;1.000000;-0.007301;0.007301;-0.007301;1.000000
445602.90500172;5696581.68149956;473.32184984;0.0666667;0.0745098;0.0235294;4112.000000;1.000000;1.000000;1.000000;1.000000;-0.148500;0.148500;-0.148500;1.000000
445602.71140106;5696581.78589828;473.31904985;0.764706;0.737255;0.611765;47802.000000;1.000000;1.000000;1.000000;1.000000;-0.044102;0.044102;-0.044102;1.000000
445602.61820133;5696581.89169891;473.37895014;0.713725;0.654902;0.52549;42919.000000;1.000000;1.000000;1.000000;1.000000;0.061699;-0.061699;0.061699;1.000000
445602.45260151;5696581.82889946;473.44754984;0.627451;0.560784;0.407843;36751.000000;1.000000;1.000000;1.000000;1.000000;-0.001101;0.001101;-0.001101;1.000000
445602.68910225;5696581.93239983;473.34074976;0.580392;0.521569;0.368627;34181.000000;1.000000;1.000000;1.000000;1.000000;0.102400;-0.102400;0.102400;1.000000
445602.72660168;5696581.93359955;473.34245016;0.690196;0.678431;0.541176;43690.000000;1.000000;1.000000;1.000000;1.000000;-0.103600;0.103600;-0.103600;1.000000
445602.35810097;5696581.91939934;473.44904997;0.545098;0.52549;0.352941;33410.000000;1.000000;1.000000;1.000000;1.000000;0.089399;-0.089399;0.089399;1.000000
445602.34410103;5696581.79759987;473.40275003;0.568627;0.541176;0.34902;34438.000000;1.000000;1.000000;1.000000;1.000000;-0.032400;0.032400;-0.032400;1.000000
445602.74680145;5696581.66579826;473.32385017;0.352941;0.337255;0.227451;21588.000000;1.000000;1.000000;1.000000;1.000000;-0.164202;0.164202;-0.164202;1.000000
445602.74550159;5696581.70089920;473.32184984;0.490196;0.482353;0.368627;30840.000000;1.000000;1.000000;1.000000;1.000000;-0.129101;0.129101;-0.129101;1.000000
445602.77400215;5696581.70309837;473.31614973;0.443137;0.435294;0.317647;27756.000000;1.000000;1.000000;1.000000;1.000000;-0.126902;0.126902;-0.126902;1.000000
445602.49700172;5696581.90419968;473.44815018;0.709804;0.647059;0.47451;42148.000000;1.000000;1.000000;1.000000;1.000000;0.074200;-0.074200;0.074200;1.000000
445603.06550224;5696581.85549934;473.33815004;0.101961;0.109804;0.0470588;6425.000000;1.000000;1.000000;1.000000;1.000000;0.068545;-0.068545;0.068545;1.000000
445603.04600151;5696581.84569939;473.33484985;0.407843;0.415686;0.329412;26214.000000;1.000000;1.000000;1.000000;1.000000;0.046834;-0.046834;0.046834;1.000000
445603.06410225;5696581.86499985;473.33584978;0.117647;0.121569;0.0588235;7196.000000;1.000000;1.000000;1.000000;1.000000;0.071393;-0.071393;0.071393;1.000000
445603.07810219;5696581.76330002;473.33295013;0.317647;0.356863;0.180392;21331.000000;1.000000;1.000000;1.000000;1.000000;-0.101288;0.101288;-0.101288;1.000000
445603.02660187;5696581.86159904;473.33185007;0.596078;0.603922;0.513725;38550.000000;1.000000;1.000000;1.000000;1.000000;0.040123;-0.040123;0.040123;1.000000
445603.07340153;5696581.86419876;473.33634998;0.121569;0.133333;0.0705882;7967.000000;1.000000;1.000000;1.000000;1.000000;0.079280;-0.079280;0.079280;1.000000
445603.10200127;5696581.89429863;473.33325006;0.364706;0.372549;0.278431;23387.000000;1.000000;1.000000;1.000000;1.000000;0.118992;-0.118992;0.118992;1.000000
445603.04070099;5696581.76219948;473.33124973;0.352941;0.4;0.231373;23901.000000;1.000000;1.000000;1.000000;1.000000;-0.078130;0.078130;-0.078130;1.000000
445603.04380138;5696581.66849907;473.32795002;0.364706;0.384314;0.243137;23644.000000;1.000000;1.000000;1.000000;1.000000;-0.166854;0.166854;-0.166854;1.000000
445603.11450203;5696581.80199821;473.33274986;0.384314;0.4;0.266667;24929.000000;1.000000;1.000000;1.000000;1.000000;-0.116054;0.116054;-0.116054;1.000000
445603.03600128;5696581.86299904;473.33225014;0.537255;0.537255;0.45098;34438.000000;1.000000;1.000000;1.000000;1.000000;0.047470;-0.047470;0.047470;1.000000
445603.06270226;5696581.69709976;473.32914974;0.760784;0.772549;0.639216;49344.000000;1.000000;1.000000;1.000000;1.000000;-0.146158;0.146158;-0.146158;1.000000
445603.08000191;5696581.70719917;473.33005001;0.694118;0.709804;0.580392;45232.000000;1.000000;1.000000;1.000000;1.000000;-0.145546;0.145546;-0.145546;1.000000
445603.04570206;5696581.64029892;473.33005001;0.470588;0.517647;0.368627;31868.000000;1.000000;1.000000;1.000000;1.000000;-0.194698;0.194698;-0.194698;1.000000
445603.00350197;5696581.73989876;473.33164980;0.317647;0.333333;0.176471;20303.000000;1.000000;1.000000;1.000000;1.000000;-0.090116;0.090116;-0.090116;1.000000
445602.97740181;5696581.96409996;473.33785011;0.376471;0.360784;0.172549;22359.000000;1.000000;1.000000;1.000000;1.000000;-0.134100;0.134100;-0.134100;1.000000
445603.07660110;5696581.80069931;473.34035017;0.623529;0.65098;0.513725;41120.000000;1.000000;1.000000;1.000000;1.000000;-0.080264;0.080264;-0.080264;1.000000
445603.03200157;5696581.94739922;473.33774998;0.486275;0.482353;0.294118;30326.000000;1.000000;1.000000;1.000000;1.000000;0.121203;-0.121203;0.121203;1.000000
445603.02590187;5696581.67719849;473.32725002;0.596078;0.611765;0.47451;38550.000000;1.000000;1.000000;1.000000;1.000000;-0.154679;0.154679;-0.154679;1.000000
445603.03420170;5696581.94489868;473.33544971;0.494118;0.490196;0.309804;30840.000000;1.000000;1.000000;1.000000;1.000000;0.119359;-0.119359;0.119359;1.000000
445603.01640137;5696581.67569931;473.32684996;0.654902;0.666667;0.537255;42405.000000;1.000000;1.000000;1.000000;1.000000;-0.154983;0.154983;-0.154983;1.000000
445602.97600182;5696581.99930008;473.33815004;0.360784;0.364706;0.2;22616.000000;1.000000;1.000000;1.000000;1.000000;-0.169300;0.169300;-0.169300;1.000000
445603.03170212;5696581.74199875;473.33295013;0.517647;0.545098;0.388235;33924.000000;1.000000;1.000000;1.000000;1.000000;-0.092918;0.092918;-0.092918;1.000000
445602.98580177;5696581.95399864;473.33804991;0.54902;0.529412;0.34902;33667.000000;1.000000;1.000000;1.000000;1.000000;-0.123999;0.123999;-0.123999;1.000000
445603.03980167;5696581.77859886;473.33374979;0.435294;0.482353;0.32549;29298.000000;1.000000;1.000000;1.000000;1.000000;-0.063878;0.063878;-0.063878;1.000000
445603.10050209;5696581.90369995;473.33564999;0.360784;0.364706;0.258824;22873.000000;1.000000;1.000000;1.000000;1.000000;0.123120;-0.123120;0.123120;1.000000
445602.93470200;5696581.65289886;473.32984974;0.203922;0.25098;0.145098;14649.000000;1.000000;1.000000;1.000000;1.000000;-0.177101;0.177101;-0.177101;1.000000
445603.04510124;5696581.83649834;473.33465006;0.411765;0.419608;0.305882;26471.000000;1.000000;1.000000;1.000000;1.000000;0.043710;-0.043710;0.043710;1.000000
445602.99010094;5696582.02819832;473.34614994;0.419608;0.431373;0.25098;26728.000000;1.000000;1.000000;1.000000;1.000000;-0.198198;0.198198;-0.198198;1.000000
445603.01560219;5696581.66649826;473.32665016;0.4;0.411765;0.290196;25700.000000;1.000000;1.000000;1.000000;1.000000;-0.164077;0.164077;-0.164077;1.000000
445602.98540123;5696581.79539879;473.32914974;0.321569;0.364706;0.227451;21845.000000;1.000000;1.000000;1.000000;1.000000;0.034601;-0.034601;0.034601;1.000000
445603.04250153;5696581.70599945;473.33064987;0.741176;0.760784;0.615686;48316.000000;1.000000;1.000000;1.000000;1.000000;-0.130486;0.130486;-0.130486;1.000000
445602.99290092;5696581.98129852;473.34105017;0.352941;0.345098;0.164706;21331.000000;1.000000;1.000000;1.000000;1.000000;-0.151299;0.151299;-0.151299;1.000000
445602.99150093;5696582.01879890;473.34604980;0.443137;0.45098;0.278431;28013.000000;1.000000;1.000000;1.000000;1.000000;-0.188799;0.188799;-0.188799;1.000000
445602.98560150;5696581.72059830;473.32595016;0.392157;0.411765;0.254902;25443.000000;1.000000;1.000000;1.000000;1.000000;0.109402;-0.109402;0.109402;1.000000
445602.99400146;5696581.99289902;473.34124996;0.337255;0.333333;0.156863;20560.000000;1.000000;1.000000;1.000000;1.000000;-0.162899;0.162899;-0.162899;1.000000
445602.97820099;5696581.94549950;473.33295013;0.67451;0.662745;0.505882;42405.000000;1.000000;1.000000;1.000000;1.000000;-0.115499;0.115499;-0.115499;1.000000
445603.04800137;5696581.81749924;473.33465006;0.505882;0.529412;0.396078;33153.000000;1.000000;1.000000;1.000000;1.000000;-0.047788;0.047788;-0.047788;1.000000
445603.02060135;5696581.79669960;473.33075001;0.262745;0.301961;0.168627;17990.000000;1.000000;1.000000;1.000000;1.000000;-0.038204;0.038204;-0.038204;1.000000
445602.99970158;5696581.64689835;473.32805016;0.14902;0.168627;0.0784314;9766.000000;1.000000;1.000000;1.000000;1.000000;-0.183102;0.183102;-0.183102;1.000000
445603.07250221;5696581.65179832;473.32905008;0.333333;0.372549;0.223529;22359.000000;1.000000;1.000000;1.000000;1.000000;-0.191687;0.191687;-0.191687;1.000000
445603.05130203;5696581.75179871;473.33395006;0.466667;0.505882;0.345098;31097.000000;1.000000;1.000000;1.000000;1.000000;-0.092511;0.092511;-0.092511;1.000000
445602.98980148;5696581.81600006;473.32725002;0.0862745;0.117647;0.0196078;6168.000000;1.000000;1.000000;1.000000;1.000000;0.014000;-0.014000;0.014000;1.000000
445603.07110222;5696581.68699844;473.32945015;0.454902;0.482353;0.333333;29812.000000;1.000000;1.000000;1.000000;1.000000;-0.158876;0.158876;-0.158876;1.000000
445603.04120167;5696581.74339874;473.33344986;0.47451;0.501961;0.34902;31097.000000;1.000000;1.000000;1.000000;1.000000;-0.095112;0.095112;-0.095112;1.000000
445603.06000145;5696581.76969917;473.33225014;0.32549;0.376471;0.203922;22359.000000;1.000000;1.000000;1.000000;1.000000;-0.083754;0.083754;-0.083754;1.000000
445603.06470116;5696581.66879852;473.33124973;0.247059;0.282353;0.12549;16448.000000;1.000000;1.000000;1.000000;1.000000;-0.173011;0.173011;-0.173011;1.000000
445603.02680214;5696581.68639954;473.32744982;0.686275;0.698039;0.560784;44461.000000;1.000000;1.000000;1.000000;1.000000;-0.145748;0.145748;-0.145748;1.000000
445603.00930222;5696581.85149963;473.33094980;0.588235;0.6;0.498039;38293.000000;1.000000;1.000000;1.000000;1.000000;0.022746;-0.022746;0.022746;1.000000
445603.07240112;5696581.85489853;473.33844997;0.133333;0.145098;0.0745098;8738.000000;1.000000;1.000000;1.000000;1.000000;0.074790;-0.074790;0.074790;1.000000
445603.10680206;5696581.74439819;473.33174994;0.317647;0.321569;0.172549;19789.000000;1.000000;1.000000;1.000000;1.000000;-0.135414;0.135414;-0.135414;1.000000
445603.06920155;5696581.74319847;473.33234980;0.596078;0.619608;0.470588;39064.000000;1.000000;1.000000;1.000000;1.000000;-0.109850;0.109850;-0.109850;1.000000
445603.09530170;5696581.84809883;473.33474972;0.2;0.211765;0.129412;12850.000000;1.000000;1.000000;1.000000;1.000000;0.095162;-0.095162;0.095162;1.000000
445603.03050144;5696581.77939995;473.33334972;0.517647;0.564706;0.411765;34952.000000;1.000000;1.000000;1.000000;1.000000;-0.058135;0.058135;-0.058135;1.000000
445603.10560139;5696581.78179939;473.33215000;0.286275;0.313725;0.164706;18761.000000;1.000000;1.000000;1.000000;1.000000;-0.114377;0.114377;-0.114377;1.000000
445603.07340153;5696581.66109856;473.32924988;0.25098;0.286275;0.137255;16962.000000;1.000000;1.000000;1.000000;1.000000;-0.183422;0.183422;-0.183422;1.000000
445603.10650166;5696581.81899841;473.33724977;0.278431;0.294118;0.184314;17990.000000;1.000000;1.000000;1.000000;1.000000;-0.105202;0.105202;-0.105202;1.000000
445603.07140167;5696581.89239891;473.33424999;0.196078;0.203922;0.137255;12593.000000;1.000000;1.000000;1.000000;1.000000;0.093420;-0.093420;0.093420;1.000000
445603.02740105;5696581.84519966;473.33164980;0.556863;0.564706;0.458824;35980.000000;1.000000;1.000000;1.000000;1.000000;0.029707;-0.029707;0.029707;1.000000
445603.10240181;5696581.84749992;473.33274986;0.254902;0.266667;0.180392;16448.000000;1.000000;1.000000;1.000000;1.000000;0.102037;-0.102037;0.102037;1.000000
445603.05790146;5696581.82580002;473.33984997;0.309804;0.321569;0.203922;19789.000000;1.000000;1.000000;1.000000;1.000000;-0.056182;0.056182;-0.056182;1.000000
445602.98520096;5696581.76739891;473.32884981;0.219608;0.254902;0.0980392;14649.000000;1.000000;1.000000;1.000000;1.000000;0.062601;-0.062601;0.062601;1.000000
445603.03620155;5696581.63879974;473.32964994;0.411765;0.454902;0.313725;27756.000000;1.000000;1.000000;1.000000;1.000000;-0.194257;0.194257;-0.194257;1.000000
445603.10740097;5696581.72559937;473.33155014;0.741176;0.733333;0.611765;47288.000000;1.000000;1.000000;1.000000;1.000000;-0.148441;0.148441;-0.148441;1.000000
445603.00490196;5696581.92899902;473.32935001;0.494118;0.470588;0.32549;30069.000000;1.000000;1.000000;1.000000;1.000000;0.099045;-0.099045;0.099045;1.000000
445603.06850155;5696581.76190002;473.33484985;0.333333;0.376471;0.203922;22359.000000;1.000000;1.000000;1.000000;1.000000;-0.095270;0.095270;-0.095270;1.000000
445603.07510193;5696581.83589943;473.34305002;0.219608;0.231373;0.133333;14135.000000;1.000000;1.000000;1.000000;1.000000;0.073462;-0.073462;0.073462;1.000000
445603.06250198;5696581.92129906;473.33185007;0.270588;0.262745;0.137255;16448.000000;1.000000;1.000000;1.000000;1.000000;0.109594;-0.109594;0.109594;1.000000
445603.03110130;5696581.76069839;473.33314993;0.294118;0.333333;0.172549;19789.000000;1.000000;1.000000;1.000000;1.000000;-0.075212;0.075212;-0.075212;1.000000
445603.10380180;5696581.83799942;473.33274986;0.231373;0.247059;0.14902;15163.000000;1.000000;1.000000;1.000000;1.000000;0.102238;-0.102238;0.102238;1.000000
445602.98320206;5696582.02889832;473.34354975;0.423529;0.435294;0.254902;26985.000000;1.000000;1.000000;1.000000;1.000000;-0.198898;0.198898;-0.198898;1.000000
445603.03260143;5696581.75119980;473.33314993;0.439216;0.47451;0.313725;29041.000000;1.000000;1.000000;1.000000;1.000000;-0.084578;0.084578;-0.084578;1.000000
445602.99510201;5696581.75000008;473.33145000;0.313725;0.333333;0.176471;20303.000000;1.000000;1.000000;1.000000;1.000000;-0.080000;0.080000;-0.080000;1.000000
445603.06650169;5696581.79009827;473.33514978;0.6;0.639216;0.490196;39835.000000;1.000000;1.000000;1.000000;1.000000;-0.075951;0.075951;-0.075951;1.000000
445602.98750122;5696581.94459923;473.33334972;0.639216;0.619608;0.462745;39835.000000;1.000000;1.000000;1.000000;1.000000;-0.114599;0.114599;-0.114599;1.000000
445603.05900200;5696581.73469933;473.33414986;0.478431;0.505882;0.360784;31354.000000;1.000000;1.000000;1.000000;1.000000;-0.111110;0.111110;-0.111110;1.000000
445603.02490147;5696581.94579895;473.33505013;0.466667;0.458824;0.27451;28784.000000;1.000000;1.000000;1.000000;1.000000;0.118066;-0.118066;0.118066;1.000000
445603.00870140;5696581.84459885;473.33085014;0.592157;0.6;0.490196;38293.000000;1.000000;1.000000;1.000000;1.000000;0.016115;-0.016115;0.016115;1.000000
445603.02800186;5696581.82639893;473.33145000;0.54902;0.568627;0.447059;35980.000000;1.000000;1.000000;1.000000;1.000000;-0.026372;0.026372;-0.026372;1.000000
445603.09540184;5696581.80139931;473.33885004;0.478431;0.505882;0.368627;31611.000000;1.000000;1.000000;1.000000;1.000000;-0.097800;0.097800;-0.097800;1.000000
445603.06160172;5696581.93769844;473.33435013;0.501961;0.498039;0.333333;31354.000000;1.000000;1.000000;1.000000;1.000000;0.123150;-0.123150;0.123150;1.000000
445602.98670204;5696581.96329887;473.33825018;0.372549;0.356863;0.164706;22102.000000;1.000000;1.000000;1.000000;1.000000;-0.133299;0.133299;-0.133299;1.000000
445602.98540123;5696582.00070007;473.34095003;0.32549;0.321569;0.156863;19789.000000;1.000000;1.000000;1.000000;1.000000;-0.170700;0.170700;-0.170700;1.000000
445602.93520172;5696581.63410004;473.33194973;0.47451;0.545098;0.396078;33153.000000;1.000000;1.000000;1.000000;1.000000;-0.195900;0.195900;-0.195900;1.000000
445603.10320099;5696581.80999954;473.33934977;0.454902;0.470588;0.34902;29555.000000;1.000000;1.000000;1.000000;1.000000;-0.103279;0.103279;-0.103279;1.000000
445603.04390152;5696581.69649895;473.33064987;0.803922;0.819608;0.682353;52171.000000;1.000000;1.000000;1.000000;1.000000;-0.139959;0.139959;-0.139959;1.000000
445603.06440170;5696581.64079865;473.33094980;0.290196;0.337255;0.188235;20046.000000;1.000000;1.000000;1.000000;1.000000;-0.199265;0.199265;-0.199265;1.000000
445602.96720131;5696581.95349892;473.33484985;0.529412;0.521569;0.34902;32896.000000;1.000000;1.000000;1.000000;1.000000;0.123499;-0.123499;0.123499;1.000000
445603.08330162;5696581.84689911;473.33885004;0.14902;0.156863;0.0823529;9509.000000;1.000000;1.000000;1.000000;1.000000;0.083160;-0.083160;0.083160;1.000000
445603.02330215;5696581.75210007;473.33274986;0.34902;0.380392;0.223529;23130.000000;1.000000;1.000000;1.000000;1.000000;-0.080793;0.080793;-0.080793;1.000000
445603.07200153;5696581.69619949;473.32954981;0.678431;0.694118;0.556863;43947.000000;1.000000;1.000000;1.000000;1.000000;-0.151063;0.151063;-0.151063;1.000000
445603.05930145;5696581.76269920;473.33444979;0.345098;0.392157;0.223529;23387.000000;1.000000;1.000000;1.000000;1.000000;-0.088470;0.088470;-0.088470;1.000000
445603.02190216;5696581.76159866;473.33274986;0.254902;0.294118;0.133333;17219.000000;1.000000;1.000000;1.000000;1.000000;-0.071272;0.071272;-0.071272;1.000000
445603.03830154;5696581.78799828;473.33384993;0.490196;0.533333;0.388235;32896.000000;1.000000;1.000000;1.000000;1.000000;-0.055596;0.055596;-0.055596;1.000000
445602.98560150;5696581.74860008;473.33094980;0.364706;0.384314;0.227451;23644.000000;1.000000;1.000000;1.000000;1.000000;0.081400;-0.081400;0.081400;1.000000
445602.98460205;5696581.78609856;473.32905008;0.411765;0.458824;0.301961;28013.000000;1.000000;1.000000;1.000000;1.000000;0.043901;-0.043901;0.043901;1.000000
445603.01950176;5696581.83429916;473.32884981;0.490196;0.501961;0.388235;31611.000000;1.000000;1.000000;1.000000;1.000000;0.018142;-0.018142;0.018142;1.000000
445603.01320179;5696581.94450005;473.33454992;0.501961;0.494118;0.313725;31097.000000;1.000000;1.000000;1.000000;1.000000;0.115059;-0.115059;0.115059;1.000000
445603.09370144;5696581.80849846;473.34124996;0.498039;0.513725;0.392157;32382.000000;1.000000;1.000000;1.000000;1.000000;-0.094308;0.094308;-0.094308;1.000000
445603.10400208;5696581.79129990;473.33444979;0.298039;0.32549;0.180392;19532.000000;1.000000;1.000000;1.000000;1.000000;-0.109212;0.109212;-0.109212;1.000000
445603.10820206;5696581.73489960;473.33164980;0.513725;0.505882;0.368627;32125.000000;1.000000;1.000000;1.000000;1.000000;-0.142650;0.142650;-0.142650;1.000000
445602.98630150;5696581.72989853;473.32844975;0.380392;0.392157;0.239216;24158.000000;1.000000;1.000000;1.000000;1.000000;0.100101;-0.100101;0.100101;1.000000
445603.00640114;5696581.69299896;473.32655003;0.560784;0.580392;0.419608;36237.000000;1.000000;1.000000;1.000000;1.000000;-0.137076;0.137076;-0.137076;1.000000
445603.03320129;5696581.73249825;473.33295013;0.443137;0.470588;0.305882;29041.000000;1.000000;1.000000;1.000000;1.000000;-0.102410;0.102410;-0.102410;1.000000
445603.02880104;5696581.83569916;473.33164980;0.545098;0.556863;0.443137;35209.000000;1.000000;1.000000;1.000000;1.000000;0.027521;-0.027521;0.027521;1.000000
445603.06300171;5696581.65029915;473.33094980;0.329412;0.368627;0.223529;22102.000000;1.000000;1.000000;1.000000;1.000000;-0.189812;0.189812;-0.189812;1.000000
445603.06280144;5696581.87449844;473.33365013;0.0980392;0.101961;0.0509804;6168.000000;1.000000;1.000000;1.000000;1.000000;0.075445;-0.075445;0.075445;1.000000
445603.09960182;5696581.71699913;473.33104994;0.737255;0.741176;0.619608;47545.000000;1.000000;1.000000;1.000000;1.000000;-0.149397;0.149397;-0.149397;1.000000
445602.99920090;5696581.66569908;473.32595016;0.286275;0.298039;0.176471;18247.000000;1.000000;1.000000;1.000000;1.000000;-0.164301;0.164301;-0.164301;1.000000
445603.02780159;5696581.64889915;473.32935001;0.180392;0.211765;0.0980392;12336.000000;1.000000;1.000000;1.000000;1.000000;-0.182947;0.182947;-0.182947;1.000000
445603.02450188;5696581.71459969;473.33234980;0.329412;0.356863;0.188235;21588.000000;1.000000;1.000000;1.000000;1.000000;-0.117597;0.117597;-0.117597;1.000000
445603.03650101;5696581.84429939;473.33444979;0.537255;0.545098;0.447059;34695.000000;1.000000;1.000000;1.000000;1.000000;0.037461;-0.037461;0.037461;1.000000
445603.04510124;5696581.65899857;473.33024981;0.490196;0.513725;0.380392;32125.000000;1.000000;1.000000;1.000000;1.000000;-0.176380;0.176380;-0.176380;1.000000
445603.02480133;5696581.74259956;473.33264973;0.478431;0.505882;0.345098;31354.000000;1.000000;1.000000;1.000000;1.000000;-0.090357;0.090357;-0.090357;1.000000
445603.06800087;5696581.78059967;473.33505013;0.494118;0.537255;0.372549;33153.000000;1.000000;1.000000;1.000000;1.000000;-0.082540;0.082540;-0.082540;1.000000
445602.96770103;5696581.72929962;473.32525017;0.258824;0.278431;0.145098;16705.000000;1.000000;1.000000;1.000000;1.000000;-0.100700;0.100700;-0.100700;1.000000
445603.00500114;5696581.73039825;473.33164980;0.419608;0.431373;0.266667;26728.000000;1.000000;1.000000;1.000000;1.000000;-0.099651;0.099651;-0.099651;1.000000
445603.03810127;5696581.83479889;473.33204987;0.576471;0.588235;0.47451;37265.000000;1.000000;1.000000;1.000000;1.000000;0.036541;-0.036541;0.036541;1.000000
445603.07070168;5696581.73369987;473.33225014;0.654902;0.678431;0.537255;42919.000000;1.000000;1.000000;1.000000;1.000000;-0.118366;0.118366;-0.118366;1.000000
445602.97020157;5696581.65669830;473.32684996;0.180392;0.207843;0.0980392;12079.000000;1.000000;1.000000;1.000000;1.000000;-0.173302;0.173302;-0.173302;1.000000
445603.00460155;5696581.95459946;473.33895018;0.45098;0.435294;0.243137;27242.000000;1.000000;1.000000;1.000000;1.000000;0.124629;-0.124629;0.124629;1.000000
445603.00780113;5696581.65789993;473.32625010;0.227451;0.243137;0.141176;14649.000000;1.000000;1.000000;1.000000;1.000000;-0.172202;0.172202;-0.172202;1.000000
445602.99830158;5696581.65639885;473.32574989;0.329412;0.345098;0.239216;21331.000000;1.000000;1.000000;1.000000;1.000000;-0.173601;0.173601;-0.173601;1.000000
445603.03230103;5696581.72319992;473.33274986;0.345098;0.368627;0.203922;22359.000000;1.000000;1.000000;1.000000;1.000000;-0.111049;0.111049;-0.111049;1.000000
445602.99730118;5696581.72189911;473.32884981;0.427451;0.447059;0.278431;27499.000000;1.000000;1.000000;1.000000;1.000000;-0.108101;0.108101;-0.108101;1.000000
445603.03390129;5696581.68809898;473.32774975;0.67451;0.694118;0.556863;43947.000000;1.000000;1.000000;1.000000;1.000000;-0.145470;0.145470;-0.145470;1.000000
445603.02820213;5696581.85439880;473.33185007;0.588235;0.592157;0.494118;37779.000000;1.000000;1.000000;1.000000;1.000000;0.035893;-0.035893;0.035893;1.000000
445603.07080086;5696581.91119965;473.33444979;0.278431;0.282353;0.180392;17476.000000;1.000000;1.000000;1.000000;1.000000;0.106508;-0.106508;0.106508;1.000000
445603.09840210;5696581.75449951;473.33145000;0.27451;0.294118;0.129412;17476.000000;1.000000;1.000000;1.000000;1.000000;-0.122546;0.122546;-0.122546;1.000000
445603.02250107;5696581.76849945;473.33285000;0.352941;0.396078;0.239216;23901.000000;1.000000;1.000000;1.000000;1.000000;-0.064867;0.064867;-0.064867;1.000000
445603.07290085;5696581.88289841;473.33414986;0.172549;0.188235;0.117647;11308.000000;1.000000;1.000000;1.000000;1.000000;0.088559;-0.088559;0.088559;1.000000
445603.01240166;5696581.76009949;473.33234980;0.258824;0.290196;0.129412;17219.000000;1.000000;1.000000;1.000000;1.000000;-0.070688;0.070688;-0.070688;1.000000
445602.98700150;5696581.71119888;473.32595016;0.517647;0.537255;0.376471;33410.000000;1.000000;1.000000;1.000000;1.000000;0.118801;-0.118801;0.118801;1.000000
445603.05710133;5696581.81659897;473.33965017;0.376471;0.392157;0.262745;24415.000000;1.000000;1.000000;1.000000;1.000000;-0.056827;0.056827;-0.056827;1.000000
445603.08120163;5696581.66969879;473.32964994;0.243137;0.278431;0.12549;16448.000000;1.000000;1.000000;1.000000;1.000000;-0.178854;0.178854;-0.178854;1.000000
445603.07820137;5696581.79129990;473.33794977;0.537255;0.572549;0.427451;35723.000000;1.000000;1.000000;1.000000;1.000000;-0.085575;0.085575;-0.085575;1.000000
445603.05390175;5696581.67689903;473.32854988;0.403922;0.427451;0.282353;26471.000000;1.000000;1.000000;1.000000;1.000000;-0.161699;0.161699;-0.161699;1.000000
445603.09030159;5696581.71789940;473.33064987;0.701961;0.709804;0.588235;45232.000000;1.000000;1.000000;1.000000;1.000000;-0.142778;0.142778;-0.142778;1.000000
445603.03560169;5696581.65749939;473.32984974;0.34902;0.372549;0.243137;22873.000000;1.000000;1.000000;1.000000;1.000000;-0.175766;0.175766;-0.175766;1.000000
445603.07480152;5696581.80789955;473.34264996;0.654902;0.678431;0.552941;42919.000000;1.000000;1.000000;1.000000;1.000000;-0.076200;0.076200;-0.076200;1.000000
445603.01510151;5696581.71319969;473.32954981;0.415686;0.439216;0.266667;26985.000000;1.000000;1.000000;1.000000;1.000000;-0.117547;0.117547;-0.117547;1.000000
445603.10120209;5696581.88499840;473.33314993;0.368627;0.380392;0.294118;23901.000000;1.000000;1.000000;1.000000;1.000000;0.113536;-0.113536;0.113536;1.000000
445603.00270088;5696581.80539902;473.33005001;0.105882;0.141176;0.0431373;7710.000000;1.000000;1.000000;1.000000;1.000000;-0.024615;0.024615;-0.024615;1.000000
445602.97580154;5696581.97129829;473.33785011;0.27451;0.262745;0.0862745;15934.000000;1.000000;1.000000;1.000000;1.000000;-0.141298;0.141298;-0.141298;1.000000
445603.06940086;5696581.77109917;473.33505013;0.360784;0.407843;0.239216;24415.000000;1.000000;1.000000;1.000000;1.000000;-0.089604;0.089604;-0.089604;1.000000
445603.06090172;5696581.92849930;473.33185007;0.4;0.396078;0.243137;24929.000000;1.000000;1.000000;1.000000;1.000000;0.114830;-0.114830;0.114830;1.000000
445603.07380112;5696581.84539993;473.34074976;0.129412;0.133333;0.0627451;7967.000000;1.000000;1.000000;1.000000;1.000000;0.073554;-0.073554;0.073554;1.000000
445603.11390121;5696581.82079895;473.33295013;0.32549;0.341176;0.223529;21074.000000;1.000000;1.000000;1.000000;1.000000;-0.112402;0.112402;-0.112402;1.000000
445603.01120193;5696581.79759987;473.33274986;0.305882;0.345098;0.219608;20817.000000;1.000000;1.000000;1.000000;1.000000;-0.033715;0.033715;-0.033715;1.000000
445603.01020153;5696581.83509834;473.32844975;0.47451;0.490196;0.372549;30840.000000;1.000000;1.000000;1.000000;1.000000;0.009762;-0.009762;0.009762;1.000000
445603.04390152;5696581.87169846;473.33045008;0.305882;0.309804;0.243137;19532.000000;1.000000;1.000000;1.000000;1.000000;0.059202;-0.059202;0.059202;1.000000
445603.07410152;5696581.82659920;473.34525015;0.466667;0.478431;0.376471;30326.000000;1.000000;1.000000;1.000000;1.000000;-0.072305;0.072305;-0.072305;1.000000
445603.09470184;5696581.82009895;473.34144976;0.317647;0.329412;0.211765;20303.000000;1.000000;1.000000;1.000000;1.000000;-0.093351;0.093351;-0.093351;1.000000
445602.99390133;5696581.78749855;473.33185007;0.529412;0.572549;0.419608;35466.000000;1.000000;1.000000;1.000000;1.000000;0.042501;-0.042501;0.042501;1.000000
445603.06800087;5696581.80849846;473.34004976;0.537255;0.560784;0.427451;35209.000000;1.000000;1.000000;1.000000;1.000000;-0.069532;0.069532;-0.069532;1.000000
445603.10270126;5696581.82869919;473.33724977;0.203922;0.215686;0.105882;13107.000000;1.000000;1.000000;1.000000;1.000000;-0.100833;0.100833;-0.100833;1.000000
445602.97570141;5696581.74029930;473.32574989;0.290196;0.305882;0.160784;18504.000000;1.000000;1.000000;1.000000;1.000000;0.089701;-0.089701;0.089701;1.000000
445603.00070198;5696581.83369835;473.32795002;0.419608;0.435294;0.317647;27242.000000;1.000000;1.000000;1.000000;1.000000;0.003698;-0.003698;0.003698;1.000000
445603.06190117;5696581.68779953;473.32905008;0.556863;0.576471;0.435294;36237.000000;1.000000;1.000000;1.000000;1.000000;-0.154350;0.154350;-0.154350;1.000000
445603.04780205;5696581.78949936;473.33424999;0.486275;0.52549;0.372549;32382.000000;1.000000;1.000000;1.000000;1.000000;-0.061233;0.061233;-0.061233;1.000000
445603.01860149;5696581.82499893;473.32875015;0.380392;0.4;0.278431;24929.000000;1.000000;1.000000;1.000000;1.000000;-0.017456;0.017456;-0.017456;1.000000
445603.05510147;5696581.84479912;473.33755018;0.176471;0.184314;0.101961;11308.000000;1.000000;1.000000;1.000000;1.000000;0.055244;-0.055244;0.055244;1.000000
445603.09660156;5696581.73589905;473.33344986;0.623529;0.623529;0.486275;39835.000000;1.000000;1.000000;1.000000;1.000000;-0.133521;0.133521;-0.133521;1.000000
445603.02610214;5696581.70519836;473.32994987;0.364706;0.388235;0.223529;23644.000000;1.000000;1.000000;1.000000;1.000000;-0.127131;0.127131;-0.127131;1.000000
445603.00380142;5696581.94539841;473.33645012;0.54902;0.529412;0.356863;33667.000000;1.000000;1.000000;1.000000;1.000000;0.115414;-0.115414;0.115414;1.000000
445603.07000168;5696581.90189941;473.33424999;0.227451;0.231373;0.14902;14392.000000;1.000000;1.000000;1.000000;1.000000;0.099048;-0.099048;0.099048;1.000000
445602.97660168;5696581.95489891;473.33764984;0.564706;0.545098;0.372549;34695.000000;1.000000;1.000000;1.000000;1.000000;-0.124899;0.124899;-0.124899;1.000000
445603.06500156;5696581.82749947;473.34245016;0.329412;0.337255;0.231373;21074.000000;1.000000;1.000000;1.000000;1.000000;-0.063174;0.063174;-0.063174;1.000000
445603.02300175;5696581.72409828;473.33234980;0.403922;0.431373;0.254902;26214.000000;1.000000;1.000000;1.000000;1.000000;-0.107988;0.107988;-0.107988;1.000000
445603.09540184;5696581.77339943;473.33384993;0.305882;0.345098;0.184314;20560.000000;1.000000;1.000000;1.000000;1.000000;-0.109319;0.109319;-0.109319;1.000000
445603.06390198;5696581.65959938;473.32875015;0.286275;0.321569;0.176471;19275.000000;1.000000;1.000000;1.000000;1.000000;-0.181338;0.181338;-0.181338;1.000000
445603.03200157;5696581.76999863;473.33334972;0.305882;0.352941;0.196078;21074.000000;1.000000;1.000000;1.000000;1.000000;-0.067139;0.067139;-0.067139;1.000000
445602.97720154;5696581.73079880;473.32574989;0.282353;0.298039;0.152941;17990.000000;1.000000;1.000000;1.000000;1.000000;0.099201;-0.099201;0.099201;1.000000
445603.03660210;5696581.66679962;473.32765009;0.282353;0.305882;0.164706;18504.000000;1.000000;1.000000;1.000000;1.000000;-0.166854;0.166854;-0.166854;1.000000
445602.99620159;5696581.93680008;473.33134987;0.572549;0.545098;0.392157;34952.000000;1.000000;1.000000;1.000000;1.000000;0.106800;-0.106800;0.106800;1.000000
445603.05870159;5696581.78149994;473.33465006;0.498039;0.541176;0.380392;33410.000000;1.000000;1.000000;1.000000;1.000000;-0.074708;0.074708;-0.074708;1.000000
445603.09810169;5696581.72649963;473.33115007;0.764706;0.764706;0.639216;49087.000000;1.000000;1.000000;1.000000;1.000000;-0.141321;0.141321;-0.141321;1.000000
445603.08950146;5696581.70859917;473.33054974;0.639216;0.65098;0.52549;41377.000000;1.000000;1.000000;1.000000;1.000000;-0.149720;0.149720;-0.149720;1.000000
445602.99430092;5696581.74079903;473.33124973;0.372549;0.384314;0.231373;23644.000000;1.000000;1.000000;1.000000;1.000000;-0.089201;0.089201;-0.089201;1.000000
445603.05020149;5696581.93879898;473.33145000;0.541176;0.541176;0.368627;34181.000000;1.000000;1.000000;1.000000;1.000000;0.119048;-0.119048;0.119048;1.000000
445603.06200226;5696581.71579941;473.33164980;0.694118;0.713725;0.576471;45232.000000;1.000000;1.000000;1.000000;1.000000;-0.129061;0.129061;-0.129061;1.000000
445603.00550087;5696581.68379982;473.32644989;0.596078;0.615686;0.47451;38807.000000;1.000000;1.000000;1.000000;1.000000;-0.146245;0.146245;-0.146245;1.000000
445602.97430141;5696581.98079880;473.33785011;0.247059;0.243137;0.0705882;14649.000000;1.000000;1.000000;1.000000;1.000000;-0.150799;0.150799;-0.150799;1.000000
445603.03750141;5696581.85359962;473.33225014;0.568627;0.568627;0.47451;36494.000000;1.000000;1.000000;1.000000;1.000000;0.042732;-0.042732;0.042732;1.000000
445602.97540100;5696581.99239929;473.33804991;0.266667;0.266667;0.0980392;16191.000000;1.000000;1.000000;1.000000;1.000000;-0.162399;0.162399;-0.162399;1.000000
445603.04660137;5696581.64949997;473.33024981;0.541176;0.576471;0.439216;35980.000000;1.000000;1.000000;1.000000;1.000000;-0.185958;0.185958;-0.185958;1.000000
445603.00230225;5696581.77739914;473.33204987;0.462745;0.505882;0.34902;31097.000000;1.000000;1.000000;1.000000;1.000000;-0.052603;0.052603;-0.052603;1.000000
445603.09690102;5696581.76400002;473.33155014;0.254902;0.286275;0.117647;16705.000000;1.000000;1.000000;1.000000;1.000000;-0.115696;0.115696;-0.115696;1.000000
445603.02420147;5696581.93649872;473.33264973;0.509804;0.501961;0.333333;31611.000000;1.000000;1.000000;1.000000;1.000000;0.108813;-0.108813;0.108813;1.000000
