//X;Y;Z;Rf;Gf;Bf;Intensity;Return Number;Number Of Returns;Scan Direction Flag;Point Source ID;C2M signed distances[-][<0.8];C2M signed distances[<0.4];C2M signed distances[-][<0.2];Stump30
300
445619.51500137;5696571.77639969;472.13315012;0.2;0.172549;0.164706;11565.000000;1.000000;1.000000;1.000000;1.000000;-0.075624;0.075624;-0.075624;1.000000
445619.44820221;5696571.78269966;472.12314989;0.27451;0.266667;0.25098;17476.000000;1.000000;1.000000;1.000000;1.000000;-0.008825;0.008825;-0.008825;1.000000
445619.55690201;5696571.89859970;472.13184978;0.654902;0.658824;0.65098;42919.000000;1.000000;1.000000;1.000000;1.000000;-0.136081;0.136081;-0.136081;1.000000
445619.55000122;5696571.80559929;472.14435007;0.780392;0.776471;0.760784;50629.000000;1.000000;1.000000;1.000000;1.000000;-0.110624;0.110624;-0.110624;1.000000
445619.94760139;5696571.89079865;472.10974981;0.282353;0.27451;0.231373;17733.000000;1.000000;1.000000;1.000000;1.000000;-0.104934;0.104934;-0.104934;1.000000
445619.95230110;5696571.74089916;472.10825016;0.501961;0.501961;0.435294;32382.000000;1.000000;1.000000;1.000000;1.000000;-0.100142;0.100142;-0.100142;1.000000
445619.95700081;5696571.87109955;472.11924984;0.345098;0.333333;0.290196;21588.000000;1.000000;1.000000;1.000000;1.000000;-0.086513;0.086513;-0.086513;1.000000
445619.95890244;5696571.81489952;472.11634972;0.290196;0.290196;0.254902;18761.000000;1.000000;1.000000;1.000000;1.000000;0.075745;-0.075745;0.075745;1.000000
445619.52110107;5696571.76869972;472.13794996;0.298039;0.278431;0.262745;18504.000000;1.000000;1.000000;1.000000;1.000000;-0.081724;0.081724;-0.081724;1.000000
445619.85250099;5696571.71759899;472.09644987;0.321569;0.317647;0.270588;20303.000000;1.000000;1.000000;1.000000;1.000000;-0.184191;0.184191;-0.184191;1.000000
445619.92520149;5696571.72019966;472.09744980;0.631373;0.635294;0.572549;40863.000000;1.000000;1.000000;1.000000;1.000000;-0.114635;0.114635;-0.114635;1.000000
445619.99870117;5696571.74109848;472.11724998;0.576471;0.592157;0.513725;37779.000000;1.000000;1.000000;1.000000;1.000000;-0.068432;0.068432;-0.068432;1.000000
445619.96140106;5696571.98309906;472.09754993;0.356863;0.34902;0.32549;22616.000000;1.000000;1.000000;1.000000;1.000000;-0.169068;0.169068;-0.169068;1.000000
445620.03640182;5696571.98549850;472.09865000;0.392157;0.384314;0.360784;24929.000000;1.000000;1.000000;1.000000;1.000000;-0.155499;0.155499;-0.155499;1.000000
445619.86200150;5696571.90329941;472.11534979;0.54902;0.537255;0.498039;34952.000000;1.000000;1.000000;1.000000;1.000000;-0.186164;0.186164;-0.186164;1.000000
445620.01560219;5696571.79789932;472.12104990;0.584314;0.592157;0.552941;38293.000000;1.000000;1.000000;1.000000;1.000000;0.036573;-0.036573;0.036573;1.000000
445619.87840088;5696571.74559982;472.09795000;0.458824;0.443137;0.392157;28784.000000;1.000000;1.000000;1.000000;1.000000;-0.167451;0.167451;-0.167451;1.000000
445619.53250130;5696571.76759918;472.14314987;0.568627;0.545098;0.52549;35980.000000;1.000000;1.000000;1.000000;1.000000;-0.093124;0.093124;-0.093124;1.000000
445619.95930107;5696572.00909908;472.09544994;0.403922;0.384314;0.34902;25186.000000;1.000000;1.000000;1.000000;1.000000;-0.193718;0.193718;-0.193718;1.000000
445619.96060188;5696571.97389896;472.09734966;0.486275;0.482353;0.462745;31354.000000;1.000000;1.000000;1.000000;1.000000;-0.161142;0.161142;-0.161142;1.000000
445619.46830185;5696571.97009857;472.11934998;0.501961;0.486275;0.45098;31868.000000;1.000000;1.000000;1.000000;1.000000;-0.143053;0.143053;-0.143053;1.000000
445619.94410141;5696571.94509895;472.09165003;0.117647;0.109804;0.101961;7196.000000;1.000000;1.000000;1.000000;1.000000;-0.145511;0.145511;-0.145511;1.000000
445619.50130089;5696571.85019882;472.12404968;0.517647;0.513725;0.498039;33410.000000;1.000000;1.000000;1.000000;1.000000;-0.065135;0.065135;-0.065135;1.000000
445620.02170189;5696571.87259872;472.08724977;0.223529;0.211765;0.188235;13878.000000;1.000000;1.000000;1.000000;1.000000;-0.044104;0.044104;-0.044104;1.000000
445619.95870216;5696571.84049900;472.12134983;0.556863;0.54902;0.505882;35723.000000;1.000000;1.000000;1.000000;1.000000;-0.075162;0.075162;-0.075162;1.000000
445619.97240074;5696571.70399864;472.10634996;0.513725;0.529412;0.431373;33667.000000;1.000000;1.000000;1.000000;1.000000;-0.064680;0.064680;-0.064680;1.000000
445619.99770172;5696571.80659874;472.12034990;0.552941;0.54902;0.513725;35723.000000;1.000000;1.000000;1.000000;1.000000;0.042457;-0.042457;0.042457;1.000000
445619.94370087;5696571.74869926;472.10794975;0.596078;0.6;0.54902;38807.000000;1.000000;1.000000;1.000000;1.000000;-0.111697;0.111697;-0.111697;1.000000
445619.95190247;5696571.98169907;472.09944965;0.505882;0.498039;0.47451;32382.000000;1.000000;1.000000;1.000000;1.000000;-0.172076;0.172076;-0.172076;1.000000
445620.02730186;5696571.98639877;472.09585001;0.419608;0.407843;0.384314;26728.000000;1.000000;1.000000;1.000000;1.000000;-0.156507;0.156507;-0.156507;1.000000
445619.95740135;5696571.89229973;472.10325005;0.270588;0.254902;0.207843;16448.000000;1.000000;1.000000;1.000000;1.000000;-0.098060;0.098060;-0.098060;1.000000
445619.95430191;5696571.90669926;472.09625008;0.227451;0.203922;0.176471;13621.000000;1.000000;1.000000;1.000000;1.000000;-0.109983;0.109983;-0.109983;1.000000
445619.59250076;5696571.82989891;472.13264992;0.643137;0.654902;0.627451;42405.000000;1.000000;1.000000;1.000000;1.000000;-0.153123;0.153123;-0.153123;1.000000
445619.94330223;5696571.93589981;472.08914997;0.239216;0.227451;0.215686;14906.000000;1.000000;1.000000;1.000000;1.000000;-0.138864;0.138864;-0.138864;1.000000
445619.42760094;5696571.83829887;472.12524988;0.376471;0.368627;0.360784;24158.000000;1.000000;1.000000;1.000000;1.000000;-0.008299;0.008299;-0.008299;1.000000
445619.50270088;5696571.84069927;472.12404968;0.458824;0.454902;0.439216;29555.000000;1.000000;1.000000;1.000000;1.000000;-0.064221;0.064221;-0.064221;1.000000
445620.02300079;5696571.86309917;472.08955004;0.254902;0.243137;0.215686;15934.000000;1.000000;1.000000;1.000000;1.000000;-0.034614;0.034614;-0.034614;1.000000
445619.56180199;5696571.75099953;472.13264992;0.690196;0.678431;0.623529;44204.000000;1.000000;1.000000;1.000000;1.000000;-0.122425;0.122425;-0.122425;1.000000
445619.49490173;5696572.00729950;472.12334969;0.423529;0.415686;0.392157;26985.000000;1.000000;1.000000;1.000000;1.000000;-0.185790;0.185790;-0.185790;1.000000
445619.63670166;5696571.75339897;472.13604977;0.2;0.192157;0.207843;12850.000000;1.000000;1.000000;1.000000;1.000000;-0.197324;0.197324;-0.197324;1.000000
445619.54850204;5696571.81509979;472.14444973;0.658824;0.654902;0.647059;42919.000000;1.000000;1.000000;1.000000;1.000000;-0.109125;0.109125;-0.109125;1.000000
445619.88250168;5696571.86879929;472.10654976;0.576471;0.560784;0.517647;36494.000000;1.000000;1.000000;1.000000;1.000000;-0.155543;0.155543;-0.155543;1.000000
445619.42980202;5696571.76329906;472.12914993;0.796078;0.8;0.788235;52171.000000;1.000000;1.000000;1.000000;1.000000;0.009575;-0.009575;0.009575;1.000000
445619.97690208;5696571.83419903;472.11975004;0.627451;0.615686;0.576471;40092.000000;1.000000;1.000000;1.000000;1.000000;-0.056382;0.056382;-0.056382;1.000000
445619.42920120;5696571.78209885;472.12935020;0.403922;0.407843;0.392157;26471.000000;1.000000;1.000000;1.000000;1.000000;0.010176;-0.010176;0.010176;1.000000
445619.89610107;5696571.94219978;472.11275007;0.152941;0.141176;0.133333;9252.000000;1.000000;1.000000;1.000000;1.000000;-0.177102;0.177102;-0.177102;1.000000
445619.98270233;5696571.71469887;472.10694983;0.435294;0.439216;0.345098;28013.000000;1.000000;1.000000;1.000000;1.000000;-0.060238;0.060238;-0.060238;1.000000
445619.94720085;5696571.90729912;472.10064985;0.239216;0.219608;0.192157;14392.000000;1.000000;1.000000;1.000000;1.000000;-0.115579;0.115579;-0.115579;1.000000
445619.56370171;5696571.94699867;472.13264992;0.352941;0.356863;0.352941;23130.000000;1.000000;1.000000;1.000000;1.000000;-0.170720;0.170720;-0.170720;1.000000
445619.97370155;5696571.88859947;472.09695007;0.227451;0.207843;0.172549;13621.000000;1.000000;1.000000;1.000000;1.000000;-0.083459;0.083459;-0.083459;1.000000
445619.47040184;5696571.94189938;472.11674978;0.72549;0.713725;0.686275;46774.000000;1.000000;1.000000;1.000000;1.000000;-0.116121;0.116121;-0.116121;1.000000
445619.47280128;5696571.86919983;472.12064983;0.427451;0.419608;0.4;27499.000000;1.000000;1.000000;1.000000;1.000000;-0.051515;0.051515;-0.051515;1.000000
445619.46080215;5696571.91479881;472.11835005;0.764706;0.752941;0.721569;49344.000000;1.000000;1.000000;1.000000;1.000000;-0.087463;0.087463;-0.087463;1.000000
445619.49830063;5696571.91599854;472.11774971;0.564706;0.556863;0.529412;36237.000000;1.000000;1.000000;1.000000;1.000000;-0.104248;0.104248;-0.104248;1.000000
445619.42050179;5696571.78979881;472.13135006;0.509804;0.509804;0.498039;33153.000000;1.000000;1.000000;1.000000;1.000000;0.018876;0.018876;-0.018876;1.000000
445619.53050240;5696571.84259899;472.13464977;0.34902;0.34902;0.345098;22616.000000;1.000000;1.000000;1.000000;1.000000;-0.091992;0.091992;-0.091992;1.000000
445619.48860176;5696571.96129902;472.11784985;0.568627;0.560784;0.529412;36494.000000;1.000000;1.000000;1.000000;1.000000;-0.140223;0.140223;-0.140223;1.000000
445619.98770149;5696572.01119907;472.09205009;0.376471;0.360784;0.329412;23644.000000;1.000000;1.000000;1.000000;1.000000;-0.186806;0.186806;-0.186806;1.000000
445619.96350105;5696571.95269974;472.09254982;0.141176;0.133333;0.12549;8738.000000;1.000000;1.000000;1.000000;1.000000;-0.141078;0.141078;-0.141078;1.000000
445619.97770126;5696571.86229904;472.10844995;0.262745;0.247059;0.207843;16191.000000;1.000000;1.000000;1.000000;1.000000;-0.064150;0.064150;-0.064150;1.000000
445620.01030167;5696571.71439941;472.11514999;0.564706;0.580392;0.462745;36751.000000;1.000000;1.000000;1.000000;1.000000;-0.039707;0.039707;-0.039707;1.000000
445619.54530151;5696571.94649895;472.12484982;0.552941;0.552941;0.537255;35980.000000;1.000000;1.000000;1.000000;1.000000;-0.157455;0.157455;-0.157455;1.000000
445620.01180084;5696571.89219864;472.08704998;0.137255;0.12549;0.101961;8224.000000;1.000000;1.000000;1.000000;1.000000;-0.065753;0.065753;-0.065753;1.000000
445619.46660240;5696571.80209930;472.11954977;0.607843;0.584314;0.552941;38293.000000;1.000000;1.000000;1.000000;1.000000;-0.027225;0.027225;-0.027225;1.000000
445619.88330086;5696571.84789856;472.09705021;0.364706;0.352941;0.305882;22873.000000;1.000000;1.000000;1.000000;1.000000;-0.150892;0.150892;-0.150892;1.000000
445619.54640205;5696571.90899857;472.12675001;0.45098;0.45098;0.443137;29298.000000;1.000000;1.000000;1.000000;1.000000;-0.133023;0.133023;-0.133023;1.000000
445619.51000221;5696571.87039955;472.12704994;0.615686;0.611765;0.592157;39835.000000;1.000000;1.000000;1.000000;1.000000;-0.081363;0.081363;-0.081363;1.000000
445619.92210205;5696571.81389912;472.10074999;0.427451;0.415686;0.388235;27242.000000;1.000000;1.000000;1.000000;1.000000;0.112187;-0.112187;0.112187;1.000000
445619.62610062;5696571.76369865;472.13334991;0.411765;0.403922;0.407843;26471.000000;1.000000;1.000000;1.000000;1.000000;-0.186723;0.186723;-0.186723;1.000000
445619.57500084;5696571.87339981;472.14395000;0.576471;0.588235;0.576471;38036.000000;1.000000;1.000000;1.000000;1.000000;-0.142398;0.142398;-0.142398;1.000000
445619.54120071;5696571.75979908;472.14104988;0.694118;0.67451;0.643137;44204.000000;1.000000;1.000000;1.000000;1.000000;-0.101823;0.101823;-0.101823;1.000000
445619.47390182;5696571.83169945;472.12264969;0.776471;0.768627;0.745098;50115.000000;1.000000;1.000000;1.000000;1.000000;-0.034566;0.034566;-0.034566;1.000000
445619.51130112;5696571.83289917;472.12435009;0.443137;0.435294;0.415686;28527.000000;1.000000;1.000000;1.000000;1.000000;-0.071982;0.071982;-0.071982;1.000000
445619.91430099;5696571.93359955;472.10645010;0.192157;0.176471;0.160784;11565.000000;1.000000;1.000000;1.000000;1.000000;-0.157647;0.157647;-0.157647;1.000000
445619.62190063;5696571.83899887;472.12235023;0.792157;0.803922;0.776471;52171.000000;1.000000;1.000000;1.000000;1.000000;-0.182745;0.182745;-0.182745;1.000000
445619.62520226;5696571.80129917;472.12675001;0.180392;0.184314;0.180392;11822.000000;1.000000;1.000000;1.000000;1.000000;-0.185825;0.185825;-0.185825;1.000000
445619.61450203;5696571.80939873;472.12174990;0.447059;0.454902;0.435294;29298.000000;1.000000;1.000000;1.000000;1.000000;-0.175125;0.175125;-0.175125;1.000000
445619.91060074;5696571.84059914;472.10055019;0.619608;0.607843;0.560784;39578.000000;1.000000;1.000000;1.000000;1.000000;-0.122984;0.122984;-0.122984;1.000000
445619.97520073;5696571.88139923;472.09924986;0.188235;0.168627;0.129412;11051.000000;1.000000;1.000000;1.000000;1.000000;-0.077443;0.077443;-0.077443;1.000000
445619.91410072;5696571.80299957;472.10024979;0.615686;0.607843;0.584314;39578.000000;1.000000;1.000000;1.000000;1.000000;0.122051;-0.122051;0.122051;1.000000
445619.60350235;5696571.84759911;472.13334991;0.564706;0.576471;0.552941;37265.000000;1.000000;1.000000;1.000000;1.000000;-0.165066;0.165066;-0.165066;1.000000
445619.43690117;5696571.83749969;472.12564995;0.403922;0.396078;0.384314;25957.000000;1.000000;1.000000;1.000000;1.000000;0.007898;-0.007898;0.007898;1.000000
445619.86540230;5696571.85649879;472.09865000;0.54902;0.533333;0.482353;34695.000000;1.000000;1.000000;1.000000;1.000000;-0.169805;0.169805;-0.169805;1.000000
445619.98180206;5696571.94639977;472.08864977;0.176471;0.168627;0.156863;11051.000000;1.000000;1.000000;1.000000;1.000000;-0.127213;0.127213;-0.127213;1.000000
445619.57880219;5696571.77989967;472.12675001;0.482353;0.470588;0.427451;30583.000000;1.000000;1.000000;1.000000;1.000000;-0.139425;0.139425;-0.139425;1.000000
445619.54500206;5696571.75009926;472.13884975;0.745098;0.729412;0.686275;47545.000000;1.000000;1.000000;1.000000;1.000000;-0.105625;0.105625;-0.105625;1.000000
445619.52020081;5696571.80629929;472.13135006;0.25098;0.239216;0.219608;15677.000000;1.000000;1.000000;1.000000;1.000000;-0.080823;0.080823;-0.080823;1.000000
445619.52290161;5696571.78729923;472.13595011;0.270588;0.247059;0.231373;16448.000000;1.000000;1.000000;1.000000;1.000000;-0.083524;0.083524;-0.083524;1.000000
445619.51330193;5696571.80469902;472.12634995;0.27451;0.258824;0.239216;16962.000000;1.000000;1.000000;1.000000;1.000000;-0.073925;0.073925;-0.073925;1.000000
445619.52510078;5696571.95319946;472.11934998;0.611765;0.607843;0.584314;39578.000000;1.000000;1.000000;1.000000;1.000000;-0.150089;0.150089;-0.150089;1.000000
445619.93520172;5696571.72859962;472.10024979;0.643137;0.639216;0.572549;41377.000000;1.000000;1.000000;1.000000;1.000000;-0.108614;0.108614;-0.108614;1.000000
445619.57810219;5696571.79859932;472.12925007;0.72549;0.72549;0.694118;47288.000000;1.000000;1.000000;1.000000;1.000000;-0.138725;0.138725;-0.138725;1.000000
445619.62160118;5696571.86459930;472.12964966;0.521569;0.529412;0.494118;34181.000000;1.000000;1.000000;1.000000;1.000000;-0.185479;0.185479;-0.185479;1.000000
445619.56020172;5696571.78609856;472.13765003;0.752941;0.745098;0.713725;48573.000000;1.000000;1.000000;1.000000;1.000000;-0.120824;0.120824;-0.120824;1.000000
445619.51280220;5696571.82339867;472.12424995;0.415686;0.403922;0.392157;26471.000000;1.000000;1.000000;1.000000;1.000000;-0.073425;0.073425;-0.073425;1.000000
445619.98300179;5696571.88769920;472.09504988;0.211765;0.188235;0.156863;12336.000000;1.000000;1.000000;1.000000;1.000000;-0.076431;0.076431;-0.076431;1.000000
445619.43890198;5696571.78359898;472.12515022;0.266667;0.266667;0.254902;17219.000000;1.000000;1.000000;1.000000;1.000000;0.000475;-0.000475;0.000475;1.000000
445619.58670242;5696571.78849895;472.12484982;0.615686;0.607843;0.576471;39578.000000;1.000000;1.000000;1.000000;1.000000;-0.147325;0.147325;-0.147325;1.000000
445619.57050140;5696571.94629868;472.13765003;0.329412;0.333333;0.333333;21588.000000;1.000000;1.000000;1.000000;1.000000;-0.175268;0.175268;-0.175268;1.000000
445619.87900169;5696571.72679909;472.09775021;0.658824;0.654902;0.603922;42405.000000;1.000000;1.000000;1.000000;1.000000;-0.160627;0.160627;-0.160627;1.000000
445619.91120155;5696571.84759911;472.10064985;0.607843;0.596078;0.545098;38807.000000;1.000000;1.000000;1.000000;1.000000;-0.123189;0.123189;-0.123189;1.000000
445619.57180222;5696571.91119965;472.13964989;0.337255;0.345098;0.34902;22359.000000;1.000000;1.000000;1.000000;1.000000;-0.155337;0.155337;-0.155337;1.000000
445619.50630196;5696571.75849922;472.13485004;0.184314;0.156863;0.137255;10537.000000;1.000000;1.000000;1.000000;1.000000;-0.066925;0.066925;-0.066925;1.000000
445619.96260078;5696571.91549881;472.08745005;0.2;0.180392;0.160784;11822.000000;1.000000;1.000000;1.000000;1.000000;-0.110833;0.110833;-0.110833;1.000000
445619.51230247;5696571.79539879;472.12855007;0.254902;0.231373;0.219608;15420.000000;1.000000;1.000000;1.000000;1.000000;-0.072925;0.072925;-0.072925;1.000000
445619.99110229;5696571.70459946;472.10715010;0.560784;0.576471;0.478431;36751.000000;1.000000;1.000000;1.000000;1.000000;-0.047836;0.047836;-0.047836;1.000000
445619.53320129;5696571.99209984;472.12484982;0.596078;0.588235;0.576471;38550.000000;1.000000;1.000000;1.000000;1.000000;-0.187295;0.187295;-0.187295;1.000000
445619.56480225;5696571.90949924;472.13464977;0.52549;0.533333;0.529412;34695.000000;1.000000;1.000000;1.000000;1.000000;-0.148498;0.148498;-0.148498;1.000000
445619.90370186;5696571.84129913;472.09784986;0.533333;0.52549;0.482353;34181.000000;1.000000;1.000000;1.000000;1.000000;-0.129918;0.129918;-0.129918;1.000000
445619.91580208;5696571.74669846;472.10195019;0.552941;0.541176;0.498039;35209.000000;1.000000;1.000000;1.000000;1.000000;-0.134150;0.134150;-0.134150;1.000000
445619.95450218;5696571.71039970;472.10094978;0.52549;0.517647;0.439216;33410.000000;1.000000;1.000000;1.000000;1.000000;-0.083725;0.083725;-0.083725;1.000000
445619.93630226;5696571.87759979;472.12544968;0.576471;0.560784;0.52549;36751.000000;1.000000;1.000000;1.000000;1.000000;-0.107893;0.107893;-0.107893;1.000000
445619.98630150;5696571.85449894;472.10874989;0.380392;0.364706;0.32549;23901.000000;1.000000;1.000000;1.000000;1.000000;-0.052848;0.052848;-0.052848;1.000000
445619.91530235;5696571.94289978;472.10424997;0.176471;0.160784;0.156863;10794.000000;1.000000;1.000000;1.000000;1.000000;-0.163184;0.163184;-0.163184;1.000000
445619.44760139;5696572.02569969;472.12375023;0.721569;0.698039;0.658824;45746.000000;1.000000;1.000000;1.000000;1.000000;-0.195872;0.195872;-0.195872;1.000000
445619.58340080;5696571.86329849;472.14424994;0.854902;0.862745;0.847059;56026.000000;1.000000;1.000000;1.000000;1.000000;-0.147823;0.147823;-0.147823;1.000000
445619.86110123;5696571.73549850;472.09705021;0.513725;0.509804;0.458824;32896.000000;1.000000;1.000000;1.000000;1.000000;-0.180287;0.180287;-0.180287;1.000000
445619.54940231;5696571.82439907;472.14454987;0.568627;0.568627;0.556863;37008.000000;1.000000;1.000000;1.000000;1.000000;-0.110025;0.110025;-0.110025;1.000000
445619.84460075;5696571.83739861;472.10444977;0.490196;0.482353;0.447059;31354.000000;1.000000;1.000000;1.000000;1.000000;-0.188672;0.188672;-0.188672;1.000000
445619.88930138;5696571.73749931;472.09835007;0.545098;0.533333;0.482353;34695.000000;1.000000;1.000000;1.000000;1.000000;-0.154315;0.154315;-0.154315;1.000000
445620.01550110;5696572.01309975;472.10034992;0.364706;0.356863;0.329412;23130.000000;1.000000;1.000000;1.000000;1.000000;-0.183946;0.183946;-0.183946;1.000000
445619.60570152;5696571.84509857;472.13104965;0.607843;0.615686;0.592157;39835.000000;1.000000;1.000000;1.000000;1.000000;-0.167008;0.167008;-0.167008;1.000000
445619.93890198;5696571.85169895;472.11824991;0.615686;0.603922;0.560784;39321.000000;1.000000;1.000000;1.000000;1.000000;-0.096692;0.096692;-0.096692;1.000000
445619.97750099;5696571.81539925;472.11954977;0.615686;0.607843;0.572549;39578.000000;1.000000;1.000000;1.000000;1.000000;0.057511;-0.057511;0.057511;1.000000
445619.97880180;5696571.77799900;472.11684992;0.321569;0.329412;0.290196;21074.000000;1.000000;1.000000;1.000000;1.000000;0.075202;-0.075202;0.075202;1.000000
445619.92350204;5696571.97959908;472.10274984;0.384314;0.376471;0.360784;24672.000000;1.000000;1.000000;1.000000;1.000000;-0.185466;0.185466;-0.185466;1.000000
445619.47930153;5696571.96209915;472.11744978;0.513725;0.501961;0.466667;32639.000000;1.000000;1.000000;1.000000;1.000000;-0.138000;0.138000;-0.138000;1.000000
445619.52200134;5696571.77799900;472.13814976;0.282353;0.258824;0.247059;17219.000000;1.000000;1.000000;1.000000;1.000000;-0.082624;0.082624;-0.082624;1.000000
445619.99450119;5696571.86319931;472.09994986;0.411765;0.4;0.364706;25957.000000;1.000000;1.000000;1.000000;1.000000;-0.050933;0.050933;-0.050933;1.000000
445619.94370087;5696571.97069939;472.10125019;0.490196;0.490196;0.47451;31868.000000;1.000000;1.000000;1.000000;1.000000;-0.166714;0.166714;-0.166714;1.000000
445619.94890221;5696571.90019901;472.10064985;0.313725;0.301961;0.254902;19532.000000;1.000000;1.000000;1.000000;1.000000;-0.109644;0.109644;-0.109644;1.000000
445619.89340218;5696571.83059891;472.09725000;0.509804;0.501961;0.470588;32639.000000;1.000000;1.000000;1.000000;1.000000;-0.139726;0.139726;-0.139726;1.000000
445619.93460091;5696571.72169884;472.09784986;0.631373;0.635294;0.568627;40863.000000;1.000000;1.000000;1.000000;1.000000;-0.106387;0.106387;-0.106387;1.000000
445619.97340210;5696571.90739925;472.09014990;0.27451;0.258824;0.235294;16962.000000;1.000000;1.000000;1.000000;1.000000;-0.097764;0.097764;-0.097764;1.000000
445619.46290215;5696571.88659866;472.11805012;0.403922;0.388235;0.364706;25443.000000;1.000000;1.000000;1.000000;1.000000;-0.061293;0.061293;-0.061293;1.000000
445619.44030197;5696571.99609955;472.11835005;0.592157;0.560784;0.52549;37008.000000;1.000000;1.000000;1.000000;1.000000;-0.166102;0.166102;-0.166102;1.000000
445619.44150169;5696571.95859917;472.11794998;0.67451;0.654902;0.615686;42919.000000;1.000000;1.000000;1.000000;1.000000;-0.128617;0.128617;-0.128617;1.000000
445619.44280251;5696571.92339905;472.11994984;0.564706;0.54902;0.517647;35980.000000;1.000000;1.000000;1.000000;1.000000;-0.093462;0.093462;-0.093462;1.000000
445619.47820099;5696571.92489918;472.11695005;0.721569;0.713725;0.682353;46517.000000;1.000000;1.000000;1.000000;1.000000;-0.102534;0.102534;-0.102534;1.000000
445619.51800163;5696571.92589958;472.11644985;0.505882;0.501961;0.47451;32639.000000;1.000000;1.000000;1.000000;1.000000;-0.124010;0.124010;-0.124010;1.000000
445619.44410141;5696571.88599976;472.11724998;0.513725;0.490196;0.47451;32382.000000;1.000000;1.000000;1.000000;1.000000;-0.056199;0.056199;-0.056199;1.000000
445619.48160179;5696571.88709934;472.11894991;0.305882;0.294118;0.266667;19275.000000;1.000000;1.000000;1.000000;1.000000;-0.071016;0.071016;-0.071016;1.000000
445619.99960144;5696571.75039871;472.11744978;0.462745;0.478431;0.407843;30326.000000;1.000000;1.000000;1.000000;1.000000;-0.076207;0.076207;-0.076207;1.000000
445620.00880249;5696571.72379883;472.11754992;0.584314;0.607843;0.486275;38293.000000;1.000000;1.000000;1.000000;1.000000;-0.048397;0.048397;-0.048397;1.000000
445620.00240143;5696571.70569904;472.11704971;0.572549;0.603922;0.462745;37779.000000;1.000000;1.000000;1.000000;1.000000;-0.038837;0.038837;-0.038837;1.000000
445619.56110199;5696571.79769905;472.14015009;0.815686;0.811765;0.784314;52942.000000;1.000000;1.000000;1.000000;1.000000;-0.121725;0.121725;-0.121725;1.000000
445619.56020172;5696571.76049908;472.13495018;0.780392;0.764706;0.717647;49858.000000;1.000000;1.000000;1.000000;1.000000;-0.120824;0.120824;-0.120824;1.000000
445619.43740089;5696571.79299934;472.12515022;0.282353;0.278431;0.262745;17990.000000;1.000000;1.000000;1.000000;1.000000;0.001976;-0.001976;0.001976;1.000000
445619.96380241;5696571.88699921;472.10584976;0.219608;0.196078;0.160784;12850.000000;1.000000;1.000000;1.000000;1.000000;-0.089749;0.089749;-0.089749;1.000000
445619.51440247;5696571.74829872;472.13975002;0.403922;0.388235;0.364706;25443.000000;1.000000;1.000000;1.000000;1.000000;-0.075025;0.075025;-0.075025;1.000000
445619.97970207;5696571.97459896;472.08894970;0.341176;0.333333;0.305882;21588.000000;1.000000;1.000000;1.000000;1.000000;-0.154153;0.154153;-0.154153;1.000000
445619.62150200;5696571.89249905;472.13934996;0.639216;0.643137;0.6;41634.000000;1.000000;1.000000;1.000000;1.000000;-0.192550;0.192550;-0.192550;1.000000
445619.53300102;5696571.96409901;472.12214996;0.686275;0.678431;0.654902;44204.000000;1.000000;1.000000;1.000000;1.000000;-0.163548;0.163548;-0.163548;1.000000
445619.46170242;5696571.92399891;472.11844971;0.780392;0.768627;0.737255;50372.000000;1.000000;1.000000;1.000000;1.000000;-0.096614;0.096614;-0.096614;1.000000
445619.49930199;5696571.92529877;472.11555006;0.572549;0.568627;0.541176;37008.000000;1.000000;1.000000;1.000000;1.000000;-0.112574;0.112574;-0.112574;1.000000
445619.53430183;5696571.92659958;472.11945011;0.662745;0.658824;0.635294;42919.000000;1.000000;1.000000;1.000000;1.000000;-0.135433;0.135433;-0.135433;1.000000
445619.46740158;5696571.81139954;472.11975004;0.541176;0.52549;0.494118;34438.000000;1.000000;1.000000;1.000000;1.000000;-0.028024;0.028024;-0.028024;1.000000
445619.61530121;5696571.81859978;472.12185003;0.662745;0.670588;0.647059;43433.000000;1.000000;1.000000;1.000000;1.000000;-0.175924;0.175924;-0.175924;1.000000
445619.98910149;5696571.97369965;472.08704998;0.34902;0.341176;0.317647;22102.000000;1.000000;1.000000;1.000000;1.000000;-0.150293;0.150293;-0.150293;1.000000
445619.56530197;5696571.89079865;472.13674976;0.431373;0.439216;0.435294;28527.000000;1.000000;1.000000;1.000000;1.000000;-0.139834;0.139834;-0.139834;1.000000
445620.01400192;5696571.84509857;472.09824993;0.262745;0.25098;0.215686;16191.000000;1.000000;1.000000;1.000000;1.000000;-0.024367;0.024367;-0.024367;1.000000
445619.90630157;5696571.71959885;472.09884979;0.596078;0.588235;0.545098;38293.000000;1.000000;1.000000;1.000000;1.000000;-0.132400;0.132400;-0.132400;1.000000
445619.49380119;5696572.01909931;472.12104990;0.443137;0.423529;0.4;27756.000000;1.000000;1.000000;1.000000;1.000000;-0.196775;0.196775;-0.196775;1.000000
445619.51440247;5696571.96349915;472.11905005;0.721569;0.717647;0.690196;46774.000000;1.000000;1.000000;1.000000;1.000000;-0.153136;0.153136;-0.153136;1.000000
445619.48400124;5696571.81219872;472.11814978;0.47451;0.454902;0.427451;29812.000000;1.000000;1.000000;1.000000;1.000000;-0.044624;0.044624;-0.044624;1.000000
445619.96710213;5696571.85379894;472.11954977;0.337255;0.321569;0.282353;21074.000000;1.000000;1.000000;1.000000;1.000000;-0.070184;0.070184;-0.070184;1.000000
445619.92650230;5696571.96059902;472.10034992;0.121569;0.117647;0.109804;7710.000000;1.000000;1.000000;1.000000;1.000000;-0.168597;0.168597;-0.168597;1.000000
445619.46330078;5696571.86779984;472.12024977;0.317647;0.309804;0.290196;20303.000000;1.000000;1.000000;1.000000;1.000000;-0.044734;0.044734;-0.044734;1.000000
445619.89010246;5696571.90529926;472.11894991;0.768627;0.752941;0.713725;49344.000000;1.000000;1.000000;1.000000;1.000000;-0.161636;0.161636;-0.161636;1.000000
445619.92530067;5696571.90449913;472.11354973;0.345098;0.321569;0.290196;21074.000000;1.000000;1.000000;1.000000;1.000000;-0.131060;0.131060;-0.131060;1.000000
445619.92850121;5696571.86669930;472.12024977;0.67451;0.662745;0.627451;43176.000000;1.000000;1.000000;1.000000;1.000000;-0.110876;0.110876;-0.110876;1.000000
445619.96870239;5696571.79529961;472.11654999;0.32549;0.329412;0.290196;21074.000000;1.000000;1.000000;1.000000;1.000000;0.073176;-0.073176;0.073176;1.000000
445619.89630135;5696571.73689850;472.09865000;0.427451;0.419608;0.364706;27242.000000;1.000000;1.000000;1.000000;1.000000;-0.147584;0.147584;-0.147584;1.000000
445619.87300117;5696571.89529903;472.11345007;0.615686;0.6;0.552941;39064.000000;1.000000;1.000000;1.000000;1.000000;-0.172929;0.172929;-0.172929;1.000000
445619.90780075;5696571.89659889;472.12204983;0.654902;0.639216;0.6;41891.000000;1.000000;1.000000;1.000000;1.000000;-0.141923;0.141923;-0.141923;1.000000
445619.54770096;5696571.85269936;472.13784983;0.298039;0.298039;0.294118;19275.000000;1.000000;1.000000;1.000000;1.000000;-0.110676;0.110676;-0.110676;1.000000
445619.98680122;5696571.81459911;472.11994984;0.678431;0.67451;0.635294;43947.000000;1.000000;1.000000;1.000000;1.000000;0.048819;-0.048819;0.048819;1.000000
445619.88880165;5696571.94049843;472.11704971;0.313725;0.301961;0.294118;19789.000000;1.000000;1.000000;1.000000;1.000000;-0.181769;0.181769;-0.181769;1.000000
445619.85270126;5696571.90419968;472.11494972;0.533333;0.521569;0.486275;33924.000000;1.000000;1.000000;1.000000;1.000000;-0.195088;0.195088;-0.195088;1.000000
445620.00630196;5696571.79869850;472.12064983;0.541176;0.541176;0.509804;35209.000000;1.000000;1.000000;1.000000;1.000000;0.041224;-0.041224;0.041224;1.000000
445620.00750168;5696571.76129921;472.12024977;0.2;0.207843;0.160784;13107.000000;1.000000;1.000000;1.000000;1.000000;0.073324;-0.073324;0.073324;1.000000
445619.57190140;5696571.93689926;472.13754990;0.25098;0.254902;0.258824;16448.000000;1.000000;1.000000;1.000000;1.000000;-0.170265;0.170265;-0.170265;1.000000
445619.46470078;5696571.85829933;472.12255003;0.494118;0.486275;0.466667;31868.000000;1.000000;1.000000;1.000000;1.000000;-0.037975;0.037975;-0.037975;1.000000
445619.99030121;5696571.75119980;472.11704971;0.537255;0.54902;0.482353;35209.000000;1.000000;1.000000;1.000000;1.000000;-0.081418;0.081418;-0.081418;1.000000
445619.57300194;5696571.89939888;472.13954975;0.345098;0.356863;0.352941;22873.000000;1.000000;1.000000;1.000000;1.000000;-0.150571;0.150571;-0.150571;1.000000
445619.42810066;5696571.81959923;472.12734987;0.380392;0.376471;0.360784;24415.000000;1.000000;1.000000;1.000000;1.000000;0.010401;-0.010401;0.010401;1.000000
445619.90880211;5696571.90589912;472.11984970;0.635294;0.623529;0.584314;40606.000000;1.000000;1.000000;1.000000;1.000000;-0.145662;0.145662;-0.145662;1.000000
445619.91040237;5696571.87079914;472.11485006;0.682353;0.670588;0.627451;43690.000000;1.000000;1.000000;1.000000;1.000000;-0.129329;0.129329;-0.129329;1.000000
445619.50450142;5696571.78679855;472.12815001;0.227451;0.196078;0.180392;13107.000000;1.000000;1.000000;1.000000;1.000000;-0.065124;0.065124;-0.065124;1.000000
445619.50530251;5696571.74919899;472.13705017;0.27451;0.258824;0.231373;16962.000000;1.000000;1.000000;1.000000;1.000000;-0.065925;0.065925;-0.065925;1.000000
445619.99010094;5696571.72319897;472.11665012;0.505882;0.545098;0.415686;33924.000000;1.000000;1.000000;1.000000;1.000000;-0.059611;0.059611;-0.059611;1.000000
445619.46810158;5696571.74579914;472.12594988;0.227451;0.219608;0.196078;14135.000000;1.000000;1.000000;1.000000;1.000000;-0.028724;0.028724;-0.028724;1.000000
445619.98440178;5696571.89939888;472.08824970;0.247059;0.227451;0.2;14906.000000;1.000000;1.000000;1.000000;1.000000;-0.084796;0.084796;-0.084796;1.000000
445619.57870110;5696571.80559929;472.12935020;0.733333;0.737255;0.709804;47802.000000;1.000000;1.000000;1.000000;1.000000;-0.139324;0.139324;-0.139324;1.000000
445619.94880112;5696571.86009892;472.12344982;0.721569;0.709804;0.666667;46260.000000;1.000000;1.000000;1.000000;1.000000;-0.089537;0.089537;-0.089537;1.000000
445620.00030144;5696571.85099895;472.10234978;0.392157;0.380392;0.345098;24672.000000;1.000000;1.000000;1.000000;1.000000;-0.038968;0.038968;-0.038968;1.000000
445619.55960091;5696571.77919968;472.13514997;0.694118;0.686275;0.643137;44718.000000;1.000000;1.000000;1.000000;1.000000;-0.120224;0.120224;-0.120224;1.000000
445619.93360146;5696571.73799904;472.10265018;0.647059;0.635294;0.568627;41377.000000;1.000000;1.000000;1.000000;1.000000;-0.114364;0.114364;-0.114364;1.000000
445619.52790077;5696571.86169918;472.12774994;0.603922;0.603922;0.592157;39321.000000;1.000000;1.000000;1.000000;1.000000;-0.094028;0.094028;-0.094028;1.000000
445619.91900070;5696571.83049973;472.10074999;0.462745;0.45098;0.411765;29298.000000;1.000000;1.000000;1.000000;1.000000;-0.114128;0.114128;-0.114128;1.000000
445619.45650108;5696571.82159908;472.12404968;0.631373;0.627451;0.603922;40863.000000;1.000000;1.000000;1.000000;1.000000;-0.017124;0.017124;-0.017124;1.000000
445619.87140091;5696571.93039902;472.11844971;0.878431;0.87451;0.85098;57054.000000;1.000000;1.000000;1.000000;1.000000;-0.190356;0.190356;-0.190356;1.000000
445619.94530113;5696571.89329918;472.11434986;0.258824;0.235294;0.2;15420.000000;1.000000;1.000000;1.000000;1.000000;-0.108260;0.108260;-0.108260;1.000000
445619.60780151;5696571.78889854;472.12344982;0.286275;0.282353;0.262745;18247.000000;1.000000;1.000000;1.000000;1.000000;-0.168424;0.168424;-0.168424;1.000000
445619.57130249;5696571.75249870;472.13075020;0.611765;0.607843;0.545098;39321.000000;1.000000;1.000000;1.000000;1.000000;-0.131925;0.131925;-0.131925;1.000000
445620.02790077;5696571.96539886;472.09095003;0.301961;0.294118;0.262745;19018.000000;1.000000;1.000000;1.000000;1.000000;-0.135500;0.135500;-0.135500;1.000000
445619.97030075;5696571.76009949;472.11394979;0.4;0.411765;0.364706;26214.000000;1.000000;1.000000;1.000000;1.000000;0.093985;-0.093985;0.093985;1.000000
445619.97900208;5696571.99329956;472.09145023;0.419608;0.407843;0.380392;26728.000000;1.000000;1.000000;1.000000;1.000000;-0.172036;0.172036;-0.172036;1.000000
445619.45680244;5696571.99689873;472.11914970;0.631373;0.607843;0.568627;39835.000000;1.000000;1.000000;1.000000;1.000000;-0.167806;0.167806;-0.167806;1.000000
445620.00770195;5696572.00219925;472.09515001;0.498039;0.486275;0.466667;31868.000000;1.000000;1.000000;1.000000;1.000000;-0.174066;0.174066;-0.174066;1.000000
445619.98460205;5696571.88049896;472.09734966;0.207843;0.188235;0.152941;12336.000000;1.000000;1.000000;1.000000;1.000000;-0.070035;0.070035;-0.070035;1.000000
445619.91850098;5696571.88629921;472.12235023;0.54902;0.537255;0.494118;34952.000000;1.000000;1.000000;1.000000;1.000000;-0.127706;0.127706;-0.127706;1.000000
445620.01780136;5696571.95699890;472.08815004;0.301961;0.290196;0.266667;19018.000000;1.000000;1.000000;1.000000;1.000000;-0.127920;0.127920;-0.127920;1.000000
445619.54180153;5696571.98419960;472.12515022;0.427451;0.423529;0.411765;27499.000000;1.000000;1.000000;1.000000;1.000000;-0.185117;0.185117;-0.185117;1.000000
445619.61530121;5696571.77179916;472.12824966;0.282353;0.278431;0.266667;17990.000000;1.000000;1.000000;1.000000;1.000000;-0.175924;0.175924;-0.175924;1.000000
445619.88600166;5696571.95949944;472.11474993;0.109804;0.0980392;0.0941176;6425.000000;1.000000;1.000000;1.000000;1.000000;-0.196000;0.196000;-0.196000;1.000000
445619.99050148;5696571.96429928;472.08694984;0.117647;0.113725;0.0941176;7196.000000;1.000000;1.000000;1.000000;1.000000;-0.140902;0.140902;-0.140902;1.000000
445619.99170120;5696571.92679985;472.08654978;0.12549;0.113725;0.101961;7453.000000;1.000000;1.000000;1.000000;1.000000;-0.105292;0.105292;-0.105292;1.000000
445619.93370064;5696571.96229942;472.09835007;0.133333;0.129412;0.12549;8481.000000;1.000000;1.000000;1.000000;1.000000;-0.165496;0.165496;-0.165496;1.000000
445620.02930077;5696571.93019875;472.09065010;0.403922;0.4;0.380392;25957.000000;1.000000;1.000000;1.000000;1.000000;-0.100272;0.100272;-0.100272;1.000000
445619.49200066;5696571.85109909;472.12365009;0.6;0.596078;0.576471;38807.000000;1.000000;1.000000;1.000000;1.000000;-0.056696;0.056696;-0.056696;1.000000
445619.97170074;5696571.99159916;472.09345009;0.301961;0.290196;0.258824;19018.000000;1.000000;1.000000;1.000000;1.000000;-0.172880;0.172880;-0.172880;1.000000
445620.01080139;5696571.88059910;472.08684971;0.184314;0.168627;0.141176;11051.000000;1.000000;1.000000;1.000000;1.000000;-0.055306;0.055306;-0.055306;1.000000
445619.50650223;5696571.95259865;472.11614992;0.662745;0.658824;0.635294;42919.000000;1.000000;1.000000;1.000000;1.000000;-0.139772;0.139772;-0.139772;1.000000
445619.96750076;5696571.83269890;472.11924984;0.603922;0.596078;0.556863;38807.000000;1.000000;1.000000;1.000000;1.000000;-0.065682;0.065682;-0.065682;1.000000
445619.88950165;5696571.92409904;472.11914970;0.8;0.788235;0.760784;51657.000000;1.000000;1.000000;1.000000;1.000000;-0.171706;0.171706;-0.171706;1.000000
445619.48780067;5696571.95199974;472.11534979;0.686275;0.678431;0.65098;44204.000000;1.000000;1.000000;1.000000;1.000000;-0.131258;0.131258;-0.131258;1.000000
445619.45480164;5696571.87559898;472.11765005;0.301961;0.286275;0.266667;18761.000000;1.000000;1.000000;1.000000;1.000000;-0.048137;0.048137;-0.048137;1.000000
445619.94240196;5696571.95459946;472.09635021;0.0784314;0.0745098;0.0745098;4883.000000;1.000000;1.000000;1.000000;1.000000;-0.154130;0.154130;-0.154130;1.000000
445619.46040161;5696571.95919903;472.11654999;0.572549;0.560784;0.529412;36751.000000;1.000000;1.000000;1.000000;1.000000;-0.130898;0.130898;-0.130898;1.000000
445619.87010201;5696571.93989952;472.11614992;0.870588;0.862745;0.847059;56540.000000;1.000000;1.000000;1.000000;1.000000;-0.196609;0.196609;-0.196609;1.000000
445619.87150200;5696571.90479858;472.11584999;0.564706;0.54902;0.509804;35980.000000;1.000000;1.000000;1.000000;1.000000;-0.178094;0.178094;-0.178094;1.000000
445619.50270088;5696571.81279953;472.11905005;0.494118;0.478431;0.454902;31354.000000;1.000000;1.000000;1.000000;1.000000;-0.063323;0.063323;-0.063323;1.000000
445619.94880112;5696571.83219917;472.11614992;0.427451;0.419608;0.380392;27242.000000;1.000000;1.000000;1.000000;1.000000;-0.084355;0.084355;-0.084355;1.000000
445619.98890121;5696571.76069935;472.11704971;0.466667;0.470588;0.423529;30326.000000;1.000000;1.000000;1.000000;1.000000;0.082210;-0.082210;0.082210;1.000000
445619.46900185;5696571.95139893;472.11684992;0.596078;0.588235;0.552941;38293.000000;1.000000;1.000000;1.000000;1.000000;-0.124961;0.124961;-0.124961;1.000000
445619.47150238;5696571.87879951;472.11835005;0.34902;0.337255;0.313725;22102.000000;1.000000;1.000000;1.000000;1.000000;-0.058424;0.058424;-0.058424;1.000000
445619.52310188;5696572.00929935;472.12465002;0.466667;0.458824;0.447059;30069.000000;1.000000;1.000000;1.000000;1.000000;-0.197884;0.197884;-0.197884;1.000000
445619.96420105;5696571.87049873;472.11494972;0.266667;0.25098;0.203922;16191.000000;1.000000;1.000000;1.000000;1.000000;-0.079944;0.079944;-0.079944;1.000000
445620.01730164;5696571.97579964;472.08834984;0.309804;0.298039;0.27451;19532.000000;1.000000;1.000000;1.000000;1.000000;-0.146656;0.146656;-0.146656;1.000000
445619.45520218;5696571.85679920;472.12204983;0.4;0.392157;0.372549;25700.000000;1.000000;1.000000;1.000000;1.000000;-0.031123;0.031123;-0.031123;1.000000
445619.49290092;5696571.86029919;472.12384989;0.545098;0.541176;0.521569;35209.000000;1.000000;1.000000;1.000000;1.000000;-0.061505;0.061505;-0.061505;1.000000
445619.49530228;5696571.78539856;472.12305023;0.270588;0.239216;0.223529;15934.000000;1.000000;1.000000;1.000000;1.000000;-0.055925;0.055925;-0.055925;1.000000
445619.87810143;5696571.95089920;472.11665012;0.360784;0.34902;0.341176;22873.000000;1.000000;1.000000;1.000000;1.000000;-0.196595;0.196595;-0.196595;1.000000
445619.47660072;5696571.78479965;472.11984970;0.741176;0.705882;0.686275;46774.000000;1.000000;1.000000;1.000000;1.000000;-0.037223;0.037223;-0.037223;1.000000
445619.53930099;5696571.86059959;472.13285019;0.407843;0.407843;0.403922;26471.000000;1.000000;1.000000;1.000000;1.000000;-0.104504;0.104504;-0.104504;1.000000
445619.99890144;5696571.76909931;472.11994984;0.266667;0.270588;0.227451;17219.000000;1.000000;1.000000;1.000000;1.000000;0.069859;-0.069859;0.069859;1.000000
445619.61220177;5696571.86549957;472.13394978;0.458824;0.466667;0.439216;30069.000000;1.000000;1.000000;1.000000;1.000000;-0.176433;0.176433;-0.176433;1.000000
445619.93180092;5696571.85009964;472.11555006;0.541176;0.533333;0.490196;34695.000000;1.000000;1.000000;1.000000;1.000000;-0.103301;0.103301;-0.103301;1.000000
445620.02640160;5696571.97489937;472.09104969;0.317647;0.313725;0.282353;20303.000000;1.000000;1.000000;1.000000;1.000000;-0.145055;0.145055;-0.145055;1.000000
445619.57000168;5696571.96509941;472.13555004;0.462745;0.462745;0.462745;30069.000000;1.000000;1.000000;1.000000;1.000000;-0.187922;0.187922;-0.187922;1.000000
445619.53060158;5696571.79589851;472.13875010;0.337255;0.32549;0.313725;21331.000000;1.000000;1.000000;1.000000;1.000000;-0.091224;0.091224;-0.091224;1.000000
445619.57710083;5696571.81729897;472.13644983;0.705882;0.713725;0.694118;46260.000000;1.000000;1.000000;1.000000;1.000000;-0.137723;0.137723;-0.137723;1.000000
445619.61950119;5696571.74329956;472.13275005;0.243137;0.231373;0.235294;15420.000000;1.000000;1.000000;1.000000;1.000000;-0.180124;0.180124;-0.180124;1.000000
445620.02550133;5696571.99349983;472.09824993;0.482353;0.470588;0.447059;30840.000000;1.000000;1.000000;1.000000;1.000000;-0.163678;0.163678;-0.163678;1.000000
445619.94340141;5696571.91479881;472.09585001;0.25098;0.227451;0.207843;15163.000000;1.000000;1.000000;1.000000;1.000000;-0.123457;0.123457;-0.123457;1.000000
445619.50800140;5696571.94309910;472.11614992;0.560784;0.556863;0.533333;36237.000000;1.000000;1.000000;1.000000;1.000000;-0.132290;0.132290;-0.132290;1.000000
445619.46650131;5696572.02639969;472.11994984;0.729412;0.701961;0.662745;46260.000000;1.000000;1.000000;1.000000;1.000000;-0.198264;0.198264;-0.198264;1.000000
445619.43250092;5696571.91269882;472.11934998;0.643137;0.623529;0.592157;40863.000000;1.000000;1.000000;1.000000;1.000000;-0.082733;0.082733;-0.082733;1.000000
445619.47020157;5696571.91389854;472.11644985;0.678431;0.666667;0.635294;43690.000000;1.000000;1.000000;1.000000;1.000000;-0.089382;0.089382;-0.089382;1.000000
445619.50780113;5696571.91739853;472.11814978;0.556863;0.552941;0.52549;35980.000000;1.000000;1.000000;1.000000;1.000000;-0.110997;0.110997;-0.110997;1.000000
445619.43600090;5696571.87499912;472.11905005;0.4;0.380392;0.368627;25186.000000;1.000000;1.000000;1.000000;1.000000;0.045126;-0.045126;0.045126;1.000000
445619.45820244;5696571.98739918;472.11905005;0.568627;0.545098;0.505882;35723.000000;1.000000;1.000000;1.000000;1.000000;-0.158521;0.158521;-0.158521;1.000000
445620.02080162;5696571.93809898;472.08804991;0.345098;0.333333;0.317647;21845.000000;1.000000;1.000000;1.000000;1.000000;-0.108799;0.108799;-0.108799;1.000000
445619.44660194;5696572.01419933;472.12124969;0.74902;0.717647;0.678431;47288.000000;1.000000;1.000000;1.000000;1.000000;-0.184341;0.184341;-0.184341;1.000000
445619.86130150;5696571.92199905;472.11784985;0.517647;0.513725;0.478431;33410.000000;1.000000;1.000000;1.000000;1.000000;-0.194905;0.194905;-0.194905;1.000000
445619.93770226;5696571.88919933;472.11864998;0.305882;0.294118;0.254902;19018.000000;1.000000;1.000000;1.000000;1.000000;-0.112297;0.112297;-0.112297;1.000000
445619.89660080;5696571.97029884;472.10844995;0.121569;0.113725;0.113725;7453.000000;1.000000;1.000000;1.000000;1.000000;-0.195763;0.195763;-0.195763;1.000000
445620.01710136;5696572.00369843;472.09795000;0.529412;0.517647;0.494118;33924.000000;1.000000;1.000000;1.000000;1.000000;-0.174436;0.174436;-0.174436;1.000000
445620.00100143;5696571.71519859;472.11704971;0.52549;0.564706;0.423529;35209.000000;1.000000;1.000000;1.000000;1.000000;-0.046235;0.046235;-0.046235;1.000000
445619.56010063;5696571.95679863;472.13034966;0.403922;0.4;0.392157;26214.000000;1.000000;1.000000;1.000000;1.000000;-0.175077;0.175077;-0.175077;1.000000
445619.52730186;5696571.88039978;472.12795021;0.717647;0.721569;0.701961;47031.000000;1.000000;1.000000;1.000000;1.000000;-0.101345;0.101345;-0.101345;1.000000
445619.91500099;5696571.73749931;472.09944965;0.580392;0.572549;0.52549;37265.000000;1.000000;1.000000;1.000000;1.000000;-0.130685;0.130685;-0.130685;1.000000
445619.46570213;5696571.79279907;472.11945011;0.694118;0.666667;0.643137;43947.000000;1.000000;1.000000;1.000000;1.000000;-0.026325;0.026325;-0.026325;1.000000
445620.01270111;5696571.90149887;472.08724977;0.160784;0.14902;0.12549;9766.000000;1.000000;1.000000;1.000000;1.000000;-0.074359;0.074359;-0.074359;1.000000
445620.04130180;5696571.88239868;472.08824970;0.12549;0.121569;0.105882;7710.000000;1.000000;1.000000;1.000000;1.000000;-0.052399;0.052399;-0.052399;1.000000
445620.33710106;5696571.89699944;472.09014990;0.517647;0.513725;0.439216;33153.000000;1.000000;1.000000;1.000000;1.000000;0.108407;-0.108407;0.108407;1.000000
445620.37890060;5696571.78509911;472.12564995;0.298039;0.290196;0.270588;19018.000000;1.000000;1.000000;1.000000;1.000000;-0.134726;0.134726;-0.134726;1.000000
445620.05510147;5696572.02309902;472.12554981;0.72549;0.729412;0.709804;47545.000000;1.000000;1.000000;1.000000;1.000000;-0.193099;0.193099;-0.193099;1.000000
445620.09160240;5696571.94999893;472.09835007;0.411765;0.403922;0.368627;26214.000000;1.000000;1.000000;1.000000;1.000000;-0.120066;0.120066;-0.120066;1.000000
445620.23780067;5696571.82629974;472.12445023;0.392157;0.407843;0.27451;25443.000000;1.000000;1.000000;1.000000;1.000000;-0.003700;0.003700;-0.003700;1.000000
445620.01760109;5696571.76969917;472.12085011;0.184314;0.192157;0.152941;12079.000000;1.000000;1.000000;1.000000;1.000000;0.062268;-0.062268;0.062268;1.000000
445620.05480202;5696571.74509914;472.12684967;0.376471;0.4;0.309804;24929.000000;1.000000;1.000000;1.000000;1.000000;0.066577;-0.066577;0.066577;1.000000
445620.20680244;5696571.88999947;472.11445000;0.811765;0.811765;0.788235;52942.000000;1.000000;1.000000;1.000000;1.000000;-0.059999;0.059999;-0.059999;1.000000
445620.06040199;5696571.83859928;472.09095003;0.156863;0.156863;0.141176;10023.000000;1.000000;1.000000;1.000000;1.000000;-0.009474;0.009474;-0.009474;1.000000
445620.06370171;5696571.76299866;472.12284996;0.6;0.615686;0.564706;39578.000000;1.000000;1.000000;1.000000;1.000000;0.067005;-0.067005;0.067005;1.000000
445620.36160095;5696571.77509888;472.12474968;0.407843;0.407843;0.388235;26471.000000;1.000000;1.000000;1.000000;1.000000;-0.122692;0.122692;-0.122692;1.000000
445620.30810173;5696571.74529846;472.10804989;0.415686;0.392157;0.341176;25700.000000;1.000000;1.000000;1.000000;1.000000;-0.101664;0.101664;-0.101664;1.000000
445620.10230072;5696571.96989925;472.10834982;0.431373;0.427451;0.396078;27756.000000;1.000000;1.000000;1.000000;1.000000;-0.139899;0.139899;-0.139899;1.000000
445620.29860123;5696571.71809967;472.10724976;0.388235;0.368627;0.321569;24158.000000;1.000000;1.000000;1.000000;1.000000;-0.121263;0.121263;-0.121263;1.000000
445620.21340187;5696571.76999863;472.13434984;0.243137;0.262745;0.141176;15934.000000;1.000000;1.000000;1.000000;1.000000;-0.055274;0.055274;-0.055274;1.000000
445620.20620163;5696571.69349869;472.13544991;0.156863;0.160784;0.0901961;9766.000000;1.000000;1.000000;1.000000;1.000000;-0.048074;0.048074;-0.048074;1.000000
445620.21040161;5696571.85459908;472.11654999;0.490196;0.494118;0.423529;31611.000000;1.000000;1.000000;1.000000;1.000000;-0.024599;0.024599;-0.024599;1.000000
445620.16290100;5696571.99909981;472.12314989;0.176471;0.172549;0.188235;11308.000000;1.000000;1.000000;1.000000;1.000000;-0.169100;0.169100;-0.169100;1.000000
445620.24570091;5696571.85599907;472.11584999;0.643137;0.654902;0.615686;42405.000000;1.000000;1.000000;1.000000;1.000000;0.025999;-0.025999;0.025999;1.000000
445620.29140099;5696571.66959961;472.11564972;0.333333;0.313725;0.278431;20560.000000;1.000000;1.000000;1.000000;1.000000;-0.133274;0.133274;-0.133274;1.000000
445620.06230171;5696571.77249916;472.12054970;0.427451;0.439216;0.403922;28270.000000;1.000000;1.000000;1.000000;1.000000;0.057538;-0.057538;0.057538;1.000000
445620.35660179;5696571.69159897;472.11424973;0.329412;0.305882;0.262745;20046.000000;1.000000;1.000000;1.000000;1.000000;-0.173557;0.173557;-0.173557;1.000000
445620.18540199;5696571.75129898;472.14685013;0.32549;0.352941;0.223529;21588.000000;1.000000;1.000000;1.000000;1.000000;-0.027275;0.027275;-0.027275;1.000000
445620.32300194;5696571.78339966;472.11614992;0.792157;0.796078;0.772549;51914.000000;1.000000;1.000000;1.000000;1.000000;-0.085031;0.085031;-0.085031;1.000000
