//X;Y;Z;Rf;Gf;Bf;Intensity;Return Number;Number Of Returns;Scan Direction Flag;Point Source ID;C2M signed distances[-][<0.8];C2M signed distances[<0.4];C2M signed distances[-][<0.2];Stump33
300
445597.55820091;5696570.85419853;473.53835012;0.466667;0.564706;0.329412;33153.000000;1.000000;1.000000;1.000000;1.000000;-0.006176;0.006176;-0.006176;1.000000
445597.59720238;5696570.77199944;473.48565008;0.47451;0.470588;0.407843;30326.000000;1.000000;1.000000;1.000000;1.000000;0.058001;-0.058001;0.058001;1.000000
445597.63320168;5696570.84759911;473.51844980;0.478431;0.572549;0.360784;33924.000000;1.000000;1.000000;1.000000;1.000000;0.018701;-0.018701;0.018701;1.000000
445597.52060135;5696570.84399899;473.52024986;0.329412;0.427451;0.184314;24158.000000;1.000000;1.000000;1.000000;1.000000;-0.018785;0.018785;-0.018785;1.000000
445597.48320206;5696570.84049900;473.51384975;0.333333;0.4;0.211765;23387.000000;1.000000;1.000000;1.000000;1.000000;-0.051017;0.051017;-0.051017;1.000000
445597.66730125;5696570.88649948;473.51804974;0.54902;0.564706;0.501961;36237.000000;1.000000;1.000000;1.000000;1.000000;0.069472;-0.069472;0.069472;1.000000
445597.48070152;5696570.91549881;473.51695015;0.301961;0.313725;0.254902;19789.000000;1.000000;1.000000;1.000000;1.000000;-0.083675;0.083675;-0.083675;1.000000
445597.70350082;5696570.92509850;473.52014973;0.643137;0.619608;0.505882;40092.000000;1.000000;1.000000;1.000000;1.000000;0.122127;-0.122127;0.122127;1.000000
445597.65900238;5696571.07409866;473.51994993;0.184314;0.2;0.168627;12336.000000;1.000000;1.000000;1.000000;1.000000;0.094625;-0.094625;0.094625;1.000000
445597.65630157;5696571.18589981;473.55375006;0.729412;0.729412;0.709804;47545.000000;1.000000;1.000000;1.000000;1.000000;0.091925;-0.091925;0.091925;1.000000
445597.70780190;5696570.83399971;473.49594976;0.733333;0.737255;0.690196;47802.000000;1.000000;1.000000;1.000000;1.000000;0.081024;-0.081024;0.081024;1.000000
445597.70530136;5696570.85989960;473.50084974;0.34902;0.341176;0.290196;22102.000000;1.000000;1.000000;1.000000;1.000000;0.083931;-0.083931;0.083931;1.000000
445597.62990196;5696570.89429863;473.53515007;0.564706;0.592157;0.529412;37779.000000;1.000000;1.000000;1.000000;1.000000;0.064370;-0.064370;0.064370;1.000000
445597.66390236;5696570.93319901;473.53475000;0.584314;0.572549;0.498039;37008.000000;1.000000;1.000000;1.000000;1.000000;0.099525;-0.099525;0.099525;1.000000
445597.67750175;5696571.15839966;473.54505016;0.878431;0.878431;0.858824;57311.000000;1.000000;1.000000;1.000000;1.000000;0.113125;-0.113125;0.113125;1.000000
445597.49470146;5696571.03579910;473.50745012;0.0392157;0.0392157;0.0313725;2313.000000;1.000000;1.000000;1.000000;1.000000;-0.069675;0.069675;-0.069675;1.000000
445597.45840080;5696570.99939926;473.50995018;0.796078;0.788235;0.741176;51400.000000;1.000000;1.000000;1.000000;1.000000;-0.105976;0.105976;-0.105976;1.000000
445597.38710220;5696570.88459976;473.50544979;0.411765;0.411765;0.368627;26471.000000;1.000000;1.000000;1.000000;1.000000;-0.155899;0.155899;-0.155899;1.000000
445597.57560165;5696570.89229973;473.54194977;0.415686;0.458824;0.345098;28270.000000;1.000000;1.000000;1.000000;1.000000;0.011225;-0.011225;0.011225;1.000000
445597.39040192;5696570.84689911;473.50974991;0.27451;0.278431;0.239216;17733.000000;1.000000;1.000000;1.000000;1.000000;-0.143722;0.143722;-0.143722;1.000000
445597.51190193;5696570.82379921;473.51494982;0.658824;0.721569;0.54902;44718.000000;1.000000;1.000000;1.000000;1.000000;0.022112;-0.022112;0.022112;1.000000
445597.62270172;5696570.83229931;473.51305010;0.521569;0.607843;0.396078;36494.000000;1.000000;1.000000;1.000000;1.000000;0.002299;-0.002299;0.002299;1.000000
445597.47330101;5696570.86009892;473.51364996;0.486275;0.54902;0.392157;33410.000000;1.000000;1.000000;1.000000;1.000000;-0.066971;0.066971;-0.066971;1.000000
445597.51040085;5696570.86119850;473.52234985;0.345098;0.431373;0.211765;24929.000000;1.000000;1.000000;1.000000;1.000000;-0.038598;0.038598;-0.038598;1.000000
445597.42820175;5696570.85039909;473.50915005;0.117647;0.129412;0.0784314;7710.000000;1.000000;1.000000;1.000000;1.000000;-0.106890;0.106890;-0.106890;1.000000
445597.65860184;5696570.86859901;473.51744987;0.223529;0.286275;0.172549;16705.000000;1.000000;1.000000;1.000000;1.000000;0.049964;-0.049964;0.049964;1.000000
445597.57450111;5696570.85729893;473.54614975;0.784314;0.87451;0.654902;53713.000000;1.000000;1.000000;1.000000;1.000000;0.010124;-0.010124;0.010124;1.000000
445597.53250130;5696570.78709896;473.50145008;0.376471;0.392157;0.290196;24415.000000;1.000000;1.000000;1.000000;1.000000;0.042906;-0.042906;0.042906;1.000000
445597.33510216;5696570.83549889;473.52115013;0.45098;0.454902;0.419608;29298.000000;1.000000;1.000000;1.000000;1.000000;-0.198101;0.198101;-0.198101;1.000000
445597.57930191;5696571.21939857;473.51574995;0.803922;0.819608;0.733333;52685.000000;1.000000;1.000000;1.000000;1.000000;0.017682;-0.017682;0.017682;1.000000
445597.43120201;5696571.21199902;473.51825001;0.376471;0.443137;0.298039;26471.000000;1.000000;1.000000;1.000000;1.000000;-0.133190;0.133190;-0.133190;1.000000
445597.46880157;5696571.21329887;473.51534988;0.729412;0.8;0.65098;49858.000000;1.000000;1.000000;1.000000;1.000000;-0.095635;0.095635;-0.095635;1.000000
445597.62020119;5696571.18279846;473.51714994;0.8;0.8;0.760784;51914.000000;1.000000;1.000000;1.000000;1.000000;0.055824;-0.055824;0.055824;1.000000
445597.65650185;5696571.14669903;473.51835014;0.745098;0.745098;0.709804;48573.000000;1.000000;1.000000;1.000000;1.000000;0.092125;-0.092125;0.092125;1.000000
445597.41160210;5696570.80269917;473.51954987;0.52549;0.52549;0.494118;34181.000000;1.000000;1.000000;1.000000;1.000000;0.124554;-0.124554;0.124554;1.000000
445597.62980087;5696571.08159931;473.50934984;0.196078;0.203922;0.180392;12850.000000;1.000000;1.000000;1.000000;1.000000;0.065424;-0.065424;0.065424;1.000000
445597.69040115;5696570.82389935;473.49744989;0.235294;0.243137;0.180392;15163.000000;1.000000;1.000000;1.000000;1.000000;-0.063817;0.063817;-0.063817;1.000000
445597.65050133;5696570.82289894;473.49795010;0.462745;0.509804;0.384314;31354.000000;1.000000;1.000000;1.000000;1.000000;-0.024669;0.024669;-0.024669;1.000000
445597.72270210;5696570.89789970;473.50444986;0.568627;0.537255;0.462745;35209.000000;1.000000;1.000000;1.000000;1.000000;0.117443;-0.117443;0.117443;1.000000
445597.64730080;5696570.93239983;473.53865005;0.6;0.592157;0.529412;38293.000000;1.000000;1.000000;1.000000;1.000000;0.082924;-0.082924;0.082924;1.000000
445597.68360146;5696570.97109898;473.53844978;0.184314;0.152941;0.0784314;10023.000000;1.000000;1.000000;1.000000;1.000000;0.119225;-0.119225;0.119225;1.000000
445597.68010147;5696571.00869949;473.53875019;0.0431373;0.0509804;0.027451;2827.000000;1.000000;1.000000;1.000000;1.000000;0.115725;-0.115725;0.115725;1.000000
445597.56960114;5696570.77919968;473.49144985;0.54902;0.552941;0.47451;35466.000000;1.000000;1.000000;1.000000;1.000000;0.050800;-0.050800;0.050800;1.000000
445597.69500168;5696570.90729912;473.51725008;0.352941;0.329412;0.258824;21331.000000;1.000000;1.000000;1.000000;1.000000;0.103035;-0.103035;0.103035;1.000000
445597.64500244;5696570.78389938;473.48794987;0.439216;0.447059;0.384314;28527.000000;1.000000;1.000000;1.000000;1.000000;-0.049536;0.049536;-0.049536;1.000000
445597.60760124;5696571.23049934;473.53345015;0.572549;0.576471;0.529412;37265.000000;1.000000;1.000000;1.000000;1.000000;0.047723;-0.047723;0.047723;1.000000
445597.57850082;5696571.07719906;473.49774982;0.188235;0.2;0.184314;12593.000000;1.000000;1.000000;1.000000;1.000000;0.014124;-0.014124;0.014124;1.000000
445597.43040092;5696570.99739845;473.50404980;0.494118;0.490196;0.435294;31611.000000;1.000000;1.000000;1.000000;1.000000;-0.133976;0.133976;-0.133976;1.000000
445597.39430244;5696570.95879944;473.49965002;0.313725;0.305882;0.254902;19789.000000;1.000000;1.000000;1.000000;1.000000;-0.170074;0.170074;-0.170074;1.000000
445597.54770096;5696570.89029892;473.53364994;0.6;0.647059;0.529412;40606.000000;1.000000;1.000000;1.000000;1.000000;-0.016676;0.016676;-0.016676;1.000000
445597.60750206;5696570.78269966;473.48854973;0.576471;0.584314;0.509804;37522.000000;1.000000;1.000000;1.000000;1.000000;0.047300;-0.047300;0.047300;1.000000
445597.61670120;5696571.00529869;473.53814985;0.0901961;0.0862745;0.0745098;5397.000000;1.000000;1.000000;1.000000;1.000000;0.052324;-0.052324;0.052324;1.000000
445597.65440186;5696571.00649937;473.53524973;0.0509804;0.0509804;0.0352941;3084.000000;1.000000;1.000000;1.000000;1.000000;0.090025;-0.090025;0.090025;1.000000
445597.69980247;5696570.82309921;473.49555017;0.321569;0.32549;0.27451;20817.000000;1.000000;1.000000;1.000000;1.000000;-0.073251;0.073251;-0.073251;1.000000
445597.67910202;5696571.04629906;473.53684999;0.462745;0.494118;0.427451;31097.000000;1.000000;1.000000;1.000000;1.000000;0.114725;-0.114725;0.114725;1.000000
445597.45530136;5696571.03719910;473.50094988;0.0509804;0.054902;0.0352941;3341.000000;1.000000;1.000000;1.000000;1.000000;-0.109076;0.109076;-0.109076;1.000000
445597.68230064;5696570.78499897;473.49195005;0.47451;0.466667;0.427451;30326.000000;1.000000;1.000000;1.000000;1.000000;-0.071392;0.071392;-0.071392;1.000000
445597.71630104;5696570.82389935;473.49394991;0.733333;0.729412;0.682353;47288.000000;1.000000;1.000000;1.000000;1.000000;-0.089632;0.089632;-0.089632;1.000000
445597.60540207;5696570.85469921;473.52885010;0.454902;0.568627;0.313725;33153.000000;1.000000;1.000000;1.000000;1.000000;-0.024699;0.024699;-0.024699;1.000000
445597.53050240;5696570.85229881;473.52544977;0.505882;0.603922;0.364706;35723.000000;1.000000;1.000000;1.000000;1.000000;-0.022453;0.022453;-0.022453;1.000000
445597.52690132;5696570.88999947;473.52804996;0.439216;0.490196;0.352941;30069.000000;1.000000;1.000000;1.000000;1.000000;-0.037476;0.037476;-0.037476;1.000000
445597.45380219;5696570.92279919;473.50654985;0.0901961;0.0862745;0.0627451;5397.000000;1.000000;1.000000;1.000000;1.000000;-0.110575;0.110575;-0.110575;1.000000
445597.58430107;5696571.11639984;473.50075008;0.219608;0.215686;0.196078;13878.000000;1.000000;1.000000;1.000000;1.000000;0.019924;-0.019924;0.019924;1.000000
445597.37650116;5696570.92069920;473.50535013;0.345098;0.352941;0.298039;22359.000000;1.000000;1.000000;1.000000;1.000000;-0.180992;0.180992;-0.180992;1.000000
445597.38100250;5696570.84769924;473.51165010;0.415686;0.415686;0.380392;26985.000000;1.000000;1.000000;1.000000;1.000000;-0.153151;0.153151;-0.153151;1.000000
445597.54550179;5696571.15029915;473.49944975;0.25098;0.247059;0.2;15677.000000;1.000000;1.000000;1.000000;1.000000;-0.018875;0.018875;-0.018875;1.000000
445597.41870125;5696570.84889896;473.50874998;0.0705882;0.0823529;0.0392157;4626.000000;1.000000;1.000000;1.000000;1.000000;-0.115976;0.115976;-0.115976;1.000000
445597.45370110;5696570.85029896;473.51265003;0.439216;0.47451;0.364706;29555.000000;1.000000;1.000000;1.000000;1.000000;-0.081979;0.081979;-0.081979;1.000000
445597.45720108;5696570.81259926;473.51235010;0.0627451;0.0745098;0.0392157;4369.000000;1.000000;1.000000;1.000000;1.000000;0.077894;-0.077894;0.077894;1.000000
445597.60500153;5696570.81759937;473.51214983;0.745098;0.803922;0.623529;50115.000000;1.000000;1.000000;1.000000;1.000000;0.012401;-0.012401;0.012401;1.000000
445597.64160164;5696570.89329918;473.53095009;0.443137;0.470588;0.403922;29812.000000;1.000000;1.000000;1.000000;1.000000;0.064989;-0.064989;0.064989;1.000000
445597.60060127;5696571.11709984;473.50385000;0.556863;0.556863;0.529412;36237.000000;1.000000;1.000000;1.000000;1.000000;0.036224;-0.036224;0.036224;1.000000
445597.56570251;5696571.11579903;473.49755003;0.266667;0.266667;0.239216;17219.000000;1.000000;1.000000;1.000000;1.000000;0.001326;-0.001326;0.001326;1.000000
445597.67570122;5696570.93219955;473.53065016;0.596078;0.584314;0.494118;37779.000000;1.000000;1.000000;1.000000;1.000000;0.111324;-0.111324;0.111324;1.000000
445597.59930237;5696571.15229900;473.50185015;0.156863;0.141176;0.105882;9252.000000;1.000000;1.000000;1.000000;1.000000;0.034925;-0.034925;0.034925;1.000000
445597.52690132;5696571.14979942;473.49625017;0.282353;0.278431;0.227451;17733.000000;1.000000;1.000000;1.000000;1.000000;-0.037476;0.037476;-0.037476;1.000000
445597.63400085;5696571.19059952;473.53884985;0.756863;0.756863;0.733333;49344.000000;1.000000;1.000000;1.000000;1.000000;0.069624;-0.069624;0.069624;1.000000
445597.45010193;5696571.18249901;473.50245001;0.545098;0.588235;0.45098;36494.000000;1.000000;1.000000;1.000000;1.000000;-0.114275;0.114275;-0.114275;1.000000
445597.52570160;5696571.18729980;473.49664976;0.203922;0.219608;0.137255;13364.000000;1.000000;1.000000;1.000000;1.000000;-0.038675;0.038675;-0.038675;1.000000
445597.59670074;5696571.26419933;473.53335001;0.486275;0.490196;0.443137;31611.000000;1.000000;1.000000;1.000000;1.000000;0.062868;-0.062868;0.062868;1.000000
445597.52180107;5696571.26409920;473.53464987;0.419608;0.490196;0.309804;29298.000000;1.000000;1.000000;1.000000;1.000000;-0.068605;0.068605;-0.068605;1.000000
445597.52020081;5696571.29919918;473.53964998;0.337255;0.364706;0.243137;22359.000000;1.000000;1.000000;1.000000;1.000000;0.053854;-0.053854;0.053854;1.000000
445597.50600250;5696571.01119907;473.51695015;0.619608;0.611765;0.580392;39835.000000;1.000000;1.000000;1.000000;1.000000;-0.058374;0.058374;-0.058374;1.000000
445597.68650253;5696571.09259899;473.51905014;0.117647;0.12549;0.101961;7710.000000;1.000000;1.000000;1.000000;1.000000;0.122126;-0.122126;0.122126;1.000000
445597.50570114;5696571.14939888;473.49765017;0.631373;0.631373;0.584314;40863.000000;1.000000;1.000000;1.000000;1.000000;-0.058676;0.058676;-0.058676;1.000000
445597.60770233;5696571.20029934;473.51914980;0.87451;0.882353;0.831373;57054.000000;1.000000;1.000000;1.000000;1.000000;0.043325;-0.043325;0.043325;1.000000
445597.49620064;5696571.23399933;473.52145006;0.411765;0.490196;0.313725;29298.000000;1.000000;1.000000;1.000000;1.000000;-0.072266;0.072266;-0.072266;1.000000
445597.53180130;5696571.23549850;473.51375010;0.494118;0.552941;0.380392;33667.000000;1.000000;1.000000;1.000000;1.000000;-0.041442;0.041442;-0.041442;1.000000
445597.54440125;5696571.18779953;473.49744989;0.168627;0.196078;0.0980392;11565.000000;1.000000;1.000000;1.000000;1.000000;-0.019976;0.019976;-0.019976;1.000000
445597.45300110;5696570.91579922;473.50874998;0.054902;0.0627451;0.0313725;3598.000000;1.000000;1.000000;1.000000;1.000000;-0.111376;0.111376;-0.111376;1.000000
445597.56390198;5696570.91899879;473.54645016;0.501961;0.513725;0.478431;33153.000000;1.000000;1.000000;1.000000;1.000000;-0.000475;0.000475;-0.000475;1.000000
445597.38020142;5696570.83849915;473.51154997;0.270588;0.270588;0.235294;17476.000000;1.000000;1.000000;1.000000;1.000000;-0.153161;0.153161;-0.153161;1.000000
445597.57240112;5696571.18979843;473.50344994;0.313725;0.337255;0.227451;20817.000000;1.000000;1.000000;1.000000;1.000000;0.008024;-0.008024;0.008024;1.000000
445597.55080231;5696570.78079899;473.49755003;0.462745;0.466667;0.392157;29812.000000;1.000000;1.000000;1.000000;1.000000;0.049201;-0.049201;0.049201;1.000000
445597.49620064;5696570.80429848;473.51174976;0.117647;0.137255;0.0666667;7967.000000;1.000000;1.000000;1.000000;1.000000;0.044990;-0.044990;0.044990;1.000000
445597.53160103;5696570.80579956;473.50864985;0.74902;0.788235;0.654902;49858.000000;1.000000;1.000000;1.000000;1.000000;0.024248;-0.024248;0.024248;1.000000
445597.60290154;5696570.88499935;473.54314997;0.607843;0.666667;0.54902;41634.000000;1.000000;1.000000;1.000000;1.000000;0.038525;-0.038525;0.038525;1.000000
445597.56820114;5696571.22509964;473.51294996;0.647059;0.67451;0.568627;42662.000000;1.000000;1.000000;1.000000;1.000000;0.015710;-0.015710;0.015710;1.000000
445597.38450058;5696571.18379982;473.50885012;0.141176;0.188235;0.0901961;10537.000000;1.000000;1.000000;1.000000;1.000000;-0.179876;0.179876;-0.179876;1.000000
445597.46770103;5696570.99849899;473.51034977;0.533333;0.52549;0.478431;34181.000000;1.000000;1.000000;1.000000;1.000000;-0.096676;0.096676;-0.096676;1.000000
445597.43410118;5696570.88729866;473.50525000;0.392157;0.407843;0.34902;25957.000000;1.000000;1.000000;1.000000;1.000000;-0.114408;0.114408;-0.114408;1.000000
445597.39990242;5696570.84829910;473.51025011;0.168627;0.172549;0.137255;10794.000000;1.000000;1.000000;1.000000;1.000000;-0.134475;0.134475;-0.134475;1.000000
445597.58380135;5696570.85639961;473.54425003;0.670588;0.760784;0.529412;46260.000000;1.000000;1.000000;1.000000;1.000000;0.019424;-0.019424;0.019424;1.000000
445597.41570099;5696571.10879906;473.49074986;0.290196;0.294118;0.243137;18761.000000;1.000000;1.000000;1.000000;1.000000;-0.148676;0.148676;-0.148676;1.000000
445597.38040169;5696571.10729893;473.49375011;0.105882;0.129412;0.0666667;7453.000000;1.000000;1.000000;1.000000;1.000000;-0.183975;0.183975;-0.183975;1.000000
445597.44520195;5696571.07339867;473.48934986;0.219608;0.235294;0.196078;14649.000000;1.000000;1.000000;1.000000;1.000000;-0.119175;0.119175;-0.119175;1.000000
445597.52040108;5696571.07579906;473.48574974;0.298039;0.305882;0.290196;19532.000000;1.000000;1.000000;1.000000;1.000000;-0.043976;0.043976;-0.043976;1.000000
445597.48160179;5696571.33549889;473.53835012;0.137255;0.207843;0.0705882;11051.000000;1.000000;1.000000;1.000000;1.000000;-0.082958;0.082958;-0.082958;1.000000
445597.44170197;5696571.33449944;473.53884985;0.619608;0.713725;0.52549;43433.000000;1.000000;1.000000;1.000000;1.000000;-0.122757;0.122757;-0.122757;1.000000
445597.40740211;5696571.11889847;473.48815014;0.462745;0.470588;0.419608;30069.000000;1.000000;1.000000;1.000000;1.000000;-0.156975;0.156975;-0.156975;1.000000
445597.51900108;5696571.11319931;473.49074986;0.184314;0.192157;0.160784;12079.000000;1.000000;1.000000;1.000000;1.000000;-0.045376;0.045376;-0.045376;1.000000
445597.38390167;5696570.99709900;473.49965002;0.270588;0.278431;0.207843;17476.000000;1.000000;1.000000;1.000000;1.000000;-0.180475;0.180475;-0.180475;1.000000
445597.42110069;5696570.99599846;473.50124981;0.345098;0.341176;0.278431;21845.000000;1.000000;1.000000;1.000000;1.000000;-0.143276;0.143276;-0.143276;1.000000
445597.42000206;5696571.03349884;473.49935009;0.74902;0.760784;0.713725;49087.000000;1.000000;1.000000;1.000000;1.000000;-0.144375;0.144375;-0.144375;1.000000
445597.38240250;5696571.03229912;473.49994995;0.235294;0.266667;0.172549;15934.000000;1.000000;1.000000;1.000000;1.000000;-0.181974;0.181974;-0.181974;1.000000
445597.38130196;5696571.06979950;473.50035002;0.447059;0.486275;0.4;30326.000000;1.000000;1.000000;1.000000;1.000000;-0.183075;0.183075;-0.183075;1.000000
445597.41670235;5696571.07129868;473.49494984;0.196078;0.219608;0.164706;13364.000000;1.000000;1.000000;1.000000;1.000000;-0.147675;0.147675;-0.147675;1.000000
445597.37760170;5696571.10519894;473.49825003;0.113725;0.137255;0.0705882;7967.000000;1.000000;1.000000;1.000000;1.000000;-0.186775;0.186775;-0.186775;1.000000
445597.62520226;5696571.19149979;473.52915003;0.847059;0.847059;0.815686;55255.000000;1.000000;1.000000;1.000000;1.000000;0.060825;-0.060825;0.060825;1.000000
445597.53830154;5696571.26489933;473.53305008;0.478431;0.521569;0.372549;32125.000000;1.000000;1.000000;1.000000;1.000000;-0.060532;0.060532;-0.060532;1.000000
445597.50290115;5696571.26119907;473.53375008;0.513725;0.611765;0.415686;36494.000000;1.000000;1.000000;1.000000;1.000000;-0.079822;0.079822;-0.079822;1.000000
445597.41450127;5696571.14629944;473.49114992;0.341176;0.376471;0.282353;23130.000000;1.000000;1.000000;1.000000;1.000000;-0.149876;0.149876;-0.149876;1.000000
445597.49820145;5696571.33639915;473.53445007;0.160784;0.203922;0.0862745;11565.000000;1.000000;1.000000;1.000000;1.000000;-0.066484;0.066484;-0.066484;1.000000
445597.46280106;5696571.33489903;473.53975012;0.27451;0.364706;0.196078;20817.000000;1.000000;1.000000;1.000000;1.000000;-0.101694;0.101694;-0.101694;1.000000
445597.54010208;5696571.25329979;473.52134993;0.301961;0.372549;0.184314;21588.000000;1.000000;1.000000;1.000000;1.000000;-0.049609;0.049609;-0.049609;1.000000
445597.42540176;5696571.33379944;473.53574993;0.541176;0.627451;0.447059;38036.000000;1.000000;1.000000;1.000000;1.000000;-0.139027;0.139027;-0.139027;1.000000
445597.39380081;5696571.21089943;473.51424982;0.133333;0.176471;0.0823529;10023.000000;1.000000;1.000000;1.000000;1.000000;-0.170579;0.170579;-0.170579;1.000000
445597.42380150;5696571.36889847;473.54075005;0.113725;0.184314;0.054902;9509.000000;1.000000;1.000000;1.000000;1.000000;-0.145858;0.145858;-0.145858;1.000000
445597.54780205;5696571.03529938;473.52145006;0.0941176;0.0901961;0.0784314;5654.000000;1.000000;1.000000;1.000000;1.000000;-0.016575;0.016575;-0.016575;1.000000
445597.47950180;5696570.95299919;473.51734974;0.494118;0.490196;0.427451;31611.000000;1.000000;1.000000;1.000000;1.000000;-0.084875;0.084875;-0.084875;1.000000
445597.40240105;5696570.99539955;473.50045015;0.388235;0.380392;0.309804;24415.000000;1.000000;1.000000;1.000000;1.000000;-0.161976;0.161976;-0.161976;1.000000
445597.36480148;5696570.99419983;473.50105001;0.105882;0.12549;0.054902;7196.000000;1.000000;1.000000;1.000000;1.000000;-0.199575;0.199575;-0.199575;1.000000
445597.40130241;5696571.03289898;473.49844982;0.188235;0.211765;0.145098;12850.000000;1.000000;1.000000;1.000000;1.000000;-0.163074;0.163074;-0.163074;1.000000
445597.48210152;5696570.88029869;473.51664974;0.576471;0.639216;0.490196;39578.000000;1.000000;1.000000;1.000000;1.000000;-0.071649;0.071649;-0.071649;1.000000
445597.55980118;5696570.81009872;473.51464989;0.741176;0.784314;0.643137;49344.000000;1.000000;1.000000;1.000000;1.000000;0.020116;-0.020116;0.020116;1.000000
445597.44690140;5696570.80419930;473.51644995;0.176471;0.184314;0.152941;11565.000000;1.000000;1.000000;1.000000;1.000000;0.090003;-0.090003;0.090003;1.000000
445597.58520134;5696571.26529892;473.53055002;0.537255;0.545098;0.490196;34952.000000;1.000000;1.000000;1.000000;1.000000;0.058882;-0.058882;0.058882;1.000000
445597.55150230;5696571.21739967;473.50514986;0.345098;0.380392;0.239216;23130.000000;1.000000;1.000000;1.000000;1.000000;-0.014999;0.014999;-0.014999;1.000000
445597.61740120;5696570.76309975;473.48644974;0.529412;0.521569;0.47451;33924.000000;1.000000;1.000000;1.000000;1.000000;0.066900;-0.066900;0.066900;1.000000
445597.62500198;5696571.03519924;473.52024986;0.0901961;0.0941176;0.0862745;5911.000000;1.000000;1.000000;1.000000;1.000000;0.060625;-0.060625;0.060625;1.000000
445597.40080078;5696571.26609905;473.52684977;0.45098;0.560784;0.364706;33153.000000;1.000000;1.000000;1.000000;1.000000;-0.172880;0.172880;-0.172880;1.000000
445597.39790161;5696571.07059868;473.49644997;0.607843;0.635294;0.568627;40606.000000;1.000000;1.000000;1.000000;1.000000;-0.166475;0.166475;-0.166475;1.000000
445597.40940102;5696571.25829895;473.52715017;0.309804;0.419608;0.231373;23901.000000;1.000000;1.000000;1.000000;1.000000;-0.162282;0.162282;-0.162282;1.000000
445597.61180122;5696571.19299896;473.51685001;0.796078;0.8;0.745098;51914.000000;1.000000;1.000000;1.000000;1.000000;0.047424;-0.047424;0.047424;1.000000
445597.57650192;5696571.03979881;473.51585009;0.0901961;0.0901961;0.0784314;5654.000000;1.000000;1.000000;1.000000;1.000000;0.012125;-0.012125;0.012125;1.000000
445597.53900154;5696571.03859909;473.51644995;0.0901961;0.0941176;0.0823529;5911.000000;1.000000;1.000000;1.000000;1.000000;-0.025375;0.025375;-0.025375;1.000000
445597.53110130;5696571.26099976;473.53034975;0.368627;0.427451;0.258824;25443.000000;1.000000;1.000000;1.000000;1.000000;-0.060714;0.060714;-0.060714;1.000000
445597.39580162;5696571.14789970;473.49494984;0.666667;0.701961;0.611765;44461.000000;1.000000;1.000000;1.000000;1.000000;-0.168575;0.168575;-0.168575;1.000000
445597.47350128;5696570.96289928;473.51485016;0.533333;0.529412;0.470588;34181.000000;1.000000;1.000000;1.000000;1.000000;-0.090876;0.090876;-0.090876;1.000000
445597.61590202;5696570.80049904;473.49375011;0.721569;0.752941;0.647059;47802.000000;1.000000;1.000000;1.000000;1.000000;0.029501;-0.029501;0.029501;1.000000
445597.69100197;5696570.80289848;473.49254992;0.25098;0.254902;0.2;16191.000000;1.000000;1.000000;1.000000;1.000000;-0.069617;0.069617;-0.069617;1.000000
445597.47350128;5696570.88809975;473.51634981;0.435294;0.478431;0.368627;29555.000000;1.000000;1.000000;1.000000;1.000000;-0.083251;0.083251;-0.083251;1.000000
445597.58600243;5696570.81689938;473.51825001;0.678431;0.733333;0.552941;45489.000000;1.000000;1.000000;1.000000;1.000000;0.013101;-0.013101;0.013101;1.000000
445597.38650139;5696571.36769875;473.53674986;0.568627;0.611765;0.490196;38293.000000;1.000000;1.000000;1.000000;1.000000;-0.181827;0.181827;-0.181827;1.000000
445597.52490242;5696571.20589931;473.50145008;0.247059;0.286275;0.145098;16962.000000;1.000000;1.000000;1.000000;1.000000;-0.039474;0.039474;-0.039474;1.000000
445597.56140144;5696571.17219933;473.50274994;0.482353;0.490196;0.415686;31354.000000;1.000000;1.000000;1.000000;1.000000;-0.002975;0.002975;-0.002975;1.000000
445597.48840149;5696571.16719921;473.50404980;0.498039;0.505882;0.435294;32382.000000;1.000000;1.000000;1.000000;1.000000;-0.075975;0.075975;-0.075975;1.000000
445597.38190086;5696571.05099876;473.50014975;0.180392;0.219608;0.12549;12850.000000;1.000000;1.000000;1.000000;1.000000;-0.182476;0.182476;-0.182476;1.000000
445597.46040161;5696570.94319923;473.50474979;0.298039;0.290196;0.239216;18761.000000;1.000000;1.000000;1.000000;1.000000;-0.103975;0.103975;-0.103975;1.000000
445597.53380211;5696570.94519909;473.54075005;0.529412;0.537255;0.505882;34695.000000;1.000000;1.000000;1.000000;1.000000;-0.030575;0.030575;-0.030575;1.000000
445597.54030235;5696570.79569920;473.50194981;0.72549;0.74902;0.631373;47545.000000;1.000000;1.000000;1.000000;1.000000;0.034301;-0.034301;0.034301;1.000000
445597.54830177;5696571.02329929;473.53765013;0.180392;0.176471;0.160784;11308.000000;1.000000;1.000000;1.000000;1.000000;-0.016075;0.016075;-0.016075;1.000000
445597.66090210;5696571.02689941;473.53574993;0.180392;0.196078;0.168627;12336.000000;1.000000;1.000000;1.000000;1.000000;0.096525;-0.096525;0.096525;1.000000
445597.47350128;5696571.05429848;473.49734976;0.0784314;0.0862745;0.0705882;5140.000000;1.000000;1.000000;1.000000;1.000000;-0.090876;0.090876;-0.090876;1.000000
445597.48640068;5696570.77709969;473.51795008;0.360784;0.364706;0.294118;23130.000000;1.000000;1.000000;1.000000;1.000000;0.070582;-0.070582;0.070582;1.000000
445597.63170059;5696570.85699852;473.52075006;0.470588;0.560784;0.368627;33410.000000;1.000000;1.000000;1.000000;1.000000;0.027426;-0.027426;0.027426;1.000000
445597.51900108;5696570.85339935;473.52264978;0.356863;0.454902;0.207843;25957.000000;1.000000;1.000000;1.000000;1.000000;-0.027333;0.027333;-0.027333;1.000000
445597.48420151;5696570.85209854;473.51405003;0.403922;0.482353;0.290196;28527.000000;1.000000;1.000000;1.000000;1.000000;-0.053685;0.053685;-0.053685;1.000000
445597.66800125;5696570.89569862;473.52054979;0.615686;0.615686;0.560784;39835.000000;1.000000;1.000000;1.000000;1.000000;0.077508;-0.077508;0.077508;1.000000
445597.48160179;5696570.92479904;473.51485016;0.231373;0.235294;0.184314;14906.000000;1.000000;1.000000;1.000000;1.000000;-0.082775;0.082775;-0.082775;1.000000
445597.47800072;5696570.96239861;473.51744987;0.592157;0.588235;0.533333;38036.000000;1.000000;1.000000;1.000000;1.000000;-0.086376;0.086376;-0.086376;1.000000
445597.52540215;5696571.10569962;473.48864986;0.2;0.207843;0.180392;13107.000000;1.000000;1.000000;1.000000;1.000000;-0.038975;0.038975;-0.038975;1.000000
445597.58990105;5696571.29049881;473.53104975;0.74902;0.74902;0.713725;48830.000000;1.000000;1.000000;1.000000;1.000000;0.039540;-0.039540;0.039540;1.000000
445597.65980156;5696571.08099945;473.51774981;0.203922;0.215686;0.176471;13621.000000;1.000000;1.000000;1.000000;1.000000;0.095425;-0.095425;0.095425;1.000000
445597.38710220;5696571.34899910;473.53655006;0.482353;0.537255;0.411765;33153.000000;1.000000;1.000000;1.000000;1.000000;-0.178290;0.178290;-0.178290;1.000000
445597.42860229;5696571.07249935;473.49324991;0.184314;0.203922;0.152941;12593.000000;1.000000;1.000000;1.000000;1.000000;-0.135775;0.135775;-0.135775;1.000000
445597.38740166;5696571.10669907;473.49174978;0.152941;0.172549;0.109804;10280.000000;1.000000;1.000000;1.000000;1.000000;-0.176975;0.176975;-0.176975;1.000000
445597.42520149;5696571.11019905;473.49114992;0.384314;0.388235;0.333333;24929.000000;1.000000;1.000000;1.000000;1.000000;-0.139175;0.139175;-0.139175;1.000000
445597.42380150;5696571.14539917;473.49154999;0.207843;0.231373;0.137255;13878.000000;1.000000;1.000000;1.000000;1.000000;-0.140575;0.140575;-0.140575;1.000000
445597.38840111;5696571.14399918;473.49454977;0.65098;0.686275;0.607843;43690.000000;1.000000;1.000000;1.000000;1.000000;-0.175976;0.175976;-0.175976;1.000000
445597.65360077;5696570.80179985;473.49084999;0.537255;0.556863;0.47451;35466.000000;1.000000;1.000000;1.000000;1.000000;-0.038851;0.038851;-0.038851;1.000000
445597.41860207;5696571.25739868;473.52754976;0.317647;0.419608;0.231373;23901.000000;1.000000;1.000000;1.000000;1.000000;-0.153238;0.153238;-0.153238;1.000000
445597.37870224;5696571.33119972;473.52894976;0.0823529;0.133333;0.0392157;6939.000000;1.000000;1.000000;1.000000;1.000000;-0.185679;0.185679;-0.185679;1.000000
445597.60510071;5696571.04419907;473.51244976;0.105882;0.105882;0.0941176;6682.000000;1.000000;1.000000;1.000000;1.000000;0.040724;-0.040724;0.040724;1.000000
445597.57370193;5696571.31999977;473.53765013;0.752941;0.752941;0.709804;48830.000000;1.000000;1.000000;1.000000;1.000000;0.010000;-0.010000;0.010000;1.000000
445597.54140099;5696571.20679863;473.49994995;0.301961;0.337255;0.2;20303.000000;1.000000;1.000000;1.000000;1.000000;-0.022976;0.022976;-0.022976;1.000000
445597.50250061;5696571.22409924;473.51695015;0.478431;0.541176;0.368627;32896.000000;1.000000;1.000000;1.000000;1.000000;-0.063475;0.063475;-0.063475;1.000000
445597.54860123;5696571.05669983;473.49615004;0.305882;0.309804;0.298039;20046.000000;1.000000;1.000000;1.000000;1.000000;-0.015776;0.015776;-0.015776;1.000000
445597.55120094;5696571.02779968;473.53314974;0.156863;0.156863;0.141176;10023.000000;1.000000;1.000000;1.000000;1.000000;-0.013176;0.013176;-0.013176;1.000000
445597.41020210;5696570.81219872;473.51725008;0.576471;0.576471;0.545098;37522.000000;1.000000;1.000000;1.000000;1.000000;0.124207;-0.124207;0.124207;1.000000
445597.54060181;5696570.83499916;473.52574970;0.392157;0.478431;0.258824;28013.000000;1.000000;1.000000;1.000000;1.000000;-0.004999;0.004999;-0.004999;1.000000
445597.64810188;5696571.15689857;473.51814987;0.847059;0.847059;0.819608;55255.000000;1.000000;1.000000;1.000000;1.000000;0.083725;-0.083725;0.083725;1.000000
445597.41520126;5696571.12759979;473.48864986;0.537255;0.54902;0.490196;35209.000000;1.000000;1.000000;1.000000;1.000000;-0.149176;0.149176;-0.149176;1.000000
445597.52510078;5696570.97409924;473.53594973;0.611765;0.603922;0.560784;39321.000000;1.000000;1.000000;1.000000;1.000000;-0.039276;0.039276;-0.039276;1.000000
445597.56780060;5696570.82999905;473.53384974;0.580392;0.658824;0.458824;40092.000000;1.000000;1.000000;1.000000;1.000000;0.000001;-0.000001;0.000001;1.000000
445597.57030113;5696570.79069908;473.49854996;0.603922;0.619608;0.52549;39578.000000;1.000000;1.000000;1.000000;1.000000;0.039301;-0.039301;0.039301;1.000000
445597.47040184;5696571.34349926;473.54255011;0.505882;0.596078;0.431373;35980.000000;1.000000;1.000000;1.000000;1.000000;-0.094940;0.094940;-0.094940;1.000000
445597.55770119;5696571.03909882;473.51725008;0.0862745;0.0901961;0.0823529;5654.000000;1.000000;1.000000;1.000000;1.000000;-0.006676;0.006676;-0.006676;1.000000
445597.55050095;5696571.23379906;473.50995018;0.380392;0.427451;0.262745;25700.000000;1.000000;1.000000;1.000000;1.000000;-0.027718;0.027718;-0.027718;1.000000
445597.58800133;5696571.29539879;473.53104975;0.760784;0.764706;0.72549;49601.000000;1.000000;1.000000;1.000000;1.000000;0.034601;-0.034601;0.034601;1.000000
445597.37220200;5696571.09859856;473.50264980;0.152941;0.176471;0.101961;10537.000000;1.000000;1.000000;1.000000;1.000000;-0.192175;0.192175;-0.192175;1.000000
445597.40630157;5696571.10729893;473.49025013;0.25098;0.254902;0.2;16191.000000;1.000000;1.000000;1.000000;1.000000;-0.158075;0.158075;-0.158075;1.000000
445597.67160233;5696571.01659973;473.53615000;0.0745098;0.0823529;0.0588235;4883.000000;1.000000;1.000000;1.000000;1.000000;0.107225;-0.107225;0.107225;1.000000
445597.64080246;5696571.05469902;473.52124979;0.164706;0.180392;0.152941;11308.000000;1.000000;1.000000;1.000000;1.000000;0.076426;-0.076426;0.076426;1.000000
445597.62940224;5696571.12609871;473.50754978;0.0705882;0.0666667;0.0431373;4112.000000;1.000000;1.000000;1.000000;1.000000;0.065025;-0.065025;0.065025;1.000000
445597.63070114;5696571.09089859;473.50955011;0.352941;0.352941;0.333333;22873.000000;1.000000;1.000000;1.000000;1.000000;0.066324;-0.066324;0.066324;1.000000
445597.44990166;5696571.00719936;473.50734999;0.847059;0.847059;0.8;54998.000000;1.000000;1.000000;1.000000;1.000000;-0.114475;0.114475;-0.114475;1.000000
445597.48510178;5696571.01089867;473.51364996;0.145098;0.141176;0.105882;8995.000000;1.000000;1.000000;1.000000;1.000000;-0.079275;0.079275;-0.079275;1.000000
445597.37730225;5696570.92989929;473.50544979;0.376471;0.384314;0.321569;24415.000000;1.000000;1.000000;1.000000;1.000000;-0.185098;0.185098;-0.185098;1.000000
445597.45350082;5696570.89709862;473.51084997;0.0745098;0.0862745;0.0352941;4883.000000;1.000000;1.000000;1.000000;1.000000;-0.104128;0.104128;-0.104128;1.000000
445597.55820091;5696571.30049904;473.52974989;0.607843;0.611765;0.54902;39321.000000;1.000000;1.000000;1.000000;1.000000;0.030140;-0.030140;0.030140;1.000000
445597.55740173;5696571.26559933;473.52694990;0.694118;0.729412;0.623529;46260.000000;1.000000;1.000000;1.000000;1.000000;-0.055886;0.055886;-0.055886;1.000000
445597.59840210;5696571.22909935;473.52605011;0.713725;0.717647;0.670588;46517.000000;1.000000;1.000000;1.000000;1.000000;0.038958;-0.038958;0.038958;1.000000
445597.38200195;5696570.85699852;473.50955011;0.352941;0.352941;0.309804;22616.000000;1.000000;1.000000;1.000000;1.000000;-0.153518;0.153518;-0.153518;1.000000
445597.41940125;5696570.85589893;473.50654985;0.145098;0.160784;0.109804;9766.000000;1.000000;1.000000;1.000000;1.000000;-0.116637;0.116637;-0.116637;1.000000
445597.45460136;5696570.85959919;473.51284983;0.466667;0.505882;0.392157;31354.000000;1.000000;1.000000;1.000000;1.000000;-0.083919;0.083919;-0.083919;1.000000
445597.45580109;5696570.82209976;473.51244976;0.0431373;0.054902;0.0235294;3084.000000;1.000000;1.000000;1.000000;1.000000;0.077728;-0.077728;0.077728;1.000000
445597.55670174;5696570.86369904;473.53844978;0.352941;0.443137;0.227451;25700.000000;1.000000;1.000000;1.000000;1.000000;-0.007675;0.007675;-0.007675;1.000000
445597.59870155;5696571.19899948;473.50934984;0.788235;0.792157;0.729412;51143.000000;1.000000;1.000000;1.000000;1.000000;0.034325;-0.034325;0.034325;1.000000
445597.48840149;5696571.19519909;473.51135017;0.458824;0.490196;0.372549;30583.000000;1.000000;1.000000;1.000000;1.000000;-0.075975;0.075975;-0.075975;1.000000
445597.44870193;5696571.19419868;473.50724985;0.490196;0.54902;0.396078;33667.000000;1.000000;1.000000;1.000000;1.000000;-0.115675;0.115675;-0.115675;1.000000
445597.52010162;5696571.27119930;473.53695013;0.482353;0.54902;0.384314;33410.000000;1.000000;1.000000;1.000000;1.000000;0.073606;-0.073606;0.073606;1.000000
445597.59550102;5696571.27599915;473.53345015;0.627451;0.631373;0.588235;40863.000000;1.000000;1.000000;1.000000;1.000000;0.054001;-0.054001;0.054001;1.000000
445597.59920128;5696571.24059875;473.53314974;0.509804;0.509804;0.458824;32896.000000;1.000000;1.000000;1.000000;1.000000;0.046180;-0.046180;0.046180;1.000000
445597.52410133;5696571.19669922;473.49905016;0.207843;0.231373;0.12549;13878.000000;1.000000;1.000000;1.000000;1.000000;-0.040276;0.040276;-0.040276;1.000000
445597.48760231;5696571.15799912;473.50154974;0.521569;0.521569;0.462745;33667.000000;1.000000;1.000000;1.000000;1.000000;-0.076775;0.076775;-0.076775;1.000000
445597.38330086;5696571.04159935;473.50014975;0.113725;0.14902;0.0588235;8224.000000;1.000000;1.000000;1.000000;1.000000;-0.181076;0.181076;-0.181076;1.000000
445597.49370201;5696571.04769905;473.50054981;0.054902;0.054902;0.0431373;3341.000000;1.000000;1.000000;1.000000;1.000000;-0.070675;0.070675;-0.070675;1.000000
445597.56660088;5696571.05259903;473.50154974;0.141176;0.141176;0.129412;8995.000000;1.000000;1.000000;1.000000;1.000000;0.002224;-0.002224;0.002224;1.000000
445597.60590179;5696571.01329906;473.53545000;0.0901961;0.0901961;0.0823529;5654.000000;1.000000;1.000000;1.000000;1.000000;0.041525;-0.041525;0.041525;1.000000
445597.56350143;5696571.33719929;473.53975012;0.780392;0.780392;0.741176;50629.000000;1.000000;1.000000;1.000000;1.000000;-0.007252;0.007252;-0.007252;1.000000
445597.54200180;5696570.78859909;473.49965002;0.521569;0.537255;0.439216;34181.000000;1.000000;1.000000;1.000000;1.000000;0.041401;-0.041401;0.041401;1.000000
445597.70180138;5696570.76689919;473.49025013;0.278431;0.27451;0.243137;17733.000000;1.000000;1.000000;1.000000;1.000000;-0.097956;0.097956;-0.097956;1.000000
445597.62690170;5696570.76459892;473.48684980;0.576471;0.568627;0.52549;37008.000000;1.000000;1.000000;1.000000;1.000000;-0.065401;0.065401;-0.065401;1.000000
445597.69810112;5696570.80459984;473.49284985;0.380392;0.376471;0.329412;24158.000000;1.000000;1.000000;1.000000;1.000000;-0.075618;0.075618;-0.075618;1.000000
445597.66300209;5696570.80319984;473.49125006;0.396078;0.411765;0.337255;25957.000000;1.000000;1.000000;1.000000;1.000000;-0.044981;0.044981;-0.044981;1.000000
445597.54960068;5696570.83409889;473.53074982;0.533333;0.619608;0.4;37265.000000;1.000000;1.000000;1.000000;1.000000;-0.004099;0.004099;-0.004099;1.000000
445597.57180222;5696571.32709892;473.54234983;0.741176;0.737255;0.698039;48059.000000;1.000000;1.000000;1.000000;1.000000;0.002901;-0.002901;0.002901;1.000000
445597.51000221;5696570.90799912;473.52524998;0.341176;0.360784;0.286275;22616.000000;1.000000;1.000000;1.000000;1.000000;-0.054375;0.054375;-0.054375;1.000000
445597.65760239;5696570.91289909;473.52964975;0.639216;0.635294;0.580392;41120.000000;1.000000;1.000000;1.000000;1.000000;0.088410;-0.088410;0.088410;1.000000
445597.50640114;5696570.94559868;473.52785017;0.768627;0.772549;0.72549;50115.000000;1.000000;1.000000;1.000000;1.000000;-0.057976;0.057976;-0.057976;1.000000
445597.50510223;5696570.98079880;473.52584984;0.211765;0.207843;0.152941;13107.000000;1.000000;1.000000;1.000000;1.000000;-0.059275;0.059275;-0.059275;1.000000
445597.50080116;5696571.09389885;473.49204971;0.431373;0.447059;0.411765;28527.000000;1.000000;1.000000;1.000000;1.000000;-0.063576;0.063576;-0.063576;1.000000
445597.46330078;5696571.09269913;473.49034979;0.568627;0.580392;0.537255;37265.000000;1.000000;1.000000;1.000000;1.000000;-0.101076;0.101076;-0.101076;1.000000
445597.68080147;5696571.13729866;473.53095009;0.643137;0.65098;0.623529;42148.000000;1.000000;1.000000;1.000000;1.000000;0.116425;-0.116425;0.116425;1.000000
445597.66060074;5696570.83129890;473.50084974;0.372549;0.419608;0.301961;25700.000000;1.000000;1.000000;1.000000;1.000000;0.033749;-0.033749;0.033749;1.000000
445597.60850151;5696571.21179970;473.52624990;0.862745;0.866667;0.827451;56283.000000;1.000000;1.000000;1.000000;1.000000;0.044156;-0.044156;0.044156;1.000000
445597.49450119;5696571.24339874;473.52614977;0.364706;0.454902;0.258824;26471.000000;1.000000;1.000000;1.000000;1.000000;-0.077392;0.077392;-0.077392;1.000000
445597.52730186;5696571.31969936;473.52855017;0.556863;0.572549;0.486275;36494.000000;1.000000;1.000000;1.000000;1.000000;0.038479;-0.038479;0.038479;1.000000
445597.67060097;5696571.05409916;473.53424980;0.207843;0.235294;0.184314;14392.000000;1.000000;1.000000;1.000000;1.000000;0.106224;-0.106224;0.106224;1.000000
445597.42460068;5696571.12899979;473.49134972;0.392157;0.403922;0.341176;25700.000000;1.000000;1.000000;1.000000;1.000000;-0.139776;0.139776;-0.139776;1.000000
445597.38720139;5696571.12779911;473.48964979;0.541176;0.564706;0.501961;35980.000000;1.000000;1.000000;1.000000;1.000000;-0.177176;0.177176;-0.177176;1.000000
445597.36860092;5696571.34849937;473.52874996;0.223529;0.258824;0.160784;15420.000000;1.000000;1.000000;1.000000;1.000000;-0.196648;0.196648;-0.196648;1.000000
445597.37560089;5696571.34779938;473.52904989;0.262745;0.313725;0.2;18504.000000;1.000000;1.000000;1.000000;1.000000;-0.189613;0.189613;-0.189613;1.000000
445597.40670212;5696571.33319862;473.53494980;0.235294;0.313725;0.164706;17733.000000;1.000000;1.000000;1.000000;1.000000;-0.157707;0.157707;-0.157707;1.000000
445597.70610245;5696570.86909874;473.50334980;0.458824;0.45098;0.392157;29041.000000;1.000000;1.000000;1.000000;1.000000;0.088348;-0.088348;0.088348;1.000000
445597.62830170;5696570.90379913;473.53744986;0.639216;0.658824;0.603922;42148.000000;1.000000;1.000000;1.000000;1.000000;0.063925;-0.063925;0.063925;1.000000
445597.57690247;5696570.82459934;473.52724983;0.545098;0.615686;0.419608;37522.000000;1.000000;1.000000;1.000000;1.000000;0.005401;-0.005401;0.005401;1.000000
445597.51230247;5696571.29059895;473.54155018;0.427451;0.494118;0.360784;30069.000000;1.000000;1.000000;1.000000;1.000000;0.065301;-0.065301;0.065301;1.000000
445597.36940201;5696571.09649857;473.50714972;0.152941;0.188235;0.105882;10794.000000;1.000000;1.000000;1.000000;1.000000;-0.194975;0.194975;-0.194975;1.000000
445597.44670113;5696571.04499920;473.50064995;0.0509804;0.0588235;0.0352941;3341.000000;1.000000;1.000000;1.000000;1.000000;-0.117676;0.117676;-0.117676;1.000000
445597.58740242;5696571.03399857;473.52084972;0.0784314;0.0784314;0.0588235;4883.000000;1.000000;1.000000;1.000000;1.000000;0.023026;-0.023026;0.023026;1.000000
445597.48440178;5696571.23499878;473.52565004;0.352941;0.443137;0.270588;25957.000000;1.000000;1.000000;1.000000;1.000000;-0.083756;0.083756;-0.083756;1.000000
445597.66760071;5696571.11079891;473.50915005;0.121569;0.121569;0.109804;7710.000000;1.000000;1.000000;1.000000;1.000000;0.103224;-0.103224;0.103224;1.000000
445597.63110168;5696571.07209976;473.51165010;0.12549;0.133333;0.109804;8224.000000;1.000000;1.000000;1.000000;1.000000;0.066725;-0.066725;0.066725;1.000000
445597.45070084;5696570.99079903;473.50724985;0.752941;0.745098;0.678431;48316.000000;1.000000;1.000000;1.000000;1.000000;-0.113676;0.113676;-0.113676;1.000000
445597.51800163;5696571.34629925;473.53074982;0.305882;0.333333;0.239216;20560.000000;1.000000;1.000000;1.000000;1.000000;-0.049156;0.049156;-0.049156;1.000000
445597.57910164;5696571.24719913;473.52535011;0.662745;0.678431;0.603922;43433.000000;1.000000;1.000000;1.000000;1.000000;0.039901;-0.039901;0.039901;1.000000
445597.42880066;5696571.24019917;473.52544977;0.105882;0.188235;0.0509804;9509.000000;1.000000;1.000000;1.000000;1.000000;-0.138874;0.138874;-0.138874;1.000000
445597.63090141;5696571.23739918;473.54855015;0.615686;0.619608;0.596078;40349.000000;1.000000;1.000000;1.000000;1.000000;0.071728;-0.071728;0.071728;1.000000
445597.48230179;5696571.26999863;473.54225018;0.627451;0.72549;0.52549;43947.000000;1.000000;1.000000;1.000000;1.000000;-0.101398;0.101398;-0.101398;1.000000
445597.60730179;5696571.19119843;473.50964977;0.690196;0.694118;0.627451;44718.000000;1.000000;1.000000;1.000000;1.000000;0.042925;-0.042925;0.042925;1.000000
445597.57110222;5696571.15249928;473.50525000;0.592157;0.584314;0.529412;38036.000000;1.000000;1.000000;1.000000;1.000000;0.006725;-0.006725;0.006725;1.000000
445597.50180252;5696571.03749855;473.50775005;0.0588235;0.0588235;0.0431373;3598.000000;1.000000;1.000000;1.000000;1.000000;-0.062574;0.062574;-0.062574;1.000000
445597.53950127;5696571.04089935;473.50944998;0.0784314;0.0823529;0.0705882;5140.000000;1.000000;1.000000;1.000000;1.000000;-0.024876;0.024876;-0.024876;1.000000
445597.57690247;5696571.04209908;473.51114990;0.117647;0.121569;0.101961;7710.000000;1.000000;1.000000;1.000000;1.000000;0.012526;-0.012526;0.012526;1.000000
445597.46910103;5696570.96339901;473.51004984;0.509804;0.498039;0.439216;32382.000000;1.000000;1.000000;1.000000;1.000000;-0.095276;0.095276;-0.095276;1.000000
445597.35980232;5696570.91979893;473.50925018;0.160784;0.176471;0.109804;10537.000000;1.000000;1.000000;1.000000;1.000000;-0.195206;0.195206;-0.195206;1.000000
445597.47020157;5696570.92589958;473.51195004;0.145098;0.145098;0.109804;9252.000000;1.000000;1.000000;1.000000;1.000000;-0.094175;0.094175;-0.094175;1.000000
445597.36100204;5696570.88459976;473.51354982;0.329412;0.333333;0.294118;21331.000000;1.000000;1.000000;1.000000;1.000000;-0.180577;0.180577;-0.180577;1.000000
445597.58500107;5696570.89369972;473.54474976;0.431373;0.47451;0.372549;29298.000000;1.000000;1.000000;1.000000;1.000000;0.020624;-0.020624;0.020624;1.000000
445597.47590073;5696570.81319912;473.51324989;0.109804;0.129412;0.0627451;7453.000000;1.000000;1.000000;1.000000;1.000000;0.059641;-0.059641;0.059641;1.000000
445597.53910072;5696571.02199944;473.53025009;0.0941176;0.0941176;0.0745098;5911.000000;1.000000;1.000000;1.000000;1.000000;-0.025276;0.025276;-0.025276;1.000000
445597.68180092;5696571.15559967;473.54754974;0.901961;0.905882;0.886275;59110.000000;1.000000;1.000000;1.000000;1.000000;0.117424;-0.117424;0.117424;1.000000
445597.40510185;5696571.14479931;473.49064972;0.556863;0.588235;0.498039;37265.000000;1.000000;1.000000;1.000000;1.000000;-0.159275;0.159275;-0.159275;1.000000
445597.39990242;5696571.25679977;473.52675011;0.482353;0.584314;0.403922;34952.000000;1.000000;1.000000;1.000000;1.000000;-0.170964;0.170964;-0.170964;1.000000
445597.55740173;5696571.34939964;473.54425003;0.760784;0.764706;0.72549;49601.000000;1.000000;1.000000;1.000000;1.000000;-0.020616;0.020616;-0.020616;1.000000
445597.55370148;5696571.32889946;473.53214981;0.627451;0.627451;0.580392;40606.000000;1.000000;1.000000;1.000000;1.000000;0.010732;-0.010732;0.010732;1.000000
445597.56330116;5696571.33719929;473.54435017;0.745098;0.745098;0.705882;48316.000000;1.000000;1.000000;1.000000;1.000000;-0.007279;0.007279;-0.007279;1.000000
445597.53340157;5696571.22609909;473.50904991;0.415686;0.47451;0.309804;28527.000000;1.000000;1.000000;1.000000;1.000000;-0.035009;0.035009;-0.035009;1.000000
445597.42180069;5696571.18269928;473.51055004;0.729412;0.780392;0.65098;49087.000000;1.000000;1.000000;1.000000;1.000000;-0.142576;0.142576;-0.142576;1.000000
445597.64340218;5696571.15279968;473.51084997;0.698039;0.694118;0.662745;45232.000000;1.000000;1.000000;1.000000;1.000000;0.079025;-0.079025;0.079025;1.000000
445597.50410088;5696571.24489983;473.52425005;0.552941;0.635294;0.447059;38550.000000;1.000000;1.000000;1.000000;1.000000;-0.069605;0.069605;-0.069605;1.000000
445597.46610077;5696571.24129875;473.52955009;0.376471;0.47451;0.290196;27756.000000;1.000000;1.000000;1.000000;1.000000;-0.103080;0.103080;-0.103080;1.000000
445597.56760223;5696570.82549866;473.52915003;0.607843;0.678431;0.478431;41377.000000;1.000000;1.000000;1.000000;1.000000;0.004501;-0.004501;0.004501;1.000000
445597.57010086;5696570.78609856;473.49384977;0.576471;0.588235;0.494118;37522.000000;1.000000;1.000000;1.000000;1.000000;0.043901;-0.043901;0.043901;1.000000
445597.43380173;5696571.12809952;473.49174978;0.415686;0.423529;0.364706;26985.000000;1.000000;1.000000;1.000000;1.000000;-0.130575;0.130575;-0.130575;1.000000
445597.47260101;5696571.09179886;473.49074986;0.458824;0.466667;0.431373;30069.000000;1.000000;1.000000;1.000000;1.000000;-0.091776;0.091776;-0.091776;1.000000
445597.51140221;5696571.05779846;473.49214985;0.0627451;0.0666667;0.0509804;4112.000000;1.000000;1.000000;1.000000;1.000000;-0.052975;0.052975;-0.052975;1.000000
445597.41240128;5696571.18349846;473.51244976;0.713725;0.756863;0.639216;47802.000000;1.000000;1.000000;1.000000;1.000000;-0.151976;0.151976;-0.151976;1.000000
