//X;Y;Z;Rf;Gf;Bf;Intensity;Return Number;Number Of Returns;Scan Direction Flag;Point Source ID;C2M signed distances[-][<0.8];C2M signed distances[<0.4];C2M signed distances[-][<0.2];Stump24
299
445606.01380165;5696575.19329937;473.05205013;0.0705882;0.105882;0.0980392;6168.000000;1.000000;1.000000;1.000000;1.000000;-0.136701;0.136701;-0.136701;1.000000
445606.05250175;5696575.15699871;473.05104973;0.0901961;0.121569;0.117647;7196.000000;1.000000;1.000000;1.000000;1.000000;-0.173001;0.173001;-0.173001;1.000000
445606.09340103;5696575.26099880;473.03314974;0.176471;0.176471;0.180392;11565.000000;1.000000;1.000000;1.000000;1.000000;-0.069037;0.069037;-0.069037;1.000000
445605.96260174;5696575.26599892;473.04124977;0.203922;0.215686;0.227451;13878.000000;1.000000;1.000000;1.000000;1.000000;-0.064001;0.064001;-0.064001;1.000000
445606.36190136;5696575.27149876;473.01044991;0.101961;0.0980392;0.117647;6425.000000;1.000000;1.000000;1.000000;1.000000;-0.060723;0.060723;-0.060723;1.000000
445606.33280190;5696575.29039867;473.02105000;0.0862745;0.0862745;0.101961;5654.000000;1.000000;1.000000;1.000000;1.000000;-0.039601;0.039601;-0.039601;1.000000
445605.98080166;5696575.25739868;473.03504993;0.0823529;0.0941176;0.0941176;5911.000000;1.000000;1.000000;1.000000;1.000000;-0.072601;0.072601;-0.072601;1.000000
445605.97970207;5696575.29489906;473.03305008;0.0901961;0.0980392;0.0862745;6168.000000;1.000000;1.000000;1.000000;1.000000;-0.035101;0.035101;-0.035101;1.000000
445606.01620110;5696575.33359917;473.03055002;0.160784;0.172549;0.129412;10537.000000;1.000000;1.000000;1.000000;1.000000;0.003599;-0.003599;0.003599;1.000000
445606.44780167;5696575.29679878;472.97274973;0.12549;0.133333;0.105882;8224.000000;1.000000;1.000000;1.000000;1.000000;-0.033201;0.033201;-0.033201;1.000000
445606.14760216;5696575.32119949;473.04565002;0.34902;0.34902;0.309804;22359.000000;1.000000;1.000000;1.000000;1.000000;-0.008801;0.008801;-0.008801;1.000000
445606.41830166;5696575.28539951;472.98054983;0.12549;0.133333;0.109804;8224.000000;1.000000;1.000000;1.000000;1.000000;-0.044600;0.044600;-0.044600;1.000000
445606.49130161;5696575.29029949;472.97924997;0.352941;0.360784;0.27451;22616.000000;1.000000;1.000000;1.000000;1.000000;-0.039701;0.039701;-0.039701;1.000000
445606.19320114;5696575.31439884;473.05695011;0.219608;0.211765;0.176471;13621.000000;1.000000;1.000000;1.000000;1.000000;-0.016063;0.016063;-0.016063;1.000000
445605.97850140;5696575.33239944;473.03345015;0.133333;0.145098;0.121569;8995.000000;1.000000;1.000000;1.000000;1.000000;0.002411;-0.002411;0.002411;1.000000
445606.53350170;5696575.21629913;472.98035004;0.14902;0.152941;0.0980392;9509.000000;1.000000;1.000000;1.000000;1.000000;-0.113701;0.113701;-0.113701;1.000000
445605.97730167;5696575.36979874;473.03384974;0.486275;0.490196;0.482353;31868.000000;1.000000;1.000000;1.000000;1.000000;0.039825;-0.039825;0.039825;1.000000
445606.42620190;5696575.30529888;473.00444986;0.0392157;0.0431373;0.0431373;2570.000000;1.000000;1.000000;1.000000;1.000000;-0.024701;0.024701;-0.024701;1.000000
445606.43360146;5696575.17189892;472.97765018;0.239216;0.258824;0.203922;15934.000000;1.000000;1.000000;1.000000;1.000000;-0.158101;0.158101;-0.158101;1.000000
445606.50200184;5696575.30789955;472.98694994;0.427451;0.419608;0.372549;27242.000000;1.000000;1.000000;1.000000;1.000000;-0.022101;0.022101;-0.022101;1.000000
445606.46760185;5696575.24099930;472.98924973;0.145098;0.188235;0.117647;10794.000000;1.000000;1.000000;1.000000;1.000000;-0.089001;0.089001;-0.089001;1.000000
445606.33400162;5696575.32079895;473.00745012;0.14902;0.145098;0.156863;9509.000000;1.000000;1.000000;1.000000;1.000000;-0.009201;0.009201;-0.009201;1.000000
445606.14790161;5696575.27439888;473.04514982;0.282353;0.282353;0.282353;18504.000000;1.000000;1.000000;1.000000;1.000000;-0.055601;0.055601;-0.055601;1.000000
445606.04240139;5696575.19549950;473.04404976;0.14902;0.184314;0.188235;11308.000000;1.000000;1.000000;1.000000;1.000000;-0.134501;0.134501;-0.134501;1.000000
445606.11510094;5696575.19799908;473.04505016;0.0352941;0.054902;0.0705882;3084.000000;1.000000;1.000000;1.000000;1.000000;-0.132001;0.132001;-0.132001;1.000000
445606.49720200;5696575.17769917;472.97825005;0.137255;0.152941;0.117647;9252.000000;1.000000;1.000000;1.000000;1.000000;-0.152301;0.152301;-0.152301;1.000000
445606.12540157;5696575.16189869;473.05205013;0.0627451;0.0862745;0.0941176;5140.000000;1.000000;1.000000;1.000000;1.000000;-0.168101;0.168101;-0.168101;1.000000
445606.08800133;5696575.16079910;473.05034973;0.266667;0.294118;0.298039;18761.000000;1.000000;1.000000;1.000000;1.000000;-0.169373;0.169373;-0.169373;1.000000
445606.40470131;5696575.20219906;473.00694992;0.0980392;0.0980392;0.105882;6425.000000;1.000000;1.000000;1.000000;1.000000;-0.127801;0.127801;-0.127801;1.000000
445606.19170197;5696575.14639957;473.05485012;0.298039;0.294118;0.231373;18761.000000;1.000000;1.000000;1.000000;1.000000;-0.183615;0.183615;-0.183615;1.000000
445606.17330177;5696575.34899910;473.05174973;0.505882;0.509804;0.447059;32639.000000;1.000000;1.000000;1.000000;1.000000;0.018999;-0.018999;0.018999;1.000000
445606.36140163;5696575.33029945;472.98784973;0.431373;0.431373;0.447059;28270.000000;1.000000;1.000000;1.000000;1.000000;0.015778;-0.015778;0.015778;1.000000
445606.02720173;5696575.32559879;473.02864983;0.101961;0.105882;0.0666667;6425.000000;1.000000;1.000000;1.000000;1.000000;-0.004401;0.004401;-0.004401;1.000000
445606.36620148;5696575.24529942;473.01734974;0.156863;0.164706;0.172549;10537.000000;1.000000;1.000000;1.000000;1.000000;-0.087045;0.087045;-0.087045;1.000000
445606.51420124;5696575.26239880;472.98465015;0.0901961;0.0862745;0.0352941;5140.000000;1.000000;1.000000;1.000000;1.000000;-0.067601;0.067601;-0.067601;1.000000
445606.40700157;5696575.33339890;472.96904995;0.239216;0.239216;0.243137;15677.000000;1.000000;1.000000;1.000000;1.000000;0.003399;-0.003399;0.003399;1.000000
445606.41240128;5696575.18279942;473.00474979;0.0980392;0.101961;0.109804;6425.000000;1.000000;1.000000;1.000000;1.000000;-0.147201;0.147201;-0.147201;1.000000
445606.06140144;5696575.36449917;473.02364971;0.0705882;0.0823529;0.0941176;5140.000000;1.000000;1.000000;1.000000;1.000000;-0.034225;0.034225;-0.034225;1.000000
445606.18200119;5696575.17279919;473.06404974;0.133333;0.129412;0.0901961;8224.000000;1.000000;1.000000;1.000000;1.000000;-0.157201;0.157201;-0.157201;1.000000
445606.47990139;5696575.14649876;472.98635008;0.0392157;0.0392157;0.0431373;2570.000000;1.000000;1.000000;1.000000;1.000000;-0.183501;0.183501;-0.183501;1.000000
445606.44590195;5696575.32509907;472.97064974;0.329412;0.321569;0.313725;21074.000000;1.000000;1.000000;1.000000;1.000000;-0.004901;0.004901;-0.004901;1.000000
445606.14670189;5696575.31189926;473.04544975;0.27451;0.27451;0.243137;17733.000000;1.000000;1.000000;1.000000;1.000000;-0.018101;0.018101;-0.018101;1.000000
445606.25930222;5696575.31549938;473.04594995;0.513725;0.509804;0.478431;33153.000000;1.000000;1.000000;1.000000;1.000000;-0.016291;0.016291;-0.016291;1.000000
445606.37030132;5696575.28249939;473.00404980;0.0941176;0.0901961;0.105882;5911.000000;1.000000;1.000000;1.000000;1.000000;-0.050139;0.050139;-0.050139;1.000000
445606.37620171;5696575.24909885;473.01084997;0.133333;0.141176;0.137255;8995.000000;1.000000;1.000000;1.000000;1.000000;-0.081530;0.081530;-0.081530;1.000000
445606.11410149;5696575.23559959;473.04075005;0.286275;0.301961;0.309804;19532.000000;1.000000;1.000000;1.000000;1.000000;-0.094400;0.094400;-0.094400;1.000000
445605.96590145;5696575.22819908;473.04565002;0.152941;0.160784;0.172549;10280.000000;1.000000;1.000000;1.000000;1.000000;-0.101801;0.101801;-0.101801;1.000000
445606.03370102;5696575.15639885;473.05254986;0.2;0.243137;0.235294;14906.000000;1.000000;1.000000;1.000000;1.000000;-0.173602;0.173602;-0.173602;1.000000
445606.06830223;5696575.24229916;473.03415014;0.0823529;0.0980392;0.109804;6168.000000;1.000000;1.000000;1.000000;1.000000;-0.087789;0.087789;-0.087789;1.000000
445606.29570110;5696575.14119919;473.07114985;0.329412;0.34902;0.364706;22359.000000;1.000000;1.000000;1.000000;1.000000;-0.188801;0.188801;-0.188801;1.000000
445606.18910225;5696575.23029907;473.07905008;0.172549;0.172549;0.160784;11051.000000;1.000000;1.000000;1.000000;1.000000;-0.099701;0.099701;-0.099701;1.000000
445606.43220146;5696575.18369873;472.98005011;0.333333;0.372549;0.309804;23130.000000;1.000000;1.000000;1.000000;1.000000;-0.146301;0.146301;-0.146301;1.000000
445606.18420227;5696575.34099873;473.05214979;0.529412;0.533333;0.482353;34438.000000;1.000000;1.000000;1.000000;1.000000;0.010999;-0.010999;0.010999;1.000000
445606.00360115;5696575.18489941;473.05384972;0.0745098;0.109804;0.113725;6425.000000;1.000000;1.000000;1.000000;1.000000;-0.145111;0.145111;-0.145111;1.000000
445605.96820171;5696575.18339928;473.05684998;0.0509804;0.0666667;0.0745098;4112.000000;1.000000;1.000000;1.000000;1.000000;-0.146601;0.146601;-0.146601;1.000000
445606.22760208;5696575.16609867;473.07765009;0.501961;0.509804;0.498039;33153.000000;1.000000;1.000000;1.000000;1.000000;-0.163905;0.163905;-0.163905;1.000000
445606.40830143;5696575.32389935;472.97125008;0.156863;0.14902;0.14902;9766.000000;1.000000;1.000000;1.000000;1.000000;-0.006101;0.006101;-0.006101;1.000000
445606.48100193;5696575.32649906;472.97225000;0.117647;0.101961;0.0784314;6682.000000;1.000000;1.000000;1.000000;1.000000;-0.003501;0.003501;-0.003501;1.000000
445606.41620167;5696575.17539890;473.00715019;0.0901961;0.0901961;0.0941176;5911.000000;1.000000;1.000000;1.000000;1.000000;-0.154601;0.154601;-0.154601;1.000000
445606.46590145;5696575.26929958;472.98024990;0.380392;0.411765;0.32549;25700.000000;1.000000;1.000000;1.000000;1.000000;-0.060700;0.060700;-0.060700;1.000000
445606.14020164;5696575.24469955;473.05135014;0.0627451;0.0745098;0.0745098;4626.000000;1.000000;1.000000;1.000000;1.000000;-0.085300;0.085300;-0.085300;1.000000
445606.28660114;5696575.32709892;473.03335001;0.415686;0.411765;0.4;26728.000000;1.000000;1.000000;1.000000;1.000000;-0.002901;0.002901;-0.002901;1.000000
445606.27030190;5696575.30749901;473.04404976;0.768627;0.772549;0.745098;50115.000000;1.000000;1.000000;1.000000;1.000000;-0.023251;0.023251;-0.023251;1.000000
445606.20930107;5696575.13539894;473.05555012;0.215686;0.215686;0.133333;13364.000000;1.000000;1.000000;1.000000;1.000000;-0.194601;0.194601;-0.194601;1.000000
445606.43870171;5696575.27879913;472.98145010;0.0941176;0.109804;0.0745098;6425.000000;1.000000;1.000000;1.000000;1.000000;-0.051201;0.051201;-0.051201;1.000000
445606.51480110;5696575.24139889;472.97975018;0.0823529;0.0901961;0.0509804;5397.000000;1.000000;1.000000;1.000000;1.000000;-0.088601;0.088601;-0.088601;1.000000
445606.51140125;5696575.30929955;472.98974993;0.462745;0.454902;0.4;29555.000000;1.000000;1.000000;1.000000;1.000000;-0.020700;0.020700;-0.020700;1.000000
445606.41730125;5696575.13789948;473.00904991;0.282353;0.282353;0.282353;18504.000000;1.000000;1.000000;1.000000;1.000000;-0.192101;0.192101;-0.192101;1.000000
445606.22460182;5696575.25069912;473.05994989;0.121569;0.12549;0.117647;7967.000000;1.000000;1.000000;1.000000;1.000000;-0.079400;0.079400;-0.079400;1.000000
445606.38390167;5696575.20859917;473.01534988;0.0588235;0.0666667;0.0862745;4112.000000;1.000000;1.000000;1.000000;1.000000;-0.121424;0.121424;-0.121424;1.000000
445606.34830196;5696575.16929920;473.05055000;0.329412;0.345098;0.376471;22359.000000;1.000000;1.000000;1.000000;1.000000;-0.160723;0.160723;-0.160723;1.000000
445606.52950199;5696575.28179939;472.99725010;0.529412;0.513725;0.435294;33410.000000;1.000000;1.000000;1.000000;1.000000;-0.048201;0.048201;-0.048201;1.000000
445606.27620132;5696575.15929897;473.07284977;0.298039;0.317647;0.329412;20303.000000;1.000000;1.000000;1.000000;1.000000;-0.170701;0.170701;-0.170701;1.000000
445606.30940159;5696575.27129944;473.03604986;0.321569;0.32549;0.333333;21074.000000;1.000000;1.000000;1.000000;1.000000;-0.058701;0.058701;-0.058701;1.000000
445606.19880112;5696575.23189934;473.07485010;0.168627;0.160784;0.14902;10537.000000;1.000000;1.000000;1.000000;1.000000;-0.098101;0.098101;-0.098101;1.000000
445605.97810181;5696575.14489944;473.07084991;0.247059;0.282353;0.254902;17476.000000;1.000000;1.000000;1.000000;1.000000;-0.185101;0.185101;-0.185101;1.000000
445606.12040146;5696575.30049904;473.03485014;0.113725;0.101961;0.0941176;6682.000000;1.000000;1.000000;1.000000;1.000000;-0.029501;0.029501;-0.029501;1.000000
445606.38920124;5696575.30199917;472.98644974;0.0666667;0.0666667;0.0784314;4369.000000;1.000000;1.000000;1.000000;1.000000;-0.028001;0.028001;-0.028001;1.000000
445606.00660141;5696575.33209904;473.03244974;0.168627;0.176471;0.145098;11051.000000;1.000000;1.000000;1.000000;1.000000;0.003983;-0.003983;0.003983;1.000000
445605.96900185;5696575.33089931;473.03305008;0.282353;0.290196;0.278431;18761.000000;1.000000;1.000000;1.000000;1.000000;0.000899;-0.000899;0.000899;1.000000
445606.42810162;5696575.26799877;472.98784973;0.0784314;0.0941176;0.0627451;5397.000000;1.000000;1.000000;1.000000;1.000000;-0.062001;0.062001;-0.062001;1.000000
445606.02030190;5696575.25149925;473.02745010;0.0901961;0.0941176;0.0980392;5911.000000;1.000000;1.000000;1.000000;1.000000;-0.078501;0.078501;-0.078501;1.000000
445606.16890152;5696575.25589951;473.05984976;0.054902;0.054902;0.0588235;3598.000000;1.000000;1.000000;1.000000;1.000000;-0.074100;0.074100;-0.074100;1.000000
445606.13670166;5696575.32919891;473.04524996;0.172549;0.176471;0.133333;11051.000000;1.000000;1.000000;1.000000;1.000000;-0.000801;0.000801;-0.000801;1.000000
445606.41320141;5696575.14299877;473.00664999;0.321569;0.309804;0.305882;20303.000000;1.000000;1.000000;1.000000;1.000000;-0.187001;0.187001;-0.187001;1.000000
445606.29370125;5696575.32649906;473.03135015;0.258824;0.25098;0.247059;16448.000000;1.000000;1.000000;1.000000;1.000000;-0.003501;0.003501;-0.003501;1.000000
445606.42500122;5696575.14419945;473.00715019;0.172549;0.184314;0.203922;11822.000000;1.000000;1.000000;1.000000;1.000000;-0.185801;0.185801;-0.185801;1.000000
445606.45980175;5696575.18329914;472.99055006;0.117647;0.137255;0.109804;8224.000000;1.000000;1.000000;1.000000;1.000000;-0.146701;0.146701;-0.146701;1.000000
445606.34990128;5696575.14099892;473.05964996;0.458824;0.47451;0.501961;30840.000000;1.000000;1.000000;1.000000;1.000000;-0.189049;0.189049;-0.189049;1.000000
445606.10510166;5696575.21539886;473.04244997;0.180392;0.2;0.211765;12593.000000;1.000000;1.000000;1.000000;1.000000;-0.114601;0.114601;-0.114601;1.000000
445606.52420147;5696575.24289902;472.98255016;0.109804;0.105882;0.0627451;6682.000000;1.000000;1.000000;1.000000;1.000000;-0.087101;0.087101;-0.087101;1.000000
445606.48670109;5696575.24169930;472.98084976;0.0862745;0.121569;0.0588235;6682.000000;1.000000;1.000000;1.000000;1.000000;-0.088301;0.088301;-0.088301;1.000000
445606.33960159;5696575.19829948;473.04355003;0.305882;0.32549;0.341176;20817.000000;1.000000;1.000000;1.000000;1.000000;-0.131701;0.131701;-0.131701;1.000000
445606.22900208;5696575.15659912;473.07765009;0.223529;0.231373;0.231373;14906.000000;1.000000;1.000000;1.000000;1.000000;-0.173401;0.173401;-0.173401;1.000000
445606.15520103;5696575.15449913;473.05095007;0.0980392;0.113725;0.113725;6939.000000;1.000000;1.000000;1.000000;1.000000;-0.175501;0.175501;-0.175501;1.000000
445606.46900185;5696575.23149879;472.98924973;0.294118;0.345098;0.258824;20817.000000;1.000000;1.000000;1.000000;1.000000;-0.098501;0.098501;-0.098501;1.000000
445606.47040184;5696575.19639881;472.98885014;0.215686;0.243137;0.188235;14906.000000;1.000000;1.000000;1.000000;1.000000;-0.133601;0.133601;-0.133601;1.000000
445606.22080143;5696575.33289917;473.05375006;0.215686;0.211765;0.192157;13621.000000;1.000000;1.000000;1.000000;1.000000;0.002904;-0.002904;0.002904;1.000000
445606.11890133;5696575.14149960;473.05154993;0.184314;0.207843;0.223529;13107.000000;1.000000;1.000000;1.000000;1.000000;-0.188500;0.188500;-0.188500;1.000000
445606.45430191;5696575.31489952;472.97095015;0.25098;0.243137;0.223529;15934.000000;1.000000;1.000000;1.000000;1.000000;-0.015100;0.015100;-0.015100;1.000000
445606.41900166;5696575.31349953;472.97165014;0.0470588;0.0431373;0.0470588;2827.000000;1.000000;1.000000;1.000000;1.000000;-0.016500;0.016500;-0.016500;1.000000
445606.33230122;5696575.13309868;473.07035019;0.537255;0.556863;0.576471;36237.000000;1.000000;1.000000;1.000000;1.000000;-0.196901;0.196901;-0.196901;1.000000
445606.29360111;5696575.16939934;473.07144978;0.439216;0.462745;0.482353;29812.000000;1.000000;1.000000;1.000000;1.000000;-0.160601;0.160601;-0.160601;1.000000
445606.32800110;5696575.24389942;473.03195002;0.129412;0.137255;0.160784;8995.000000;1.000000;1.000000;1.000000;1.000000;-0.086101;0.086101;-0.086101;1.000000
445606.28800114;5696575.31759937;473.03564980;0.454902;0.45098;0.443137;29555.000000;1.000000;1.000000;1.000000;1.000000;-0.012401;0.012401;-0.012401;1.000000
445605.98900135;5696575.26839931;473.03084995;0.0705882;0.0784314;0.0745098;4883.000000;1.000000;1.000000;1.000000;1.000000;-0.061601;0.061601;-0.061601;1.000000
445605.99010094;5696575.30559929;473.03135015;0.101961;0.113725;0.0901961;6939.000000;1.000000;1.000000;1.000000;1.000000;-0.024401;0.024401;-0.024401;1.000000
445606.02420147;5696575.34449871;473.03104975;0.270588;0.282353;0.254902;17990.000000;1.000000;1.000000;1.000000;1.000000;0.014499;-0.014499;0.014499;1.000000
445605.98860176;5696575.34079941;473.03405001;0.0823529;0.0862745;0.0705882;5397.000000;1.000000;1.000000;1.000000;1.000000;0.010799;-0.010799;0.010799;1.000000
445605.95120152;5696575.33959873;473.03235008;0.376471;0.380392;0.360784;24672.000000;1.000000;1.000000;1.000000;1.000000;0.009599;-0.009599;0.009599;1.000000
445606.11900146;5696575.33789928;473.03984978;0.32549;0.32549;0.286275;20817.000000;1.000000;1.000000;1.000000;1.000000;0.007899;-0.007899;0.007899;1.000000
445606.08740147;5696575.22409924;473.03945019;0.168627;0.188235;0.207843;12079.000000;1.000000;1.000000;1.000000;1.000000;-0.106220;0.106220;-0.106220;1.000000
445606.12600143;5696575.18999870;473.04544975;0.0588235;0.0784314;0.0745098;4626.000000;1.000000;1.000000;1.000000;1.000000;-0.140001;0.140001;-0.140001;1.000000
445606.31140144;5696575.17959888;473.06064989;0.439216;0.466667;0.486275;30069.000000;1.000000;1.000000;1.000000;1.000000;-0.150401;0.150401;-0.150401;1.000000
445606.23730095;5696575.21439941;473.06474974;0.129412;0.133333;0.133333;8481.000000;1.000000;1.000000;1.000000;1.000000;-0.115601;0.115601;-0.115601;1.000000
445606.28510101;5696575.33429916;473.03104975;0.372549;0.364706;0.356863;23901.000000;1.000000;1.000000;1.000000;1.000000;0.004299;-0.004299;0.004299;1.000000
445606.21660145;5696575.22089870;473.07084991;0.207843;0.207843;0.203922;13364.000000;1.000000;1.000000;1.000000;1.000000;-0.109101;0.109101;-0.109101;1.000000
445606.17910202;5696575.21969898;473.07144978;0.113725;0.109804;0.109804;7196.000000;1.000000;1.000000;1.000000;1.000000;-0.110301;0.110301;-0.110301;1.000000
445606.25650223;5696575.14939888;473.07415010;0.0941176;0.113725;0.105882;6939.000000;1.000000;1.000000;1.000000;1.000000;-0.180660;0.180660;-0.180660;1.000000
445606.42720135;5696575.30029877;473.02304985;0.027451;0.0313725;0.0392157;1799.000000;1.000000;1.000000;1.000000;1.000000;-0.029701;0.029701;-0.029701;1.000000
445606.04360207;5696575.13909920;473.05744984;0.0627451;0.0862745;0.0745098;4883.000000;1.000000;1.000000;1.000000;1.000000;-0.190901;0.190901;-0.190901;1.000000
445605.94340141;5696575.28419884;473.03835012;0.478431;0.490196;0.490196;31868.000000;1.000000;1.000000;1.000000;1.000000;-0.045978;0.045978;-0.045978;1.000000
445605.96780212;5696575.36839874;473.03574993;0.643137;0.65098;0.635294;42148.000000;1.000000;1.000000;1.000000;1.000000;0.038399;-0.038399;0.038399;1.000000
445605.94060143;5696575.14379890;473.06914999;0.321569;0.341176;0.329412;21845.000000;1.000000;1.000000;1.000000;1.000000;-0.186205;0.186205;-0.186205;1.000000
445605.97570141;5696575.16629894;473.06395008;0.0862745;0.121569;0.121569;7196.000000;1.000000;1.000000;1.000000;1.000000;-0.163728;0.163728;-0.163728;1.000000
445606.08390148;5696575.28069885;473.02594997;0.192157;0.188235;0.188235;12336.000000;1.000000;1.000000;1.000000;1.000000;-0.050676;0.050676;-0.050676;1.000000
445605.94020088;5696575.16259869;473.06465008;0.411765;0.431373;0.427451;27756.000000;1.000000;1.000000;1.000000;1.000000;-0.167403;0.167403;-0.167403;1.000000
445606.00870140;5696575.27599915;473.02484991;0.0941176;0.0980392;0.0705882;5911.000000;1.000000;1.000000;1.000000;1.000000;-0.054016;0.054016;-0.054016;1.000000
445606.00970085;5696575.31319912;473.02764990;0.176471;0.184314;0.141176;11565.000000;1.000000;1.000000;1.000000;1.000000;-0.016803;0.016803;-0.016803;1.000000
445606.39950188;5696575.26589878;472.99585011;0.054902;0.0588235;0.054902;3598.000000;1.000000;1.000000;1.000000;1.000000;-0.064101;0.064101;-0.064101;1.000000
445606.44060143;5696575.22939880;472.99254992;0.0588235;0.0823529;0.0509804;4626.000000;1.000000;1.000000;1.000000;1.000000;-0.100601;0.100601;-0.100601;1.000000
445606.30980118;5696575.18679913;473.05835011;0.439216;0.462745;0.486275;29812.000000;1.000000;1.000000;1.000000;1.000000;-0.143201;0.143201;-0.143201;1.000000
445606.23580177;5696575.22159870;473.06244995;0.160784;0.164706;0.160784;10537.000000;1.000000;1.000000;1.000000;1.000000;-0.108401;0.108401;-0.108401;1.000000
445606.19690140;5696575.25789936;473.06575014;0.0705882;0.0666667;0.0666667;4369.000000;1.000000;1.000000;1.000000;1.000000;-0.072103;0.072103;-0.072103;1.000000
445606.40760143;5696575.29579933;472.98024990;0.101961;0.101961;0.105882;6682.000000;1.000000;1.000000;1.000000;1.000000;-0.034201;0.034201;-0.034201;1.000000
445606.01760109;5696575.13909920;473.06325008;0.196078;0.227451;0.211765;14135.000000;1.000000;1.000000;1.000000;1.000000;-0.190901;0.190901;-0.190901;1.000000
445606.26720150;5696575.34529884;473.03504993;0.341176;0.333333;0.329412;21845.000000;1.000000;1.000000;1.000000;1.000000;0.017747;-0.017747;0.017747;1.000000
445605.97240170;5696575.29319962;473.03504993;0.145098;0.156863;0.145098;9766.000000;1.000000;1.000000;1.000000;1.000000;-0.036843;0.036843;-0.036843;1.000000
445605.97610100;5696575.25779922;473.03714993;0.101961;0.113725;0.117647;7196.000000;1.000000;1.000000;1.000000;1.000000;-0.072249;0.072249;-0.072249;1.000000
445606.23750122;5696575.19559868;473.07385017;0.0823529;0.0901961;0.0823529;5654.000000;1.000000;1.000000;1.000000;1.000000;-0.134401;0.134401;-0.134401;1.000000
445606.23860176;5696575.15809925;473.07574989;0.129412;0.137255;0.117647;8481.000000;1.000000;1.000000;1.000000;1.000000;-0.171901;0.171901;-0.171901;1.000000
445606.25090225;5696575.32559879;473.04575016;0.352941;0.352941;0.32549;22873.000000;1.000000;1.000000;1.000000;1.000000;-0.004401;0.004401;-0.004401;1.000000
445606.07020195;5696575.16949947;473.04734995;0.0352941;0.0627451;0.0745098;3598.000000;1.000000;1.000000;1.000000;1.000000;-0.160606;0.160606;-0.160606;1.000000
445606.22320183;5696575.28589924;473.06024982;0.305882;0.309804;0.282353;19789.000000;1.000000;1.000000;1.000000;1.000000;-0.044176;0.044176;-0.044176;1.000000
445605.97640141;5696575.17329891;473.06174995;0.0901961;0.121569;0.113725;7196.000000;1.000000;1.000000;1.000000;1.000000;-0.156718;0.156718;-0.156718;1.000000
445606.14620216;5696575.33059891;473.04565002;0.439216;0.447059;0.4;28784.000000;1.000000;1.000000;1.000000;1.000000;0.000599;-0.000599;0.000599;1.000000
445606.08490189;5696575.28999908;473.02384998;0.156863;0.156863;0.156863;10023.000000;1.000000;1.000000;1.000000;1.000000;-0.041414;0.041414;-0.041414;1.000000
445605.93890198;5696575.17209919;473.06234982;0.462745;0.47451;0.470588;30583.000000;1.000000;1.000000;1.000000;1.000000;-0.157901;0.157901;-0.157901;1.000000
445606.52830132;5696575.31929882;472.99765017;0.262745;0.254902;0.227451;16448.000000;1.000000;1.000000;1.000000;1.000000;-0.010701;0.010701;-0.010701;1.000000
445606.42040165;5696575.23829945;472.99405005;0.0941176;0.113725;0.0941176;6682.000000;1.000000;1.000000;1.000000;1.000000;-0.091701;0.091701;-0.091701;1.000000
445606.45920189;5696575.20429905;472.99545004;0.160784;0.188235;0.145098;11308.000000;1.000000;1.000000;1.000000;1.000000;-0.125701;0.125701;-0.125701;1.000000
445606.19990166;5696575.19209869;473.06974985;0.211765;0.207843;0.196078;13364.000000;1.000000;1.000000;1.000000;1.000000;-0.137901;0.137901;-0.137901;1.000000
445606.00980194;5696575.28759869;473.02504971;0.121569;0.129412;0.0901961;7967.000000;1.000000;1.000000;1.000000;1.000000;-0.042402;0.042402;-0.042402;1.000000
445606.12690170;5696575.15249928;473.05205013;0.105882;0.133333;0.141176;8224.000000;1.000000;1.000000;1.000000;1.000000;-0.177501;0.177501;-0.177501;1.000000
445606.34940155;5696575.19979961;473.03704979;0.176471;0.184314;0.2;11822.000000;1.000000;1.000000;1.000000;1.000000;-0.130255;0.130255;-0.130255;1.000000
445606.52250202;5696575.19639881;472.97494986;0.301961;0.301961;0.239216;19275.000000;1.000000;1.000000;1.000000;1.000000;-0.133601;0.133601;-0.133601;1.000000
445606.08660133;5696575.26169880;473.03055002;0.12549;0.133333;0.137255;8481.000000;1.000000;1.000000;1.000000;1.000000;-0.068895;0.068895;-0.068895;1.000000
445606.38150127;5696575.27449902;472.99744989;0.0901961;0.0941176;0.101961;5911.000000;1.000000;1.000000;1.000000;1.000000;-0.055716;0.055716;-0.055716;1.000000
445606.42410191;5696575.20519932;472.99854996;0.0588235;0.0705882;0.0666667;4112.000000;1.000000;1.000000;1.000000;1.000000;-0.124801;0.124801;-0.124801;1.000000
445606.38580139;5696575.16149910;473.03125002;0.109804;0.113725;0.152941;7453.000000;1.000000;1.000000;1.000000;1.000000;-0.168501;0.168501;-0.168501;1.000000
445606.31150158;5696575.15849884;473.06745007;0.431373;0.45098;0.470588;29298.000000;1.000000;1.000000;1.000000;1.000000;-0.171501;0.171501;-0.171501;1.000000
445606.35960110;5696575.16369923;473.04635002;0.215686;0.231373;0.258824;14906.000000;1.000000;1.000000;1.000000;1.000000;-0.166887;0.166887;-0.166887;1.000000
445606.30350121;5696575.30689915;473.03154995;0.168627;0.164706;0.164706;10794.000000;1.000000;1.000000;1.000000;1.000000;-0.023101;0.023101;-0.023101;1.000000
445606.46600159;5696575.31619938;472.97144987;0.0862745;0.0784314;0.0627451;5140.000000;1.000000;1.000000;1.000000;1.000000;-0.013801;0.013801;-0.013801;1.000000
445606.15730103;5696575.30149944;473.04815008;0.592157;0.592157;0.568627;38550.000000;1.000000;1.000000;1.000000;1.000000;-0.028501;0.028501;-0.028501;1.000000
445606.12360199;5696575.26269920;473.04155018;0.278431;0.282353;0.290196;18247.000000;1.000000;1.000000;1.000000;1.000000;-0.067301;0.067301;-0.067301;1.000000
445606.34950169;5696575.31009872;473.00334980;0.188235;0.188235;0.207843;12336.000000;1.000000;1.000000;1.000000;1.000000;-0.020275;0.020275;-0.020275;1.000000
445606.28090103;5696575.27139957;473.04645016;0.607843;0.615686;0.607843;40092.000000;1.000000;1.000000;1.000000;1.000000;-0.058600;0.058600;-0.058600;1.000000
445606.04970177;5696575.22279938;473.04234983;0.117647;0.141176;0.152941;8738.000000;1.000000;1.000000;1.000000;1.000000;-0.107201;0.107201;-0.107201;1.000000
445606.27740105;5696575.30679901;473.04204990;0.72549;0.729412;0.705882;47545.000000;1.000000;1.000000;1.000000;1.000000;-0.023201;0.023201;-0.023201;1.000000
445606.11410149;5696575.18879898;473.04724981;0.0470588;0.0627451;0.0705882;3855.000000;1.000000;1.000000;1.000000;1.000000;-0.141201;0.141201;-0.141201;1.000000
445606.45050152;5696575.18639954;472.99484970;0.0705882;0.0862745;0.0666667;5140.000000;1.000000;1.000000;1.000000;1.000000;-0.143600;0.143600;-0.143600;1.000000
445606.15620144;5696575.33899887;473.04855015;0.741176;0.752941;0.682353;48573.000000;1.000000;1.000000;1.000000;1.000000;0.008999;-0.008999;0.008999;1.000000
445606.33930119;5696575.21709927;473.03674986;0.176471;0.188235;0.207843;12079.000000;1.000000;1.000000;1.000000;1.000000;-0.112901;0.112901;-0.112901;1.000000
445606.26620110;5696575.17659958;473.07254984;0.32549;0.352941;0.356863;22616.000000;1.000000;1.000000;1.000000;1.000000;-0.153717;0.153717;-0.153717;1.000000
445606.29930122;5696575.28859909;473.03585007;0.305882;0.309804;0.301961;20046.000000;1.000000;1.000000;1.000000;1.000000;-0.041401;0.041401;-0.041401;1.000000
445606.18870171;5696575.24689873;473.06995012;0.0588235;0.054902;0.0588235;3598.000000;1.000000;1.000000;1.000000;1.000000;-0.083101;0.083101;-0.083101;1.000000
445606.18990143;5696575.21169956;473.07424976;0.25098;0.243137;0.235294;15934.000000;1.000000;1.000000;1.000000;1.000000;-0.118302;0.118302;-0.118302;1.000000
445606.11190136;5696575.28269871;473.03195002;0.0862745;0.0784314;0.0862745;5140.000000;1.000000;1.000000;1.000000;1.000000;-0.047301;0.047301;-0.047301;1.000000
445606.18510159;5696575.35029896;473.05235006;0.356863;0.356863;0.305882;22873.000000;1.000000;1.000000;1.000000;1.000000;0.020299;-0.020299;0.020299;1.000000
445606.07270153;5696575.30749901;473.01884987;0.184314;0.180392;0.164706;11565.000000;1.000000;1.000000;1.000000;1.000000;-0.023992;0.023992;-0.023992;1.000000
445606.26030167;5696575.27789886;473.05025007;0.729412;0.733333;0.709804;47802.000000;1.000000;1.000000;1.000000;1.000000;-0.052778;0.052778;-0.052778;1.000000
445606.15100105;5696575.23659904;473.05415012;0.0392157;0.0470588;0.054902;2827.000000;1.000000;1.000000;1.000000;1.000000;-0.093401;0.093401;-0.093401;1.000000
445606.15210159;5696575.19909866;473.05604984;0.0901961;0.0980392;0.101961;6168.000000;1.000000;1.000000;1.000000;1.000000;-0.130901;0.130901;-0.130901;1.000000
445606.04330166;5696575.15789898;473.05065014;0.12549;0.164706;0.152941;9766.000000;1.000000;1.000000;1.000000;1.000000;-0.172101;0.172101;-0.172101;1.000000
445606.11040123;5696575.31779869;473.03464987;0.270588;0.262745;0.247059;17219.000000;1.000000;1.000000;1.000000;1.000000;-0.012201;0.012201;-0.012201;1.000000
445606.13080223;5696575.26439960;473.04185011;0.329412;0.337255;0.337255;21845.000000;1.000000;1.000000;1.000000;1.000000;-0.065718;0.065718;-0.065718;1.000000
445605.95050152;5696575.35829933;473.03485014;0.333333;0.337255;0.305882;21588.000000;1.000000;1.000000;1.000000;1.000000;0.028299;-0.028299;0.028299;1.000000
445606.06670197;5696575.24949940;473.03184988;0.054902;0.0666667;0.0823529;4112.000000;1.000000;1.000000;1.000000;1.000000;-0.080534;0.080534;-0.080534;1.000000
445606.22130211;5696575.14799889;473.07485010;0.105882;0.117647;0.0980392;7196.000000;1.000000;1.000000;1.000000;1.000000;-0.182002;0.182002;-0.182002;1.000000
445606.46640118;5696575.13119896;472.99494984;0.0431373;0.0470588;0.0588235;3084.000000;1.000000;1.000000;1.000000;1.000000;-0.198801;0.198801;-0.198801;1.000000
445606.27290161;5696575.21589954;473.05704977;0.603922;0.627451;0.639216;40606.000000;1.000000;1.000000;1.000000;1.000000;-0.114146;0.114146;-0.114146;1.000000
445606.05680092;5696575.22219952;473.04034998;0.101961;0.121569;0.133333;7453.000000;1.000000;1.000000;1.000000;1.000000;-0.107800;0.107800;-0.107800;1.000000
445605.99790199;5696575.31419952;473.03184988;0.0980392;0.105882;0.0862745;6425.000000;1.000000;1.000000;1.000000;1.000000;-0.015800;0.015800;-0.015800;1.000000
445606.36730202;5696575.18889912;473.03305008;0.0745098;0.0862745;0.117647;5397.000000;1.000000;1.000000;1.000000;1.000000;-0.142357;0.142357;-0.142357;1.000000
445606.18030174;5696575.18219955;473.07105019;0.0901961;0.0862745;0.0823529;5654.000000;1.000000;1.000000;1.000000;1.000000;-0.147800;0.147800;-0.147800;1.000000
445605.96260174;5696575.31279953;473.03485014;0.298039;0.313725;0.301961;20046.000000;1.000000;1.000000;1.000000;1.000000;-0.017200;0.017200;-0.017200;1.000000
445605.96140106;5696575.35029896;473.03524973;0.282353;0.294118;0.278431;18761.000000;1.000000;1.000000;1.000000;1.000000;0.020299;-0.020299;0.020299;1.000000
445606.20090111;5696575.14549931;473.05524971;0.231373;0.231373;0.160784;14649.000000;1.000000;1.000000;1.000000;1.000000;-0.184501;0.184501;-0.184501;1.000000
445606.50680168;5696575.20489891;472.97664978;0.556863;0.572549;0.494118;36494.000000;1.000000;1.000000;1.000000;1.000000;-0.125143;0.125143;-0.125143;1.000000
445606.34260185;5696575.29189880;473.01454975;0.113725;0.109804;0.129412;7196.000000;1.000000;1.000000;1.000000;1.000000;-0.038101;0.038101;-0.038101;1.000000
445606.32050140;5696575.19759949;473.05195000;0.498039;0.517647;0.545098;33667.000000;1.000000;1.000000;1.000000;1.000000;-0.132401;0.132401;-0.132401;1.000000
445606.28170212;5696575.23159893;473.04834988;0.568627;0.592157;0.603922;38293.000000;1.000000;1.000000;1.000000;1.000000;-0.098401;0.098401;-0.098401;1.000000
445606.39050110;5696575.31369884;472.98204996;0.0823529;0.0823529;0.0980392;5397.000000;1.000000;1.000000;1.000000;1.000000;-0.016301;0.016301;-0.016301;1.000000
445606.24650200;5696575.23239906;473.05375006;0.2;0.207843;0.203922;13364.000000;1.000000;1.000000;1.000000;1.000000;-0.097601;0.097601;-0.097601;1.000000
445606.31610115;5696575.31059940;473.02054979;0.152941;0.14902;0.152941;9766.000000;1.000000;1.000000;1.000000;1.000000;-0.019401;0.019401;-0.019401;1.000000
445606.37600143;5696575.18109901;473.03104975;0.0666667;0.0784314;0.109804;4883.000000;1.000000;1.000000;1.000000;1.000000;-0.149249;0.149249;-0.149249;1.000000
445606.37190159;5696575.27529915;473.00395014;0.105882;0.101961;0.117647;6682.000000;1.000000;1.000000;1.000000;1.000000;-0.056577;0.056577;-0.056577;1.000000
445606.24280174;5696575.26779945;473.05394985;0.333333;0.337255;0.321569;21845.000000;1.000000;1.000000;1.000000;1.000000;-0.062201;0.062201;-0.062201;1.000000
445605.97460182;5696575.22039898;473.04365017;0.054902;0.0627451;0.0784314;3855.000000;1.000000;1.000000;1.000000;1.000000;-0.109673;0.109673;-0.109673;1.000000
445606.24170120;5696575.30529888;473.05205013;0.282353;0.282353;0.239216;17990.000000;1.000000;1.000000;1.000000;1.000000;-0.024701;0.024701;-0.024701;1.000000
445606.06110199;5696575.14919956;473.05135014;0.0862745;0.113725;0.121569;6939.000000;1.000000;1.000000;1.000000;1.000000;-0.180800;0.180800;-0.180800;1.000000
445606.16670139;5696575.30299957;473.05095007;0.407843;0.407843;0.388235;26471.000000;1.000000;1.000000;1.000000;1.000000;-0.027000;0.027000;-0.027000;1.000000
445606.02240189;5696575.18549927;473.05235006;0.0627451;0.101961;0.101961;5911.000000;1.000000;1.000000;1.000000;1.000000;-0.144501;0.144501;-0.144501;1.000000
445606.20300110;5696575.34159954;473.05305006;0.321569;0.321569;0.290196;20817.000000;1.000000;1.000000;1.000000;1.000000;0.011600;-0.011600;0.011600;1.000000
445606.39590176;5696575.14419945;473.03144981;0.180392;0.188235;0.215686;12336.000000;1.000000;1.000000;1.000000;1.000000;-0.185801;0.185801;-0.185801;1.000000
445606.53800114;5696575.29969891;473.00014975;0.352941;0.329412;0.270588;21588.000000;1.000000;1.000000;1.000000;1.000000;-0.030478;0.030478;-0.030478;1.000000
445606.43390186;5696575.18559940;472.99874975;0.0901961;0.101961;0.0941176;6168.000000;1.000000;1.000000;1.000000;1.000000;-0.144401;0.144401;-0.144401;1.000000
445606.32140167;5696575.14109905;473.06995012;0.478431;0.498039;0.517647;32382.000000;1.000000;1.000000;1.000000;1.000000;-0.188901;0.188901;-0.188901;1.000000
445606.28270157;5696575.17739876;473.07105019;0.556863;0.588235;0.603922;38036.000000;1.000000;1.000000;1.000000;1.000000;-0.152601;0.152601;-0.152601;1.000000
445606.16560181;5696575.34049900;473.04904987;0.721569;0.729412;0.666667;47031.000000;1.000000;1.000000;1.000000;1.000000;0.010517;-0.010517;0.010517;1.000000
445606.24730118;5696575.17599876;473.07404997;0.117647;0.133333;0.129412;8224.000000;1.000000;1.000000;1.000000;1.000000;-0.154001;0.154001;-0.154001;1.000000
445606.31720169;5696575.25419910;473.03384974;0.227451;0.235294;0.247059;15163.000000;1.000000;1.000000;1.000000;1.000000;-0.075801;0.075801;-0.075801;1.000000
445606.20980175;5696575.17479904;473.07464983;0.329412;0.333333;0.313725;21588.000000;1.000000;1.000000;1.000000;1.000000;-0.155201;0.155201;-0.155201;1.000000
445606.31360157;5696575.28959950;473.03184988;0.156863;0.14902;0.156863;9766.000000;1.000000;1.000000;1.000000;1.000000;-0.040401;0.040401;-0.040401;1.000000
445605.98710163;5696575.18409927;473.05534985;0.109804;0.133333;0.137255;8224.000000;1.000000;1.000000;1.000000;1.000000;-0.145901;0.145901;-0.145901;1.000000
445606.20520218;5696575.24769886;473.06834986;0.0862745;0.0901961;0.0901961;5654.000000;1.000000;1.000000;1.000000;1.000000;-0.082301;0.082301;-0.082301;1.000000
445606.27700146;5696575.32559879;473.03754999;0.556863;0.54902;0.537255;35980.000000;1.000000;1.000000;1.000000;1.000000;-0.004401;0.004401;-0.004401;1.000000
445605.98400124;5696575.21959885;473.04174997;0.0627451;0.0745098;0.0862745;4626.000000;1.000000;1.000000;1.000000;1.000000;-0.110401;0.110401;-0.110401;1.000000
445606.02150162;5696575.22079952;473.04104998;0.0941176;0.117647;0.12549;7196.000000;1.000000;1.000000;1.000000;1.000000;-0.109200;0.109200;-0.109200;1.000000
445606.53950127;5696575.29019936;473.00005009;0.529412;0.505882;0.439216;32896.000000;1.000000;1.000000;1.000000;1.000000;-0.039840;0.039840;-0.039840;1.000000
445606.09400185;5696575.24449928;473.03765013;0.184314;0.2;0.2;12593.000000;1.000000;1.000000;1.000000;1.000000;-0.085516;0.085516;-0.085516;1.000000
445606.32300194;5696575.13389881;473.07235004;0.443137;0.466667;0.482353;30069.000000;1.000000;1.000000;1.000000;1.000000;-0.196101;0.196101;-0.196101;1.000000
445606.06030090;5696575.18679913;473.04474976;0.254902;0.286275;0.294118;17990.000000;1.000000;1.000000;1.000000;1.000000;-0.143201;0.143201;-0.143201;1.000000
445605.99180134;5696575.24939926;473.03305008;0.0431373;0.0509804;0.0588235;3084.000000;1.000000;1.000000;1.000000;1.000000;-0.080601;0.080601;-0.080601;1.000000
445606.52980145;5696575.21389874;473.00575020;0.0666667;0.0745098;0.0392157;4369.000000;1.000000;1.000000;1.000000;1.000000;-0.116101;0.116101;-0.116101;1.000000
445606.28410156;5696575.16789921;473.07095005;0.462745;0.490196;0.505882;31611.000000;1.000000;1.000000;1.000000;1.000000;-0.162101;0.162101;-0.162101;1.000000
445606.31860168;5696575.24469955;473.03615000;0.305882;0.317647;0.337255;20560.000000;1.000000;1.000000;1.000000;1.000000;-0.085300;0.085300;-0.085300;1.000000
445606.31500156;5696575.28009899;473.03405001;0.203922;0.203922;0.211765;13364.000000;1.000000;1.000000;1.000000;1.000000;-0.049901;0.049901;-0.049901;1.000000
445606.20660217;5696575.23819931;473.07065012;0.117647;0.121569;0.117647;7710.000000;1.000000;1.000000;1.000000;1.000000;-0.091801;0.091801;-0.091801;1.000000
445606.04490097;5696575.36369904;473.02524998;0.2;0.211765;0.223529;13621.000000;1.000000;1.000000;1.000000;1.000000;0.033699;-0.033699;0.033699;1.000000
445606.49700172;5696575.16859921;472.96414997;0.341176;0.337255;0.27451;21588.000000;1.000000;1.000000;1.000000;1.000000;-0.161401;0.161401;-0.161401;1.000000
445606.41530140;5696575.17369946;472.97214987;0.337255;0.345098;0.313725;22102.000000;1.000000;1.000000;1.000000;1.000000;-0.156301;0.156301;-0.156301;1.000000
445605.98620136;5696575.15589912;473.06895020;0.12549;0.164706;0.12549;9509.000000;1.000000;1.000000;1.000000;1.000000;-0.174101;0.174101;-0.174101;1.000000
445606.33530148;5696575.31129940;473.00974991;0.168627;0.160784;0.180392;10794.000000;1.000000;1.000000;1.000000;1.000000;-0.018701;0.018701;-0.018701;1.000000
445605.95420177;5696575.27609928;473.04104998;0.396078;0.411765;0.407843;26471.000000;1.000000;1.000000;1.000000;1.000000;-0.053901;0.053901;-0.053901;1.000000
445606.44070156;5696575.15689953;472.99634983;0.0666667;0.0705882;0.0862745;4626.000000;1.000000;1.000000;1.000000;1.000000;-0.173100;0.173100;-0.173100;1.000000
445606.51260193;5696575.29979904;472.99434998;0.458824;0.454902;0.396078;29298.000000;1.000000;1.000000;1.000000;1.000000;-0.030201;0.030201;-0.030201;1.000000
445606.22060211;5696575.13879879;473.07235004;0.0941176;0.105882;0.0784314;6425.000000;1.000000;1.000000;1.000000;1.000000;-0.191201;0.191201;-0.191201;1.000000
445606.33640202;5696575.23379906;473.03214981;0.101961;0.109804;0.137255;7196.000000;1.000000;1.000000;1.000000;1.000000;-0.096201;0.096201;-0.096201;1.000000
445606.26580151;5696575.19539936;473.06815006;0.415686;0.443137;0.45098;28527.000000;1.000000;1.000000;1.000000;1.000000;-0.134992;0.134992;-0.134992;1.000000
445606.29650124;5696575.30749901;473.03354980;0.254902;0.25098;0.243137;16448.000000;1.000000;1.000000;1.000000;1.000000;-0.022501;0.022501;-0.022501;1.000000
445606.11230095;5696575.26389893;473.03634979;0.156863;0.160784;0.168627;10280.000000;1.000000;1.000000;1.000000;1.000000;-0.066101;0.066101;-0.066101;1.000000
445605.96880157;5696575.14579876;473.07044985;0.219608;0.25098;0.227451;15420.000000;1.000000;1.000000;1.000000;1.000000;-0.184201;0.184201;-0.184201;1.000000
445605.98160179;5696575.26659878;473.03515007;0.0745098;0.0862745;0.0862745;5397.000000;1.000000;1.000000;1.000000;1.000000;-0.063401;0.063401;-0.063401;1.000000
445606.11360176;5696575.30119904;473.03224995;0.129412;0.12549;0.129412;8224.000000;1.000000;1.000000;1.000000;1.000000;-0.028801;0.028801;-0.028801;1.000000
445605.93110092;5696575.14229877;473.06864979;0.521569;0.537255;0.521569;34695.000000;1.000000;1.000000;1.000000;1.000000;-0.187701;0.187701;-0.187701;1.000000
445605.99730118;5696575.33299931;473.03205015;0.121569;0.129412;0.105882;7967.000000;1.000000;1.000000;1.000000;1.000000;0.002999;-0.002999;0.002999;1.000000
445605.96200188;5696575.33149918;473.03504993;0.356863;0.368627;0.356863;23644.000000;1.000000;1.000000;1.000000;1.000000;0.001499;-0.001499;0.001499;1.000000
445605.99630173;5696575.37049873;473.03004982;0.0901961;0.0980392;0.101961;6168.000000;1.000000;1.000000;1.000000;1.000000;0.040499;-0.040499;0.040499;1.000000
445606.42720135;5696575.30029877;473.02304985;0.027451;0.0313725;0.0392157;1799.000000;1.000000;1.000000;1.000000;1.000000;-0.029701;0.029701;-0.029701;1.000000
445605.98060139;5696575.30419930;473.03324987;0.109804;0.121569;0.0941176;7453.000000;1.000000;1.000000;1.000000;1.000000;-0.025801;0.025801;-0.025801;1.000000
445606.12820156;5696575.33699902;473.04264977;0.27451;0.27451;0.223529;17476.000000;1.000000;1.000000;1.000000;1.000000;0.007123;-0.007123;0.007123;1.000000
445606.01470192;5696575.34309872;473.03055002;0.254902;0.266667;0.247059;16962.000000;1.000000;1.000000;1.000000;1.000000;0.013099;-0.013099;0.013099;1.000000
445606.10390099;5696575.27169903;473.03144981;0.133333;0.129412;0.133333;8481.000000;1.000000;1.000000;1.000000;1.000000;-0.058301;0.058301;-0.058301;1.000000
445605.99460133;5696575.23039921;473.03534986;0.0745098;0.0862745;0.0862745;5397.000000;1.000000;1.000000;1.000000;1.000000;-0.099601;0.099601;-0.099601;1.000000
445606.02990158;5696575.23179920;473.03464987;0.0941176;0.113725;0.129412;6939.000000;1.000000;1.000000;1.000000;1.000000;-0.098201;0.098201;-0.098201;1.000000
445606.17850121;5696575.23849876;473.07165005;0.0588235;0.0627451;0.0588235;3855.000000;1.000000;1.000000;1.000000;1.000000;-0.091501;0.091501;-0.091501;1.000000
445606.17970093;5696575.20099934;473.07124998;0.211765;0.207843;0.192157;13364.000000;1.000000;1.000000;1.000000;1.000000;-0.129001;0.129001;-0.129001;1.000000
445606.25600155;5696575.16819962;473.07434990;0.101961;0.117647;0.105882;7196.000000;1.000000;1.000000;1.000000;1.000000;-0.161853;0.161853;-0.161853;1.000000
445606.25960167;5696575.13049896;473.07175018;0.0941176;0.109804;0.101961;6682.000000;1.000000;1.000000;1.000000;1.000000;-0.199651;0.199651;-0.199651;1.000000
445606.23400124;5696575.24989899;473.05564978;0.121569;0.12549;0.117647;7967.000000;1.000000;1.000000;1.000000;1.000000;-0.080101;0.080101;-0.080101;1.000000
445606.40020187;5696575.24939926;472.99795010;0.054902;0.0627451;0.0588235;3855.000000;1.000000;1.000000;1.000000;1.000000;-0.080601;0.080601;-0.080601;1.000000
445606.44220169;5696575.17319878;472.99664976;0.152941;0.156863;0.14902;10023.000000;1.000000;1.000000;1.000000;1.000000;-0.156801;0.156801;-0.156801;1.000000
445606.21960171;5696575.20429905;473.07315018;0.14902;0.145098;0.137255;9509.000000;1.000000;1.000000;1.000000;1.000000;-0.125701;0.125701;-0.125701;1.000000
445606.40200146;5696575.13429935;473.03165009;0.313725;0.313725;0.333333;20560.000000;1.000000;1.000000;1.000000;1.000000;-0.195701;0.195701;-0.195701;1.000000
445606.43370159;5696575.15759953;472.99835016;0.145098;0.145098;0.145098;9509.000000;1.000000;1.000000;1.000000;1.000000;-0.172400;0.172400;-0.172400;1.000000
445605.99330147;5696575.23989876;473.03305008;0.054902;0.0666667;0.0627451;3855.000000;1.000000;1.000000;1.000000;1.000000;-0.090101;0.090101;-0.090101;1.000000
445605.94520195;5696575.25589951;473.04274990;0.501961;0.517647;0.513725;33410.000000;1.000000;1.000000;1.000000;1.000000;-0.074135;0.074135;-0.074135;1.000000
445606.32890137;5696575.20859917;473.04314997;0.356863;0.376471;0.403922;24415.000000;1.000000;1.000000;1.000000;1.000000;-0.121401;0.121401;-0.121401;1.000000
445606.29000195;5696575.24259956;473.04414989;0.545098;0.556863;0.568627;36237.000000;1.000000;1.000000;1.000000;1.000000;-0.087400;0.087400;-0.087400;1.000000
445606.06750114;5696575.23529919;473.03634979;0.113725;0.129412;0.133333;7967.000000;1.000000;1.000000;1.000000;1.000000;-0.094752;0.094752;-0.094752;1.000000
445606.29470165;5696575.13189896;473.07334997;0.270588;0.290196;0.305882;18504.000000;1.000000;1.000000;1.000000;1.000000;-0.198101;0.198101;-0.198101;1.000000
445605.94480141;5696575.27469929;473.04054977;0.498039;0.513725;0.513725;33153.000000;1.000000;1.000000;1.000000;1.000000;-0.055365;0.055365;-0.055365;1.000000
445606.40860184;5696575.30499943;472.97804977;0.0705882;0.0705882;0.0745098;4626.000000;1.000000;1.000000;1.000000;1.000000;-0.025001;0.025001;-0.025001;1.000000
445606.44940193;5696575.26849945;472.98175003;0.0901961;0.117647;0.0666667;6682.000000;1.000000;1.000000;1.000000;1.000000;-0.061501;0.061501;-0.061501;1.000000
445606.52360161;5696575.23589905;472.98014977;0.152941;0.152941;0.0980392;9509.000000;1.000000;1.000000;1.000000;1.000000;-0.094101;0.094101;-0.094101;1.000000
445606.28890141;5696575.28009899;473.04225018;0.486275;0.494118;0.482353;32125.000000;1.000000;1.000000;1.000000;1.000000;-0.049901;0.049901;-0.049901;1.000000
445605.95240219;5696575.30439957;473.03664972;0.403922;0.415686;0.407843;26728.000000;1.000000;1.000000;1.000000;1.000000;-0.025600;0.025600;-0.025600;1.000000
445606.36790188;5696575.17239960;473.03754999;0.0862745;0.0980392;0.129412;6168.000000;1.000000;1.000000;1.000000;1.000000;-0.158652;0.158652;-0.158652;1.000000
445606.44350155;5696575.13799961;472.99865009;0.0941176;0.101961;0.117647;6425.000000;1.000000;1.000000;1.000000;1.000000;-0.192000;0.192000;-0.192000;1.000000
445606.15050133;5696575.25539883;473.05195000;0.0862745;0.0901961;0.0941176;5654.000000;1.000000;1.000000;1.000000;1.000000;-0.074601;0.074601;-0.074601;1.000000
445606.37400158;5696575.22819908;473.01755001;0.101961;0.109804;0.117647;6939.000000;1.000000;1.000000;1.000000;1.000000;-0.102537;0.102537;-0.102537;1.000000
445606.52820118;5696575.15849884;472.97704985;0.380392;0.392157;0.333333;24929.000000;1.000000;1.000000;1.000000;1.000000;-0.171501;0.171501;-0.171501;1.000000
445606.15280159;5696575.18039902;473.05354979;0.113725;0.129412;0.121569;7967.000000;1.000000;1.000000;1.000000;1.000000;-0.149601;0.149601;-0.149601;1.000000
445606.42160137;5696575.16609867;472.97235014;0.290196;0.305882;0.262745;19275.000000;1.000000;1.000000;1.000000;1.000000;-0.163901;0.163901;-0.163901;1.000000
445606.44200142;5696575.21989925;472.99484970;0.0235294;0.0470588;0.0156863;2313.000000;1.000000;1.000000;1.000000;1.000000;-0.110101;0.110101;-0.110101;1.000000
445606.06810196;5696575.19539936;473.04524996;0.262745;0.290196;0.298039;18504.000000;1.000000;1.000000;1.000000;1.000000;-0.134652;0.134652;-0.134652;1.000000
445606.38010128;5696575.26289948;473.00425007;0.0666667;0.0666667;0.0784314;4369.000000;1.000000;1.000000;1.000000;1.000000;-0.067391;0.067391;-0.067391;1.000000
