//X;Y;Z;Rf;Gf;Bf;Intensity;Return Number;Number Of Returns;Scan Direction Flag;Point Source ID;C2M signed distances[-][<0.8];C2M signed distances[<0.4];C2M signed distances[-][<0.2];Stump116
298
445652.38640030;5696556.74859818;469.82725002;0.160784;0.176471;0.2;11308.000000;1.000000;1.000000;1.000000;1.000000;-0.184683;0.184683;-0.184683;1.000000
445652.23600204;5696556.78069885;469.86034991;0.784314;0.796078;0.752941;51400.000000;1.000000;1.000000;1.000000;1.000000;-0.046627;0.046627;-0.046627;1.000000
445652.23920258;5696556.76179894;469.85334994;0.839216;0.847059;0.803922;54998.000000;1.000000;1.000000;1.000000;1.000000;-0.049828;0.049828;-0.049828;1.000000
445652.19820221;5696556.28399857;469.87605001;0.321569;0.32549;0.301961;21074.000000;1.000000;1.000000;1.000000;1.000000;-0.046841;0.046841;-0.046841;1.000000
445652.18860062;5696556.23879822;469.84014990;0.490196;0.494118;0.462745;31868.000000;1.000000;1.000000;1.000000;1.000000;-0.091202;0.091202;-0.091202;1.000000
445652.26620300;5696556.74539955;469.84274985;0.447059;0.447059;0.443137;29041.000000;1.000000;1.000000;1.000000;1.000000;-0.076828;0.076828;-0.076828;1.000000
445652.35740097;5696556.58919914;469.88224985;0.0509804;0.0509804;0.0627451;3341.000000;1.000000;1.000000;1.000000;1.000000;-0.168026;0.168026;-0.168026;1.000000
445652.19270142;5696556.34089859;469.85784986;0.682353;0.678431;0.631373;43947.000000;1.000000;1.000000;1.000000;1.000000;0.011395;-0.011395;0.011395;1.000000
445652.31509979;5696556.62619980;469.85984995;0.0705882;0.0745098;0.0745098;4626.000000;1.000000;1.000000;1.000000;1.000000;-0.125725;0.125725;-0.125725;1.000000
445652.31470306;5696556.66160019;469.83694984;0.0470588;0.0509804;0.0627451;3341.000000;1.000000;1.000000;1.000000;1.000000;-0.125328;0.125328;-0.125328;1.000000
445652.23190125;5696556.62949951;469.84445002;0.0705882;0.0627451;0.0352941;3855.000000;1.000000;1.000000;1.000000;1.000000;-0.042526;0.042526;-0.042526;1.000000
445652.28750046;5696556.71339996;469.82235004;0.160784;0.164706;0.164706;10537.000000;1.000000;1.000000;1.000000;1.000000;-0.098125;0.098125;-0.098125;1.000000
445652.28009995;5696556.60589798;469.86734988;0.141176;0.141176;0.0784314;8738.000000;1.000000;1.000000;1.000000;1.000000;-0.090725;0.090725;-0.090725;1.000000
445652.27120026;5696556.64919861;469.84414985;0.0627451;0.0588235;0.0470588;3598.000000;1.000000;1.000000;1.000000;1.000000;-0.081825;0.081825;-0.081825;1.000000
445652.38520248;5696556.58879860;469.88815000;0.0784314;0.0862745;0.101961;5397.000000;1.000000;1.000000;1.000000;1.000000;-0.195827;0.195827;-0.195827;1.000000
445652.33250244;5696556.71859940;469.81974985;0.305882;0.313725;0.337255;20560.000000;1.000000;1.000000;1.000000;1.000000;-0.143127;0.143127;-0.143127;1.000000
445652.26889999;5696556.66829880;469.83025004;0.0156863;0.0117647;0.0156863;771.000000;1.000000;1.000000;1.000000;1.000000;-0.079525;0.079525;-0.079525;1.000000
445652.35090073;5696556.69119843;469.82264997;0.184314;0.184314;0.188235;12079.000000;1.000000;1.000000;1.000000;1.000000;-0.161526;0.161526;-0.161526;1.000000
445652.31420334;5696556.72489937;469.82364990;0.254902;0.262745;0.278431;16962.000000;1.000000;1.000000;1.000000;1.000000;-0.124828;0.124828;-0.124828;1.000000
445652.38580139;5696556.74159821;469.82714989;0.14902;0.164706;0.184314;10537.000000;1.000000;1.000000;1.000000;1.000000;-0.187345;0.187345;-0.187345;1.000000
445652.34160049;5696556.74569901;469.82984998;0.247059;0.247059;0.262745;16191.000000;1.000000;1.000000;1.000000;1.000000;-0.147451;0.147451;-0.147451;1.000000
445652.19429977;5696556.22879990;469.84725000;0.439216;0.447059;0.423529;28784.000000;1.000000;1.000000;1.000000;1.000000;-0.101320;0.101320;-0.101320;1.000000
445652.38300140;5696556.64579971;469.84684994;0.0627451;0.0666667;0.0784314;4369.000000;1.000000;1.000000;1.000000;1.000000;-0.193626;0.193626;-0.193626;1.000000
445652.22580154;5696556.61819847;469.85334994;0.109804;0.105882;0.0705882;6682.000000;1.000000;1.000000;1.000000;1.000000;-0.036427;0.036427;-0.036427;1.000000
445652.37140091;5696556.62799843;469.86004998;0.0470588;0.0470588;0.0627451;3084.000000;1.000000;1.000000;1.000000;1.000000;-0.182026;0.182026;-0.182026;1.000000
445652.33630188;5696556.62889870;469.86074998;0.0901961;0.0941176;0.101961;5911.000000;1.000000;1.000000;1.000000;1.000000;-0.146927;0.146927;-0.146927;1.000000
445652.29870041;5696556.62539871;469.85905005;0.0980392;0.0941176;0.0745098;5911.000000;1.000000;1.000000;1.000000;1.000000;-0.109325;0.109325;-0.109325;1.000000
445652.26270111;5696556.59579857;469.87104990;0.207843;0.203922;0.113725;12593.000000;1.000000;1.000000;1.000000;1.000000;-0.073326;0.073326;-0.073326;1.000000
445652.23370178;5696556.60569962;469.86054995;0.266667;0.258824;0.156863;16191.000000;1.000000;1.000000;1.000000;1.000000;-0.044327;0.044327;-0.044327;1.000000
445652.29520233;5696556.72429855;469.82974984;0.14902;0.14902;0.160784;9766.000000;1.000000;1.000000;1.000000;1.000000;-0.105827;0.105827;-0.105827;1.000000
445652.30760010;5696556.67879875;469.82285001;0.0509804;0.0588235;0.0627451;3598.000000;1.000000;1.000000;1.000000;1.000000;-0.118225;0.118225;-0.118225;1.000000
445652.21809967;5696556.54619797;469.87544991;0.176471;0.180392;0.141176;11308.000000;1.000000;1.000000;1.000000;1.000000;-0.028725;0.028725;-0.028725;1.000000
445652.32730301;5696556.58969887;469.87625005;0.0352941;0.0392157;0.0392157;2313.000000;1.000000;1.000000;1.000000;1.000000;-0.137928;0.137928;-0.137928;1.000000
445652.29210098;5696556.58829887;469.87695004;0.121569;0.121569;0.0745098;7453.000000;1.000000;1.000000;1.000000;1.000000;-0.102726;0.102726;-0.102726;1.000000
445652.22610291;5696556.55709847;469.87594988;0.192157;0.196078;0.137255;12336.000000;1.000000;1.000000;1.000000;1.000000;-0.036728;0.036728;-0.036728;1.000000
445652.28339966;5696556.75549896;469.84594991;0.486275;0.494118;0.494118;32125.000000;1.000000;1.000000;1.000000;1.000000;-0.094025;0.094025;-0.094025;1.000000
445652.24790009;5696556.75169952;469.84664990;0.87451;0.87451;0.843137;57054.000000;1.000000;1.000000;1.000000;1.000000;-0.058525;0.058525;-0.058525;1.000000
445652.18780334;5696556.25749977;469.84504988;0.2;0.2;0.164706;12850.000000;1.000000;1.000000;1.000000;1.000000;-0.072500;0.072500;-0.072500;1.000000
445652.30590256;5696556.66479881;469.83194997;0.054902;0.0588235;0.0588235;3598.000000;1.000000;1.000000;1.000000;1.000000;-0.116528;0.116528;-0.116528;1.000000
445652.29570206;5696556.69869812;469.81784989;0.172549;0.176471;0.184314;11308.000000;1.000000;1.000000;1.000000;1.000000;-0.106327;0.106327;-0.106327;1.000000
445652.19580276;5696556.35899933;469.87684991;0.756863;0.756863;0.690196;49087.000000;1.000000;1.000000;1.000000;1.000000;0.029703;-0.029703;0.029703;1.000000
445652.25130280;5696556.65819939;469.83634998;0.0235294;0.0196078;0.0156863;1285.000000;1.000000;1.000000;1.000000;1.000000;-0.061928;0.061928;-0.061928;1.000000
445652.32629974;5696556.66049965;469.83745005;0.0705882;0.0745098;0.0901961;4883.000000;1.000000;1.000000;1.000000;1.000000;-0.136925;0.136925;-0.136925;1.000000
445652.28910263;5696556.66169937;469.83574988;0.0392157;0.0392157;0.0392157;2313.000000;1.000000;1.000000;1.000000;1.000000;-0.099728;0.099728;-0.099728;1.000000
445652.32040222;5696556.77319916;469.83854987;0.505882;0.521569;0.545098;33924.000000;1.000000;1.000000;1.000000;1.000000;-0.114812;0.114812;-0.114812;1.000000
445652.35510071;5696556.62940033;469.86165001;0.0666667;0.0705882;0.0862745;4626.000000;1.000000;1.000000;1.000000;1.000000;-0.165726;0.165726;-0.165726;1.000000
445652.28540237;5696556.71819885;469.82694985;0.117647;0.109804;0.117647;7196.000000;1.000000;1.000000;1.000000;1.000000;-0.096027;0.096027;-0.096027;1.000000
445652.28620346;5696556.72970016;469.83414986;0.121569;0.121569;0.133333;7967.000000;1.000000;1.000000;1.000000;1.000000;-0.096828;0.096828;-0.096828;1.000000
445652.19970139;5696556.27449997;469.87605001;0.439216;0.443137;0.423529;28784.000000;1.000000;1.000000;1.000000;1.000000;-0.056453;0.056453;-0.056453;1.000000
445652.31460007;5696556.67819984;469.82314994;0.0313725;0.0392157;0.0470588;2313.000000;1.000000;1.000000;1.000000;1.000000;-0.125225;0.125225;-0.125225;1.000000
445652.21570023;5696556.59089859;469.86424996;0.427451;0.427451;0.356863;27499.000000;1.000000;1.000000;1.000000;1.000000;-0.026325;0.026325;-0.026325;1.000000
445652.35820206;5696556.74879845;469.83064987;0.239216;0.25098;0.270588;16191.000000;1.000000;1.000000;1.000000;1.000000;-0.159753;0.159753;-0.159753;1.000000
445652.23950012;5696556.67809875;469.82904984;0.0431373;0.0352941;0.0313725;2313.000000;1.000000;1.000000;1.000000;1.000000;-0.050125;0.050125;-0.050125;1.000000
445652.34539993;5696556.64459808;469.84745004;0.101961;0.105882;0.117647;6939.000000;1.000000;1.000000;1.000000;1.000000;-0.156025;0.156025;-0.156025;1.000000
445652.29400070;5696556.77079971;469.84894993;0.611765;0.627451;0.631373;40606.000000;1.000000;1.000000;1.000000;1.000000;-0.094280;0.094280;-0.094280;1.000000
445652.39590271;5696556.74999817;469.82764985;0.180392;0.192157;0.211765;12336.000000;1.000000;1.000000;1.000000;1.000000;-0.192672;0.192672;-0.192672;1.000000
445652.18940170;5696556.30159958;469.84795000;0.113725;0.109804;0.0901961;6939.000000;1.000000;1.000000;1.000000;1.000000;-0.028400;0.028400;-0.028400;1.000000
445652.25460251;5696556.56600006;469.88434984;0.211765;0.211765;0.105882;13107.000000;1.000000;1.000000;1.000000;1.000000;-0.065228;0.065228;-0.065228;1.000000
445652.32750137;5696556.57089813;469.88535001;0.0941176;0.0980392;0.0862745;6168.000000;1.000000;1.000000;1.000000;1.000000;-0.138126;0.138126;-0.138126;1.000000
445652.29230316;5696556.56949814;469.88605000;0.133333;0.133333;0.0901961;8224.000000;1.000000;1.000000;1.000000;1.000000;-0.102928;0.102928;-0.102928;1.000000
445652.32560165;5696556.67249878;469.82585003;0.0509804;0.0627451;0.0705882;3855.000000;1.000000;1.000000;1.000000;1.000000;-0.136227;0.136227;-0.136227;1.000000
445652.23880203;5696556.72249802;469.83184983;0.203922;0.2;0.168627;12850.000000;1.000000;1.000000;1.000000;1.000000;-0.049427;0.049427;-0.049427;1.000000
445652.34959991;5696556.72859962;469.82534983;0.192157;0.196078;0.211765;12850.000000;1.000000;1.000000;1.000000;1.000000;-0.160225;0.160225;-0.160225;1.000000
445652.38830002;5696556.69240006;469.82434990;0.0941176;0.101961;0.117647;6425.000000;1.000000;1.000000;1.000000;1.000000;-0.198925;0.198925;-0.198925;1.000000
445652.31830032;5696556.61409958;469.86675002;0.0666667;0.0666667;0.0666667;4369.000000;1.000000;1.000000;1.000000;1.000000;-0.128925;0.128925;-0.128925;1.000000
445652.27130325;5696556.63029869;469.85325005;0.160784;0.152941;0.113725;9766.000000;1.000000;1.000000;1.000000;1.000000;-0.081928;0.081928;-0.081928;1.000000
445652.25510223;5696556.75339897;469.84694983;0.796078;0.796078;0.776471;51914.000000;1.000000;1.000000;1.000000;1.000000;-0.065727;0.065727;-0.065727;1.000000
445652.19190033;5696556.28259857;469.85714986;0.156863;0.152941;0.129412;9766.000000;1.000000;1.000000;1.000000;1.000000;-0.047469;0.047469;-0.047469;1.000000
445652.25170334;5696556.64159973;469.84544994;0.0588235;0.0509804;0.0235294;3084.000000;1.000000;1.000000;1.000000;1.000000;-0.062328;0.062328;-0.062328;1.000000
445652.19740112;5696556.34949883;469.87444999;0.741176;0.737255;0.682353;47802.000000;1.000000;1.000000;1.000000;1.000000;0.021086;-0.021086;0.021086;1.000000
445652.36410339;5696556.64519890;469.84824993;0.0745098;0.0784314;0.0941176;5140.000000;1.000000;1.000000;1.000000;1.000000;-0.174728;0.174728;-0.174728;1.000000
445652.32660110;5696556.64399918;469.84885003;0.0784314;0.0823529;0.0901961;5140.000000;1.000000;1.000000;1.000000;1.000000;-0.137226;0.137226;-0.137226;1.000000
445652.34119995;5696556.71079834;469.81775000;0.290196;0.301961;0.309804;19532.000000;1.000000;1.000000;1.000000;1.000000;-0.151825;0.151825;-0.151825;1.000000
445652.37260254;5696556.65619858;469.83944990;0.0823529;0.0862745;0.101961;5654.000000;1.000000;1.000000;1.000000;1.000000;-0.183228;0.183228;-0.183228;1.000000
445652.24770172;5696556.77960022;469.85854985;0.756863;0.772549;0.733333;49858.000000;1.000000;1.000000;1.000000;1.000000;-0.057213;0.057213;-0.057213;1.000000
445652.26210220;5696556.63119896;469.85284998;0.168627;0.160784;0.113725;10280.000000;1.000000;1.000000;1.000000;1.000000;-0.072727;0.072727;-0.072727;1.000000
445652.33469971;5696556.63379868;469.85614993;0.0823529;0.0862745;0.0980392;5654.000000;1.000000;1.000000;1.000000;1.000000;-0.145325;0.145325;-0.145325;1.000000
445652.33680161;5696556.59119995;469.87664988;0.054902;0.0588235;0.054902;3598.000000;1.000000;1.000000;1.000000;1.000000;-0.147427;0.147427;-0.147427;1.000000
445652.30160339;5696556.58979996;469.87734987;0.113725;0.113725;0.0823529;7196.000000;1.000000;1.000000;1.000000;1.000000;-0.112228;0.112228;-0.112228;1.000000
445652.35570343;5696556.63410004;469.85704996;0.0823529;0.0823529;0.0980392;5397.000000;1.000000;1.000000;1.000000;1.000000;-0.166328;0.166328;-0.166328;1.000000
445652.34399994;5696556.65180023;469.84274985;0.0941176;0.0980392;0.109804;6425.000000;1.000000;1.000000;1.000000;1.000000;-0.154625;0.154625;-0.154625;1.000000
445652.33060272;5696556.75589951;469.83644988;0.203922;0.211765;0.231373;13621.000000;1.000000;1.000000;1.000000;1.000000;-0.132612;0.132612;-0.132612;1.000000
445652.31710251;5696556.62359818;469.86214997;0.0627451;0.0627451;0.0705882;4112.000000;1.000000;1.000000;1.000000;1.000000;-0.127728;0.127728;-0.127728;1.000000
445652.30669983;5696556.63399895;469.85484983;0.0745098;0.0705882;0.0666667;4626.000000;1.000000;1.000000;1.000000;1.000000;-0.117325;0.117325;-0.117325;1.000000
445652.31460007;5696556.69940002;469.81404998;0.188235;0.203922;0.219608;13107.000000;1.000000;1.000000;1.000000;1.000000;-0.125225;0.125225;-0.125225;1.000000
445652.18440063;5696556.21819885;469.83745005;0.482353;0.490196;0.462745;31611.000000;1.000000;1.000000;1.000000;1.000000;-0.111801;0.111801;-0.111801;1.000000
445652.20010193;5696556.24899872;469.86644985;0.352941;0.356863;0.341176;23130.000000;1.000000;1.000000;1.000000;1.000000;-0.081708;0.081708;-0.081708;1.000000
445652.28210266;5696556.60339935;469.86964991;0.141176;0.141176;0.0823529;8738.000000;1.000000;1.000000;1.000000;1.000000;-0.092728;0.092728;-0.092728;1.000000
445652.20370300;5696556.19240006;469.87524988;0.364706;0.380392;0.364706;24415.000000;1.000000;1.000000;1.000000;1.000000;-0.138344;0.138344;-0.138344;1.000000
445652.28910263;5696556.64279945;469.84714987;0.0862745;0.0823529;0.0705882;5140.000000;1.000000;1.000000;1.000000;1.000000;-0.099728;0.099728;-0.099728;1.000000
445652.20250137;5696556.22989853;469.87564995;0.423529;0.431373;0.423529;28013.000000;1.000000;1.000000;1.000000;1.000000;-0.100958;0.100958;-0.100958;1.000000
445652.23750122;5696556.55589874;469.88104989;0.164706;0.164706;0.101961;10280.000000;1.000000;1.000000;1.000000;1.000000;-0.048126;0.048126;-0.048126;1.000000
445652.26360138;5696556.58389862;469.87794997;0.219608;0.215686;0.117647;13364.000000;1.000000;1.000000;1.000000;1.000000;-0.074226;0.074226;-0.074226;1.000000
445652.23530014;5696556.61969955;469.85375001;0.121569;0.117647;0.0705882;7196.000000;1.000000;1.000000;1.000000;1.000000;-0.045925;0.045925;-0.045925;1.000000
445652.26570328;5696556.77099808;469.85465004;0.760784;0.768627;0.752941;49858.000000;1.000000;1.000000;1.000000;1.000000;-0.074251;0.074251;-0.074251;1.000000
445652.24740036;5696556.74479874;469.84414985;0.721569;0.721569;0.694118;47031.000000;1.000000;1.000000;1.000000;1.000000;-0.058025;0.058025;-0.058025;1.000000
445652.19050034;5696556.26409920;469.84984996;0.168627;0.168627;0.141176;10794.000000;1.000000;1.000000;1.000000;1.000000;-0.065910;0.065910;-0.065910;1.000000
445652.28100021;5696556.61289795;469.86274983;0.141176;0.133333;0.0823529;8481.000000;1.000000;1.000000;1.000000;1.000000;-0.091625;0.091625;-0.091625;1.000000
445652.35610016;5696556.61759956;469.86625006;0.0509804;0.0509804;0.0588235;3341.000000;1.000000;1.000000;1.000000;1.000000;-0.166725;0.166725;-0.166725;1.000000
445652.24040039;5696556.68729980;469.82684996;0.0392157;0.0313725;0.027451;2056.000000;1.000000;1.000000;1.000000;1.000000;-0.051025;0.051025;-0.051025;1.000000
445652.32890137;5696556.62479980;469.86274983;0.0509804;0.0588235;0.0666667;3598.000000;1.000000;1.000000;1.000000;1.000000;-0.139526;0.139526;-0.139526;1.000000
445652.37590225;5696556.58969887;469.88774993;0.0666667;0.0745098;0.0823529;4626.000000;1.000000;1.000000;1.000000;1.000000;-0.186527;0.186527;-0.186527;1.000000
445652.28000076;5696556.62479980;469.85824992;0.121569;0.121569;0.0823529;7453.000000;1.000000;1.000000;1.000000;1.000000;-0.090626;0.090626;-0.090626;1.000000
445652.24979980;5696556.68649872;469.82495000;0.0235294;0.0196078;0.0235294;1285.000000;1.000000;1.000000;1.000000;1.000000;-0.060425;0.060425;-0.060425;1.000000
445652.36010178;5696556.69029816;469.82305004;0.0980392;0.109804;0.12549;6939.000000;1.000000;1.000000;1.000000;1.000000;-0.170727;0.170727;-0.170727;1.000000
445652.19370087;5696556.24749954;469.84745004;0.317647;0.321569;0.294118;20560.000000;1.000000;1.000000;1.000000;1.000000;-0.082614;0.082614;-0.082614;1.000000
445652.20930298;5696556.52820023;469.87714984;0.145098;0.145098;0.0862745;8995.000000;1.000000;1.000000;1.000000;1.000000;-0.019928;0.019928;-0.019928;1.000000
445652.29720123;5696556.67039879;469.82924988;0.0509804;0.054902;0.054902;3341.000000;1.000000;1.000000;1.000000;1.000000;-0.107826;0.107826;-0.107826;1.000000
445652.37710007;5696556.74939926;469.82914998;0.207843;0.219608;0.243137;14135.000000;1.000000;1.000000;1.000000;1.000000;-0.176014;0.176014;-0.176014;1.000000
445652.23640259;5696556.56779869;469.87654998;0.203922;0.203922;0.117647;12593.000000;1.000000;1.000000;1.000000;1.000000;-0.047028;0.047028;-0.047028;1.000000
445652.38530167;5696556.60779961;469.87204983;0.054902;0.0627451;0.0705882;3855.000000;1.000000;1.000000;1.000000;1.000000;-0.195927;0.195927;-0.195927;1.000000
445652.25440033;5696556.58479889;469.87524988;0.196078;0.2;0.101961;12079.000000;1.000000;1.000000;1.000000;1.000000;-0.065025;0.065025;-0.065025;1.000000
445652.34180267;5696556.69209869;469.81754996;0.152941;0.156863;0.164706;10023.000000;1.000000;1.000000;1.000000;1.000000;-0.152428;0.152428;-0.152428;1.000000
445652.34410294;5696556.63519867;469.85655000;0.101961;0.105882;0.113725;6682.000000;1.000000;1.000000;1.000000;1.000000;-0.154728;0.154728;-0.154728;1.000000
445652.26140030;5696556.60529907;469.86644985;0.188235;0.184314;0.105882;11565.000000;1.000000;1.000000;1.000000;1.000000;-0.072025;0.072025;-0.072025;1.000000
445652.22620209;5696556.60169800;469.86244990;0.25098;0.243137;0.168627;15420.000000;1.000000;1.000000;1.000000;1.000000;-0.036827;0.036827;-0.036827;1.000000
445652.37400253;5696556.61119850;469.87165000;0.0392157;0.0431373;0.0509804;2570.000000;1.000000;1.000000;1.000000;1.000000;-0.184628;0.184628;-0.184628;1.000000
445652.34020050;5696556.75739868;469.83454992;0.180392;0.188235;0.215686;12336.000000;1.000000;1.000000;1.000000;1.000000;-0.139890;0.139890;-0.139890;1.000000
445652.31180008;5696556.75529869;469.83795001;0.247059;0.25098;0.266667;16448.000000;1.000000;1.000000;1.000000;1.000000;-0.117869;0.117869;-0.117869;1.000000
445652.27530106;5696556.70759972;469.82174994;0.109804;0.109804;0.105882;6939.000000;1.000000;1.000000;1.000000;1.000000;-0.085926;0.085926;-0.085926;1.000000
445652.36420258;5696556.60739906;469.87345006;0.0470588;0.0470588;0.054902;3084.000000;1.000000;1.000000;1.000000;1.000000;-0.174828;0.174828;-0.174828;1.000000
445652.20460327;5696556.20170029;469.87535002;0.384314;0.396078;0.384314;25443.000000;1.000000;1.000000;1.000000;1.000000;-0.129200;0.129200;-0.129200;1.000000
445652.23900040;5696556.69679840;469.82694985;0.0470588;0.0431373;0.0352941;2827.000000;1.000000;1.000000;1.000000;1.000000;-0.049625;0.049625;-0.049625;1.000000
445652.19300278;5696556.34779938;469.86494996;0.729412;0.733333;0.670588;47288.000000;1.000000;1.000000;1.000000;1.000000;0.018165;-0.018165;0.018165;1.000000
445652.20269974;5696556.20199974;469.86594989;0.45098;0.466667;0.454902;30069.000000;1.000000;1.000000;1.000000;1.000000;-0.128692;0.128692;-0.128692;1.000000
445652.34300049;5696556.66369827;469.83585002;0.0823529;0.0862745;0.101961;5654.000000;1.000000;1.000000;1.000000;1.000000;-0.153625;0.153625;-0.153625;1.000000
445652.20030029;5696556.33059891;469.87434985;0.682353;0.678431;0.643137;44204.000000;1.000000;1.000000;1.000000;1.000000;0.010942;-0.010942;0.010942;1.000000
445652.18920334;5696556.24569901;469.84025003;0.4;0.4;0.364706;25957.000000;1.000000;1.000000;1.000000;1.000000;-0.084301;0.084301;-0.084301;1.000000
445652.36150177;5696556.66189964;469.83675005;0.0901961;0.0941176;0.105882;6168.000000;1.000000;1.000000;1.000000;1.000000;-0.172127;0.172127;-0.172127;1.000000
445652.26030167;5696556.61489876;469.85955002;0.2;0.192157;0.117647;12079.000000;1.000000;1.000000;1.000000;1.000000;-0.070927;0.070927;-0.070927;1.000000
445652.23719986;5696556.57479866;469.87434985;0.14902;0.152941;0.0823529;9252.000000;1.000000;1.000000;1.000000;1.000000;-0.047825;0.047825;-0.047825;1.000000
445652.31010254;5696556.58189972;469.88004996;0.0941176;0.0980392;0.0745098;6168.000000;1.000000;1.000000;1.000000;1.000000;-0.120728;0.120728;-0.120728;1.000000
445652.30420120;5696556.71659859;469.82075002;0.239216;0.243137;0.258824;15934.000000;1.000000;1.000000;1.000000;1.000000;-0.114826;0.114826;-0.114826;1.000000
445652.24750336;5696556.71469887;469.82984998;0.054902;0.0470588;0.0352941;3084.000000;1.000000;1.000000;1.000000;1.000000;-0.058128;0.058128;-0.058128;1.000000
445652.32700165;5696556.60859879;469.86944987;0.0470588;0.0470588;0.0470588;3084.000000;1.000000;1.000000;1.000000;1.000000;-0.137627;0.137627;-0.137627;1.000000
445652.36530121;5696556.59779938;469.88034989;0.0470588;0.0470588;0.0588235;3084.000000;1.000000;1.000000;1.000000;1.000000;-0.175926;0.175926;-0.175926;1.000000
445652.30220230;5696556.75379951;469.83974983;0.278431;0.286275;0.298039;18504.000000;1.000000;1.000000;1.000000;1.000000;-0.111631;0.111631;-0.111631;1.000000
445652.27449997;5696556.69829948;469.81924989;0.117647;0.117647;0.109804;7453.000000;1.000000;1.000000;1.000000;1.000000;-0.085125;0.085125;-0.085125;1.000000
445652.19230087;5696556.25699814;469.84754993;0.219608;0.219608;0.192157;14135.000000;1.000000;1.000000;1.000000;1.000000;-0.073060;0.073060;-0.073060;1.000000
445652.24220093;5696556.64019974;469.84504988;0.0627451;0.0509804;0.0235294;3341.000000;1.000000;1.000000;1.000000;1.000000;-0.052826;0.052826;-0.052826;1.000000
445652.29960068;5696556.61349876;469.86594989;0.105882;0.101961;0.0784314;6425.000000;1.000000;1.000000;1.000000;1.000000;-0.110226;0.110226;-0.110226;1.000000
445652.22310074;5696556.63270004;469.83944990;0.137255;0.129412;0.101961;8224.000000;1.000000;1.000000;1.000000;1.000000;-0.033726;0.033726;-0.033726;1.000000
445652.33749969;5696556.59819992;469.87444999;0.0470588;0.0470588;0.0509804;3084.000000;1.000000;1.000000;1.000000;1.000000;-0.148125;0.148125;-0.148125;1.000000
445652.19780167;5696556.30509956;469.87634995;0.231373;0.227451;0.196078;14649.000000;1.000000;1.000000;1.000000;1.000000;-0.026288;0.026288;-0.026288;1.000000
445652.21770294;5696556.56489952;469.87095000;0.258824;0.258824;0.176471;16191.000000;1.000000;1.000000;1.000000;1.000000;-0.028328;0.028328;-0.028328;1.000000
445652.32130249;5696556.75679977;469.83605005;0.235294;0.243137;0.258824;15677.000000;1.000000;1.000000;1.000000;1.000000;-0.124476;0.124476;-0.124476;1.000000
445652.22930344;5696556.54500015;469.88294985;0.176471;0.176471;0.121569;11051.000000;1.000000;1.000000;1.000000;1.000000;-0.039928;0.039928;-0.039928;1.000000
445652.18860062;5696556.19199951;469.84655001;0.584314;0.596078;0.576471;38550.000000;1.000000;1.000000;1.000000;1.000000;-0.138000;0.138000;-0.138000;1.000000
445652.18990143;5696556.22929962;469.84244992;0.470588;0.478431;0.45098;30840.000000;1.000000;1.000000;1.000000;1.000000;-0.100702;0.100702;-0.100702;1.000000
445652.26930054;5696556.65180023;469.83944990;0.0392157;0.0352941;0.027451;2313.000000;1.000000;1.000000;1.000000;1.000000;-0.079926;0.079926;-0.079926;1.000000
445652.34449966;5696556.65649994;469.84054996;0.0901961;0.0980392;0.105882;6168.000000;1.000000;1.000000;1.000000;1.000000;-0.155125;0.155125;-0.155125;1.000000
445652.26720245;5696556.72679909;469.83325006;0.121569;0.121569;0.109804;7710.000000;1.000000;1.000000;1.000000;1.000000;-0.077827;0.077827;-0.077827;1.000000
445652.33860214;5696556.76679810;469.83694984;0.215686;0.227451;0.258824;14649.000000;1.000000;1.000000;1.000000;1.000000;-0.133840;0.133840;-0.133840;1.000000
445652.23740204;5696556.73419960;469.83664991;0.490196;0.486275;0.45098;31611.000000;1.000000;1.000000;1.000000;1.000000;-0.048027;0.048027;-0.048027;1.000000
445652.22710236;5696556.56639870;469.87374999;0.247059;0.247059;0.156863;15420.000000;1.000000;1.000000;1.000000;1.000000;-0.037727;0.037727;-0.037727;1.000000
445652.31300171;5696556.70879944;469.81644990;0.329412;0.337255;0.356863;21845.000000;1.000000;1.000000;1.000000;1.000000;-0.123627;0.123627;-0.123627;1.000000
445652.37370117;5696556.60890015;469.87154986;0.0470588;0.0470588;0.054902;3084.000000;1.000000;1.000000;1.000000;1.000000;-0.184326;0.184326;-0.184326;1.000000
445652.26090057;5696556.65959938;469.83445003;0.0156863;0.0117647;0.0117647;771.000000;1.000000;1.000000;1.000000;1.000000;-0.071526;0.071526;-0.071526;1.000000
445652.33350189;5696556.66219910;469.83774998;0.0823529;0.0823529;0.0980392;5397.000000;1.000000;1.000000;1.000000;1.000000;-0.144127;0.144127;-0.144127;1.000000
445652.31100281;5696556.77400024;469.84274985;0.560784;0.576471;0.6;37522.000000;1.000000;1.000000;1.000000;1.000000;-0.106321;0.106321;-0.106321;1.000000
445652.29600342;5696556.66099937;469.83605005;0.0392157;0.0392157;0.0431373;2570.000000;1.000000;1.000000;1.000000;1.000000;-0.106628;0.106628;-0.106628;1.000000
445652.34110077;5696556.73869904;469.82734992;0.164706;0.168627;0.188235;11051.000000;1.000000;1.000000;1.000000;1.000000;-0.151163;0.151163;-0.151163;1.000000
445652.37860306;5696556.73989876;469.82675006;0.172549;0.184314;0.207843;11822.000000;1.000000;1.000000;1.000000;1.000000;-0.181866;0.181866;-0.181866;1.000000
445652.19700058;5696556.26560028;469.86414983;0.415686;0.419608;0.4;27242.000000;1.000000;1.000000;1.000000;1.000000;-0.064850;0.064850;-0.064850;1.000000
445652.36050232;5696556.72059830;469.82574989;0.133333;0.137255;0.152941;8995.000000;1.000000;1.000000;1.000000;1.000000;-0.171127;0.171127;-0.171127;1.000000
445652.27390106;5696556.75399979;469.84544994;0.52549;0.529412;0.533333;34438.000000;1.000000;1.000000;1.000000;1.000000;-0.084526;0.084526;-0.084526;1.000000
445652.23870285;5696556.75259979;469.84624984;0.886275;0.882353;0.843137;57568.000000;1.000000;1.000000;1.000000;1.000000;-0.049328;0.049328;-0.049328;1.000000
445652.31369980;5696556.71799858;469.82124998;0.270588;0.278431;0.298039;17990.000000;1.000000;1.000000;1.000000;1.000000;-0.124325;0.124325;-0.124325;1.000000
445652.31870087;5696556.59529884;469.87124993;0.0392157;0.0431373;0.0352941;2570.000000;1.000000;1.000000;1.000000;1.000000;-0.129326;0.129326;-0.129326;1.000000
445652.25410278;5696556.77199944;469.85644986;0.803922;0.811765;0.788235;52685.000000;1.000000;1.000000;1.000000;1.000000;-0.064728;0.064728;-0.064728;1.000000
445652.19250305;5696556.31289871;469.85515000;0.176471;0.176471;0.152941;11308.000000;1.000000;1.000000;1.000000;1.000000;-0.017385;0.017385;-0.017385;1.000000
445652.19600113;5696556.20049866;469.85634996;0.588235;0.6;0.584314;38807.000000;1.000000;1.000000;1.000000;1.000000;-0.129671;0.129671;-0.129671;1.000000
445652.38200195;5696556.65769966;469.83994987;0.0745098;0.0823529;0.0941176;5140.000000;1.000000;1.000000;1.000000;1.000000;-0.192627;0.192627;-0.192627;1.000000
445652.29760178;5696556.65379913;469.83834984;0.0509804;0.0509804;0.0470588;3084.000000;1.000000;1.000000;1.000000;1.000000;-0.108227;0.108227;-0.108227;1.000000
445652.24550064;5696556.56690033;469.88154985;0.172549;0.172549;0.0862745;10537.000000;1.000000;1.000000;1.000000;1.000000;-0.056126;0.056126;-0.056126;1.000000
445652.32060059;5696556.57149895;469.88504984;0.109804;0.113725;0.0941176;7196.000000;1.000000;1.000000;1.000000;1.000000;-0.131226;0.131226;-0.131226;1.000000
445652.28280075;5696556.56799896;469.88564994;0.164706;0.164706;0.105882;10280.000000;1.000000;1.000000;1.000000;1.000000;-0.093426;0.093426;-0.093426;1.000000
445652.19940002;5696556.19069870;469.86334993;0.47451;0.486275;0.47451;31354.000000;1.000000;1.000000;1.000000;1.000000;-0.139662;0.139662;-0.139662;1.000000
445652.29590042;5696556.67989929;469.82464983;0.0431373;0.0470588;0.054902;2827.000000;1.000000;1.000000;1.000000;1.000000;-0.106525;0.106525;-0.106525;1.000000
445652.26050003;5696556.67619904;469.82534983;0.0313725;0.027451;0.0313725;1799.000000;1.000000;1.000000;1.000000;1.000000;-0.071125;0.071125;-0.071125;1.000000
445652.37110336;5696556.68459900;469.82574989;0.0666667;0.0705882;0.0823529;4626.000000;1.000000;1.000000;1.000000;1.000000;-0.181728;0.181728;-0.181728;1.000000
445652.36960037;5696556.69179924;469.82344987;0.0588235;0.0705882;0.0941176;4369.000000;1.000000;1.000000;1.000000;1.000000;-0.180225;0.180225;-0.180225;1.000000
445652.31730087;5696556.64480026;469.84844996;0.0705882;0.0705882;0.0745098;4626.000000;1.000000;1.000000;1.000000;1.000000;-0.127926;0.127926;-0.127926;1.000000
445652.24730118;5696556.74249847;469.84185006;0.619608;0.615686;0.592157;40092.000000;1.000000;1.000000;1.000000;1.000000;-0.057926;0.057926;-0.057926;1.000000
445652.32290085;5696556.74729927;469.83364989;0.113725;0.121569;0.14902;7967.000000;1.000000;1.000000;1.000000;1.000000;-0.131529;0.131529;-0.131529;1.000000
445652.26710327;5696556.72449883;469.83084991;0.0941176;0.0901961;0.0823529;5911.000000;1.000000;1.000000;1.000000;1.000000;-0.077728;0.077728;-0.077728;1.000000
445652.26510056;5696556.76179894;469.84984996;0.788235;0.792157;0.780392;51657.000000;1.000000;1.000000;1.000000;1.000000;-0.075726;0.075726;-0.075726;1.000000
445652.24400146;5696556.59529884;469.86784985;0.25098;0.25098;0.133333;15420.000000;1.000000;1.000000;1.000000;1.000000;-0.054626;0.054626;-0.054626;1.000000
445652.34940155;5696556.69839867;469.81795003;0.211765;0.219608;0.231373;14135.000000;1.000000;1.000000;1.000000;1.000000;-0.160027;0.160027;-0.160027;1.000000
445652.32810028;5696556.59669884;469.87404992;0.0313725;0.0313725;0.0313725;1799.000000;1.000000;1.000000;1.000000;1.000000;-0.138725;0.138725;-0.138725;1.000000
445652.35260208;5696556.66509827;469.83404996;0.0745098;0.0862745;0.0980392;5397.000000;1.000000;1.000000;1.000000;1.000000;-0.163227;0.163227;-0.163227;1.000000
445652.32440002;5696556.68199928;469.81894996;0.0352941;0.0431373;0.054902;2570.000000;1.000000;1.000000;1.000000;1.000000;-0.135025;0.135025;-0.135025;1.000000
445652.27970322;5696556.64129837;469.84675004;0.12549;0.117647;0.0901961;7453.000000;1.000000;1.000000;1.000000;1.000000;-0.090328;0.090328;-0.090328;1.000000
445652.35490234;5696556.64599808;469.84784986;0.101961;0.105882;0.117647;6939.000000;1.000000;1.000000;1.000000;1.000000;-0.165527;0.165527;-0.165527;1.000000
445652.28940018;5696556.60509880;469.86774995;0.121569;0.121569;0.0705882;7453.000000;1.000000;1.000000;1.000000;1.000000;-0.100025;0.100025;-0.100025;1.000000
445652.25440033;5696556.60369881;469.86375000;0.207843;0.2;0.105882;12336.000000;1.000000;1.000000;1.000000;1.000000;-0.065025;0.065025;-0.065025;1.000000
445652.39430054;5696556.75949867;469.83005001;0.207843;0.215686;0.231373;13878.000000;1.000000;1.000000;1.000000;1.000000;-0.187440;0.187440;-0.187440;1.000000
445652.28830154;5696556.63579948;469.85174992;0.0862745;0.0823529;0.0627451;5140.000000;1.000000;1.000000;1.000000;1.000000;-0.098927;0.098927;-0.098927;1.000000
445652.35580261;5696556.59639938;469.87994983;0.0509804;0.0509804;0.0627451;3341.000000;1.000000;1.000000;1.000000;1.000000;-0.166428;0.166428;-0.166428;1.000000
445652.24380310;5696556.63299950;469.84734990;0.105882;0.0980392;0.054902;6168.000000;1.000000;1.000000;1.000000;1.000000;-0.054428;0.054428;-0.054428;1.000000
445652.30440338;5696556.65320023;469.84104993;0.0431373;0.0431373;0.0470588;2827.000000;1.000000;1.000000;1.000000;1.000000;-0.115028;0.115028;-0.115028;1.000000
445652.26099976;5696556.64079865;469.84585001;0.0862745;0.0784314;0.0509804;4883.000000;1.000000;1.000000;1.000000;1.000000;-0.071625;0.071625;-0.071625;1.000000
445652.23260315;5696556.65759857;469.83544995;0.0470588;0.0431373;0.0235294;2570.000000;1.000000;1.000000;1.000000;1.000000;-0.043228;0.043228;-0.043228;1.000000
445652.25190170;5696556.62279900;469.85454990;0.184314;0.176471;0.117647;11051.000000;1.000000;1.000000;1.000000;1.000000;-0.062527;0.062527;-0.062527;1.000000
445652.21899994;5696556.55539902;469.87325003;0.207843;0.211765;0.156863;13364.000000;1.000000;1.000000;1.000000;1.000000;-0.029625;0.029625;-0.029625;1.000000
445652.29050262;5696556.59549912;469.87465002;0.121569;0.121569;0.0745098;7453.000000;1.000000;1.000000;1.000000;1.000000;-0.101128;0.101128;-0.101128;1.000000
445652.25550278;5696556.59409912;469.87074997;0.184314;0.184314;0.101961;11308.000000;1.000000;1.000000;1.000000;1.000000;-0.066128;0.066128;-0.066128;1.000000
445652.36560257;5696556.60019882;469.87804987;0.0431373;0.0470588;0.054902;2827.000000;1.000000;1.000000;1.000000;1.000000;-0.176228;0.176228;-0.176228;1.000000
445652.37360199;5696556.64659889;469.84874990;0.0588235;0.0666667;0.0784314;4112.000000;1.000000;1.000000;1.000000;1.000000;-0.184227;0.184227;-0.184227;1.000000
445652.21350296;5696556.52540024;469.88194992;0.12549;0.12549;0.0666667;7710.000000;1.000000;1.000000;1.000000;1.000000;-0.024128;0.024128;-0.024128;1.000000
445652.24690063;5696556.77039917;469.85614993;0.815686;0.831373;0.792157;53713.000000;1.000000;1.000000;1.000000;1.000000;-0.057526;0.057526;-0.057526;1.000000
445652.29890259;5696556.60649879;469.86815001;0.105882;0.101961;0.0705882;6425.000000;1.000000;1.000000;1.000000;1.000000;-0.109528;0.109528;-0.109528;1.000000
445652.34790237;5696556.58769806;469.88174989;0.0509804;0.054902;0.0588235;3341.000000;1.000000;1.000000;1.000000;1.000000;-0.158527;0.158527;-0.158527;1.000000
445652.19510086;5696556.19119843;469.85614993;0.6;0.611765;0.592157;39578.000000;1.000000;1.000000;1.000000;1.000000;-0.138920;0.138920;-0.138920;1.000000
445652.19630249;5696556.22849854;469.85434987;0.411765;0.419608;0.4;26985.000000;1.000000;1.000000;1.000000;1.000000;-0.101738;0.101738;-0.101738;1.000000
445652.19660004;5696556.31239899;469.86704995;0.27451;0.27451;0.243137;17733.000000;1.000000;1.000000;1.000000;1.000000;-0.019026;0.019026;-0.019026;1.000000
445652.28220184;5696556.77179916;469.85305001;0.678431;0.686275;0.686275;44718.000000;1.000000;1.000000;1.000000;1.000000;-0.084729;0.084729;-0.084729;1.000000
445652.29840286;5696556.64189919;469.84754993;0.0627451;0.0588235;0.0509804;3855.000000;1.000000;1.000000;1.000000;1.000000;-0.109028;0.109028;-0.109028;1.000000
445652.18830307;5696556.26439865;469.84745004;0.141176;0.141176;0.109804;8995.000000;1.000000;1.000000;1.000000;1.000000;-0.065601;0.065601;-0.065601;1.000000
445652.36830338;5696556.75720032;469.83114984;0.160784;0.172549;0.196078;11051.000000;1.000000;1.000000;1.000000;1.000000;-0.164647;0.164647;-0.164647;1.000000
445652.33410080;5696556.70919998;469.81734993;0.321569;0.333333;0.345098;21588.000000;1.000000;1.000000;1.000000;1.000000;-0.144726;0.144726;-0.144726;1.000000
445652.25940140;5696556.68799980;469.82305004;0.0431373;0.0431373;0.0470588;2827.000000;1.000000;1.000000;1.000000;1.000000;-0.070026;0.070026;-0.070026;1.000000
445652.22520264;5696556.59239967;469.86465003;0.333333;0.333333;0.25098;21074.000000;1.000000;1.000000;1.000000;1.000000;-0.035828;0.035828;-0.035828;1.000000
445652.25370224;5696556.57789810;469.87745001;0.223529;0.219608;0.105882;13621.000000;1.000000;1.000000;1.000000;1.000000;-0.064327;0.064327;-0.064327;1.000000
445652.30760010;5696556.65989883;469.83655002;0.0470588;0.0509804;0.054902;3084.000000;1.000000;1.000000;1.000000;1.000000;-0.118225;0.118225;-0.118225;1.000000
445652.19400223;5696556.32909973;469.85544993;0.490196;0.482353;0.439216;31354.000000;1.000000;1.000000;1.000000;1.000000;-0.004714;0.004714;-0.004714;1.000000
445652.37640198;5696556.76809891;469.83165004;0.141176;0.152941;0.176471;9766.000000;1.000000;1.000000;1.000000;1.000000;-0.167625;0.167625;-0.167625;1.000000
445652.24590118;5696556.61149796;469.86115005;0.188235;0.176471;0.0980392;11051.000000;1.000000;1.000000;1.000000;1.000000;-0.056526;0.056526;-0.056526;1.000000
445652.22680099;5696556.58519943;469.86695005;0.309804;0.309804;0.227451;19532.000000;1.000000;1.000000;1.000000;1.000000;-0.037426;0.037426;-0.037426;1.000000
445652.38560303;5696556.76719864;469.83204987;0.133333;0.145098;0.172549;9252.000000;1.000000;1.000000;1.000000;1.000000;-0.176527;0.176527;-0.176527;1.000000
445652.37130173;5696556.71029861;469.82375004;0.105882;0.105882;0.117647;6939.000000;1.000000;1.000000;1.000000;1.000000;-0.181927;0.181927;-0.181927;1.000000
445652.30949982;5696556.59609802;469.87084987;0.0901961;0.0901961;0.0666667;5654.000000;1.000000;1.000000;1.000000;1.000000;-0.120125;0.120125;-0.120125;1.000000
445652.34690292;5696556.59959991;469.87724998;0.0509804;0.0509804;0.054902;3341.000000;1.000000;1.000000;1.000000;1.000000;-0.157528;0.157528;-0.157528;1.000000
445652.30790146;5696556.64340027;469.84804990;0.0666667;0.0627451;0.0588235;4112.000000;1.000000;1.000000;1.000000;1.000000;-0.118526;0.118526;-0.118526;1.000000
445652.22960098;5696556.72329910;469.83145000;0.266667;0.262745;0.219608;16962.000000;1.000000;1.000000;1.000000;1.000000;-0.040226;0.040226;-0.040226;1.000000
445652.34029968;5696556.72949799;469.82495000;0.156863;0.164706;0.184314;10537.000000;1.000000;1.000000;1.000000;1.000000;-0.150925;0.150925;-0.150925;1.000000
445652.37790115;5696556.73069962;469.82425000;0.121569;0.133333;0.14902;8481.000000;1.000000;1.000000;1.000000;1.000000;-0.186001;0.186001;-0.186001;1.000000
445652.36499985;5696556.61439903;469.86894991;0.0431373;0.0431373;0.0509804;2827.000000;1.000000;1.000000;1.000000;1.000000;-0.175625;0.175625;-0.175625;1.000000
445652.32209976;5696556.76599892;469.83844997;0.356863;0.368627;0.388235;23901.000000;1.000000;1.000000;1.000000;1.000000;-0.119972;0.119972;-0.119972;1.000000
445652.38000305;5696556.70249947;469.82174994;0.101961;0.109804;0.12549;6939.000000;1.000000;1.000000;1.000000;1.000000;-0.190628;0.190628;-0.190628;1.000000
445652.36300095;5696556.63579948;469.85504987;0.0627451;0.0666667;0.0823529;4369.000000;1.000000;1.000000;1.000000;1.000000;-0.173626;0.173626;-0.173626;1.000000
445652.18220337;5696556.21839912;469.83494999;0.529412;0.537255;0.501961;34695.000000;1.000000;1.000000;1.000000;1.000000;-0.111601;0.111601;-0.111601;1.000000
445652.20860107;5696556.52129944;469.87934997;0.129412;0.121569;0.0588235;7453.000000;1.000000;1.000000;1.000000;1.000000;-0.019286;0.019286;-0.019286;1.000000
445652.23579987;5696556.58429916;469.87204983;0.172549;0.176471;0.101961;10794.000000;1.000000;1.000000;1.000000;1.000000;-0.046425;0.046425;-0.046425;1.000000
445652.31089981;5696556.58889969;469.87544991;0.0901961;0.0901961;0.0705882;5654.000000;1.000000;1.000000;1.000000;1.000000;-0.121525;0.121525;-0.121525;1.000000
445652.37250336;5696556.61839874;469.86695005;0.0470588;0.0470588;0.0588235;3084.000000;1.000000;1.000000;1.000000;1.000000;-0.183128;0.183128;-0.183128;1.000000
445652.32250031;5696556.71029861;469.81684997;0.298039;0.305882;0.329412;20046.000000;1.000000;1.000000;1.000000;1.000000;-0.133125;0.133125;-0.133125;1.000000
445652.31120117;5696556.74839981;469.83544995;0.14902;0.152941;0.172549;10023.000000;1.000000;1.000000;1.000000;1.000000;-0.121826;0.121826;-0.121826;1.000000
445652.30910309;5696556.61489876;469.86634995;0.0901961;0.0862745;0.0745098;5397.000000;1.000000;1.000000;1.000000;1.000000;-0.119728;0.119728;-0.119728;1.000000
445652.37780197;5696556.75860031;469.83165004;0.156863;0.176471;0.203922;11308.000000;1.000000;1.000000;1.000000;1.000000;-0.172634;0.172634;-0.172634;1.000000
445652.34679993;5696556.61849983;469.86584999;0.054902;0.054902;0.0666667;3598.000000;1.000000;1.000000;1.000000;1.000000;-0.157425;0.157425;-0.157425;1.000000
445652.30160339;5696556.74689873;469.83734991;0.188235;0.188235;0.2;12336.000000;1.000000;1.000000;1.000000;1.000000;-0.112228;0.112228;-0.112228;1.000000
445652.18869980;5696556.21769913;469.84454991;0.423529;0.435294;0.411765;28013.000000;1.000000;1.000000;1.000000;1.000000;-0.112301;0.112301;-0.112301;1.000000
445652.36410339;5696556.62629898;469.86204984;0.0470588;0.0470588;0.0627451;3084.000000;1.000000;1.000000;1.000000;1.000000;-0.174728;0.174728;-0.174728;1.000000
445652.25180252;5696556.66279800;469.83404996;0.0156863;0.0156863;0.0117647;771.000000;1.000000;1.000000;1.000000;1.000000;-0.062428;0.062428;-0.062428;1.000000
445652.28709991;5696556.66419800;469.83334996;0.0470588;0.0431373;0.0392157;2827.000000;1.000000;1.000000;1.000000;1.000000;-0.097725;0.097725;-0.097725;1.000000
445652.24839981;5696556.69829948;469.82734992;0.0156863;0.0156863;0.0196078;1028.000000;1.000000;1.000000;1.000000;1.000000;-0.059025;0.059025;-0.059025;1.000000
445652.23170288;5696556.69509895;469.82894995;0.0627451;0.054902;0.0352941;3598.000000;1.000000;1.000000;1.000000;1.000000;-0.042328;0.042328;-0.042328;1.000000
445652.30550201;5696556.73499878;469.83034994;0.137255;0.137255;0.152941;8995.000000;1.000000;1.000000;1.000000;1.000000;-0.116127;0.116127;-0.116127;1.000000
445652.34360321;5696556.66829880;469.83364989;0.0784314;0.0823529;0.0980392;5397.000000;1.000000;1.000000;1.000000;1.000000;-0.154228;0.154228;-0.154228;1.000000
445652.10810287;5696556.92459877;469.77944996;0.431373;0.403922;0.356863;26471.000000;1.000000;1.000000;1.000000;1.000000;-0.094599;0.094599;-0.094599;1.000000
445651.94110306;5696556.89549835;469.79254987;0.745098;0.74902;0.670588;48316.000000;1.000000;1.000000;1.000000;1.000000;-0.065498;0.065498;-0.065498;1.000000
445652.13640030;5696556.92449959;469.77145006;0.184314;0.156863;0.117647;10280.000000;1.000000;1.000000;1.000000;1.000000;-0.094500;0.094500;-0.094500;1.000000
445651.72170074;5696556.88819893;469.76854994;0.258824;0.231373;0.180392;15163.000000;1.000000;1.000000;1.000000;1.000000;-0.195298;0.195298;-0.195298;1.000000
445652.24020203;5696556.91009911;469.77364995;0.411765;0.411765;0.423529;26985.000000;1.000000;1.000000;1.000000;1.000000;0.082457;-0.082457;0.082457;1.000000
445651.94500168;5696556.86019905;469.78764989;0.490196;0.494118;0.403922;31611.000000;1.000000;1.000000;1.000000;1.000000;-0.030199;0.030199;-0.030199;1.000000
445652.09300049;5696556.86749847;469.78744986;0.47451;0.443137;0.4;29298.000000;1.000000;1.000000;1.000000;1.000000;-0.037590;0.037590;-0.037590;1.000000
445651.98110016;5696556.82409866;469.79344990;0.360784;0.364706;0.262745;22873.000000;1.000000;1.000000;1.000000;1.000000;0.005901;-0.005901;0.005901;1.000000
445652.05860336;5696556.82849892;469.79474999;0.298039;0.270588;0.2;17733.000000;1.000000;1.000000;1.000000;1.000000;0.001501;-0.001501;0.001501;1.000000
445652.21750076;5696556.80809982;469.85984995;0.184314;0.223529;0.188235;13621.000000;1.000000;1.000000;1.000000;1.000000;-0.021900;0.021900;-0.021900;1.000000
445651.95510300;5696556.84289940;469.78784992;0.462745;0.462745;0.384314;29555.000000;1.000000;1.000000;1.000000;1.000000;-0.012899;0.012899;-0.012899;1.000000
445651.73170288;5696556.84299858;469.76384999;0.403922;0.396078;0.301961;25186.000000;1.000000;1.000000;1.000000;1.000000;-0.176900;0.176900;-0.176900;1.000000
445651.81310089;5696556.84459885;469.77685000;0.184314;0.168627;0.0901961;10794.000000;1.000000;1.000000;1.000000;1.000000;-0.096139;0.096139;-0.096139;1.000000
445652.21150024;5696556.81579979;469.85274984;0.176471;0.207843;0.196078;12850.000000;1.000000;1.000000;1.000000;1.000000;-0.014200;0.014200;-0.014200;1.000000
445652.08030136;5696556.93179901;469.78764989;0.509804;0.501961;0.443137;32382.000000;1.000000;1.000000;1.000000;1.000000;-0.102197;0.102197;-0.102197;1.000000
445652.13750275;5696556.88699921;469.77335002;0.109804;0.0784314;0.054902;5397.000000;1.000000;1.000000;1.000000;1.000000;-0.056999;0.056999;-0.056999;1.000000
445652.09350021;5696556.84869965;469.78954985;0.309804;0.270588;0.235294;18247.000000;1.000000;1.000000;1.000000;1.000000;-0.018820;0.018820;-0.018820;1.000000
445651.90089996;5696556.99039848;469.79184987;0.478431;0.466667;0.403922;30326.000000;1.000000;1.000000;1.000000;1.000000;-0.160561;0.160561;-0.160561;1.000000
445652.15649994;5696556.88759811;469.76954987;0.160784;0.133333;0.109804;8995.000000;1.000000;1.000000;1.000000;1.000000;-0.057621;0.057621;-0.057621;1.000000
445651.81470306;5696556.83510025;469.77444984;0.184314;0.172549;0.0901961;10794.000000;1.000000;1.000000;1.000000;1.000000;-0.093561;0.093561;-0.093561;1.000000
445651.77600296;5696556.87139900;469.77314999;0.239216;0.227451;0.129412;14392.000000;1.000000;1.000000;1.000000;1.000000;-0.138456;0.138456;-0.138456;1.000000
445651.77840240;5696556.84559830;469.77064993;0.482353;0.47451;0.372549;30326.000000;1.000000;1.000000;1.000000;1.000000;-0.130657;0.130657;-0.130657;1.000000
445651.77460297;5696556.88089951;469.77314999;0.309804;0.301961;0.207843;19018.000000;1.000000;1.000000;1.000000;1.000000;-0.142895;0.142895;-0.142895;1.000000
445651.73870285;5696556.87029846;469.76915004;0.301961;0.286275;0.211765;18504.000000;1.000000;1.000000;1.000000;1.000000;-0.174149;0.174149;-0.174149;1.000000
445652.18980225;5696556.99199875;469.76534988;0.572549;0.556863;0.545098;36494.000000;1.000000;1.000000;1.000000;1.000000;-0.161999;0.161999;-0.161999;1.000000
445651.97720154;5696556.97339828;469.82774999;0.282353;0.239216;0.172549;15934.000000;1.000000;1.000000;1.000000;1.000000;-0.143398;0.143398;-0.143398;1.000000
445652.05410202;5696556.90369995;469.79304983;0.478431;0.466667;0.407843;30326.000000;1.000000;1.000000;1.000000;1.000000;-0.073700;0.073700;-0.073700;1.000000
445652.24090012;5696556.87699898;469.79425003;0.0705882;0.0784314;0.0980392;4883.000000;1.000000;1.000000;1.000000;1.000000;0.051186;-0.051186;0.051186;1.000000
445651.93200119;5696556.95450027;469.80684998;0.317647;0.27451;0.2;18247.000000;1.000000;1.000000;1.000000;1.000000;0.124500;-0.124500;0.124500;1.000000
445651.80170258;5696556.92049988;469.77254989;0.392157;0.392157;0.317647;24929.000000;1.000000;1.000000;1.000000;1.000000;-0.139700;0.139700;-0.139700;1.000000
445651.80280121;5696556.88299950;469.77444984;0.458824;0.454902;0.372549;29041.000000;1.000000;1.000000;1.000000;1.000000;-0.117907;0.117907;-0.117907;1.000000
445651.95040329;5696556.92709930;469.80734994;0.698039;0.686275;0.607843;44461.000000;1.000000;1.000000;1.000000;1.000000;-0.097099;0.097099;-0.097099;1.000000
445651.98750122;5696556.92599876;469.81134989;0.733333;0.72549;0.658824;47031.000000;1.000000;1.000000;1.000000;1.000000;-0.095999;0.095999;-0.095999;1.000000
445652.13510330;5696556.93400009;469.76915004;0.184314;0.160784;0.121569;10537.000000;1.000000;1.000000;1.000000;1.000000;-0.104000;0.104000;-0.104000;1.000000
445652.10620316;5696556.97859962;469.77764990;0.537255;0.529412;0.470588;34181.000000;1.000000;1.000000;1.000000;1.000000;-0.148600;0.148600;-0.148600;1.000000
445652.19540222;5696556.78709991;469.84005000;0.192157;0.2;0.156863;12593.000000;1.000000;1.000000;1.000000;1.000000;-0.006027;0.006027;-0.006027;1.000000
445652.11530121;5696556.81149872;469.79944994;0.0980392;0.0823529;0.0705882;5397.000000;1.000000;1.000000;1.000000;1.000000;0.018510;-0.018510;0.018510;1.000000
445651.93580063;5696556.88679894;469.78754999;0.756863;0.760784;0.686275;49087.000000;1.000000;1.000000;1.000000;1.000000;0.056799;-0.056799;0.056799;1.000000
