//X;Y;Z;Rf;Gf;Bf;Intensity;Return Number;Number Of Returns;Scan Direction Flag;Point Source ID;C2M signed distances[-][<0.8];C2M signed distances[<0.4];C2M signed distances[-][<0.2];Stump62
300
445602.10910137;5696587.40579994;473.75925018;0.682353;0.603922;0.431373;39835.000000;1.000000;1.000000;1.000000;1.000000;-0.143973;0.143973;-0.143973;1.000000
445601.93090160;5696587.56829842;473.69024994;0.298039;0.309804;0.14902;18761.000000;1.000000;1.000000;1.000000;1.000000;0.039725;-0.039725;0.039725;1.000000
445602.13860138;5696587.59319885;473.69994976;0.811765;0.784314;0.67451;51143.000000;1.000000;1.000000;1.000000;1.000000;-0.167974;0.167974;-0.167974;1.000000
445602.14690121;5696587.58839996;473.66064980;0.815686;0.8;0.658824;51657.000000;1.000000;1.000000;1.000000;1.000000;-0.176274;0.176274;-0.176274;1.000000
445601.94920166;5696587.38079842;473.62134983;0.521569;0.470588;0.345098;30840.000000;1.000000;1.000000;1.000000;1.000000;0.050798;-0.050798;0.050798;1.000000
445601.97700127;5696587.56609924;473.70165016;0.227451;0.266667;0.121569;15420.000000;1.000000;1.000000;1.000000;1.000000;-0.006374;0.006374;-0.006374;1.000000
445601.96190174;5696587.54369934;473.73094990;0.662745;0.643137;0.509804;41377.000000;1.000000;1.000000;1.000000;1.000000;0.008725;-0.008725;0.008725;1.000000
445602.11220177;5696587.22099884;473.61514999;0.235294;0.262745;0.12549;15677.000000;1.000000;1.000000;1.000000;1.000000;-0.178675;0.178675;-0.178675;1.000000
445602.07170113;5696587.55049904;473.69414999;0.745098;0.701961;0.584314;46003.000000;1.000000;1.000000;1.000000;1.000000;-0.101074;0.101074;-0.101074;1.000000
445601.94080170;5696587.35309990;473.64624979;0.490196;0.435294;0.329412;28784.000000;1.000000;1.000000;1.000000;1.000000;0.023144;-0.023144;0.023144;1.000000
445601.94470127;5696587.16459854;473.58365013;0.207843;0.243137;0.0705882;13878.000000;1.000000;1.000000;1.000000;1.000000;-0.165415;0.165415;-0.165415;1.000000
445601.89030178;5696587.50359924;473.73194983;0.568627;0.572549;0.427451;36237.000000;1.000000;1.000000;1.000000;1.000000;0.080325;-0.080325;0.080325;1.000000
445602.03120144;5696587.60739906;473.72555019;0.47451;0.439216;0.262745;28013.000000;1.000000;1.000000;1.000000;1.000000;-0.060575;0.060575;-0.060575;1.000000
445601.92220123;5696587.56619843;473.72485020;0.498039;0.466667;0.329412;30069.000000;1.000000;1.000000;1.000000;1.000000;0.048426;-0.048426;0.048426;1.000000
445601.84760101;5696587.48319824;473.65054991;0.560784;0.54902;0.482353;35723.000000;1.000000;1.000000;1.000000;1.000000;0.123026;-0.123026;0.123026;1.000000
445601.88050182;5696587.49529846;473.72445013;0.615686;0.564706;0.462745;37265.000000;1.000000;1.000000;1.000000;1.000000;0.090125;-0.090125;0.090125;1.000000
445602.16190155;5696587.48619850;473.68575003;0.819608;0.776471;0.654902;50629.000000;1.000000;1.000000;1.000000;1.000000;-0.191275;0.191275;-0.191275;1.000000
445601.91740139;5696587.37859924;473.64785006;0.611765;0.580392;0.490196;37779.000000;1.000000;1.000000;1.000000;1.000000;0.048599;-0.048599;0.048599;1.000000
445601.72640141;5696587.71309860;473.70604994;0.552941;0.533333;0.384314;34181.000000;1.000000;1.000000;1.000000;1.000000;0.116901;-0.116901;0.116901;1.000000
445602.16400154;5696587.44209869;473.65275003;0.607843;0.556863;0.419608;36494.000000;1.000000;1.000000;1.000000;1.000000;-0.193446;0.193446;-0.193446;1.000000
445602.08500107;5696587.32549866;473.65945007;0.537255;0.521569;0.360784;33153.000000;1.000000;1.000000;1.000000;1.000000;-0.114463;0.114463;-0.114463;1.000000
445602.12050159;5696587.40919884;473.77384998;0.65098;0.643137;0.505882;41120.000000;1.000000;1.000000;1.000000;1.000000;-0.154072;0.154072;-0.154072;1.000000
445601.98650177;5696587.61129959;473.74224998;0.537255;0.513725;0.407843;33153.000000;1.000000;1.000000;1.000000;1.000000;-0.015875;0.015875;-0.015875;1.000000
445601.65140160;5696587.25169952;473.63194992;0.552941;0.533333;0.392157;34181.000000;1.000000;1.000000;1.000000;1.000000;-0.078300;0.078300;-0.078300;1.000000
445602.16310127;5696587.48629959;473.81855013;0.556863;0.494118;0.384314;32639.000000;1.000000;1.000000;1.000000;1.000000;-0.192474;0.192474;-0.192474;1.000000
445602.01560123;5696587.15909966;473.66125013;0.478431;0.458824;0.321569;29298.000000;1.000000;1.000000;1.000000;1.000000;-0.176719;0.176719;-0.176719;1.000000
445602.03300102;5696587.28319939;473.68685009;0.572549;0.627451;0.372549;38036.000000;1.000000;1.000000;1.000000;1.000000;-0.077980;0.077980;-0.077980;1.000000
445601.96160133;5696587.20929916;473.61284973;0.560784;0.545098;0.423529;34952.000000;1.000000;1.000000;1.000000;1.000000;-0.120701;0.120701;-0.120701;1.000000
445602.07010181;5696587.30539902;473.68874981;0.713725;0.745098;0.545098;46517.000000;1.000000;1.000000;1.000000;1.000000;-0.102472;0.102472;-0.102472;1.000000
445601.96450146;5696587.42279823;473.68074991;0.745098;0.717647;0.619608;46774.000000;1.000000;1.000000;1.000000;1.000000;0.024752;-0.024752;0.024752;1.000000
445602.16190155;5696587.28839882;473.63915016;0.313725;0.286275;0.12549;17990.000000;1.000000;1.000000;1.000000;1.000000;-0.195746;0.195746;-0.195746;1.000000
445601.85070141;5696587.38270004;473.63324978;0.654902;0.588235;0.498039;39064.000000;1.000000;1.000000;1.000000;1.000000;0.052750;-0.052750;0.052750;1.000000
445601.68050201;5696587.20719917;473.62115004;0.443137;0.415686;0.278431;26728.000000;1.000000;1.000000;1.000000;1.000000;-0.122801;0.122801;-0.122801;1.000000
445601.75220116;5696587.24729927;473.61784985;0.478431;0.462745;0.337255;29555.000000;1.000000;1.000000;1.000000;1.000000;-0.082701;0.082701;-0.082701;1.000000
445601.67820175;5696587.28219994;473.61954977;0.741176;0.72549;0.607843;46774.000000;1.000000;1.000000;1.000000;1.000000;-0.047800;0.047800;-0.047800;1.000000
445602.03840168;5696587.63760002;473.84034969;0.694118;0.639216;0.509804;41891.000000;1.000000;1.000000;1.000000;1.000000;-0.067775;0.067775;-0.067775;1.000000
445601.86330135;5696587.48519905;473.72354986;0.584314;0.564706;0.45098;36494.000000;1.000000;1.000000;1.000000;1.000000;0.107326;-0.107326;0.107326;1.000000
445602.07590111;5696587.39139946;473.68545010;0.529412;0.494118;0.380392;32125.000000;1.000000;1.000000;1.000000;1.000000;-0.118906;0.118906;-0.118906;1.000000
445601.88950165;5696587.34649857;473.62984993;0.529412;0.470588;0.388235;31354.000000;1.000000;1.000000;1.000000;1.000000;0.016499;-0.016499;0.016499;1.000000
445601.70040138;5696587.44819839;473.62724974;0.470588;0.443137;0.396078;29041.000000;1.000000;1.000000;1.000000;1.000000;0.118198;-0.118198;0.118198;1.000000
445602.11840160;5696587.44329842;473.83934977;0.623529;0.592157;0.509804;38807.000000;1.000000;1.000000;1.000000;1.000000;-0.147775;0.147775;-0.147775;1.000000
445601.91050156;5696587.25539978;473.65074970;0.529412;0.509804;0.384314;32639.000000;1.000000;1.000000;1.000000;1.000000;-0.074638;0.074638;-0.074638;1.000000
445601.78310211;5696587.37990006;473.62085011;0.435294;0.396078;0.294118;25957.000000;1.000000;1.000000;1.000000;1.000000;0.049900;-0.049900;0.049900;1.000000
445601.92610176;5696587.61009987;473.73014977;0.662745;0.607843;0.498039;40092.000000;1.000000;1.000000;1.000000;1.000000;0.044525;-0.044525;0.044525;1.000000
445602.07230194;5696587.65079887;473.84205009;0.67451;0.596078;0.470588;39578.000000;1.000000;1.000000;1.000000;1.000000;-0.101675;0.101675;-0.101675;1.000000
445602.04130180;5696587.29419907;473.68265011;0.470588;0.521569;0.258824;31097.000000;1.000000;1.000000;1.000000;1.000000;-0.079225;0.079225;-0.079225;1.000000
445601.91710098;5696587.61189850;473.67154982;0.67451;0.654902;0.517647;42148.000000;1.000000;1.000000;1.000000;1.000000;0.053526;-0.053526;0.053526;1.000000
445602.09640129;5696587.20199974;473.72134974;0.2;0.203922;0.0901961;12336.000000;1.000000;1.000000;1.000000;1.000000;-0.179453;0.179453;-0.179453;1.000000
445601.99030121;5696587.44079979;473.71705009;0.682353;0.619608;0.521569;41120.000000;1.000000;1.000000;1.000000;1.000000;-0.020365;0.020365;-0.020365;1.000000
445602.08510120;5696587.49379929;473.80114986;0.658824;0.592157;0.52549;39578.000000;1.000000;1.000000;1.000000;1.000000;-0.114474;0.114474;-0.114474;1.000000
445602.13160141;5696587.58009918;473.82994987;0.623529;0.596078;0.490196;38807.000000;1.000000;1.000000;1.000000;1.000000;-0.160975;0.160975;-0.160975;1.000000
445602.13050182;5696587.54059990;473.82474997;0.45098;0.407843;0.298039;26728.000000;1.000000;1.000000;1.000000;1.000000;-0.159875;0.159875;-0.159875;1.000000
445601.85910137;5696587.34239967;473.62144997;0.596078;0.54902;0.466667;36237.000000;1.000000;1.000000;1.000000;1.000000;0.012400;-0.012400;0.012400;1.000000
445602.15010174;5696587.58289917;473.84245016;0.701961;0.643137;0.517647;42148.000000;1.000000;1.000000;1.000000;1.000000;-0.179475;0.179475;-0.179475;1.000000
445602.09370144;5696587.28529938;473.64074995;0.721569;0.729412;0.564706;46260.000000;1.000000;1.000000;1.000000;1.000000;-0.130941;0.130941;-0.130941;1.000000
445602.06510170;5696587.47249992;473.78604986;0.392157;0.341176;0.184314;22102.000000;1.000000;1.000000;1.000000;1.000000;-0.094475;0.094475;-0.094475;1.000000
445601.94330128;5696587.20119865;473.63985016;0.698039;0.67451;0.541176;43690.000000;1.000000;1.000000;1.000000;1.000000;-0.128847;0.128847;-0.128847;1.000000
445601.97860153;5696587.58909996;473.71364977;0.27451;0.266667;0.145098;16705.000000;1.000000;1.000000;1.000000;1.000000;-0.007975;0.007975;-0.007975;1.000000
445601.91710098;5696587.61189850;473.67154982;0.67451;0.654902;0.517647;42148.000000;1.000000;1.000000;1.000000;1.000000;0.053526;-0.053526;0.053526;1.000000
445601.84010132;5696587.39989861;473.64454987;0.627451;0.564706;0.470588;37522.000000;1.000000;1.000000;1.000000;1.000000;0.069899;-0.069899;0.069899;1.000000
445602.08050163;5696587.49419983;473.80095007;0.623529;0.556863;0.490196;37265.000000;1.000000;1.000000;1.000000;1.000000;-0.109875;0.109875;-0.109875;1.000000
445602.03480156;5696587.55539902;473.74604990;0.572549;0.521569;0.384314;34181.000000;1.000000;1.000000;1.000000;1.000000;-0.064175;0.064175;-0.064175;1.000000
445601.88150127;5696587.54149826;473.74825003;0.65098;0.631373;0.498039;40606.000000;1.000000;1.000000;1.000000;1.000000;0.089126;-0.089126;0.089126;1.000000
445602.02590187;5696587.54499825;473.71525003;0.686275;0.643137;0.52549;42148.000000;1.000000;1.000000;1.000000;1.000000;-0.055275;0.055275;-0.055275;1.000000
445602.06600197;5696587.47359856;473.71394970;0.6;0.537255;0.447059;35723.000000;1.000000;1.000000;1.000000;1.000000;-0.095375;0.095375;-0.095375;1.000000
445602.06840141;5696587.44009979;473.74854996;0.839216;0.776471;0.721569;51657.000000;1.000000;1.000000;1.000000;1.000000;-0.097920;0.097920;-0.097920;1.000000
445602.08220108;5696587.36939819;473.70874979;0.407843;0.364706;0.247059;23901.000000;1.000000;1.000000;1.000000;1.000000;0.118326;-0.118326;0.118326;1.000000
445601.96570213;5696587.28489883;473.67915012;0.635294;0.623529;0.466667;39835.000000;1.000000;1.000000;1.000000;1.000000;-0.045101;0.045101;-0.045101;1.000000
445602.07480152;5696587.60689934;473.79745008;0.682353;0.643137;0.533333;41891.000000;1.000000;1.000000;1.000000;1.000000;-0.104175;0.104175;-0.104175;1.000000
445602.16750153;5696587.58619888;473.82464983;0.52549;0.462745;0.313725;30326.000000;1.000000;1.000000;1.000000;1.000000;-0.196875;0.196875;-0.196875;1.000000
445602.10690125;5696587.24009903;473.61744978;0.545098;0.537255;0.388235;34181.000000;1.000000;1.000000;1.000000;1.000000;-0.163257;0.163257;-0.163257;1.000000
445601.93260201;5696587.16329964;473.59004976;0.294118;0.309804;0.160784;18761.000000;1.000000;1.000000;1.000000;1.000000;-0.166700;0.166700;-0.166700;1.000000
445601.69020184;5696587.71059998;473.77894976;0.133333;0.105882;0.0392157;6939.000000;1.000000;1.000000;1.000000;1.000000;0.119400;-0.119400;0.119400;1.000000
445601.68090160;5696587.70529945;473.87164976;0.556863;0.541176;0.45098;34952.000000;1.000000;1.000000;1.000000;1.000000;0.124701;-0.124701;0.124701;1.000000
445601.88100155;5696587.56569870;473.70435001;0.67451;0.678431;0.54902;43433.000000;1.000000;1.000000;1.000000;1.000000;0.089625;-0.089625;0.089625;1.000000
445601.92080124;5696587.54099854;473.70344975;0.709804;0.678431;0.52549;43947.000000;1.000000;1.000000;1.000000;1.000000;0.049826;-0.049826;0.049826;1.000000
445601.95500191;5696587.53529938;473.71194984;0.819608;0.768627;0.662745;50372.000000;1.000000;1.000000;1.000000;1.000000;0.015625;-0.015625;0.015625;1.000000
445601.70800121;5696587.44989975;473.61824991;0.521569;0.501961;0.427451;32639.000000;1.000000;1.000000;1.000000;1.000000;0.119900;-0.119900;0.119900;1.000000
445601.89080151;5696587.31129845;473.63184978;0.427451;0.376471;0.27451;24929.000000;1.000000;1.000000;1.000000;1.000000;-0.018702;0.018702;-0.018702;1.000000
445601.96650131;5696587.16659935;473.62424995;0.431373;0.415686;0.298039;26471.000000;1.000000;1.000000;1.000000;1.000000;-0.163401;0.163401;-0.163401;1.000000
445602.07400139;5696587.21339996;473.72284986;0.388235;0.376471;0.270588;23901.000000;1.000000;1.000000;1.000000;1.000000;-0.155826;0.155826;-0.155826;1.000000
445602.05410202;5696587.27449997;473.66904976;0.729412;0.72549;0.545098;46260.000000;1.000000;1.000000;1.000000;1.000000;-0.100241;0.100241;-0.100241;1.000000
445601.98460205;5696587.30439957;473.66394999;0.713725;0.721569;0.54902;45746.000000;1.000000;1.000000;1.000000;1.000000;-0.029167;0.029167;-0.029167;1.000000
445601.94450195;5696587.30339821;473.66914989;0.666667;0.643137;0.490196;41377.000000;1.000000;1.000000;1.000000;1.000000;-0.026692;0.026692;-0.026692;1.000000
445601.68200119;5696587.40309914;473.63044979;0.282353;0.262745;0.160784;16705.000000;1.000000;1.000000;1.000000;1.000000;0.073099;-0.073099;0.073099;1.000000
445601.94360168;5696587.41569908;473.66344978;0.690196;0.678431;0.588235;43947.000000;1.000000;1.000000;1.000000;1.000000;0.041448;-0.041448;0.041448;1.000000
445602.04160126;5696587.17719849;473.69294979;0.423529;0.419608;0.301961;26728.000000;1.000000;1.000000;1.000000;1.000000;-0.168480;0.168480;-0.168480;1.000000
445602.00740154;5696587.18369873;473.63324978;0.694118;0.670588;0.533333;43176.000000;1.000000;1.000000;1.000000;1.000000;-0.150852;0.150852;-0.150852;1.000000
445601.88620193;5696587.49659927;473.75724985;0.603922;0.592157;0.466667;38036.000000;1.000000;1.000000;1.000000;1.000000;0.084425;-0.084425;0.084425;1.000000
445601.87480171;5696587.28939827;473.63084986;0.509804;0.482353;0.372549;31354.000000;1.000000;1.000000;1.000000;1.000000;-0.040602;0.040602;-0.040602;1.000000
445602.11840160;5696587.32419975;473.69355013;0.54902;0.521569;0.4;33667.000000;1.000000;1.000000;1.000000;1.000000;-0.147888;0.147888;-0.147888;1.000000
445602.12630184;5696587.54729851;473.72214987;0.54902;0.45098;0.392157;30840.000000;1.000000;1.000000;1.000000;1.000000;-0.155675;0.155675;-0.155675;1.000000
445602.12940128;5696587.54189880;473.74784996;0.666667;0.584314;0.494118;39064.000000;1.000000;1.000000;1.000000;1.000000;-0.158774;0.158774;-0.158774;1.000000
445602.12730129;5696587.51799973;473.79635002;0.847059;0.788235;0.678431;51914.000000;1.000000;1.000000;1.000000;1.000000;-0.156674;0.156674;-0.156674;1.000000
445601.69380196;5696587.71069916;473.75115015;0.47451;0.45098;0.352941;29298.000000;1.000000;1.000000;1.000000;1.000000;0.119301;-0.119301;0.119301;1.000000
445602.07360180;5696587.43389900;473.66954996;0.541176;0.490196;0.360784;32125.000000;1.000000;1.000000;1.000000;1.000000;-0.103806;0.103806;-0.103806;1.000000
445601.93270119;5696587.66519936;473.74975016;0.607843;0.560784;0.458824;36751.000000;1.000000;1.000000;1.000000;1.000000;0.037926;-0.037926;0.037926;1.000000
445601.91360100;5696587.60499962;473.68524982;0.533333;0.541176;0.435294;34438.000000;1.000000;1.000000;1.000000;1.000000;0.057026;-0.057026;0.057026;1.000000
445601.81860168;5696587.20159920;473.60395004;0.505882;0.501961;0.384314;32125.000000;1.000000;1.000000;1.000000;1.000000;-0.128440;0.128440;-0.128440;1.000000
445602.04200180;5696587.24979980;473.67754986;0.65098;0.647059;0.505882;41377.000000;1.000000;1.000000;1.000000;1.000000;-0.107361;0.107361;-0.107361;1.000000
445601.66460140;5696587.34619911;473.63835003;0.560784;0.52549;0.443137;34438.000000;1.000000;1.000000;1.000000;1.000000;0.016223;-0.016223;0.016223;1.000000
445601.66240128;5696587.42119987;473.63684990;0.368627;0.337255;0.25098;21845.000000;1.000000;1.000000;1.000000;1.000000;0.091252;-0.091252;0.091252;1.000000
445602.07730110;5696587.21959885;473.60895016;0.360784;0.313725;0.188235;20560.000000;1.000000;1.000000;1.000000;1.000000;-0.153518;0.153518;-0.153518;1.000000
445602.10160168;5696587.18820007;473.67954971;0.584314;0.52549;0.423529;34695.000000;1.000000;1.000000;1.000000;1.000000;-0.193033;0.193033;-0.193033;1.000000
445601.98220165;5696587.18299873;473.67404987;0.505882;0.458824;0.360784;30069.000000;1.000000;1.000000;1.000000;1.000000;-0.147456;0.147456;-0.147456;1.000000
445602.11380203;5696587.58059891;473.75925018;0.670588;0.607843;0.501961;40092.000000;1.000000;1.000000;1.000000;1.000000;-0.143175;0.143175;-0.143175;1.000000
445602.11690147;5696587.55179985;473.78704979;0.8;0.764706;0.623529;49601.000000;1.000000;1.000000;1.000000;1.000000;-0.146275;0.146275;-0.146275;1.000000
445602.07940109;5696587.67139824;473.82865002;0.439216;0.372549;0.258824;24672.000000;1.000000;1.000000;1.000000;1.000000;-0.108774;0.108774;-0.108774;1.000000
445602.10880096;5696587.61699875;473.84334995;0.639216;0.580392;0.47451;38293.000000;1.000000;1.000000;1.000000;1.000000;-0.138174;0.138174;-0.138174;1.000000
445602.08050163;5696587.49419983;473.80095007;0.623529;0.556863;0.490196;37265.000000;1.000000;1.000000;1.000000;1.000000;-0.109875;0.109875;-0.109875;1.000000
445601.88340195;5696587.67949875;473.73134996;0.494118;0.462745;0.337255;29812.000000;1.000000;1.000000;1.000000;1.000000;0.087225;-0.087225;0.087225;1.000000
445602.06180199;5696587.21819885;473.63845016;0.372549;0.317647;0.176471;20817.000000;1.000000;1.000000;1.000000;1.000000;-0.144265;0.144265;-0.144265;1.000000
445601.94570168;5696587.39279945;473.61894991;0.415686;0.368627;0.247059;24158.000000;1.000000;1.000000;1.000000;1.000000;0.060576;-0.060576;0.060576;1.000000
445602.09350212;5696587.17499931;473.67665007;0.329412;0.262745;0.137255;17476.000000;1.000000;1.000000;1.000000;1.000000;-0.197797;0.197797;-0.197797;1.000000
445601.98230179;5696587.18299873;473.67175009;0.517647;0.470588;0.372549;30840.000000;1.000000;1.000000;1.000000;1.000000;-0.147464;0.147464;-0.147464;1.000000
445602.15910156;5696587.39769943;473.82905008;0.580392;0.533333;0.435294;34952.000000;1.000000;1.000000;1.000000;1.000000;-0.194033;0.194033;-0.194033;1.000000
445601.80340202;5696587.39889915;473.62664988;0.619608;0.572549;0.486275;37779.000000;1.000000;1.000000;1.000000;1.000000;0.068899;-0.068899;0.068899;1.000000
445601.94080170;5696587.35309990;473.64624979;0.490196;0.435294;0.329412;28784.000000;1.000000;1.000000;1.000000;1.000000;0.023144;-0.023144;0.023144;1.000000
445602.13560112;5696587.24819954;473.67245008;0.537255;0.529412;0.380392;33667.000000;1.000000;1.000000;1.000000;1.000000;-0.184141;0.184141;-0.184141;1.000000
445602.13840111;5696587.62850006;473.83314993;0.764706;0.701961;0.588235;46260.000000;1.000000;1.000000;1.000000;1.000000;-0.167774;0.167774;-0.167774;1.000000
445601.95280178;5696587.21479996;473.61254980;0.517647;0.509804;0.368627;32382.000000;1.000000;1.000000;1.000000;1.000000;-0.115200;0.115200;-0.115200;1.000000
445601.90100105;5696587.50759895;473.71154978;0.572549;0.568627;0.419608;36237.000000;1.000000;1.000000;1.000000;1.000000;0.069626;-0.069626;0.069626;1.000000
445602.03110130;5696587.59299858;473.75105001;0.509804;0.462745;0.313725;30069.000000;1.000000;1.000000;1.000000;1.000000;-0.060474;0.060474;-0.060474;1.000000
445602.09050186;5696587.40149887;473.69554998;0.639216;0.592157;0.501961;39064.000000;1.000000;1.000000;1.000000;1.000000;-0.128036;0.128036;-0.128036;1.000000
445602.12560184;5696587.40069969;473.69245007;0.301961;0.258824;0.164706;16962.000000;1.000000;1.000000;1.000000;1.000000;-0.161613;0.161613;-0.161613;1.000000
445602.10140141;5696587.22369965;473.65425016;0.443137;0.4;0.258824;25957.000000;1.000000;1.000000;1.000000;1.000000;-0.168528;0.168528;-0.168528;1.000000
445602.15330132;5696587.26069839;473.66874983;0.509804;0.486275;0.333333;31097.000000;1.000000;1.000000;1.000000;1.000000;-0.195378;0.195378;-0.195378;1.000000
445602.11230190;5696587.54709824;473.66795017;0.784314;0.745098;0.631373;48573.000000;1.000000;1.000000;1.000000;1.000000;-0.141675;0.141675;-0.141675;1.000000
445601.92060097;5696587.14219864;473.65915014;0.505882;0.513725;0.345098;32125.000000;1.000000;1.000000;1.000000;1.000000;-0.187801;0.187801;-0.187801;1.000000
445601.99600132;5696587.15149887;473.66494991;0.517647;0.501961;0.372549;32125.000000;1.000000;1.000000;1.000000;1.000000;-0.180296;0.180296;-0.180296;1.000000
445602.02410133;5696587.15129860;473.66394999;0.239216;0.223529;0.0901961;13878.000000;1.000000;1.000000;1.000000;1.000000;-0.186531;0.186531;-0.186531;1.000000
445601.66680153;5696587.31569870;473.63105013;0.537255;0.513725;0.419608;33410.000000;1.000000;1.000000;1.000000;1.000000;-0.014301;0.014301;-0.014301;1.000000
445601.96570213;5696587.32949837;473.66804983;0.529412;0.505882;0.372549;32639.000000;1.000000;1.000000;1.000000;1.000000;-0.000502;0.000502;-0.000502;1.000000
445601.90480145;5696587.36809929;473.64715006;0.52549;0.470588;0.356863;31097.000000;1.000000;1.000000;1.000000;1.000000;0.038099;-0.038099;0.038099;1.000000
445601.77450188;5696587.21249969;473.62074997;0.368627;0.333333;0.2;21331.000000;1.000000;1.000000;1.000000;1.000000;-0.117500;0.117500;-0.117500;1.000000
445602.07430180;5696587.54409988;473.78265001;0.529412;0.47451;0.388235;31354.000000;1.000000;1.000000;1.000000;1.000000;-0.103675;0.103675;-0.103675;1.000000
445601.69360168;5696587.41109856;473.64974977;0.552941;0.533333;0.458824;34695.000000;1.000000;1.000000;1.000000;1.000000;0.081158;-0.081158;0.081158;1.000000
445601.71760185;5696587.19919975;473.61105015;0.462745;0.458824;0.337255;29041.000000;1.000000;1.000000;1.000000;1.000000;-0.130800;0.130800;-0.130800;1.000000
445601.84080132;5696587.18339928;473.59315016;0.737255;0.737255;0.631373;47545.000000;1.000000;1.000000;1.000000;1.000000;-0.146601;0.146601;-0.146601;1.000000
445601.93870171;5696587.39119919;473.61634972;0.368627;0.329412;0.207843;21331.000000;1.000000;1.000000;1.000000;1.000000;0.061199;-0.061199;0.061199;1.000000
445601.98280151;5696587.33719833;473.66895010;0.478431;0.458824;0.309804;29298.000000;1.000000;1.000000;1.000000;1.000000;0.014143;-0.014143;0.014143;1.000000
445601.90330132;5696587.41229828;473.66855003;0.615686;0.588235;0.498039;38293.000000;1.000000;1.000000;1.000000;1.000000;0.075753;-0.075753;0.075753;1.000000
445601.94530113;5696587.65989883;473.71764996;0.443137;0.443137;0.305882;28013.000000;1.000000;1.000000;1.000000;1.000000;0.025326;-0.025326;0.025326;1.000000
445601.86220177;5696587.55739983;473.74294998;0.529412;0.529412;0.392157;33667.000000;1.000000;1.000000;1.000000;1.000000;0.108425;-0.108425;0.108425;1.000000
445601.89620121;5696587.60389908;473.70545008;0.203922;0.2;0.0470588;12079.000000;1.000000;1.000000;1.000000;1.000000;0.074426;-0.074426;0.074426;1.000000
445601.82280167;5696587.16639908;473.59445002;0.541176;0.545098;0.439216;34695.000000;1.000000;1.000000;1.000000;1.000000;-0.163601;0.163601;-0.163601;1.000000
445601.90870102;5696587.58649834;473.70344975;0.529412;0.521569;0.396078;33410.000000;1.000000;1.000000;1.000000;1.000000;0.061926;-0.061926;0.061926;1.000000
445601.85140141;5696587.49379929;473.69285013;0.439216;0.384314;0.286275;25443.000000;1.000000;1.000000;1.000000;1.000000;0.119226;-0.119226;0.119226;1.000000
445601.79550179;5696587.36239822;473.62115004;0.52549;0.470588;0.352941;30840.000000;1.000000;1.000000;1.000000;1.000000;0.032398;-0.032398;0.032398;1.000000
445602.09750183;5696587.42039879;473.78924992;0.560784;0.564706;0.478431;36237.000000;1.000000;1.000000;1.000000;1.000000;-0.129164;0.129164;-0.129164;1.000000
445601.69910152;5696587.71049889;473.73504974;0.545098;0.529412;0.431373;34181.000000;1.000000;1.000000;1.000000;1.000000;0.119501;-0.119501;0.119501;1.000000
445601.86170204;5696587.68879898;473.71425011;0.258824;0.247059;0.0784314;15163.000000;1.000000;1.000000;1.000000;1.000000;0.108925;-0.108925;0.108925;1.000000
445602.08620174;5696587.51149948;473.70825006;0.592157;0.552941;0.443137;35980.000000;1.000000;1.000000;1.000000;1.000000;-0.115575;0.115575;-0.115575;1.000000
445602.05410202;5696587.43899925;473.75255014;0.584314;0.537255;0.411765;35209.000000;1.000000;1.000000;1.000000;1.000000;-0.083716;0.083716;-0.083716;1.000000
445602.07090195;5696587.22269829;473.60164978;0.32549;0.282353;0.160784;18247.000000;1.000000;1.000000;1.000000;1.000000;-0.146863;0.146863;-0.146863;1.000000
445602.16100128;5696587.40269859;473.79654982;0.686275;0.635294;0.533333;41891.000000;1.000000;1.000000;1.000000;1.000000;-0.194901;0.194901;-0.194901;1.000000
445602.02200134;5696587.68449982;473.77964975;0.654902;0.611765;0.498039;40092.000000;1.000000;1.000000;1.000000;1.000000;-0.051374;0.051374;-0.051374;1.000000
445601.96670158;5696587.42259987;473.68314983;0.745098;0.713725;0.611765;46517.000000;1.000000;1.000000;1.000000;1.000000;0.024449;-0.024449;0.024449;1.000000
445601.86050137;5696587.42129906;473.65044977;0.529412;0.494118;0.403922;32382.000000;1.000000;1.000000;1.000000;1.000000;0.091299;-0.091299;0.091299;1.000000
445601.93680199;5696587.30909927;473.64554979;0.572549;0.533333;0.411765;34695.000000;1.000000;1.000000;1.000000;1.000000;-0.020901;0.020901;-0.020901;1.000000
445602.05020149;5696587.23959930;473.68244984;0.584314;0.572549;0.403922;36494.000000;1.000000;1.000000;1.000000;1.000000;-0.120434;0.120434;-0.120434;1.000000
445602.14570148;5696587.45360001;473.77314999;0.380392;0.317647;0.192157;21074.000000;1.000000;1.000000;1.000000;1.000000;-0.175075;0.175075;-0.175075;1.000000
445602.07520111;5696587.57459839;473.77374985;0.584314;0.501961;0.364706;33410.000000;1.000000;1.000000;1.000000;1.000000;-0.104574;0.104574;-0.104574;1.000000
445601.96450146;5696587.49669846;473.73285009;0.694118;0.658824;0.537255;42919.000000;1.000000;1.000000;1.000000;1.000000;0.006125;-0.006125;0.006125;1.000000
445601.74830158;5696587.15199860;473.60955002;0.34902;0.337255;0.188235;21074.000000;1.000000;1.000000;1.000000;1.000000;-0.178001;0.178001;-0.178001;1.000000
445601.67540176;5696587.14939888;473.61324980;0.694118;0.666667;0.556863;43433.000000;1.000000;1.000000;1.000000;1.000000;-0.180601;0.180601;-0.180601;1.000000
445601.77660187;5696587.30359848;473.60794975;0.615686;0.6;0.509804;38807.000000;1.000000;1.000000;1.000000;1.000000;-0.026402;0.026402;-0.026402;1.000000
445602.15740211;5696587.47059830;473.80884983;0.447059;0.376471;0.262745;25186.000000;1.000000;1.000000;1.000000;1.000000;-0.186775;0.186775;-0.186775;1.000000
445602.07360180;5696587.54109962;473.68475010;0.752941;0.721569;0.603922;47031.000000;1.000000;1.000000;1.000000;1.000000;-0.102975;0.102975;-0.102975;1.000000
445601.96870144;5696587.42449959;473.69495012;0.752941;0.72549;0.615686;47288.000000;1.000000;1.000000;1.000000;1.000000;0.022081;-0.022081;0.022081;1.000000
445602.00370129;5696587.42589958;473.70114996;0.756863;0.717647;0.603922;46774.000000;1.000000;1.000000;1.000000;1.000000;-0.038898;0.038898;-0.038898;1.000000
445601.88240154;5696587.42099960;473.68405010;0.568627;0.52549;0.431373;34438.000000;1.000000;1.000000;1.000000;1.000000;0.091017;-0.091017;0.091017;1.000000
445601.92100151;5696587.13109978;473.62645008;0.490196;0.462745;0.298039;29555.000000;1.000000;1.000000;1.000000;1.000000;-0.198900;0.198900;-0.198900;1.000000
445602.14810188;5696587.51680000;473.74604990;0.847059;0.807843;0.666667;52685.000000;1.000000;1.000000;1.000000;1.000000;-0.177475;0.177475;-0.177475;1.000000
445601.84600170;5696587.53469856;473.79554989;0.603922;0.596078;0.478431;38293.000000;1.000000;1.000000;1.000000;1.000000;0.124625;-0.124625;0.124625;1.000000
445602.04330166;5696587.44709976;473.74984982;0.619608;0.545098;0.45098;36494.000000;1.000000;1.000000;1.000000;1.000000;-0.072675;0.072675;-0.072675;1.000000
445602.06010159;5696587.49569901;473.68365004;0.498039;0.454902;0.345098;29812.000000;1.000000;1.000000;1.000000;1.000000;-0.089475;0.089475;-0.089475;1.000000
445601.75380142;5696587.19109924;473.61954977;0.333333;0.282353;0.156863;18504.000000;1.000000;1.000000;1.000000;1.000000;-0.138914;0.138914;-0.138914;1.000000
445602.11780174;5696587.66749962;473.85134985;0.662745;0.615686;0.498039;40349.000000;1.000000;1.000000;1.000000;1.000000;-0.147175;0.147175;-0.147175;1.000000
445602.07790192;5696587.67409904;473.81694986;0.411765;0.34902;0.235294;23130.000000;1.000000;1.000000;1.000000;1.000000;-0.107275;0.107275;-0.107275;1.000000
445601.88030155;5696587.56769951;473.72524979;0.588235;0.592157;0.45098;37522.000000;1.000000;1.000000;1.000000;1.000000;0.090325;-0.090325;0.090325;1.000000
445601.69340141;5696587.36639984;473.66554977;0.6;0.576471;0.505882;37522.000000;1.000000;1.000000;1.000000;1.000000;0.036549;-0.036549;0.036549;1.000000
445601.84040173;5696587.15759857;473.59975006;0.607843;0.580392;0.454902;37522.000000;1.000000;1.000000;1.000000;1.000000;-0.172401;0.172401;-0.172401;1.000000
445601.69120129;5696587.71459969;473.81624987;0.333333;0.305882;0.223529;19789.000000;1.000000;1.000000;1.000000;1.000000;0.115400;-0.115400;0.115400;1.000000
445601.84170158;5696587.19489868;473.59795000;0.686275;0.701961;0.596078;44718.000000;1.000000;1.000000;1.000000;1.000000;-0.135101;0.135101;-0.135101;1.000000
445601.75650127;5696587.71339996;473.65854980;0.537255;0.533333;0.368627;33667.000000;1.000000;1.000000;1.000000;1.000000;0.116600;-0.116600;0.116600;1.000000
445602.07360180;5696587.43389900;473.66954996;0.541176;0.490196;0.360784;32125.000000;1.000000;1.000000;1.000000;1.000000;-0.103806;0.103806;-0.103806;1.000000
445601.86450203;5696587.52559860;473.67514994;0.478431;0.462745;0.27451;29041.000000;1.000000;1.000000;1.000000;1.000000;0.106125;-0.106125;0.106125;1.000000
445602.08040150;5696587.42929848;473.76994993;0.607843;0.560784;0.466667;36751.000000;1.000000;1.000000;1.000000;1.000000;-0.110892;0.110892;-0.110892;1.000000
445602.07010181;5696587.45039948;473.67884972;0.788235;0.737255;0.631373;48316.000000;1.000000;1.000000;1.000000;1.000000;-0.099475;0.099475;-0.099475;1.000000
445601.87600143;5696587.29349907;473.66354992;0.803922;0.760784;0.643137;49601.000000;1.000000;1.000000;1.000000;1.000000;-0.036501;0.036501;-0.036501;1.000000
445601.75830181;5696587.36799820;473.62885000;0.447059;0.443137;0.298039;28013.000000;1.000000;1.000000;1.000000;1.000000;0.038010;-0.038010;0.038010;1.000000
445602.16910179;5696587.54199989;473.80084993;0.501961;0.501961;0.34902;31611.000000;1.000000;1.000000;1.000000;1.000000;-0.198475;0.198475;-0.198475;1.000000
445602.16820152;5696587.57959946;473.79435017;0.360784;0.364706;0.215686;22616.000000;1.000000;1.000000;1.000000;1.000000;-0.197575;0.197575;-0.197575;1.000000
445602.11690147;5696587.55179985;473.78704979;0.803922;0.764706;0.623529;49858.000000;1.000000;1.000000;1.000000;1.000000;-0.146275;0.146275;-0.146275;1.000000
445602.14370163;5696587.39409836;473.85155012;0.372549;0.368627;0.258824;23387.000000;1.000000;1.000000;1.000000;1.000000;-0.179949;0.179949;-0.179949;1.000000
445602.11540134;5696587.42529877;473.81804993;0.584314;0.568627;0.486275;36751.000000;1.000000;1.000000;1.000000;1.000000;-0.145982;0.145982;-0.145982;1.000000
445602.14480122;5696587.43139847;473.85204985;0.509804;0.486275;0.384314;31354.000000;1.000000;1.000000;1.000000;1.000000;-0.174584;0.174584;-0.174584;1.000000
445601.95670135;5696587.64669998;473.75064995;0.372549;0.352941;0.239216;22616.000000;1.000000;1.000000;1.000000;1.000000;0.013926;-0.013926;0.013926;1.000000
445601.91740139;5696587.37859924;473.64785006;0.611765;0.584314;0.494118;38036.000000;1.000000;1.000000;1.000000;1.000000;0.048599;-0.048599;0.048599;1.000000
445602.06160172;5696587.26190002;473.68324997;0.596078;0.611765;0.419608;38293.000000;1.000000;1.000000;1.000000;1.000000;-0.113640;0.113640;-0.113640;1.000000
445602.16330154;5696587.40619858;473.85724976;0.443137;0.411765;0.301961;26728.000000;1.000000;1.000000;1.000000;1.000000;-0.196204;0.196204;-0.196204;1.000000
445602.10200127;5696587.45489891;473.65245010;0.764706;0.717647;0.615686;47031.000000;1.000000;1.000000;1.000000;1.000000;-0.131374;0.131374;-0.131374;1.000000
445602.10370167;5696587.41979988;473.64744999;0.556863;0.517647;0.407843;33667.000000;1.000000;1.000000;1.000000;1.000000;-0.135916;0.135916;-0.135916;1.000000
445601.84900101;5696587.64349945;473.69444992;0.537255;0.529412;0.396078;33667.000000;1.000000;1.000000;1.000000;1.000000;0.121626;-0.121626;0.121626;1.000000
445601.84760101;5696587.60399826;473.69395020;0.392157;0.396078;0.184314;24158.000000;1.000000;1.000000;1.000000;1.000000;0.123026;-0.123026;0.123026;1.000000
445601.80280121;5696587.18439873;473.60774996;0.529412;0.505882;0.341176;32382.000000;1.000000;1.000000;1.000000;1.000000;-0.145601;0.145601;-0.145601;1.000000
445602.08020123;5696587.25339897;473.66764977;0.572549;0.560784;0.415686;35723.000000;1.000000;1.000000;1.000000;1.000000;-0.133695;0.133695;-0.133695;1.000000
445601.89660175;5696587.15489967;473.59294989;0.32549;0.341176;0.196078;20817.000000;1.000000;1.000000;1.000000;1.000000;-0.175100;0.175100;-0.175100;1.000000
445602.11370190;5696587.50499924;473.81194975;0.517647;0.454902;0.345098;30069.000000;1.000000;1.000000;1.000000;1.000000;-0.143075;0.143075;-0.143075;1.000000
445602.12560184;5696587.46329887;473.71885015;0.709804;0.647059;0.560784;42919.000000;1.000000;1.000000;1.000000;1.000000;-0.154975;0.154975;-0.154975;1.000000
445601.98580177;5696587.34849937;473.67614986;0.592157;0.576471;0.423529;36751.000000;1.000000;1.000000;1.000000;1.000000;0.023927;-0.023927;0.023927;1.000000
445601.87950142;5696587.37279900;473.64834978;0.560784;0.513725;0.415686;33667.000000;1.000000;1.000000;1.000000;1.000000;0.042879;-0.042879;0.042879;1.000000
445602.07270153;5696587.23279961;473.68804981;0.513725;0.494118;0.352941;31611.000000;1.000000;1.000000;1.000000;1.000000;-0.140951;0.140951;-0.140951;1.000000
445601.99170120;5696587.45929916;473.72434999;0.776471;0.713725;0.627451;47288.000000;1.000000;1.000000;1.000000;1.000000;-0.021074;0.021074;-0.021074;1.000000
445602.06340130;5696587.62379845;473.82735016;0.584314;0.556863;0.45098;36237.000000;1.000000;1.000000;1.000000;1.000000;-0.092774;0.092774;-0.092774;1.000000
445602.16930206;5696587.58609970;473.67794992;0.737255;0.713725;0.564706;46003.000000;1.000000;1.000000;1.000000;1.000000;-0.198675;0.198675;-0.198675;1.000000
445602.14160164;5696587.51619919;473.68055012;0.737255;0.694118;0.588235;45489.000000;1.000000;1.000000;1.000000;1.000000;-0.170975;0.170975;-0.170975;1.000000
445602.11130150;5696587.21539886;473.67794992;0.27451;0.258824;0.121569;16191.000000;1.000000;1.000000;1.000000;1.000000;-0.181446;0.181446;-0.181446;1.000000
445602.14490135;5696587.47839935;473.68494989;0.866667;0.839216;0.729412;54741.000000;1.000000;1.000000;1.000000;1.000000;-0.174274;0.174274;-0.174274;1.000000
445602.14830120;5696587.40289886;473.71215012;0.623529;0.568627;0.439216;37265.000000;1.000000;1.000000;1.000000;1.000000;-0.182862;0.182862;-0.182862;1.000000
445601.99860199;5696587.68739899;473.73434975;0.317647;0.254902;0.133333;16962.000000;1.000000;1.000000;1.000000;1.000000;-0.027975;0.027975;-0.027975;1.000000
445602.01560123;5696587.16899879;473.62885000;0.176471;0.152941;0.0156863;9252.000000;1.000000;1.000000;1.000000;1.000000;-0.167165;0.167165;-0.167165;1.000000
445601.88830193;5696587.13399895;473.63194992;0.427451;0.411765;0.294118;26214.000000;1.000000;1.000000;1.000000;1.000000;-0.196001;0.196001;-0.196001;1.000000
445602.16690166;5696587.41249855;473.73635008;0.686275;0.635294;0.541176;41891.000000;1.000000;1.000000;1.000000;1.000000;-0.199057;0.199057;-0.199057;1.000000
445602.04160126;5696587.17719849;473.69294979;0.423529;0.419608;0.301961;26728.000000;1.000000;1.000000;1.000000;1.000000;-0.168480;0.168480;-0.168480;1.000000
445602.11780174;5696587.45699890;473.72305014;0.682353;0.611765;0.521569;40606.000000;1.000000;1.000000;1.000000;1.000000;-0.147175;0.147175;-0.147175;1.000000
445601.96750172;5696587.31469925;473.70295002;0.701961;0.678431;0.541176;43690.000000;1.000000;1.000000;1.000000;1.000000;-0.015301;0.015301;-0.015301;1.000000
445601.70220192;5696587.31950005;473.63044979;0.454902;0.427451;0.337255;27756.000000;1.000000;1.000000;1.000000;1.000000;-0.010500;0.010500;-0.010500;1.000000
445601.73850163;5696587.35809906;473.63254978;0.305882;0.301961;0.160784;18761.000000;1.000000;1.000000;1.000000;1.000000;0.028099;-0.028099;0.028099;1.000000
445601.92930134;5696587.36549957;473.66914989;0.462745;0.411765;0.290196;26985.000000;1.000000;1.000000;1.000000;1.000000;0.035500;-0.035500;0.035500;1.000000
445601.73750122;5696587.39559944;473.62825014;0.54902;0.533333;0.435294;34438.000000;1.000000;1.000000;1.000000;1.000000;0.065599;-0.065599;0.065599;1.000000
445601.68270119;5696587.71479996;473.85085012;0.317647;0.301961;0.188235;19275.000000;1.000000;1.000000;1.000000;1.000000;0.115201;-0.115201;0.115201;1.000000
445601.68540199;5696587.71159943;473.89055016;0.67451;0.654902;0.552941;42405.000000;1.000000;1.000000;1.000000;1.000000;0.118440;-0.118440;0.118440;1.000000
445602.03730209;5696587.56199844;473.75794985;0.694118;0.623529;0.482353;41120.000000;1.000000;1.000000;1.000000;1.000000;-0.066675;0.066675;-0.066675;1.000000
445602.12550171;5696587.51299866;473.82655003;0.537255;0.498039;0.376471;32382.000000;1.000000;1.000000;1.000000;1.000000;-0.154875;0.154875;-0.154875;1.000000
445601.85860165;5696587.17699821;473.60085012;0.309804;0.309804;0.192157;19275.000000;1.000000;1.000000;1.000000;1.000000;-0.153002;0.153002;-0.153002;1.000000
445601.86950119;5696587.39919861;473.66454985;0.533333;0.45098;0.345098;30326.000000;1.000000;1.000000;1.000000;1.000000;0.069199;-0.069199;0.069199;1.000000
445602.04450138;5696587.66549881;473.81304981;0.592157;0.54902;0.45098;35980.000000;1.000000;1.000000;1.000000;1.000000;-0.073874;0.073874;-0.073874;1.000000
445601.90580185;5696587.53969963;473.72375013;0.384314;0.364706;0.203922;22873.000000;1.000000;1.000000;1.000000;1.000000;0.064825;-0.064825;0.064825;1.000000
445602.09130104;5696587.45150002;473.78235008;0.560784;0.529412;0.368627;33924.000000;1.000000;1.000000;1.000000;1.000000;-0.120674;0.120674;-0.120674;1.000000
445601.99010189;5696587.26639946;473.67075016;0.423529;0.407843;0.141176;24929.000000;1.000000;1.000000;1.000000;1.000000;-0.066515;0.066515;-0.066515;1.000000
445601.75940140;5696587.33049973;473.63075020;0.364706;0.333333;0.239216;21588.000000;1.000000;1.000000;1.000000;1.000000;0.000500;-0.000500;0.000500;1.000000
445601.72190102;5696587.32930000;473.62904980;0.705882;0.682353;0.592157;44461.000000;1.000000;1.000000;1.000000;1.000000;-0.001454;0.001454;-0.001454;1.000000
445601.89500149;5696587.46619995;473.70604994;0.592157;0.560784;0.470588;36494.000000;1.000000;1.000000;1.000000;1.000000;0.075625;-0.075625;0.075625;1.000000
445602.04790123;5696587.67849930;473.71084978;0.745098;0.713725;0.611765;46517.000000;1.000000;1.000000;1.000000;1.000000;-0.077274;0.077274;-0.077274;1.000000
445602.04680164;5696587.57249840;473.77705004;0.701961;0.654902;0.533333;42919.000000;1.000000;1.000000;1.000000;1.000000;-0.076175;0.076175;-0.076175;1.000000
445601.96880157;5696587.57099922;473.73864986;0.815686;0.796078;0.678431;51657.000000;1.000000;1.000000;1.000000;1.000000;0.001825;-0.001825;0.001825;1.000000
445602.12270172;5696587.53669937;473.67525007;0.843137;0.807843;0.701961;52685.000000;1.000000;1.000000;1.000000;1.000000;-0.152075;0.152075;-0.152075;1.000000
445602.16190155;5696587.50280006;473.66965010;0.890196;0.85098;0.72549;55512.000000;1.000000;1.000000;1.000000;1.000000;-0.191275;0.191275;-0.191275;1.000000
445602.12780197;5696587.46159943;473.66534998;0.745098;0.721569;0.611765;46774.000000;1.000000;1.000000;1.000000;1.000000;-0.157175;0.157175;-0.157175;1.000000
445602.12930115;5696587.46199997;473.63275005;0.854902;0.823529;0.713725;53713.000000;1.000000;1.000000;1.000000;1.000000;-0.158674;0.158674;-0.158674;1.000000
445601.79090126;5696587.44209869;473.62885000;0.607843;0.572549;0.478431;37522.000000;1.000000;1.000000;1.000000;1.000000;0.112099;-0.112099;0.112099;1.000000
445602.02200134;5696587.30779846;473.67035009;0.490196;0.52549;0.298039;31868.000000;1.000000;1.000000;1.000000;1.000000;-0.055966;0.055966;-0.055966;1.000000
445601.91160210;5696587.29949959;473.66524984;0.494118;0.462745;0.317647;29812.000000;1.000000;1.000000;1.000000;1.000000;-0.030698;0.030698;-0.030698;1.000000
445601.94550140;5696587.26359947;473.66865017;0.368627;0.356863;0.2;22359.000000;1.000000;1.000000;1.000000;1.000000;-0.066411;0.066411;-0.066411;1.000000
445602.11050137;5696587.60539825;473.83395006;0.823529;0.768627;0.647059;50372.000000;1.000000;1.000000;1.000000;1.000000;-0.139874;0.139874;-0.139874;1.000000
445602.03340157;5696587.61089905;473.79094984;0.470588;0.427451;0.305882;27756.000000;1.000000;1.000000;1.000000;1.000000;-0.062775;0.062775;-0.062775;1.000000
445601.92240150;5696587.61759956;473.72314980;0.65098;0.596078;0.478431;39064.000000;1.000000;1.000000;1.000000;1.000000;0.048225;-0.048225;0.048225;1.000000
445602.14360149;5696587.41749962;473.84954979;0.556863;0.54902;0.439216;35209.000000;1.000000;1.000000;1.000000;1.000000;-0.174903;0.174903;-0.174903;1.000000
445601.95960148;5696587.16729935;473.62155010;0.333333;0.317647;0.2;20046.000000;1.000000;1.000000;1.000000;1.000000;-0.162701;0.162701;-0.162701;1.000000
445602.07350166;5696587.58849915;473.78784992;0.584314;0.529412;0.423529;34952.000000;1.000000;1.000000;1.000000;1.000000;-0.102875;0.102875;-0.102875;1.000000
445601.86140163;5696587.16019829;473.60774996;0.266667;0.247059;0.133333;15677.000000;1.000000;1.000000;1.000000;1.000000;-0.169802;0.169802;-0.169802;1.000000
445602.07670124;5696587.54619987;473.78515007;0.52549;0.470588;0.380392;31097.000000;1.000000;1.000000;1.000000;1.000000;-0.106074;0.106074;-0.106074;1.000000
445602.11590202;5696587.50549896;473.76314976;0.72549;0.670588;0.509804;43690.000000;1.000000;1.000000;1.000000;1.000000;-0.145275;0.145275;-0.145275;1.000000
445601.71670158;5696587.18999870;473.61084988;0.458824;0.45098;0.333333;28784.000000;1.000000;1.000000;1.000000;1.000000;-0.140001;0.140001;-0.140001;1.000000
445601.72020157;5696587.15229996;473.61065008;0.435294;0.423529;0.321569;27242.000000;1.000000;1.000000;1.000000;1.000000;-0.177700;0.177700;-0.177700;1.000000
445601.79420097;5696587.39979942;473.62384989;0.486275;0.435294;0.352941;28784.000000;1.000000;1.000000;1.000000;1.000000;0.069799;-0.069799;0.069799;1.000000
445601.91360100;5696587.60499962;473.68524982;0.533333;0.541176;0.435294;34438.000000;1.000000;1.000000;1.000000;1.000000;0.057026;-0.057026;0.057026;1.000000
445601.84230145;5696587.20409973;473.60274984;0.6;0.596078;0.482353;38293.000000;1.000000;1.000000;1.000000;1.000000;-0.125900;0.125900;-0.125900;1.000000
445601.82980164;5696587.20269974;473.61844971;0.505882;0.482353;0.368627;31097.000000;1.000000;1.000000;1.000000;1.000000;-0.127300;0.127300;-0.127300;1.000000
445601.87710197;5696587.41759880;473.63714983;0.564706;0.509804;0.47451;34181.000000;1.000000;1.000000;1.000000;1.000000;0.087599;-0.087599;0.087599;1.000000
445601.94060143;5696587.45269974;473.70335009;0.670588;0.631373;0.529412;41377.000000;1.000000;1.000000;1.000000;1.000000;0.030025;-0.030025;0.030025;1.000000
445601.94900139;5696587.37539871;473.66785004;0.27451;0.231373;0.121569;15163.000000;1.000000;1.000000;1.000000;1.000000;0.045399;-0.045399;0.045399;1.000000
445602.06060131;5696587.51159866;473.70475008;0.462745;0.411765;0.321569;27242.000000;1.000000;1.000000;1.000000;1.000000;-0.089974;0.089974;-0.089974;1.000000
445601.93130119;5696587.20519836;473.60214998;0.690196;0.670588;0.576471;43433.000000;1.000000;1.000000;1.000000;1.000000;-0.124802;0.124802;-0.124802;1.000000
445601.88660152;5696587.31859978;473.63644983;0.615686;0.580392;0.454902;37779.000000;1.000000;1.000000;1.000000;1.000000;-0.011400;0.011400;-0.011400;1.000000
445601.90070160;5696587.47509964;473.70174982;0.482353;0.423529;0.333333;28013.000000;1.000000;1.000000;1.000000;1.000000;0.069925;-0.069925;0.069925;1.000000
445602.11210163;5696587.43429955;473.85755016;0.498039;0.478431;0.415686;31097.000000;1.000000;1.000000;1.000000;1.000000;-0.141757;0.141757;-0.141757;1.000000
445601.96680172;5696587.65509995;473.75115015;0.352941;0.317647;0.207843;20560.000000;1.000000;1.000000;1.000000;1.000000;0.003825;-0.003825;0.003825;1.000000
445602.15610130;5696587.59179886;473.83115007;0.596078;0.517647;0.376471;34438.000000;1.000000;1.000000;1.000000;1.000000;-0.185474;0.185474;-0.185474;1.000000
445602.01060112;5696587.58379944;473.71964981;0.513725;0.458824;0.321569;30069.000000;1.000000;1.000000;1.000000;1.000000;-0.039974;0.039974;-0.039974;1.000000
445602.12630184;5696587.54729851;473.72214987;0.54902;0.45098;0.388235;30840.000000;1.000000;1.000000;1.000000;1.000000;-0.155675;0.155675;-0.155675;1.000000
445602.12730129;5696587.51799973;473.79635002;0.847059;0.792157;0.682353;52171.000000;1.000000;1.000000;1.000000;1.000000;-0.156674;0.156674;-0.156674;1.000000
445602.07270153;5696587.61399849;473.80674984;0.835294;0.796078;0.713725;52171.000000;1.000000;1.000000;1.000000;1.000000;-0.102075;0.102075;-0.102075;1.000000
445602.14570148;5696587.41069992;473.68184998;0.658824;0.611765;0.490196;40092.000000;1.000000;1.000000;1.000000;1.000000;-0.178749;0.178749;-0.178749;1.000000
445602.11770161;5696587.64849861;473.86735012;0.811765;0.752941;0.666667;49858.000000;1.000000;1.000000;1.000000;1.000000;-0.147075;0.147075;-0.147075;1.000000
445601.81030186;5696587.42839821;473.63894989;0.498039;0.443137;0.372549;29555.000000;1.000000;1.000000;1.000000;1.000000;0.098398;-0.098398;0.098398;1.000000
445602.03860100;5696587.36229904;473.67635014;0.27451;0.258824;0.113725;16191.000000;1.000000;1.000000;1.000000;1.000000;0.075258;-0.075258;0.075258;1.000000
445601.94600113;5696587.19119843;473.66314985;0.501961;0.47451;0.333333;30583.000000;1.000000;1.000000;1.000000;1.000000;-0.138803;0.138803;-0.138803;1.000000
445602.08700188;5696587.27159889;473.65884974;0.647059;0.654902;0.498039;41634.000000;1.000000;1.000000;1.000000;1.000000;-0.130207;0.130207;-0.130207;1.000000
445602.03750141;5696587.32499893;473.67355015;0.733333;0.741176;0.584314;47288.000000;1.000000;1.000000;1.000000;1.000000;-0.067061;0.067061;-0.067061;1.000000
445601.70210178;5696587.34739883;473.64004995;0.486275;0.470588;0.356863;30326.000000;1.000000;1.000000;1.000000;1.000000;0.017399;-0.017399;0.017399;1.000000
445602.10950096;5696587.32829865;473.63964989;0.588235;0.560784;0.392157;35980.000000;1.000000;1.000000;1.000000;1.000000;-0.138884;0.138884;-0.138884;1.000000
445601.96910103;5696587.24489983;473.67654993;0.733333;0.72549;0.576471;46517.000000;1.000000;1.000000;1.000000;1.000000;-0.085100;0.085100;-0.085100;1.000000
445602.11860188;5696587.40129860;473.69444992;0.282353;0.231373;0.133333;15420.000000;1.000000;1.000000;1.000000;1.000000;-0.154725;0.154725;-0.154725;1.000000
445602.10190208;5696587.23509987;473.66615011;0.470588;0.462745;0.305882;29298.000000;1.000000;1.000000;1.000000;1.000000;-0.161985;0.161985;-0.161985;1.000000
445601.79970177;5696587.25910004;473.62475016;0.466667;0.431373;0.309804;28013.000000;1.000000;1.000000;1.000000;1.000000;-0.070900;0.070900;-0.070900;1.000000
445602.05930145;5696587.23199852;473.67114975;0.584314;0.576471;0.392157;36494.000000;1.000000;1.000000;1.000000;1.000000;-0.132165;0.132165;-0.132165;1.000000
445601.88060196;5696587.15109833;473.62944986;0.533333;0.505882;0.388235;32639.000000;1.000000;1.000000;1.000000;1.000000;-0.178939;0.178939;-0.178939;1.000000
