//X;Y;Z;Rf;Gf;Bf;Intensity;Return Number;Number Of Returns;Scan Direction Flag;Point Source ID;C2M signed distances[-][<0.8];C2M signed distances[<0.4];C2M signed distances[-][<0.2];Stump71
300
445642.41050156;5696578.74649914;470.95645000;0.501961;0.509804;0.458824;32639.000000;1.000000;1.000000;1.000000;1.000000;0.083501;-0.083501;0.083501;1.000000
445642.52430161;5696578.73149879;470.94275000;0.321569;0.337255;0.286275;21331.000000;1.000000;1.000000;1.000000;1.000000;0.098519;-0.098519;0.098519;1.000000
445642.59630020;5696578.75279911;470.94624998;0.403922;0.419608;0.376471;26728.000000;1.000000;1.000000;1.000000;1.000000;0.077201;-0.077201;0.077201;1.000000
445642.54190262;5696578.74159916;470.93665006;0.501961;0.513725;0.458824;32896.000000;1.000000;1.000000;1.000000;1.000000;0.088401;-0.088401;0.088401;1.000000
445642.62610062;5696578.72879894;470.96134998;0.72549;0.752941;0.741176;48573.000000;1.000000;1.000000;1.000000;1.000000;0.101204;-0.101204;0.101204;1.000000
445642.62710007;5696578.95109947;470.93135001;0.372549;0.368627;0.34902;23901.000000;1.000000;1.000000;1.000000;1.000000;0.000223;-0.000223;0.000223;1.000000
445642.74800308;5696578.72249897;470.94114997;0.462745;0.447059;0.411765;29298.000000;1.000000;1.000000;1.000000;1.000000;-0.122448;0.122448;-0.122448;1.000000
445642.51480301;5696578.92639931;470.93534996;0.698039;0.698039;0.666667;45489.000000;1.000000;1.000000;1.000000;1.000000;-0.096399;0.096399;-0.096399;1.000000
445642.32100113;5696579.12439926;470.92424991;0.552941;0.537255;0.494118;34952.000000;1.000000;1.000000;1.000000;1.000000;-0.006624;0.006624;-0.006624;1.000000
445642.55360229;5696578.89239891;470.93665006;0.509804;0.509804;0.482353;33153.000000;1.000000;1.000000;1.000000;1.000000;-0.062399;0.062399;-0.062399;1.000000
445642.54380234;5696579.13399895;470.92974998;0.717647;0.690196;0.639216;45232.000000;1.000000;1.000000;1.000000;1.000000;-0.083075;0.083075;-0.083075;1.000000
445642.37410172;5696579.19189938;470.92284991;0.490196;0.447059;0.403922;29812.000000;1.000000;1.000000;1.000000;1.000000;-0.059725;0.059725;-0.059725;1.000000
445642.32200058;5696579.08689888;470.92855002;0.443137;0.435294;0.388235;28270.000000;1.000000;1.000000;1.000000;1.000000;-0.007624;0.007624;-0.007624;1.000000
445642.46330078;5696578.82379921;470.93174984;0.658824;0.662745;0.631373;42919.000000;1.000000;1.000000;1.000000;1.000000;0.007076;-0.007076;0.007076;1.000000
445642.56630142;5696579.05019959;470.92984988;0.760784;0.741176;0.698039;48573.000000;1.000000;1.000000;1.000000;1.000000;-0.060575;0.060575;-0.060575;1.000000
445642.37460144;5696578.71699913;470.96615006;0.509804;0.52549;0.470588;33667.000000;1.000000;1.000000;1.000000;1.000000;-0.067048;0.067048;-0.067048;1.000000
445642.61230286;5696578.86599930;470.92974998;0.541176;0.54902;0.521569;35466.000000;1.000000;1.000000;1.000000;1.000000;-0.014574;0.014574;-0.014574;1.000000
445642.55300339;5696578.91109951;470.93684985;0.752941;0.752941;0.72549;49087.000000;1.000000;1.000000;1.000000;1.000000;-0.073874;0.073874;-0.073874;1.000000
445642.50840195;5696578.63949879;470.94794991;0.45098;0.462745;0.376471;29298.000000;1.000000;1.000000;1.000000;1.000000;0.100275;-0.100275;0.100275;1.000000
445642.30260284;5696578.69569881;470.96254994;0.360784;0.372549;0.301961;23644.000000;1.000000;1.000000;1.000000;1.000000;-0.111770;0.111770;-0.111770;1.000000
445642.68480118;5696578.89879902;470.94505002;0.705882;0.705882;0.682353;46003.000000;1.000000;1.000000;1.000000;1.000000;0.057924;-0.057924;0.057924;1.000000
445642.37510117;5696579.15439899;470.92704989;0.615686;0.592157;0.552941;38807.000000;1.000000;1.000000;1.000000;1.000000;-0.060724;0.060724;-0.060724;1.000000
445642.73260315;5696578.83369930;470.94174983;0.372549;0.384314;0.372549;24672.000000;1.000000;1.000000;1.000000;1.000000;0.043384;-0.043384;0.043384;1.000000
445642.29549988;5696578.81559952;470.95435001;0.172549;0.176471;0.172549;11308.000000;1.000000;1.000000;1.000000;1.000000;-0.014400;0.014400;-0.014400;1.000000
445642.50490005;5696579.17029961;470.93314983;0.556863;0.52549;0.47451;34438.000000;1.000000;1.000000;1.000000;1.000000;-0.122569;0.122569;-0.122569;1.000000
445642.79630096;5696578.86509903;470.94264986;0.266667;0.266667;0.258824;17219.000000;1.000000;1.000000;1.000000;1.000000;0.112538;-0.112538;0.112538;1.000000
445642.58060272;5696578.70759876;470.94034984;0.2;0.219608;0.203922;13878.000000;1.000000;1.000000;1.000000;1.000000;0.122401;-0.122401;0.122401;1.000000
445642.53820236;5696578.82609947;470.93284990;0.517647;0.517647;0.478431;33410.000000;1.000000;1.000000;1.000000;1.000000;0.003901;-0.003901;0.003901;1.000000
445642.32000168;5696578.70579918;470.96114995;0.537255;0.54902;0.490196;35209.000000;1.000000;1.000000;1.000000;1.000000;-0.099860;0.099860;-0.099860;1.000000
445642.78560074;5696578.69799908;470.93785002;0.454902;0.447059;0.407843;29041.000000;1.000000;1.000000;1.000000;1.000000;-0.163350;0.163350;-0.163350;1.000000
445642.50130280;5696578.80619915;470.93324997;0.556863;0.560784;0.533333;36237.000000;1.000000;1.000000;1.000000;1.000000;0.023808;-0.023808;0.023808;1.000000
445642.41380127;5696579.11809929;470.92834999;0.643137;0.635294;0.6;41377.000000;1.000000;1.000000;1.000000;1.000000;-0.099424;0.099424;-0.099424;1.000000
445642.53880127;5696578.80739887;470.93264987;0.572549;0.572549;0.533333;37008.000000;1.000000;1.000000;1.000000;1.000000;0.022601;-0.022601;0.022601;1.000000
445642.68660172;5696578.81459911;470.93715002;0.482353;0.478431;0.462745;31097.000000;1.000000;1.000000;1.000000;1.000000;-0.015401;0.015401;-0.015401;1.000000
445642.67690094;5696578.88789948;470.94225003;0.733333;0.737255;0.713725;48059.000000;1.000000;1.000000;1.000000;1.000000;0.050024;-0.050024;0.050024;1.000000
445642.46700104;5696578.76729877;470.93824985;0.239216;0.243137;0.211765;15420.000000;1.000000;1.000000;1.000000;1.000000;0.062806;-0.062806;0.062806;1.000000
445642.50220306;5696578.76859959;470.93984987;0.627451;0.635294;0.6;41120.000000;1.000000;1.000000;1.000000;1.000000;0.061400;-0.061400;0.061400;1.000000
445642.53989990;5696578.76989944;470.93464996;0.345098;0.34902;0.305882;22359.000000;1.000000;1.000000;1.000000;1.000000;0.060101;-0.060101;0.060101;1.000000
445642.51420029;5696579.16939934;470.93354990;0.690196;0.658824;0.607843;43176.000000;1.000000;1.000000;1.000000;1.000000;-0.113225;0.113225;-0.113225;1.000000
445642.57560165;5696578.82729919;470.93694999;0.568627;0.572549;0.529412;37008.000000;1.000000;1.000000;1.000000;1.000000;0.002701;-0.002701;0.002701;1.000000
445642.46560104;5696579.00099953;470.93634989;0.333333;0.321569;0.290196;21074.000000;1.000000;1.000000;1.000000;1.000000;-0.151226;0.151226;-0.151226;1.000000
445642.68270309;5696579.12109955;470.93354990;0.588235;0.545098;0.486275;35980.000000;1.000000;1.000000;1.000000;1.000000;0.055826;-0.055826;0.055826;1.000000
445642.57730301;5696578.77099903;470.93864991;0.482353;0.490196;0.447059;31611.000000;1.000000;1.000000;1.000000;1.000000;0.059001;-0.059001;0.059001;1.000000
445642.54120071;5696578.73469933;470.93654992;0.352941;0.360784;0.305882;22873.000000;1.000000;1.000000;1.000000;1.000000;0.095301;-0.095301;0.095301;1.000000
445642.54689987;5696578.81829937;470.93314983;0.619608;0.623529;0.584314;40349.000000;1.000000;1.000000;1.000000;1.000000;0.011701;-0.011701;0.011701;1.000000
445642.37270172;5696578.78979881;470.95054986;0.470588;0.470588;0.435294;30583.000000;1.000000;1.000000;1.000000;1.000000;0.053582;-0.053582;0.053582;1.000000
445642.27290161;5696578.70309933;470.96365001;0.439216;0.45098;0.384314;28784.000000;1.000000;1.000000;1.000000;1.000000;-0.126901;0.126901;-0.126901;1.000000
445642.61310013;5696578.82849892;470.93624999;0.513725;0.521569;0.482353;33667.000000;1.000000;1.000000;1.000000;1.000000;0.001501;-0.001501;0.001501;1.000000
445642.69870193;5696578.72229870;470.94354989;0.533333;0.521569;0.494118;34181.000000;1.000000;1.000000;1.000000;1.000000;-0.108104;0.108104;-0.108104;1.000000
445642.78310211;5696578.77069958;470.93624999;0.439216;0.439216;0.423529;28527.000000;1.000000;1.000000;1.000000;1.000000;-0.110910;0.110910;-0.110910;1.000000
445642.47450073;5696579.01889904;470.93225004;0.32549;0.305882;0.27451;20046.000000;1.000000;1.000000;1.000000;1.000000;-0.152376;0.152376;-0.152376;1.000000
445642.81860168;5696578.80009945;470.93595006;0.32549;0.337255;0.321569;21588.000000;1.000000;1.000000;1.000000;1.000000;-0.132639;0.132639;-0.132639;1.000000
445642.47640045;5696578.94389923;470.94074990;0.647059;0.654902;0.623529;42405.000000;1.000000;1.000000;1.000000;1.000000;-0.113899;0.113899;-0.113899;1.000000
445642.38480194;5696578.91269882;470.93864991;0.513725;0.513725;0.482353;33410.000000;1.000000;1.000000;1.000000;1.000000;-0.085925;0.085925;-0.085925;1.000000
445642.59850128;5696578.72689922;470.94604995;0.431373;0.454902;0.427451;29041.000000;1.000000;1.000000;1.000000;1.000000;0.103101;-0.103101;0.103101;1.000000
445642.52810104;5696578.64929874;470.94665005;0.223529;0.235294;0.156863;14392.000000;1.000000;1.000000;1.000000;1.000000;0.119974;-0.119974;0.119974;1.000000
445642.33440216;5696578.99459942;470.92794992;0.458824;0.458824;0.423529;29812.000000;1.000000;1.000000;1.000000;1.000000;-0.021294;0.021294;-0.021294;1.000000
445642.52940186;5696578.61189945;470.94385006;0.556863;0.576471;0.541176;37008.000000;1.000000;1.000000;1.000000;1.000000;0.121275;-0.121275;0.121275;1.000000
445642.66209991;5696579.17669876;470.93564989;0.705882;0.682353;0.643137;44718.000000;1.000000;1.000000;1.000000;1.000000;0.039731;-0.039731;0.039731;1.000000
445642.44940002;5696578.71029957;470.95304992;0.364706;0.384314;0.341176;24415.000000;1.000000;1.000000;1.000000;1.000000;0.066098;-0.066098;0.066098;1.000000
445642.66890152;5696579.04539879;470.92744996;0.458824;0.435294;0.4;28527.000000;1.000000;1.000000;1.000000;1.000000;0.042025;-0.042025;0.042025;1.000000
445642.70840271;5696578.97379883;470.93995001;0.196078;0.188235;0.176471;12336.000000;1.000000;1.000000;1.000000;1.000000;0.081526;-0.081526;0.081526;1.000000
445642.70650299;5696579.04879959;470.92914989;0.552941;0.529412;0.494118;34695.000000;1.000000;1.000000;1.000000;1.000000;0.079626;-0.079626;0.079626;1.000000
445642.63130005;5696579.04419907;470.92805006;0.654902;0.623529;0.580392;41120.000000;1.000000;1.000000;1.000000;1.000000;0.004423;-0.004423;0.004423;1.000000
445642.72360046;5696578.63819893;470.94365003;0.588235;0.568627;0.505882;37008.000000;1.000000;1.000000;1.000000;1.000000;-0.194830;0.194830;-0.194830;1.000000
445642.78569992;5696578.87549885;470.93995001;0.321569;0.317647;0.305882;20560.000000;1.000000;1.000000;1.000000;1.000000;0.106528;-0.106528;0.106528;1.000000
445642.64140137;5696578.83049877;470.93525006;0.501961;0.501961;0.470588;32639.000000;1.000000;1.000000;1.000000;1.000000;-0.000499;0.000499;-0.000499;1.000000
445642.52560242;5696579.11469944;470.92875006;0.584314;0.552941;0.509804;36494.000000;1.000000;1.000000;1.000000;1.000000;-0.101274;0.101274;-0.101274;1.000000
445642.59000214;5696578.73469933;470.94344999;0.505882;0.521569;0.486275;33410.000000;1.000000;1.000000;1.000000;1.000000;0.095437;-0.095437;0.095437;1.000000
445642.65220078;5696578.96969898;470.93275001;0.435294;0.427451;0.423529;28013.000000;1.000000;1.000000;1.000000;1.000000;0.025324;-0.025324;0.025324;1.000000
445642.60060318;5696579.11709888;470.92984988;0.505882;0.470588;0.411765;31097.000000;1.000000;1.000000;1.000000;1.000000;-0.026274;0.026274;-0.026274;1.000000
445642.56320007;5696579.11589916;470.92814996;0.505882;0.47451;0.427451;31354.000000;1.000000;1.000000;1.000000;1.000000;-0.063677;0.063677;-0.063677;1.000000
445642.46180161;5696579.08319958;470.93244984;0.690196;0.678431;0.647059;44461.000000;1.000000;1.000000;1.000000;1.000000;-0.147425;0.147425;-0.147425;1.000000
445642.51600082;5696578.69479950;470.94665005;0.713725;0.72549;0.666667;46774.000000;1.000000;1.000000;1.000000;1.000000;0.113805;-0.113805;0.113805;1.000000
445642.66330154;5696579.13919933;470.93525006;0.454902;0.411765;0.356863;27242.000000;1.000000;1.000000;1.000000;1.000000;0.036425;-0.036425;0.036425;1.000000
445642.31750305;5696578.78069885;470.96424987;0.392157;0.403922;0.392157;25957.000000;1.000000;1.000000;1.000000;1.000000;-0.049400;0.049400;-0.049400;1.000000
445642.56070145;5696578.74229916;470.93525006;0.678431;0.690196;0.635294;44461.000000;1.000000;1.000000;1.000000;1.000000;0.087778;-0.087778;0.087778;1.000000
445642.64550217;5696578.92359932;470.93424990;0.337255;0.337255;0.321569;21845.000000;1.000000;1.000000;1.000000;1.000000;0.018625;-0.018625;0.018625;1.000000
445642.73810013;5696578.91949947;470.94534995;0.572549;0.556863;0.517647;36494.000000;1.000000;1.000000;1.000000;1.000000;0.101902;-0.101902;0.101902;1.000000
445642.63150223;5696578.80329903;470.94385006;0.498039;0.505882;0.478431;32639.000000;1.000000;1.000000;1.000000;1.000000;0.026701;-0.026701;0.026701;1.000000
445642.70070084;5696579.14039906;470.93694999;0.72549;0.67451;0.611765;44718.000000;1.000000;1.000000;1.000000;1.000000;0.073824;-0.073824;0.073824;1.000000
445642.78360184;5696578.72619923;470.93575003;0.505882;0.498039;0.466667;32382.000000;1.000000;1.000000;1.000000;1.000000;-0.140189;0.140189;-0.140189;1.000000
445642.47050293;5696578.90699871;470.94474985;0.666667;0.670588;0.635294;43433.000000;1.000000;1.000000;1.000000;1.000000;-0.076999;0.076999;-0.076999;1.000000
445642.30040176;5696578.95569904;470.92834999;0.243137;0.243137;0.223529;15677.000000;1.000000;1.000000;1.000000;1.000000;0.048195;-0.048195;0.048195;1.000000
445642.52680023;5696579.07719906;470.92834999;0.47451;0.447059;0.411765;29555.000000;1.000000;1.000000;1.000000;1.000000;-0.100077;0.100077;-0.100077;1.000000
445642.48930176;5696579.07599934;470.92894985;0.67451;0.65098;0.615686;42662.000000;1.000000;1.000000;1.000000;1.000000;-0.137575;0.137575;-0.137575;1.000000
445642.72170074;5696579.08489903;470.92564990;0.411765;0.384314;0.345098;25443.000000;1.000000;1.000000;1.000000;1.000000;0.094824;-0.094824;0.094824;1.000000
445642.71249969;5696579.08569916;470.92524983;0.321569;0.294118;0.254902;19532.000000;1.000000;1.000000;1.000000;1.000000;0.085623;-0.085623;0.085623;1.000000
445642.64060028;5696579.01759918;470.92584993;0.552941;0.52549;0.490196;34695.000000;1.000000;1.000000;1.000000;1.000000;0.013723;-0.013723;0.013723;1.000000
445642.57500275;5696579.04239948;470.92774989;0.694118;0.67451;0.619608;43947.000000;1.000000;1.000000;1.000000;1.000000;-0.051874;0.051874;-0.051874;1.000000
445642.65789993;5696578.64409931;470.96175005;0.65098;0.654902;0.631373;42662.000000;1.000000;1.000000;1.000000;1.000000;-0.185901;0.185901;-0.185901;1.000000
445642.47580154;5696579.00939949;470.93454983;0.309804;0.294118;0.262745;19275.000000;1.000000;1.000000;1.000000;1.000000;-0.151075;0.151075;-0.151075;1.000000
445642.82240112;5696578.68999870;470.93474986;0.47451;0.458824;0.423529;30069.000000;1.000000;1.000000;1.000000;1.000000;-0.193121;0.193121;-0.193121;1.000000
445642.51099976;5696579.01079948;470.93384983;0.580392;0.568627;0.533333;37008.000000;1.000000;1.000000;1.000000;1.000000;-0.115877;0.115877;-0.115877;1.000000
445642.36450012;5696578.96839912;470.93365004;0.45098;0.454902;0.419608;29298.000000;1.000000;1.000000;1.000000;1.000000;-0.060188;0.060188;-0.060188;1.000000
445642.69660004;5696579.01929958;470.93304994;0.509804;0.501961;0.490196;32896.000000;1.000000;1.000000;1.000000;1.000000;0.069723;-0.069723;0.069723;1.000000
445642.60300262;5696579.04209908;470.92904999;0.8;0.772549;0.721569;50629.000000;1.000000;1.000000;1.000000;1.000000;-0.023874;0.023874;-0.023874;1.000000
445642.78700073;5696578.68849953;470.93785002;0.631373;0.623529;0.576471;40606.000000;1.000000;1.000000;1.000000;1.000000;-0.171909;0.171909;-0.171909;1.000000
445642.71190079;5696578.91719921;470.95114996;0.337255;0.321569;0.290196;21074.000000;1.000000;1.000000;1.000000;1.000000;0.085024;-0.085024;0.085024;1.000000
445642.71310242;5696578.87969883;470.95074989;0.913725;0.913725;0.890196;59624.000000;1.000000;1.000000;1.000000;1.000000;0.055072;-0.055072;0.055072;1.000000
445642.64389999;5696578.76689919;470.95554997;0.380392;0.4;0.4;25700.000000;1.000000;1.000000;1.000000;1.000000;0.063101;-0.063101;0.063101;1.000000
445642.45750244;5696578.72119911;470.95124986;0.486275;0.501961;0.466667;32125.000000;1.000000;1.000000;1.000000;1.000000;0.079699;-0.079699;0.079699;1.000000
445642.67540176;5696578.89739903;470.94225003;0.631373;0.631373;0.611765;41120.000000;1.000000;1.000000;1.000000;1.000000;0.048525;-0.048525;0.048525;1.000000
445642.46090134;5696578.68349941;470.95334985;0.243137;0.266667;0.215686;16448.000000;1.000000;1.000000;1.000000;1.000000;0.058323;-0.058323;0.058323;1.000000
445642.49850281;5696578.68469913;470.95034983;0.309804;0.329412;0.258824;20560.000000;1.000000;1.000000;1.000000;1.000000;0.094066;-0.094066;0.094066;1.000000
445642.46330078;5696578.60849960;470.95254995;0.623529;0.635294;0.580392;40863.000000;1.000000;1.000000;1.000000;1.000000;0.055174;-0.055174;0.055174;1.000000
445642.58920105;5696578.72549923;470.94324996;0.529412;0.545098;0.509804;34952.000000;1.000000;1.000000;1.000000;1.000000;0.104589;-0.104589;0.104589;1.000000
445642.51190002;5696579.02009876;470.93394997;0.568627;0.552941;0.509804;35980.000000;1.000000;1.000000;1.000000;1.000000;-0.114977;0.114977;-0.114977;1.000000
445642.30380066;5696578.65819939;470.96225001;0.376471;0.392157;0.278431;24415.000000;1.000000;1.000000;1.000000;1.000000;-0.104326;0.104326;-0.104326;1.000000
445642.28940018;5696578.75979908;470.97444989;0.239216;0.258824;0.25098;16448.000000;1.000000;1.000000;1.000000;1.000000;0.070201;-0.070201;0.070201;1.000000
445642.37120255;5696579.01449879;470.93225004;0.517647;0.509804;0.478431;33153.000000;1.000000;1.000000;1.000000;1.000000;-0.056826;0.056826;-0.056826;1.000000
445642.44830139;5696578.99089916;470.93544986;0.486275;0.478431;0.45098;31097.000000;1.000000;1.000000;1.000000;1.000000;-0.134358;0.134358;-0.134358;1.000000
445642.38890274;5696579.05259903;470.92884995;0.576471;0.564706;0.533333;37008.000000;1.000000;1.000000;1.000000;1.000000;-0.074526;0.074526;-0.074526;1.000000
445642.38590057;5696578.87519939;470.93824985;0.611765;0.607843;0.572549;39578.000000;1.000000;1.000000;1.000000;1.000000;-0.050369;0.050369;-0.050369;1.000000
445642.55970200;5696578.95719917;470.93544986;0.345098;0.341176;0.298039;22102.000000;1.000000;1.000000;1.000000;1.000000;-0.067175;0.067175;-0.067175;1.000000
445642.67800339;5696579.01879890;470.92984988;0.415686;0.411765;0.396078;26728.000000;1.000000;1.000000;1.000000;1.000000;0.051126;-0.051126;0.051126;1.000000
445642.59740265;5696578.95849903;470.93244984;0.415686;0.407843;0.364706;26471.000000;1.000000;1.000000;1.000000;1.000000;-0.029474;0.029474;-0.029474;1.000000
445642.30630310;5696578.99259956;470.92435004;0.607843;0.607843;0.568627;39321.000000;1.000000;1.000000;1.000000;1.000000;0.012324;-0.012324;0.012324;1.000000
445642.32510193;5696578.80819901;470.95564987;0.243137;0.254902;0.235294;16191.000000;1.000000;1.000000;1.000000;1.000000;-0.024296;0.024296;-0.024296;1.000000
445642.55669983;5696579.02299889;470.93135001;0.619608;0.6;0.54902;39321.000000;1.000000;1.000000;1.000000;1.000000;-0.070177;0.070177;-0.070177;1.000000
445642.79760178;5696578.85559948;470.94494988;0.392157;0.4;0.392157;25957.000000;1.000000;1.000000;1.000000;1.000000;0.111211;-0.111211;0.111211;1.000000
445642.66140182;5696578.77479942;470.94715001;0.152941;0.172549;0.180392;10794.000000;1.000000;1.000000;1.000000;1.000000;0.055201;-0.055201;0.055201;1.000000
445642.38020142;5696578.83839901;470.93754985;0.52549;0.533333;0.505882;34438.000000;1.000000;1.000000;1.000000;1.000000;-0.029161;0.029161;-0.029161;1.000000
445642.34390076;5696578.99609955;470.92844989;0.490196;0.486275;0.45098;31611.000000;1.000000;1.000000;1.000000;1.000000;-0.030075;0.030075;-0.030075;1.000000
445642.35530289;5696579.19129951;470.92424991;0.709804;0.67451;0.631373;44461.000000;1.000000;1.000000;1.000000;1.000000;-0.040926;0.040926;-0.040926;1.000000
445642.38800247;5696579.04329880;470.93094995;0.462745;0.454902;0.427451;29555.000000;1.000000;1.000000;1.000000;1.000000;-0.073626;0.073626;-0.073626;1.000000
445642.42550095;5696579.04449947;470.93034985;0.509804;0.494118;0.470588;32382.000000;1.000000;1.000000;1.000000;1.000000;-0.111124;0.111124;-0.111124;1.000000
445642.36390121;5696578.77409943;470.95934989;0.235294;0.243137;0.203922;15420.000000;1.000000;1.000000;1.000000;1.000000;0.071280;-0.071280;0.071280;1.000000
445642.54180344;5696579.16229923;470.92774989;0.627451;0.592157;0.537255;39064.000000;1.000000;1.000000;1.000000;1.000000;-0.085174;0.085174;-0.085174;1.000000
445642.57909973;5696579.16109951;470.92934992;0.745098;0.709804;0.666667;46774.000000;1.000000;1.000000;1.000000;1.000000;-0.047866;0.047866;-0.047866;1.000000
445642.70689972;5696579.03009899;470.93365004;0.678431;0.662745;0.643137;43433.000000;1.000000;1.000000;1.000000;1.000000;0.080023;-0.080023;0.080023;1.000000
445642.64439972;5696578.74809940;470.95774986;0.360784;0.380392;0.380392;24415.000000;1.000000;1.000000;1.000000;1.000000;0.081901;-0.081901;0.081901;1.000000
445642.50780304;5696579.12339886;470.92805006;0.65098;0.619608;0.580392;40863.000000;1.000000;1.000000;1.000000;1.000000;-0.119074;0.119074;-0.119074;1.000000
445642.58049973;5696579.12589939;470.92904999;0.545098;0.509804;0.458824;33667.000000;1.000000;1.000000;1.000000;1.000000;-0.046377;0.046377;-0.046377;1.000000
445642.50900085;5696579.08589943;470.92764999;0.560784;0.533333;0.498039;35209.000000;1.000000;1.000000;1.000000;1.000000;-0.117876;0.117876;-0.117876;1.000000
445642.39500244;5696578.92339905;470.94155004;0.631373;0.631373;0.6;41120.000000;1.000000;1.000000;1.000000;1.000000;-0.094317;0.094317;-0.094317;1.000000
445642.32080276;5696578.88119896;470.94464995;0.592157;0.584314;0.552941;38036.000000;1.000000;1.000000;1.000000;1.000000;0.051601;-0.051601;0.051601;1.000000
445642.35730179;5696578.70689877;470.96525003;0.368627;0.388235;0.313725;24415.000000;1.000000;1.000000;1.000000;1.000000;-0.069898;0.069898;-0.069898;1.000000
445642.36230286;5696579.04339893;470.92984988;0.639216;0.623529;0.596078;40863.000000;1.000000;1.000000;1.000000;1.000000;-0.047926;0.047926;-0.047926;1.000000
445642.54409988;5696579.08729942;470.92925002;0.482353;0.458824;0.419608;30069.000000;1.000000;1.000000;1.000000;1.000000;-0.082777;0.082777;-0.082777;1.000000
445642.58390244;5696579.08819874;470.93104984;0.529412;0.501961;0.45098;32896.000000;1.000000;1.000000;1.000000;1.000000;-0.042974;0.042974;-0.042974;1.000000
445642.55790146;5696578.98549946;470.93094995;0.443137;0.431373;0.384314;28013.000000;1.000000;1.000000;1.000000;1.000000;-0.068975;0.068975;-0.068975;1.000000
445642.30080231;5696578.93689926;470.93275001;0.203922;0.207843;0.192157;13364.000000;1.000000;1.000000;1.000000;1.000000;0.066239;-0.066239;0.066239;1.000000
445642.51870163;5696578.64789875;470.94614985;0.396078;0.407843;0.317647;25700.000000;1.000000;1.000000;1.000000;1.000000;0.110575;-0.110575;0.110575;1.000000
445642.36350067;5696579.00589951;470.92945005;0.580392;0.572549;0.541176;37265.000000;1.000000;1.000000;1.000000;1.000000;-0.049124;0.049124;-0.049124;1.000000
445642.58520325;5696579.05079945;470.92834999;0.784314;0.760784;0.709804;49858.000000;1.000000;1.000000;1.000000;1.000000;-0.041674;0.041674;-0.041674;1.000000
445642.62059982;5696579.05449875;470.92764999;0.690196;0.658824;0.607843;43176.000000;1.000000;1.000000;1.000000;1.000000;-0.006277;0.006277;-0.006277;1.000000
445642.32590302;5696579.00249870;470.92534997;0.580392;0.572549;0.533333;37265.000000;1.000000;1.000000;1.000000;1.000000;-0.011526;0.011526;-0.011526;1.000000
445642.69560059;5696579.05689915;470.92875006;0.364706;0.341176;0.301961;22359.000000;1.000000;1.000000;1.000000;1.000000;0.068724;-0.068724;0.068724;1.000000
445642.73320206;5696579.05809887;470.92584993;0.513725;0.490196;0.458824;32125.000000;1.000000;1.000000;1.000000;1.000000;0.106325;-0.106325;0.106325;1.000000
445642.28950317;5696578.96379955;470.92794992;0.321569;0.32549;0.301961;21074.000000;1.000000;1.000000;1.000000;1.000000;0.045445;-0.045445;0.045445;1.000000
445642.58650024;5696579.01559933;470.93034985;0.741176;0.721569;0.666667;47031.000000;1.000000;1.000000;1.000000;1.000000;-0.040377;0.040377;-0.040377;1.000000
445642.62400253;5696579.01449879;470.92505004;0.654902;0.623529;0.576471;41120.000000;1.000000;1.000000;1.000000;1.000000;-0.002874;0.002874;-0.002874;1.000000
445642.52420242;5696579.12419899;470.92875006;0.592157;0.560784;0.517647;37008.000000;1.000000;1.000000;1.000000;1.000000;-0.102674;0.102674;-0.102674;1.000000
445642.40610321;5696578.86629875;470.93904998;0.686275;0.690196;0.654902;44718.000000;1.000000;1.000000;1.000000;1.000000;-0.036355;0.036355;-0.036355;1.000000
445642.44810303;5696579.18499954;470.92844989;0.360784;0.321569;0.27451;21331.000000;1.000000;1.000000;1.000000;1.000000;-0.133726;0.133726;-0.133726;1.000000
445642.58760269;5696578.97809895;470.92995002;0.533333;0.517647;0.470588;33667.000000;1.000000;1.000000;1.000000;1.000000;-0.039274;0.039274;-0.039274;1.000000
445642.43990143;5696578.95199879;470.93694999;0.352941;0.364706;0.329412;23387.000000;1.000000;1.000000;1.000000;1.000000;-0.121999;0.121999;-0.121999;1.000000
445642.76410110;5696578.74429901;470.93974998;0.560784;0.556863;0.529412;36237.000000;1.000000;1.000000;1.000000;1.000000;-0.113703;0.113703;-0.113703;1.000000
445642.75060089;5696578.64979942;470.94034984;0.788235;0.776471;0.713725;50629.000000;1.000000;1.000000;1.000000;1.000000;-0.190317;0.190317;-0.190317;1.000000
445642.46770294;5696578.92599876;470.94254996;0.729412;0.733333;0.698039;47545.000000;1.000000;1.000000;1.000000;1.000000;-0.096043;0.096043;-0.096043;1.000000
445642.26640137;5696578.65699871;470.96054985;0.584314;0.6;0.505882;38293.000000;1.000000;1.000000;1.000000;1.000000;-0.141726;0.141726;-0.141726;1.000000
445642.62870224;5696578.86679943;470.93044998;0.360784;0.368627;0.341176;23644.000000;1.000000;1.000000;1.000000;1.000000;0.001825;-0.001825;0.001825;1.000000
445642.33870132;5696578.70639904;470.96204998;0.494118;0.513725;0.447059;32639.000000;1.000000;1.000000;1.000000;1.000000;-0.084147;0.084147;-0.084147;1.000000
445642.63330276;5696578.75609882;470.96194984;0.611765;0.631373;0.623529;40863.000000;1.000000;1.000000;1.000000;1.000000;0.073901;-0.073901;0.073901;1.000000
445642.30240067;5696578.66769894;470.96225001;0.301961;0.317647;0.207843;19532.000000;1.000000;1.000000;1.000000;1.000000;-0.106096;0.106096;-0.106096;1.000000
445642.37730225;5696578.66999920;470.96564986;0.258824;0.282353;0.211765;17476.000000;1.000000;1.000000;1.000000;1.000000;-0.032757;0.032757;-0.032757;1.000000
445642.71030243;5696578.94549950;470.94205000;0.584314;0.572549;0.545098;37522.000000;1.000000;1.000000;1.000000;1.000000;0.083426;-0.083426;0.083426;1.000000
445642.26830109;5696578.62879951;470.96254994;0.360784;0.384314;0.290196;23901.000000;1.000000;1.000000;1.000000;1.000000;-0.139826;0.139826;-0.139826;1.000000
445642.30370148;5696579.11429890;470.92334988;0.564706;0.556863;0.501961;36237.000000;1.000000;1.000000;1.000000;1.000000;0.010675;-0.010675;0.010675;1.000000
445642.67820175;5696579.04679878;470.93015005;0.345098;0.32549;0.286275;21331.000000;1.000000;1.000000;1.000000;1.000000;0.051325;-0.051325;0.051325;1.000000
445642.50070007;5696579.04919918;470.93155005;0.568627;0.545098;0.501961;35723.000000;1.000000;1.000000;1.000000;1.000000;-0.126177;0.126177;-0.126177;1.000000
445642.33880051;5696579.11569889;470.92735006;0.623529;0.615686;0.572549;40092.000000;1.000000;1.000000;1.000000;1.000000;-0.024424;0.024424;-0.024424;1.000000
445642.42889984;5696579.00679882;470.93244984;0.47451;0.458824;0.423529;30069.000000;1.000000;1.000000;1.000000;1.000000;-0.114523;0.114523;-0.114523;1.000000
445642.73210342;5696579.09559925;470.92625000;0.509804;0.478431;0.435294;31611.000000;1.000000;1.000000;1.000000;1.000000;0.105227;-0.105227;0.105227;1.000000
445642.82330139;5696578.69929894;470.93264987;0.490196;0.478431;0.443137;31097.000000;1.000000;1.000000;1.000000;1.000000;-0.187132;0.187132;-0.187132;1.000000
445642.64389999;5696578.97989948;470.93015005;0.380392;0.368627;0.352941;24158.000000;1.000000;1.000000;1.000000;1.000000;0.017023;-0.017023;0.017023;1.000000
445642.79900177;5696578.81819923;470.93995001;0.729412;0.737255;0.721569;47802.000000;1.000000;1.000000;1.000000;1.000000;-0.110258;0.110258;-0.110258;1.000000
445642.31710251;5696579.20879944;470.92744996;0.764706;0.74902;0.709804;49087.000000;1.000000;1.000000;1.000000;1.000000;-0.002726;0.002726;-0.002726;1.000000
445642.35270126;5696578.77989872;470.95884993;0.388235;0.396078;0.368627;25443.000000;1.000000;1.000000;1.000000;1.000000;-0.063078;0.063078;-0.063078;1.000000
445642.61260040;5696579.04359921;470.92715003;0.729412;0.698039;0.647059;45746.000000;1.000000;1.000000;1.000000;1.000000;-0.014277;0.014277;-0.014277;1.000000
445642.53930099;5696579.01289948;470.93284990;0.654902;0.643137;0.596078;41891.000000;1.000000;1.000000;1.000000;1.000000;-0.087576;0.087576;-0.087576;1.000000
445642.54370316;5696578.93769939;470.93914988;0.505882;0.509804;0.470588;32896.000000;1.000000;1.000000;1.000000;1.000000;-0.083174;0.083174;-0.083174;1.000000
445642.57920273;5696578.94139870;470.93844988;0.858824;0.858824;0.823529;56026.000000;1.000000;1.000000;1.000000;1.000000;-0.047674;0.047674;-0.047674;1.000000
445642.68020065;5696578.79649933;470.93894984;0.215686;0.227451;0.231373;14649.000000;1.000000;1.000000;1.000000;1.000000;-0.033501;0.033501;-0.033501;1.000000
445642.39380081;5696578.74559887;470.96264984;0.407843;0.419608;0.360784;26728.000000;1.000000;1.000000;1.000000;1.000000;0.085608;-0.085608;0.085608;1.000000
445642.66340073;5696578.74879940;470.95394995;0.262745;0.278431;0.278431;17733.000000;1.000000;1.000000;1.000000;1.000000;0.081201;-0.081201;0.081201;1.000000
445642.37870224;5696578.66049870;470.96564986;0.286275;0.309804;0.235294;19275.000000;1.000000;1.000000;1.000000;1.000000;-0.029467;0.029467;-0.029467;1.000000
445642.72060211;5696578.90939911;470.95144989;0.458824;0.443137;0.411765;29041.000000;1.000000;1.000000;1.000000;1.000000;0.085318;-0.085318;0.085318;1.000000
445642.75080307;5696578.85299881;470.94044997;0.352941;0.352941;0.34902;22873.000000;1.000000;1.000000;1.000000;1.000000;0.065591;-0.065591;0.065591;1.000000
445642.82740219;5696578.82029922;470.93654992;0.356863;0.364706;0.345098;23387.000000;1.000000;1.000000;1.000000;1.000000;-0.138366;0.138366;-0.138366;1.000000
445642.68340118;5696579.13029869;470.93604996;0.505882;0.454902;0.392157;30326.000000;1.000000;1.000000;1.000000;1.000000;0.056524;-0.056524;0.056524;1.000000
445642.65320023;5696578.97899921;470.93054988;0.423529;0.419608;0.415686;27499.000000;1.000000;1.000000;1.000000;1.000000;0.026323;-0.026323;0.026323;1.000000
445642.78970154;5696578.84469898;470.94214990;0.486275;0.498039;0.490196;32125.000000;1.000000;1.000000;1.000000;1.000000;0.101396;-0.101396;0.101396;1.000000
445642.79240234;5696578.74409874;470.93404986;0.647059;0.639216;0.611765;41634.000000;1.000000;1.000000;1.000000;1.000000;-0.134139;0.134139;-0.134139;1.000000
445642.36550339;5696578.74579914;470.96834995;0.788235;0.8;0.74902;51657.000000;1.000000;1.000000;1.000000;1.000000;0.094375;-0.094375;0.094375;1.000000
445642.54890259;5696578.79009922;470.93295004;0.454902;0.454902;0.411765;29298.000000;1.000000;1.000000;1.000000;1.000000;0.039901;-0.039901;0.039901;1.000000
445642.79540070;5696578.67839916;470.93805005;0.768627;0.760784;0.721569;49601.000000;1.000000;1.000000;1.000000;1.000000;-0.184997;0.184997;-0.184997;1.000000
445642.71580322;5696579.04799946;470.92954995;0.603922;0.580392;0.54902;38036.000000;1.000000;1.000000;1.000000;1.000000;0.088926;-0.088926;0.088926;1.000000
445642.73130234;5696578.87109955;470.94444992;0.811765;0.811765;0.792157;52942.000000;1.000000;1.000000;1.000000;1.000000;0.058710;-0.058710;0.058710;1.000000
445642.69530304;5696578.83479889;470.94244983;0.560784;0.556863;0.533333;36237.000000;1.000000;1.000000;1.000000;1.000000;0.007626;-0.007626;0.007626;1.000000
445642.69289978;5696578.93539913;470.94344999;0.301961;0.294118;0.27451;19275.000000;1.000000;1.000000;1.000000;1.000000;0.066023;-0.066023;0.066023;1.000000
445642.54100235;5696578.95669945;470.93454983;0.305882;0.301961;0.262745;19532.000000;1.000000;1.000000;1.000000;1.000000;-0.085875;0.085875;-0.085875;1.000000
445642.36210068;5696578.80019959;470.94785001;0.682353;0.686275;0.658824;44461.000000;1.000000;1.000000;1.000000;1.000000;0.054831;-0.054831;0.054831;1.000000
445642.39990051;5696578.80139931;470.94264986;0.403922;0.4;0.360784;25957.000000;1.000000;1.000000;1.000000;1.000000;0.029760;-0.029760;0.029760;1.000000
445642.50520142;5696578.97399910;470.93544986;0.560784;0.556863;0.529412;36237.000000;1.000000;1.000000;1.000000;1.000000;-0.121675;0.121675;-0.121675;1.000000
445642.69440277;5696578.85119923;470.94484999;0.501961;0.494118;0.470588;32125.000000;1.000000;1.000000;1.000000;1.000000;0.021787;-0.021787;0.021787;1.000000
445642.73340042;5696578.81719883;470.94155004;0.368627;0.380392;0.372549;24415.000000;1.000000;1.000000;1.000000;1.000000;-0.045847;0.045847;-0.045847;1.000000
445642.30990036;5696578.95719917;470.92875006;0.231373;0.231373;0.215686;14906.000000;1.000000;1.000000;1.000000;1.000000;0.044841;-0.044841;0.044841;1.000000
445642.75980194;5696578.64899929;470.94074990;0.784314;0.772549;0.717647;50372.000000;1.000000;1.000000;1.000000;1.000000;-0.194219;0.194219;-0.194219;1.000000
445642.33810242;5696578.93809898;470.93684985;0.235294;0.243137;0.219608;15420.000000;1.000000;1.000000;1.000000;1.000000;-0.067836;0.067836;-0.067836;1.000000
445642.62610062;5696578.75449951;470.96164991;0.709804;0.729412;0.713725;47288.000000;1.000000;1.000000;1.000000;1.000000;0.075504;-0.075504;0.075504;1.000000
445642.58350189;5696578.88499935;470.93324997;0.709804;0.717647;0.690196;46517.000000;1.000000;1.000000;1.000000;1.000000;-0.043375;0.043375;-0.043375;1.000000
445642.70800217;5696578.99249943;470.93554999;0.227451;0.223529;0.219608;14649.000000;1.000000;1.000000;1.000000;1.000000;0.081125;-0.081125;0.081125;1.000000
445642.61570175;5696578.97789867;470.92884995;0.662745;0.647059;0.611765;42405.000000;1.000000;1.000000;1.000000;1.000000;-0.011175;0.011175;-0.011175;1.000000
445642.65540131;5696578.90629871;470.93674995;0.415686;0.415686;0.403922;26985.000000;1.000000;1.000000;1.000000;1.000000;0.028524;-0.028524;0.028524;1.000000
445642.60750015;5696579.16549881;470.93074991;0.686275;0.658824;0.619608;43433.000000;1.000000;1.000000;1.000000;1.000000;-0.020700;0.020700;-0.020700;1.000000
445642.71880157;5696579.13169868;470.93304994;0.643137;0.588235;0.52549;39064.000000;1.000000;1.000000;1.000000;1.000000;0.091925;-0.091925;0.091925;1.000000
445642.72820099;5696578.98369892;470.93634989;0.239216;0.231373;0.203922;14906.000000;1.000000;1.000000;1.000000;1.000000;0.101324;-0.101324;0.101324;1.000000
445642.57860001;5696579.18209942;470.93194987;0.701961;0.67451;0.623529;44204.000000;1.000000;1.000000;1.000000;1.000000;-0.053849;0.053849;-0.053849;1.000000
445642.40020187;5696579.19419868;470.91934993;0.564706;0.513725;0.470588;34181.000000;1.000000;1.000000;1.000000;1.000000;-0.085825;0.085825;-0.085825;1.000000
445642.77100189;5696578.81839951;470.94094994;0.866667;0.882353;0.87451;57311.000000;1.000000;1.000000;1.000000;1.000000;-0.082445;0.082445;-0.082445;1.000000
445642.32400330;5696579.05859955;470.92824986;0.701961;0.690196;0.65098;44975.000000;1.000000;1.000000;1.000000;1.000000;-0.009626;0.009626;-0.009626;1.000000
445642.31580170;5696578.99409874;470.92485001;0.529412;0.52549;0.486275;34181.000000;1.000000;1.000000;1.000000;1.000000;-0.007932;0.007932;-0.007932;1.000000
445642.38140305;5696578.78199871;470.95085003;0.372549;0.372549;0.329412;23901.000000;1.000000;1.000000;1.000000;1.000000;0.054939;-0.054939;0.054939;1.000000
445642.87240036;5696578.82319935;470.93164994;0.568627;0.564706;0.545098;36751.000000;1.000000;1.000000;1.000000;1.000000;-0.183150;0.183150;-0.183150;1.000000
445642.63470276;5696578.71869953;470.95694997;0.721569;0.745098;0.733333;48059.000000;1.000000;1.000000;1.000000;1.000000;0.111300;-0.111300;0.111300;1.000000
445642.66620071;5696578.89599903;470.93715002;0.65098;0.654902;0.635294;42662.000000;1.000000;1.000000;1.000000;1.000000;0.039324;-0.039324;0.039324;1.000000
445642.43360336;5696578.88709934;470.94284989;0.596078;0.596078;0.568627;38807.000000;1.000000;1.000000;1.000000;1.000000;-0.057313;0.057313;-0.057313;1.000000
445642.42310150;5696578.92309959;470.94044997;0.647059;0.65098;0.619608;42148.000000;1.000000;1.000000;1.000000;1.000000;-0.093100;0.093100;-0.093100;1.000000
445642.43370255;5696578.85919960;470.93554999;0.564706;0.560784;0.52549;36494.000000;1.000000;1.000000;1.000000;1.000000;-0.029634;0.029634;-0.029634;1.000000
445642.35320099;5696578.99519928;470.92884995;0.513725;0.509804;0.47451;33153.000000;1.000000;1.000000;1.000000;1.000000;-0.039385;0.039385;-0.039385;1.000000
445642.73670013;5696578.77949913;470.94595005;0.752941;0.768627;0.764706;49858.000000;1.000000;1.000000;1.000000;1.000000;-0.069209;0.069209;-0.069209;1.000000
445642.43449982;5696579.06469925;470.92864992;0.521569;0.509804;0.482353;33410.000000;1.000000;1.000000;1.000000;1.000000;-0.120123;0.120123;-0.120123;1.000000
445642.34729965;5696578.69849880;470.96234991;0.309804;0.329412;0.25098;20560.000000;1.000000;1.000000;1.000000;1.000000;-0.072606;0.072606;-0.072606;1.000000
445642.54620178;5696578.86269959;470.93595006;0.756863;0.756863;0.721569;49344.000000;1.000000;1.000000;1.000000;1.000000;-0.032700;0.032700;-0.032700;1.000000
445642.58180054;5696578.86649902;470.93295004;0.682353;0.686275;0.65098;44461.000000;1.000000;1.000000;1.000000;1.000000;-0.036499;0.036499;-0.036499;1.000000
445642.69940002;5696578.77829941;470.94194986;0.301961;0.321569;0.32549;20560.000000;1.000000;1.000000;1.000000;1.000000;-0.052663;0.052663;-0.052663;1.000000
445642.80040176;5696578.78079899;470.93485000;0.301961;0.309804;0.290196;19789.000000;1.000000;1.000000;1.000000;1.000000;-0.121438;0.121438;-0.121438;1.000000
445642.30970200;5696578.69509895;470.96054985;0.360784;0.376471;0.298039;23644.000000;1.000000;1.000000;1.000000;1.000000;-0.104899;0.104899;-0.104899;1.000000
445642.27560242;5696578.65619953;470.96094992;0.654902;0.670588;0.580392;42919.000000;1.000000;1.000000;1.000000;1.000000;-0.132524;0.132524;-0.132524;1.000000
445642.31310089;5696578.65729912;470.96264984;0.294118;0.313725;0.196078;19275.000000;1.000000;1.000000;1.000000;1.000000;-0.095026;0.095026;-0.095026;1.000000
445642.58450134;5696579.06949909;470.93085005;0.615686;0.592157;0.537255;38807.000000;1.000000;1.000000;1.000000;1.000000;-0.042376;0.042376;-0.042376;1.000000
445642.34830292;5696578.66099937;470.96654989;0.270588;0.294118;0.2;17990.000000;1.000000;1.000000;1.000000;1.000000;-0.059860;0.059860;-0.059860;1.000000
445642.28900345;5696578.77859886;470.96994998;0.580392;0.596078;0.592157;38550.000000;1.000000;1.000000;1.000000;1.000000;0.051401;-0.051401;0.051401;1.000000
445642.80930145;5696578.80099876;470.93554999;0.345098;0.352941;0.341176;22873.000000;1.000000;1.000000;1.000000;1.000000;-0.123381;0.123381;-0.123381;1.000000
445642.35020264;5696579.08889874;470.92984988;0.623529;0.623529;0.584314;40349.000000;1.000000;1.000000;1.000000;1.000000;-0.035826;0.035826;-0.035826;1.000000
445642.76790054;5696578.90979870;470.93954994;0.717647;0.698039;0.662745;45746.000000;1.000000;1.000000;1.000000;1.000000;0.111954;-0.111954;0.111954;1.000000
445642.38599976;5696578.66219910;470.96365001;0.294118;0.317647;0.243137;19789.000000;1.000000;1.000000;1.000000;1.000000;-0.022376;0.022376;-0.022376;1.000000
445642.42360123;5696578.66349895;470.96064999;0.513725;0.533333;0.458824;33924.000000;1.000000;1.000000;1.000000;1.000000;0.016168;-0.016168;0.016168;1.000000
445642.27680023;5696578.62089928;470.96525003;0.258824;0.282353;0.192157;17219.000000;1.000000;1.000000;1.000000;1.000000;-0.131327;0.131327;-0.131327;1.000000
445642.76930054;5696578.87469872;470.93925001;0.592157;0.584314;0.580392;38293.000000;1.000000;1.000000;1.000000;1.000000;0.091574;-0.091574;0.091574;1.000000
445642.80450256;5696578.87609871;470.93855001;0.282353;0.282353;0.258824;18247.000000;1.000000;1.000000;1.000000;1.000000;0.124012;-0.124012;0.124012;1.000000
445642.65780075;5696578.83129890;470.93604996;0.654902;0.654902;0.627451;42662.000000;1.000000;1.000000;1.000000;1.000000;0.001299;-0.001299;0.001299;1.000000
445642.61540039;5696578.73689945;470.95624997;0.470588;0.494118;0.478431;31611.000000;1.000000;1.000000;1.000000;1.000000;0.093101;-0.093101;0.093101;1.000000
445642.69640167;5696578.79499920;470.93964984;0.239216;0.258824;0.258824;16448.000000;1.000000;1.000000;1.000000;1.000000;-0.035699;0.035699;-0.035699;1.000000
445642.73800095;5696578.74199875;470.94324996;0.686275;0.682353;0.654902;44461.000000;1.000000;1.000000;1.000000;1.000000;-0.100541;0.100541;-0.100541;1.000000
445642.47680099;5696578.74989899;470.94544985;0.286275;0.294118;0.254902;18761.000000;1.000000;1.000000;1.000000;1.000000;0.080101;-0.080101;0.080101;1.000000
445642.36359985;5696578.77179916;470.96155002;0.278431;0.286275;0.243137;18247.000000;1.000000;1.000000;1.000000;1.000000;0.073280;-0.073280;0.073280;1.000000
445642.46070297;5696578.92659958;470.94225003;0.635294;0.643137;0.611765;41634.000000;1.000000;1.000000;1.000000;1.000000;-0.096603;0.096603;-0.096603;1.000000
445642.84470184;5696578.80239876;470.93244984;0.752941;0.756863;0.741176;49344.000000;1.000000;1.000000;1.000000;1.000000;-0.157758;0.157758;-0.157758;1.000000
445642.69890030;5696578.75029953;470.94624998;0.847059;0.858824;0.847059;55769.000000;1.000000;1.000000;1.000000;1.000000;-0.080267;0.080267;-0.080267;1.000000
445642.58540161;5696579.00399883;470.93015005;0.921569;0.909804;0.854902;59367.000000;1.000000;1.000000;1.000000;1.000000;-0.041475;0.041475;-0.041475;1.000000
445642.43880280;5696579.18579872;470.92805006;0.321569;0.282353;0.235294;18761.000000;1.000000;1.000000;1.000000;1.000000;-0.124426;0.124426;-0.124426;1.000000
445642.31160172;5696578.88209923;470.94194986;0.6;0.596078;0.564706;38807.000000;1.000000;1.000000;1.000000;1.000000;0.052099;-0.052099;0.052099;1.000000
445642.51210220;5696578.75129898;470.94244983;0.321569;0.333333;0.286275;21074.000000;1.000000;1.000000;1.000000;1.000000;0.078701;-0.078701;0.078701;1.000000
445642.68350037;5696578.93399914;470.94304993;0.439216;0.427451;0.411765;28013.000000;1.000000;1.000000;1.000000;1.000000;0.056623;-0.056623;0.056623;1.000000
445642.62870224;5696579.09109886;470.92844989;0.74902;0.713725;0.662745;47031.000000;1.000000;1.000000;1.000000;1.000000;0.001825;-0.001825;0.001825;1.000000
445642.40910156;5696579.04369934;470.92964985;0.380392;0.368627;0.341176;24158.000000;1.000000;1.000000;1.000000;1.000000;-0.094725;0.094725;-0.094725;1.000000
445642.46180161;5696578.88909920;470.94414999;0.65098;0.65098;0.615686;42405.000000;1.000000;1.000000;1.000000;1.000000;-0.059130;0.059130;-0.059130;1.000000
445642.59580048;5696579.01469906;470.92844989;0.607843;0.588235;0.533333;38293.000000;1.000000;1.000000;1.000000;1.000000;-0.031076;0.031076;-0.031076;1.000000
445642.36970337;5696578.82759960;470.94155004;0.419608;0.423529;0.396078;27242.000000;1.000000;1.000000;1.000000;1.000000;0.038498;-0.038498;0.038498;1.000000
445642.40360077;5696578.70029934;470.96254994;0.376471;0.396078;0.341176;24929.000000;1.000000;1.000000;1.000000;1.000000;-0.041686;0.041686;-0.041686;1.000000
445642.59500320;5696578.76459892;470.94634988;0.431373;0.443137;0.4;28270.000000;1.000000;1.000000;1.000000;1.000000;0.065404;-0.065404;0.065404;1.000000
445642.49180038;5696578.61059959;470.94684984;0.611765;0.623529;0.576471;40092.000000;1.000000;1.000000;1.000000;1.000000;0.083673;-0.083673;0.083673;1.000000
445642.82020004;5696578.79289921;470.93595006;0.403922;0.407843;0.396078;26471.000000;1.000000;1.000000;1.000000;1.000000;-0.135982;0.135982;-0.135982;1.000000
445642.68750198;5696579.04589947;470.93054988;0.356863;0.337255;0.301961;22102.000000;1.000000;1.000000;1.000000;1.000000;0.060625;-0.060625;0.060625;1.000000
445642.55230148;5696578.70559891;470.94135000;0.411765;0.423529;0.384314;27242.000000;1.000000;1.000000;1.000000;1.000000;0.124401;-0.124401;0.124401;1.000000
445642.54050262;5696578.97539909;470.93244984;0.509804;0.505882;0.466667;32896.000000;1.000000;1.000000;1.000000;1.000000;-0.086374;0.086374;-0.086374;1.000000
445642.52480133;5696578.71269901;470.94484999;0.670588;0.678431;0.631373;43947.000000;1.000000;1.000000;1.000000;1.000000;0.117325;-0.117325;0.117325;1.000000
445642.43320282;5696579.10219868;470.93144991;0.886275;0.882353;0.85098;57568.000000;1.000000;1.000000;1.000000;1.000000;-0.118826;0.118826;-0.118826;1.000000
445642.70100220;5696579.16839893;470.93735005;0.427451;0.392157;0.333333;25957.000000;1.000000;1.000000;1.000000;1.000000;0.074803;-0.074803;0.074803;1.000000
445642.60540207;5696578.72619923;470.94864990;0.290196;0.321569;0.298039;20046.000000;1.000000;1.000000;1.000000;1.000000;0.103801;-0.103801;0.103801;1.000000
445642.27910049;5696578.81479939;470.95365002;0.113725;0.117647;0.12549;7453.000000;1.000000;1.000000;1.000000;1.000000;-0.015201;0.015201;-0.015201;1.000000
445642.71830185;5696578.73219879;470.94455006;0.564706;0.556863;0.533333;36237.000000;1.000000;1.000000;1.000000;1.000000;-0.101989;0.101989;-0.101989;1.000000
445642.29250153;5696578.71289928;470.96464993;0.419608;0.435294;0.376471;27756.000000;1.000000;1.000000;1.000000;1.000000;0.117101;-0.117101;0.117101;1.000000
445642.59940155;5696578.73839958;470.95085003;0.431373;0.454902;0.427451;29041.000000;1.000000;1.000000;1.000000;1.000000;0.091600;-0.091600;0.091600;1.000000
445642.39900024;5696578.79219921;470.94244983;0.403922;0.4;0.356863;25957.000000;1.000000;1.000000;1.000000;1.000000;0.038887;-0.038887;0.038887;1.000000
445642.35810287;5696579.09749897;470.92794992;0.560784;0.560784;0.52549;36494.000000;1.000000;1.000000;1.000000;1.000000;-0.043726;0.043726;-0.043726;1.000000
445642.41400345;5696578.66199883;470.96254994;0.411765;0.431373;0.352941;27242.000000;1.000000;1.000000;1.000000;1.000000;0.006666;-0.006666;0.006666;1.000000
445642.46339996;5696578.85169895;470.93444993;0.623529;0.623529;0.584314;40349.000000;1.000000;1.000000;1.000000;1.000000;-0.021980;0.021980;-0.021980;1.000000
445642.50620087;5696579.15849884;470.93304994;0.65098;0.619608;0.568627;40606.000000;1.000000;1.000000;1.000000;1.000000;-0.120676;0.120676;-0.120676;1.000000
445642.47630127;5696579.18699940;470.92974998;0.631373;0.596078;0.537255;39321.000000;1.000000;1.000000;1.000000;1.000000;-0.143090;0.143090;-0.143090;1.000000
445642.37530334;5696578.96029957;470.93645002;0.376471;0.384314;0.345098;24672.000000;1.000000;1.000000;1.000000;1.000000;-0.073641;0.073641;-0.073641;1.000000
445642.53849991;5696578.85409935;470.93324997;0.772549;0.772549;0.729412;50115.000000;1.000000;1.000000;1.000000;1.000000;-0.024099;0.024099;-0.024099;1.000000
445642.42950256;5696578.74709900;470.95264985;0.411765;0.415686;0.372549;26728.000000;1.000000;1.000000;1.000000;1.000000;0.082905;-0.082905;0.082905;1.000000
445642.44180115;5696579.12009914;470.93205001;0.764706;0.756863;0.721569;49344.000000;1.000000;1.000000;1.000000;1.000000;-0.127424;0.127424;-0.127424;1.000000
445642.66470154;5696579.12969883;470.93525006;0.447059;0.403922;0.341176;26728.000000;1.000000;1.000000;1.000000;1.000000;0.037825;-0.037825;0.037825;1.000000
445642.70230301;5696579.13089951;470.93454983;0.74902;0.701961;0.639216;46260.000000;1.000000;1.000000;1.000000;1.000000;0.075426;-0.075426;0.075426;1.000000
445642.37140091;5696579.04249866;470.93254997;0.572549;0.564706;0.533333;36751.000000;1.000000;1.000000;1.000000;1.000000;-0.057024;0.057024;-0.057024;1.000000
