//X;Y;Z;Rf;Gf;Bf;Intensity;Return Number;Number Of Returns;Scan Direction Flag;Point Source ID;C2M signed distances[-][<0.8];C2M signed distances[<0.4];C2M signed distances[-][<0.2];Stump111
300
445646.84390076;5696583.96549995;470.76464989;0.658824;0.643137;0.603922;42148.000000;1.000000;1.000000;1.000000;1.000000;0.075453;-0.075453;0.075453;1.000000
445646.88130005;5696583.96439941;470.76405003;0.576471;0.556863;0.517647;36494.000000;1.000000;1.000000;1.000000;1.000000;0.048756;-0.048756;0.048756;1.000000
445646.88770111;5696584.07839973;470.75405004;0.596078;0.572549;0.537255;37522.000000;1.000000;1.000000;1.000000;1.000000;0.020426;-0.020426;0.020426;1.000000
445646.70910080;5696583.88419922;470.78795006;0.376471;0.388235;0.372549;24929.000000;1.000000;1.000000;1.000000;1.000000;0.054199;-0.054199;0.054199;1.000000
445646.82080276;5696583.85289963;470.78565003;0.380392;0.368627;0.329412;23901.000000;1.000000;1.000000;1.000000;1.000000;0.023336;-0.023336;0.023336;1.000000
445646.44220169;5696583.76079948;470.85124995;0.635294;0.619608;0.517647;40092.000000;1.000000;1.000000;1.000000;1.000000;-0.069258;-0.069258;0.069258;1.000000
445646.54540070;5696583.75619896;470.83484985;0.286275;0.286275;0.235294;18247.000000;1.000000;1.000000;1.000000;1.000000;-0.073801;0.073801;-0.073801;1.000000
445646.81140335;5696584.06670006;470.76214983;0.517647;0.501961;0.478431;32896.000000;1.000000;1.000000;1.000000;1.000000;0.096724;-0.096724;0.096724;1.000000
445646.88650330;5696584.06679924;470.75615003;0.529412;0.505882;0.478431;33410.000000;1.000000;1.000000;1.000000;1.000000;0.021624;-0.021624;0.021624;1.000000
445646.73290070;5696583.95929916;470.77825000;0.407843;0.403922;0.372549;26214.000000;1.000000;1.000000;1.000000;1.000000;0.129299;0.129299;-0.129299;1.000000
445646.73630341;5696583.92149933;470.78024985;0.447059;0.454902;0.427451;29298.000000;1.000000;1.000000;1.000000;1.000000;0.091499;0.091499;-0.091499;1.000000
445646.73520096;5696583.88429840;470.77974989;0.388235;0.403922;0.380392;25957.000000;1.000000;1.000000;1.000000;1.000000;0.054298;0.054298;-0.054298;1.000000
445646.59140213;5696583.98139961;470.80005004;0.443137;0.447059;0.435294;29041.000000;1.000000;1.000000;1.000000;1.000000;0.151400;0.151400;-0.151400;1.000000
445646.81789978;5696583.96319969;470.76814987;0.690196;0.670588;0.627451;43947.000000;1.000000;1.000000;1.000000;1.000000;0.099451;-0.099451;0.099451;1.000000
445646.71949966;5696583.80129822;470.79904987;0.552941;0.580392;0.580392;37265.000000;1.000000;1.000000;1.000000;1.000000;-0.028702;0.028702;-0.028702;1.000000
445646.79580124;5696583.76619919;470.79744985;0.564706;0.576471;0.560784;37265.000000;1.000000;1.000000;1.000000;1.000000;-0.063801;0.063801;-0.063801;1.000000
445646.92100342;5696584.10809906;470.75125005;0.505882;0.47451;0.415686;31097.000000;1.000000;1.000000;1.000000;1.000000;-0.012877;0.012877;-0.012877;1.000000
445646.84480103;5696583.92799957;470.77125003;0.654902;0.635294;0.592157;41634.000000;1.000000;1.000000;1.000000;1.000000;0.098000;0.098000;-0.098000;1.000000
445646.63280304;5696583.90039833;470.80324986;0.372549;0.380392;0.372549;24672.000000;1.000000;1.000000;1.000000;1.000000;0.070574;-0.070574;0.070574;1.000000
445646.61240204;5696583.72189911;470.83285000;0.262745;0.27451;0.266667;17476.000000;1.000000;1.000000;1.000000;1.000000;-0.108101;0.108101;-0.108101;1.000000
445646.65110214;5696583.68559845;470.83414986;0.262745;0.282353;0.278431;17990.000000;1.000000;1.000000;1.000000;1.000000;-0.144402;0.144402;-0.144402;1.000000
445646.87330063;5696583.69590004;470.80005004;0.247059;0.219608;0.2;14649.000000;1.000000;1.000000;1.000000;1.000000;-0.134100;0.134100;-0.134100;1.000000
445646.94320114;5696584.07099922;470.75184991;0.466667;0.435294;0.376471;28527.000000;1.000000;1.000000;1.000000;1.000000;-0.035074;0.035074;-0.035074;1.000000
445646.70810135;5696583.87489899;470.79005005;0.333333;0.345098;0.329412;22102.000000;1.000000;1.000000;1.000000;1.000000;0.044899;-0.044899;0.044899;1.000000
445646.72510345;5696583.65079887;470.83014991;0.113725;0.129412;0.137255;8224.000000;1.000000;1.000000;1.000000;1.000000;-0.179201;0.179201;-0.179201;1.000000
445646.94450195;5696584.03349884;470.74904992;0.623529;0.603922;0.552941;39578.000000;1.000000;1.000000;1.000000;1.000000;-0.036375;0.036375;-0.036375;1.000000
445646.94560059;5696583.99599846;470.75105001;0.682353;0.658824;0.607843;43176.000000;1.000000;1.000000;1.000000;1.000000;-0.038629;0.038629;-0.038629;1.000000
445646.72599991;5696583.91309937;470.78434994;0.52549;0.529412;0.498039;34181.000000;1.000000;1.000000;1.000000;1.000000;0.083099;0.083099;-0.083099;1.000000
445646.92000015;5696583.93039902;470.76775004;0.658824;0.635294;0.588235;41634.000000;1.000000;1.000000;1.000000;1.000000;-0.075570;0.075570;-0.075570;1.000000
445646.62380035;5696583.88019951;470.80495002;0.407843;0.411765;0.4;26728.000000;1.000000;1.000000;1.000000;1.000000;0.050200;0.050200;-0.050200;1.000000
445646.76590164;5696583.84159859;470.78764989;0.317647;0.329412;0.309804;21074.000000;1.000000;1.000000;1.000000;1.000000;0.011599;-0.011599;0.011599;1.000000
445646.88360031;5696583.89169891;470.77024986;0.494118;0.47451;0.423529;31097.000000;1.000000;1.000000;1.000000;1.000000;0.061843;-0.061843;0.061843;1.000000
445646.92250259;5696583.85549934;470.76464989;0.537255;0.505882;0.470588;33410.000000;1.000000;1.000000;1.000000;1.000000;0.029272;-0.029272;0.029272;1.000000
445646.92590149;5696583.81999977;470.77134993;0.360784;0.32549;0.290196;21588.000000;1.000000;1.000000;1.000000;1.000000;-0.020395;-0.020395;0.020395;1.000000
445646.77869995;5696583.73729904;470.80565001;0.231373;0.247059;0.235294;15677.000000;1.000000;1.000000;1.000000;1.000000;-0.092701;0.092701;-0.092701;1.000000
445646.59520157;5696583.69299896;470.84334995;0.298039;0.298039;0.27451;19275.000000;1.000000;1.000000;1.000000;1.000000;-0.137001;0.137001;-0.137001;1.000000
445646.42360123;5696584.00109871;470.82994987;0.207843;0.215686;0.2;13621.000000;1.000000;1.000000;1.000000;1.000000;0.077974;-0.077974;0.077974;1.000000
445646.85510071;5696583.70229919;470.80164983;0.462745;0.447059;0.431373;29298.000000;1.000000;1.000000;1.000000;1.000000;-0.127709;0.127709;-0.127709;1.000000
445646.46220215;5696583.96479996;470.83124997;0.396078;0.396078;0.372549;25700.000000;1.000000;1.000000;1.000000;1.000000;0.116575;-0.116575;0.116575;1.000000
445646.46570023;5696583.92939957;470.83564999;0.666667;0.662745;0.635294;43176.000000;1.000000;1.000000;1.000000;1.000000;0.099400;0.099400;-0.099400;1.000000
445646.42930038;5696583.89069946;470.83594992;0.619608;0.611765;0.584314;39835.000000;1.000000;1.000000;1.000000;1.000000;0.060699;0.060699;-0.060699;1.000000
445646.46460159;5696583.89209946;470.83515002;0.580392;0.572549;0.541176;37265.000000;1.000000;1.000000;1.000000;1.000000;0.062099;0.062099;-0.062099;1.000000
445646.46600159;5696583.85469826;470.83014991;0.423529;0.415686;0.376471;26985.000000;1.000000;1.000000;1.000000;1.000000;0.024698;0.024698;-0.024698;1.000000
445646.46920212;5696583.81689842;470.83684995;0.282353;0.278431;0.223529;17733.000000;1.000000;1.000000;1.000000;1.000000;-0.013102;0.013102;-0.013102;1.000000
445646.54680069;5696583.74669846;470.83714988;0.258824;0.25098;0.203922;16191.000000;1.000000;1.000000;1.000000;1.000000;-0.083302;0.083302;-0.083302;1.000000
445646.43540009;5696583.70559891;470.83634998;0.392157;0.341176;0.282353;22873.000000;1.000000;1.000000;1.000000;1.000000;-0.124401;0.124401;-0.124401;1.000000
445646.51060303;5696583.70799835;470.83274986;0.235294;0.207843;0.156863;13621.000000;1.000000;1.000000;1.000000;1.000000;-0.122020;0.122020;-0.122020;1.000000
445646.47300156;5696583.70679863;470.83564999;0.141176;0.105882;0.054902;7196.000000;1.000000;1.000000;1.000000;1.000000;-0.123224;-0.123224;0.123224;1.000000
445646.51390274;5696583.67029961;470.83714988;0.117647;0.0941176;0.0666667;6425.000000;1.000000;1.000000;1.000000;1.000000;-0.159700;0.159700;-0.159700;1.000000
445646.80440338;5696583.80519875;470.79125001;0.592157;0.592157;0.568627;38550.000000;1.000000;1.000000;1.000000;1.000000;-0.024801;0.024801;-0.024801;1.000000
445646.54969986;5696583.65519913;470.84084990;0.14902;0.129412;0.113725;8738.000000;1.000000;1.000000;1.000000;1.000000;-0.174801;0.174801;-0.174801;1.000000
445646.84210022;5696583.80649956;470.78834989;0.54902;0.537255;0.509804;35209.000000;1.000000;1.000000;1.000000;1.000000;-0.023500;0.023500;-0.023500;1.000000
445646.89070328;5696583.96589859;470.76444985;0.596078;0.576471;0.537255;37779.000000;1.000000;1.000000;1.000000;1.000000;0.042902;-0.042902;0.042902;1.000000
445646.85320099;5696583.96469887;470.76514985;0.627451;0.607843;0.568627;39835.000000;1.000000;1.000000;1.000000;1.000000;0.068178;-0.068178;0.068178;1.000000
445646.86300095;5696584.14139946;470.75834991;0.564706;0.552941;0.517647;35980.000000;1.000000;1.000000;1.000000;1.000000;0.045126;-0.045126;0.045126;1.000000
445646.83630188;5696583.70169838;470.80314996;0.305882;0.301961;0.294118;19789.000000;1.000000;1.000000;1.000000;1.000000;-0.128302;0.128302;-0.128302;1.000000
445646.82130249;5696584.12189873;470.76084997;0.454902;0.439216;0.411765;28784.000000;1.000000;1.000000;1.000000;1.000000;0.086824;-0.086824;0.086824;1.000000
445646.87750061;5696583.80789955;470.78294994;0.592157;0.568627;0.537255;37265.000000;1.000000;1.000000;1.000000;1.000000;-0.022109;-0.022109;0.022109;1.000000
445646.89400299;5696583.66829880;470.80305006;0.309804;0.27451;0.243137;18247.000000;1.000000;1.000000;1.000000;1.000000;-0.161701;0.161701;-0.161701;1.000000
445646.48090179;5696583.93969925;470.83184983;0.423529;0.423529;0.396078;27499.000000;1.000000;1.000000;1.000000;1.000000;0.109701;-0.109701;0.109701;1.000000
445646.86340149;5696584.16939934;470.75635006;0.54902;0.529412;0.498039;34695.000000;1.000000;1.000000;1.000000;1.000000;0.044725;-0.044725;0.044725;1.000000
445646.86590012;5696584.09669884;470.75794985;0.619608;0.592157;0.560784;39064.000000;1.000000;1.000000;1.000000;1.000000;0.042227;-0.042227;0.042227;1.000000
445646.83040054;5696584.09529884;470.76335003;0.576471;0.564706;0.533333;37008.000000;1.000000;1.000000;1.000000;1.000000;0.077726;-0.077726;0.077726;1.000000
445646.83170135;5696584.05779846;470.76055004;0.494118;0.478431;0.45098;31354.000000;1.000000;1.000000;1.000000;1.000000;0.076426;-0.076426;0.076426;1.000000
445646.86940201;5696584.05900009;470.75764992;0.4;0.380392;0.352941;24929.000000;1.000000;1.000000;1.000000;1.000000;0.038725;-0.038725;0.038725;1.000000
445646.64940079;5696583.97379883;470.79324986;0.415686;0.423529;0.415686;27499.000000;1.000000;1.000000;1.000000;1.000000;0.143799;0.143799;-0.143799;1.000000
445646.90910156;5696583.98519905;470.76084997;0.509804;0.486275;0.447059;31868.000000;1.000000;1.000000;1.000000;1.000000;-0.020004;0.020004;-0.020004;1.000000
445646.58790024;5696583.66559990;470.84504988;0.0862745;0.0862745;0.0823529;5397.000000;1.000000;1.000000;1.000000;1.000000;-0.164400;0.164400;-0.164400;1.000000
445646.89190109;5696584.12469872;470.75714995;0.709804;0.686275;0.65098;44975.000000;1.000000;1.000000;1.000000;1.000000;0.016226;-0.016226;0.016226;1.000000
445646.85770233;5696584.08579834;470.75974991;0.576471;0.556863;0.529412;36494.000000;1.000000;1.000000;1.000000;1.000000;0.050425;-0.050425;0.050425;1.000000
445646.65180023;5696583.90109833;470.79714992;0.270588;0.290196;0.294118;18504.000000;1.000000;1.000000;1.000000;1.000000;0.071098;0.071098;-0.071098;1.000000
445646.65290268;5696583.86359985;470.79915001;0.462745;0.470588;0.466667;30583.000000;1.000000;1.000000;1.000000;1.000000;0.033600;0.033600;-0.033600;1.000000
445646.72940262;5696583.82849892;470.79285004;0.156863;0.180392;0.168627;11051.000000;1.000000;1.000000;1.000000;1.000000;-0.001501;0.001501;-0.001501;1.000000
445646.73060043;5696583.79329880;470.79714992;0.596078;0.623529;0.619608;40092.000000;1.000000;1.000000;1.000000;1.000000;-0.036701;0.036701;-0.036701;1.000000
445646.44660004;5696583.90079887;470.83684995;0.556863;0.552941;0.529412;35980.000000;1.000000;1.000000;1.000000;1.000000;0.070892;-0.070892;0.070892;1.000000
445646.48220261;5696583.90229996;470.82914998;0.552941;0.545098;0.513725;35466.000000;1.000000;1.000000;1.000000;1.000000;0.072300;-0.072300;0.072300;1.000000
445646.41520126;5696583.86399849;470.83494999;0.423529;0.415686;0.376471;26985.000000;1.000000;1.000000;1.000000;1.000000;0.034208;-0.034208;0.034208;1.000000
445646.85990341;5696584.01079948;470.76364996;0.666667;0.647059;0.607843;42405.000000;1.000000;1.000000;1.000000;1.000000;0.048223;-0.048223;0.048223;1.000000
445646.90120132;5696583.97659882;470.76274993;0.6;0.576471;0.537255;37779.000000;1.000000;1.000000;1.000000;1.000000;0.029369;-0.029369;0.029369;1.000000
445646.93660172;5696583.97809990;470.75734999;0.403922;0.380392;0.333333;24929.000000;1.000000;1.000000;1.000000;1.000000;-0.039342;0.039342;-0.039342;1.000000
445646.80090149;5696583.70019920;470.80854990;0.392157;0.4;0.392157;25957.000000;1.000000;1.000000;1.000000;1.000000;-0.129801;0.129801;-0.129801;1.000000
445646.80669983;5696583.75819977;470.79784991;0.490196;0.498039;0.482353;32125.000000;1.000000;1.000000;1.000000;1.000000;-0.071800;0.071800;-0.071800;1.000000
445646.84440048;5696583.75939949;470.79484989;0.521569;0.513725;0.482353;33410.000000;1.000000;1.000000;1.000000;1.000000;-0.070601;0.070601;-0.070601;1.000000
445646.65279968;5696583.65729912;470.84095003;0.290196;0.305882;0.305882;19532.000000;1.000000;1.000000;1.000000;1.000000;-0.172701;0.172701;-0.172701;1.000000
445646.67910202;5696583.89159973;470.79364993;0.431373;0.439216;0.431373;28527.000000;1.000000;1.000000;1.000000;1.000000;0.062710;-0.062710;0.062710;1.000000
445646.49100311;5696583.92249878;470.82974984;0.588235;0.584314;0.552941;38036.000000;1.000000;1.000000;1.000000;1.000000;0.092499;-0.092499;0.092499;1.000000
445646.43110092;5696583.83449944;470.83535006;0.552941;0.54902;0.509804;35723.000000;1.000000;1.000000;1.000000;1.000000;0.004499;0.004499;-0.004499;1.000000
445646.85430344;5696583.92939957;470.77174999;0.666667;0.647059;0.6;42405.000000;1.000000;1.000000;1.000000;1.000000;0.092762;-0.092762;0.092762;1.000000
445646.92950256;5696583.93179901;470.76814987;0.74902;0.72549;0.678431;47545.000000;1.000000;1.000000;1.000000;1.000000;-0.076280;0.076280;-0.076280;1.000000
445646.94230087;5696583.86539848;470.76094987;0.458824;0.431373;0.384314;28270.000000;1.000000;1.000000;1.000000;1.000000;0.049203;-0.049203;0.049203;1.000000
445646.59449966;5696583.73059853;470.83445003;0.301961;0.305882;0.294118;19789.000000;1.000000;1.000000;1.000000;1.000000;-0.099401;0.099401;-0.099401;1.000000
445646.71920212;5696583.82009895;470.79454996;0.176471;0.203922;0.2;12593.000000;1.000000;1.000000;1.000000;1.000000;-0.009901;0.009901;-0.009901;1.000000
445646.42990311;5696583.87199982;470.83574988;0.419608;0.411765;0.376471;26728.000000;1.000000;1.000000;1.000000;1.000000;0.042000;0.042000;-0.042000;1.000000
445646.68770035;5696583.88379868;470.79394986;0.368627;0.376471;0.364706;24415.000000;1.000000;1.000000;1.000000;1.000000;0.053891;-0.053891;0.053891;1.000000
445646.72570236;5696583.67889984;470.82344987;0.313725;0.333333;0.329412;21331.000000;1.000000;1.000000;1.000000;1.000000;-0.151100;0.151100;-0.151100;1.000000
445646.79530151;5696583.78499992;470.79524996;0.537255;0.537255;0.517647;34952.000000;1.000000;1.000000;1.000000;1.000000;-0.045000;0.045000;-0.045000;1.000000
445646.83650024;5696583.75079926;470.79674985;0.54902;0.545098;0.517647;35466.000000;1.000000;1.000000;1.000000;1.000000;-0.079201;0.079201;-0.079201;1.000000
445646.84539993;5696583.72189911;470.79915001;0.4;0.396078;0.380392;25700.000000;1.000000;1.000000;1.000000;1.000000;-0.108101;0.108101;-0.108101;1.000000
445646.65070160;5696583.70439919;470.82974984;0.329412;0.345098;0.329412;22102.000000;1.000000;1.000000;1.000000;1.000000;-0.125601;0.125601;-0.125601;1.000000
445646.87290009;5696583.71469887;470.79565002;0.407843;0.388235;0.360784;25443.000000;1.000000;1.000000;1.000000;1.000000;-0.115301;0.115301;-0.115301;1.000000
445646.61870010;5696583.75889977;470.82194998;0.14902;0.164706;0.160784;10280.000000;1.000000;1.000000;1.000000;1.000000;-0.071100;0.071100;-0.071100;1.000000
445646.87860306;5696583.77039917;470.78495004;0.490196;0.466667;0.427451;30583.000000;1.000000;1.000000;1.000000;1.000000;-0.059626;-0.059626;0.059626;1.000000
445646.44300278;5696583.76999863;470.85375001;0.576471;0.576471;0.458824;36751.000000;1.000000;1.000000;1.000000;1.000000;-0.060111;-0.060111;0.060111;1.000000
445646.42910202;5696583.86269959;470.83554985;0.45098;0.447059;0.411765;29041.000000;1.000000;1.000000;1.000000;1.000000;0.032700;0.032700;-0.032700;1.000000
445646.63330276;5696583.88169868;470.80305006;0.415686;0.419608;0.4;27242.000000;1.000000;1.000000;1.000000;1.000000;0.051892;-0.051892;0.051892;1.000000
445646.77020081;5696583.93249901;470.77724983;0.54902;0.541176;0.490196;35209.000000;1.000000;1.000000;1.000000;1.000000;0.102499;-0.102499;0.102499;1.000000
445646.55030258;5696583.84949883;470.81524994;0.239216;0.239216;0.223529;15420.000000;1.000000;1.000000;1.000000;1.000000;0.019499;-0.019499;0.019499;1.000000
445646.89290054;5696583.89079865;470.76834991;0.513725;0.494118;0.443137;32382.000000;1.000000;1.000000;1.000000;1.000000;0.060799;-0.060799;0.060799;1.000000
445646.63440140;5696583.84419830;470.80504992;0.4;0.411765;0.415686;26728.000000;1.000000;1.000000;1.000000;1.000000;0.014593;-0.014593;0.014593;1.000000
445646.89650162;5696583.85539825;470.77044990;0.552941;0.529412;0.490196;34695.000000;1.000000;1.000000;1.000000;1.000000;0.025398;-0.025398;0.025398;1.000000
445646.67310150;5696583.80779846;470.80635001;0.301961;0.313725;0.317647;20303.000000;1.000000;1.000000;1.000000;1.000000;-0.026780;-0.026780;0.026780;1.000000
445646.64019974;5696583.92779930;470.79924991;0.431373;0.447059;0.443137;28784.000000;1.000000;1.000000;1.000000;1.000000;0.097799;-0.097799;0.097799;1.000000
445646.93300064;5696583.81939896;470.76934983;0.345098;0.313725;0.278431;20817.000000;1.000000;1.000000;1.000000;1.000000;-0.027039;-0.027039;0.027039;1.000000
445646.83040054;5696583.64819916;470.82314994;0.192157;0.180392;0.160784;11822.000000;1.000000;1.000000;1.000000;1.000000;-0.181801;0.181801;-0.181801;1.000000
445646.78830154;5696583.73879822;470.80375006;0.376471;0.388235;0.376471;24929.000000;1.000000;1.000000;1.000000;1.000000;-0.091348;-0.091348;0.091348;1.000000
445646.72810181;5696583.63410004;470.83474996;0.145098;0.160784;0.168627;10280.000000;1.000000;1.000000;1.000000;1.000000;-0.195900;0.195900;-0.195900;1.000000
445646.45680054;5696583.88349922;470.83474996;0.662745;0.654902;0.623529;42662.000000;1.000000;1.000000;1.000000;1.000000;0.053499;-0.053499;0.053499;1.000000
445646.64370163;5696583.89009865;470.79904987;0.27451;0.290196;0.298039;18761.000000;1.000000;1.000000;1.000000;1.000000;0.060099;-0.060099;0.060099;1.000000
445646.60480316;5696583.69450005;470.84154989;0.352941;0.360784;0.341176;23130.000000;1.000000;1.000000;1.000000;1.000000;-0.135510;0.135510;-0.135510;1.000000
445646.44790085;5696583.86329849;470.83404996;0.666667;0.658824;0.627451;42919.000000;1.000000;1.000000;1.000000;1.000000;0.033380;-0.033380;0.033380;1.000000
445646.48690231;5696583.82709892;470.82844998;0.317647;0.313725;0.270588;20303.000000;1.000000;1.000000;1.000000;1.000000;-0.002901;0.002901;-0.002901;1.000000
445646.79160126;5696583.70109947;470.80804994;0.470588;0.482353;0.466667;31097.000000;1.000000;1.000000;1.000000;1.000000;-0.128923;0.128923;-0.128923;1.000000
445646.68250092;5696583.85389908;470.79565002;0.313725;0.321569;0.305882;20560.000000;1.000000;1.000000;1.000000;1.000000;0.025313;-0.025313;0.025313;1.000000
445646.56420334;5696583.75679977;470.83344986;0.196078;0.192157;0.152941;12336.000000;1.000000;1.000000;1.000000;1.000000;-0.073200;0.073200;-0.073200;1.000000
445646.82690247;5696583.70249947;470.80504992;0.298039;0.301961;0.294118;19532.000000;1.000000;1.000000;1.000000;1.000000;-0.127501;0.127501;-0.127501;1.000000
445646.75679977;5696583.82129868;470.79164984;0.760784;0.776471;0.760784;50372.000000;1.000000;1.000000;1.000000;1.000000;-0.009997;-0.009997;0.009997;1.000000
445646.75770004;5696583.78379829;470.79824998;0.227451;0.247059;0.239216;15677.000000;1.000000;1.000000;1.000000;1.000000;-0.046480;0.046480;-0.046480;1.000000
445646.83300217;5696583.78619965;470.79234983;0.380392;0.368627;0.341176;24158.000000;1.000000;1.000000;1.000000;1.000000;-0.043800;0.043800;-0.043800;1.000000
445646.57420166;5696583.73949821;470.83594992;0.164706;0.156863;0.137255;10280.000000;1.000000;1.000000;1.000000;1.000000;-0.090508;0.090508;-0.090508;1.000000
445646.89949997;5696583.74279984;470.78314998;0.541176;0.513725;0.466667;33667.000000;1.000000;1.000000;1.000000;1.000000;-0.087200;0.087200;-0.087200;1.000000
445646.42220123;5696583.71389969;470.83585002;0.54902;0.505882;0.447059;33410.000000;1.000000;1.000000;1.000000;1.000000;-0.116100;0.116100;-0.116100;1.000000
445646.67840012;5696583.69730003;470.82154991;0.203922;0.227451;0.223529;14392.000000;1.000000;1.000000;1.000000;1.000000;-0.133273;0.133273;-0.133273;1.000000
445646.65970047;5696583.72239883;470.82334997;0.266667;0.286275;0.282353;18247.000000;1.000000;1.000000;1.000000;1.000000;-0.107613;-0.107613;0.107613;1.000000
445646.73710068;5696583.65209969;470.82605006;0.133333;0.14902;0.156863;9509.000000;1.000000;1.000000;1.000000;1.000000;-0.177900;0.177900;-0.177900;1.000000
445646.90670212;5696583.63200005;470.80784990;0.392157;0.372549;0.345098;24415.000000;1.000000;1.000000;1.000000;1.000000;-0.198000;0.198000;-0.198000;1.000000
445646.44420059;5696584.20759972;470.79845001;0.454902;0.458824;0.415686;29555.000000;1.000000;1.000000;1.000000;1.000000;0.111458;-0.111458;0.111458;1.000000
445646.40620239;5696584.17839821;470.80334999;0.47451;0.462745;0.435294;30326.000000;1.000000;1.000000;1.000000;1.000000;0.064698;-0.064698;0.064698;1.000000
445646.44370087;5696584.17949875;470.80504992;0.482353;0.478431;0.458824;31097.000000;1.000000;1.000000;1.000000;1.000000;0.100919;-0.100919;0.100919;1.000000
445646.40950211;5696584.14059837;470.80775001;0.4;0.384314;0.337255;24929.000000;1.000000;1.000000;1.000000;1.000000;0.063875;-0.063875;0.063875;1.000000
445646.44610031;5696584.10459908;470.80425002;0.427451;0.411765;0.376471;26985.000000;1.000000;1.000000;1.000000;1.000000;0.100473;-0.100473;0.100473;1.000000
445646.41060074;5696584.10309990;470.80964996;0.337255;0.305882;0.270588;20303.000000;1.000000;1.000000;1.000000;1.000000;0.064974;-0.064974;0.064974;1.000000
445646.44930084;5696584.06679924;470.80865004;0.419608;0.415686;0.392157;26985.000000;1.000000;1.000000;1.000000;1.000000;0.103674;-0.103674;0.103674;1.000000
445646.52710159;5696583.99659927;470.80434992;0.745098;0.737255;0.713725;48059.000000;1.000000;1.000000;1.000000;1.000000;0.166599;0.166599;-0.166599;1.000000
445646.41640289;5696583.95489891;470.84075000;0.333333;0.333333;0.309804;21588.000000;1.000000;1.000000;1.000000;1.000000;0.070776;-0.070776;0.070776;1.000000
445646.41780289;5696583.91969879;470.84034993;0.647059;0.643137;0.611765;41891.000000;1.000000;1.000000;1.000000;1.000000;0.072176;-0.072176;0.072176;1.000000
445646.46339996;5696583.73329933;470.84255006;0.682353;0.65098;0.580392;42662.000000;1.000000;1.000000;1.000000;1.000000;-0.096701;0.096701;-0.096701;1.000000
445646.50130280;5696583.73679932;470.83964993;0.505882;0.478431;0.4;31097.000000;1.000000;1.000000;1.000000;1.000000;-0.093201;0.093201;-0.093201;1.000000
445646.42840012;5696583.65709885;470.84005000;0.384314;0.356863;0.282353;23387.000000;1.000000;1.000000;1.000000;1.000000;-0.172901;0.172901;-0.172901;1.000000
445646.46590240;5696583.65829857;470.83944990;0.45098;0.423529;0.360784;27756.000000;1.000000;1.000000;1.000000;1.000000;-0.171701;0.171701;-0.171701;1.000000
445646.54110153;5696583.66299828;470.84054996;0.117647;0.0901961;0.0705882;6168.000000;1.000000;1.000000;1.000000;1.000000;-0.167026;0.167026;-0.167026;1.000000
445646.80290039;5696584.02769859;470.76594998;0.596078;0.576471;0.537255;37779.000000;1.000000;1.000000;1.000000;1.000000;0.105227;-0.105227;0.105227;1.000000
445646.41380127;5696584.20809944;470.80174996;0.411765;0.411765;0.352941;26471.000000;1.000000;1.000000;1.000000;1.000000;0.086018;-0.086018;0.086018;1.000000
445646.41810043;5696584.13279922;470.80804994;0.415686;0.396078;0.352941;25957.000000;1.000000;1.000000;1.000000;1.000000;0.072474;-0.072474;0.072474;1.000000
445646.45700272;5696584.09649857;470.80464985;0.337255;0.32549;0.298039;21331.000000;1.000000;1.000000;1.000000;1.000000;0.111376;-0.111376;0.111376;1.000000
445646.90300186;5696583.70739944;470.78754999;0.341176;0.305882;0.27451;20303.000000;1.000000;1.000000;1.000000;1.000000;-0.122601;0.122601;-0.122601;1.000000
445646.77260025;5696583.65359886;470.82064988;0.141176;0.145098;0.145098;9252.000000;1.000000;1.000000;1.000000;1.000000;-0.176401;0.176401;-0.176401;1.000000
445646.71690186;5696583.66099937;470.82754995;0.203922;0.219608;0.227451;14135.000000;1.000000;1.000000;1.000000;1.000000;-0.169001;0.169001;-0.169001;1.000000
445646.81010254;5696583.65479858;470.82005002;0.101961;0.0941176;0.0862745;6168.000000;1.000000;1.000000;1.000000;1.000000;-0.175201;0.175201;-0.175201;1.000000
445646.49260147;5696583.71669968;470.83434989;0.243137;0.203922;0.141176;13621.000000;1.000000;1.000000;1.000000;1.000000;-0.113300;0.113300;-0.113300;1.000000
445646.56540115;5696583.72159966;470.83774998;0.243137;0.231373;0.211765;15163.000000;1.000000;1.000000;1.000000;1.000000;-0.108405;-0.108405;0.108405;1.000000
445646.42360123;5696583.67869957;470.83544995;0.254902;0.211765;0.156863;14135.000000;1.000000;1.000000;1.000000;1.000000;-0.151300;0.151300;-0.151300;1.000000
445646.77960022;5696584.15589912;470.77105000;0.619608;0.607843;0.576471;39835.000000;1.000000;1.000000;1.000000;1.000000;0.128527;0.128527;-0.128527;1.000000
445646.56250198;5696583.99799927;470.80125000;0.494118;0.490196;0.470588;31868.000000;1.000000;1.000000;1.000000;1.000000;0.167999;0.167999;-0.167999;1.000000
445646.78680237;5696584.00809868;470.77195003;0.564706;0.537255;0.482353;35209.000000;1.000000;1.000000;1.000000;1.000000;0.121325;-0.121325;0.121325;1.000000
445646.82460220;5696584.00929840;470.76664998;0.670588;0.65098;0.611765;42662.000000;1.000000;1.000000;1.000000;1.000000;0.083525;-0.083525;0.083525;1.000000
445646.56360062;5696583.96049889;470.80324986;0.333333;0.333333;0.313725;21588.000000;1.000000;1.000000;1.000000;1.000000;0.130499;0.130499;-0.130499;1.000000
445646.82580002;5696583.97189911;470.76624991;0.776471;0.760784;0.721569;49858.000000;1.000000;1.000000;1.000000;1.000000;0.088758;-0.088758;0.088758;1.000000
445646.56700333;5696583.92509850;470.80994989;0.282353;0.286275;0.266667;18504.000000;1.000000;1.000000;1.000000;1.000000;0.095135;-0.095135;0.095135;1.000000
445646.86460312;5696583.93789871;470.76764991;0.611765;0.588235;0.545098;38550.000000;1.000000;1.000000;1.000000;1.000000;0.080009;-0.080009;0.080009;1.000000
445646.93740280;5696583.94049843;470.76624991;0.603922;0.576471;0.533333;37779.000000;1.000000;1.000000;1.000000;1.000000;-0.070891;0.070891;-0.070891;1.000000
445646.90320023;5696583.90159996;470.76895000;0.627451;0.603922;0.556863;39578.000000;1.000000;1.000000;1.000000;1.000000;0.071600;0.071600;-0.071600;1.000000
445646.64470108;5696583.85259827;470.80324986;0.45098;0.458824;0.458824;29812.000000;1.000000;1.000000;1.000000;1.000000;0.022598;-0.022598;0.022598;1.000000
445646.90450104;5696583.86409958;470.76624991;0.576471;0.552941;0.509804;36237.000000;1.000000;1.000000;1.000000;1.000000;0.034100;0.034100;-0.034100;1.000000
445646.64579971;5696583.81740006;470.80754997;0.235294;0.247059;0.25098;15934.000000;1.000000;1.000000;1.000000;1.000000;-0.012600;0.012600;-0.012600;1.000000
445646.68460281;5696583.78109940;470.80655005;0.109804;0.12549;0.129412;7710.000000;1.000000;1.000000;1.000000;1.000000;-0.049292;0.049292;-0.049292;1.000000
445646.76080139;5696583.74599846;470.80725004;0.168627;0.188235;0.188235;11822.000000;1.000000;1.000000;1.000000;1.000000;-0.084025;0.084025;-0.084025;1.000000
445646.79620178;5696583.74739845;470.80184986;0.466667;0.478431;0.462745;30840.000000;1.000000;1.000000;1.000000;1.000000;-0.082602;0.082602;-0.082602;1.000000
445646.79969986;5696583.71199997;470.80624988;0.403922;0.415686;0.4;26728.000000;1.000000;1.000000;1.000000;1.000000;-0.118000;0.118000;-0.118000;1.000000
445646.83490189;5696583.71119888;470.80084993;0.309804;0.309804;0.298039;20046.000000;1.000000;1.000000;1.000000;1.000000;-0.118801;0.118801;-0.118801;1.000000
445646.65150269;5696583.66679962;470.83865001;0.282353;0.301961;0.298039;19275.000000;1.000000;1.000000;1.000000;1.000000;-0.163200;0.163200;-0.163200;1.000000
445646.74680145;5696583.83869942;470.78904988;0.152941;0.168627;0.14902;10537.000000;1.000000;1.000000;1.000000;1.000000;0.008699;0.008699;-0.008699;1.000000
445646.85730179;5696583.84249886;470.78475000;0.517647;0.501961;0.466667;32896.000000;1.000000;1.000000;1.000000;1.000000;0.012499;-0.012499;0.012499;1.000000
445646.73030289;5696584.00619896;470.77635004;0.411765;0.368627;0.317647;24415.000000;1.000000;1.000000;1.000000;1.000000;0.176199;0.176199;-0.176199;1.000000
445646.73150070;5696583.96879967;470.77594997;0.423529;0.407843;0.376471;26728.000000;1.000000;1.000000;1.000000;1.000000;0.138800;0.138800;-0.138800;1.000000
445646.73600204;5696583.89349945;470.77994992;0.423529;0.435294;0.411765;28013.000000;1.000000;1.000000;1.000000;1.000000;0.063499;0.063499;-0.063499;1.000000
445646.85000046;5696583.86189850;470.78005006;0.27451;0.258824;0.215686;16705.000000;1.000000;1.000000;1.000000;1.000000;0.032197;-0.032197;0.032197;1.000000
445646.78059967;5696583.70909889;470.81005003;0.392157;0.407843;0.388235;26214.000000;1.000000;1.000000;1.000000;1.000000;-0.120901;0.120901;-0.120901;1.000000
445646.82320221;5696583.80589874;470.78985002;0.54902;0.541176;0.513725;35209.000000;1.000000;1.000000;1.000000;1.000000;-0.024191;0.024191;-0.024191;1.000000
445646.86090286;5696583.80709847;470.78684999;0.584314;0.572549;0.541176;37522.000000;1.000000;1.000000;1.000000;1.000000;-0.022902;0.022902;-0.022902;1.000000
445646.60220154;5696583.75809868;470.82355000;0.141176;0.152941;0.145098;9509.000000;1.000000;1.000000;1.000000;1.000000;-0.072030;0.072030;-0.072030;1.000000
445646.86200150;5696583.76959999;470.78884985;0.431373;0.419608;0.380392;27242.000000;1.000000;1.000000;1.000000;1.000000;-0.060400;0.060400;-0.060400;1.000000
445646.64090164;5696583.72409828;470.82714989;0.231373;0.247059;0.247059;15677.000000;1.000000;1.000000;1.000000;1.000000;-0.105902;0.105902;-0.105902;1.000000
445646.90089996;5696583.73339851;470.78314998;0.486275;0.45098;0.407843;29812.000000;1.000000;1.000000;1.000000;1.000000;-0.096601;0.096601;-0.096601;1.000000
445646.67980011;5696583.68779953;470.82384994;0.160784;0.184314;0.184314;11565.000000;1.000000;1.000000;1.000000;1.000000;-0.142620;0.142620;-0.142620;1.000000
445646.90430267;5696583.69789894;470.78985002;0.298039;0.262745;0.235294;17476.000000;1.000000;1.000000;1.000000;1.000000;-0.132101;0.132101;-0.132101;1.000000
445646.79140289;5696583.65419968;470.81914999;0.121569;0.117647;0.117647;7710.000000;1.000000;1.000000;1.000000;1.000000;-0.175820;0.175820;-0.175820;1.000000
445646.75710114;5696583.84709938;470.78734996;0.2;0.211765;0.192157;13364.000000;1.000000;1.000000;1.000000;1.000000;0.017880;-0.017880;0.017880;1.000000
445646.43160065;5696584.03099831;470.81674983;0.34902;0.352941;0.333333;22873.000000;1.000000;1.000000;1.000000;1.000000;0.085974;-0.085974;0.085974;1.000000
445646.52900131;5696583.68059929;470.83554985;0.101961;0.0784314;0.054902;5397.000000;1.000000;1.000000;1.000000;1.000000;-0.149401;0.149401;-0.149401;1.000000
445646.83100327;5696583.81449898;470.79024984;0.447059;0.435294;0.403922;28527.000000;1.000000;1.000000;1.000000;1.000000;-0.015501;0.015501;-0.015501;1.000000
445646.43490036;5696584.16159828;470.80674984;0.443137;0.439216;0.411765;28527.000000;1.000000;1.000000;1.000000;1.000000;0.089466;-0.089466;0.089466;1.000000
445646.80730255;5696584.17669876;470.77024986;0.72549;0.709804;0.678431;46517.000000;1.000000;1.000000;1.000000;1.000000;0.100824;0.100824;-0.100824;1.000000
445646.65260132;5696583.91029938;470.79734995;0.309804;0.329412;0.337255;21074.000000;1.000000;1.000000;1.000000;1.000000;0.080299;0.080299;-0.080299;1.000000
445646.69020279;5696583.83679970;470.79814984;0.25098;0.262745;0.254902;16705.000000;1.000000;1.000000;1.000000;1.000000;0.006829;-0.006829;0.006829;1.000000
445646.94800003;5696584.14529999;470.74825003;0.258824;0.239216;0.188235;15677.000000;1.000000;1.000000;1.000000;1.000000;-0.039873;0.039873;-0.039873;1.000000
445646.91260345;5696584.14389999;470.75125005;0.72549;0.709804;0.666667;46260.000000;1.000000;1.000000;1.000000;1.000000;-0.004477;0.004477;-0.004477;1.000000
445646.84790237;5696584.10539825;470.75954988;0.654902;0.635294;0.607843;41634.000000;1.000000;1.000000;1.000000;1.000000;0.060225;-0.060225;0.060225;1.000000
445646.84910019;5696584.06789978;470.75915005;0.533333;0.513725;0.486275;33667.000000;1.000000;1.000000;1.000000;1.000000;0.059027;-0.059027;0.059027;1.000000
445646.59040268;5696584.01889999;470.79585006;0.384314;0.384314;0.376471;24929.000000;1.000000;1.000000;1.000000;1.000000;0.188900;0.188900;-0.188900;1.000000
445646.85010345;5696584.03039940;470.76344993;0.494118;0.478431;0.447059;31354.000000;1.000000;1.000000;1.000000;1.000000;0.058023;-0.058023;0.058023;1.000000
445646.92660339;5696583.99539955;470.75714995;0.490196;0.462745;0.419608;30326.000000;1.000000;1.000000;1.000000;1.000000;-0.020941;0.020941;-0.020941;1.000000
445646.88879974;5696583.99409874;470.76245000;0.682353;0.658824;0.623529;43176.000000;1.000000;1.000000;1.000000;1.000000;0.022263;-0.022263;0.022263;1.000000
445646.66810043;5696583.94870003;470.79384996;0.529412;0.537255;0.529412;34952.000000;1.000000;1.000000;1.000000;1.000000;0.119118;-0.119118;0.119118;1.000000
445646.92780121;5696583.96009834;470.76144983;0.356863;0.333333;0.290196;21845.000000;1.000000;1.000000;1.000000;1.000000;-0.049171;0.049171;-0.049171;1.000000
445646.66890152;5696583.90879829;470.79574992;0.356863;0.372549;0.372549;23901.000000;1.000000;1.000000;1.000000;1.000000;0.079532;-0.079532;0.079532;1.000000
445646.67040070;5696583.87369926;470.79534986;0.419608;0.427451;0.423529;27756.000000;1.000000;1.000000;1.000000;1.000000;0.045390;-0.045390;0.045390;1.000000
445646.67360123;5696583.83589943;470.79974987;0.239216;0.243137;0.239216;15677.000000;1.000000;1.000000;1.000000;1.000000;0.016561;-0.016561;0.016561;1.000000
445646.91370209;5696584.10639961;470.75324990;0.501961;0.466667;0.415686;30840.000000;1.000000;1.000000;1.000000;1.000000;-0.005575;0.005575;-0.005575;1.000000
445646.47970016;5696584.20909889;470.79304983;0.619608;0.615686;0.592157;40092.000000;1.000000;1.000000;1.000000;1.000000;0.120901;-0.120901;0.120901;1.000000
445646.45549973;5696583.94660004;470.83774998;0.447059;0.447059;0.419608;29041.000000;1.000000;1.000000;1.000000;1.000000;0.109873;-0.109873;0.109873;1.000000
445646.45470245;5696583.91169937;470.83494999;0.517647;0.517647;0.486275;33667.000000;1.000000;1.000000;1.000000;1.000000;0.081699;-0.081699;0.081699;1.000000
445646.71260269;5696583.80199821;470.79874994;0.388235;0.411765;0.415686;26471.000000;1.000000;1.000000;1.000000;1.000000;-0.028002;0.028002;-0.028002;1.000000
445646.74790009;5696583.80339821;470.79565002;0.631373;0.65098;0.643137;42148.000000;1.000000;1.000000;1.000000;1.000000;-0.026602;0.026602;-0.026602;1.000000
445646.94910248;5696584.10779961;470.75014998;0.470588;0.439216;0.372549;28784.000000;1.000000;1.000000;1.000000;1.000000;-0.040976;0.040976;-0.040976;1.000000
445646.95030029;5696584.07039841;470.74974992;0.537255;0.509804;0.45098;33410.000000;1.000000;1.000000;1.000000;1.000000;-0.042173;0.042173;-0.042173;1.000000
445646.78650101;5696583.76709946;470.79935004;0.396078;0.407843;0.4;26214.000000;1.000000;1.000000;1.000000;1.000000;-0.062991;-0.062991;0.062991;1.000000
445646.65640076;5696584.02219971;470.78954985;0.333333;0.337255;0.341176;21845.000000;1.000000;1.000000;1.000000;1.000000;0.192200;0.192200;-0.192200;1.000000
445646.95400055;5696584.03499992;470.74954988;0.654902;0.635294;0.584314;41634.000000;1.000000;1.000000;1.000000;1.000000;-0.045874;0.045874;-0.045874;1.000000
445646.82410248;5696583.76829918;470.79635002;0.376471;0.376471;0.341176;24415.000000;1.000000;1.000000;1.000000;1.000000;-0.061712;0.061712;-0.061712;1.000000
445646.95520218;5696583.99749954;470.74915006;0.741176;0.713725;0.662745;46774.000000;1.000000;1.000000;1.000000;1.000000;-0.047736;0.047736;-0.047736;1.000000
445646.41940125;5696583.78869827;470.84585001;0.458824;0.466667;0.368627;29555.000000;1.000000;1.000000;1.000000;1.000000;-0.041302;0.041302;-0.041302;1.000000
445646.40770157;5696584.02839859;470.82254984;0.223529;0.227451;0.215686;14649.000000;1.000000;1.000000;1.000000;1.000000;0.062075;-0.062075;0.062075;1.000000
445646.42430313;5696583.63879974;470.83964993;0.458824;0.439216;0.364706;28527.000000;1.000000;1.000000;1.000000;1.000000;-0.191200;0.191200;-0.191200;1.000000
445646.46080215;5696584.20839890;470.79684999;0.498039;0.498039;0.462745;32382.000000;1.000000;1.000000;1.000000;1.000000;0.121606;-0.121606;0.121606;1.000000
445646.43610199;5696584.12409981;470.80635001;0.584314;0.572549;0.529412;37265.000000;1.000000;1.000000;1.000000;1.000000;0.090475;-0.090475;0.090475;1.000000
445646.70700272;5696583.67829903;470.82264997;0.258824;0.282353;0.282353;17990.000000;1.000000;1.000000;1.000000;1.000000;-0.151701;0.151701;-0.151701;1.000000
445646.47680099;5696583.65029915;470.83984997;0.407843;0.380392;0.329412;24929.000000;1.000000;1.000000;1.000000;1.000000;-0.179762;0.179762;-0.179762;1.000000
445646.68169983;5696583.64069946;470.83964993;0.211765;0.227451;0.227451;14392.000000;1.000000;1.000000;1.000000;1.000000;-0.189513;0.189513;-0.189513;1.000000
445646.43350037;5696583.98379906;470.83254983;0.407843;0.415686;0.396078;26728.000000;1.000000;1.000000;1.000000;1.000000;0.087873;-0.087873;0.087873;1.000000
445646.47220047;5696583.94749840;470.83384993;0.352941;0.352941;0.32549;22873.000000;1.000000;1.000000;1.000000;1.000000;0.117509;-0.117509;0.117509;1.000000
445646.47360046;5696583.91229828;470.83355000;0.466667;0.458824;0.427451;29812.000000;1.000000;1.000000;1.000000;1.000000;0.082352;-0.082352;0.082352;1.000000
445646.51470001;5696583.80109985;470.83174994;0.356863;0.360784;0.298039;22873.000000;1.000000;1.000000;1.000000;1.000000;-0.028900;0.028900;-0.028900;1.000000
445646.55560120;5696583.76459892;470.83314993;0.211765;0.215686;0.168627;13621.000000;1.000000;1.000000;1.000000;1.000000;-0.065401;0.065401;-0.065401;1.000000
445646.55680283;5696583.72939880;470.83745005;0.329412;0.313725;0.286275;20560.000000;1.000000;1.000000;1.000000;1.000000;-0.100601;0.100601;-0.100601;1.000000
445646.44530304;5696583.68599899;470.83655002;0.141176;0.0980392;0.0509804;6682.000000;1.000000;1.000000;1.000000;1.000000;-0.144085;0.144085;-0.144085;1.000000
445646.80860336;5696584.13929947;470.76744987;0.541176;0.521569;0.494118;34181.000000;1.000000;1.000000;1.000000;1.000000;0.099524;-0.099524;0.099524;1.000000
445646.42260178;5696583.99179848;470.83215000;0.239216;0.243137;0.227451;15677.000000;1.000000;1.000000;1.000000;1.000000;0.076975;-0.076975;0.076975;1.000000
445646.42049988;5696583.87049873;470.83524992;0.439216;0.435294;0.4;28270.000000;1.000000;1.000000;1.000000;1.000000;0.040499;-0.040499;0.040499;1.000000
445646.41270264;5696583.96459969;470.84064986;0.380392;0.376471;0.34902;24415.000000;1.000000;1.000000;1.000000;1.000000;0.067076;-0.067076;0.067076;1.000000
445646.46380051;5696583.95759972;470.83364989;0.4;0.4;0.376471;25957.000000;1.000000;1.000000;1.000000;1.000000;0.118174;-0.118174;0.118174;1.000000
445646.45940216;5696583.83659943;470.83424999;0.290196;0.290196;0.247059;18504.000000;1.000000;1.000000;1.000000;1.000000;0.006599;-0.006599;0.006599;1.000000
445646.46479996;5696583.92009933;470.83554985;0.580392;0.576471;0.545098;37522.000000;1.000000;1.000000;1.000000;1.000000;0.090099;0.090099;-0.090099;1.000000
445646.53670319;5696583.76389893;470.83694984;0.47451;0.47451;0.407843;30583.000000;1.000000;1.000000;1.000000;1.000000;-0.066198;-0.066198;0.066198;1.000000
445646.50030334;5696583.72529991;470.83714988;0.427451;0.396078;0.32549;25957.000000;1.000000;1.000000;1.000000;1.000000;-0.104700;0.104700;-0.104700;1.000000
445646.42880066;5696583.68519981;470.83574988;0.207843;0.164706;0.113725;11051.000000;1.000000;1.000000;1.000000;1.000000;-0.144800;0.144800;-0.144800;1.000000
445646.50180252;5696583.69009979;470.83445003;0.12549;0.0901961;0.0588235;6168.000000;1.000000;1.000000;1.000000;1.000000;-0.139900;0.139900;-0.139900;1.000000
445646.53930099;5696583.69129951;470.83614995;0.164706;0.145098;0.12549;9509.000000;1.000000;1.000000;1.000000;1.000000;-0.138779;0.138779;-0.138779;1.000000
445646.46610077;5696583.88270004;470.83285000;0.670588;0.662745;0.631373;43176.000000;1.000000;1.000000;1.000000;1.000000;0.052700;0.052700;-0.052700;1.000000
445646.46730240;5696583.84519966;470.83244993;0.258824;0.254902;0.215686;16448.000000;1.000000;1.000000;1.000000;1.000000;0.015200;0.015200;-0.015200;1.000000
445646.50620087;5696583.80889900;470.82904984;0.254902;0.258824;0.203922;16448.000000;1.000000;1.000000;1.000000;1.000000;-0.021539;-0.021539;0.021539;1.000000
445646.43690308;5696583.69609840;470.83624985;0.270588;0.223529;0.164706;14906.000000;1.000000;1.000000;1.000000;1.000000;-0.133902;0.133902;-0.133902;1.000000
445646.94250305;5696584.06169899;470.74934985;0.588235;0.564706;0.505882;37008.000000;1.000000;1.000000;1.000000;1.000000;-0.034376;0.034376;-0.034376;1.000000
445646.89439972;5696583.88139923;470.76834991;0.462745;0.443137;0.392157;29041.000000;1.000000;1.000000;1.000000;1.000000;0.051399;-0.051399;0.051399;1.000000
445646.53560074;5696583.77579887;470.83465006;0.482353;0.486275;0.423529;31097.000000;1.000000;1.000000;1.000000;1.000000;-0.054258;-0.054258;0.054258;1.000000
445646.61280258;5696583.70309837;470.83734991;0.282353;0.290196;0.286275;18761.000000;1.000000;1.000000;1.000000;1.000000;-0.126902;0.126902;-0.126902;1.000000
445646.59250076;5696583.94389923;470.80195000;0.384314;0.396078;0.376471;25443.000000;1.000000;1.000000;1.000000;1.000000;0.113899;0.113899;-0.113899;1.000000
445646.45720108;5696583.64040001;470.84115006;0.458824;0.427451;0.356863;28013.000000;1.000000;1.000000;1.000000;1.000000;-0.189600;0.189600;-0.189600;1.000000
445646.63590057;5696583.83469971;470.80495002;0.392157;0.403922;0.407843;26214.000000;1.000000;1.000000;1.000000;1.000000;0.005058;-0.005058;0.005058;1.000000
445646.89570053;5696583.84619911;470.77024986;0.45098;0.427451;0.396078;28013.000000;1.000000;1.000000;1.000000;1.000000;0.016199;-0.016199;0.016199;1.000000
445646.86290176;5696583.73199852;470.79534986;0.45098;0.439216;0.403922;28527.000000;1.000000;1.000000;1.000000;1.000000;-0.098001;0.098001;-0.098001;1.000000
445646.82040222;5696584.11259850;470.76304986;0.439216;0.423529;0.4;27756.000000;1.000000;1.000000;1.000000;1.000000;0.087725;-0.087725;0.087725;1.000000
445646.89330109;5696584.11519821;470.75705006;0.682353;0.658824;0.619608;43176.000000;1.000000;1.000000;1.000000;1.000000;0.014826;-0.014826;0.014826;1.000000
445646.85700043;5696584.07659920;470.75724985;0.576471;0.560784;0.533333;36751.000000;1.000000;1.000000;1.000000;1.000000;0.051126;-0.051126;0.051126;1.000000
445646.81920059;5696584.07529839;470.76254990;0.564706;0.54902;0.52549;35980.000000;1.000000;1.000000;1.000000;1.000000;0.088926;-0.088926;0.088926;1.000000
445646.56280334;5696584.02609833;470.79924991;0.415686;0.403922;0.396078;26471.000000;1.000000;1.000000;1.000000;1.000000;0.196098;0.196098;-0.196098;1.000000
445646.89920242;5696584.00479897;470.76064994;0.541176;0.513725;0.47451;33924.000000;1.000000;1.000000;1.000000;1.000000;0.008933;-0.008933;0.008933;1.000000
445646.68050201;5696583.88209923;470.79594995;0.411765;0.419608;0.407843;27242.000000;1.000000;1.000000;1.000000;1.000000;0.053115;-0.053115;0.053115;1.000000
445646.94140060;5696583.85609825;470.76084997;0.396078;0.368627;0.32549;24158.000000;1.000000;1.000000;1.000000;1.000000;0.042288;-0.042288;0.042288;1.000000
445646.72050293;5696583.81059845;470.79684999;0.337255;0.364706;0.364706;23130.000000;1.000000;1.000000;1.000000;1.000000;-0.019402;0.019402;-0.019402;1.000000
445646.79689987;5696583.77779968;470.79764988;0.533333;0.541176;0.52549;34952.000000;1.000000;1.000000;1.000000;1.000000;-0.052200;0.052200;-0.052200;1.000000
445646.61090286;5696583.72909935;470.83054997;0.309804;0.321569;0.317647;20560.000000;1.000000;1.000000;1.000000;1.000000;-0.100901;0.100901;-0.100901;1.000000
445646.64970215;5696583.69509895;470.83184983;0.298039;0.317647;0.309804;20303.000000;1.000000;1.000000;1.000000;1.000000;-0.134901;0.134901;-0.134901;1.000000
445646.87430008;5696583.70519836;470.79795005;0.333333;0.309804;0.286275;20560.000000;1.000000;1.000000;1.000000;1.000000;-0.124802;0.124802;-0.124802;1.000000
445646.63120087;5696583.90759857;470.80094983;0.403922;0.407843;0.396078;26471.000000;1.000000;1.000000;1.000000;1.000000;0.077719;-0.077719;0.077719;1.000000
445646.59700211;5696583.87089928;470.80834987;0.337255;0.345098;0.337255;22359.000000;1.000000;1.000000;1.000000;1.000000;0.040922;-0.040922;0.040922;1.000000
445646.48740204;5696583.78949936;470.84194996;0.247059;0.254902;0.156863;15677.000000;1.000000;1.000000;1.000000;1.000000;-0.040501;0.040501;-0.040501;1.000000
445646.52650269;5696583.75549896;470.83865001;0.403922;0.396078;0.321569;25443.000000;1.000000;1.000000;1.000000;1.000000;-0.074501;0.074501;-0.074501;1.000000
445646.78730209;5696583.72949989;470.80594995;0.376471;0.396078;0.380392;25443.000000;1.000000;1.000000;1.000000;1.000000;-0.100587;-0.100587;0.100587;1.000000
445646.82510193;5696583.73079880;470.80064990;0.486275;0.486275;0.466667;31611.000000;1.000000;1.000000;1.000000;1.000000;-0.099201;0.099201;-0.099201;1.000000
445646.85070236;5696584.01159866;470.76324989;0.670588;0.65098;0.619608;42662.000000;1.000000;1.000000;1.000000;1.000000;0.057425;-0.057425;0.057425;1.000000
445646.45800217;5696584.05900009;470.80894997;0.368627;0.360784;0.341176;23644.000000;1.000000;1.000000;1.000000;1.000000;0.112375;-0.112375;0.112375;1.000000
445646.56020172;5696583.64479836;470.84585001;0.168627;0.145098;0.129412;9766.000000;1.000000;1.000000;1.000000;1.000000;-0.185202;0.185202;-0.185202;1.000000
445646.51210220;5696583.69859894;470.83274986;0.137255;0.109804;0.0666667;7196.000000;1.000000;1.000000;1.000000;1.000000;-0.131403;0.131403;-0.131403;1.000000
445646.57660110;5696583.87749870;470.80974986;0.466667;0.462745;0.435294;30069.000000;1.000000;1.000000;1.000000;1.000000;0.047499;-0.047499;0.047499;1.000000
445646.44480331;5696584.14199837;470.80694987;0.737255;0.729412;0.690196;47545.000000;1.000000;1.000000;1.000000;1.000000;0.099176;-0.099176;0.099176;1.000000
445646.74230011;5696584.15699966;470.77174999;0.686275;0.666667;0.623529;43690.000000;1.000000;1.000000;1.000000;1.000000;0.165827;0.165827;-0.165827;1.000000
445646.81750305;5696584.15949829;470.76814987;0.654902;0.639216;0.607843;41891.000000;1.000000;1.000000;1.000000;1.000000;0.090624;0.090624;-0.090624;1.000000
445646.86120041;5696583.97559937;470.76554992;0.776471;0.756863;0.72549;49601.000000;1.000000;1.000000;1.000000;1.000000;0.055420;-0.055420;0.055420;1.000000
445646.46479996;5696583.69579895;470.83754994;0.137255;0.0980392;0.054902;6682.000000;1.000000;1.000000;1.000000;1.000000;-0.134201;0.134201;-0.134201;1.000000
445646.71430023;5696583.93979843;470.78644993;0.466667;0.470588;0.45098;30583.000000;1.000000;1.000000;1.000000;1.000000;0.109798;-0.109798;0.109798;1.000000
