//X;Y;Z;Rf;Gf;Bf;Intensity;Return Number;Number Of Returns;Scan Direction Flag;Point Source ID;C2M signed distances[-][<0.8];C2M signed distances[<0.4];C2M signed distances[-][<0.2];Stump56
300
445644.42440231;5696576.71049889;470.75764992;0.180392;0.168627;0.156863;11051.000000;1.000000;1.000000;1.000000;1.000000;-0.119501;0.119501;-0.119501;1.000000
445644.44110306;5696577.21499928;470.81104996;0.545098;0.545098;0.513725;35466.000000;1.000000;1.000000;1.000000;1.000000;-0.084818;0.084818;-0.084818;1.000000
445644.42770203;5696576.67279919;470.76204993;0.0941176;0.0862745;0.0862745;5654.000000;1.000000;1.000000;1.000000;1.000000;-0.157201;0.157201;-0.157201;1.000000
445644.24250229;5696576.85089882;470.77904989;0.623529;0.607843;0.560784;39578.000000;1.000000;1.000000;1.000000;1.000000;-0.166938;0.166938;-0.166938;1.000000
445644.35210236;5696576.88239868;470.79834988;0.670588;0.694118;0.580392;44204.000000;1.000000;1.000000;1.000000;1.000000;-0.076710;0.076710;-0.076710;1.000000
445644.38650330;5696577.18259914;470.81515004;0.509804;0.509804;0.470588;32896.000000;1.000000;1.000000;1.000000;1.000000;-0.118421;0.118421;-0.118421;1.000000
445644.42440231;5696577.18619926;470.80994989;0.666667;0.67451;0.643137;43690.000000;1.000000;1.000000;1.000000;1.000000;-0.083223;0.083223;-0.083223;1.000000
445644.35360153;5696577.10629948;470.81504991;0.203922;0.211765;0.188235;13364.000000;1.000000;1.000000;1.000000;1.000000;-0.148275;0.148275;-0.148275;1.000000
445644.43620117;5696577.11039932;470.80725004;0.65098;0.67451;0.639216;43433.000000;1.000000;1.000000;1.000000;1.000000;-0.065676;0.065676;-0.065676;1.000000
445644.33670242;5696577.03289898;470.82974984;0.470588;0.513725;0.435294;32125.000000;1.000000;1.000000;1.000000;1.000000;-0.165174;0.165174;-0.165174;1.000000
445644.50420197;5696577.05759914;470.79574992;0.788235;0.8;0.768627;51914.000000;1.000000;1.000000;1.000000;1.000000;0.002325;-0.002325;0.002325;1.000000
445644.23050125;5696576.90539940;470.79544999;0.411765;0.407843;0.356863;26214.000000;1.000000;1.000000;1.000000;1.000000;-0.192966;0.192966;-0.192966;1.000000
445644.05030258;5696577.22649868;470.89594986;0.376471;0.32549;0.294118;22102.000000;1.000000;1.000000;1.000000;1.000000;0.112990;-0.112990;0.112990;1.000000
445644.38700302;5696576.76299961;470.76125004;0.537255;0.541176;0.52549;35209.000000;1.000000;1.000000;1.000000;1.000000;0.070251;-0.070251;0.070251;1.000000
445644.42280014;5696576.76679905;470.75364997;0.623529;0.615686;0.603922;40349.000000;1.000000;1.000000;1.000000;1.000000;-0.063201;0.063201;-0.063201;1.000000
445644.42720230;5696576.69159897;470.75994994;0.0980392;0.0823529;0.0784314;5654.000000;1.000000;1.000000;1.000000;1.000000;-0.138401;0.138401;-0.138401;1.000000
445644.46580322;5696576.65529926;470.76125004;0.298039;0.298039;0.305882;19532.000000;1.000000;1.000000;1.000000;1.000000;-0.174701;0.174701;-0.174701;1.000000
445644.49290283;5696577.11229904;470.79814984;0.470588;0.482353;0.462745;31097.000000;1.000000;1.000000;1.000000;1.000000;-0.008974;0.008974;-0.008974;1.000000
445644.49410065;5696577.07479961;470.79775002;0.764706;0.776471;0.74902;50372.000000;1.000000;1.000000;1.000000;1.000000;-0.007776;0.007776;-0.007776;1.000000
445644.49520309;5696577.03739937;470.79734995;0.87451;0.898039;0.847059;57825.000000;1.000000;1.000000;1.000000;1.000000;-0.006674;0.006674;-0.006674;1.000000
445644.31730087;5696577.04869946;470.82675006;0.54902;0.556863;0.505882;35723.000000;1.000000;1.000000;1.000000;1.000000;-0.184576;0.184576;-0.184576;1.000000
445644.47510345;5696577.07419880;470.80154993;0.905882;0.92549;0.894118;59881.000000;1.000000;1.000000;1.000000;1.000000;-0.026773;0.026773;-0.026773;1.000000
445644.34880264;5696577.20929916;470.82544996;0.643137;0.643137;0.596078;41634.000000;1.000000;1.000000;1.000000;1.000000;0.120701;-0.120701;0.120701;1.000000
445644.31380280;5696577.13319881;470.82064988;0.65098;0.643137;0.615686;41891.000000;1.000000;1.000000;1.000000;1.000000;-0.188074;0.188074;-0.188074;1.000000
445644.36260040;5696576.86529930;470.78935005;0.635294;0.639216;0.552941;41120.000000;1.000000;1.000000;1.000000;1.000000;-0.057608;0.057608;-0.057608;1.000000
445644.43680008;5696576.95119961;470.82634999;0.419608;0.498039;0.329412;29812.000000;1.000000;1.000000;1.000000;1.000000;-0.065077;0.065077;-0.065077;1.000000
445644.32670029;5696576.85459908;470.78524997;0.698039;0.698039;0.611765;44975.000000;1.000000;1.000000;1.000000;1.000000;-0.085061;0.085061;-0.085061;1.000000
445644.00320251;5696577.25179871;470.90584995;0.239216;0.172549;0.117647;12079.000000;1.000000;1.000000;1.000000;1.000000;0.121069;-0.121069;0.121069;1.000000
445644.49839981;5696577.19589909;470.79705002;0.470588;0.466667;0.431373;30326.000000;1.000000;1.000000;1.000000;1.000000;-0.040500;0.040500;-0.040500;1.000000
445644.40150269;5696577.07359894;470.82614996;0.396078;0.443137;0.388235;27499.000000;1.000000;1.000000;1.000000;1.000000;-0.100374;0.100374;-0.100374;1.000000
445644.44020279;5696577.03729923;470.82515003;0.34902;0.4;0.301961;24415.000000;1.000000;1.000000;1.000000;1.000000;-0.061674;0.061674;-0.061674;1.000000
445644.44360168;5696576.99959953;470.82725002;0.411765;0.478431;0.352941;29041.000000;1.000000;1.000000;1.000000;1.000000;-0.058275;0.058275;-0.058275;1.000000
445644.33220108;5696576.95629890;470.82394983;0.6;0.643137;0.47451;39835.000000;1.000000;1.000000;1.000000;1.000000;-0.147364;0.147364;-0.147364;1.000000
445644.44490250;5696576.96219929;470.82445004;0.235294;0.313725;0.156863;17733.000000;1.000000;1.000000;1.000000;1.000000;-0.056974;0.056974;-0.056974;1.000000
445644.40649994;5696576.92379959;470.81994988;0.4;0.478431;0.27451;28270.000000;1.000000;1.000000;1.000000;1.000000;-0.093814;0.093814;-0.093814;1.000000
445644.48290070;5696576.92649944;470.78854992;0.54902;0.572549;0.47451;36237.000000;1.000000;1.000000;1.000000;1.000000;-0.018976;0.018976;-0.018976;1.000000
445644.44870193;5696576.88529881;470.78884985;0.65098;0.670588;0.556863;42662.000000;1.000000;1.000000;1.000000;1.000000;-0.053175;0.053175;-0.053175;1.000000
445644.39660080;5696576.95009907;470.83384993;0.533333;0.627451;0.443137;37779.000000;1.000000;1.000000;1.000000;1.000000;-0.105276;0.105276;-0.105276;1.000000
445644.41069992;5696576.84929951;470.77734997;0.380392;0.360784;0.262745;23130.000000;1.000000;1.000000;1.000000;1.000000;-0.019300;0.019300;-0.019300;1.000000
445644.44610031;5696576.85069950;470.77434995;0.556863;0.556863;0.482353;35723.000000;1.000000;1.000000;1.000000;1.000000;-0.020700;0.020700;-0.020700;1.000000
445644.27420242;5696577.16929920;470.84025003;0.686275;0.682353;0.647059;44461.000000;1.000000;1.000000;1.000000;1.000000;-0.160701;0.160701;-0.160701;1.000000
445644.31860168;5696577.03919895;470.83134987;0.619608;0.631373;0.576471;40606.000000;1.000000;1.000000;1.000000;1.000000;-0.183275;0.183275;-0.183275;1.000000
445644.47039993;5696577.02779873;470.81014993;0.360784;0.403922;0.309804;24929.000000;1.000000;1.000000;1.000000;1.000000;-0.031477;0.031477;-0.031477;1.000000
445644.39590271;5696576.96889885;470.83634998;0.262745;0.356863;0.188235;20303.000000;1.000000;1.000000;1.000000;1.000000;-0.105974;0.105974;-0.105974;1.000000
445644.43400009;5696576.73769959;470.75615003;0.411765;0.4;0.388235;26214.000000;1.000000;1.000000;1.000000;1.000000;-0.092300;0.092300;-0.092300;1.000000
445644.28550156;5696576.94689949;470.80314996;0.45098;0.447059;0.337255;28527.000000;1.000000;1.000000;1.000000;1.000000;-0.169418;0.169418;-0.169418;1.000000
445644.30500229;5696576.93109901;470.80384995;0.654902;0.678431;0.545098;42919.000000;1.000000;1.000000;1.000000;1.000000;-0.144415;0.144415;-0.144415;1.000000
445644.31110199;5696576.77929886;470.76734998;0.290196;0.278431;0.239216;17990.000000;1.000000;1.000000;1.000000;1.000000;0.109473;-0.109473;0.109473;1.000000
445644.46389969;5696576.71139915;470.76414992;0.686275;0.670588;0.65098;43947.000000;1.000000;1.000000;1.000000;1.000000;-0.118601;0.118601;-0.118601;1.000000
445644.25750168;5696576.94499882;470.79714992;0.560784;0.556863;0.490196;35980.000000;1.000000;1.000000;1.000000;1.000000;-0.189506;0.189506;-0.189506;1.000000
445644.44860275;5696576.85059937;470.76974990;0.498039;0.498039;0.411765;31868.000000;1.000000;1.000000;1.000000;1.000000;-0.020599;0.020599;-0.020599;1.000000
445644.33040054;5696576.76109894;470.76804997;0.462745;0.454902;0.427451;29555.000000;1.000000;1.000000;1.000000;1.000000;0.103869;-0.103869;0.103869;1.000000
445644.29810150;5696576.89929874;470.78684999;0.423529;0.423529;0.337255;26985.000000;1.000000;1.000000;1.000000;1.000000;-0.130030;0.130030;-0.130030;1.000000
445644.33440216;5696576.86319931;470.78804996;0.666667;0.670588;0.584314;43176.000000;1.000000;1.000000;1.000000;1.000000;-0.080855;0.080855;-0.080855;1.000000
445644.23660095;5696577.22389896;470.85544993;0.478431;0.470588;0.427451;30583.000000;1.000000;1.000000;1.000000;1.000000;-0.106101;0.106101;-0.106101;1.000000
445644.33530243;5696576.87469872;470.79285004;0.643137;0.662745;0.556863;42148.000000;1.000000;1.000000;1.000000;1.000000;-0.085448;0.085448;-0.085448;1.000000
445644.27309998;5696577.18789871;470.85204985;0.584314;0.580392;0.541176;37779.000000;1.000000;1.000000;1.000000;1.000000;-0.142102;0.142102;-0.142102;1.000000
445644.31590088;5696577.10499866;470.82034995;0.658824;0.654902;0.631373;42662.000000;1.000000;1.000000;1.000000;1.000000;-0.185976;0.185976;-0.185976;1.000000
445644.43510254;5696576.70019920;470.75804998;0.0901961;0.0705882;0.0705882;4883.000000;1.000000;1.000000;1.000000;1.000000;-0.129801;0.129801;-0.129801;1.000000
445644.41629990;5696577.14729889;470.80674984;0.384314;0.403922;0.360784;25700.000000;1.000000;1.000000;1.000000;1.000000;-0.085577;0.085577;-0.085577;1.000000
445644.02280243;5696577.24279888;470.91824986;0.32549;0.278431;0.227451;18761.000000;1.000000;1.000000;1.000000;1.000000;0.113611;-0.113611;0.113611;1.000000
445644.45850189;5696577.07329948;470.80544998;0.545098;0.572549;0.529412;36494.000000;1.000000;1.000000;1.000000;1.000000;-0.043375;0.043375;-0.043375;1.000000
445644.36040314;5696576.93039902;470.81795003;0.447059;0.533333;0.317647;31611.000000;1.000000;1.000000;1.000000;1.000000;-0.111164;0.111164;-0.111164;1.000000
445644.18080338;5696577.20109947;470.85264995;0.564706;0.556863;0.501961;36237.000000;1.000000;1.000000;1.000000;1.000000;-0.128901;0.128901;-0.128901;1.000000
445644.32190140;5696576.90859898;470.79734995;0.309804;0.341176;0.192157;20560.000000;1.000000;1.000000;1.000000;1.000000;-0.116673;0.116673;-0.116673;1.000000
445644.32000168;5696577.20939930;470.84044983;0.631373;0.623529;0.588235;40606.000000;1.000000;1.000000;1.000000;1.000000;0.120601;-0.120601;0.120601;1.000000
445644.32349976;5696576.93159874;470.80935003;0.447059;0.501961;0.32549;30326.000000;1.000000;1.000000;1.000000;1.000000;-0.132227;0.132227;-0.132227;1.000000
445644.25040253;5696576.88969906;470.78684999;0.8;0.788235;0.741176;51400.000000;1.000000;1.000000;1.000000;1.000000;-0.168644;0.168644;-0.168644;1.000000
445644.32370193;5696576.87359913;470.78764989;0.580392;0.572549;0.478431;36751.000000;1.000000;1.000000;1.000000;1.000000;-0.095018;0.095018;-0.095018;1.000000
445644.21940048;5696577.16709908;470.85864999;0.682353;0.678431;0.639216;44204.000000;1.000000;1.000000;1.000000;1.000000;-0.162901;0.162901;-0.162901;1.000000
445644.36520203;5696576.81149872;470.77484991;0.607843;0.603922;0.568627;39321.000000;1.000000;1.000000;1.000000;1.000000;0.046742;-0.046742;0.046742;1.000000
445644.36340149;5696577.08889874;470.82235004;0.0941176;0.109804;0.0862745;6682.000000;1.000000;1.000000;1.000000;1.000000;-0.138475;0.138475;-0.138475;1.000000
445644.39970215;5696576.85959919;470.78394987;0.376471;0.368627;0.266667;23387.000000;1.000000;1.000000;1.000000;1.000000;-0.030775;0.030775;-0.030775;1.000000
445644.36420258;5696576.85579880;470.78694989;0.643137;0.639216;0.564706;41377.000000;1.000000;1.000000;1.000000;1.000000;-0.050940;0.050940;-0.050940;1.000000
445644.38250168;5696576.84949883;470.78304984;0.615686;0.596078;0.517647;38807.000000;1.000000;1.000000;1.000000;1.000000;-0.032200;0.032200;-0.032200;1.000000
445644.30040176;5696577.23429878;470.86084988;0.717647;0.713725;0.682353;46517.000000;1.000000;1.000000;1.000000;1.000000;-0.095701;0.095701;-0.095701;1.000000
445644.15400131;5696577.19179924;470.85835006;0.784314;0.780392;0.729412;50629.000000;1.000000;1.000000;1.000000;1.000000;-0.138201;0.138201;-0.138201;1.000000
445644.07650192;5696577.22659882;470.88555004;0.403922;0.360784;0.317647;24158.000000;1.000000;1.000000;1.000000;1.000000;0.105155;-0.105155;0.105155;1.000000
445644.41990097;5696577.09079941;470.81554987;0.282353;0.313725;0.270588;19532.000000;1.000000;1.000000;1.000000;1.000000;-0.081976;0.081976;-0.081976;1.000000
445644.46130188;5696576.98179920;470.81384995;0.196078;0.258824;0.129412;14649.000000;1.000000;1.000000;1.000000;1.000000;-0.040575;0.040575;-0.040575;1.000000
445644.26939972;5696576.89039906;470.78314998;0.647059;0.631373;0.576471;41120.000000;1.000000;1.000000;1.000000;1.000000;-0.151305;0.151305;-0.151305;1.000000
445644.30669983;5696576.89149960;470.78714993;0.219608;0.215686;0.121569;13364.000000;1.000000;1.000000;1.000000;1.000000;-0.118616;0.118616;-0.118616;1.000000
445644.46740158;5696576.85119923;470.76825001;0.796078;0.803922;0.752941;51914.000000;1.000000;1.000000;1.000000;1.000000;0.021199;-0.021199;0.021199;1.000000
445644.46980103;5696576.77619942;470.76755001;0.658824;0.643137;0.631373;42148.000000;1.000000;1.000000;1.000000;1.000000;-0.053801;0.053801;-0.053801;1.000000
445644.34900101;5696577.01309879;470.82774999;0.278431;0.333333;0.227451;19789.000000;1.000000;1.000000;1.000000;1.000000;-0.152876;0.152876;-0.152876;1.000000
445644.45750244;5696577.01949890;470.82104995;0.321569;0.376471;0.258824;22616.000000;1.000000;1.000000;1.000000;1.000000;-0.044374;0.044374;-0.044374;1.000000
445644.35180099;5696576.94049938;470.82235004;0.403922;0.498039;0.290196;29041.000000;1.000000;1.000000;1.000000;1.000000;-0.124027;0.124027;-0.124027;1.000000
445644.49990280;5696576.98329933;470.78994991;0.247059;0.262745;0.164706;16191.000000;1.000000;1.000000;1.000000;1.000000;-0.001974;0.001974;-0.001974;1.000000
445644.49900253;5696576.94609936;470.78484990;0.752941;0.764706;0.678431;49087.000000;1.000000;1.000000;1.000000;1.000000;-0.002874;0.002874;-0.002874;1.000000
445644.46450241;5696576.90489872;470.78974988;0.529412;0.54902;0.439216;34695.000000;1.000000;1.000000;1.000000;1.000000;-0.037374;0.037374;-0.037374;1.000000
445644.39090164;5696576.86729916;470.78834989;0.447059;0.45098;0.341176;28527.000000;1.000000;1.000000;1.000000;1.000000;-0.041085;0.041085;-0.041085;1.000000
445644.48780258;5696576.98199947;470.79635002;0.231373;0.258824;0.152941;15420.000000;1.000000;1.000000;1.000000;1.000000;-0.014074;0.014074;-0.014074;1.000000
445644.42860229;5696576.86849888;470.78534986;0.780392;0.796078;0.686275;50886.000000;1.000000;1.000000;1.000000;1.000000;0.038499;-0.038499;0.038499;1.000000
445644.37190063;5696577.08109959;470.82495000;0.164706;0.188235;0.152941;11565.000000;1.000000;1.000000;1.000000;1.000000;-0.129976;0.129976;-0.129976;1.000000
445644.43350037;5696576.75649937;470.75394990;0.572549;0.564706;0.54902;37008.000000;1.000000;1.000000;1.000000;1.000000;-0.073501;0.073501;-0.073501;1.000000
445644.35590179;5696577.06149872;470.82634999;0.376471;0.396078;0.356863;25186.000000;1.000000;1.000000;1.000000;1.000000;-0.145975;0.145975;-0.145975;1.000000
445644.21840103;5696577.20459946;470.85445001;0.301961;0.298039;0.25098;19018.000000;1.000000;1.000000;1.000000;1.000000;-0.125401;0.125401;-0.125401;1.000000
445644.39579971;5696577.18179901;470.81324985;0.533333;0.537255;0.505882;34695.000000;1.000000;1.000000;1.000000;1.000000;-0.109200;0.109200;-0.109200;1.000000
445644.36310013;5696577.10769947;470.81554987;0.133333;0.141176;0.117647;8738.000000;1.000000;1.000000;1.000000;1.000000;-0.138777;0.138777;-0.138777;1.000000
445644.06860168;5696577.21799953;470.88734986;0.462745;0.415686;0.372549;27756.000000;1.000000;1.000000;1.000000;1.000000;0.115215;-0.115215;0.115215;1.000000
445644.43940170;5696576.82129868;470.75734999;0.466667;0.447059;0.392157;29041.000000;1.000000;1.000000;1.000000;1.000000;0.008701;-0.008701;0.008701;1.000000
445644.36990173;5696577.15389927;470.81174995;0.494118;0.494118;0.454902;31868.000000;1.000000;1.000000;1.000000;1.000000;-0.131975;0.131975;-0.131975;1.000000
445644.34180267;5696576.92979916;470.81474998;0.290196;0.364706;0.164706;20817.000000;1.000000;1.000000;1.000000;1.000000;-0.119828;0.119828;-0.119828;1.000000
445644.36639984;5696577.02319916;470.82634999;0.596078;0.65098;0.54902;40606.000000;1.000000;1.000000;1.000000;1.000000;-0.135477;0.135477;-0.135477;1.000000
445644.30310257;5696577.20619877;470.84664990;0.619608;0.611765;0.580392;39835.000000;1.000000;1.000000;1.000000;1.000000;-0.123801;0.123801;-0.123801;1.000000
445644.48600204;5696577.21569927;470.80145003;0.545098;0.537255;0.505882;34952.000000;1.000000;1.000000;1.000000;1.000000;-0.062121;0.062121;-0.062121;1.000000
445644.45560272;5696576.97299870;470.81815006;0.180392;0.25098;0.105882;13878.000000;1.000000;1.000000;1.000000;1.000000;-0.046274;0.046274;-0.046274;1.000000
445644.32980164;5696576.77989872;470.76825001;0.443137;0.439216;0.407843;28527.000000;1.000000;1.000000;1.000000;1.000000;0.092978;-0.092978;0.092978;1.000000
445644.43550308;5696576.93279942;470.81674983;0.568627;0.627451;0.454902;38550.000000;1.000000;1.000000;1.000000;1.000000;-0.066374;0.066374;-0.066374;1.000000
445644.50050171;5696577.16999920;470.79924991;0.568627;0.572549;0.552941;37265.000000;1.000000;1.000000;1.000000;1.000000;-0.014477;0.014477;-0.014477;1.000000
445644.45460327;5696576.68439873;470.75874998;0.27451;0.258824;0.254902;17219.000000;1.000000;1.000000;1.000000;1.000000;-0.145601;0.145601;-0.145601;1.000000
445644.12500198;5696577.18279942;470.85924985;0.721569;0.713725;0.678431;46517.000000;1.000000;1.000000;1.000000;1.000000;-0.147201;0.147201;-0.147201;1.000000
445644.46420105;5696576.87009914;470.77534987;0.772549;0.784314;0.713725;50629.000000;1.000000;1.000000;1.000000;1.000000;-0.037676;0.037676;-0.037676;1.000000
445644.23730286;5696577.18409927;470.85964992;0.560784;0.560784;0.52549;36494.000000;1.000000;1.000000;1.000000;1.000000;-0.145901;0.145901;-0.145901;1.000000
445644.16090210;5696577.21689899;470.85894992;0.545098;0.533333;0.486275;34695.000000;1.000000;1.000000;1.000000;1.000000;0.113101;-0.113101;0.113101;1.000000
445644.27359970;5696577.22269924;470.86174991;0.54902;0.545098;0.509804;35466.000000;1.000000;1.000000;1.000000;1.000000;-0.107301;0.107301;-0.107301;1.000000
445644.32060059;5696576.78069885;470.76784994;0.305882;0.298039;0.262745;19275.000000;1.000000;1.000000;1.000000;1.000000;0.100456;-0.100456;0.100456;1.000000
445644.36860092;5696576.74359901;470.76724984;0.435294;0.435294;0.423529;28270.000000;1.000000;1.000000;1.000000;1.000000;0.095013;-0.095013;0.095013;1.000000
445644.29269989;5696576.98329933;470.82254984;0.768627;0.733333;0.643137;48059.000000;1.000000;1.000000;1.000000;1.000000;-0.191896;0.191896;-0.191896;1.000000
445644.50620087;5696577.17889889;470.79495003;0.435294;0.439216;0.419608;28527.000000;1.000000;1.000000;1.000000;1.000000;0.023791;-0.023791;0.023791;1.000000
445644.29240234;5696577.18859871;470.84124996;0.556863;0.54902;0.517647;35723.000000;1.000000;1.000000;1.000000;1.000000;-0.141401;0.141401;-0.141401;1.000000
445644.42850311;5696576.63519867;470.76864984;0.0470588;0.0470588;0.054902;3084.000000;1.000000;1.000000;1.000000;1.000000;-0.194801;0.194801;-0.194801;1.000000
445644.31310089;5696577.15189941;470.82314994;0.678431;0.670588;0.643137;43690.000000;1.000000;1.000000;1.000000;1.000000;-0.178101;0.178101;-0.178101;1.000000
445644.09729965;5696577.21789940;470.87235000;0.247059;0.207843;0.180392;14135.000000;1.000000;1.000000;1.000000;1.000000;0.112101;-0.112101;0.112101;1.000000
445644.43750198;5696576.89549931;470.79775002;0.662745;0.690196;0.568627;43690.000000;1.000000;1.000000;1.000000;1.000000;-0.064375;0.064375;-0.064375;1.000000
445644.27830322;5696576.94529922;470.80274989;0.572549;0.564706;0.482353;36494.000000;1.000000;1.000000;1.000000;1.000000;-0.173632;0.173632;-0.173632;1.000000
445644.40070160;5696576.87339886;470.79114987;0.509804;0.52549;0.4;33153.000000;1.000000;1.000000;1.000000;1.000000;-0.044029;0.044029;-0.044029;1.000000
445644.39299973;5696577.03459938;470.83005001;0.258824;0.313725;0.223529;18761.000000;1.000000;1.000000;1.000000;1.000000;-0.108877;0.108877;-0.108877;1.000000
445644.48790176;5696577.00999935;470.79904987;0.376471;0.407843;0.309804;25186.000000;1.000000;1.000000;1.000000;1.000000;-0.013975;0.013975;-0.013975;1.000000
445644.42280014;5696577.22129925;470.81495001;0.533333;0.533333;0.498039;34695.000000;1.000000;1.000000;1.000000;1.000000;-0.102609;0.102609;-0.102609;1.000000
445644.48220261;5696576.97319897;470.79834988;0.282353;0.317647;0.203922;19275.000000;1.000000;1.000000;1.000000;1.000000;-0.019674;0.019674;-0.019674;1.000000
445644.24890335;5696576.92709930;470.79425003;0.6;0.596078;0.54902;38550.000000;1.000000;1.000000;1.000000;1.000000;-0.186495;0.186495;-0.186495;1.000000
445644.30560120;5696577.09659870;470.82215001;0.611765;0.615686;0.588235;39835.000000;1.000000;1.000000;1.000000;1.000000;-0.196276;0.196276;-0.196276;1.000000
445644.47290237;5696576.71049889;470.76915004;0.65098;0.635294;0.611765;41634.000000;1.000000;1.000000;1.000000;1.000000;0.119501;-0.119501;0.119501;1.000000
445644.48920258;5696576.97249897;470.79635002;0.286275;0.309804;0.207843;19018.000000;1.000000;1.000000;1.000000;1.000000;-0.012674;0.012674;-0.012674;1.000000
445644.40300186;5696576.78259953;470.75755002;0.576471;0.572549;0.54902;37265.000000;1.000000;1.000000;1.000000;1.000000;0.047677;-0.047677;0.047677;1.000000
445644.38920029;5696576.94389923;470.83104994;0.509804;0.611765;0.411765;36494.000000;1.000000;1.000000;1.000000;1.000000;-0.112677;0.112677;-0.112677;1.000000
445644.38640030;5696576.78169926;470.76144983;0.552941;0.552941;0.533333;35980.000000;1.000000;1.000000;1.000000;1.000000;0.052962;-0.052962;0.052962;1.000000
445644.39389999;5696577.04389961;470.83014991;0.329412;0.392157;0.305882;23644.000000;1.000000;1.000000;1.000000;1.000000;-0.107977;0.107977;-0.107977;1.000000
445644.39500244;5696577.00639923;470.83204987;0.227451;0.301961;0.196078;17476.000000;1.000000;1.000000;1.000000;1.000000;-0.106874;0.106874;-0.106874;1.000000
445644.41180237;5696576.80279930;470.76055004;0.752941;0.737255;0.701961;48316.000000;1.000000;1.000000;1.000000;1.000000;0.027201;-0.027201;0.027201;1.000000
445644.45160110;5696576.72899921;470.76144983;0.32549;0.305882;0.282353;20046.000000;1.000000;1.000000;1.000000;1.000000;-0.101001;0.101001;-0.101001;1.000000
445644.33930023;5696576.98589905;470.83165004;0.180392;0.227451;0.109804;13107.000000;1.000000;1.000000;1.000000;1.000000;-0.162577;0.162577;-0.162577;1.000000
445644.41410263;5696576.98819931;470.83734991;0.247059;0.32549;0.196078;18761.000000;1.000000;1.000000;1.000000;1.000000;-0.087774;0.087774;-0.087774;1.000000
445644.37800034;5696576.94959934;470.83064987;0.403922;0.498039;0.298039;29298.000000;1.000000;1.000000;1.000000;1.000000;-0.123335;0.123335;-0.123335;1.000000
445644.41540344;5696576.95069893;470.83465006;0.533333;0.607843;0.435294;37008.000000;1.000000;1.000000;1.000000;1.000000;-0.086473;0.086473;-0.086473;1.000000
445644.48760040;5696576.95399960;470.79374983;0.6;0.619608;0.521569;39321.000000;1.000000;1.000000;1.000000;1.000000;-0.014277;0.014277;-0.014277;1.000000
445644.38000305;5696576.87759884;470.79265000;0.407843;0.431373;0.313725;26728.000000;1.000000;1.000000;1.000000;1.000000;-0.055287;0.055287;-0.055287;1.000000
445644.42210205;5696576.78549870;470.75615003;0.67451;0.666667;0.639216;43433.000000;1.000000;1.000000;1.000000;1.000000;-0.044501;0.044501;-0.044501;1.000000
445644.45940216;5696576.78669937;470.76014997;0.698039;0.694118;0.67451;45232.000000;1.000000;1.000000;1.000000;1.000000;-0.043301;0.043301;-0.043301;1.000000
445644.46070297;5696576.91909893;470.79904987;0.462745;0.498039;0.380392;30840.000000;1.000000;1.000000;1.000000;1.000000;-0.041174;0.041174;-0.041174;1.000000
445644.28090103;5696576.83339890;470.77134993;0.490196;0.47451;0.407843;30840.000000;1.000000;1.000000;1.000000;1.000000;-0.127271;0.127271;-0.127271;1.000000
445644.46240051;5696576.69299896;470.75915005;0.670588;0.658824;0.643137;43176.000000;1.000000;1.000000;1.000000;1.000000;-0.137001;0.137001;-0.137001;1.000000
445644.31440170;5696577.11449917;470.82044985;0.615686;0.607843;0.584314;39578.000000;1.000000;1.000000;1.000000;1.000000;-0.187475;0.187475;-0.187475;1.000000
445644.32860001;5696577.02189930;470.83154990;0.435294;0.462745;0.380392;29041.000000;1.000000;1.000000;1.000000;1.000000;-0.173277;0.173277;-0.173277;1.000000
445644.51610001;5696577.20829876;470.79335000;0.686275;0.678431;0.65098;44204.000000;1.000000;1.000000;1.000000;1.000000;0.054703;-0.054703;0.054703;1.000000
445644.45140274;5696576.98029907;470.82264997;0.235294;0.309804;0.180392;17733.000000;1.000000;1.000000;1.000000;1.000000;-0.050474;0.050474;-0.050474;1.000000
445644.43200119;5696576.76589878;470.75405004;0.541176;0.533333;0.517647;34952.000000;1.000000;1.000000;1.000000;1.000000;-0.064101;0.064101;-0.064101;1.000000
445644.01230057;5696577.25089939;470.90855004;0.227451;0.172549;0.129412;11822.000000;1.000000;1.000000;1.000000;1.000000;0.114892;-0.114892;0.114892;1.000000
445644.32290085;5696576.95719917;470.82355000;0.572549;0.6;0.439216;37522.000000;1.000000;1.000000;1.000000;1.000000;-0.153111;0.153111;-0.153111;1.000000
445644.39710052;5696576.92459877;470.82184984;0.298039;0.388235;0.176471;22102.000000;1.000000;1.000000;1.000000;1.000000;-0.095239;0.095239;-0.095239;1.000000
445644.47550018;5696576.92249878;470.79044988;0.509804;0.529412;0.427451;33410.000000;1.000000;1.000000;1.000000;1.000000;-0.026377;0.026377;-0.026377;1.000000
445644.29820068;5696576.87139900;470.77954986;0.290196;0.278431;0.203922;17733.000000;1.000000;1.000000;1.000000;1.000000;-0.117463;0.117463;-0.117463;1.000000
445644.33690079;5696576.83509930;470.77854993;0.709804;0.709804;0.639216;46003.000000;1.000000;1.000000;1.000000;1.000000;-0.071408;0.071408;-0.071408;1.000000
445644.30440338;5696577.13409908;470.82254984;0.733333;0.729412;0.698039;47545.000000;1.000000;1.000000;1.000000;1.000000;-0.195901;0.195901;-0.195901;1.000000
445644.13360031;5696577.20069893;470.86214997;0.545098;0.533333;0.498039;34695.000000;1.000000;1.000000;1.000000;1.000000;-0.129301;0.129301;-0.129301;1.000000
445644.39760025;5696577.17469891;470.81095006;0.572549;0.576471;0.541176;37265.000000;1.000000;1.000000;1.000000;1.000000;-0.105971;0.105971;-0.105971;1.000000
445644.36230286;5696577.10079868;470.81775000;0.109804;0.121569;0.101961;7453.000000;1.000000;1.000000;1.000000;1.000000;-0.139574;0.139574;-0.139574;1.000000
445644.30290039;5696577.17149933;470.82984998;0.643137;0.643137;0.607843;41891.000000;1.000000;1.000000;1.000000;1.000000;-0.158501;0.158501;-0.158501;1.000000
445644.48940094;5696577.00049885;470.79904987;0.301961;0.337255;0.227451;20560.000000;1.000000;1.000000;1.000000;1.000000;-0.012476;0.012476;-0.012476;1.000000
445644.00210007;5696577.25829895;470.94315006;0.286275;0.2;0.0862745;13878.000000;1.000000;1.000000;1.000000;1.000000;0.117849;-0.117849;0.117849;1.000000
445644.40460022;5696576.98669918;470.83694984;0.176471;0.254902;0.133333;14135.000000;1.000000;1.000000;1.000000;1.000000;-0.097277;0.097277;-0.097277;1.000000
445644.41810043;5696576.92269905;470.81815006;0.537255;0.603922;0.411765;36751.000000;1.000000;1.000000;1.000000;1.000000;-0.083776;0.083776;-0.083776;1.000000
445644.40419968;5696576.74509914;470.75714995;0.435294;0.431373;0.419608;28013.000000;1.000000;1.000000;1.000000;1.000000;0.084992;-0.084992;0.084992;1.000000
445644.30930145;5696577.04009922;470.83095004;0.564706;0.572549;0.517647;36751.000000;1.000000;1.000000;1.000000;1.000000;-0.192575;0.192575;-0.192575;1.000000
445644.14529999;5696577.14379890;470.84574987;0.552941;0.556863;0.521569;35980.000000;1.000000;1.000000;1.000000;1.000000;-0.186201;0.186201;-0.186201;1.000000
445644.26600082;5696576.96509941;470.80484988;0.588235;0.568627;0.490196;37008.000000;1.000000;1.000000;1.000000;1.000000;-0.196091;0.196091;-0.196091;1.000000
445644.30180176;5696576.80579956;470.76954987;0.592157;0.576471;0.521569;37522.000000;1.000000;1.000000;1.000000;1.000000;0.109044;-0.109044;0.109044;1.000000
445644.32780273;5696577.05949886;470.82504990;0.4;0.411765;0.372549;26471.000000;1.000000;1.000000;1.000000;1.000000;-0.174074;0.174074;-0.174074;1.000000
445644.39060028;5696577.08159931;470.82574989;0.501961;0.533333;0.490196;33924.000000;1.000000;1.000000;1.000000;1.000000;-0.111277;0.111277;-0.111277;1.000000
445644.43150146;5696577.04509933;470.82725002;0.290196;0.341176;0.258824;20560.000000;1.000000;1.000000;1.000000;1.000000;-0.070375;0.070375;-0.070375;1.000000
445644.32140167;5696576.96659954;470.82594993;0.352941;0.368627;0.211765;22616.000000;1.000000;1.000000;1.000000;1.000000;-0.161805;0.161805;-0.161805;1.000000
445644.37530334;5696577.04329880;470.82694985;0.705882;0.752941;0.670588;47802.000000;1.000000;1.000000;1.000000;1.000000;-0.126574;0.126574;-0.126574;1.000000
445644.12790115;5696577.13369949;470.84944989;0.552941;0.552941;0.521569;35980.000000;1.000000;1.000000;1.000000;1.000000;-0.196301;0.196301;-0.196301;1.000000
445644.39770325;5696576.93149956;470.82434990;0.341176;0.435294;0.211765;24929.000000;1.000000;1.000000;1.000000;1.000000;-0.102033;0.102033;-0.102033;1.000000
445644.41670044;5696576.93439873;470.82285001;0.533333;0.607843;0.407843;36751.000000;1.000000;1.000000;1.000000;1.000000;-0.085176;0.085176;-0.085176;1.000000
445644.47130020;5696576.89969929;470.78304984;0.619608;0.635294;0.545098;40606.000000;1.000000;1.000000;1.000000;1.000000;-0.030577;0.030577;-0.030577;1.000000
445644.04920013;5696577.24509914;470.90785005;0.352941;0.309804;0.270588;20817.000000;1.000000;1.000000;1.000000;1.000000;0.096766;-0.096766;0.096766;1.000000
445644.08609970;5696577.22579868;470.87894990;0.294118;0.25098;0.219608;16962.000000;1.000000;1.000000;1.000000;1.000000;0.104636;-0.104636;0.104636;1.000000
445644.41020020;5696576.87479885;470.79164984;0.596078;0.611765;0.486275;38807.000000;1.000000;1.000000;1.000000;1.000000;-0.044799;0.044799;-0.044799;1.000000
445644.04820068;5696577.23359879;470.90524985;0.376471;0.333333;0.294118;22359.000000;1.000000;1.000000;1.000000;1.000000;0.107436;-0.107436;0.107436;1.000000
445644.44530304;5696577.01809891;470.82984998;0.470588;0.537255;0.415686;32896.000000;1.000000;1.000000;1.000000;1.000000;-0.056574;0.056574;-0.056574;1.000000
445644.25570114;5696577.20569904;470.86074998;0.588235;0.580392;0.552941;37779.000000;1.000000;1.000000;1.000000;1.000000;0.124301;-0.124301;0.124301;1.000000
445644.33130081;5696577.17129906;470.82184984;0.678431;0.670588;0.635294;43690.000000;1.000000;1.000000;1.000000;1.000000;-0.158701;0.158701;-0.158701;1.000000
445644.26780136;5696576.89979942;470.78545000;0.721569;0.705882;0.65098;46003.000000;1.000000;1.000000;1.000000;1.000000;-0.156727;0.156727;-0.156727;1.000000
445644.34710129;5696577.21879871;470.83014991;0.607843;0.607843;0.568627;39321.000000;1.000000;1.000000;1.000000;1.000000;0.111201;-0.111201;0.111201;1.000000
445644.30529984;5696576.90099915;470.78714993;0.352941;0.360784;0.262745;22616.000000;1.000000;1.000000;1.000000;1.000000;-0.124957;0.124957;-0.124957;1.000000
445644.26060303;5696576.87019928;470.78014996;0.670588;0.65098;0.6;42662.000000;1.000000;1.000000;1.000000;1.000000;-0.152903;0.152903;-0.152903;1.000000
445644.22660263;5696576.83129890;470.78044989;0.552941;0.537255;0.478431;34952.000000;1.000000;1.000000;1.000000;1.000000;-0.181529;0.181529;-0.181529;1.000000
445644.10750015;5696577.25199898;470.87325003;0.360784;0.32549;0.294118;21588.000000;1.000000;1.000000;1.000000;1.000000;0.078001;-0.078001;0.078001;1.000000
445644.23390015;5696576.86089905;470.78344991;0.733333;0.717647;0.67451;46774.000000;1.000000;1.000000;1.000000;1.000000;-0.176946;0.176946;-0.176946;1.000000
445644.31920059;5696576.99479874;470.82854988;0.301961;0.301961;0.207843;19018.000000;1.000000;1.000000;1.000000;1.000000;-0.182676;0.182676;-0.182676;1.000000
445644.10440262;5696577.21729954;470.87034990;0.290196;0.254902;0.235294;17219.000000;1.000000;1.000000;1.000000;1.000000;0.112700;-0.112700;0.112700;1.000000
445644.38879974;5696577.15449913;470.80795004;0.462745;0.466667;0.427451;30069.000000;1.000000;1.000000;1.000000;1.000000;-0.113077;0.113077;-0.113077;1.000000
445644.42420013;5696576.75729950;470.75354983;0.627451;0.619608;0.603922;40606.000000;1.000000;1.000000;1.000000;1.000000;-0.072701;0.072701;-0.072701;1.000000
445644.43880280;5696576.81429871;470.75724985;0.321569;0.305882;0.262745;19789.000000;1.000000;1.000000;1.000000;1.000000;-0.015701;0.015701;-0.015701;1.000000
445644.47610291;5696576.81549938;470.76125004;0.592157;0.588235;0.576471;38293.000000;1.000000;1.000000;1.000000;1.000000;0.014501;-0.014501;0.014501;1.000000
445644.47440155;5696576.85059937;470.76864984;0.788235;0.792157;0.752941;51400.000000;1.000000;1.000000;1.000000;1.000000;-0.020599;0.020599;-0.020599;1.000000
445644.39180191;5696577.07209881;470.83034994;0.529412;0.564706;0.517647;35723.000000;1.000000;1.000000;1.000000;1.000000;-0.110075;0.110075;-0.110075;1.000000
445644.43050201;5696577.03579910;470.83174994;0.431373;0.490196;0.384314;30069.000000;1.000000;1.000000;1.000000;1.000000;-0.071375;0.071375;-0.071375;1.000000
445644.35900314;5696576.99569901;470.83034994;0.152941;0.219608;0.105882;12079.000000;1.000000;1.000000;1.000000;1.000000;-0.142874;0.142874;-0.142874;1.000000
445644.43150146;5696576.99829872;470.83364989;0.45098;0.529412;0.4;32125.000000;1.000000;1.000000;1.000000;1.000000;-0.070375;0.070375;-0.070375;1.000000
445644.36010178;5696576.95819958;470.83224990;0.537255;0.611765;0.427451;37265.000000;1.000000;1.000000;1.000000;1.000000;-0.136900;0.136900;-0.136900;1.000000
445644.43270309;5696576.96079929;470.83325006;0.282353;0.364706;0.203922;21074.000000;1.000000;1.000000;1.000000;1.000000;-0.069174;0.069174;-0.069174;1.000000
445644.47070129;5696576.92519959;470.79725005;0.494118;0.521569;0.411765;32639.000000;1.000000;1.000000;1.000000;1.000000;-0.031176;0.031176;-0.031176;1.000000
445644.43700226;5696576.88859947;470.79534986;0.635294;0.654902;0.541176;41634.000000;1.000000;1.000000;1.000000;1.000000;0.058599;-0.058599;0.058599;1.000000
445644.40450104;5696576.77309902;470.75755002;0.486275;0.482353;0.470588;31354.000000;1.000000;1.000000;1.000000;1.000000;0.057016;-0.057016;0.057016;1.000000
445644.40570267;5696576.73559959;470.75714995;0.435294;0.427451;0.415686;28013.000000;1.000000;1.000000;1.000000;1.000000;0.094432;-0.094432;0.094432;1.000000
445644.24730118;5696576.93429955;470.79425003;0.564706;0.560784;0.505882;36237.000000;1.000000;1.000000;1.000000;1.000000;-0.191685;0.191685;-0.191685;1.000000
445644.44340332;5696576.73919876;470.75654985;0.223529;0.207843;0.192157;13621.000000;1.000000;1.000000;1.000000;1.000000;0.090801;-0.090801;0.090801;1.000000
445644.28890045;5696576.87229927;470.77915003;0.34902;0.337255;0.262745;21588.000000;1.000000;1.000000;1.000000;1.000000;-0.126508;0.126508;-0.126508;1.000000
445644.32760056;5696576.83599957;470.77814986;0.698039;0.694118;0.623529;44975.000000;1.000000;1.000000;1.000000;1.000000;-0.080750;0.080750;-0.080750;1.000000
445644.32960327;5696577.20859917;470.83384993;0.611765;0.607843;0.572549;39578.000000;1.000000;1.000000;1.000000;1.000000;-0.121401;0.121401;-0.121401;1.000000
445644.29340179;5696577.16999920;470.83174994;0.686275;0.686275;0.65098;44718.000000;1.000000;1.000000;1.000000;1.000000;-0.160001;0.160001;-0.160001;1.000000
445644.51560028;5696577.17799957;470.79294993;0.384314;0.384314;0.364706;24929.000000;1.000000;1.000000;1.000000;1.000000;0.026386;-0.026386;0.026386;1.000000
445644.33820160;5696577.02339943;470.82974984;0.352941;0.4;0.309804;24415.000000;1.000000;1.000000;1.000000;1.000000;-0.163675;0.163675;-0.163675;1.000000
445644.26670273;5696576.94409950;470.79754998;0.686275;0.686275;0.611765;44204.000000;1.000000;1.000000;1.000000;1.000000;-0.181713;0.181713;-0.181713;1.000000
445644.41970261;5696576.87859924;470.79445006;0.686275;0.713725;0.588235;45232.000000;1.000000;1.000000;1.000000;1.000000;0.048599;-0.048599;0.048599;1.000000
445644.45870026;5696576.80309875;470.75804998;0.494118;0.494118;0.470588;32125.000000;1.000000;1.000000;1.000000;1.000000;-0.026901;0.026901;-0.026901;1.000000
445644.38220032;5696577.04269894;470.82725002;0.607843;0.658824;0.576471;41377.000000;1.000000;1.000000;1.000000;1.000000;-0.119677;0.119677;-0.119677;1.000000
445644.49139984;5696577.12179955;470.79824998;0.572549;0.584314;0.560784;37779.000000;1.000000;1.000000;1.000000;1.000000;-0.010477;0.010477;-0.010477;1.000000
445644.36660202;5696576.77179916;470.76514985;0.631373;0.635294;0.619608;41377.000000;1.000000;1.000000;1.000000;1.000000;0.071496;-0.071496;0.071496;1.000000
445644.49260147;5696577.08429916;470.79784991;0.662745;0.67451;0.647059;43690.000000;1.000000;1.000000;1.000000;1.000000;-0.009275;0.009275;-0.009275;1.000000
445644.49600037;5696577.04659946;470.79985001;0.898039;0.917647;0.87451;59367.000000;1.000000;1.000000;1.000000;1.000000;-0.005877;0.005877;-0.005877;1.000000
445644.46660049;5696576.84189899;470.76814987;0.690196;0.690196;0.65098;44718.000000;1.000000;1.000000;1.000000;1.000000;0.011899;-0.011899;0.011899;1.000000
445644.49750336;5696577.01149948;470.79714992;0.439216;0.466667;0.380392;29298.000000;1.000000;1.000000;1.000000;1.000000;-0.004374;0.004374;-0.004374;1.000000
445644.34810074;5696577.00379951;470.82994987;0.215686;0.278431;0.164706;16191.000000;1.000000;1.000000;1.000000;1.000000;-0.153776;0.153776;-0.153776;1.000000
445644.42280014;5696577.00609882;470.83564999;0.631373;0.701961;0.588235;43690.000000;1.000000;1.000000;1.000000;1.000000;-0.079077;0.079077;-0.079077;1.000000
445644.43589981;5696576.70949944;470.75814988;0.121569;0.105882;0.0980392;6939.000000;1.000000;1.000000;1.000000;1.000000;-0.120501;0.120501;-0.120501;1.000000
445644.34940155;5696576.96859940;470.83194997;0.560784;0.631373;0.470588;38807.000000;1.000000;1.000000;1.000000;1.000000;-0.150527;0.150527;-0.150527;1.000000
445644.42420013;5696576.97089870;470.83535006;0.180392;0.27451;0.12549;14906.000000;1.000000;1.000000;1.000000;1.000000;-0.077677;0.077677;-0.077677;1.000000
445644.49660309;5696576.97429951;470.79204990;0.333333;0.345098;0.25098;21588.000000;1.000000;1.000000;1.000000;1.000000;-0.005274;0.005274;-0.005274;1.000000
445644.46160324;5696576.90039928;470.79195001;0.705882;0.721569;0.623529;46260.000000;1.000000;1.000000;1.000000;1.000000;-0.040274;0.040274;-0.040274;1.000000
445644.46730240;5696576.82099922;470.76094987;0.596078;0.584314;0.560784;38293.000000;1.000000;1.000000;1.000000;1.000000;-0.009001;0.009001;-0.009001;1.000000
445644.39719971;5696576.74569901;470.75924994;0.431373;0.427451;0.411765;27756.000000;1.000000;1.000000;1.000000;1.000000;0.085006;-0.085006;0.085006;1.000000
445644.43250092;5696576.74719913;470.75615003;0.521569;0.513725;0.498039;33667.000000;1.000000;1.000000;1.000000;1.000000;-0.082801;0.082801;-0.082801;1.000000
445644.43720062;5696576.67429932;470.76014997;0.0705882;0.0588235;0.0588235;3855.000000;1.000000;1.000000;1.000000;1.000000;-0.155701;0.155701;-0.155701;1.000000
445644.41420181;5696577.17549904;470.80705001;0.552941;0.564706;0.52549;36494.000000;1.000000;1.000000;1.000000;1.000000;-0.089873;0.089873;-0.089873;1.000000
445644.21700104;5696577.21409901;470.85445001;0.32549;0.317647;0.270588;20560.000000;1.000000;1.000000;1.000000;1.000000;-0.115901;0.115901;-0.115901;1.000000
445644.26300247;5696577.23309906;470.85905005;0.4;0.392157;0.356863;25443.000000;1.000000;1.000000;1.000000;1.000000;0.096901;-0.096901;0.096901;1.000000
445644.30809982;5696577.04959877;470.82634999;0.482353;0.490196;0.439216;31354.000000;1.000000;1.000000;1.000000;1.000000;-0.193777;0.193777;-0.193777;1.000000
445644.37570007;5696577.02229889;470.82445004;0.615686;0.678431;0.572549;42405.000000;1.000000;1.000000;1.000000;1.000000;-0.126177;0.126177;-0.126177;1.000000
445644.40380295;5696576.79179867;470.76004984;0.694118;0.686275;0.658824;44718.000000;1.000000;1.000000;1.000000;1.000000;0.038445;-0.038445;0.038445;1.000000
445644.02610214;5696577.25179871;470.91614987;0.219608;0.172549;0.12549;11822.000000;1.000000;1.000000;1.000000;1.000000;0.104638;-0.104638;0.104638;1.000000
445644.35300262;5696577.12499912;470.81524994;0.243137;0.247059;0.223529;15934.000000;1.000000;1.000000;1.000000;1.000000;-0.148874;0.148874;-0.148874;1.000000
445644.46710022;5696577.01869877;470.81215002;0.32549;0.380392;0.27451;22873.000000;1.000000;1.000000;1.000000;1.000000;-0.034777;0.034777;-0.034777;1.000000
445644.38570221;5696577.17339905;470.81264998;0.545098;0.545098;0.505882;35209.000000;1.000000;1.000000;1.000000;1.000000;-0.117492;0.117492;-0.117492;1.000000
445644.35290344;5696577.09929951;470.81734993;0.188235;0.196078;0.176471;12336.000000;1.000000;1.000000;1.000000;1.000000;-0.148973;0.148973;-0.148973;1.000000
445644.39040192;5696577.10049923;470.81664993;0.478431;0.505882;0.470588;32125.000000;1.000000;1.000000;1.000000;1.000000;-0.111475;0.111475;-0.111475;1.000000
445644.42790039;5696577.09939869;470.81134989;0.34902;0.380392;0.337255;23901.000000;1.000000;1.000000;1.000000;1.000000;-0.073977;0.073977;-0.073977;1.000000
445644.40640076;5696576.71919926;470.75934984;0.541176;0.533333;0.521569;34952.000000;1.000000;1.000000;1.000000;1.000000;0.110814;-0.110814;0.110814;1.000000
445644.30290039;5696576.99399956;470.82544996;0.72549;0.694118;0.603922;45232.000000;1.000000;1.000000;1.000000;1.000000;-0.194855;0.194855;-0.194855;1.000000
445644.25830276;5696576.92629917;470.79234983;0.717647;0.713725;0.666667;46260.000000;1.000000;1.000000;1.000000;1.000000;-0.178103;0.178103;-0.178103;1.000000
445644.22190292;5696576.88759907;470.79254987;0.6;0.588235;0.541176;38293.000000;1.000000;1.000000;1.000000;1.000000;-0.194928;0.194928;-0.194928;1.000000
445644.45720108;5696576.99149902;470.82075002;0.32549;0.403922;0.266667;23901.000000;1.000000;1.000000;1.000000;1.000000;-0.044676;0.044676;-0.044676;1.000000
445644.46040161;5696577.19459923;470.80705001;0.698039;0.698039;0.670588;45489.000000;1.000000;1.000000;1.000000;1.000000;-0.056829;0.056829;-0.056829;1.000000
445644.28800018;5696576.86299904;470.77895000;0.403922;0.396078;0.32549;25443.000000;1.000000;1.000000;1.000000;1.000000;-0.124577;0.124577;-0.124577;1.000000
445644.32680328;5696576.82669933;470.77794983;0.694118;0.690196;0.619608;44718.000000;1.000000;1.000000;1.000000;1.000000;0.081391;-0.081391;0.081391;1.000000
445644.45010193;5696576.78519924;470.75744988;0.505882;0.498039;0.478431;32639.000000;1.000000;1.000000;1.000000;1.000000;0.044801;-0.044801;0.044801;1.000000
445644.39240082;5696577.05339916;470.83014991;0.380392;0.435294;0.364706;26728.000000;1.000000;1.000000;1.000000;1.000000;-0.109476;0.109476;-0.109476;1.000000
445644.45610245;5696576.67489918;470.75864985;0.192157;0.184314;0.184314;12079.000000;1.000000;1.000000;1.000000;1.000000;-0.155101;0.155101;-0.155101;1.000000
445644.45150192;5696577.00829895;470.82534983;0.356863;0.427451;0.301961;25700.000000;1.000000;1.000000;1.000000;1.000000;-0.050375;0.050375;-0.050375;1.000000
445644.25580032;5696577.23139961;470.85874989;0.396078;0.392157;0.34902;25443.000000;1.000000;1.000000;1.000000;1.000000;0.098600;-0.098600;0.098600;1.000000
445644.42640121;5696577.15569885;470.80734994;0.407843;0.427451;0.388235;27242.000000;1.000000;1.000000;1.000000;1.000000;-0.075476;0.075476;-0.075476;1.000000
445644.46190079;5696577.15949924;470.80434992;0.764706;0.780392;0.752941;50629.000000;1.000000;1.000000;1.000000;1.000000;-0.040157;0.040157;-0.040157;1.000000
445644.42780121;5696577.12049873;470.80694987;0.513725;0.541176;0.501961;34438.000000;1.000000;1.000000;1.000000;1.000000;-0.074076;0.074076;-0.074076;1.000000
445644.32590302;5696577.08769901;470.82064988;0.666667;0.666667;0.647059;43433.000000;1.000000;1.000000;1.000000;1.000000;-0.175974;0.175974;-0.175974;1.000000
445644.27530106;5696577.21559914;470.86174991;0.666667;0.658824;0.627451;42919.000000;1.000000;1.000000;1.000000;1.000000;-0.114401;0.114401;-0.114401;1.000000
445644.31470306;5696577.14249905;470.82075002;0.666667;0.662745;0.635294;43176.000000;1.000000;1.000000;1.000000;1.000000;-0.187174;0.187174;-0.187174;1.000000
445644.30200012;5696577.01039894;470.82795002;0.309804;0.278431;0.192157;17990.000000;1.000000;1.000000;1.000000;1.000000;-0.199877;0.199877;-0.199877;1.000000
445644.46660049;5696577.08429916;470.80364992;0.87451;0.894118;0.858824;57825.000000;1.000000;1.000000;1.000000;1.000000;-0.035276;0.035276;-0.035276;1.000000
445644.41310318;5696577.02569874;470.83314993;0.254902;0.329412;0.219608;19275.000000;1.000000;1.000000;1.000000;1.000000;-0.088774;0.088774;-0.088774;1.000000
445644.37670334;5696576.98699959;470.83334996;0.0823529;0.156863;0.0509804;7967.000000;1.000000;1.000000;1.000000;1.000000;-0.125174;0.125174;-0.125174;1.000000
445644.01500137;5696577.23869904;470.92715003;0.364706;0.34902;0.282353;22616.000000;1.000000;1.000000;1.000000;1.000000;0.121805;-0.121805;0.121805;1.000000
445644.47650345;5696576.90389927;470.78094985;0.556863;0.576471;0.490196;36751.000000;1.000000;1.000000;1.000000;1.000000;-0.025373;0.025373;-0.025373;1.000000
445644.46990021;5696577.04649933;470.80795004;0.486275;0.529412;0.458824;33153.000000;1.000000;1.000000;1.000000;1.000000;-0.031977;0.031977;-0.031977;1.000000
445644.35640152;5696577.04269894;470.82844998;0.596078;0.639216;0.564706;40349.000000;1.000000;1.000000;1.000000;1.000000;-0.145475;0.145475;-0.145475;1.000000
445644.29880341;5696576.88059910;470.78434994;0.27451;0.27451;0.184314;17219.000000;1.000000;1.000000;1.000000;1.000000;-0.120465;0.120465;-0.120465;1.000000
445644.07700165;5696577.24709900;470.91844990;0.65098;0.596078;0.537255;39578.000000;1.000000;1.000000;1.000000;1.000000;0.084968;-0.084968;0.084968;1.000000
445644.48880203;5696577.01919945;470.79924991;0.498039;0.533333;0.443137;33410.000000;1.000000;1.000000;1.000000;1.000000;-0.013075;0.013075;-0.013075;1.000000
445644.37980087;5696576.94249924;470.82834985;0.494118;0.596078;0.388235;35466.000000;1.000000;1.000000;1.000000;1.000000;-0.116011;0.116011;-0.116011;1.000000
445644.46529968;5696576.67399891;470.75915005;0.462745;0.454902;0.454902;29812.000000;1.000000;1.000000;1.000000;1.000000;-0.156001;0.156001;-0.156001;1.000000
445644.20180328;5696577.17579945;470.85334994;0.376471;0.368627;0.317647;23901.000000;1.000000;1.000000;1.000000;1.000000;-0.154201;0.154201;-0.154201;1.000000
445644.43780334;5696576.86539944;470.78114988;0.776471;0.792157;0.682353;50629.000000;1.000000;1.000000;1.000000;1.000000;0.035399;-0.035399;0.035399;1.000000
445644.33540161;5696576.84689911;470.78324987;0.678431;0.678431;0.603922;43690.000000;1.000000;1.000000;1.000000;1.000000;-0.074663;0.074663;-0.074663;1.000000
445644.00320251;5696577.25179871;470.90584995;0.239216;0.172549;0.113725;12079.000000;1.000000;1.000000;1.000000;1.000000;0.121069;-0.121069;0.121069;1.000000
445644.48700150;5696576.94709881;470.79364993;0.67451;0.698039;0.596078;44461.000000;1.000000;1.000000;1.000000;1.000000;-0.014875;0.014875;-0.014875;1.000000
445644.43740280;5696576.65319927;470.76454999;0.054902;0.0470588;0.054902;3084.000000;1.000000;1.000000;1.000000;1.000000;-0.176801;0.176801;-0.176801;1.000000
445644.17290314;5696577.16459950;470.84725000;0.333333;0.333333;0.298039;21588.000000;1.000000;1.000000;1.000000;1.000000;-0.165401;0.165401;-0.165401;1.000000
445644.36110123;5696577.13599880;470.81344988;0.313725;0.317647;0.286275;20303.000000;1.000000;1.000000;1.000000;1.000000;-0.140776;0.140776;-0.140776;1.000000
