//X;Y;Z;Rf;Gf;Bf;Intensity;Return Number;Number Of Returns;Scan Direction Flag;Point Source ID;C2M signed distances[-][<0.8];C2M signed distances[<0.4];C2M signed distances[-][<0.2];Stump104
300
445615.44580086;5696564.81269844;472.24375011;0.219608;0.207843;0.0745098;12850.000000;1.000000;1.000000;1.000000;1.000000;0.017302;-0.017302;0.017302;1.000000
445615.33280190;5696564.84589966;472.27864983;0.376471;0.431373;0.219608;25443.000000;1.000000;1.000000;1.000000;1.000000;-0.107754;0.107754;-0.107754;1.000000
445615.59110077;5696564.85709961;472.27644970;0.572549;0.647059;0.423529;39321.000000;1.000000;1.000000;1.000000;1.000000;0.027100;-0.027100;0.027100;1.000000
445615.26820190;5696564.83769997;472.29425003;0.72549;0.764706;0.568627;47802.000000;1.000000;1.000000;1.000000;1.000000;-0.171348;0.171348;-0.171348;1.000000
445615.73560150;5696564.55469902;472.23045017;0.713725;0.709804;0.690196;46260.000000;1.000000;1.000000;1.000000;1.000000;-0.016275;0.016275;-0.016275;1.000000
445615.54770096;5696564.54649933;472.23115017;0.211765;0.227451;0.235294;14649.000000;1.000000;1.000000;1.000000;1.000000;0.108324;-0.108324;0.108324;1.000000
445615.47650154;5696564.50869949;472.22984983;0.247059;0.235294;0.203922;15420.000000;1.000000;1.000000;1.000000;1.000000;0.037125;-0.037125;0.037125;1.000000
445615.65360077;5696564.70029839;472.22384979;0.45098;0.435294;0.4;28527.000000;1.000000;1.000000;1.000000;1.000000;0.035776;-0.035776;0.035776;1.000000
445615.51140221;5696564.58259972;472.22994997;0.290196;0.278431;0.258824;18247.000000;1.000000;1.000000;1.000000;1.000000;0.072025;-0.072025;0.072025;1.000000
445615.39420135;5696564.92439850;472.27294971;0.462745;0.470588;0.368627;29812.000000;1.000000;1.000000;1.000000;1.000000;-0.104651;0.104651;-0.104651;1.000000
445615.38870247;5696564.83859833;472.26935007;0.184314;0.203922;0.0901961;12079.000000;1.000000;1.000000;1.000000;1.000000;-0.051399;0.051399;-0.051399;1.000000
445615.35640152;5696564.92089851;472.27355005;0.258824;0.258824;0.160784;16191.000000;1.000000;1.000000;1.000000;1.000000;-0.123075;0.123075;-0.123075;1.000000
445615.68920143;5696564.59149940;472.24744989;0.215686;0.223529;0.219608;14392.000000;1.000000;1.000000;1.000000;1.000000;0.000175;-0.000175;0.000175;1.000000
445615.73970230;5696564.85469826;472.29474976;0.258824;0.415686;0.172549;22359.000000;1.000000;1.000000;1.000000;1.000000;-0.024698;0.024698;-0.024698;1.000000
445615.39380081;5696564.72659882;472.23334982;0.486275;0.490196;0.411765;31354.000000;1.000000;1.000000;1.000000;1.000000;-0.062197;0.062197;-0.062197;1.000000
445615.61320122;5696564.77159889;472.23215010;0.615686;0.603922;0.490196;38807.000000;1.000000;1.000000;1.000000;1.000000;0.058401;-0.058401;0.058401;1.000000
445615.72860153;5696564.70489891;472.22954990;0.54902;0.541176;0.490196;35209.000000;1.000000;1.000000;1.000000;1.000000;-0.031151;0.031151;-0.031151;1.000000
445615.70710190;5696564.78819855;472.25754978;0.439216;0.470588;0.341176;29041.000000;1.000000;1.000000;1.000000;1.000000;-0.017725;0.017725;-0.017725;1.000000
445615.59320076;5696564.81979950;472.25745012;0.537255;0.588235;0.380392;35980.000000;1.000000;1.000000;1.000000;1.000000;-0.010201;0.010201;-0.010201;1.000000
445615.40660103;5696564.85109909;472.26104977;0.141176;0.156863;0.0588235;9252.000000;1.000000;1.000000;1.000000;1.000000;-0.038980;0.038980;-0.038980;1.000000
445615.58800133;5696564.48409851;472.24624969;0.0470588;0.0509804;0.054902;3084.000000;1.000000;1.000000;1.000000;1.000000;0.101376;-0.101376;0.101376;1.000000
445615.75040062;5696564.62089928;472.24585011;0.423529;0.435294;0.4;28013.000000;1.000000;1.000000;1.000000;1.000000;-0.001476;0.001476;-0.001476;1.000000
445615.68490227;5696564.39569862;472.24725010;0.321569;0.317647;0.235294;20046.000000;1.000000;1.000000;1.000000;1.000000;0.065699;-0.065699;0.065699;1.000000
445615.27010162;5696564.83279999;472.29425003;0.623529;0.670588;0.490196;41634.000000;1.000000;1.000000;1.000000;1.000000;-0.169298;0.169298;-0.169298;1.000000
445615.53330238;5696564.45399864;472.25734999;0.54902;0.541176;0.498039;35209.000000;1.000000;1.000000;1.000000;1.000000;0.093925;-0.093925;0.093925;1.000000
445615.73720177;5696564.48949821;472.21344997;0.560784;0.560784;0.533333;36494.000000;1.000000;1.000000;1.000000;1.000000;-0.014675;0.014675;-0.014675;1.000000
445615.64390190;5696564.46009834;472.25315001;0.054902;0.0627451;0.0431373;3598.000000;1.000000;1.000000;1.000000;1.000000;0.047959;-0.047959;0.047959;1.000000
445615.66880234;5696564.80340012;472.25834991;0.411765;0.443137;0.309804;27242.000000;1.000000;1.000000;1.000000;1.000000;0.020575;-0.020575;0.020575;1.000000
445615.55700119;5696564.34169968;472.27574970;0.627451;0.662745;0.52549;41634.000000;1.000000;1.000000;1.000000;1.000000;0.011700;-0.011700;0.011700;1.000000
445615.63200195;5696564.34399994;472.27685024;0.690196;0.72549;0.584314;45746.000000;1.000000;1.000000;1.000000;1.000000;0.014541;-0.014541;0.014541;1.000000
445615.52080162;5696564.37780006;472.27224972;0.301961;0.286275;0.2;18247.000000;1.000000;1.000000;1.000000;1.000000;0.047800;-0.047800;0.047800;1.000000
445615.40740211;5696564.37479980;472.23915007;0.27451;0.258824;0.243137;16962.000000;1.000000;1.000000;1.000000;1.000000;-0.031975;0.031975;-0.031975;1.000000
445615.44500168;5696564.37599953;472.23845007;0.407843;0.384314;0.341176;25186.000000;1.000000;1.000000;1.000000;1.000000;0.005625;-0.005625;0.005625;1.000000
445615.59230240;5696564.42009933;472.27825024;0.301961;0.372549;0.247059;22102.000000;1.000000;1.000000;1.000000;1.000000;0.090099;-0.090099;0.090099;1.000000
445615.62750061;5696564.41929825;472.27285006;0.168627;0.215686;0.133333;12593.000000;1.000000;1.000000;1.000000;1.000000;0.083209;-0.083209;0.083209;1.000000
445615.40620239;5696564.41229828;472.23945000;0.678431;0.670588;0.647059;43690.000000;1.000000;1.000000;1.000000;1.000000;-0.033175;0.033175;-0.033175;1.000000
445615.40480240;5696564.44749840;472.23985006;0.74902;0.752941;0.741176;49087.000000;1.000000;1.000000;1.000000;1.000000;-0.034575;0.034575;-0.034575;1.000000
445615.47790154;5696564.45239838;472.23624994;0.458824;0.447059;0.423529;29298.000000;1.000000;1.000000;1.000000;1.000000;0.038525;-0.038525;0.038525;1.000000
445615.25420197;5696564.47949989;472.27764990;0.501961;0.509804;0.501961;33153.000000;1.000000;1.000000;1.000000;1.000000;-0.185175;0.185175;-0.185175;1.000000
445615.62480171;5696564.50399979;472.24814989;0.219608;0.239216;0.223529;15163.000000;1.000000;1.000000;1.000000;1.000000;0.064575;-0.064575;0.064575;1.000000
445615.47650154;5696564.48759850;472.23654987;0.45098;0.443137;0.427451;29041.000000;1.000000;1.000000;1.000000;1.000000;0.037125;-0.037125;0.037125;1.000000
445615.51580246;5696564.46269997;472.24735023;0.156863;0.152941;0.12549;9766.000000;1.000000;1.000000;1.000000;1.000000;0.076426;-0.076426;0.076426;1.000000
445615.66080101;5696564.53349884;472.23845007;0.737255;0.752941;0.733333;48830.000000;1.000000;1.000000;1.000000;1.000000;0.028576;-0.028576;0.028576;1.000000
445615.69700249;5696564.57219894;472.24055006;0.196078;0.196078;0.2;12850.000000;1.000000;1.000000;1.000000;1.000000;-0.007626;0.007626;-0.007626;1.000000
445615.39450081;5696564.63529976;472.23694994;0.694118;0.686275;0.658824;44718.000000;1.000000;1.000000;1.000000;1.000000;-0.044876;0.044876;-0.044876;1.000000
445615.28220184;5696564.70349892;472.27694990;0.537255;0.54902;0.45098;34952.000000;1.000000;1.000000;1.000000;1.000000;-0.158243;0.158243;-0.158243;1.000000
445615.65160187;5696564.75869949;472.23374989;0.658824;0.658824;0.576471;42405.000000;1.000000;1.000000;1.000000;1.000000;0.037775;-0.037775;0.037775;1.000000
445615.76120193;5696564.79929932;472.27414991;0.341176;0.415686;0.262745;24672.000000;1.000000;1.000000;1.000000;1.000000;0.021925;-0.021925;0.021925;1.000000
445615.61220177;5696564.79029854;472.23934986;0.701961;0.709804;0.580392;45232.000000;1.000000;1.000000;1.000000;1.000000;0.039701;-0.039701;0.039701;1.000000
445615.53960236;5696564.78769882;472.23834993;0.439216;0.443137;0.27451;27499.000000;1.000000;1.000000;1.000000;1.000000;0.042301;-0.042301;0.042301;1.000000
445615.50000198;5696564.78909882;472.23654987;0.713725;0.721569;0.568627;46003.000000;1.000000;1.000000;1.000000;1.000000;0.040944;-0.040944;0.040944;1.000000
445615.64720161;5696564.83089836;472.27404978;0.521569;0.568627;0.411765;35209.000000;1.000000;1.000000;1.000000;1.000000;-0.000898;0.000898;-0.000898;1.000000
445615.53730209;5696564.82939919;472.27134993;0.556863;0.623529;0.384314;37779.000000;1.000000;1.000000;1.000000;1.000000;0.000601;-0.000601;0.000601;1.000000
445615.49440201;5696564.89869888;472.27955009;0.384314;0.458824;0.262745;26985.000000;1.000000;1.000000;1.000000;1.000000;-0.068717;0.068717;-0.068717;1.000000
445615.34550102;5696564.92889984;472.27314999;0.34902;0.333333;0.239216;21331.000000;1.000000;1.000000;1.000000;1.000000;-0.136359;0.136359;-0.136359;1.000000
445615.29360207;5696564.37769897;472.28055002;0.423529;0.439216;0.411765;28270.000000;1.000000;1.000000;1.000000;1.000000;-0.145775;0.145775;-0.145775;1.000000
445615.48380096;5696564.75809868;472.22144987;0.545098;0.52549;0.435294;33924.000000;1.000000;1.000000;1.000000;1.000000;0.071901;-0.071901;0.071901;1.000000
445615.58870132;5696564.91309937;472.29094984;0.764706;0.831373;0.647059;51657.000000;1.000000;1.000000;1.000000;1.000000;0.083099;-0.083099;0.083099;1.000000
445615.52900131;5696564.33969887;472.26984980;0.72549;0.737255;0.615686;47031.000000;1.000000;1.000000;1.000000;1.000000;0.009699;-0.009699;0.009699;1.000000
445615.67520149;5696564.34959991;472.26254990;0.490196;0.494118;0.368627;31354.000000;1.000000;1.000000;1.000000;1.000000;0.019600;-0.019600;0.019600;1.000000
445615.30730064;5696564.36959847;472.27174999;0.380392;0.392157;0.384314;25186.000000;1.000000;1.000000;1.000000;1.000000;-0.132076;0.132076;-0.132076;1.000000
445615.63730247;5696564.42079933;472.26634981;0.0823529;0.121569;0.0588235;6682.000000;1.000000;1.000000;1.000000;1.000000;0.075208;-0.075208;0.075208;1.000000
445615.52940186;5696564.41449936;472.26135017;0.113725;0.105882;0.054902;6682.000000;1.000000;1.000000;1.000000;1.000000;0.084499;-0.084499;0.084499;1.000000
445615.45100220;5696564.41289909;472.23224976;0.694118;0.682353;0.654902;44718.000000;1.000000;1.000000;1.000000;1.000000;0.011625;-0.011625;0.011625;1.000000
445615.41120155;5696564.48669823;472.23124983;0.207843;0.2;0.188235;13107.000000;1.000000;1.000000;1.000000;1.000000;-0.028175;0.028175;-0.028175;1.000000
445615.44880112;5696564.48789986;472.23064997;0.219608;0.203922;0.188235;13364.000000;1.000000;1.000000;1.000000;1.000000;0.009424;-0.009424;0.009424;1.000000
445615.70610245;5696564.53659828;472.22424986;0.843137;0.854902;0.839216;55512.000000;1.000000;1.000000;1.000000;1.000000;-0.016726;0.016726;-0.016726;1.000000
445615.41000183;5696564.52189835;472.22695019;0.588235;0.568627;0.533333;37265.000000;1.000000;1.000000;1.000000;1.000000;-0.029375;0.029375;-0.029375;1.000000
445615.25810249;5696564.59139832;472.26755001;0.713725;0.713725;0.670588;46260.000000;1.000000;1.000000;1.000000;1.000000;-0.181274;0.181274;-0.181274;1.000000
445615.37010201;5696564.59569939;472.22844984;0.862745;0.858824;0.831373;56026.000000;1.000000;1.000000;1.000000;1.000000;-0.069275;0.069275;-0.069275;1.000000
445615.55540092;5696564.60409935;472.23224976;0.498039;0.509804;0.505882;32896.000000;1.000000;1.000000;1.000000;1.000000;0.116024;-0.116024;0.116024;1.000000
445615.59320076;5696564.60539825;472.22695019;0.188235;0.2;0.2;12850.000000;1.000000;1.000000;1.000000;1.000000;0.096176;-0.096176;0.096176;1.000000
445615.40630157;5696564.63429840;472.23045017;0.67451;0.670588;0.643137;43690.000000;1.000000;1.000000;1.000000;1.000000;-0.033075;0.033075;-0.033075;1.000000
445615.70220192;5696564.64669998;472.22774984;0.576471;0.580392;0.564706;37779.000000;1.000000;1.000000;1.000000;1.000000;-0.012825;0.012825;-0.012825;1.000000
445615.66700180;5696564.64519890;472.22844984;0.431373;0.423529;0.396078;27499.000000;1.000000;1.000000;1.000000;1.000000;0.022375;-0.022375;0.022375;1.000000
445615.62940224;5696564.64399918;472.22905018;0.568627;0.560784;0.533333;36494.000000;1.000000;1.000000;1.000000;1.000000;0.059975;-0.059975;0.059975;1.000000
445615.25600250;5696564.66649826;472.26135017;0.372549;0.372549;0.313725;23901.000000;1.000000;1.000000;1.000000;1.000000;-0.183374;0.183374;-0.183374;1.000000
445615.29340179;5696564.66759880;472.26534988;0.768627;0.768627;0.721569;49858.000000;1.000000;1.000000;1.000000;1.000000;-0.145975;0.145975;-0.145975;1.000000
445615.40520103;5696564.67179878;472.23084976;0.403922;0.403922;0.372549;26214.000000;1.000000;1.000000;1.000000;1.000000;-0.034176;0.034176;-0.034176;1.000000
445615.32870110;5696564.66909988;472.26235010;0.537255;0.545098;0.498039;35209.000000;1.000000;1.000000;1.000000;1.000000;-0.110676;0.110676;-0.110676;1.000000
445615.44060143;5696564.67329987;472.22555019;0.670588;0.666667;0.627451;43433.000000;1.000000;1.000000;1.000000;1.000000;0.001225;-0.001225;0.001225;1.000000
445615.70110138;5696564.68419846;472.22574999;0.713725;0.709804;0.666667;46260.000000;1.000000;1.000000;1.000000;1.000000;-0.011724;0.011724;-0.011724;1.000000
445615.59080132;5696564.68029984;472.22774984;0.345098;0.32549;0.290196;21331.000000;1.000000;1.000000;1.000000;1.000000;0.098576;-0.098576;0.098576;1.000000
445615.40180214;5696564.70949944;472.22884991;0.533333;0.533333;0.478431;34438.000000;1.000000;1.000000;1.000000;1.000000;-0.045308;0.045308;-0.045308;1.000000
445615.66240128;5696564.72039993;472.22674992;0.407843;0.4;0.341176;25700.000000;1.000000;1.000000;1.000000;1.000000;0.026976;-0.026976;0.026976;1.000000
445615.62480171;5696564.71919830;472.22744991;0.478431;0.466667;0.427451;30326.000000;1.000000;1.000000;1.000000;1.000000;0.064575;-0.064575;0.064575;1.000000
445615.32620247;5696564.74399956;472.26545002;0.427451;0.47451;0.294118;28784.000000;1.000000;1.000000;1.000000;1.000000;-0.127667;0.127667;-0.127667;1.000000
445615.40020187;5696564.74469955;472.23154976;0.552941;0.54902;0.454902;35209.000000;1.000000;1.000000;1.000000;1.000000;-0.072039;0.072039;-0.072039;1.000000
445615.54830177;5696564.75199898;472.22895004;0.584314;0.52549;0.411765;34695.000000;1.000000;1.000000;1.000000;1.000000;0.078001;-0.078001;0.078001;1.000000
445615.62350090;5696564.75669868;472.23014977;0.560784;0.545098;0.462745;35209.000000;1.000000;1.000000;1.000000;1.000000;0.065876;-0.065876;0.065876;1.000000
445615.39620216;5696564.81919868;472.26954987;0.533333;0.552941;0.415686;34695.000000;1.000000;1.000000;1.000000;1.000000;0.044505;-0.044505;0.044505;1.000000
445615.58460243;5696564.82989891;472.26184990;0.4;0.466667;0.231373;27499.000000;1.000000;1.000000;1.000000;1.000000;0.000101;-0.000101;0.000101;1.000000
445615.54660233;5696564.82629974;472.26704981;0.596078;0.658824;0.423529;40092.000000;1.000000;1.000000;1.000000;1.000000;0.003700;-0.003700;0.003700;1.000000
445615.50910194;5696564.82510002;472.26534988;0.627451;0.666667;0.458824;41377.000000;1.000000;1.000000;1.000000;1.000000;0.004900;-0.004900;0.004900;1.000000
445615.62190063;5696564.83099945;472.26585009;0.541176;0.584314;0.4;35980.000000;1.000000;1.000000;1.000000;1.000000;0.000999;-0.000999;0.000999;1.000000
445615.35640152;5696564.89299973;472.26854994;0.627451;0.647059;0.513725;40863.000000;1.000000;1.000000;1.000000;1.000000;-0.104182;0.104182;-0.104182;1.000000
445615.46930130;5696564.89889915;472.26445009;0.243137;0.282353;0.141176;16705.000000;1.000000;1.000000;1.000000;1.000000;-0.068912;0.068912;-0.068912;1.000000
445615.39430244;5696564.89649971;472.26335003;0.643137;0.670588;0.533333;42405.000000;1.000000;1.000000;1.000000;1.000000;-0.080336;0.080336;-0.080336;1.000000
445615.34510239;5696564.94769867;472.26874973;0.666667;0.647059;0.568627;42148.000000;1.000000;1.000000;1.000000;1.000000;-0.150800;0.150800;-0.150800;1.000000
445615.44850166;5696564.75669868;472.22225000;0.580392;0.556863;0.458824;36237.000000;1.000000;1.000000;1.000000;1.000000;0.073210;-0.073210;0.073210;1.000000
445615.75150116;5696564.63019951;472.24134972;0.278431;0.278431;0.239216;17733.000000;1.000000;1.000000;1.000000;1.000000;-0.000376;0.000376;-0.000376;1.000000
445615.64030083;5696564.58919914;472.23824980;0.270588;0.282353;0.301961;18247.000000;1.000000;1.000000;1.000000;1.000000;0.049076;-0.049076;0.049076;1.000000
445615.68820198;5696564.32769974;472.23955013;0.403922;0.396078;0.298039;25186.000000;1.000000;1.000000;1.000000;1.000000;-0.002300;0.002300;-0.002300;1.000000
445615.49900063;5696564.38709839;472.25734999;0.286275;0.254902;0.188235;16705.000000;1.000000;1.000000;1.000000;1.000000;0.057098;-0.057098;0.057098;1.000000
445615.69520195;5696564.58159836;472.24755003;0.156863;0.160784;0.160784;10280.000000;1.000000;1.000000;1.000000;1.000000;-0.005825;0.005825;-0.005825;1.000000
445615.73200233;5696564.58709915;472.27495005;0.760784;0.756863;0.745098;49344.000000;1.000000;1.000000;1.000000;1.000000;-0.019875;0.019875;-0.019875;1.000000
445615.71950157;5696564.50039871;472.21514990;0.4;0.407843;0.384314;26214.000000;1.000000;1.000000;1.000000;1.000000;-0.030125;0.030125;-0.030125;1.000000
445615.67930229;5696564.33999832;472.25565006;0.498039;0.498039;0.376471;31611.000000;1.000000;1.000000;1.000000;1.000000;0.009998;-0.009998;0.009998;1.000000
445615.34220131;5696564.36189850;472.25925018;0.45098;0.458824;0.435294;29555.000000;1.000000;1.000000;1.000000;1.000000;-0.097176;0.097176;-0.097176;1.000000
445615.67800148;5696564.37739952;472.25834991;0.356863;0.368627;0.266667;23130.000000;1.000000;1.000000;1.000000;1.000000;0.047400;-0.047400;0.047400;1.000000
445615.55940063;5696564.48189934;472.25425007;0.156863;0.164706;0.164706;10537.000000;1.000000;1.000000;1.000000;1.000000;0.120024;-0.120024;0.120024;1.000000
445615.29400070;5696564.62099846;472.25785019;0.643137;0.643137;0.607843;41891.000000;1.000000;1.000000;1.000000;1.000000;-0.145376;0.145376;-0.145376;1.000000
445615.51620110;5696564.63130005;472.22374966;0.211765;0.203922;0.188235;13364.000000;1.000000;1.000000;1.000000;1.000000;0.076824;-0.076824;0.076824;1.000000
445615.48100098;5696564.62759979;472.21985008;0.392157;0.364706;0.337255;24158.000000;1.000000;1.000000;1.000000;1.000000;0.041624;-0.041624;0.041624;1.000000
445615.51410110;5696564.70629890;472.21995022;0.564706;0.560784;0.521569;36494.000000;1.000000;1.000000;1.000000;1.000000;0.077979;-0.077979;0.077979;1.000000
445615.62110146;5696564.81950005;472.25874998;0.639216;0.670588;0.513725;42148.000000;1.000000;1.000000;1.000000;1.000000;-0.010500;0.010500;-0.010500;1.000000
445615.60340126;5696564.80029877;472.24834969;0.705882;0.72549;0.568627;46003.000000;1.000000;1.000000;1.000000;1.000000;0.029701;-0.029701;0.029701;1.000000
445615.67580231;5696564.84199913;472.28704979;0.690196;0.760784;0.592157;47031.000000;1.000000;1.000000;1.000000;1.000000;-0.011999;0.011999;-0.011999;1.000000
445615.45230110;5696564.83299835;472.24655010;0.231373;0.227451;0.0901961;13878.000000;1.000000;1.000000;1.000000;1.000000;-0.002998;0.002998;-0.002998;1.000000
445615.59940155;5696564.87479980;472.28634979;0.533333;0.611765;0.392157;36751.000000;1.000000;1.000000;1.000000;1.000000;-0.044800;0.044800;-0.044800;1.000000
445615.45090111;5696564.87049873;472.25164988;0.592157;0.623529;0.454902;38807.000000;1.000000;1.000000;1.000000;1.000000;-0.040499;0.040499;-0.040499;1.000000
445615.26260193;5696564.89899834;472.28774979;0.407843;0.443137;0.298039;27242.000000;1.000000;1.000000;1.000000;1.000000;-0.189763;0.189763;-0.189763;1.000000
445615.30030067;5696564.90029915;472.28245022;0.513725;0.54902;0.384314;33924.000000;1.000000;1.000000;1.000000;1.000000;-0.155834;0.155834;-0.155834;1.000000
445615.28710182;5696564.35949905;472.28475000;0.470588;0.490196;0.478431;31611.000000;1.000000;1.000000;1.000000;1.000000;-0.152275;0.152275;-0.152275;1.000000
445615.38290222;5696564.73679932;472.23764994;0.619608;0.623529;0.529412;40092.000000;1.000000;1.000000;1.000000;1.000000;-0.077064;0.077064;-0.077064;1.000000
445615.71290215;5696564.63099869;472.26994993;0.443137;0.45098;0.45098;29298.000000;1.000000;1.000000;1.000000;1.000000;-0.023525;0.023525;-0.023525;1.000000
445615.71590240;5696564.59089859;472.27654984;0.639216;0.639216;0.631373;41634.000000;1.000000;1.000000;1.000000;1.000000;-0.026525;0.026525;-0.026525;1.000000
445615.74120148;5696564.84519966;472.29474976;0.537255;0.627451;0.411765;37779.000000;1.000000;1.000000;1.000000;1.000000;-0.015200;0.015200;-0.015200;1.000000
445615.45160110;5696564.63729866;472.21864988;0.505882;0.490196;0.454902;32125.000000;1.000000;1.000000;1.000000;1.000000;0.012224;-0.012224;0.012224;1.000000
445615.47190102;5696564.36870010;472.24895002;0.588235;0.54902;0.478431;36237.000000;1.000000;1.000000;1.000000;1.000000;0.032524;-0.032524;0.032524;1.000000
445615.28360184;5696564.39499863;472.28035023;0.360784;0.372549;0.345098;23901.000000;1.000000;1.000000;1.000000;1.000000;-0.155775;0.155775;-0.155775;1.000000
445615.65480240;5696564.44979866;472.24884989;0.054902;0.0666667;0.0392157;3855.000000;1.000000;1.000000;1.000000;1.000000;0.043032;-0.043032;0.043032;1.000000
445615.27060135;5696564.73249825;472.28375008;0.584314;0.607843;0.439216;38036.000000;1.000000;1.000000;1.000000;1.000000;-0.175255;0.175255;-0.175255;1.000000
445615.67690094;5696564.78649910;472.24914982;0.521569;0.545098;0.423529;34181.000000;1.000000;1.000000;1.000000;1.000000;0.012476;-0.012476;0.012476;1.000000
445615.30080231;5696564.88149841;472.28455021;0.466667;0.52549;0.317647;31611.000000;1.000000;1.000000;1.000000;1.000000;-0.147834;0.147834;-0.147834;1.000000
445615.63150223;5696564.33489998;472.26975014;0.654902;0.686275;0.54902;43176.000000;1.000000;1.000000;1.000000;1.000000;0.006611;-0.006611;0.006611;1.000000
445615.55880173;5696564.33229836;472.26874973;0.560784;0.584314;0.443137;36751.000000;1.000000;1.000000;1.000000;1.000000;0.002298;-0.002298;0.002298;1.000000
445615.33250244;5696564.36029823;472.26345016;0.596078;0.6;0.568627;38807.000000;1.000000;1.000000;1.000000;1.000000;-0.106874;0.106874;-0.106874;1.000000
445615.66810234;5696564.37589844;472.26725008;0.447059;0.462745;0.345098;29041.000000;1.000000;1.000000;1.000000;1.000000;0.045898;-0.045898;0.045898;1.000000
445615.70380219;5696564.41519936;472.23204996;0.411765;0.396078;0.321569;25700.000000;1.000000;1.000000;1.000000;1.000000;-0.048075;0.048075;-0.048075;1.000000
445615.59070213;5696564.44619949;472.26454975;0.141176;0.168627;0.105882;10023.000000;1.000000;1.000000;1.000000;1.000000;0.102821;-0.102821;0.102821;1.000000
445615.70260246;5696564.45039948;472.22774984;0.262745;0.254902;0.215686;16448.000000;1.000000;1.000000;1.000000;1.000000;-0.028673;0.028673;-0.028673;1.000000
445615.28920181;5696564.47179993;472.26284983;0.403922;0.392157;0.364706;25700.000000;1.000000;1.000000;1.000000;1.000000;-0.150175;0.150175;-0.150175;1.000000
445615.69710167;5696564.49069984;472.22564985;0.117647;0.12549;0.105882;7710.000000;1.000000;1.000000;1.000000;1.000000;-0.007725;0.007725;-0.007725;1.000000
445615.29030235;5696564.50910004;472.26335003;0.67451;0.662745;0.631373;43433.000000;1.000000;1.000000;1.000000;1.000000;-0.149075;0.149075;-0.149075;1.000000
445615.51250084;5696564.51939972;472.23154976;0.690196;0.698039;0.682353;45232.000000;1.000000;1.000000;1.000000;1.000000;0.073124;-0.073124;0.073124;1.000000
445615.47720154;5696564.51569946;472.22765018;0.278431;0.266667;0.223529;17219.000000;1.000000;1.000000;1.000000;1.000000;0.037825;-0.037825;0.037825;1.000000
445615.39980133;5696564.51349838;472.22874977;0.411765;0.396078;0.352941;25700.000000;1.000000;1.000000;1.000000;1.000000;-0.039576;0.039576;-0.039576;1.000000
445615.28680237;5696564.54679878;472.26364996;0.541176;0.529412;0.490196;34438.000000;1.000000;1.000000;1.000000;1.000000;-0.152575;0.152575;-0.152575;1.000000
445615.36340149;5696564.54959877;472.22984983;0.65098;0.627451;0.584314;41120.000000;1.000000;1.000000;1.000000;1.000000;-0.075975;0.075975;-0.075975;1.000000
445615.51100166;5696564.55449875;472.23194983;0.45098;0.458824;0.435294;29555.000000;1.000000;1.000000;1.000000;1.000000;0.071625;-0.071625;0.071625;1.000000
445615.25020226;5696564.58279999;472.26944973;0.505882;0.494118;0.454902;32125.000000;1.000000;1.000000;1.000000;1.000000;-0.189175;0.189175;-0.189175;1.000000
445615.28540237;5696564.58189972;472.26405003;0.498039;0.490196;0.443137;31868.000000;1.000000;1.000000;1.000000;1.000000;-0.153975;0.153975;-0.153975;1.000000
445615.36220177;5696564.58699997;472.23024990;0.717647;0.713725;0.686275;46517.000000;1.000000;1.000000;1.000000;1.000000;-0.077175;0.077175;-0.077175;1.000000
445615.39820107;5696564.62339981;472.23234989;0.662745;0.654902;0.627451;42662.000000;1.000000;1.000000;1.000000;1.000000;-0.041176;0.041176;-0.041176;1.000000
445615.65690239;5696564.63679894;472.22784998;0.294118;0.294118;0.266667;19018.000000;1.000000;1.000000;1.000000;1.000000;0.032475;-0.032475;0.032475;1.000000
445615.61930092;5696564.63559921;472.22844984;0.564706;0.556863;0.537255;36494.000000;1.000000;1.000000;1.000000;1.000000;0.070076;-0.070076;0.070076;1.000000
445615.54410179;5696564.63319977;472.23204996;0.270588;0.27451;0.258824;17733.000000;1.000000;1.000000;1.000000;1.000000;0.104725;-0.104725;0.104725;1.000000
445615.58050163;5696564.66959961;472.22714998;0.376471;0.356863;0.32549;23387.000000;1.000000;1.000000;1.000000;1.000000;0.108875;-0.108875;0.108875;1.000000
445615.72830208;5696564.67689903;472.22924997;0.560784;0.556863;0.509804;35980.000000;1.000000;1.000000;1.000000;1.000000;-0.023575;0.023575;-0.023575;1.000000
445615.65320213;5696564.67219933;472.22585012;0.321569;0.301961;0.27451;19789.000000;1.000000;1.000000;1.000000;1.000000;0.036175;-0.036175;0.036175;1.000000
445615.39360245;5696564.69859894;472.23064997;0.552941;0.556863;0.505882;35980.000000;1.000000;1.000000;1.000000;1.000000;-0.047981;0.047981;-0.047981;1.000000
445615.42910202;5696564.70010002;472.22534992;0.611765;0.603922;0.560784;39321.000000;1.000000;1.000000;1.000000;1.000000;-0.019007;0.019007;-0.019007;1.000000
445615.65440186;5696564.70949944;472.22625019;0.439216;0.423529;0.376471;27499.000000;1.000000;1.000000;1.000000;1.000000;0.034975;-0.034975;0.034975;1.000000
445615.61670120;5696564.70829971;472.22924997;0.709804;0.698039;0.666667;45746.000000;1.000000;1.000000;1.000000;1.000000;0.072676;-0.072676;0.072676;1.000000
445615.61560066;5696564.74579819;472.22734978;0.368627;0.356863;0.286275;22873.000000;1.000000;1.000000;1.000000;1.000000;0.073776;-0.073776;0.073776;1.000000
445615.54060181;5696564.74339874;472.22625019;0.54902;0.494118;0.4;32639.000000;1.000000;1.000000;1.000000;1.000000;0.086601;-0.086601;0.086601;1.000000
445615.76060112;5696564.79009827;472.26695015;0.301961;0.364706;0.239216;21588.000000;1.000000;1.000000;1.000000;1.000000;0.022526;-0.022526;0.022526;1.000000
445615.72350128;5696564.79129990;472.26305010;0.254902;0.301961;0.168627;17733.000000;1.000000;1.000000;1.000000;1.000000;-0.034124;0.034124;-0.034124;1.000000
445615.46440132;5696564.77849968;472.22784998;0.486275;0.478431;0.337255;30326.000000;1.000000;1.000000;1.000000;1.000000;0.051581;-0.051581;0.051581;1.000000
445615.50150116;5696564.77729996;472.23185017;0.713725;0.713725;0.584314;45746.000000;1.000000;1.000000;1.000000;1.000000;0.052701;-0.052701;0.052701;1.000000
445615.35080154;5696564.80939873;472.26965000;0.301961;0.333333;0.145098;19789.000000;1.000000;1.000000;1.000000;1.000000;0.090940;-0.090940;0.090940;1.000000
445615.64910133;5696564.82149895;472.26464989;0.529412;0.564706;0.407843;34952.000000;1.000000;1.000000;1.000000;1.000000;-0.008501;0.008501;-0.008501;1.000000
445615.53680237;5696564.82020004;472.26424982;0.694118;0.745098;0.533333;46260.000000;1.000000;1.000000;1.000000;1.000000;0.009800;-0.009800;0.009800;1.000000
445615.38850220;5696564.81059845;472.26674988;0.835294;0.839216;0.698039;53713.000000;1.000000;1.000000;1.000000;1.000000;0.054449;-0.054449;0.054449;1.000000
445615.48610123;5696564.93449982;472.27724983;0.541176;0.592157;0.423529;36494.000000;1.000000;1.000000;1.000000;1.000000;-0.104500;0.104500;-0.104500;1.000000
445615.49750145;5696564.85189827;472.26744987;0.47451;0.533333;0.301961;32125.000000;1.000000;1.000000;1.000000;1.000000;-0.022331;0.022331;-0.022331;1.000000
445615.34860237;5696564.88439949;472.26814987;0.662745;0.690196;0.537255;43433.000000;1.000000;1.000000;1.000000;1.000000;-0.105827;0.105827;-0.105827;1.000000
445615.38400085;5696564.88579948;472.26275017;0.501961;0.533333;0.396078;33153.000000;1.000000;1.000000;1.000000;1.000000;-0.078614;0.078614;-0.078614;1.000000
445615.56280144;5696564.67840012;472.22174980;0.321569;0.317647;0.286275;20560.000000;1.000000;1.000000;1.000000;1.000000;0.123425;-0.123425;0.123425;1.000000
445615.62190063;5696564.56979950;472.24184992;0.203922;0.215686;0.235294;13878.000000;1.000000;1.000000;1.000000;1.000000;0.067476;-0.067476;0.067476;1.000000
445615.51540192;5696564.43469818;472.24935009;0.231373;0.215686;0.164706;13878.000000;1.000000;1.000000;1.000000;1.000000;0.076025;-0.076025;0.076025;1.000000
445615.68810089;5696564.57989891;472.24725010;0.133333;0.141176;0.152941;8995.000000;1.000000;1.000000;1.000000;1.000000;0.001276;-0.001276;0.001276;1.000000
445615.67380150;5696564.38480003;472.26294996;0.380392;0.388235;0.286275;24415.000000;1.000000;1.000000;1.000000;1.000000;0.054800;-0.054800;0.054800;1.000000
445615.30180176;5696564.40759857;472.26504995;0.360784;0.364706;0.329412;23387.000000;1.000000;1.000000;1.000000;1.000000;-0.137575;0.137575;-0.137575;1.000000
445615.71190079;5696564.42389877;472.22545006;0.447059;0.431373;0.360784;28013.000000;1.000000;1.000000;1.000000;1.000000;-0.039976;0.039976;-0.039976;1.000000
445615.56330116;5696564.45339973;472.26335003;0.203922;0.2;0.152941;12593.000000;1.000000;1.000000;1.000000;1.000000;0.123400;-0.123400;0.123400;1.000000
445615.44990166;5696564.45039948;472.23264982;0.913725;0.913725;0.898039;59624.000000;1.000000;1.000000;1.000000;1.000000;0.010525;-0.010525;0.010525;1.000000
445615.48520096;5696564.52659996;472.22814991;0.415686;0.403922;0.356863;26214.000000;1.000000;1.000000;1.000000;1.000000;0.045824;-0.045824;0.045824;1.000000
445615.37250145;5696564.52299889;472.23234989;0.517647;0.486275;0.427451;31868.000000;1.000000;1.000000;1.000000;1.000000;-0.066875;0.066875;-0.066875;1.000000
445615.52270134;5696564.52779968;472.22984983;0.658824;0.67451;0.662745;43690.000000;1.000000;1.000000;1.000000;1.000000;0.083324;-0.083324;0.083324;1.000000
445615.52140244;5696564.56519897;472.23255016;0.580392;0.584314;0.576471;38036.000000;1.000000;1.000000;1.000000;1.000000;0.082026;-0.082026;0.082026;1.000000
445615.48410233;5696564.56409843;472.22615005;0.184314;0.168627;0.133333;11051.000000;1.000000;1.000000;1.000000;1.000000;0.044725;-0.044725;0.044725;1.000000
445615.55660065;5696564.56670006;472.23185017;0.0666667;0.0784314;0.0941176;4883.000000;1.000000;1.000000;1.000000;1.000000;0.117224;-0.117224;0.117224;1.000000
445615.59190186;5696564.64279945;472.22965004;0.368627;0.364706;0.333333;23644.000000;1.000000;1.000000;1.000000;1.000000;0.097475;-0.097475;0.097475;1.000000
445615.55430229;5696564.64159973;472.23024990;0.388235;0.392157;0.380392;25443.000000;1.000000;1.000000;1.000000;1.000000;0.114925;-0.114925;0.114925;1.000000
445615.66370209;5696564.68299873;472.22405006;0.482353;0.470588;0.439216;30840.000000;1.000000;1.000000;1.000000;1.000000;0.025675;-0.025675;0.025675;1.000000
445615.62590225;5696564.68169983;472.22935011;0.164706;0.141176;0.117647;9509.000000;1.000000;1.000000;1.000000;1.000000;0.063475;-0.063475;0.063475;1.000000
445615.32740219;5696564.70649918;472.26504995;0.341176;0.352941;0.254902;22102.000000;1.000000;1.000000;1.000000;1.000000;-0.114038;0.114038;-0.114038;1.000000
445615.69960220;5696564.72159966;472.23315002;0.592157;0.592157;0.529412;38293.000000;1.000000;1.000000;1.000000;1.000000;-0.010225;0.010225;-0.010225;1.000000
445615.58730133;5696564.71799858;472.22804977;0.545098;0.529412;0.482353;34438.000000;1.000000;1.000000;1.000000;1.000000;0.102076;-0.102076;0.102076;1.000000
445615.58590134;5696564.75319870;472.22835018;0.356863;0.317647;0.207843;20560.000000;1.000000;1.000000;1.000000;1.000000;0.076801;-0.076801;0.076801;1.000000
445615.47440155;5696564.78689964;472.23075010;0.552941;0.54902;0.403922;34952.000000;1.000000;1.000000;1.000000;1.000000;0.043100;-0.043100;0.043100;1.000000
445615.42990120;5696564.93049820;472.27005007;0.290196;0.294118;0.188235;18247.000000;1.000000;1.000000;1.000000;1.000000;-0.100944;0.100944;-0.100944;1.000000
445615.72350128;5696564.82599838;472.28434994;0.662745;0.745098;0.564706;45746.000000;1.000000;1.000000;1.000000;1.000000;0.004002;-0.004002;0.004002;1.000000
445615.68600090;5696564.82479866;472.28265001;0.282353;0.337255;0.176471;19789.000000;1.000000;1.000000;1.000000;1.000000;0.003376;-0.003376;0.003376;1.000000
445615.60990150;5696564.85989960;472.28195002;0.721569;0.784314;0.580392;48573.000000;1.000000;1.000000;1.000000;1.000000;-0.029900;0.029900;-0.029900;1.000000
445615.42440231;5696564.88699921;472.25064995;0.811765;0.835294;0.713725;53199.000000;1.000000;1.000000;1.000000;1.000000;-0.058933;0.058933;-0.058933;1.000000
445615.27130135;5696564.91689880;472.28595020;0.290196;0.301961;0.188235;18504.000000;1.000000;1.000000;1.000000;1.000000;-0.189211;0.189211;-0.189211;1.000000
445615.30670174;5696564.91839989;472.28294994;0.756863;0.760784;0.627451;48573.000000;1.000000;1.000000;1.000000;1.000000;-0.159428;0.159428;-0.159428;1.000000
445615.69620140;5696564.34089859;472.24704983;0.541176;0.533333;0.427451;34181.000000;1.000000;1.000000;1.000000;1.000000;-0.010899;0.010899;-0.010899;1.000000
445615.58500107;5696564.37159927;472.28905012;0.333333;0.415686;0.247059;24158.000000;1.000000;1.000000;1.000000;1.000000;0.041599;-0.041599;0.041599;1.000000
445615.52560242;5696564.44539841;472.25464966;0.345098;0.329412;0.282353;21331.000000;1.000000;1.000000;1.000000;1.000000;0.086226;-0.086226;0.086226;1.000000
445615.63060196;5696564.60659988;472.22865011;0.258824;0.278431;0.286275;17733.000000;1.000000;1.000000;1.000000;1.000000;0.058775;-0.058775;0.058775;1.000000
445615.73330124;5696564.79729851;472.26585009;0.337255;0.4;0.262745;23901.000000;1.000000;1.000000;1.000000;1.000000;0.032701;-0.032701;0.032701;1.000000
445615.37130173;5696564.55819901;472.22804977;0.701961;0.682353;0.639216;44718.000000;1.000000;1.000000;1.000000;1.000000;-0.068075;0.068075;-0.068075;1.000000
445615.28180130;5696564.88089951;472.29064991;0.478431;0.545098;0.341176;32896.000000;1.000000;1.000000;1.000000;1.000000;-0.165592;0.165592;-0.165592;1.000000
445615.29260071;5696564.65609940;472.25824978;0.643137;0.643137;0.603922;41634.000000;1.000000;1.000000;1.000000;1.000000;-0.146776;0.146776;-0.146776;1.000000
445615.54770096;5696564.37039955;472.28265001;0.298039;0.333333;0.188235;20046.000000;1.000000;1.000000;1.000000;1.000000;0.040400;-0.040400;0.040400;1.000000
445615.47000130;5696564.85229881;472.25694992;0.388235;0.403922;0.219608;24672.000000;1.000000;1.000000;1.000000;1.000000;-0.022308;0.022308;-0.022308;1.000000
445615.53850182;5696564.92709930;472.29355003;0.258824;0.32549;0.152941;18761.000000;1.000000;1.000000;1.000000;1.000000;-0.097099;0.097099;-0.097099;1.000000
445615.51800163;5696564.60299881;472.23054983;0.337255;0.333333;0.309804;21588.000000;1.000000;1.000000;1.000000;1.000000;0.078625;-0.078625;0.078625;1.000000
445615.65600212;5696564.37679871;472.28064968;0.533333;0.560784;0.439216;35209.000000;1.000000;1.000000;1.000000;1.000000;0.046799;-0.046799;0.046799;1.000000
445615.61920174;5696564.40829857;472.27934982;0.137255;0.2;0.0941176;11051.000000;1.000000;1.000000;1.000000;1.000000;0.078299;-0.078299;0.078299;1.000000
445615.58190163;5696564.41159828;472.28464987;0.329412;0.388235;0.254902;23130.000000;1.000000;1.000000;1.000000;1.000000;0.081598;-0.081598;0.081598;1.000000
445615.50810249;5696564.40729912;472.25105001;0.227451;0.207843;0.160784;13621.000000;1.000000;1.000000;1.000000;1.000000;0.068726;-0.068726;0.068726;1.000000
445615.36040123;5696564.40009888;472.24655010;0.341176;0.337255;0.309804;21845.000000;1.000000;1.000000;1.000000;1.000000;-0.078976;0.078976;-0.078976;1.000000
445615.35700233;5696564.43779953;472.24454977;0.482353;0.47451;0.45098;30840.000000;1.000000;1.000000;1.000000;1.000000;-0.082375;0.082375;-0.082375;1.000000
445615.24360092;5696564.46869858;472.28405001;0.337255;0.345098;0.341176;22359.000000;1.000000;1.000000;1.000000;1.000000;-0.195776;0.195776;-0.195776;1.000000
445615.73150070;5696564.45259865;472.21274998;0.254902;0.247059;0.207843;15934.000000;1.000000;1.000000;1.000000;1.000000;-0.020376;0.020376;-0.020376;1.000000
445615.74930199;5696564.62959869;472.29015018;0.498039;0.517647;0.521569;33410.000000;1.000000;1.000000;1.000000;1.000000;-0.002575;0.002575;-0.002575;1.000000
445615.61600121;5696564.48609932;472.25215008;0.121569;0.133333;0.129412;8224.000000;1.000000;1.000000;1.000000;1.000000;0.073376;-0.073376;0.073376;1.000000
445615.57860191;5696564.48489960;472.24814989;0.0470588;0.0509804;0.0509804;3084.000000;1.000000;1.000000;1.000000;1.000000;0.110775;-0.110775;0.110775;1.000000
445615.54110153;5696564.48369987;472.24875023;0.176471;0.184314;0.180392;11822.000000;1.000000;1.000000;1.000000;1.000000;0.101725;-0.101725;0.101725;1.000000
445615.65360077;5696564.48729904;472.24924995;0.309804;0.317647;0.294118;20303.000000;1.000000;1.000000;1.000000;1.000000;0.035776;-0.035776;0.035776;1.000000
445615.72800072;5696564.49029930;472.21304991;0.513725;0.513725;0.486275;33410.000000;1.000000;1.000000;1.000000;1.000000;-0.023876;0.023876;-0.023876;1.000000
445615.61520203;5696564.52369888;472.24324991;0.827451;0.843137;0.835294;54741.000000;1.000000;1.000000;1.000000;1.000000;0.074175;-0.074175;0.074175;1.000000
445615.31550224;5696564.54669960;472.24865009;0.560784;0.537255;0.486275;35209.000000;1.000000;1.000000;1.000000;1.000000;-0.123875;0.123875;-0.123875;1.000000
445615.31650169;5696564.58389862;472.25145008;0.647059;0.631373;0.592157;41377.000000;1.000000;1.000000;1.000000;1.000000;-0.122875;0.122875;-0.122875;1.000000
445615.35100182;5696564.62519844;472.24655010;0.607843;0.611765;0.580392;39578.000000;1.000000;1.000000;1.000000;1.000000;-0.088375;0.088375;-0.088375;1.000000
445615.34930237;5696564.73499878;472.25245001;0.403922;0.435294;0.298039;26728.000000;1.000000;1.000000;1.000000;1.000000;-0.103187;0.103187;-0.103187;1.000000
445615.73560150;5696564.55699928;472.23514988;0.690196;0.694118;0.67451;45232.000000;1.000000;1.000000;1.000000;1.000000;-0.016275;0.016275;-0.016275;1.000000
445615.46430214;5696564.80639847;472.23514988;0.635294;0.623529;0.470588;39835.000000;1.000000;1.000000;1.000000;1.000000;0.023765;-0.023765;0.023765;1.000000
445615.40680130;5696564.39359863;472.23934986;0.592157;0.572549;0.54902;37522.000000;1.000000;1.000000;1.000000;1.000000;-0.032576;0.032576;-0.032576;1.000000
445615.62300117;5696564.57909973;472.23735001;0.32549;0.337255;0.356863;21845.000000;1.000000;1.000000;1.000000;1.000000;0.066376;-0.066376;0.066376;1.000000
445615.73090179;5696564.65789993;472.23614981;0.447059;0.443137;0.411765;28784.000000;1.000000;1.000000;1.000000;1.000000;-0.020975;0.020975;-0.020975;1.000000
445615.44550140;5696564.35719879;472.24064972;0.262745;0.235294;0.196078;15677.000000;1.000000;1.000000;1.000000;1.000000;0.006124;-0.006124;0.006124;1.000000
445615.71400078;5696564.82449921;472.28394987;0.627451;0.701961;0.52549;43176.000000;1.000000;1.000000;1.000000;1.000000;0.008612;-0.008612;0.008612;1.000000
445615.60060127;5696564.86079987;472.28154995;0.701961;0.772549;0.560784;47545.000000;1.000000;1.000000;1.000000;1.000000;-0.030800;0.030800;-0.030800;1.000000
445615.45150192;5696564.85169991;472.25145008;0.419608;0.431373;0.254902;26728.000000;1.000000;1.000000;1.000000;1.000000;-0.021700;0.021700;-0.021700;1.000000
445615.75310143;5696564.75139816;472.24984982;0.470588;0.482353;0.427451;30840.000000;1.000000;1.000000;1.000000;1.000000;0.030025;-0.030025;0.030025;1.000000
445615.37910088;5696564.77449997;472.24494984;0.564706;0.564706;0.415686;35723.000000;1.000000;1.000000;1.000000;1.000000;0.081936;-0.081936;0.081936;1.000000
445615.26210220;5696564.91779907;472.28554966;0.407843;0.423529;0.313725;26471.000000;1.000000;1.000000;1.000000;1.000000;-0.197826;0.197826;-0.197826;1.000000
445615.75140198;5696564.82569893;472.28795006;0.352941;0.45098;0.239216;25957.000000;1.000000;1.000000;1.000000;1.000000;-0.004301;0.004301;-0.004301;1.000000
445615.67690094;5696564.82569893;472.27994968;0.423529;0.470588;0.321569;28784.000000;1.000000;1.000000;1.000000;1.000000;0.004301;-0.004301;0.004301;1.000000
445615.49030121;5696564.81549843;472.24805023;0.737255;0.74902;0.576471;47545.000000;1.000000;1.000000;1.000000;1.000000;0.014502;-0.014502;0.014502;1.000000
445615.30410202;5696564.84379967;472.28894999;0.333333;0.407843;0.180392;23387.000000;1.000000;1.000000;1.000000;1.000000;-0.135977;0.135977;-0.135977;1.000000
445615.63090141;5696564.58769997;472.23544981;0.372549;0.384314;0.403922;24929.000000;1.000000;1.000000;1.000000;1.000000;0.058475;-0.058475;0.058475;1.000000
445615.29970177;5696564.91899879;472.28265001;0.772549;0.784314;0.65098;50115.000000;1.000000;1.000000;1.000000;1.000000;-0.165620;0.165620;-0.165620;1.000000
445615.43750198;5696564.76699837;472.22884991;0.552941;0.533333;0.419608;34438.000000;1.000000;1.000000;1.000000;1.000000;0.063030;-0.063030;0.063030;1.000000
445615.59610184;5696564.33119972;472.26804974;0.686275;0.72549;0.576471;45489.000000;1.000000;1.000000;1.000000;1.000000;0.001290;-0.001290;0.001290;1.000000
445615.66730125;5696564.34099968;472.26445009;0.576471;0.576471;0.447059;36751.000000;1.000000;1.000000;1.000000;1.000000;0.011000;-0.011000;0.011000;1.000000
445615.29840096;5696564.39849861;472.26935007;0.301961;0.313725;0.282353;20046.000000;1.000000;1.000000;1.000000;1.000000;-0.140976;0.140976;-0.140976;1.000000
445615.44320114;5696564.40429886;472.23175003;0.768627;0.752941;0.721569;49344.000000;1.000000;1.000000;1.000000;1.000000;0.003824;-0.003824;0.003824;1.000000
445615.55310066;5696564.44499977;472.26515009;0.65098;0.647059;0.580392;41891.000000;1.000000;1.000000;1.000000;1.000000;0.113724;-0.113724;0.113724;1.000000
445615.29480179;5696564.43389900;472.26734974;0.45098;0.447059;0.407843;29041.000000;1.000000;1.000000;1.000000;1.000000;-0.144575;0.144575;-0.144575;1.000000
445615.44180115;5696564.43949898;472.23215010;0.909804;0.905882;0.894118;59110.000000;1.000000;1.000000;1.000000;1.000000;0.002424;-0.002424;0.002424;1.000000
445615.54880150;5696564.55799873;472.23134996;0.101961;0.113725;0.121569;7196.000000;1.000000;1.000000;1.000000;1.000000;0.109425;-0.109425;0.109425;1.000000
445615.58510216;5696564.59439857;472.22874977;0.282353;0.294118;0.301961;19018.000000;1.000000;1.000000;1.000000;1.000000;0.104275;-0.104275;0.104275;1.000000
445615.54510124;5696564.59339912;472.23164989;0.419608;0.427451;0.419608;27756.000000;1.000000;1.000000;1.000000;1.000000;0.105724;-0.105724;0.105724;1.000000
445615.58160217;5696564.63209923;472.22905018;0.403922;0.403922;0.384314;26214.000000;1.000000;1.000000;1.000000;1.000000;0.107775;-0.107775;0.107775;1.000000
445615.61790092;5696564.67309959;472.23355009;0.239216;0.219608;0.196078;14392.000000;1.000000;1.000000;1.000000;1.000000;0.071476;-0.071476;0.071476;1.000000
445615.31930168;5696564.69559868;472.26685001;0.34902;0.356863;0.27451;22616.000000;1.000000;1.000000;1.000000;1.000000;-0.120547;0.120547;-0.120547;1.000000
445615.68960197;5696564.71319969;472.23024990;0.619608;0.619608;0.564706;40092.000000;1.000000;1.000000;1.000000;1.000000;-0.000225;0.000225;-0.000225;1.000000
445615.57930191;5696564.70709999;472.22755005;0.694118;0.678431;0.635294;44204.000000;1.000000;1.000000;1.000000;1.000000;0.110075;-0.110075;0.110075;1.000000
445615.31800087;5696564.73299988;472.26965000;0.439216;0.47451;0.298039;29041.000000;1.000000;1.000000;1.000000;1.000000;-0.130522;0.130522;-0.130522;1.000000
445615.72720154;5696564.71439941;472.22965004;0.572549;0.564706;0.513725;36751.000000;1.000000;1.000000;1.000000;1.000000;-0.037825;0.037825;-0.037825;1.000000
445615.42790230;5696564.73749931;472.22574999;0.666667;0.658824;0.588235;42662.000000;1.000000;1.000000;1.000000;1.000000;-0.054593;0.054593;-0.054593;1.000000
445615.57810219;5696564.74459847;472.22795012;0.333333;0.290196;0.2;19018.000000;1.000000;1.000000;1.000000;1.000000;0.085402;-0.085402;0.085402;1.000000
445615.42850121;5696564.77239998;472.23315002;0.627451;0.607843;0.482353;39064.000000;1.000000;1.000000;1.000000;1.000000;0.058618;-0.058618;0.058618;1.000000
445615.45750244;5696564.92329987;472.26655008;0.313725;0.337255;0.203922;20560.000000;1.000000;1.000000;1.000000;1.000000;-0.093300;0.093300;-0.093300;1.000000
445615.63740166;5696564.85729988;472.28784992;0.541176;0.607843;0.407843;37008.000000;1.000000;1.000000;1.000000;1.000000;-0.027300;0.027300;-0.027300;1.000000
445615.65270241;5696564.36549957;472.27804996;0.533333;0.564706;0.431373;35209.000000;1.000000;1.000000;1.000000;1.000000;0.035500;-0.035500;0.035500;1.000000
445615.53750237;5696564.35979851;472.27974989;0.596078;0.619608;0.494118;39064.000000;1.000000;1.000000;1.000000;1.000000;0.030118;-0.030118;0.030118;1.000000
445615.42670067;5696564.35669907;472.23974993;0.176471;0.160784;0.141176;10537.000000;1.000000;1.000000;1.000000;1.000000;-0.012676;0.012676;-0.012676;1.000000
445615.42580231;5696564.39419945;472.23554995;0.678431;0.658824;0.643137;43433.000000;1.000000;1.000000;1.000000;1.000000;-0.013575;0.013575;-0.013575;1.000000
445615.68610199;5696564.40499886;472.24044992;0.231373;0.223529;0.152941;14135.000000;1.000000;1.000000;1.000000;1.000000;-0.065775;0.065775;-0.065775;1.000000
445615.27470215;5696564.42389877;472.27794983;0.380392;0.384314;0.360784;24929.000000;1.000000;1.000000;1.000000;1.000000;-0.164675;0.164675;-0.164675;1.000000
445615.38680084;5696564.43039902;472.24114992;0.564706;0.560784;0.545098;36494.000000;1.000000;1.000000;1.000000;1.000000;-0.052576;0.052576;-0.052576;1.000000
445615.68280228;5696564.44279869;472.23605015;0.423529;0.427451;0.376471;27499.000000;1.000000;1.000000;1.000000;1.000000;0.033525;-0.033525;0.033525;1.000000
445615.27370079;5696564.46139915;472.27364971;0.564706;0.560784;0.541176;36494.000000;1.000000;1.000000;1.000000;1.000000;-0.165676;0.165676;-0.165676;1.000000
445615.42100151;5696564.46709831;472.23385002;0.560784;0.568627;0.556863;37008.000000;1.000000;1.000000;1.000000;1.000000;-0.018375;0.018375;-0.018375;1.000000
445615.38550194;5696564.46559914;472.23915007;0.780392;0.780392;0.764706;50886.000000;1.000000;1.000000;1.000000;1.000000;-0.053875;0.053875;-0.053875;1.000000
445615.45860107;5696564.47059830;472.23554995;0.819608;0.815686;0.8;53199.000000;1.000000;1.000000;1.000000;1.000000;0.019224;-0.019224;0.019224;1.000000
445615.68150146;5696564.47799881;472.23404982;0.176471;0.184314;0.164706;11565.000000;1.000000;1.000000;1.000000;1.000000;0.007875;-0.007875;0.007875;1.000000
445615.56870087;5696564.54679878;472.23444988;0.266667;0.286275;0.298039;18247.000000;1.000000;1.000000;1.000000;1.000000;0.120676;-0.120676;0.120676;1.000000
445615.34220131;5696564.57709892;472.23854973;0.623529;0.611765;0.572549;39835.000000;1.000000;1.000000;1.000000;1.000000;-0.097176;0.097176;-0.097176;1.000000
445615.37630089;5696564.61599930;472.23595001;0.92549;0.92549;0.898039;60395.000000;1.000000;1.000000;1.000000;1.000000;-0.063076;0.063076;-0.063076;1.000000
445615.26440247;5696564.68649872;472.27364971;0.498039;0.505882;0.439216;32382.000000;1.000000;1.000000;1.000000;1.000000;-0.174980;0.174980;-0.174980;1.000000
445615.29940231;5696564.68559845;472.27285006;0.654902;0.658824;0.596078;42405.000000;1.000000;1.000000;1.000000;1.000000;-0.139976;0.139976;-0.139976;1.000000
