//X;Y;Z;Rf;Gf;Bf;Intensity;Return Number;Number Of Returns;Scan Direction Flag;Point Source ID;C2M signed distances[-][<0.8];C2M signed distances[<0.4];C2M signed distances[-][<0.2];Stump65
300
445637.92440231;5696602.83139999;471.73444988;0.603922;0.607843;0.521569;39064.000000;1.000000;1.000000;1.000000;1.000000;0.001400;-0.001400;0.001400;1.000000
445637.97330292;5696602.53549774;471.69354965;0.439216;0.431373;0.356863;27756.000000;1.000000;1.000000;1.000000;1.000000;-0.096426;0.096426;-0.096426;1.000000
445638.09819992;5696602.88690002;471.78025009;0.847059;0.85098;0.823529;55255.000000;1.000000;1.000000;1.000000;1.000000;-0.056900;0.056900;-0.056900;1.000000
445637.89920242;5696602.57039841;471.69754984;0.596078;0.588235;0.509804;38036.000000;1.000000;1.000000;1.000000;1.000000;-0.022326;0.022326;-0.022326;1.000000
445638.23090179;5696602.81669815;471.75044968;0.639216;0.607843;0.552941;39835.000000;1.000000;1.000000;1.000000;1.000000;0.013302;-0.013302;0.013302;1.000000
445638.02560242;5696602.84509857;471.74844982;0.705882;0.698039;0.619608;45232.000000;1.000000;1.000000;1.000000;1.000000;0.015099;-0.015099;0.015099;1.000000
445637.94530304;5696602.34709747;471.66445019;0.654902;0.647059;0.6;42148.000000;1.000000;1.000000;1.000000;1.000000;0.040919;-0.040919;0.040919;1.000000
445638.10440262;5696602.73739822;471.74615004;0.694118;0.694118;0.658824;45232.000000;1.000000;1.000000;1.000000;1.000000;0.092602;-0.092602;0.092602;1.000000
445638.15270050;5696602.73049744;471.75054981;0.764706;0.756863;0.745098;49601.000000;1.000000;1.000000;1.000000;1.000000;-0.099503;0.099503;-0.099503;1.000000
445638.24910172;5696602.86400040;471.75645020;0.580392;0.564706;0.478431;36494.000000;1.000000;1.000000;1.000000;1.000000;0.034000;-0.034000;0.034000;1.000000
445637.93350037;5696602.40389832;471.68085005;0.533333;0.541176;0.501961;34952.000000;1.000000;1.000000;1.000000;1.000000;0.078133;-0.078133;0.078133;1.000000
445637.97870071;5696602.88939865;471.73754980;0.764706;0.768627;0.694118;49601.000000;1.000000;1.000000;1.000000;1.000000;-0.059399;0.059399;-0.059399;1.000000
445637.94240005;5696602.85069855;471.73784973;0.666667;0.67451;0.592157;43433.000000;1.000000;1.000000;1.000000;1.000000;-0.020699;0.020699;-0.020699;1.000000
445638.31400116;5696602.86699875;471.77574970;0.619608;0.615686;0.576471;40092.000000;1.000000;1.000000;1.000000;1.000000;0.048188;-0.048188;0.048188;1.000000
445638.03500183;5696602.87449844;471.75624992;0.709804;0.701961;0.643137;45489.000000;1.000000;1.000000;1.000000;1.000000;-0.044498;0.044498;-0.044498;1.000000
445638.18610199;5696602.84179886;471.75804998;0.705882;0.662745;0.584314;43690.000000;1.000000;1.000000;1.000000;1.000000;-0.011799;0.011799;-0.011799;1.000000
445637.95390137;5696602.55369766;471.69514992;0.572549;0.560784;0.490196;36237.000000;1.000000;1.000000;1.000000;1.000000;-0.077024;0.077024;-0.077024;1.000000
445638.06880005;5696602.48449905;471.69955017;0.501961;0.486275;0.423529;31611.000000;1.000000;1.000000;1.000000;1.000000;-0.191933;0.191933;-0.191933;1.000000
445637.96479996;5696602.33119782;471.66505005;0.458824;0.447059;0.396078;29041.000000;1.000000;1.000000;1.000000;1.000000;0.056686;-0.056686;0.056686;1.000000
445638.28910263;5696602.79030045;471.75274994;0.34902;0.321569;0.282353;21331.000000;1.000000;1.000000;1.000000;1.000000;-0.040147;0.040147;-0.040147;1.000000
445638.22300156;5696602.80809982;471.75234987;0.737255;0.713725;0.654902;46774.000000;1.000000;1.000000;1.000000;1.000000;0.021900;-0.021900;0.021900;1.000000
445638.39520081;5696602.68429764;471.77255013;0.294118;0.294118;0.294118;19275.000000;1.000000;1.000000;1.000000;1.000000;-0.183820;0.183820;-0.183820;1.000000
445638.07760056;5696602.31819733;471.67705013;0.580392;0.576471;0.52549;37265.000000;1.000000;1.000000;1.000000;1.000000;-0.169884;0.169884;-0.169884;1.000000
445637.89470108;5696602.68029984;471.71495010;0.643137;0.647059;0.552941;41634.000000;1.000000;1.000000;1.000000;1.000000;-0.017824;-0.017824;0.017824;1.000000
445637.96970184;5696602.68490036;471.72074987;0.709804;0.701961;0.623529;45489.000000;1.000000;1.000000;1.000000;1.000000;-0.092825;-0.092825;0.092825;1.000000
445637.87980087;5696602.58849915;471.69924976;0.572549;0.560784;0.466667;36237.000000;1.000000;1.000000;1.000000;1.000000;-0.002924;0.002924;-0.002924;1.000000
445637.88120087;5696602.55109985;471.69424965;0.686275;0.678431;0.6;43947.000000;1.000000;1.000000;1.000000;1.000000;-0.004324;0.004324;-0.004324;1.000000
445638.03440292;5696602.62069901;471.70895006;0.54902;0.541176;0.47451;34952.000000;1.000000;1.000000;1.000000;1.000000;-0.157526;0.157526;-0.157526;1.000000
445637.97070129;5696602.61039932;471.69894983;0.72549;0.705882;0.627451;46003.000000;1.000000;1.000000;1.000000;1.000000;-0.093824;0.093824;-0.093824;1.000000
445638.40990265;5696602.81609924;471.77244999;0.513725;0.498039;0.470588;32639.000000;1.000000;1.000000;1.000000;1.000000;-0.127536;0.127536;-0.127536;1.000000
445637.91270264;5696602.91399963;471.74884989;0.576471;0.580392;0.478431;37008.000000;1.000000;1.000000;1.000000;1.000000;-0.084000;0.084000;-0.084000;1.000000
445637.92010315;5696602.44009979;471.68995001;0.486275;0.486275;0.443137;31354.000000;1.000000;1.000000;1.000000;1.000000;-0.063482;0.063482;-0.063482;1.000000
445638.38890274;5696602.66620071;471.77204992;0.34902;0.345098;0.341176;22616.000000;1.000000;1.000000;1.000000;1.000000;-0.194984;0.194984;-0.194984;1.000000
445638.37950333;5696602.66480072;471.76935007;0.576471;0.564706;0.560784;37008.000000;1.000000;1.000000;1.000000;1.000000;-0.191257;0.191257;-0.191257;1.000000
445637.98900040;5696602.39649780;471.67864992;0.619608;0.615686;0.580392;40092.000000;1.000000;1.000000;1.000000;1.000000;0.104702;-0.104702;0.104702;1.000000
445637.88170059;5696602.50440033;471.69135000;0.470588;0.454902;0.337255;29041.000000;1.000000;1.000000;1.000000;1.000000;-0.004824;0.004824;-0.004824;1.000000
445638.42660339;5696602.79579742;471.77535011;0.345098;0.32549;0.301961;21331.000000;1.000000;1.000000;1.000000;1.000000;-0.147497;0.147497;-0.147497;1.000000
445637.95400055;5696602.82399948;471.73565008;0.435294;0.439216;0.34902;28013.000000;1.000000;1.000000;1.000000;1.000000;0.006001;-0.006001;0.006001;1.000000
445638.10270126;5696602.83059891;471.77045013;0.909804;0.909804;0.878431;59367.000000;1.000000;1.000000;1.000000;1.000000;-0.000599;0.000599;-0.000599;1.000000
445637.91640289;5696602.82279785;471.73635008;0.611765;0.615686;0.533333;39578.000000;1.000000;1.000000;1.000000;1.000000;0.007202;-0.007202;0.007202;1.000000
445637.91769989;5696602.78529938;471.73355009;0.596078;0.596078;0.54902;38550.000000;1.000000;1.000000;1.000000;1.000000;-0.040823;-0.040823;0.040823;1.000000
445637.97070129;5696602.40279968;471.68254997;0.698039;0.698039;0.666667;45489.000000;1.000000;1.000000;1.000000;1.000000;0.095997;-0.095997;0.095997;1.000000
445637.99260147;5696602.78759964;471.73705008;0.482353;0.482353;0.419608;31097.000000;1.000000;1.000000;1.000000;1.000000;-0.042400;0.042400;-0.042400;1.000000
445638.06540115;5696602.79030045;471.73565008;0.666667;0.670588;0.596078;43176.000000;1.000000;1.000000;1.000000;1.000000;0.039700;-0.039700;0.039700;1.000000
445638.11440094;5696602.74799927;471.75365021;0.627451;0.627451;0.6;40863.000000;1.000000;1.000000;1.000000;1.000000;0.082001;-0.082001;0.082001;1.000000
445637.98110016;5696602.81439789;471.73675014;0.439216;0.435294;0.34902;27756.000000;1.000000;1.000000;1.000000;1.000000;0.015602;-0.015602;0.015602;1.000000
445638.02710159;5696602.83569916;471.74615004;0.662745;0.65098;0.560784;42148.000000;1.000000;1.000000;1.000000;1.000000;0.005699;-0.005699;0.005699;1.000000
445638.00020035;5696602.60069855;471.70015003;0.690196;0.67451;0.584314;43690.000000;1.000000;1.000000;1.000000;1.000000;-0.123323;0.123323;-0.123323;1.000000
445637.92640121;5696602.56080063;471.69864990;0.576471;0.564706;0.505882;36751.000000;1.000000;1.000000;1.000000;1.000000;-0.049524;0.049524;-0.049524;1.000000
445638.00180252;5696602.56559952;471.69514992;0.4;0.388235;0.282353;24672.000000;1.000000;1.000000;1.000000;1.000000;-0.124926;0.124926;-0.124926;1.000000
445638.00410278;5696602.91939743;471.75534966;0.658824;0.670588;0.560784;42919.000000;1.000000;1.000000;1.000000;1.000000;-0.089397;0.089397;-0.089397;1.000000
445637.92749985;5696602.52329834;471.69834997;0.552941;0.537255;0.47451;34952.000000;1.000000;1.000000;1.000000;1.000000;-0.050623;0.050623;-0.050623;1.000000
445637.92889984;5696602.48819931;471.69794991;0.509804;0.501961;0.431373;32382.000000;1.000000;1.000000;1.000000;1.000000;-0.052023;0.052023;-0.052023;1.000000
445637.96770294;5696602.45189865;471.69694998;0.764706;0.760784;0.729412;49601.000000;1.000000;1.000000;1.000000;1.000000;-0.097177;0.097177;-0.097177;1.000000
445637.97290237;5696602.34219940;471.66324999;0.47451;0.466667;0.415686;30326.000000;1.000000;1.000000;1.000000;1.000000;0.065914;-0.065914;0.065914;1.000000
445638.40410049;5696602.73019989;471.77355005;0.356863;0.34902;0.337255;22873.000000;1.000000;1.000000;1.000000;1.000000;-0.156827;0.156827;-0.156827;1.000000
445638.29450043;5696602.68960007;471.73544981;0.607843;0.588235;0.556863;38550.000000;1.000000;1.000000;1.000000;1.000000;-0.140860;0.140860;-0.140860;1.000000
445638.22080048;5696602.86189850;471.75754978;0.701961;0.67451;0.584314;43947.000000;1.000000;1.000000;1.000000;1.000000;-0.031898;0.031898;-0.031898;1.000000
445637.87730225;5696602.42779739;471.68094971;0.584314;0.584314;0.541176;37779.000000;1.000000;1.000000;1.000000;1.000000;-0.058973;0.058973;-0.058973;1.000000
445638.33710297;5696602.75539978;471.75684978;0.584314;0.576471;0.556863;37779.000000;1.000000;1.000000;1.000000;1.000000;-0.092079;0.092079;-0.092079;1.000000
445638.41320236;5696602.70360001;471.77594997;0.321569;0.317647;0.321569;20817.000000;1.000000;1.000000;1.000000;1.000000;-0.181374;0.181374;-0.181374;1.000000
445637.97070129;5696602.85280045;471.73675014;0.576471;0.576471;0.509804;37265.000000;1.000000;1.000000;1.000000;1.000000;-0.022800;0.022800;-0.022800;1.000000
445638.11930283;5696602.85939987;471.77384998;0.647059;0.635294;0.6;41377.000000;1.000000;1.000000;1.000000;1.000000;0.029400;-0.029400;0.029400;1.000000
445638.08150299;5696602.85589798;471.77444984;0.784314;0.784314;0.74902;51143.000000;1.000000;1.000000;1.000000;1.000000;-0.025898;0.025898;-0.025898;1.000000
445637.97190292;5696602.81529816;471.73635008;0.431373;0.427451;0.345098;27242.000000;1.000000;1.000000;1.000000;1.000000;0.014702;-0.014702;0.014702;1.000000
445637.97300156;5696602.77779968;471.73595001;0.623529;0.623529;0.576471;40349.000000;1.000000;1.000000;1.000000;1.000000;0.052200;-0.052200;0.052200;1.000000
445638.01060303;5696602.77899750;471.73535015;0.764706;0.764706;0.705882;49601.000000;1.000000;1.000000;1.000000;1.000000;0.051003;-0.051003;0.051003;1.000000
445638.08320053;5696602.78159912;471.73864986;0.635294;0.635294;0.568627;41120.000000;1.000000;1.000000;1.000000;1.000000;0.048401;-0.048401;0.048401;1.000000
445638.04850204;5696602.78249939;471.73245003;0.67451;0.67451;0.596078;43433.000000;1.000000;1.000000;1.000000;1.000000;0.047501;-0.047501;0.047501;1.000000
445638.08710297;5696602.74619873;471.73374989;0.694118;0.686275;0.631373;44718.000000;1.000000;1.000000;1.000000;1.000000;-0.083801;0.083801;-0.083801;1.000000
445637.98090179;5696602.59319885;471.69684984;0.694118;0.682353;0.592157;44204.000000;1.000000;1.000000;1.000000;1.000000;-0.104025;0.104025;-0.104025;1.000000
445637.94440277;5696602.55219849;471.69474985;0.537255;0.52549;0.462745;34181.000000;1.000000;1.000000;1.000000;1.000000;-0.067526;0.067526;-0.067526;1.000000
445637.90929993;5696602.55309875;471.69784977;0.501961;0.498039;0.439216;32125.000000;1.000000;1.000000;1.000000;1.000000;-0.032423;0.032423;-0.032423;1.000000
445638.01950272;5696602.55689819;471.69824984;0.647059;0.635294;0.545098;41120.000000;1.000000;1.000000;1.000000;1.000000;-0.142626;0.142626;-0.142626;1.000000
445637.94790085;5696602.51679810;471.69915010;0.470588;0.462745;0.4;29812.000000;1.000000;1.000000;1.000000;1.000000;-0.071024;0.071024;-0.071024;1.000000
445637.95030029;5696602.44179733;471.69834997;0.917647;0.913725;0.886275;59624.000000;1.000000;1.000000;1.000000;1.000000;-0.085922;0.085922;-0.085922;1.000000
445638.30480011;5696602.86789902;471.77304985;0.603922;0.603922;0.564706;39064.000000;1.000000;1.000000;1.000000;1.000000;0.043658;-0.043658;0.043658;1.000000
445638.31229980;5696602.68089874;471.73624994;0.509804;0.490196;0.466667;32125.000000;1.000000;1.000000;1.000000;1.000000;-0.151928;0.151928;-0.151928;1.000000
445638.31350143;5696602.64340027;471.73584988;0.392157;0.376471;0.34902;24672.000000;1.000000;1.000000;1.000000;1.000000;-0.189056;0.189056;-0.189056;1.000000
445637.94810303;5696602.91539963;471.74585011;0.584314;0.6;0.482353;38036.000000;1.000000;1.000000;1.000000;1.000000;-0.085400;0.085400;-0.085400;1.000000
445637.98740204;5696602.43390091;471.68825008;0.647059;0.639216;0.603922;41634.000000;1.000000;1.000000;1.000000;1.000000;-0.122456;0.122456;-0.122456;1.000000
445637.92040070;5696602.49600037;471.69535019;0.611765;0.6;0.52549;38807.000000;1.000000;1.000000;1.000000;1.000000;-0.043524;0.043524;-0.043524;1.000000
445637.95330246;5696602.57239731;471.69535019;0.545098;0.533333;0.45098;34438.000000;1.000000;1.000000;1.000000;1.000000;-0.076426;0.076426;-0.076426;1.000000
445638.02810104;5696602.57469757;471.70114996;0.537255;0.52549;0.427451;33924.000000;1.000000;1.000000;1.000000;1.000000;-0.151224;0.151224;-0.151224;1.000000
445638.36040314;5696602.86949738;471.78954985;0.913725;0.917647;0.882353;59624.000000;1.000000;1.000000;1.000000;1.000000;0.086785;-0.086785;0.086785;1.000000
445637.92920120;5696602.91480072;471.74725010;0.568627;0.580392;0.47451;37008.000000;1.000000;1.000000;1.000000;1.000000;0.084801;-0.084801;0.084801;1.000000
445638.05550201;5696602.87470062;471.76884987;0.490196;0.486275;0.439216;31354.000000;1.000000;1.000000;1.000000;1.000000;0.044701;-0.044701;0.044701;1.000000
445638.12790115;5696602.87729843;471.77444984;0.541176;0.52549;0.478431;34181.000000;1.000000;1.000000;1.000000;1.000000;-0.047298;0.047298;-0.047298;1.000000
445638.16349991;5696602.88099869;471.77145006;0.682353;0.643137;0.568627;42148.000000;1.000000;1.000000;1.000000;1.000000;-0.050999;0.050999;-0.050999;1.000000
445638.24600037;5696602.69639786;471.73574974;0.498039;0.486275;0.462745;31868.000000;1.000000;1.000000;1.000000;1.000000;-0.133602;0.133602;-0.133602;1.000000
445638.34340103;5696602.85949905;471.78165009;0.533333;0.529412;0.498039;34438.000000;1.000000;1.000000;1.000000;1.000000;0.067106;-0.067106;0.067106;1.000000
445638.45820053;5696602.78809937;471.78364994;0.352941;0.345098;0.329412;22616.000000;1.000000;1.000000;1.000000;1.000000;-0.180018;0.180018;-0.180018;1.000000
445638.42970093;5696602.77919968;471.77524998;0.72549;0.717647;0.694118;46774.000000;1.000000;1.000000;1.000000;1.000000;-0.155128;0.155128;-0.155128;1.000000
445638.29860123;5696602.79170044;471.75324966;0.352941;0.329412;0.290196;21588.000000;1.000000;1.000000;1.000000;1.000000;-0.041308;0.041308;-0.041308;1.000000
445638.30010040;5696602.75659760;471.75054981;0.337255;0.329412;0.313725;21588.000000;1.000000;1.000000;1.000000;1.000000;-0.075339;0.075339;-0.075339;1.000000
445637.87290009;5696602.48419769;471.68835022;0.435294;0.423529;0.313725;26985.000000;1.000000;1.000000;1.000000;1.000000;0.004663;-0.004663;0.004663;1.000000
445637.90180023;5696602.70989807;471.72265007;0.643137;0.666667;0.560784;42405.000000;1.000000;1.000000;1.000000;1.000000;-0.024923;-0.024923;0.024923;1.000000
445637.90040024;5696602.74729736;471.72765018;0.431373;0.443137;0.380392;28270.000000;1.000000;1.000000;1.000000;1.000000;-0.023523;-0.023523;0.023523;1.000000
445637.93930252;5696602.71100052;471.72434999;0.729412;0.741176;0.678431;47802.000000;1.000000;1.000000;1.000000;1.000000;-0.062426;-0.062426;0.062426;1.000000
445637.97440155;5696602.71240051;471.72594978;0.580392;0.576471;0.509804;37265.000000;1.000000;1.000000;1.000000;1.000000;-0.097525;-0.097525;0.097525;1.000000
445638.04150208;5696602.89940079;471.76615002;0.52549;0.529412;0.458824;33924.000000;1.000000;1.000000;1.000000;1.000000;-0.069401;0.069401;-0.069401;1.000000
445638.22870071;5696602.87280090;471.76034977;0.631373;0.611765;0.52549;39835.000000;1.000000;1.000000;1.000000;1.000000;-0.042801;0.042801;-0.042801;1.000000
445638.44260223;5696602.72400101;471.78914978;0.443137;0.443137;0.427451;28784.000000;1.000000;1.000000;1.000000;1.000000;-0.191489;0.191489;-0.191489;1.000000
445638.34720047;5696602.76600082;471.76205017;0.54902;0.537255;0.517647;35209.000000;1.000000;1.000000;1.000000;1.000000;-0.090561;0.090561;-0.090561;1.000000
445638.36650284;5696602.71990021;471.75775005;0.521569;0.509804;0.498039;33410.000000;1.000000;1.000000;1.000000;1.000000;-0.138107;0.138107;-0.138107;1.000000
445638.00570114;5696602.88209732;471.74574997;0.717647;0.721569;0.658824;46517.000000;1.000000;1.000000;1.000000;1.000000;-0.052097;0.052097;-0.052097;1.000000
445638.19700058;5696602.77789886;471.74844982;0.564706;0.541176;0.498039;35466.000000;1.000000;1.000000;1.000000;1.000000;0.052101;-0.052101;0.052101;1.000000
445638.27219971;5696602.78029831;471.74484970;0.701961;0.686275;0.643137;44718.000000;1.000000;1.000000;1.000000;1.000000;-0.049702;0.049702;-0.049702;1.000000
445637.90559967;5696602.58849915;471.69805004;0.647059;0.627451;0.541176;40863.000000;1.000000;1.000000;1.000000;1.000000;-0.028723;0.028723;-0.028723;1.000000
445637.91030319;5696602.51330002;471.69745018;0.65098;0.639216;0.556863;41377.000000;1.000000;1.000000;1.000000;1.000000;-0.033426;0.033426;-0.033426;1.000000
445637.98220261;5696602.55570038;471.69414999;0.388235;0.376471;0.290196;24158.000000;1.000000;1.000000;1.000000;1.000000;-0.105326;0.105326;-0.105326;1.000000
445638.01820190;5696602.59429749;471.70095016;0.447059;0.435294;0.333333;28013.000000;1.000000;1.000000;1.000000;1.000000;-0.141325;0.141325;-0.141325;1.000000
445638.04560287;5696602.89430054;471.76865007;0.486275;0.494118;0.443137;31611.000000;1.000000;1.000000;1.000000;1.000000;-0.064301;0.064301;-0.064301;1.000000
445638.15530212;5696602.89570053;471.77594997;0.705882;0.678431;0.607843;44461.000000;1.000000;1.000000;1.000000;1.000000;0.065701;-0.065701;0.065701;1.000000
445638.19090088;5696602.89949997;471.77294971;0.423529;0.392157;0.301961;25443.000000;1.000000;1.000000;1.000000;1.000000;-0.069500;0.069500;-0.069500;1.000000
445638.38110168;5696602.83279999;471.77134993;0.592157;0.576471;0.541176;37779.000000;1.000000;1.000000;1.000000;1.000000;0.098015;-0.098015;0.098015;1.000000
445638.42090042;5696602.75900085;471.77234985;0.647059;0.639216;0.615686;41634.000000;1.000000;1.000000;1.000000;1.000000;-0.154992;0.154992;-0.154992;1.000000
445637.90410049;5696602.65379913;471.71044971;0.701961;0.694118;0.623529;44975.000000;1.000000;1.000000;1.000000;1.000000;-0.027224;0.027224;-0.027224;1.000000
445638.01440247;5696602.65759857;471.71084978;0.870588;0.862745;0.792157;56026.000000;1.000000;1.000000;1.000000;1.000000;-0.137526;0.137526;-0.137526;1.000000
445637.92080124;5696602.71279724;471.72354986;0.494118;0.517647;0.423529;32639.000000;1.000000;1.000000;1.000000;1.000000;-0.043924;-0.043924;0.043924;1.000000
445638.33419998;5696602.64599808;471.75075008;0.533333;0.513725;0.494118;33667.000000;1.000000;1.000000;1.000000;1.000000;-0.190959;0.190959;-0.190959;1.000000
445637.97910126;5696602.65619858;471.71154978;0.576471;0.564706;0.486275;36494.000000;1.000000;1.000000;1.000000;1.000000;-0.102224;0.102224;-0.102224;1.000000
445637.96930130;5696602.88789948;471.73714973;0.662745;0.666667;0.592157;42919.000000;1.000000;1.000000;1.000000;1.000000;0.057899;-0.057899;0.057899;1.000000
445637.93560226;5696602.77659805;471.73425009;0.537255;0.541176;0.498039;34952.000000;1.000000;1.000000;1.000000;1.000000;-0.053402;0.053402;-0.053402;1.000000
445638.34360321;5696602.83159836;471.77204992;0.552941;0.541176;0.509804;35466.000000;1.000000;1.000000;1.000000;1.000000;0.060497;-0.060497;0.060497;1.000000
445637.91550262;5696602.35669907;471.67014982;0.576471;0.576471;0.52549;37265.000000;1.000000;1.000000;1.000000;1.000000;0.027699;-0.027699;0.027699;1.000000
445638.31480225;5696602.82039841;471.76354982;0.341176;0.313725;0.278431;20817.000000;1.000000;1.000000;1.000000;1.000000;-0.033099;0.033099;-0.033099;1.000000
445638.05970200;5696602.48539932;471.69684984;0.52549;0.513725;0.447059;33410.000000;1.000000;1.000000;1.000000;1.000000;-0.182828;0.182828;-0.182828;1.000000
445638.35659988;5696602.66480072;471.75894978;0.341176;0.321569;0.305882;21331.000000;1.000000;1.000000;1.000000;1.000000;-0.180801;0.180801;-0.180801;1.000000
445638.19340332;5696602.84350021;471.75604965;0.639216;0.596078;0.513725;39064.000000;1.000000;1.000000;1.000000;1.000000;-0.013500;0.013500;-0.013500;1.000000
445638.23230179;5696602.80719955;471.75035002;0.670588;0.647059;0.596078;42405.000000;1.000000;1.000000;1.000000;1.000000;0.022800;-0.022800;0.022800;1.000000
445637.97930344;5696602.87059982;471.73735001;0.690196;0.698039;0.631373;44975.000000;1.000000;1.000000;1.000000;1.000000;-0.040600;0.040600;-0.040600;1.000000
445638.02919968;5696602.32279785;471.67254974;0.588235;0.584314;0.529412;37779.000000;1.000000;1.000000;1.000000;1.000000;-0.121287;0.121287;-0.121287;1.000000
445637.94429977;5696602.79450043;471.73484995;0.47451;0.466667;0.415686;30326.000000;1.000000;1.000000;1.000000;1.000000;0.035500;-0.035500;0.035500;1.000000
445638.38820084;5696602.68269928;471.76994993;0.486275;0.482353;0.478431;31611.000000;1.000000;1.000000;1.000000;1.000000;-0.180937;0.180937;-0.180937;1.000000
445638.05460175;5696602.80060013;471.73764994;0.737255;0.733333;0.658824;47545.000000;1.000000;1.000000;1.000000;1.000000;0.029400;-0.029400;0.029400;1.000000
445638.20320328;5696602.82390030;471.75624992;0.631373;0.6;0.529412;39321.000000;1.000000;1.000000;1.000000;1.000000;0.006100;-0.006100;0.006100;1.000000
445638.06310089;5696602.63189896;471.71735003;0.623529;0.611765;0.560784;39835.000000;1.000000;1.000000;1.000000;1.000000;-0.186224;0.186224;-0.186224;1.000000
445638.00480087;5696602.90069778;471.75285007;0.631373;0.639216;0.560784;41120.000000;1.000000;1.000000;1.000000;1.000000;-0.070698;0.070698;-0.070698;1.000000
445637.88530167;5696602.43879898;471.68144991;0.533333;0.529412;0.478431;34181.000000;1.000000;1.000000;1.000000;1.000000;-0.048697;0.048697;-0.048697;1.000000
445638.12210281;5696602.75659760;471.75645020;0.796078;0.792157;0.768627;51657.000000;1.000000;1.000000;1.000000;1.000000;-0.073402;0.073402;-0.073402;1.000000
445638.04969986;5696602.71489914;471.72004988;0.72549;0.701961;0.611765;45746.000000;1.000000;1.000000;1.000000;1.000000;0.115101;-0.115101;0.115101;1.000000
445637.94080170;5696602.67359741;471.71694996;0.603922;0.596078;0.513725;38550.000000;1.000000;1.000000;1.000000;1.000000;-0.063925;0.063925;-0.063925;1.000000
445638.01000031;5696602.79770096;471.73554995;0.470588;0.458824;0.380392;29555.000000;1.000000;1.000000;1.000000;1.000000;0.032299;-0.032299;0.032299;1.000000
445637.95250137;5696602.83339890;471.73574974;0.52549;0.52549;0.443137;33667.000000;1.000000;1.000000;1.000000;1.000000;-0.003399;0.003399;-0.003399;1.000000
445638.10120209;5696602.84009750;471.77285006;0.870588;0.870588;0.843137;56797.000000;1.000000;1.000000;1.000000;1.000000;-0.010098;0.010098;-0.010098;1.000000
445637.91629990;5696602.79479797;471.73364975;0.533333;0.537255;0.482353;34695.000000;1.000000;1.000000;1.000000;1.000000;0.035202;-0.035202;0.035202;1.000000
445637.87600143;5696602.41169937;471.67604973;0.627451;0.631373;0.588235;40863.000000;1.000000;1.000000;1.000000;1.000000;0.075170;-0.075170;0.075170;1.000000
445637.91980179;5696602.75709732;471.73334982;0.678431;0.686275;0.643137;44461.000000;1.000000;1.000000;1.000000;1.000000;-0.042925;-0.042925;0.042925;1.000000
445638.03000076;5696602.76090057;471.73374989;0.572549;0.572549;0.501961;37008.000000;1.000000;1.000000;1.000000;1.000000;-0.069099;0.069099;-0.069099;1.000000
445637.88840302;5696602.60629852;471.70214989;0.67451;0.658824;0.564706;42662.000000;1.000000;1.000000;1.000000;1.000000;-0.011526;0.011526;-0.011526;1.000000
445637.92370041;5696602.60779770;471.69915010;0.690196;0.67451;0.588235;43690.000000;1.000000;1.000000;1.000000;1.000000;-0.046824;0.046824;-0.046824;1.000000
445637.99870117;5696602.61009796;471.70025017;0.717647;0.701961;0.619608;45489.000000;1.000000;1.000000;1.000000;1.000000;-0.121824;0.121824;-0.121824;1.000000
445637.96290024;5696602.57390030;471.69354965;0.666667;0.65098;0.568627;42148.000000;1.000000;1.000000;1.000000;1.000000;-0.086023;0.086023;-0.086023;1.000000
445637.94550140;5696602.75699814;471.73455002;0.694118;0.701961;0.662745;45489.000000;1.000000;1.000000;1.000000;1.000000;-0.068624;-0.068624;0.068624;1.000000
445637.92510040;5696602.57259949;471.69875004;0.615686;0.603922;0.529412;39064.000000;1.000000;1.000000;1.000000;1.000000;-0.048223;0.048223;-0.048223;1.000000
445638.00250061;5696602.57480057;471.69764997;0.435294;0.423529;0.309804;26985.000000;1.000000;1.000000;1.000000;1.000000;-0.125624;0.125624;-0.125624;1.000000
445637.92870148;5696602.53489883;471.69614985;0.423529;0.407843;0.341176;26471.000000;1.000000;1.000000;1.000000;1.000000;-0.051825;0.051825;-0.051825;1.000000
445638.31220062;5696602.70879944;471.74585011;0.654902;0.643137;0.627451;42148.000000;1.000000;1.000000;1.000000;1.000000;-0.124639;0.124639;-0.124639;1.000000
445638.00010117;5696602.38849838;471.67665007;0.662745;0.658824;0.627451;42919.000000;1.000000;1.000000;1.000000;1.000000;0.109001;-0.109001;0.109001;1.000000
445638.03880127;5696602.53869827;471.69885017;0.490196;0.482353;0.423529;31097.000000;1.000000;1.000000;1.000000;1.000000;-0.161924;0.161924;-0.161924;1.000000
445637.92980011;5696602.49740036;471.69805004;0.643137;0.635294;0.564706;41120.000000;1.000000;1.000000;1.000000;1.000000;-0.052923;0.052923;-0.052923;1.000000
445637.93100174;5696602.45999725;471.69775011;0.427451;0.415686;0.372549;26985.000000;1.000000;1.000000;1.000000;1.000000;-0.060239;0.060239;-0.060239;1.000000
445637.96850021;5696602.46119888;471.69705011;0.709804;0.705882;0.662745;46003.000000;1.000000;1.000000;1.000000;1.000000;-0.095040;0.095040;-0.095040;1.000000
445638.27600296;5696602.88459976;471.77194979;0.666667;0.678431;0.607843;43690.000000;1.000000;1.000000;1.000000;1.000000;0.054600;-0.054600;0.054600;1.000000
445637.97130020;5696602.34929855;471.66324999;0.568627;0.556863;0.509804;36237.000000;1.000000;1.000000;1.000000;1.000000;0.066055;-0.066055;0.066055;1.000000
445638.31480225;5696602.84829910;471.77094986;0.623529;0.611765;0.576471;39835.000000;1.000000;1.000000;1.000000;1.000000;0.036581;-0.036581;0.036581;1.000000
445637.94310196;5696602.58970078;471.69745018;0.47451;0.458824;0.364706;29555.000000;1.000000;1.000000;1.000000;1.000000;-0.066225;0.066225;-0.066225;1.000000
445637.94900330;5696602.47929962;471.70104982;0.627451;0.619608;0.560784;40092.000000;1.000000;1.000000;1.000000;1.000000;-0.072473;0.072473;-0.072473;1.000000
445638.40050323;5696602.81469925;471.76975014;0.517647;0.501961;0.47451;32896.000000;1.000000;1.000000;1.000000;1.000000;-0.118369;0.118369;-0.118369;1.000000
445638.40300186;5696602.74199875;471.77134993;0.286275;0.278431;0.262745;18247.000000;1.000000;1.000000;1.000000;1.000000;-0.148709;0.148709;-0.148709;1.000000
445637.95200165;5696602.60980042;471.69815018;0.576471;0.560784;0.47451;36237.000000;1.000000;1.000000;1.000000;1.000000;-0.075125;0.075125;-0.075125;1.000000
445637.91450317;5696602.60859879;471.69875004;0.737255;0.721569;0.631373;46774.000000;1.000000;1.000000;1.000000;1.000000;-0.037626;0.037626;-0.037626;1.000000
445638.03320129;5696602.50189789;471.69584991;0.65098;0.639216;0.576471;41634.000000;1.000000;1.000000;1.000000;1.000000;-0.156324;0.156324;-0.156324;1.000000
445638.07180222;5696602.46560104;471.69714977;0.556863;0.54902;0.490196;35466.000000;1.000000;1.000000;1.000000;1.000000;-0.196037;0.196037;-0.196037;1.000000
445638.34250076;5696602.87819870;471.78884985;0.47451;0.478431;0.45098;30840.000000;1.000000;1.000000;1.000000;1.000000;0.076475;-0.076475;0.076475;1.000000
445638.00930222;5696602.81649979;471.73805000;0.580392;0.568627;0.470588;36751.000000;1.000000;1.000000;1.000000;1.000000;0.013500;-0.013500;0.013500;1.000000
445637.93290146;5696602.84919937;471.73735001;0.631373;0.643137;0.552941;41120.000000;1.000000;1.000000;1.000000;1.000000;0.019199;-0.019199;0.019199;1.000000
445637.93440063;5696602.81410034;471.73465015;0.423529;0.423529;0.345098;26985.000000;1.000000;1.000000;1.000000;1.000000;-0.015900;0.015900;-0.015900;1.000000
445638.01480301;5696602.90909775;471.75575020;0.615686;0.619608;0.52549;39835.000000;1.000000;1.000000;1.000000;1.000000;-0.079098;0.079098;-0.079098;1.000000
445637.94170197;5696602.62710007;471.70254995;0.682353;0.662745;0.588235;43176.000000;1.000000;1.000000;1.000000;1.000000;-0.064825;0.064825;-0.064825;1.000000
445638.07570084;5696602.58659943;471.70575001;0.505882;0.498039;0.458824;32382.000000;1.000000;1.000000;1.000000;1.000000;-0.198824;0.198824;-0.198824;1.000000
445638.43860062;5696602.75259979;471.78235008;0.666667;0.670588;0.643137;43433.000000;1.000000;1.000000;1.000000;1.000000;-0.173675;0.173675;-0.173675;1.000000
445638.43729980;5696602.78779800;471.78035023;0.733333;0.729412;0.705882;47545.000000;1.000000;1.000000;1.000000;1.000000;-0.159845;0.159845;-0.159845;1.000000
445638.26799973;5696602.83889969;471.75234987;0.466667;0.443137;0.392157;29041.000000;1.000000;1.000000;1.000000;1.000000;0.008900;-0.008900;0.008900;1.000000
445638.19610031;5696602.79649933;471.75324966;0.682353;0.662745;0.607843;43176.000000;1.000000;1.000000;1.000000;1.000000;0.033501;-0.033501;0.033501;1.000000
445638.47490128;5696602.79120071;471.78214981;0.411765;0.403922;0.384314;26471.000000;1.000000;1.000000;1.000000;1.000000;-0.195660;0.195660;-0.195660;1.000000
445638.45530136;5696602.80929764;471.78844978;0.27451;0.266667;0.243137;17219.000000;1.000000;1.000000;1.000000;1.000000;-0.173415;0.173415;-0.173415;1.000000
445638.03410156;5696602.89319809;471.76345016;0.498039;0.498039;0.439216;32125.000000;1.000000;1.000000;1.000000;1.000000;-0.063198;0.063198;-0.063198;1.000000
445638.02029999;5696602.72459991;471.71884968;0.694118;0.678431;0.607843;44204.000000;1.000000;1.000000;1.000000;1.000000;0.105400;-0.105400;0.105400;1.000000
445638.13390167;5696602.72989853;471.75204994;0.913725;0.913725;0.898039;59624.000000;1.000000;1.000000;1.000000;1.000000;0.100101;-0.100101;0.100101;1.000000
445638.34990128;5696602.69119843;471.75435020;0.654902;0.639216;0.627451;41891.000000;1.000000;1.000000;1.000000;1.000000;-0.154028;0.154028;-0.154028;1.000000
445637.99470337;5696602.91799744;471.75495007;0.611765;0.627451;0.517647;39835.000000;1.000000;1.000000;1.000000;1.000000;0.087997;-0.087997;0.087997;1.000000
445638.22260101;5696602.85479935;471.75514986;0.709804;0.678431;0.6;44461.000000;1.000000;1.000000;1.000000;1.000000;-0.024799;0.024799;-0.024799;1.000000
445638.07620056;5696602.81239899;471.75035002;0.729412;0.72549;0.662745;47031.000000;1.000000;1.000000;1.000000;1.000000;0.017601;-0.017601;0.017601;1.000000
445638.15200241;5696602.77720078;471.75804998;0.560784;0.54902;0.521569;35980.000000;1.000000;1.000000;1.000000;1.000000;-0.052799;0.052799;-0.052799;1.000000
445638.18760117;5696602.77869995;471.75035002;0.541176;0.521569;0.486275;34181.000000;1.000000;1.000000;1.000000;1.000000;0.051300;-0.051300;0.051300;1.000000
445638.07680328;5696602.54910095;471.70764973;0.792157;0.776471;0.737255;50886.000000;1.000000;1.000000;1.000000;1.000000;-0.199926;0.199926;-0.199926;1.000000
445637.89250000;5696602.73639877;471.72485020;0.25098;0.270588;0.188235;16705.000000;1.000000;1.000000;1.000000;1.000000;-0.015623;0.015623;-0.015623;1.000000
445637.98620041;5696602.68569763;471.71915009;0.623529;0.619608;0.533333;39835.000000;1.000000;1.000000;1.000000;1.000000;-0.109324;-0.109324;0.109324;1.000000
445638.00300034;5696602.74249847;471.72524979;0.52549;0.517647;0.454902;33410.000000;1.000000;1.000000;1.000000;1.000000;0.087502;-0.087502;0.087502;1.000000
445638.40060242;5696602.78679855;471.76244976;0.545098;0.537255;0.509804;34952.000000;1.000000;1.000000;1.000000;1.000000;-0.125167;0.125167;-0.125167;1.000000
445638.39690216;5696602.70279892;471.77285006;0.47451;0.462745;0.462745;30326.000000;1.000000;1.000000;1.000000;1.000000;-0.170660;0.170660;-0.170660;1.000000
445637.91030319;5696602.69980057;471.72055008;0.643137;0.658824;0.556863;41891.000000;1.000000;1.000000;1.000000;1.000000;-0.033426;-0.033426;0.033426;1.000000
445638.41970261;5696602.79649933;471.77274992;0.313725;0.298039;0.27451;19532.000000;1.000000;1.000000;1.000000;1.000000;-0.140624;0.140624;-0.140624;1.000000
445638.12360199;5696602.74719818;471.75645020;0.776471;0.776471;0.752941;50629.000000;1.000000;1.000000;1.000000;1.000000;-0.082802;0.082802;-0.082802;1.000000
445638.05130203;5696602.70540054;471.71775009;0.729412;0.713725;0.623529;46260.000000;1.000000;1.000000;1.000000;1.000000;0.124599;-0.124599;0.124599;1.000000
445637.94000061;5696602.66440018;471.71455004;0.603922;0.592157;0.517647;38293.000000;1.000000;1.000000;1.000000;1.000000;-0.063124;0.063124;-0.063124;1.000000
445638.10519989;5696602.77459915;471.75355007;0.72549;0.72549;0.686275;47031.000000;1.000000;1.000000;1.000000;1.000000;0.055401;-0.055401;0.055401;1.000000
445638.03170212;5696602.69560059;471.71674969;0.639216;0.623529;0.537255;40349.000000;1.000000;1.000000;1.000000;1.000000;-0.134399;0.134399;-0.134399;1.000000
445638.09589966;5696602.80340012;471.76044991;0.694118;0.694118;0.639216;44975.000000;1.000000;1.000000;1.000000;1.000000;0.026600;-0.026600;0.026600;1.000000
445637.95710190;5696602.70239838;471.72504999;0.784314;0.788235;0.717647;50886.000000;1.000000;1.000000;1.000000;1.000000;-0.080225;-0.080225;0.080225;1.000000
445638.00710114;5696602.44370087;471.68695023;0.384314;0.372549;0.333333;24158.000000;1.000000;1.000000;1.000000;1.000000;-0.137125;0.137125;-0.137125;1.000000
445638.00580032;5696602.48119934;471.68965008;0.517647;0.509804;0.447059;32896.000000;1.000000;1.000000;1.000000;1.000000;-0.129037;0.129037;-0.129037;1.000000
445637.92530258;5696602.59829910;471.69675018;0.643137;0.627451;0.541176;40606.000000;1.000000;1.000000;1.000000;1.000000;-0.048426;0.048426;-0.048426;1.000000
445638.27350052;5696602.71719940;471.73955013;0.705882;0.701961;0.67451;45746.000000;1.000000;1.000000;1.000000;1.000000;-0.112801;0.112801;-0.112801;1.000000
445637.96270187;5696602.59950073;471.69845011;0.647059;0.635294;0.545098;41120.000000;1.000000;1.000000;1.000000;1.000000;-0.085825;0.085825;-0.085825;1.000000
445638.03670319;5696602.56690033;471.70144989;0.611765;0.6;0.521569;38807.000000;1.000000;1.000000;1.000000;1.000000;-0.159826;0.159826;-0.159826;1.000000
445638.02800186;5696602.78909882;471.73395016;0.745098;0.741176;0.67451;48059.000000;1.000000;1.000000;1.000000;1.000000;-0.040901;0.040901;-0.040901;1.000000
445638.06400116;5696602.86689957;471.77145006;0.486275;0.482353;0.439216;31354.000000;1.000000;1.000000;1.000000;1.000000;0.036900;-0.036900;0.036900;1.000000
445638.13670166;5696602.86949738;471.77244999;0.572549;0.54902;0.498039;35980.000000;1.000000;1.000000;1.000000;1.000000;-0.039497;0.039497;-0.039497;1.000000
445638.39830215;5696602.84289749;471.77465012;0.243137;0.227451;0.192157;14906.000000;1.000000;1.000000;1.000000;1.000000;0.115895;-0.115895;0.115895;1.000000
445638.13960083;5696602.82259949;471.76504995;0.584314;0.572549;0.529412;37265.000000;1.000000;1.000000;1.000000;1.000000;0.007401;-0.007401;0.007401;1.000000
445637.94720276;5696602.72189911;471.72714998;0.717647;0.721569;0.67451;46774.000000;1.000000;1.000000;1.000000;1.000000;-0.070326;-0.070326;0.070326;1.000000
445638.31260117;5696602.84860046;471.76844980;0.686275;0.670588;0.631373;43947.000000;1.000000;1.000000;1.000000;1.000000;0.034853;-0.034853;0.034853;1.000000
445638.04570206;5696602.86639984;471.76125004;0.615686;0.611765;0.552941;39578.000000;1.000000;1.000000;1.000000;1.000000;-0.036400;0.036400;-0.036400;1.000000
445638.08170135;5696602.82799728;471.76475002;0.670588;0.666667;0.615686;43176.000000;1.000000;1.000000;1.000000;1.000000;0.002003;-0.002003;0.002003;1.000000
445638.12059982;5696602.79400070;471.76384975;0.917647;0.917647;0.882353;59881.000000;1.000000;1.000000;1.000000;1.000000;-0.035999;0.035999;-0.035999;1.000000
445637.91909988;5696602.71990021;471.72354986;0.521569;0.545098;0.462745;34438.000000;1.000000;1.000000;1.000000;1.000000;-0.042223;-0.042223;0.042223;1.000000
445638.01310165;5696602.75089844;471.72585012;0.698039;0.694118;0.627451;44975.000000;1.000000;1.000000;1.000000;1.000000;0.079102;-0.079102;0.079102;1.000000
445638.36390121;5696602.79479797;471.76314976;0.376471;0.364706;0.329412;23644.000000;1.000000;1.000000;1.000000;1.000000;-0.088112;0.088112;-0.088112;1.000000
445638.00640305;5696602.46240051;471.68944981;0.615686;0.603922;0.560784;39321.000000;1.000000;1.000000;1.000000;1.000000;-0.131768;0.131768;-0.131768;1.000000
445637.99419983;5696602.72229965;471.72234966;0.596078;0.584314;0.513725;37779.000000;1.000000;1.000000;1.000000;1.000000;-0.107700;0.107700;-0.107700;1.000000
445638.02350052;5696602.90130051;471.75604965;0.505882;0.505882;0.427451;32382.000000;1.000000;1.000000;1.000000;1.000000;0.071301;-0.071301;0.071301;1.000000
445638.04820068;5696602.75229843;471.72744991;0.686275;0.682353;0.596078;43947.000000;1.000000;1.000000;1.000000;1.000000;0.077702;-0.077702;0.077702;1.000000
445638.39900024;5696602.79619797;471.76475002;0.396078;0.380392;0.352941;24929.000000;1.000000;1.000000;1.000000;1.000000;-0.120703;0.120703;-0.120703;1.000000
445637.95040329;5696602.86160095;471.73834993;0.74902;0.756863;0.682353;48830.000000;1.000000;1.000000;1.000000;1.000000;-0.031601;0.031601;-0.031601;1.000000
445638.02720078;5696602.86359985;471.75114967;0.854902;0.85098;0.788235;55255.000000;1.000000;1.000000;1.000000;1.000000;0.033600;-0.033600;0.033600;1.000000
445638.14090164;5696602.75720032;471.75734999;0.85098;0.843137;0.823529;55255.000000;1.000000;1.000000;1.000000;1.000000;0.072800;-0.072800;0.072800;1.000000
445637.95650299;5696602.74899872;471.73255016;0.592157;0.592157;0.552941;38293.000000;1.000000;1.000000;1.000000;1.000000;-0.079626;-0.079626;0.079626;1.000000
445638.32570084;5696602.84029968;471.77134993;0.490196;0.47451;0.443137;31097.000000;1.000000;1.000000;1.000000;1.000000;0.043802;-0.043802;0.043802;1.000000
445638.10590179;5696602.75589951;471.75105001;0.603922;0.603922;0.572549;39321.000000;1.000000;1.000000;1.000000;1.000000;0.074100;-0.074100;0.074100;1.000000
445638.03339966;5696602.71409805;471.71705009;0.776471;0.760784;0.67451;49344.000000;1.000000;1.000000;1.000000;1.000000;0.115902;-0.115902;0.115902;1.000000
445637.95940216;5696602.67420013;471.72015001;0.65098;0.635294;0.556863;41377.000000;1.000000;1.000000;1.000000;1.000000;-0.082525;-0.082525;0.082525;1.000000
445638.36310013;5696602.84149750;471.77304985;0.772549;0.760784;0.729412;49858.000000;1.000000;1.000000;1.000000;1.000000;0.080795;-0.080795;0.080795;1.000000
445637.93169983;5696602.41110046;471.68314983;0.572549;0.580392;0.541176;37522.000000;1.000000;1.000000;1.000000;1.000000;0.084457;-0.084457;0.084457;1.000000
445637.89690216;5696602.41200073;471.67924978;0.615686;0.619608;0.584314;40092.000000;1.000000;1.000000;1.000000;1.000000;-0.077434;0.077434;-0.077434;1.000000
445637.86070068;5696602.37339981;471.67714979;0.52549;0.529412;0.478431;34181.000000;1.000000;1.000000;1.000000;1.000000;0.043400;-0.043400;0.043400;1.000000
445638.01830109;5696602.62229736;471.70594980;0.662745;0.65098;0.576471;42148.000000;1.000000;1.000000;1.000000;1.000000;-0.141424;0.141424;-0.141424;1.000000
445638.01090057;5696602.38039978;471.67945005;0.615686;0.615686;0.568627;39835.000000;1.000000;1.000000;1.000000;1.000000;0.114466;-0.114466;0.114466;1.000000
445638.41990097;5696602.82670029;471.78004982;0.396078;0.384314;0.345098;24929.000000;1.000000;1.000000;1.000000;1.000000;-0.136814;0.136814;-0.136814;1.000000
445638.32080276;5696602.75459869;471.75374987;0.396078;0.388235;0.364706;25186.000000;1.000000;1.000000;1.000000;1.000000;-0.084290;0.084290;-0.084290;1.000000
445637.96249969;5696602.38730057;471.67735006;0.843137;0.843137;0.811765;54998.000000;1.000000;1.000000;1.000000;1.000000;0.078992;-0.078992;0.078992;1.000000
445637.95190247;5696602.40220078;471.68394997;0.917647;0.921569;0.890196;59881.000000;1.000000;1.000000;1.000000;1.000000;0.084435;-0.084435;0.084435;1.000000
445637.91489990;5696602.40339859;471.67764999;0.54902;0.552941;0.513725;35723.000000;1.000000;1.000000;1.000000;1.000000;0.073710;-0.073710;0.073710;1.000000
445637.97910126;5696602.84259995;471.73705008;0.592157;0.588235;0.509804;38036.000000;1.000000;1.000000;1.000000;1.000000;-0.012600;0.012600;-0.012600;1.000000
445637.96529968;5696602.52689941;471.69775011;0.423529;0.415686;0.34902;26728.000000;1.000000;1.000000;1.000000;1.000000;-0.088423;0.088423;-0.088423;1.000000
445638.04030045;5696602.52919968;471.69885017;0.494118;0.486275;0.427451;31354.000000;1.000000;1.000000;1.000000;1.000000;-0.163424;0.163424;-0.163424;1.000000
445638.09020050;5696602.84810074;471.77244999;0.87451;0.87451;0.839216;57054.000000;1.000000;1.000000;1.000000;1.000000;0.018101;-0.018101;0.018101;1.000000
445637.90770157;5696602.80259903;471.73334982;0.458824;0.462745;0.4;29555.000000;1.000000;1.000000;1.000000;1.000000;0.027401;-0.027401;0.027401;1.000000
445638.36110123;5696602.87869843;471.79204990;0.92549;0.929412;0.898039;60395.000000;1.000000;1.000000;1.000000;1.000000;0.091932;-0.091932;0.091932;1.000000
445638.39640244;5696602.88019760;471.78894999;0.443137;0.447059;0.403922;28784.000000;1.000000;1.000000;1.000000;1.000000;0.123900;-0.123900;0.123900;1.000000
445638.44660004;5696602.81709869;471.79045012;0.368627;0.360784;0.337255;23387.000000;1.000000;1.000000;1.000000;1.000000;-0.163981;0.163981;-0.163981;1.000000
445638.21490295;5696602.79709824;471.75414993;0.772549;0.756863;0.698039;49344.000000;1.000000;1.000000;1.000000;1.000000;0.032902;-0.032902;0.032902;1.000000
445638.04180344;5696602.49410065;471.69614985;0.627451;0.619608;0.552941;40092.000000;1.000000;1.000000;1.000000;1.000000;-0.164927;0.164927;-0.164927;1.000000
445638.21059998;5696602.88139923;471.76424982;0.592157;0.564706;0.470588;36751.000000;1.000000;1.000000;1.000000;1.000000;-0.051399;0.051399;-0.051399;1.000000
445637.93250092;5696602.45049866;471.69764997;0.545098;0.541176;0.501961;35209.000000;1.000000;1.000000;1.000000;1.000000;-0.066225;0.066225;-0.066225;1.000000
445638.40200241;5696602.77729996;471.76235010;0.564706;0.556863;0.52549;36237.000000;1.000000;1.000000;1.000000;1.000000;-0.130033;0.130033;-0.130033;1.000000
445638.36730011;5696602.72920044;471.75785019;0.701961;0.690196;0.678431;45232.000000;1.000000;1.000000;1.000000;1.000000;-0.131323;0.131323;-0.131323;1.000000
445638.44120224;5696602.73349960;471.78924992;0.498039;0.498039;0.47451;32382.000000;1.000000;1.000000;1.000000;1.000000;-0.185203;0.185203;-0.185203;1.000000
445637.93520172;5696602.33869751;471.66384985;0.560784;0.552941;0.498039;35980.000000;1.000000;1.000000;1.000000;1.000000;0.028438;-0.028438;0.028438;1.000000
445637.90839966;5696602.78389938;471.73084976;0.560784;0.560784;0.509804;36237.000000;1.000000;1.000000;1.000000;1.000000;-0.031523;-0.031523;0.031523;1.000000
445637.98410233;5696602.76980026;471.73404982;0.8;0.8;0.752941;51914.000000;1.000000;1.000000;1.000000;1.000000;0.060200;-0.060200;0.060200;1.000000
445638.01930054;5696602.77120026;471.73334982;0.709804;0.713725;0.647059;46003.000000;1.000000;1.000000;1.000000;1.000000;0.058800;-0.058800;0.058800;1.000000
445638.09539993;5696602.73609741;471.73635008;0.737255;0.733333;0.682353;47545.000000;1.000000;1.000000;1.000000;1.000000;-0.093903;0.093903;-0.093903;1.000000
445637.90970047;5696602.74640091;471.72814991;0.643137;0.654902;0.6;42148.000000;1.000000;1.000000;1.000000;1.000000;-0.032824;-0.032824;0.032824;1.000000
445637.98500259;5696602.75110062;471.72695019;0.556863;0.556863;0.501961;35980.000000;1.000000;1.000000;1.000000;1.000000;0.078899;-0.078899;0.078899;1.000000
445637.91520126;5696602.61789902;471.70125010;0.741176;0.729412;0.647059;47288.000000;1.000000;1.000000;1.000000;1.000000;-0.038324;0.038324;-0.038324;1.000000
445638.02020081;5696602.75259979;471.72615005;0.65098;0.647059;0.568627;41891.000000;1.000000;1.000000;1.000000;1.000000;0.077400;-0.077400;0.077400;1.000000
445637.99020203;5696602.62019928;471.70225002;0.721569;0.705882;0.631373;46003.000000;1.000000;1.000000;1.000000;1.000000;-0.113325;0.113325;-0.113325;1.000000
445637.98930176;5696602.58299835;471.69714977;0.611765;0.6;0.490196;38550.000000;1.000000;1.000000;1.000000;1.000000;-0.112425;0.112425;-0.112425;1.000000
445637.91769989;5696602.54289825;471.69805004;0.447059;0.439216;0.380392;28270.000000;1.000000;1.000000;1.000000;1.000000;-0.040823;0.040823;-0.040823;1.000000
445638.09020050;5696602.90399750;471.78475000;0.913725;0.917647;0.886275;59624.000000;1.000000;1.000000;1.000000;1.000000;0.073997;-0.073997;0.073997;1.000000
445638.12570007;5696602.90539749;471.77934982;0.47451;0.462745;0.407843;30069.000000;1.000000;1.000000;1.000000;1.000000;0.075397;-0.075397;0.075397;1.000000
445637.99290283;5696602.54540070;471.69455006;0.521569;0.509804;0.427451;32896.000000;1.000000;1.000000;1.000000;1.000000;-0.116026;0.116026;-0.116026;1.000000
445638.01560028;5696602.86249741;471.74595024;0.780392;0.776471;0.709804;50372.000000;1.000000;1.000000;1.000000;1.000000;-0.032497;0.032497;-0.032497;1.000000
445638.09679993;5696602.75449951;471.74364998;0.713725;0.713725;0.670588;46260.000000;1.000000;1.000000;1.000000;1.000000;0.075500;-0.075500;0.075500;1.000000
445637.95200165;5696602.63780029;471.70545008;0.639216;0.627451;0.552941;40606.000000;1.000000;1.000000;1.000000;1.000000;-0.075125;0.075125;-0.075125;1.000000
445637.98940094;5696602.63889893;471.70715000;0.658824;0.647059;0.580392;42148.000000;1.000000;1.000000;1.000000;1.000000;-0.112524;0.112524;-0.112524;1.000000
445638.02820023;5696602.60269745;471.70375015;0.439216;0.431373;0.34902;27756.000000;1.000000;1.000000;1.000000;1.000000;-0.151323;0.151323;-0.151323;1.000000
445638.06690033;5696602.56640060;471.70515015;0.490196;0.482353;0.435294;31354.000000;1.000000;1.000000;1.000000;1.000000;-0.190023;0.190023;-0.190023;1.000000
445638.06820114;5696602.53119858;471.70704987;0.686275;0.678431;0.639216;44204.000000;1.000000;1.000000;1.000000;1.000000;-0.191324;0.191324;-0.191324;1.000000
445637.96190079;5696602.37809952;471.67254974;0.729412;0.729412;0.686275;47288.000000;1.000000;1.000000;1.000000;1.000000;0.072147;-0.072147;0.072147;1.000000
445637.99940308;5696602.37929733;471.67184975;0.662745;0.658824;0.615686;42919.000000;1.000000;1.000000;1.000000;1.000000;0.103738;-0.103738;0.103738;1.000000
445637.89040192;5696602.33799942;471.67114975;0.556863;0.556863;0.490196;35980.000000;1.000000;1.000000;1.000000;1.000000;-0.007999;0.007999;-0.007999;1.000000
445637.95860107;5696602.50639923;471.69955017;0.517647;0.509804;0.447059;32896.000000;1.000000;1.000000;1.000000;1.000000;-0.081724;0.081724;-0.081724;1.000000
445638.03560074;5696602.88369949;471.76104977;0.533333;0.533333;0.478431;34438.000000;1.000000;1.000000;1.000000;1.000000;-0.053699;0.053699;-0.053699;1.000000
445637.88240250;5696602.48559769;471.68884995;0.576471;0.560784;0.458824;36237.000000;1.000000;1.000000;1.000000;1.000000;-0.005620;0.005620;-0.005620;1.000000
445638.03380020;5696602.45519836;471.68835022;0.533333;0.529412;0.47451;34181.000000;1.000000;1.000000;1.000000;1.000000;-0.160040;0.160040;-0.160040;1.000000
445638.46710022;5696602.80829819;471.78434994;0.188235;0.180392;0.160784;11822.000000;1.000000;1.000000;1.000000;1.000000;-0.185249;0.185249;-0.185249;1.000000
