//X;Y;Z;Rf;Gf;Bf;Intensity;Return Number;Number Of Returns;Scan Direction Flag;Point Source ID;C2M signed distances[-][<0.8];C2M signed distances[<0.4];C2M signed distances[-][<0.2];Stump106
301
445647.32890137;5696561.77669914;470.15695002;0.482353;0.454902;0.4;29812.000000;1.000000;1.000000;1.000000;1.000000;-0.093668;0.093668;-0.093668;1.000000
445647.32970245;5696561.75799950;470.15205004;0.396078;0.372549;0.321569;24415.000000;1.000000;1.000000;1.000000;1.000000;-0.106023;0.106023;-0.106023;1.000000
445647.30540283;5696561.44049843;470.13555004;0.517647;0.517647;0.407843;32896.000000;1.000000;1.000000;1.000000;1.000000;0.053526;-0.053526;0.053526;1.000000
445647.26880081;5696561.42739876;470.14304997;0.286275;0.286275;0.227451;18247.000000;1.000000;1.000000;1.000000;1.000000;0.016924;-0.016924;0.016924;1.000000
445647.33860214;5696561.55169876;470.14765002;0.454902;0.458824;0.392157;29298.000000;1.000000;1.000000;1.000000;1.000000;0.086725;-0.086725;0.086725;1.000000
445647.36050232;5696561.47979935;470.13614990;0.545098;0.533333;0.403922;34181.000000;1.000000;1.000000;1.000000;1.000000;0.108625;-0.108625;0.108625;1.000000
445647.32310303;5696561.92409904;470.17704989;0.756863;0.745098;0.670588;48316.000000;1.000000;1.000000;1.000000;1.000000;0.102476;-0.102476;0.102476;1.000000
445647.34570129;5696561.58129890;470.15534999;0.678431;0.67451;0.619608;43690.000000;1.000000;1.000000;1.000000;1.000000;0.093824;-0.093824;0.093824;1.000000
445647.28160294;5696561.56859978;470.15234997;0.345098;0.337255;0.270588;21588.000000;1.000000;1.000000;1.000000;1.000000;0.029726;-0.029726;0.029726;1.000000
445647.31310089;5696561.69149979;470.17384984;0.564706;0.576471;0.545098;37265.000000;1.000000;1.000000;1.000000;1.000000;0.078053;-0.078053;0.078053;1.000000
445647.35070236;5696561.69269951;470.17324998;0.717647;0.721569;0.682353;46774.000000;1.000000;1.000000;1.000000;1.000000;0.110585;-0.110585;0.110585;1.000000
445647.32780273;5696561.79309853;470.16174986;0.658824;0.635294;0.580392;41634.000000;1.000000;1.000000;1.000000;1.000000;-0.084418;0.084418;-0.084418;1.000000
445647.33490189;5696561.61730011;470.15995004;0.419608;0.415686;0.364706;26728.000000;1.000000;1.000000;1.000000;1.000000;0.083025;-0.083025;0.083025;1.000000
445647.32500275;5696561.83999832;470.16684987;0.572549;0.545098;0.466667;35466.000000;1.000000;1.000000;1.000000;1.000000;0.073806;-0.073806;0.073806;1.000000
445647.33080109;5696561.54309853;470.14724996;0.423529;0.427451;0.356863;27242.000000;1.000000;1.000000;1.000000;1.000000;0.078924;-0.078924;0.078924;1.000000
445647.34010132;5696561.51659973;470.14504983;0.572549;0.568627;0.482353;36494.000000;1.000000;1.000000;1.000000;1.000000;0.088224;-0.088224;0.088224;1.000000
445647.30780228;5696561.62679871;470.15884997;0.556863;0.552941;0.505882;35723.000000;1.000000;1.000000;1.000000;1.000000;0.055925;-0.055925;0.055925;1.000000
445647.34729965;5696561.57179840;470.15294983;0.654902;0.654902;0.6;42405.000000;1.000000;1.000000;1.000000;1.000000;0.095423;-0.095423;0.095423;1.000000
445647.31580170;5696561.86879929;470.17144992;0.564706;0.545098;0.45098;35209.000000;1.000000;1.000000;1.000000;1.000000;0.074778;-0.074778;0.074778;1.000000
445647.29100235;5696561.57009895;470.15275003;0.439216;0.439216;0.376471;28270.000000;1.000000;1.000000;1.000000;1.000000;0.039125;-0.039125;0.039125;1.000000
445647.32860001;5696561.57129868;470.15214993;0.537255;0.537255;0.482353;34695.000000;1.000000;1.000000;1.000000;1.000000;0.076723;-0.076723;0.076723;1.000000
445647.35020264;5696561.46909912;470.13555004;0.564706;0.552941;0.411765;35209.000000;1.000000;1.000000;1.000000;1.000000;0.098326;-0.098326;0.098326;1.000000
445647.29420288;5696561.70969971;470.16384985;0.305882;0.321569;0.301961;20560.000000;1.000000;1.000000;1.000000;1.000000;0.079088;-0.079088;0.079088;1.000000
445647.31400116;5696561.45839890;470.13844993;0.537255;0.533333;0.396078;33924.000000;1.000000;1.000000;1.000000;1.000000;0.062124;-0.062124;0.062124;1.000000
445647.30240067;5696561.48739822;470.14294984;0.611765;0.607843;0.501961;39064.000000;1.000000;1.000000;1.000000;1.000000;0.050524;-0.050524;0.050524;1.000000
445647.32769974;5696561.56199844;470.15194990;0.52549;0.52549;0.466667;33924.000000;1.000000;1.000000;1.000000;1.000000;0.075823;-0.075823;0.075823;1.000000
445647.33559998;5696561.62649925;470.16244986;0.376471;0.372549;0.32549;23901.000000;1.000000;1.000000;1.000000;1.000000;0.083723;-0.083723;0.083723;1.000000
445647.31020172;5696561.52389915;470.15074994;0.627451;0.627451;0.54902;40349.000000;1.000000;1.000000;1.000000;1.000000;0.058325;-0.058325;0.058325;1.000000
445647.34420212;5696561.61870010;470.16275002;0.411765;0.407843;0.352941;26214.000000;1.000000;1.000000;1.000000;1.000000;0.092325;-0.092325;0.092325;1.000000
445647.34560211;5696561.55109985;470.14804985;0.537255;0.541176;0.47451;34695.000000;1.000000;1.000000;1.000000;1.000000;0.093725;-0.093725;0.093725;1.000000
445647.29600342;5696561.46699913;470.14014985;0.576471;0.576471;0.45098;36751.000000;1.000000;1.000000;1.000000;1.000000;0.044127;-0.044127;0.044127;1.000000
445647.35040100;5696561.88889893;470.17085006;0.733333;0.698039;0.611765;45746.000000;1.000000;1.000000;1.000000;1.000000;0.114787;-0.114787;0.114787;1.000000
445647.33160217;5696561.94189842;470.17995002;0.384314;0.368627;0.290196;23644.000000;1.000000;1.000000;1.000000;1.000000;0.110975;-0.110975;0.110975;1.000000
445647.29890259;5696561.60659988;470.15824987;0.694118;0.690196;0.639216;44718.000000;1.000000;1.000000;1.000000;1.000000;0.047026;-0.047026;0.047026;1.000000
445647.33360107;5696561.44029816;470.13214995;0.560784;0.552941;0.415686;35209.000000;1.000000;1.000000;1.000000;1.000000;0.081724;-0.081724;0.081724;1.000000
445647.34470184;5696561.43229874;470.12794997;0.541176;0.529412;0.407843;33924.000000;1.000000;1.000000;1.000000;1.000000;0.092825;-0.092825;0.092825;1.000000
445647.30770309;5696561.80200012;470.16094996;0.627451;0.603922;0.541176;39578.000000;1.000000;1.000000;1.000000;1.000000;-0.062454;0.062454;-0.062454;1.000000
445647.35440262;5696561.60139854;470.16065003;0.501961;0.494118;0.435294;31868.000000;1.000000;1.000000;1.000000;1.000000;0.102526;-0.102526;0.102526;1.000000
445647.32570084;5696561.82129868;470.16424992;0.564706;0.541176;0.478431;35466.000000;1.000000;1.000000;1.000000;1.000000;-0.074335;0.074335;-0.074335;1.000000
445647.31390198;5696561.43039902;470.13345005;0.545098;0.545098;0.439216;34952.000000;1.000000;1.000000;1.000000;1.000000;0.062025;-0.062025;0.062025;1.000000
445647.35350235;5696561.61779984;470.16314985;0.466667;0.462745;0.407843;29812.000000;1.000000;1.000000;1.000000;1.000000;0.101625;-0.101625;0.101625;1.000000
445647.32730301;5696561.78619965;470.15925004;0.552941;0.529412;0.470588;34695.000000;1.000000;1.000000;1.000000;1.000000;-0.087221;0.087221;-0.087221;1.000000
445647.31089981;5696561.50519951;470.14824988;0.694118;0.686275;0.596078;44461.000000;1.000000;1.000000;1.000000;1.000000;0.059023;-0.059023;0.059023;1.000000
445647.32500275;5696561.42249878;470.12924983;0.580392;0.576471;0.47451;37008.000000;1.000000;1.000000;1.000000;1.000000;0.073126;-0.073126;0.073126;1.000000
445647.35130127;5696561.67389877;470.17304995;0.34902;0.352941;0.313725;22616.000000;1.000000;1.000000;1.000000;1.000000;0.104095;-0.104095;0.104095;1.000000
445647.28709991;5696561.44679840;470.13944985;0.4;0.407843;0.305882;25700.000000;1.000000;1.000000;1.000000;1.000000;0.035223;-0.035223;0.035223;1.000000
445647.32480057;5696561.44809921;470.13654997;0.588235;0.580392;0.447059;37008.000000;1.000000;1.000000;1.000000;1.000000;0.072924;-0.072924;0.072924;1.000000
445647.36130341;5696561.62869843;470.16824986;0.584314;0.580392;0.529412;37522.000000;1.000000;1.000000;1.000000;1.000000;0.109426;-0.109426;0.109426;1.000000
445647.28820236;5696561.64259918;470.15814998;0.262745;0.243137;0.2;15934.000000;1.000000;1.000000;1.000000;1.000000;0.036325;-0.036325;0.036325;1.000000
445647.36359985;5696561.57259949;470.15604999;0.666667;0.666667;0.611765;43176.000000;1.000000;1.000000;1.000000;1.000000;0.111723;-0.111723;0.111723;1.000000
445647.27630051;5696561.45709808;470.14144995;0.235294;0.239216;0.145098;14906.000000;1.000000;1.000000;1.000000;1.000000;0.024424;-0.024424;0.024424;1.000000
445647.29210098;5696561.53249939;470.15464999;0.392157;0.380392;0.305882;24415.000000;1.000000;1.000000;1.000000;1.000000;0.040224;-0.040224;0.040224;1.000000
445647.28670319;5696561.46789940;470.13964989;0.482353;0.482353;0.368627;30583.000000;1.000000;1.000000;1.000000;1.000000;0.034826;-0.034826;0.034826;1.000000
445647.35720261;5696561.52429970;470.14584996;0.823529;0.819608;0.745098;53199.000000;1.000000;1.000000;1.000000;1.000000;0.105326;-0.105326;0.105326;1.000000
445647.35990341;5696561.66609962;470.17334988;0.529412;0.537255;0.498039;34695.000000;1.000000;1.000000;1.000000;1.000000;0.110454;-0.110454;0.110454;1.000000
445647.30809982;5696561.57779892;470.15365006;0.741176;0.741176;0.686275;48059.000000;1.000000;1.000000;1.000000;1.000000;0.056223;-0.056223;0.056223;1.000000
445647.34679993;5696561.76809891;470.15534999;0.533333;0.509804;0.458824;33410.000000;1.000000;1.000000;1.000000;1.000000;-0.113323;0.113323;-0.113323;1.000000
445647.32090195;5696561.95229919;470.17964985;0.34902;0.333333;0.25098;21331.000000;1.000000;1.000000;1.000000;1.000000;0.100275;-0.100275;0.100275;1.000000
445647.36990173;5696561.42539986;470.12434985;0.596078;0.576471;0.482353;37265.000000;1.000000;1.000000;1.000000;1.000000;0.118025;-0.118025;0.118025;1.000000
445647.31280334;5696561.72919853;470.15564992;0.490196;0.490196;0.458824;31868.000000;1.000000;1.000000;1.000000;1.000000;0.105777;-0.105777;0.105777;1.000000
445647.31330307;5696561.89459808;470.17625000;0.666667;0.658824;0.560784;42405.000000;1.000000;1.000000;1.000000;1.000000;0.089141;-0.089141;0.089141;1.000000
445647.28320129;5696561.51239975;470.15404989;0.584314;0.572549;0.486275;37008.000000;1.000000;1.000000;1.000000;1.000000;0.031324;-0.031324;0.031324;1.000000
445647.31420334;5696561.70080002;470.16934993;0.32549;0.337255;0.298039;21331.000000;1.000000;1.000000;1.000000;1.000000;0.085003;-0.085003;0.085003;1.000000
445647.31440170;5696561.90619858;470.17645003;0.72549;0.721569;0.631373;46517.000000;1.000000;1.000000;1.000000;1.000000;0.093775;-0.093775;0.093775;1.000000
445647.34790237;5696561.52519997;470.14544990;0.780392;0.780392;0.705882;50372.000000;1.000000;1.000000;1.000000;1.000000;0.096025;-0.096025;0.096025;1.000000
445647.33930023;5696561.53299912;470.14514997;0.486275;0.490196;0.415686;31354.000000;1.000000;1.000000;1.000000;1.000000;0.087423;-0.087423;0.087423;1.000000
445647.31150253;5696561.71749886;470.16004993;0.447059;0.447059;0.415686;29041.000000;1.000000;1.000000;1.000000;1.000000;0.095565;-0.095565;0.095565;1.000000
445647.30700119;5696561.82069977;470.16345002;0.627451;0.607843;0.537255;39578.000000;1.000000;1.000000;1.000000;1.000000;-0.055903;0.055903;-0.055903;1.000000
445647.35180099;5696561.48759850;470.13824989;0.537255;0.529412;0.4;33667.000000;1.000000;1.000000;1.000000;1.000000;0.099924;-0.099924;0.099924;1.000000
445647.31470306;5696561.43969925;470.13594987;0.560784;0.560784;0.439216;35723.000000;1.000000;1.000000;1.000000;1.000000;0.062826;-0.062826;0.062826;1.000000
445647.31700333;5696561.62589844;470.15925004;0.568627;0.564706;0.521569;36751.000000;1.000000;1.000000;1.000000;1.000000;0.065126;-0.065126;0.065126;1.000000
445647.29510315;5696561.67219933;470.17044999;0.635294;0.639216;0.603922;41377.000000;1.000000;1.000000;1.000000;1.000000;0.052156;-0.052156;0.052156;1.000000
445647.34980209;5696561.68339928;470.17304995;0.584314;0.588235;0.552941;38036.000000;1.000000;1.000000;1.000000;1.000000;0.105905;-0.105905;0.105905;1.000000
445647.35500153;5696561.58039864;470.15575006;0.662745;0.662745;0.607843;42919.000000;1.000000;1.000000;1.000000;1.000000;0.103125;-0.103125;0.103125;1.000000
445647.34200104;5696561.92700012;470.17794992;0.627451;0.603922;0.533333;39321.000000;1.000000;1.000000;1.000000;1.000000;0.121374;-0.121374;0.121374;1.000000
445647.33320053;5696561.87889870;470.16995003;0.721569;0.701961;0.615686;45746.000000;1.000000;1.000000;1.000000;1.000000;0.094893;-0.094893;0.094893;1.000000
445647.31860168;5696561.76599892;470.15404989;0.364706;0.337255;0.286275;22102.000000;1.000000;1.000000;1.000000;1.000000;-0.092457;0.092457;-0.092457;1.000000
445647.31720169;5696561.83139999;470.16634991;0.564706;0.541176;0.466667;35209.000000;1.000000;1.000000;1.000000;1.000000;0.065340;-0.065340;0.065340;1.000000
445647.27840240;5696561.42889984;470.14115002;0.305882;0.309804;0.243137;19532.000000;1.000000;1.000000;1.000000;1.000000;0.026525;-0.026525;0.026525;1.000000
445647.35250290;5696561.83279999;470.16334989;0.568627;0.552941;0.482353;35980.000000;1.000000;1.000000;1.000000;1.000000;0.100665;-0.100665;0.100665;1.000000
445647.36210068;5696561.60999878;470.16345002;0.454902;0.45098;0.392157;29041.000000;1.000000;1.000000;1.000000;1.000000;0.110224;-0.110224;0.110224;1.000000
445647.34150131;5696561.45119865;470.13494994;0.54902;0.537255;0.392157;34181.000000;1.000000;1.000000;1.000000;1.000000;0.089624;-0.089624;0.089624;1.000000
445647.32560165;5696561.61809929;470.15954997;0.517647;0.513725;0.466667;33153.000000;1.000000;1.000000;1.000000;1.000000;0.073725;-0.073725;0.073725;1.000000
445647.30300339;5696561.49429901;470.14544990;0.694118;0.690196;0.592157;44461.000000;1.000000;1.000000;1.000000;1.000000;0.051126;-0.051126;0.051126;1.000000
445647.33850296;5696561.49809845;470.14234998;0.537255;0.529412;0.415686;33924.000000;1.000000;1.000000;1.000000;1.000000;0.086626;-0.086626;0.086626;1.000000
445647.36590012;5696561.54449852;470.15115001;0.752941;0.752941;0.686275;48830.000000;1.000000;1.000000;1.000000;1.000000;0.114023;-0.114023;0.114023;1.000000
445647.31570251;5696561.84079941;470.16645004;0.54902;0.52549;0.45098;34181.000000;1.000000;1.000000;1.000000;1.000000;0.064733;-0.064733;0.064733;1.000000
445647.35620316;5696561.76719864;470.15334990;0.517647;0.490196;0.439216;32125.000000;1.000000;1.000000;1.000000;1.000000;-0.121770;0.121770;-0.121770;1.000000
445647.31990250;5696561.73079880;470.15594985;0.509804;0.501961;0.466667;32639.000000;1.000000;1.000000;1.000000;1.000000;0.111276;-0.111276;0.111276;1.000000
445647.35340317;5696561.84209831;470.16345002;0.658824;0.635294;0.556863;41377.000000;1.000000;1.000000;1.000000;1.000000;0.102245;-0.102245;0.102245;1.000000
445647.30590256;5696561.44739922;470.13794996;0.521569;0.521569;0.4;33153.000000;1.000000;1.000000;1.000000;1.000000;0.054026;-0.054026;0.054026;1.000000
445647.34399994;5696561.86859901;470.16804983;0.772549;0.745098;0.662745;48573.000000;1.000000;1.000000;1.000000;1.000000;0.099883;-0.099883;0.099883;1.000000
445647.34890182;5696561.71869858;470.16174986;0.25098;0.243137;0.192157;15677.000000;1.000000;1.000000;1.000000;1.000000;0.123154;-0.123154;0.123154;1.000000
445647.28250320;5696561.53109940;470.15654995;0.4;0.384314;0.305882;24929.000000;1.000000;1.000000;1.000000;1.000000;0.030626;-0.030626;0.030626;1.000000
445647.36900146;5696561.46969994;470.13415005;0.623529;0.603922;0.482353;39064.000000;1.000000;1.000000;1.000000;1.000000;0.117125;-0.117125;0.117125;1.000000
445647.32000168;5696561.94299896;470.17945005;0.356863;0.345098;0.258824;22102.000000;1.000000;1.000000;1.000000;1.000000;0.099375;-0.099375;0.099375;1.000000
445647.34840210;5696561.75859840;470.15294983;0.388235;0.360784;0.313725;23644.000000;1.000000;1.000000;1.000000;1.000000;-0.120064;0.120064;-0.120064;1.000000
445647.32810028;5696561.76750000;470.15444996;0.454902;0.427451;0.380392;28013.000000;1.000000;1.000000;1.000000;1.000000;-0.098571;0.098571;-0.098571;1.000000
445647.30980118;5696561.57059868;470.15365006;0.788235;0.788235;0.733333;51143.000000;1.000000;1.000000;1.000000;1.000000;0.057924;-0.057924;0.057924;1.000000
445647.30080231;5696561.77469833;470.15325000;0.462745;0.439216;0.392157;28784.000000;1.000000;1.000000;1.000000;1.000000;-0.073837;0.073837;-0.073837;1.000000
445647.34640320;5696561.58819969;470.15544989;0.678431;0.678431;0.619608;43947.000000;1.000000;1.000000;1.000000;1.000000;0.094526;-0.094526;0.094526;1.000000
445647.33250244;5696561.64539917;470.16715004;0.411765;0.411765;0.364706;26471.000000;1.000000;1.000000;1.000000;1.000000;0.080663;-0.080663;0.080663;1.000000
445647.35810287;5696561.50789841;470.14334991;0.686275;0.678431;0.588235;43947.000000;1.000000;1.000000;1.000000;1.000000;0.106226;-0.106226;0.106226;1.000000
445647.33900269;5696561.78509911;470.15744998;0.572549;0.54902;0.490196;35980.000000;1.000000;1.000000;1.000000;1.000000;-0.098015;0.098015;-0.098015;1.000000
445647.27620132;5696561.51299866;470.15604999;0.666667;0.65098;0.560784;42148.000000;1.000000;1.000000;1.000000;1.000000;0.024324;-0.024324;0.024324;1.000000
445647.32629974;5696561.59939964;470.15704991;0.662745;0.654902;0.6;42662.000000;1.000000;1.000000;1.000000;1.000000;0.074423;-0.074423;0.074423;1.000000
445647.36370285;5696561.60059937;470.16104986;0.45098;0.447059;0.388235;28784.000000;1.000000;1.000000;1.000000;1.000000;0.111826;-0.111826;0.111826;1.000000
445647.34270294;5696561.65609940;470.17004992;0.384314;0.384314;0.345098;24672.000000;1.000000;1.000000;1.000000;1.000000;0.091765;-0.091765;0.091765;1.000000
445647.36670120;5696561.52579887;470.14634993;0.709804;0.705882;0.635294;45746.000000;1.000000;1.000000;1.000000;1.000000;0.114824;-0.114824;0.114824;1.000000
445647.35020264;5696561.49699982;470.14054992;0.545098;0.537255;0.427451;34438.000000;1.000000;1.000000;1.000000;1.000000;0.098326;-0.098326;0.098326;1.000000
445647.28870209;5696561.59589966;470.15524985;0.521569;0.517647;0.462745;33410.000000;1.000000;1.000000;1.000000;1.000000;0.036825;-0.036825;0.036825;1.000000
445647.28870209;5696561.62389954;470.16024997;0.521569;0.513725;0.470588;33410.000000;1.000000;1.000000;1.000000;1.000000;0.036825;-0.036825;0.036825;1.000000
445647.30890091;5696561.56139954;470.15345003;0.796078;0.796078;0.741176;51657.000000;1.000000;1.000000;1.000000;1.000000;0.057024;-0.057024;0.057024;1.000000
445647.36520203;5696561.56320007;470.15365006;0.717647;0.721569;0.658824;46517.000000;1.000000;1.000000;1.000000;1.000000;0.113325;-0.113325;0.113325;1.000000
445647.33710297;5696561.99979980;470.17855002;0.501961;0.47451;0.403922;31097.000000;1.000000;1.000000;1.000000;1.000000;0.116476;-0.116476;0.116476;1.000000
445647.33810242;5696561.74790009;470.15234997;0.419608;0.396078;0.352941;25957.000000;1.000000;1.000000;1.000000;1.000000;-0.119060;0.119060;-0.119060;1.000000
445647.32460220;5696561.86099823;470.16704990;0.545098;0.521569;0.435294;33924.000000;1.000000;1.000000;1.000000;1.000000;0.079056;-0.079056;0.079056;1.000000
445647.33130081;5696561.49639900;470.14434983;0.537255;0.52549;0.415686;33667.000000;1.000000;1.000000;1.000000;1.000000;0.079424;-0.079424;0.079424;1.000000
445647.35590179;5696561.73919876;470.15304996;0.239216;0.223529;0.180392;14392.000000;1.000000;1.000000;1.000000;1.000000;-0.138080;0.138080;-0.138080;1.000000
445647.32100113;5696561.71899994;470.16054990;0.388235;0.388235;0.34902;24929.000000;1.000000;1.000000;1.000000;1.000000;0.102862;-0.102862;0.102862;1.000000
445647.35570343;5696561.58969887;470.15824987;0.588235;0.584314;0.529412;37779.000000;1.000000;1.000000;1.000000;1.000000;0.103827;-0.103827;0.103827;1.000000
445647.32190140;5696561.70709808;470.16744997;0.290196;0.290196;0.247059;18504.000000;1.000000;1.000000;1.000000;1.000000;0.094957;-0.094957;0.094957;1.000000
445647.43020065;5696561.80709847;470.15024998;0.235294;0.211765;0.168627;13878.000000;1.000000;1.000000;1.000000;1.000000;-0.179788;0.179788;-0.179788;1.000000
445647.36330231;5696561.76889999;470.15374996;0.501961;0.478431;0.431373;31354.000000;1.000000;1.000000;1.000000;1.000000;-0.127078;0.127078;-0.127078;1.000000
445647.37280090;5696561.54379852;470.15144994;0.596078;0.592157;0.529412;38293.000000;1.000000;1.000000;1.000000;1.000000;0.120924;-0.120924;0.120924;1.000000
445647.36440094;5696561.83409889;470.16155006;0.556863;0.537255;0.466667;34952.000000;1.000000;1.000000;1.000000;1.000000;0.112599;-0.112599;0.112599;1.000000
445647.37370117;5696561.60890015;470.16394999;0.447059;0.443137;0.388235;28527.000000;1.000000;1.000000;1.000000;1.000000;0.121824;-0.121824;0.121824;1.000000
445647.36040314;5696561.81579979;470.16115000;0.654902;0.631373;0.580392;41377.000000;1.000000;1.000000;1.000000;1.000000;-0.109451;0.109451;-0.109451;1.000000
445647.36970337;5696561.59059914;470.16124990;0.4;0.396078;0.345098;25443.000000;1.000000;1.000000;1.000000;1.000000;0.117826;-0.117826;0.117826;1.000000
445647.40150269;5696561.82609947;470.15144994;0.627451;0.6;0.541176;39321.000000;1.000000;1.000000;1.000000;1.000000;-0.149677;0.149677;-0.149677;1.000000
445647.36280258;5696561.86919983;470.16654994;0.611765;0.580392;0.498039;38036.000000;1.000000;1.000000;1.000000;1.000000;0.117648;-0.117648;0.117648;1.000000
445647.39280136;5696561.80819901;470.15314986;0.635294;0.615686;0.568627;40349.000000;1.000000;1.000000;1.000000;1.000000;-0.142601;0.142601;-0.142601;1.000000
445647.39620026;5696561.76819809;470.15054991;0.247059;0.231373;0.184314;14906.000000;1.000000;1.000000;1.000000;1.000000;-0.156999;0.156999;-0.156999;1.000000
445647.40610321;5696561.75089844;470.15314986;0.294118;0.278431;0.235294;17990.000000;1.000000;1.000000;1.000000;1.000000;-0.173329;0.173329;-0.173329;1.000000
445647.43140228;5696561.77189835;470.15454986;0.572549;0.564706;0.529412;36751.000000;1.000000;1.000000;1.000000;1.000000;-0.188693;0.188693;-0.188693;1.000000
445647.36770065;5696561.67469986;470.17374994;0.498039;0.505882;0.470588;32639.000000;1.000000;1.000000;1.000000;1.000000;0.120062;-0.120062;0.120062;1.000000
445647.36900146;5696561.63729866;470.17104985;0.839216;0.839216;0.796078;54484.000000;1.000000;1.000000;1.000000;1.000000;0.117125;-0.117125;0.117125;1.000000
445647.37540253;5696561.49009903;470.13695004;0.52549;0.513725;0.403922;32896.000000;1.000000;1.000000;1.000000;1.000000;0.123526;-0.123526;0.123526;1.000000
445647.42080124;5696561.80799873;470.15214993;0.286275;0.258824;0.207843;16962.000000;1.000000;1.000000;1.000000;1.000000;-0.170351;0.170351;-0.170351;1.000000
445647.38319977;5696561.80669983;470.15505006;0.670588;0.654902;0.603922;42662.000000;1.000000;1.000000;1.000000;1.000000;-0.133374;0.133374;-0.133374;1.000000
445647.42189987;5696561.77049835;470.15404989;0.533333;0.517647;0.478431;33924.000000;1.000000;1.000000;1.000000;1.000000;-0.180134;0.180134;-0.180134;1.000000
445647.39560135;5696561.78699883;470.15074994;0.545098;0.521569;0.470588;34181.000000;1.000000;1.000000;1.000000;1.000000;-0.150019;0.150019;-0.150019;1.000000
445647.37630280;5696561.44349869;470.12485005;0.580392;0.564706;0.454902;36494.000000;1.000000;1.000000;1.000000;1.000000;0.124426;-0.124426;0.124426;1.000000
445647.39690216;5696561.75179871;470.15275003;0.196078;0.184314;0.137255;11822.000000;1.000000;1.000000;1.000000;1.000000;-0.164766;0.164766;-0.164766;1.000000
445647.36120041;5696561.85069855;470.16394999;0.698039;0.678431;0.6;44204.000000;1.000000;1.000000;1.000000;1.000000;0.111266;-0.111266;0.111266;1.000000
445647.38450058;5696561.76929863;470.15234997;0.317647;0.301961;0.254902;19532.000000;1.000000;1.000000;1.000000;1.000000;-0.145855;0.145855;-0.145855;1.000000
445647.36820038;5696561.62799843;470.16855003;0.603922;0.6;0.552941;38807.000000;1.000000;1.000000;1.000000;1.000000;0.116323;-0.116323;0.116323;1.000000
445647.35750015;5696561.88830002;470.16884996;0.658824;0.619608;0.521569;40606.000000;1.000000;1.000000;1.000000;1.000000;0.120645;-0.120645;0.120645;1.000000
445647.36680038;5696561.66549881;470.17365005;0.662745;0.670588;0.635294;43433.000000;1.000000;1.000000;1.000000;1.000000;0.117090;-0.117090;0.117090;1.000000
445647.37470062;5696561.48079880;470.13454988;0.541176;0.529412;0.415686;33924.000000;1.000000;1.000000;1.000000;1.000000;0.122824;-0.122824;0.122824;1.000000
445647.37680252;5696561.81429871;470.15724995;0.647059;0.627451;0.572549;40863.000000;1.000000;1.000000;1.000000;1.000000;-0.125908;0.125908;-0.125908;1.000000
445647.41349991;5696561.78059967;470.15384986;0.415686;0.396078;0.352941;25957.000000;1.000000;1.000000;1.000000;1.000000;-0.169004;0.169004;-0.169004;1.000000
445647.37710007;5696561.74189957;470.15634992;0.145098;0.133333;0.0862745;8481.000000;1.000000;1.000000;1.000000;1.000000;-0.153110;0.153110;-0.153110;1.000000
445647.43150146;5696561.79759987;470.15244987;0.376471;0.356863;0.313725;23387.000000;1.000000;1.000000;1.000000;1.000000;-0.182523;0.182523;-0.182523;1.000000
445647.36100204;5696561.79479988;470.15625002;0.729412;0.698039;0.643137;45746.000000;1.000000;1.000000;1.000000;1.000000;-0.114662;0.114662;-0.114662;1.000000
445647.43260010;5696561.76009949;470.15444996;0.34902;0.341176;0.301961;22102.000000;1.000000;1.000000;1.000000;1.000000;-0.193770;0.193770;-0.193770;1.000000
445647.37050064;5696561.57199867;470.15634992;0.611765;0.607843;0.552941;39321.000000;1.000000;1.000000;1.000000;1.000000;0.118624;-0.118624;0.118624;1.000000
445647.37220200;5696561.53689964;470.15135004;0.576471;0.572549;0.509804;37008.000000;1.000000;1.000000;1.000000;1.000000;0.120325;-0.120325;0.120325;1.000000
445647.37590225;5696561.77709969;470.15205004;0.631373;0.611765;0.560784;40092.000000;1.000000;1.000000;1.000000;1.000000;-0.134836;0.134836;-0.134836;1.000000
445647.39200027;5696561.82459839;470.15334990;0.678431;0.647059;0.588235;42405.000000;1.000000;1.000000;1.000000;1.000000;-0.140227;0.140227;-0.140227;1.000000
445647.42960175;5696561.82589920;470.15045001;0.254902;0.223529;0.164706;14649.000000;1.000000;1.000000;1.000000;1.000000;-0.177772;0.177772;-0.177772;1.000000
445647.39520081;5696561.75889977;470.15275003;0.203922;0.192157;0.145098;12336.000000;1.000000;1.000000;1.000000;1.000000;-0.159991;0.159991;-0.159991;1.000000
445647.45010193;5696561.81929977;470.14894988;0.243137;0.219608;0.176471;14392.000000;1.000000;1.000000;1.000000;1.000000;-0.198514;0.198514;-0.198514;1.000000
445647.41470154;5696561.74309929;470.15345003;0.443137;0.435294;0.392157;28270.000000;1.000000;1.000000;1.000000;1.000000;-0.184563;0.184563;-0.184563;1.000000
445647.43070038;5696561.78839882;470.15234997;0.537255;0.52549;0.486275;34181.000000;1.000000;1.000000;1.000000;1.000000;-0.183599;0.183599;-0.183599;1.000000
445647.36250122;5696561.78529938;470.15384986;0.682353;0.658824;0.6;43176.000000;1.000000;1.000000;1.000000;1.000000;-0.119314;0.119314;-0.119314;1.000000
445647.39420135;5696561.79869850;470.15314986;0.6;0.576471;0.529412;37779.000000;1.000000;1.000000;1.000000;1.000000;-0.145726;0.145726;-0.145726;1.000000
445647.43200119;5696561.75319870;470.15435006;0.262745;0.254902;0.215686;16448.000000;1.000000;1.000000;1.000000;1.000000;-0.195814;0.195814;-0.195814;1.000000
445647.37350281;5696561.52509888;470.14894988;0.560784;0.564706;0.505882;36494.000000;1.000000;1.000000;1.000000;1.000000;0.121626;-0.121626;0.121626;1.000000
445647.36480148;5696561.75939949;470.15365006;0.411765;0.380392;0.333333;25186.000000;1.000000;1.000000;1.000000;1.000000;-0.133178;0.133178;-0.133178;1.000000
445647.40990265;5696561.81600006;470.15174987;0.4;0.372549;0.317647;24415.000000;1.000000;1.000000;1.000000;1.000000;-0.158645;0.158645;-0.158645;1.000000
445647.37199982;5696561.56249817;470.15634992;0.666667;0.666667;0.607843;43176.000000;1.000000;1.000000;1.000000;1.000000;0.120123;-0.120123;0.120123;1.000000
445647.42049988;5696561.82679947;470.14765002;0.372549;0.345098;0.286275;22616.000000;1.000000;1.000000;1.000000;1.000000;-0.168653;0.168653;-0.168653;1.000000
445647.42230042;5696561.79849823;470.15205004;0.392157;0.372549;0.32549;24415.000000;1.000000;1.000000;1.000000;1.000000;-0.173311;0.173311;-0.173311;1.000000
445647.37270172;5696561.51589973;470.14645006;0.607843;0.603922;0.533333;39064.000000;1.000000;1.000000;1.000000;1.000000;0.120825;-0.120825;0.120825;1.000000
445647.38570221;5696561.75749977;470.15224983;0.156863;0.141176;0.0980392;8995.000000;1.000000;1.000000;1.000000;1.000000;-0.152202;0.152202;-0.152202;1.000000
445647.38470276;5696561.79729851;470.15275003;0.694118;0.67451;0.623529;44204.000000;1.000000;1.000000;1.000000;1.000000;-0.136792;0.136792;-0.136792;1.000000
445647.36120041;5696561.82499893;470.16124990;0.54902;0.533333;0.47451;34695.000000;1.000000;1.000000;1.000000;1.000000;-0.109438;0.109438;-0.109438;1.000000
445647.42350204;5696561.76099976;470.15164997;0.388235;0.376471;0.337255;24415.000000;1.000000;1.000000;1.000000;1.000000;-0.184976;0.184976;-0.184976;1.000000
445647.43820007;5696561.81809814;470.15074994;0.196078;0.168627;0.121569;11051.000000;1.000000;1.000000;1.000000;1.000000;-0.186703;0.186703;-0.186703;1.000000
445647.40419968;5696561.77919968;470.15104987;0.313725;0.294118;0.25098;19275.000000;1.000000;1.000000;1.000000;1.000000;-0.160571;0.160571;-0.160571;1.000000
445647.44160278;5696561.78029831;470.15275003;0.498039;0.490196;0.454902;31868.000000;1.000000;1.000000;1.000000;1.000000;-0.196128;0.196128;-0.196128;1.000000
445647.36190231;5696561.80629929;470.15874984;0.729412;0.701961;0.65098;46003.000000;1.000000;1.000000;1.000000;1.000000;-0.112549;0.112549;-0.112549;1.000000
445647.36980255;5696561.61859901;470.16625001;0.443137;0.439216;0.380392;28270.000000;1.000000;1.000000;1.000000;1.000000;0.117926;-0.117926;0.117926;1.000000
445647.37150009;5696561.58349808;470.15884997;0.45098;0.454902;0.4;29298.000000;1.000000;1.000000;1.000000;1.000000;0.119623;-0.119623;0.119623;1.000000
445647.36650284;5696561.77789886;470.15395000;0.647059;0.623529;0.572549;40863.000000;1.000000;1.000000;1.000000;1.000000;-0.125911;0.125911;-0.125911;1.000000
445647.37000092;5696561.74019821;470.15365006;0.137255;0.121569;0.0823529;7967.000000;1.000000;1.000000;1.000000;1.000000;-0.148383;0.148383;-0.148383;1.000000
445647.36370285;5696561.74779900;470.15345003;0.231373;0.207843;0.164706;13621.000000;1.000000;1.000000;1.000000;1.000000;-0.138788;0.138788;-0.138788;1.000000
445647.36030014;5696561.84139832;470.16374995;0.611765;0.588235;0.513725;38293.000000;1.000000;1.000000;1.000000;1.000000;0.109021;-0.109021;0.109021;1.000000
445647.43110092;5696561.81639870;470.15034987;0.184314;0.156863;0.109804;10280.000000;1.000000;1.000000;1.000000;1.000000;-0.179739;0.179739;-0.179739;1.000000
445647.43230255;5696561.78119858;470.15464999;0.631373;0.619608;0.584314;40349.000000;1.000000;1.000000;1.000000;1.000000;-0.186909;0.186909;-0.186909;1.000000
445647.36420258;5696561.77819832;470.15384986;0.670588;0.647059;0.596078;42405.000000;1.000000;1.000000;1.000000;1.000000;-0.123695;0.123695;-0.123695;1.000000
445647.37150009;5696561.55559929;470.15384986;0.65098;0.65098;0.588235;42148.000000;1.000000;1.000000;1.000000;1.000000;0.119623;-0.119623;0.119623;1.000000
445647.39340027;5696561.81519897;470.15334990;0.658824;0.635294;0.584314;41634.000000;1.000000;1.000000;1.000000;1.000000;-0.142295;0.142295;-0.142295;1.000000
445647.39470108;5696561.77769859;470.15054991;0.431373;0.407843;0.360784;26728.000000;1.000000;1.000000;1.000000;1.000000;-0.152099;0.152099;-0.152099;1.000000
445647.39590271;5696561.74249847;470.15485003;0.239216;0.227451;0.176471;14649.000000;1.000000;1.000000;1.000000;1.000000;-0.168523;0.168523;-0.168523;1.000000
445647.37230118;5696561.67429932;470.17394998;0.486275;0.498039;0.458824;32125.000000;1.000000;1.000000;1.000000;1.000000;0.124404;-0.124404;0.124404;1.000000
445647.37380035;5696561.63919838;470.17124989;0.72549;0.721569;0.682353;47031.000000;1.000000;1.000000;1.000000;1.000000;0.121923;-0.121923;0.121923;1.000000
445647.40300186;5696561.81659897;470.15144994;0.568627;0.545098;0.490196;35723.000000;1.000000;1.000000;1.000000;1.000000;-0.151718;0.151718;-0.151718;1.000000
445647.40530212;5696561.74169930;470.15294983;0.356863;0.34902;0.298039;22616.000000;1.000000;1.000000;1.000000;1.000000;-0.177021;0.177021;-0.177021;1.000000
445647.38470276;5696561.82289894;470.15534999;0.639216;0.611765;0.552941;40092.000000;1.000000;1.000000;1.000000;1.000000;-0.133016;0.133016;-0.133016;1.000000
445647.42130096;5696561.78919991;470.15424993;0.537255;0.52549;0.478431;34181.000000;1.000000;1.000000;1.000000;1.000000;-0.174267;0.174267;-0.174267;1.000000
445647.42250259;5696561.75169952;470.15384986;0.356863;0.34902;0.305882;22616.000000;1.000000;1.000000;1.000000;1.000000;-0.187734;0.187734;-0.187734;1.000000
445647.37310226;5696561.62990006;470.16884996;0.54902;0.54902;0.501961;35466.000000;1.000000;1.000000;1.000000;1.000000;0.121225;-0.121225;0.121225;1.000000
445647.36210068;5696561.88789948;470.16905000;0.607843;0.564706;0.470588;37008.000000;1.000000;1.000000;1.000000;1.000000;0.124506;-0.124506;0.124506;1.000000
445647.37170227;5696561.66739853;470.17384984;0.713725;0.721569;0.682353;46774.000000;1.000000;1.000000;1.000000;1.000000;0.122268;-0.122268;0.122268;1.000000
445647.38390167;5696561.78800018;470.15255000;0.690196;0.666667;0.619608;43690.000000;1.000000;1.000000;1.000000;1.000000;-0.138544;0.138544;-0.138544;1.000000
445647.38730057;5696561.75029953;470.15454986;0.145098;0.129412;0.0823529;8224.000000;1.000000;1.000000;1.000000;1.000000;-0.157136;0.157136;-0.157136;1.000000
445647.37290009;5696561.82399948;470.15944983;0.572549;0.552941;0.494118;35980.000000;1.000000;1.000000;1.000000;1.000000;-0.121172;0.121172;-0.121172;1.000000
445647.36540039;5696561.74069984;470.15345003;0.152941;0.129412;0.0862745;8481.000000;1.000000;1.000000;1.000000;1.000000;-0.144437;0.144437;-0.144437;1.000000
445647.36050232;5696561.86939819;470.16645004;0.678431;0.643137;0.564706;42148.000000;1.000000;1.000000;1.000000;1.000000;0.115550;-0.115550;0.115550;1.000000
445647.35960205;5696561.83219917;470.16124990;0.54902;0.533333;0.466667;34695.000000;1.000000;1.000000;1.000000;1.000000;0.107748;-0.107748;0.107748;1.000000
445647.36900146;5696561.60939987;470.16374995;0.419608;0.415686;0.360784;26728.000000;1.000000;1.000000;1.000000;1.000000;0.117125;-0.117125;0.117125;1.000000
445647.37540253;5696561.45989807;470.12734987;0.686275;0.662745;0.541176;42919.000000;1.000000;1.000000;1.000000;1.000000;0.123526;-0.123526;0.123526;1.000000
445647.35910233;5696561.88119896;470.16884996;0.635294;0.596078;0.505882;39064.000000;1.000000;1.000000;1.000000;1.000000;0.118822;-0.118822;0.118822;1.000000
445647.36830338;5696561.65599831;470.17354991;0.862745;0.870588;0.835294;56540.000000;1.000000;1.000000;1.000000;1.000000;0.117142;-0.117142;0.117142;1.000000
445647.37619980;5696561.47139938;470.13214995;0.611765;0.6;0.490196;38550.000000;1.000000;1.000000;1.000000;1.000000;0.124323;-0.124323;0.124323;1.000000
445647.36620148;5696561.68419846;470.17384984;0.560784;0.568627;0.529412;36751.000000;1.000000;1.000000;1.000000;1.000000;0.121492;-0.121492;0.121492;1.000000
445647.37339981;5696561.49489983;470.13925006;0.560784;0.545098;0.435294;35209.000000;1.000000;1.000000;1.000000;1.000000;0.121523;-0.121523;0.121523;1.000000
445647.36740311;5696561.64669998;470.17345001;0.933333;0.929412;0.890196;60652.000000;1.000000;1.000000;1.000000;1.000000;0.115583;-0.115583;0.115583;1.000000
445647.37590225;5696561.80499847;470.15704991;0.709804;0.690196;0.635294;44975.000000;1.000000;1.000000;1.000000;1.000000;-0.126520;0.126520;-0.126520;1.000000
445647.41280182;5696561.77139862;470.15135004;0.384314;0.364706;0.321569;23901.000000;1.000000;1.000000;1.000000;1.000000;-0.171263;0.171263;-0.171263;1.000000
445647.36440094;5696561.85969933;470.16415002;0.701961;0.67451;0.592157;43947.000000;1.000000;1.000000;1.000000;1.000000;0.116377;-0.116377;0.116377;1.000000
445647.36359985;5696561.82479866;470.16135003;0.556863;0.537255;0.47451;34952.000000;1.000000;1.000000;1.000000;1.000000;-0.111844;0.111844;-0.111844;1.000000
445647.37540253;5696561.60179909;470.16164996;0.435294;0.431373;0.376471;27756.000000;1.000000;1.000000;1.000000;1.000000;0.123526;-0.123526;0.123526;1.000000
445647.35970123;5696561.86019905;470.16394999;0.745098;0.717647;0.631373;46774.000000;1.000000;1.000000;1.000000;1.000000;0.111974;-0.111974;0.111974;1.000000
445647.44890030;5696561.80769928;470.15104987;0.270588;0.254902;0.215686;16705.000000;1.000000;1.000000;1.000000;1.000000;-0.198281;0.198281;-0.198281;1.000000
445647.37520035;5696561.77019890;470.15194990;0.368627;0.34902;0.301961;22873.000000;1.000000;1.000000;1.000000;1.000000;-0.137058;0.137058;-0.137058;1.000000
445647.41140182;5696561.80649956;470.15164997;0.356863;0.341176;0.294118;22102.000000;1.000000;1.000000;1.000000;1.000000;-0.161247;0.161247;-0.161247;1.000000
445647.37450226;5696561.50869949;470.14415004;0.580392;0.572549;0.494118;37008.000000;1.000000;1.000000;1.000000;1.000000;0.122625;-0.122625;0.122625;1.000000
445647.36800201;5696561.76849945;470.15395000;0.439216;0.415686;0.368627;27242.000000;1.000000;1.000000;1.000000;1.000000;-0.131405;0.131405;-0.131405;1.000000
445647.44849976;5696561.82879837;470.15135004;0.305882;0.282353;0.231373;18504.000000;1.000000;1.000000;1.000000;1.000000;-0.196627;0.196627;-0.196627;1.000000
445647.41190155;5696561.78769882;470.15384986;0.403922;0.388235;0.341176;25186.000000;1.000000;1.000000;1.000000;1.000000;-0.165521;0.165521;-0.165521;1.000000
445647.40559967;5696561.76969917;470.15094997;0.258824;0.239216;0.196078;15677.000000;1.000000;1.000000;1.000000;1.000000;-0.165127;0.165127;-0.165127;1.000000
445647.37780197;5696561.74889954;470.15415003;0.172549;0.152941;0.109804;10023.000000;1.000000;1.000000;1.000000;1.000000;-0.149781;0.149781;-0.149781;1.000000
445647.43970306;5696561.80859955;470.15065004;0.223529;0.207843;0.164706;13364.000000;1.000000;1.000000;1.000000;1.000000;-0.189041;0.189041;-0.189041;1.000000
445647.40210159;5696561.80739983;470.15124990;0.494118;0.47451;0.427451;31097.000000;1.000000;1.000000;1.000000;1.000000;-0.151915;0.151915;-0.151915;1.000000
445647.44090088;5696561.77339943;470.15494992;0.470588;0.462745;0.431373;30069.000000;1.000000;1.000000;1.000000;1.000000;-0.197316;0.197316;-0.197316;1.000000
445647.41270264;5696561.79699905;470.15395000;0.376471;0.360784;0.313725;23387.000000;1.000000;1.000000;1.000000;1.000000;-0.164177;0.164177;-0.164177;1.000000
445647.37300308;5696561.85190018;470.16444995;0.729412;0.701961;0.627451;46003.000000;1.000000;1.000000;1.000000;1.000000;0.123090;-0.123090;0.123090;1.000000
445647.37520035;5696561.79579933;470.15454986;0.733333;0.709804;0.658824;46517.000000;1.000000;1.000000;1.000000;1.000000;-0.127978;0.127978;-0.127978;1.000000
445647.37640198;5696561.75829895;470.15415003;0.164706;0.145098;0.101961;9509.000000;1.000000;1.000000;1.000000;1.000000;-0.143692;0.143692;-0.143692;1.000000
445647.41400345;5696561.75959976;470.15124990;0.356863;0.341176;0.298039;22102.000000;1.000000;1.000000;1.000000;1.000000;-0.176752;0.176752;-0.176752;1.000000
445647.37440308;5696561.78660019;470.15214993;0.733333;0.713725;0.658824;46517.000000;1.000000;1.000000;1.000000;1.000000;-0.129985;0.129985;-0.129985;1.000000
445647.41560181;5696561.75239952;470.15354993;0.372549;0.360784;0.317647;23387.000000;1.000000;1.000000;1.000000;1.000000;-0.181184;0.181184;-0.181184;1.000000
445647.37080200;5696561.60219963;470.16135003;0.388235;0.388235;0.333333;24929.000000;1.000000;1.000000;1.000000;1.000000;0.118925;-0.118925;0.118925;1.000000
445647.41090210;5696561.82529839;470.14954998;0.486275;0.458824;0.4;30069.000000;1.000000;1.000000;1.000000;1.000000;-0.159095;0.159095;-0.159095;1.000000
445647.40350159;5696561.79789932;470.15354993;0.447059;0.427451;0.380392;28013.000000;1.000000;1.000000;1.000000;1.000000;-0.154985;0.154985;-0.154985;1.000000
445647.44100006;5696561.79909904;470.15294983;0.290196;0.278431;0.235294;17990.000000;1.000000;1.000000;1.000000;1.000000;-0.191631;0.191631;-0.191631;1.000000
445647.36810120;5696561.79640015;470.15664985;0.745098;0.72549;0.666667;47288.000000;1.000000;1.000000;1.000000;1.000000;-0.120984;0.120984;-0.120984;1.000000
445647.37520035;5696561.57149895;470.15654995;0.623529;0.619608;0.564706;40092.000000;1.000000;1.000000;1.000000;1.000000;0.123323;-0.123323;0.123323;1.000000
445647.37680252;5696561.53639992;470.15154984;0.552941;0.552941;0.482353;35723.000000;1.000000;1.000000;1.000000;1.000000;0.124926;-0.124926;0.124926;1.000000
445647.36380203;5696561.88069923;470.16905000;0.556863;0.521569;0.431373;34181.000000;1.000000;1.000000;1.000000;1.000000;0.122872;-0.122872;0.122872;1.000000
445647.37290009;5696561.65559967;470.17374994;0.882353;0.886275;0.85098;57568.000000;1.000000;1.000000;1.000000;1.000000;0.121669;-0.121669;0.121669;1.000000
445647.36710175;5696561.75919922;470.15374996;0.301961;0.278431;0.235294;18247.000000;1.000000;1.000000;1.000000;1.000000;-0.135239;0.135239;-0.135239;1.000000
445647.40480240;5696561.76039894;470.15084984;0.262745;0.247059;0.207843;16191.000000;1.000000;1.000000;1.000000;1.000000;-0.168019;0.168019;-0.168019;1.000000
445647.37210281;5696561.64629944;470.17365005;0.882353;0.882353;0.843137;57311.000000;1.000000;1.000000;1.000000;1.000000;0.120269;-0.120269;0.120269;1.000000
445647.37220200;5696561.84269913;470.16194989;0.635294;0.611765;0.541176;39835.000000;1.000000;1.000000;1.000000;1.000000;0.120993;-0.120993;0.120993;1.000000
445647.36350067;5696561.85050018;470.16404988;0.701961;0.67451;0.596078;43947.000000;1.000000;1.000000;1.000000;1.000000;0.113491;-0.113491;0.113491;1.000000
445647.36499985;5696561.81529816;470.16135003;0.654902;0.631373;0.576471;41377.000000;1.000000;1.000000;1.000000;1.000000;-0.114074;0.114074;-0.114074;1.000000
445647.42180069;5696561.81729897;470.14995005;0.258824;0.227451;0.176471;14906.000000;1.000000;1.000000;1.000000;1.000000;-0.170398;0.170398;-0.170398;1.000000
445647.38400085;5696561.81600006;470.15524985;0.658824;0.635294;0.580392;41634.000000;1.000000;1.000000;1.000000;1.000000;-0.132864;0.132864;-0.132864;1.000000
445647.42280014;5696561.77969940;470.15424993;0.592157;0.580392;0.537255;37779.000000;1.000000;1.000000;1.000000;1.000000;-0.178171;0.178171;-0.178171;1.000000
445647.42400177;5696561.74219902;470.15384986;0.396078;0.392157;0.34902;25443.000000;1.000000;1.000000;1.000000;1.000000;-0.193225;0.193225;-0.193225;1.000000
445647.38640030;5696561.74099930;470.15444996;0.156863;0.141176;0.0941176;8995.000000;1.000000;1.000000;1.000000;1.000000;-0.161300;0.161300;-0.161300;1.000000
445647.37460144;5696561.59249886;470.16144993;0.423529;0.423529;0.368627;27242.000000;1.000000;1.000000;1.000000;1.000000;0.122725;-0.122725;0.122725;1.000000
445647.38540085;5696561.77859886;470.15014984;0.584314;0.560784;0.513725;36751.000000;1.000000;1.000000;1.000000;1.000000;-0.143076;0.143076;-0.143076;1.000000
445647.36530121;5696561.84329994;470.16164996;0.623529;0.6;0.52549;39064.000000;1.000000;1.000000;1.000000;1.000000;0.114201;-0.114201;0.114201;1.000000
445647.36660202;5696561.80589874;470.15894987;0.713725;0.694118;0.639216;45232.000000;1.000000;1.000000;1.000000;1.000000;-0.117229;0.117229;-0.117229;1.000000
445647.37440308;5696561.61819847;470.16645004;0.458824;0.458824;0.403922;29555.000000;1.000000;1.000000;1.000000;1.000000;0.122526;-0.122526;0.122526;1.000000
445647.37610062;5696561.58309944;470.15905001;0.47451;0.47451;0.423529;30583.000000;1.000000;1.000000;1.000000;1.000000;0.124224;-0.124224;0.124224;1.000000
445647.37400253;5696561.83549889;470.15964987;0.576471;0.552941;0.482353;35980.000000;1.000000;1.000000;1.000000;1.000000;0.122249;-0.122249;0.122249;1.000000
445647.43910034;5696561.82729919;470.15084984;0.286275;0.254902;0.2;16705.000000;1.000000;1.000000;1.000000;1.000000;-0.187243;0.187243;-0.187243;1.000000
445647.40500076;5696561.78839882;470.15115001;0.380392;0.360784;0.313725;23644.000000;1.000000;1.000000;1.000000;1.000000;-0.158674;0.158674;-0.158674;1.000000
445647.44020279;5696561.78979881;470.15275003;0.4;0.388235;0.34902;25186.000000;1.000000;1.000000;1.000000;1.000000;-0.192569;0.192569;-0.192569;1.000000
445647.36740311;5696561.78719910;470.15415003;0.729412;0.709804;0.654902;46260.000000;1.000000;1.000000;1.000000;1.000000;-0.123200;0.123200;-0.123200;1.000000
445647.36860092;5696561.74969872;470.15374996;0.207843;0.188235;0.14902;12336.000000;1.000000;1.000000;1.000000;1.000000;-0.141678;0.141678;-0.141678;1.000000
445647.37660034;5696561.56209953;470.15654995;0.670588;0.670588;0.611765;43433.000000;1.000000;1.000000;1.000000;1.000000;0.124723;-0.124723;0.124723;1.000000
445647.32760056;5696562.02629860;470.18544986;0.698039;0.682353;0.603922;44461.000000;1.000000;1.000000;1.000000;1.000000;0.106974;-0.106974;0.106974;1.000000
445647.34210022;5696562.09229858;470.20785000;0.266667;0.25098;0.2;16191.000000;1.000000;1.000000;1.000000;1.000000;0.121473;-0.121473;0.121473;1.000000
445647.34090240;5696562.12979897;470.20825006;0.172549;0.152941;0.117647;10023.000000;1.000000;1.000000;1.000000;1.000000;0.120275;-0.120275;0.120275;1.000000
445647.33490189;5696562.06269844;470.20254995;0.658824;0.643137;0.564706;41891.000000;1.000000;1.000000;1.000000;1.000000;0.114275;-0.114275;0.114275;1.000000
445647.34440048;5696562.06419952;470.20295002;0.666667;0.654902;0.576471;42405.000000;1.000000;1.000000;1.000000;1.000000;0.123774;-0.123774;0.123774;1.000000
445647.33260162;5696562.13999947;470.20564987;0.517647;0.501961;0.466667;32896.000000;1.000000;1.000000;1.000000;1.000000;0.111975;-0.111975;0.111975;1.000000
445647.33540161;5696562.03719910;470.19054987;0.803922;0.792157;0.713725;51400.000000;1.000000;1.000000;1.000000;1.000000;0.114775;-0.114775;0.114775;1.000000
445647.33370026;5696562.10249908;470.20754983;0.164706;0.145098;0.101961;9509.000000;1.000000;1.000000;1.000000;1.000000;0.113073;-0.113073;0.113073;1.000000
445647.33310135;5696562.12119873;470.20774986;0.180392;0.160784;0.129412;10537.000000;1.000000;1.000000;1.000000;1.000000;0.112474;-0.112474;0.112474;1.000000
445647.33430298;5696562.08369835;470.20744993;0.388235;0.368627;0.305882;23901.000000;1.000000;1.000000;1.000000;1.000000;0.113676;-0.113676;0.113676;1.000000
445647.33900269;5696562.15809830;470.20614984;0.776471;0.764706;0.72549;49858.000000;1.000000;1.000000;1.000000;1.000000;0.119245;-0.119245;0.119245;1.000000
445647.33839996;5696562.17679985;470.20634987;0.643137;0.639216;0.592157;41377.000000;1.000000;1.000000;1.000000;1.000000;0.122327;-0.122327;0.122327;1.000000
445647.34380157;5696562.05729874;470.20054986;0.666667;0.65098;0.572549;42405.000000;1.000000;1.000000;1.000000;1.000000;0.123175;-0.123175;0.123175;1.000000
445647.33170135;5696562.13069923;470.20785000;0.243137;0.227451;0.192157;14906.000000;1.000000;1.000000;1.000000;1.000000;0.111074;-0.111074;0.111074;1.000000
445647.32660110;5696562.04500015;470.19264986;0.678431;0.658824;0.568627;42662.000000;1.000000;1.000000;1.000000;1.000000;0.105974;-0.105974;0.105974;1.000000
445647.33220108;5696562.11189850;470.20764997;0.172549;0.152941;0.117647;10023.000000;1.000000;1.000000;1.000000;1.000000;0.111574;-0.111574;0.111574;1.000000
445647.34550293;5696562.01769836;470.18384983;0.533333;0.513725;0.431373;33410.000000;1.000000;1.000000;1.000000;1.000000;0.124876;-0.124876;0.124876;1.000000
445647.33260162;5696562.09089859;470.20744993;0.223529;0.207843;0.14902;13364.000000;1.000000;1.000000;1.000000;1.000000;0.111975;-0.111975;0.111975;1.000000
445647.34410294;5696562.02939995;470.18855001;0.72549;0.709804;0.635294;46260.000000;1.000000;1.000000;1.000000;1.000000;0.123476;-0.123476;0.123476;1.000000
445647.33590134;5696562.04409988;470.19304993;0.8;0.784314;0.701961;50886.000000;1.000000;1.000000;1.000000;1.000000;0.115274;-0.115274;0.115274;1.000000
445647.33690079;5696562.18629845;470.20645000;0.482353;0.486275;0.435294;31354.000000;1.000000;1.000000;1.000000;1.000000;0.123819;-0.123819;0.123819;1.000000
445647.33810242;5696562.14879997;470.20604994;0.588235;0.576471;0.541176;37522.000000;1.000000;1.000000;1.000000;1.000000;0.117585;-0.117585;0.117585;1.000000
445647.33630188;5696562.01849945;470.18345000;0.611765;0.596078;0.517647;38807.000000;1.000000;1.000000;1.000000;1.000000;0.115675;-0.115675;0.115675;1.000000
