x,y,z,nx,ny,nz,curvature,density,label
26.99260139465332,-11.000171661376953,-0.045562148094177246,-0.0,-0.0,-1.0,0.05502143810228907,1.0,0
27.461711883544922,-10.962102890014648,-0.048858046531677246,-0.0,-0.0,-1.0,0.032083751219663025,1.0,0
27.703659057617188,-10.853052139282227,-0.04528236389160156,-0.0,-0.0,-1.0,0.021726311100700092,1.0,0
25.844999313354492,-10.58449935913086,-0.00974738597869873,-0.0,-0.0,-1.0,0.08902268908250578,2.0,0
26.20992660522461,-10.716787338256836,-0.020465373992919922,-0.0,-0.0,-1.0,0.19004022135819756,2.0,0
27.244693756103516,-10.812780380249023,-0.03667879104614258,-0.0,-0.0,-1.0,0.03824099874664965,2.0,0
25.5335693359375,-10.071830749511719,0.02376532554626465,-0.8532424991041497,-0.4738418868573392,0.21783274313560397,0.022029421213754608,4.0,1
26.05398178100586,-10.360774993896484,0.0029507875442504883,-0.0,-0.0,-1.0,0.040772844264022313,1.0,1
27.180187225341797,-10.376277923583984,-0.008381009101867676,0.42481718922634704,0.468638019662656,-0.774537773297397,0.17588776696291217,3.0,0
27.506900787353516,-10.216611862182617,-0.0024220943450927734,-0.0,-0.0,-1.0,0.16461228955196064,1.0,0
26.0275936126709,-11.768728256225586,0.4561370611190796,-0.11402550896086744,0.7312012529781095,-0.6725644288463806,0.12328648294997888,3.0,1
26.318666458129883,-10.477283477783203,-0.023889780044555664,-0.0,-0.0,-1.0,0.029089273864165727,1.0,0
26.56133270263672,-10.574432373046875,-0.03456759452819824,-0.0,-0.0,-1.0,0.06772097512476569,1.0,0
26.914844512939453,-10.643653869628906,-0.04668021202087402,-0.0,-0.0,-1.0,0.05693844216335455,1.0,0
26.105958938598633,-10.349859237670898,-0.012564659118652344,-0.0,-0.0,-1.0,0.04676986134602293,2.0,0
27.2983341217041,-10.285247802734375,-0.03690659999847412,0.2427874276950386,-0.09387643960322693,-0.9655265294338876,0.16102930952565805,4.0,0
27.606204986572266,-10.101818084716797,-0.035095810890197754,-0.0,-0.0,-1.0,0.16577057868820852,1.0,0
25.392263412475586,-9.912193298339844,0.02422785758972168,-0.0,-0.0,-1.0,0.03368770911091945,1.0,1
25.770689010620117,-9.918397903442383,0.01708245277404785,-0.0,-0.0,-1.0,0.03845602050066919,1.0,1
26.12868309020996,-11.664264678955078,0.9128599166870117,-0.0,-0.0,-1.0,0.18841392050335445,1.0,1
26.55088233947754,-10.091466903686523,-0.05130314826965332,-0.0,-0.0,-1.0,0.01875316845938967,1.0,0
26.95635223388672,-10.209943771362305,-0.062480807304382324,-0.0,-0.0,-1.0,0.026948999714634412,1.0,0
27.238874435424805,-10.175424575805664,-0.06438839435577393,-0.0,-0.0,-1.0,0.06136222524910875,1.0,0
25.827322006225586,-9.710506439208984,-0.024370670318603516,-0.0,-0.0,-1.0,0.0603375505985333,1.0,0
26.014692306518555,-9.715068817138672,-0.026067733764648438,-0.0,-0.0,-1.0,0.029566518865485444,2.0,0
26.816022872924805,-9.975685119628906,-0.04809701442718506,-0.0,-0.0,-1.0,0.02900599346893534,1.0,0
27.45741844177246,-10.02297592163086,-0.05926203727722168,-0.0,-0.0,-1.0,0.06844154717749074,2.0,0
25.317054748535156,-9.47475814819336,-0.008856415748596191,-0.0,-0.0,-1.0,0.05724265742898844,1.0,0
25.673538208007812,-9.565006256103516,-0.015611052513122559,-0.0,-0.0,-1.0,0.08475788275088486,1.0,0
26.201589584350586,-9.539628982543945,-0.01836228370666504,-0.0,-0.0,-1.0,0.019519364804817092,1.0,0
26.58611488342285,-10.396751403808594,-0.08129405975341797,-0.0,-0.0,-1.0,0.02613916096096798,2.0,0
26.853736877441406,-10.511650085449219,-0.09288525581359863,0.7315239509775676,0.1601780436526459,-0.6627335086426369,0.04958004574727614,3.0,0
26.155502319335938,-10.165067672729492,-0.06077289581298828,-0.0,-0.0,-1.0,0.024427498316683425,1.0,0
26.414417266845703,-10.30905532836914,-0.07326340675354004,-0.0,-0.0,-1.0,0.017492355867739458,1.0,0
26.866230010986328,-10.316974639892578,-0.08193910121917725,-0.0,-0.0,-1.0,0.03581345175318185,2.0,0
27.30417823791504,-10.215614318847656,-0.08475136756896973,-0.0,-0.0,-1.0,0.07229254829741341,1.0,0
27.565675735473633,-10.124719619750977,-0.08502686023712158,0.7694079620082499,0.2989893063229843,-0.564461497980874,0.12354869260310464,4.0,0
25.295888900756836,-9.844886779785156,-0.03075563907623291,-0.0,-0.0,-1.0,0.07000198080192459,2.0,0
25.697891235351562,-9.87033462524414,-0.03732633590698242,-0.4643038285958245,-0.6619272306291821,-0.5884507592847859,0.02611310705542001,5.0,0
25.983890533447266,-9.894603729248047,-0.04275631904602051,0.35786878315002507,-0.8244163161618259,-0.43848337675775667,0.04505579099345095,4.0,0
26.489574432373047,-10.04330062866211,-0.08847999572753906,-0.0,-0.0,-1.0,0.016648780425821998,1.0,0
26.814594268798828,-10.115640640258789,-0.09299135208129883,0.02176905385341045,-0.9975310154276283,0.06676811779773506,0.028380606356739606,5.0,0
27.153148651123047,-10.14384651184082,-0.09555244445800781,-0.0,-0.0,-1.0,0.053271105350629414,2.0,0
27.468847274780273,-10.048433303833008,-0.09171473979949951,-0.0,-0.0,-1.0,0.03073305650739158,2.0,0
25.78647232055664,-9.591163635253906,-0.06482625007629395,-0.0,-0.0,-1.0,0.06856935562233354,2.0,0
26.024410247802734,-9.637197494506836,-0.06683337688446045,-0.0,-0.0,-1.0,0.018874155178152816,1.0,0
26.397872924804688,-9.861230850219727,-0.07860171794891357,-0.0,-0.0,-1.0,0.02312880835553857,2.0,0
27.638586044311523,-9.709688186645508,-0.07396900653839111,0.02828068507177766,0.9959027283782714,0.08589504328298532,0.12893919820041377,3.0,0
25.533077239990234,-9.467525482177734,-0.0591045618057251,-0.0,-0.0,-1.0,0.1007259847459793,2.0,0
26.68986701965332,-11.186662673950195,-0.03554189205169678,-0.7432269624028234,0.0778926308995395,-0.6644895939057438,0.05687507318375682,3.0,0
27.120391845703125,-11.31170654296875,-0.04622852802276611,0.259755947034427,0.9612914892770981,0.09189951372921766,0.026661723073889323,3.0,0
27.415992736816406,-11.366756439208984,-0.05244314670562744,-0.0,-0.0,-1.0,0.0717179636604296,2.0,0
25.65264129638672,-10.824529647827148,-0.010277390480041504,-0.0,-0.0,-1.0,0.06714750908042047,2.0,0
25.904518127441406,-11.011241912841797,-0.020928263664245605,-0.0,-0.0,-1.0,0.01801405064306146,2.0,0
26.29800796508789,-11.050878524780273,-0.025473713874816895,-0.0,-0.0,-1.0,0.12698824103858353,2.0,0
26.719318389892578,-11.095035552978516,-0.031138062477111816,-0.0,-0.0,-1.0,0.1469076173619286,2.0,0
25.3726806640625,-10.293523788452148,0.017032980918884277,-0.0,-0.0,-1.0,0.05228034351165644,2.0,1
26.86149024963379,-9.66769790649414,-0.08425891399383545,-0.0,-0.0,-1.0,0.03996200815305614,2.0,0
27.164453506469727,-9.752168655395508,-0.07951164245605469,-0.0,-0.0,-1.0,0.011506021348042636,1.0,0
27.61977767944336,-9.823570251464844,-0.07065737247467041,-0.0,-0.0,-1.0,0.055349001705378695,1.0,0
27.121204376220703,-11.213224411010742,-0.07401013374328613,-0.0,-0.0,-1.0,0.0426047091961841,1.0,0
26.34840965270996,-10.778984069824219,-0.06749892234802246,0.8630907951942951,0.4694444865094257,-0.18626903483075422,0.07340041322384261,4.0,0
26.681472778320312,-10.930273056030273,-0.06839680671691895,-0.0,-0.0,-1.0,0.10860697072999946,2.0,0
26.945404052734375,-10.977655410766602,-0.06633281707763672,-0.0,-0.0,-1.0,0.0456210331624913,1.0,0
25.957210540771484,-10.29979133605957,-0.0547327995300293,-0.0,-0.0,-1.0,0.033377266379947326,1.0,0
26.17078399658203,-10.436800003051758,-0.05636906623840332,-0.0,-0.0,-1.0,0.04546927748367123,1.0,0
27.316389083862305,-10.43952751159668,-0.037592411041259766,-0.0,-0.0,-1.0,0.13339676263453826,2.0,0
25.84757423400879,-9.851577758789062,-0.03867840766906738,-0.34753389161653,0.05348724048587169,-0.9361406461013624,0.03965047374851262,3.0,0
25.516752243041992,-9.602153778076172,-0.03572511672973633,-0.0,-0.0,-1.0,0.09256038258516298,1.0,0
25.72348976135254,-9.756780624389648,-0.03742551803588867,-0.0,-0.0,-1.0,0.035117860043297054,1.0,0
27.15953826904297,-9.565328598022461,-0.10193204879760742,-0.0,-0.0,-1.0,0.022331905499702924,1.0,0
27.43328857421875,-9.482473373413086,-0.09363102912902832,0.8517536660191692,-0.4438236221238917,-0.2784533800616086,0.07672251088507717,3.0,0
27.01789093017578,-9.400495529174805,-0.0969538688659668,-0.0,-0.0,-1.0,0.053868330913152684,2.0,0
27.443634033203125,-9.463289260864258,-0.09256291389465332,0.8517536660191692,-0.4438236221238917,-0.2784533800616086,0.054642006354201765,3.0,0
26.531326293945312,-11.115190505981445,-0.07800185680389404,-0.0,-0.0,-1.0,0.07915586624961313,1.0,0
26.93866539001465,-11.167961120605469,-0.07735073566436768,-0.0,-0.0,-1.0,0.03683625373883195,2.0,0
27.110963821411133,-11.305685043334961,-0.08256638050079346,-0.0,-0.0,-1.0,0.04464330809159257,2.0,0
26.09632110595703,-10.90711784362793,-0.07261693477630615,-0.0,-0.0,-1.0,0.09392429881464137,2.0,0
26.36988067626953,-10.964075088500977,-0.07258450984954834,0.9782103747806244,-0.040695110674817195,-0.20358872915442638,0.08287203458551697,3.0,0
25.798828125,-10.452066421508789,-0.05588042736053467,-0.0,-0.0,-1.0,0.030256603804089163,2.0,0
25.257009506225586,-10.101329803466797,-0.04770100116729736,-0.0,-0.0,-1.0,0.03834038627405278,2.0,0
25.642681121826172,-10.08718490600586,-0.04206836223602295,-0.0,-0.0,-1.0,0.022812997757323497,1.0,0
25.491052627563477,-11.462865829467773,-0.0014519691467285156,-0.0,-0.0,-1.0,0.09102621060349064,1.0,0
25.835660934448242,-11.653047561645508,-0.0073320865631103516,-0.0,-0.0,-1.0,0.029049553867587254,2.0,0
26.28431510925293,-11.790597915649414,-0.011077880859375,0.20127714284208623,0.9787822448379548,0.03837745378865072,0.09804939781325446,3.0,0
26.512887954711914,-11.849681854248047,-0.012819051742553711,-0.0,-0.0,-1.0,0.08153399990316249,1.0,0
26.83456802368164,-11.84797477722168,-0.011795997619628906,-0.0,-0.0,-1.0,0.035425403152933924,1.0,0
25.4000186920166,-11.288534164428711,0.0051577091217041016,-0.0,-0.0,-1.0,0.03392732263842257,2.0,1
25.729198455810547,-11.506721496582031,-0.0017588138580322266,-0.0,-0.0,-1.0,0.048688361974479635,1.0,0
26.130666732788086,-11.6064453125,-0.003833770751953125,-0.0,-0.0,-1.0,0.05846112509761611,1.0,0
25.29694366455078,-11.23868179321289,0.00644230842590332,-0.7768108741503131,-0.26099839867975866,-0.5731009524406918,0.04882077112658825,3.0,1
25.413665771484375,-10.749385833740234,0.027422428131103516,-0.0,-0.0,-1.0,0.12022132609848751,2.0,1
26.252836227416992,-11.29905891418457,-0.01181793212890625,-0.0,-0.0,-1.0,0.0334981270070972,2.0,0
26.584497451782227,-11.53567123413086,-0.01887965202331543,-0.0,-0.0,-1.0,0.030018351130064666,1.0,0
25.5982666015625,-10.854679107666016,-0.0005910396575927734,-0.0,-0.0,-1.0,0.08056761643234328,2.0,0
25.843420028686523,-11.104679107666016,-0.00788116455078125,-0.0,-0.0,-1.0,0.015783832895983348,2.0,0
26.054244995117188,-11.201807022094727,-0.009678840637207031,-0.0,-0.0,-1.0,0.02630971228041161,2.0,0
25.41408348083496,-10.59298324584961,0.007413625717163086,-0.0,-0.0,-1.0,0.0629541245028358,1.0,1
25.55711555480957,-10.514654159545898,0.012235641479492188,-0.0,-0.0,-1.0,0.0734537106492351,1.0,1
27.21212387084961,-9.362638473510742,-0.11547529697418213,-0.0,-0.0,-1.0,0.026768022817253198,1.0,0
27.657732009887695,-9.475151062011719,-0.11182034015655518,-0.0,-0.0,-1.0,0.10524520959889866,2.0,0
26.696758270263672,-9.765379905700684,-0.09065413475036621,-0.0,-0.0,-1.0,0.021050082532751264,2.0,0
26.977680206298828,-9.897366523742676,-0.08386099338531494,-0.0,-0.0,-1.0,0.032826706098492274,1.0,0
27.210121154785156,-10.251688957214355,-0.08436715602874756,0.16787359952373618,0.7299122802081196,0.6626058540220783,0.14624807393860556,4.0,0
26.815134048461914,-9.395451545715332,-0.07783591747283936,-0.0,-0.0,-1.0,0.04116654243795403,1.0,0
27.53293228149414,-9.73315715789795,-0.060544490814208984,0.5274153674182305,-0.6440549044517722,-0.5540995490547811,0.06786422876604539,3.0,0
26.745407104492188,-9.716971397399902,-0.13461530208587646,-0.0,-0.0,-1.0,0.019647032243152885,1.0,0
26.828330993652344,-9.640070915222168,-0.12963688373565674,-0.0,-0.0,-1.0,0.03708673036001819,1.0,0
27.052589416503906,-9.90031909942627,-0.1355123519897461,-0.0,-0.0,-1.0,0.028431107985748324,1.0,0
27.657634735107422,-9.6351900100708,-0.11145293712615967,0.44309524560889857,0.15317809497775486,-0.8832910474683726,0.05549019614879774,3.0,0
25.746810913085938,-9.48572063446045,-0.09758520126342773,-0.0,-0.0,-1.0,0.09206291519582867,1.0,0
25.902910232543945,-9.663166999816895,-0.09507477283477783,-0.0,-0.0,-1.0,0.0187511873438104,1.0,0
26.082643508911133,-9.822028160095215,-0.09133875370025635,-0.0,-0.0,-1.0,0.02737493342410446,1.0,0
26.245067596435547,-10.227192878723145,-0.09353983402252197,-0.0,-0.0,-1.0,0.029518217316541546,1.0,0
26.38887596130371,-10.655938148498535,-0.09719371795654297,-0.0,-0.0,-1.0,0.03340907554563907,1.0,0
26.538375854492188,-10.924208641052246,-0.09737730026245117,0.9676293627915311,0.2509563428734101,0.026726957089401645,0.14253655458718748,5.0,0
27.623483657836914,-11.601536750793457,-0.07267868518829346,-0.0,-0.0,-1.0,0.052535587443668395,2.0,0
25.573453903198242,-9.474120140075684,-0.08511233329772949,-0.0,-0.0,-1.0,0.10812860808238609,2.0,0
25.804248809814453,-9.653803825378418,-0.07921302318572998,-0.0,-0.0,-1.0,0.0753602278919068,1.0,0
25.993701934814453,-9.872733116149902,-0.07581806182861328,0.35786878315002507,-0.8244163161618259,-0.43848337675775667,0.045055790993450986,4.0,0
26.013891220092773,-10.242156028747559,-0.08220124244689941,-0.0,-0.0,-1.0,0.030757378551963314,2.0,0
26.24941635131836,-10.344466209411621,-0.07495450973510742,-0.0,-0.0,-1.0,0.04026350663417004,2.0,0
26.276575088500977,-10.721631050109863,-0.08145880699157715,-0.0,-0.0,-1.0,0.08768845901624715,1.0,0
26.45012092590332,-10.954411506652832,-0.07947230339050293,-0.0,-0.0,-1.0,0.12079861403520448,2.0,0
27.435314178466797,-11.794978141784668,-0.06001007556915283,-0.0,-0.0,-1.0,0.1401876192836474,2.0,0
26.367582321166992,-9.768354415893555,-0.10794186592102051,0.05663339175627892,-0.09290560030795512,-0.994062980082046,0.023099678408535895,3.0,0
26.462549209594727,-9.916837692260742,-0.10979890823364258,-0.0,-0.0,-1.0,0.026370858213856117,2.0,0
26.61082649230957,-10.090646743774414,-0.11089622974395752,-0.0,-0.0,-1.0,0.01757556648166564,2.0,0
26.86658477783203,-10.323474884033203,-0.11074113845825195,-0.24047374525539475,0.5068276482066979,-0.8278273448347256,0.03581345175318179,4.0,0
25.463924407958984,-9.648106575012207,-0.012444257736206055,-0.0,-0.0,-1.0,0.06807764523568842,1.0,0
25.77623176574707,-10.939789772033691,-0.03031289577484131,-0.0,-0.0,-1.0,0.026856349217284345,1.0,0
25.353351593017578,-10.775837898254395,-0.041704654693603516,-0.0,-0.0,-1.0,0.13806442821668863,1.0,0
26.365222930908203,-11.361292839050293,-0.019565939903259277,-0.9995573544774349,0.012312675689412151,-0.02708307824896187,0.11118772303111901,3.0,0
26.00827407836914,-11.223977088928223,-0.0287855863571167,-0.0,-0.0,-1.0,0.01829645996669942,2.0,0
26.468469619750977,-11.732823371887207,-0.025040745735168457,-0.0,-0.0,-1.0,0.07776852116824164,2.0,0
25.461013793945312,-9.54609203338623,0.105155348777771,-0.0,-0.0,-1.0,0.0692661282169159,1.0,1
26.858922958374023,-9.497735023498535,0.045502543449401855,-0.0,-0.0,-1.0,0.042305617271356045,1.0,1
25.862159729003906,-9.533255577087402,0.08808457851409912,-0.0,-0.0,-1.0,0.048389518450902176,1.0,1
26.163410186767578,-11.703964233398438,0.6025127172470093,-0.0,-0.0,-1.0,0.10325281034393831,1.0,1
25.418651580810547,-10.946246147155762,0.05033266544342041,0.24215657958179992,-0.9365450770909115,0.2534630338767822,0.15186350156509792,5.0,1
25.299720764160156,-11.80346393585205,0.04805135726928711,-0.0,-0.0,-1.0,0.15122512366507498,1.0,1
26.010913848876953,-11.602299690246582,-0.03967273235321045,-0.0,-0.0,-1.0,0.03413771104534588,1.0,0
26.6170654296875,-10.926003456115723,-0.10638689994812012,-0.0,-0.0,-1.0,0.09920868239500888,1.0,0
26.445043563842773,-11.199885368347168,-0.0888221263885498,-0.0,-0.0,-1.0,0.04175221867143743,2.0,0
26.891096115112305,-10.486128807067871,-0.13480305671691895,-0.0,-0.0,-1.0,0.0485751785741385,1.0,0
26.824298858642578,-10.79577350616455,-0.1316213607788086,-0.0,-0.0,-1.0,0.09014934676960992,1.0,0
25.472902297973633,-10.855399131774902,0.045172810554504395,-0.09067594229818826,-0.9861953159878775,-0.13855205596419776,0.13859962537583187,7.0,1
27.318893432617188,-9.465609550476074,-0.1744997501373291,-0.0,-0.0,-1.0,0.03558175465502427,2.0,0
27.151626586914062,-9.795437812805176,-0.1574651002883911,-0.0,-0.0,-1.0,0.010813090921136113,1.0,0
27.067047119140625,-10.024981498718262,-0.1501089334487915,-0.0,-0.0,-1.0,0.03795885602592796,1.0,0
25.694549560546875,-11.84381103515625,0.10577893257141113,-0.0,-0.0,-1.0,0.14148362975348597,1.0,1
27.26723289489746,-11.442123413085938,-0.0068700313568115234,-0.0,-0.0,-1.0,0.06148871718897639,2.0,0
25.44003677368164,-10.970355987548828,0.09919214248657227,0.1347642541018298,0.2869179545117435,-0.948428533520146,0.13875681232369158,3.0,1
26.703601837158203,-11.011363983154297,0.0034636259078979492,-0.0,-0.0,-1.0,0.25553686139860593,1.0,1
26.699552536010742,-11.837930679321289,-0.02503645420074463,-0.0,-0.0,-1.0,0.04233335489854439,2.0,0
27.16061782836914,-11.506269454956055,-0.04852795600891113,0.8155248599572983,0.46028668513485665,-0.3507924889150198,0.09051410765834303,3.0,0
27.113040924072266,-11.752147674560547,-0.053397297859191895,-0.0,-0.0,-1.0,0.07316516518883413,1.0,0
27.492748260498047,-11.570804595947266,-0.07628524303436279,-0.0,-0.0,-1.0,0.06948430646883391,1.0,0
27.315959930419922,-10.319831848144531,-0.019725680351257324,0.3172881839521064,-0.28727543539746625,-0.9037704534568335,0.16623334191445874,3.0,0
26.178983688354492,-11.671131134033203,0.8527567386627197,-0.0,-0.0,-1.0,0.18841392050335448,1.0,1
26.295028686523438,-11.014041900634766,-0.08230042457580566,0.4162474103029971,0.038641636915133115,-0.908429918767853,0.03685327893939875,4.0,0
26.558542251586914,-10.904279708862305,-0.09519839286804199,-0.5457934953709188,0.8303658487612862,0.11225870844501719,0.16270997181746444,4.0,0
26.72456932067871,-11.038915634155273,-0.11200308799743652,-0.0,-0.0,-1.0,0.06132567370649851,1.0,0
26.973960876464844,-10.88895034790039,-0.12266147136688232,-0.0,-0.0,-1.0,0.04254353065521226,1.0,0
27.193506240844727,-10.657136917114258,-0.12813568115234375,-0.0,-0.0,-1.0,0.03574957824282972,1.0,0
26.344928741455078,-10.621664047241211,-0.06892204284667969,-0.0,-0.0,-1.0,0.042733694308917866,1.0,0
27.2967529296875,-10.343332290649414,-0.12235105037689209,-0.6983441714782764,0.4922248808847198,-0.5196441905769204,0.1453373900549254,3.0,0
27.515262603759766,-10.247756958007812,-0.1338644027709961,-0.0,-0.0,-1.0,0.11198531094907468,2.0,0
25.219751358032227,-10.431567192077637,-0.01837599277496338,-0.0,-0.0,-1.0,0.0649420488431305,2.0,0
26.225200653076172,-10.407393455505371,-0.06989693641662598,-0.0,-0.0,-1.0,0.041944719194606,2.0,0
26.62798500061035,-10.411757469177246,-0.09344124794006348,-0.30552572675102907,-0.08476319051544612,-0.9484035174053803,0.02713293044109008,3.0,0
27.0070743560791,-10.463967323303223,-0.11924552917480469,-0.0,-0.0,-1.0,0.040166413192208275,1.0,0
27.197961807250977,-10.181416511535645,-0.11583566665649414,-0.7202977598761942,-0.253261143421894,-0.645778545904067,0.06687505695149513,4.0,0
27.38485336303711,-10.062336921691895,-0.1214073896408081,-0.0,-0.0,-1.0,0.03713754556128064,2.0,0
27.603694915771484,-9.773604393005371,-0.12048077583312988,-0.0,-0.0,-1.0,0.06141882791321733,1.0,0
25.54039192199707,-10.078879356384277,-0.01437675952911377,-0.5775498759737225,-0.5399005474954812,-0.6123263342179703,0.015328020246059953,5.0,0
25.770336151123047,-10.068455696105957,-0.02582252025604248,-0.0,-0.0,-1.0,0.03485754124634154,2.0,0
25.859119415283203,-9.963706016540527,-0.024676084518432617,-0.0,-0.0,-1.0,0.05491671132137874,2.0,0
27.50180435180664,-9.648459434509277,-0.10686063766479492,0.01558151137763455,-0.01427345127262657,-0.9997767176184671,0.13419764506738344,4.0,0
25.99652099609375,-11.797505378723145,0.43011903762817383,0.6099165849403545,0.2933633142427639,-0.7361655556131356,0.1406136723785579,4.0,1
25.93593406677246,-11.229164123535156,-0.007471323013305664,-0.0,-0.0,-1.0,0.017778590386347656,1.0,0
26.160734176635742,-11.292619705200195,-0.01225745677947998,-0.0,-0.0,-1.0,0.03186566632681345,1.0,0
26.49877166748047,-11.353876113891602,-0.017876029014587402,-0.0,-0.0,-1.0,0.08165393688951766,2.0,0
26.91221046447754,-11.41543960571289,-0.024856090545654297,-0.0,-0.0,-1.0,0.03289141692080267,1.0,0
27.41937828063965,-11.565807342529297,-0.03905534744262695,-0.0,-0.0,-1.0,0.06652530994058427,1.0,0
25.780078887939453,-11.038370132446289,0.004470705986022949,-0.0,-0.0,-1.0,0.021936652190743127,2.0,1
27.01239776611328,-11.310344696044922,-0.019484519958496094,-0.5568547370899908,0.38114008206531524,-0.7380007043517516,0.05367298663984343,3.0,0
25.43516731262207,-10.55263900756836,0.03428792953491211,-0.0,-0.0,-1.0,0.06114425771578969,1.0,1
25.642967224121094,-11.82059097290039,0.11045181751251221,-0.0,-0.0,-1.0,0.15246635084733592,1.0,1
25.569326400756836,-11.766585350036621,0.0544506311416626,-0.6427930256593262,0.6755073870989304,0.36125738212319547,0.1255118211485378,4.0,1
26.771484375,-9.577570915222168,-0.10568439960479736,-0.0,-0.0,-1.0,0.03971653907909703,2.0,0
27.009475708007812,-9.630663871765137,-0.1136178970336914,-0.0,-0.0,-1.0,0.018060797781085547,2.0,0
27.37568473815918,-9.589686393737793,-0.11769759654998779,0.6606270179089421,0.6149529006734128,-0.4305866616165595,0.07899676923678317,3.0,0
27.678335189819336,-9.5618314743042,-0.12215173244476318,0.8724470538341901,-0.38034776421395633,0.306874105315986,0.08033422158576334,3.0,0
27.547054290771484,-9.49706745147705,-0.11466598510742188,-0.0,-0.0,-1.0,0.0642806481876765,2.0,0
25.5762882232666,-11.767733573913574,0.2612755298614502,-0.0,-0.0,-1.0,0.16708717813696794,1.0,1
27.525747299194336,-9.425490379333496,-0.12973511219024658,-0.0,-0.0,-1.0,0.06184584037531961,2.0,0
25.941125869750977,-11.827359199523926,0.4642064571380615,-0.07040967128788403,0.7334119185736784,-0.676128268809409,0.14164506150832126,3.0,1
25.961360931396484,-11.843266487121582,0.44484424591064453,-0.32143193095776057,0.7413672528392393,-0.5891146833837743,0.14164506150832126,4.0,1
26.47595977783203,-11.705024719238281,0.002054572105407715,0.9743107682028112,-0.15212754395544767,-0.16605943915999313,0.0780023834702421,4.0,1
26.871871948242188,-11.77110481262207,0.00336301326751709,-0.6821953539654508,-0.14335274297571216,-0.7169794209803318,0.04014302396928696,3.0,1
25.45974349975586,-11.170841217041016,0.015135765075683594,-0.0,-0.0,-1.0,0.07335962718537371,1.0,1
25.75528335571289,-11.23284912109375,0.016764283180236816,-0.0,-0.0,-1.0,0.031837555612331404,2.0,1
26.087013244628906,-11.403913497924805,0.012806296348571777,-0.0,-0.0,-1.0,0.05718459191557567,2.0,1
27.361499786376953,-11.560270309448242,0.02029573917388916,-0.0,-0.0,-1.0,0.06941698445148141,2.0,1
25.33009147644043,-10.804037094116211,0.031970858573913574,-0.0,-0.0,-1.0,0.11423385717030522,1.0,1
25.719650268554688,-11.820018768310547,0.05284774303436279,-0.0,-0.0,-1.0,0.05761521697247209,2.0,1
25.372987747192383,-11.515472412109375,0.061141014099121094,-0.0,-0.0,-1.0,0.1607540453045913,2.0,1
25.622257232666016,-11.706439971923828,0.05658435821533203,-0.0,-0.0,-1.0,0.0792433091356603,2.0,1
25.544832229614258,-10.781425476074219,0.09990942478179932,-0.0,-0.0,-1.0,0.06569848666077764,1.0,1
25.6250057220459,-10.858293533325195,-0.0023573637008666992,-0.08656022819378599,-0.15981494699230775,-0.9833445528465016,0.06964302225713696,3.0,0
25.786827087402344,-11.068534851074219,-0.0076177120208740234,-0.0,-0.0,-1.0,0.020157950338680935,2.0,0
26.05356216430664,-11.246957778930664,-0.008487224578857422,0.261126165382843,-0.029413536455789306,-0.9648564502689592,0.027057253187628756,3.0,0
26.36715316772461,-11.419361114501953,-0.007977843284606934,-0.0,-0.0,-1.0,0.08995723519097358,2.0,0
26.754560470581055,-11.634342193603516,-0.007859230041503906,-0.0,-0.0,-1.0,0.04229079976782068,1.0,0
26.99483871459961,-11.788822174072266,-0.009034276008605957,-0.0,-0.0,-1.0,0.03927582608552039,2.0,0
27.128801345825195,-11.789209365844727,-0.005539655685424805,-0.0,-0.0,-1.0,0.07050621939890228,1.0,0
25.40826416015625,-10.682708740234375,-0.0005334615707397461,-0.0,-0.0,-1.0,0.09116677814914356,1.0,0
25.221311569213867,-10.376192092895508,0.008157968521118164,0.8547142516827055,0.44902559227296834,0.26046029535109994,0.06494873814589658,3.0,1
25.588790893554688,-10.682474136352539,0.004901766777038574,0.17310440906840827,0.6806668517484497,-0.7118479475926945,0.09307282486471351,3.0,1
25.740013122558594,-10.818489074707031,0.0029363632202148438,-0.0,-0.0,-1.0,0.0461587612269834,1.0,1
27.401718139648438,-11.498899459838867,0.015896916389465332,-0.0,-0.0,-1.0,0.08170132822724718,2.0,1
25.529464721679688,-11.227574348449707,0.016239404678344727,-0.0,-0.0,-1.0,0.061862389630077494,1.0,1
25.630022048950195,-11.44516658782959,0.007251620292663574,-0.0,-0.0,-1.0,0.056451221630729354,1.0,1
25.92544174194336,-11.415894508361816,0.01468658447265625,-0.0,-0.0,-1.0,0.027295321154369813,1.0,1
26.255321502685547,-11.60465145111084,0.011423587799072266,-0.0,-0.0,-1.0,0.10973258113913076,2.0,1
25.263784408569336,-10.824641227722168,0.03094959259033203,-0.0,-0.0,-1.0,0.10488365633147953,1.0,1
25.428749084472656,-10.861689567565918,0.03263545036315918,-0.0,-0.0,-1.0,0.14387759467855957,2.0,1
26.28957748413086,-10.78022289276123,0.05453848838806152,-0.0,-0.0,-1.0,0.12877379589027002,1.0,1
25.219261169433594,-10.360079765319824,-0.01289069652557373,0.8547142516827055,0.44902559227296834,0.26046029535109994,0.05993386567770129,3.0,0
25.425884246826172,-10.396334648132324,-0.007886648178100586,0.25460141416738763,-0.3846588994911206,-0.8872517404582796,0.0503911865421035,3.0,0
25.642662048339844,-10.630814552307129,-0.01221930980682373,-0.0,-0.0,-1.0,0.05545548322689059,2.0,0
25.851415634155273,-11.02263355255127,-0.02469789981842041,-0.0,-0.0,-1.0,0.016332600330297087,1.0,0
26.144512176513672,-11.220837593078613,-0.025414347648620605,-0.0,-0.0,-1.0,0.03253401268400932,1.0,0
26.37310218811035,-11.286063194274902,-0.021741390228271484,-0.0,-0.0,-1.0,0.09926066134594684,1.0,0
26.705713272094727,-11.490460395812988,-0.022119998931884766,-0.0,-0.0,-1.0,0.02967634918975628,2.0,0
26.982187271118164,-11.630702018737793,-0.02117764949798584,0.5306571719053789,0.6647336516228328,-0.5258632315588903,0.03740871868753343,3.0,0
27.319961547851562,-11.420193672180176,-0.001002669334411621,-0.0,-0.0,-1.0,0.0627586642562538,2.0,0
25.539579391479492,-10.113021850585938,0.002351999282836914,-0.16501670417629374,0.13803875644123056,-0.9765832217803826,0.018466351728200676,5.0,1
25.65504264831543,-10.340999603271484,-0.014864325523376465,-0.0,-0.0,-1.0,0.02716670299032889,1.0,0
25.90566062927246,-10.324760437011719,-0.013654232025146484,-0.0,-0.0,-1.0,0.03089903961901073,1.0,0
26.109195709228516,-10.603179931640625,-0.03521168231964111,-0.0,-0.0,-1.0,0.14879381728229749,2.0,0
26.287410736083984,-10.882137298583984,-0.057135581970214844,0.7559532698323693,0.2605751487317667,0.600529138088375,0.1227961228510363,3.0,0
26.39608383178711,-10.568815231323242,-0.033075809478759766,-0.0,-0.0,-1.0,0.030751570326583277,1.0,0
26.48785972595215,-10.914581298828125,-0.06026434898376465,-0.0,-0.0,-1.0,0.18228270648803077,1.0,0
26.880916595458984,-10.912605285644531,-0.06163156032562256,-0.0,-0.0,-1.0,0.03538818696182347,1.0,0
27.352519989013672,-10.40030288696289,-0.023389816284179688,0.8477124869283654,0.5121824896693712,-0.13803128914057952,0.1318733739948911,3.0,0
27.322357177734375,-10.888299942016602,-0.06192183494567871,-0.0,-0.0,-1.0,0.03292531349362595,1.0,0
27.462589263916016,-10.352640151977539,-0.02012944221496582,-0.0,-0.0,-1.0,0.11391930600412786,2.0,0
25.212142944335938,-11.24174690246582,0.05560791492462158,-0.0,-0.0,-1.0,0.0381286158809582,1.0,1
25.399093627929688,-11.472078323364258,0.03748881816864014,-0.0,-0.0,-1.0,0.07327849880580095,2.0,1
25.769390106201172,-11.565267562866211,0.0277937650680542,-0.0,-0.0,-1.0,0.03769193850673825,2.0,1
26.187023162841797,-10.783550262451172,0.08276927471160889,0.38378919562529923,-0.04797390899574136,-0.9221737132324657,0.14096833517557017,4.0,1
26.2450008392334,-11.496406555175781,0.028856396675109863,-0.0,-0.0,-1.0,0.1128362409426533,1.0,1
26.304262161254883,-11.74508285522461,0.00947272777557373,-0.0,-0.0,-1.0,0.09980177233788556,1.0,1
26.617660522460938,-10.791019439697266,0.07859408855438232,0.895219884252129,-0.3434723234331073,0.28391569501362124,0.17318577336204072,3.0,1
26.44721031188965,-10.913442611694336,0.0709083080291748,-0.0,-0.0,-1.0,0.22559967400550612,1.0,1
26.570556640625,-11.731958389282227,0.0077141523361206055,-0.0,-0.0,-1.0,0.07997493050128093,1.0,1
26.881641387939453,-11.797018051147461,-0.0007513761520385742,0.020159804228194373,-0.035807830593310455,-0.9991553340505578,0.04014302396928696,4.0,0
25.21377182006836,-11.34754753112793,0.04529929161071777,-0.0,-0.0,-1.0,0.03354540408980231,2.0,1
25.40026092529297,-10.927005767822266,0.0757896900177002,0.4337706049068146,-0.8350765128323413,0.33836412344477745,0.14515959936840173,5.0,1
25.40253448486328,-11.521902084350586,0.03308987617492676,-0.0,-0.0,-1.0,0.1037720255551404,2.0,1
25.67643165588379,-11.641233444213867,0.02469944953918457,-0.0,-0.0,-1.0,0.04051390518813306,2.0,1
25.83551788330078,-11.668388366699219,0.02273428440093994,-0.0,-0.0,-1.0,0.02814801974673781,2.0,1
26.220523834228516,-10.773120880126953,0.0882188081741333,0.32739866524608763,-0.8825325207033456,-0.33755957088502037,0.146720000726015,5.0,1
26.26883888244629,-11.427448272705078,0.040266990661621094,-0.0,-0.0,-1.0,0.10085932457619681,1.0,1
26.315765380859375,-11.797998428344727,0.012719154357910156,0.6082439643227637,0.03498298677889443,-0.7929788587982379,0.09292551667208312,3.0,1
26.599145889282227,-10.835050582885742,0.08370542526245117,0.535066513212283,-0.31594297594434606,-0.7835074105522425,0.18374737942016758,3.0,1
26.623525619506836,-11.849613189697266,0.008217215538024902,-0.0,-0.0,-1.0,0.04862833102339224,1.0,1
26.78937530517578,-11.859029769897461,0.007021427154541016,-0.0,-0.0,-1.0,0.043309878688840515,1.0,1
25.621732711791992,-10.211212158203125,-0.004011034965515137,-0.0,-0.0,-1.0,0.03384588970800693,1.0,0
25.708641052246094,-10.52680778503418,-0.025999903678894043,-0.0,-0.0,-1.0,0.049271612638779876,2.0,0
25.85871124267578,-10.771041870117188,-0.042078256607055664,-0.0,-0.0,-1.0,0.021742445019076656,1.0,0
26.18330192565918,-10.854104995727539,-0.044190287590026855,-0.0,-0.0,-1.0,0.18155756162576714,2.0,0
26.42308807373047,-10.983329772949219,-0.05117309093475342,-0.032810121272458165,-0.6832034344437082,-0.7294906189296806,0.1227987335413234,3.0,0
26.61422348022461,-11.06753921508789,-0.055541038513183594,-0.0,-0.0,-1.0,0.08193169361290402,2.0,0
26.85845184326172,-11.075149536132812,-0.053626179695129395,0.7760055607546177,-0.2658375169358899,-0.5719665936637135,0.0447468218545693,3.0,0
27.193056106567383,-10.302072525024414,0.009518742561340332,0.8374171066351846,-0.4858227579745701,-0.25041732637487,0.19542413392477437,3.0,1
26.846473693847656,-9.405244827270508,-0.11807656288146973,-0.06689690936147194,0.2166862575683029,-0.9739465433476967,0.04363334936339394,4.0,0
27.053504943847656,-9.53249740600586,-0.12045669555664062,0.31145662916691713,0.5165630700964517,-0.7975947359157465,0.020036753274616112,4.0,0
27.441396713256836,-9.589473724365234,-0.1116185188293457,0.07646243488982733,-0.9318879465161861,-0.354596039442863,0.12757363020935233,3.0,0
27.672740936279297,-9.675386428833008,-0.11084580421447754,0.959447634424418,0.2749868088805609,-0.06198783541206788,0.12915178832274285,4.0,0
26.952816009521484,-9.441766738891602,-0.11953508853912354,-0.0,-0.0,-1.0,0.05250674872603345,1.0,0
27.35315704345703,-9.557903289794922,-0.10686886310577393,-0.0,-0.0,-1.0,0.0840086189520341,2.0,0
27.520000457763672,-9.671035766601562,-0.1065131425857544,0.01558151137763455,-0.01427345127262657,-0.9997767176184671,0.10142602951445771,4.0,0
27.479963302612305,-9.589693069458008,-0.10272586345672607,-0.357736695384782,0.3952817952175517,-0.846035908897941,0.10484477474024753,5.0,0
27.604427337646484,-9.7060546875,-0.1048506498336792,-0.0,-0.0,-1.0,0.06645079870973228,2.0,0
26.826215744018555,-9.478876113891602,-0.1021578311920166,0.9499846435981202,-0.2975410447211802,-0.09486044293582845,0.042334620523158936,3.0,0
27.03961944580078,-9.626986503601074,-0.1052480936050415,0.2234614725745114,-0.8805820030914919,-0.41789987569537096,0.02099530845962175,3.0,0
27.21172332763672,-9.733156204223633,-0.10700595378875732,-0.0,-0.0,-1.0,0.021044401370063005,2.0,0
27.51141929626465,-9.722180366516113,-0.0937802791595459,0.7500679457313566,0.5948542371813627,-0.2890441372761639,0.08448398820409349,3.0,0
25.454891204833984,-10.922487258911133,0.05922532081604004,-0.0,-0.0,-1.0,0.12565819966920683,2.0,1
25.32070541381836,-11.184662818908691,0.040087342262268066,0.09508156971651162,-0.030220190026396178,-0.9950106709050978,0.032820166907157375,5.0,1
25.374526977539062,-11.589035987854004,0.023926973342895508,-0.0,-0.0,-1.0,0.06646216333817351,2.0,1
26.21202850341797,-10.844141960144043,0.10244393348693848,-0.0,-0.0,-1.0,0.09436907210513532,1.0,1
25.34918975830078,-10.94748306274414,0.07106781005859375,0.9864278819955455,-0.1113110718347411,-0.12070575342038758,0.139954553241166,5.0,1
25.263761520385742,-11.31622314453125,0.04961347579956055,-0.3724514147156337,0.9133852752150158,0.16433892629779812,0.03470994611915506,3.0,1
25.357425689697266,-11.59447193145752,0.04175913333892822,0.68044350142398,0.5932649236677221,0.43015505543397486,0.1627685465055918,4.0,1
25.56966209411621,-11.772199630737305,0.04456138610839844,-0.9482920992347929,-0.2887646647692961,0.13174620643322532,0.12551182114853776,3.0,1
26.23137664794922,-10.789412498474121,0.126459002494812,0.44456073812457253,-0.8407373188380498,-0.30907363334833743,0.1121338876070322,6.0,1
25.61009979248047,-11.77428913116455,0.1220247745513916,0.16565004383447599,0.904712218213259,-0.3924995098000513,0.17385308486834478,4.0,1
26.487106323242188,-9.447675704956055,-0.07779204845428467,0.0018712864031615426,-0.4194757131821102,-0.907764630472876,0.05296581192841519,4.0,0
26.437374114990234,-9.848747253417969,-0.11029577255249023,-0.0,-0.0,-1.0,0.02437136732898632,2.0,0
26.76881217956543,-10.120990753173828,-0.10793113708496094,-0.0,-0.0,-1.0,0.02298572833740605,2.0,0
26.949363708496094,-10.313966751098633,-0.11068928241729736,0.8672486625401133,-0.3526896819446461,-0.3514110777596078,0.04816559662779058,4.0,0
25.4312801361084,-11.800100326538086,0.23346400260925293,-0.0,-0.0,-1.0,0.12189424285388442,1.0,1
26.567771911621094,-9.67999267578125,-0.100258469581604,-0.0,-0.0,-1.0,0.013145614489942996,1.0,0
26.622739791870117,-9.804121017456055,-0.10341322422027588,-0.01247466736834762,-0.47402593282414746,-0.8804225108913596,0.01872026333558356,3.0,0
26.723905563354492,-9.902059555053711,-0.10108888149261475,-0.0,-0.0,-1.0,0.020747431583453595,1.0,0
26.945356369018555,-10.24697494506836,-0.10550642013549805,-0.7528214151493632,-0.5926080457268832,-0.2864884308873118,0.01862845725000136,3.0,0
26.59561538696289,-9.480443000793457,-0.08538389205932617,-0.0,-0.0,-1.0,0.035968229486457635,2.0,0
26.9019775390625,-10.038841247558594,-0.09508121013641357,-0.0,-0.0,-1.0,0.038190745813781624,2.0,0
26.870561599731445,-10.044660568237305,-0.09814834594726562,0.1620138395647243,-0.9700446780611194,0.18101060287948503,0.031079664846742086,3.0,0
26.999013900756836,-10.265313148498535,-0.10231530666351318,-0.0,-0.0,-1.0,0.0305523571837727,2.0,0
25.491884231567383,-11.75224494934082,0.2025585174560547,-0.0,-0.0,-1.0,0.15947953840982862,1.0,1
27.69481658935547,-9.502496719360352,-0.13586342334747314,-0.0,-0.0,-1.0,0.09927505886056635,1.0,0
27.62226104736328,-9.452531814575195,-0.13963520526885986,-0.0,-0.0,-1.0,0.10899371741194261,2.0,0
25.496807098388672,-10.877057075500488,0.051932573318481445,-0.56592971532553,-0.7018725634179795,-0.43254879728492945,0.10330061765733,4.0,1
25.51171875,-11.345529556274414,0.02904355525970459,-0.0,-0.0,-1.0,0.0799118415715399,2.0,1
25.350749969482422,-11.263357162475586,0.022156476974487305,-0.0,-0.0,-1.0,0.033051547138870534,2.0,1
25.74315071105957,-11.73952865600586,0.0237882137298584,-0.0,-0.0,-1.0,0.05189560843524673,1.0,1
25.52802085876465,-11.615678787231445,0.015910983085632324,-0.0,-0.0,-1.0,0.05101310974621792,1.0,1
25.99791717529297,-11.86082935333252,0.034044623374938965,-0.0,-0.0,-1.0,0.09068370155773593,1.0,1
26.25341796875,-10.778175354003906,0.10950255393981934,0.6954171321212451,-0.598846823330825,-0.3972121530603545,0.10110377962382704,4.0,1
26.731937408447266,-10.958320617675781,0.13252317905426025,-0.0,-0.0,-1.0,0.1255776458431978,1.0,1
26.947696685791016,-9.688797950744629,-0.12808454036712646,-0.0,-0.0,-1.0,0.010799579969796068,1.0,0
27.200422286987305,-10.102840423583984,-0.13131344318389893,-0.0,-0.0,-1.0,0.0479231945426895,1.0,0
27.11492919921875,-9.985525131225586,-0.13144993782043457,-0.0,-0.0,-1.0,0.034130087667892016,1.0,0
25.572998046875,-11.776002883911133,0.10517215728759766,0.26863635644138956,0.5641836821242724,-0.7807248432210881,0.14214396783921354,5.0,1
26.024335861206055,-11.74147891998291,0.6215097308158875,-0.0,-0.0,-1.0,0.1439398166262514,2.0,1
26.412691116333008,-9.374350547790527,-0.06724560260772705,-0.0,-0.0,-1.0,0.04775174822551572,1.0,0
26.405590057373047,-9.773348808288574,-0.10530972480773926,0.05663339175627892,-0.09290560030795512,-0.994062980082046,0.023178105739336943,3.0,0
26.336410522460938,-9.633541107177734,-0.09778344631195068,-0.0,-0.0,-1.0,0.03083529449981635,1.0,0
26.848569869995117,-10.117798805236816,-0.1039351224899292,-0.27679795587454187,-0.7275562151804724,-0.6277299143548454,0.026756136472079008,4.0,0
26.635082244873047,-9.930041313171387,-0.10205435752868652,-0.0,-0.0,-1.0,0.017042731821086822,1.0,0
26.931434631347656,-10.227684020996094,-0.10882723331451416,-0.41645828105089167,-0.43771889498621946,-0.7968467036489386,0.01777684649354369,3.0,0
25.470787048339844,-11.789400100708008,0.09015476703643799,-0.0,-0.0,-1.0,0.15195271216549816,2.0,1
26.168922424316406,-10.770358085632324,0.2089550495147705,-0.0,-0.0,-1.0,0.07722515496904388,1.0,1
26.720287322998047,-9.444116592407227,-0.10142111778259277,-0.0,-0.0,-1.0,0.0351783843086263,1.0,0
27.0399169921875,-9.97218132019043,-0.11022317409515381,-0.0,-0.0,-1.0,0.03654262387047512,1.0,0
26.862346649169922,-9.747194290161133,-0.11015129089355469,-0.0,-0.0,-1.0,0.016162588988081678,2.0,0
27.31295394897461,-10.308076858520508,-0.11072826385498047,-0.41128982231331274,0.45027507698854385,-0.7925232091897654,0.12524543272377037,3.0,0
27.19179916381836,-10.216897010803223,-0.11495518684387207,0.740856810742206,-0.15562592545316345,-0.6533848462458657,0.08997517631987274,4.0,0
26.817893981933594,-11.115636825561523,0.1981489658355713,-0.0,-0.0,-1.0,0.12399713701717437,1.0,1
26.338937759399414,-11.006291389465332,0.17262816429138184,-0.0,-0.0,-1.0,0.12671180167521642,1.0,1
25.49962615966797,-11.219868659973145,0.10298991203308105,-0.0,-0.0,-1.0,0.055183926402234025,1.0,1
26.367279052734375,-11.664214134216309,0.13477873802185059,-0.0,-0.0,-1.0,0.11544385195103167,1.0,1
25.261009216308594,-11.665814399719238,0.06052374839782715,-0.0,-0.0,-1.0,0.1595904856147019,1.0,1
26.109447479248047,-9.730051040649414,-0.08422458171844482,-0.0,-0.0,-1.0,0.024795956495884532,1.0,0
25.890506744384766,-9.55303955078125,-0.08506226539611816,-0.0,-0.0,-1.0,0.06211436782299795,1.0,0
26.532621383666992,-10.149259567260742,-0.09162890911102295,-0.0,-0.0,-1.0,0.01747254955291336,1.0,0
26.277347564697266,-9.982453346252441,-0.09512829780578613,-0.0,-0.0,-1.0,0.019035072408020236,2.0,0
26.837980270385742,-10.47144889831543,-0.10056102275848389,0.08265312198898934,-0.15555294369994,-0.9843636234297553,0.03863362892345858,3.0,0
26.718603134155273,-10.359048843383789,-0.09826159477233887,-0.0,-0.0,-1.0,0.02657776117323248,1.0,0
26.74319839477539,-10.91181755065918,0.2626643180847168,-0.0,-0.0,-1.0,0.18895748379629224,1.0,1
26.893320083618164,-9.414737701416016,-0.12115132808685303,0.014489567885499923,0.37211045788593905,-0.9280753523041158,0.043990075876112394,3.0,0
27.301429748535156,-9.922552108764648,-0.11949765682220459,0.13800852618126602,0.18083198279241747,-0.9737830562813453,0.06540713788822868,3.0,0
27.092227935791016,-9.676176071166992,-0.12089049816131592,0.27488640561862066,-0.6657028331150315,-0.6937414518310809,0.020680346770502782,3.0,0
27.34096908569336,-9.935698509216309,-0.11633527278900146,-0.41706768272927924,-0.7952304144602697,-0.4400717395381989,0.07384735419996946,4.0,0
27.086158752441406,-9.534917831420898,-0.10927689075469971,0.3112881453528852,0.5172359752944571,-0.7972243325588807,0.022284172245386206,3.0,0
27.35550308227539,-9.739328384399414,-0.09700274467468262,0.49616856072412147,0.621216829103868,-0.6065528918297967,0.0726173121975202,3.0,0
25.296022415161133,-10.353654861450195,0.030433177947998047,-0.0,-0.0,-1.0,0.07090225670379736,1.0,1
27.451595306396484,-9.958536148071289,-0.10629117488861084,-0.0,-0.0,-1.0,0.03780492990786557,2.0,0
25.535789489746094,-10.704566955566406,0.0277024507522583,0.8279459844614726,0.3124320015854631,-0.46571632052079104,0.11044866461751786,5.0,1
25.210464477539062,-10.652183532714844,0.0037446022033691406,-0.0,-0.0,-1.0,0.04905239357535819,1.0,1
26.61717987060547,-10.764169692993164,0.11259162425994873,-0.0,-0.0,-1.0,0.14632774850869454,2.0,1
26.19867706298828,-10.793872833251953,0.07650530338287354,0.38378919562529923,-0.04797390899574136,-0.9221737132324657,0.14308207814639498,4.0,1
25.602985382080078,-11.014015197753906,0.012244820594787598,-0.0,-0.0,-1.0,0.05256100844431792,2.0,1
26.67038345336914,-10.967668533325195,0.10222947597503662,-0.0,-0.0,-1.0,0.16306909698371663,2.0,1
26.003501892089844,-11.401517868041992,0.017609119415283203,0.5263901041027262,-0.5143380306881048,-0.6770301680801258,0.06071201333684314,4.0,1
25.831981658935547,-11.285187721252441,0.012088298797607422,0.310144068062929,-0.5909277201447282,-0.7447248395279502,0.022822720588785553,4.0,1
26.21118927001953,-11.712934494018555,0.011245250701904297,-0.0,-0.0,-1.0,0.1071648667680478,1.0,1
26.017322540283203,-11.554377555847168,0.007654547691345215,-0.0,-0.0,-1.0,0.0499006391020307,1.0,1
25.970989227294922,-11.861944198608398,0.40505194664001465,-0.034970918730266844,0.9692251870304383,-0.24367923930645538,0.1317726271936385,5.0,1
26.029720306396484,-11.700777053833008,0.8325678110122681,-0.7310838540216797,0.014101390266480796,-0.682141883468065,0.1636076205654466,5.0,1
25.473804473876953,-9.582297325134277,-0.0692596435546875,-0.0,-0.0,-1.0,0.08395952263940108,1.0,0
25.917795181274414,-9.972347259521484,-0.06292521953582764,0.9749480035593572,-0.21669221350515094,0.05020831566445656,0.06084115445994934,4.0,0
25.71295166015625,-9.852697372436523,-0.07101583480834961,0.09023522103163167,-0.46678886155379834,-0.8797532401842472,0.026869567165934444,5.0,0
27.524948120117188,-9.470470428466797,-0.16577255725860596,-0.0,-0.0,-1.0,0.1160748200298977,2.0,0
27.31900405883789,-9.363146781921387,-0.17734920978546143,0.5367646551836439,-0.7600298782899475,-0.36638543782763944,0.03218730197296847,3.0,0
26.068340301513672,-10.277109146118164,-0.07871735095977783,-0.8392907057930615,-0.49805021724159443,0.21803002608582409,0.03888120907030844,3.0,0
25.930444717407227,-10.193910598754883,-0.08328986167907715,-0.0,-0.0,-1.0,0.03590724973770628,2.0,0
26.188457489013672,-10.56173038482666,-0.09654200077056885,-0.0,-0.0,-1.0,0.04775747315263202,1.0,0
26.13172149658203,-10.568634033203125,-0.10243880748748779,-0.0,-0.0,-1.0,0.04525334553842001,1.0,0
26.52821159362793,-10.919669151306152,-0.10423064231872559,0.9676293627915311,0.2509563428734101,0.026726957089401645,0.12614368395777878,5.0,0
26.256103515625,-10.858678817749023,-0.1213141679763794,-0.0,-0.0,-1.0,0.06984395090608136,2.0,0
26.63686752319336,-11.04788875579834,-0.10877037048339844,-0.0,-0.0,-1.0,0.061905530011197835,2.0,0
27.31790542602539,-11.40896987915039,-0.09370243549346924,-0.0,-0.0,-1.0,0.052727276714269675,1.0,0
27.175182342529297,-10.335086822509766,0.013796806335449219,0.8774454011952806,-0.10660995995488542,-0.4676792537195452,0.18792759543105156,5.0,1
27.480609893798828,-11.43850326538086,-0.08444333076477051,0.24438847763415167,-0.39817775439486064,-0.8841542557182698,0.0931426261083704,3.0,0
27.50568962097168,-11.484785079956055,-0.08791041374206543,-0.6119297907608515,-0.22337449101491313,-0.7587132316911371,0.0857278198497638,5.0,0
26.051485061645508,-11.77177619934082,0.5395033359527588,-0.0,-0.0,-1.0,0.11694984106301531,1.0,1
25.485836029052734,-9.655885696411133,-0.0613560676574707,-0.0,-0.0,-1.0,0.10038786290934508,1.0,0
25.26604461669922,-9.584396362304688,-0.07433605194091797,-0.0,-0.0,-1.0,0.07242934090078873,2.0,0
25.71914291381836,-9.846132278442383,-0.06230473518371582,0.09023522103163167,-0.46678886155379834,-0.8797532401842472,0.027687945707794783,5.0,0
27.011653900146484,-9.384134292602539,-0.16337764263153076,-0.0,-0.0,-1.0,0.01961982882706165,1.0,0
25.96114730834961,-10.160094261169434,-0.07975196838378906,-0.0,-0.0,-1.0,0.03036230865363358,2.0,0
27.44535255432129,-9.577558517456055,-0.14207899570465088,-0.11363574835207262,-0.920157809793724,-0.374695238523365,0.10401923059456417,3.0,0
26.244937896728516,-10.449817657470703,-0.09304296970367432,-0.0,-0.0,-1.0,0.029047078606311724,1.0,0
25.31700325012207,-11.060221672058105,0.1043628454208374,-0.0,-0.0,-1.0,0.059112823361147405,1.0,1
27.677419662475586,-9.708561897277832,-0.136802077293396,-0.0,-0.0,-1.0,0.06364446478009121,2.0,0
27.158084869384766,-10.345827102661133,-0.0020792484283447266,-0.9856271163058932,-0.16458280404679287,-0.03810102642481698,0.1625436973910842,4.0,0
26.75974464416504,-10.795164108276367,-0.09828329086303711,-0.0,-0.0,-1.0,0.11590259711906618,2.0,0
26.554412841796875,-10.712743759155273,-0.10327351093292236,0.19273162505590755,0.7761203353415795,0.6004096483007108,0.13549801593636088,3.0,0
25.312984466552734,-11.678661346435547,0.032743096351623535,0.6069919973992748,0.35871241694353806,-0.7091446375907839,0.05399032130169037,3.0,1
26.836389541625977,-10.851142883300781,-0.10030066967010498,-0.0,-0.0,-1.0,0.05856460477164808,1.0,0
25.695215225219727,-11.849106788635254,0.03288841247558594,-0.3795493413182374,0.7186418422261882,-0.5826630244889773,0.07736762542866173,3.0,1
25.491735458374023,-11.806896209716797,0.02730417251586914,-0.0,-0.0,-1.0,0.10820098375007717,1.0,1
27.585216522216797,-11.17267894744873,-0.09302043914794922,-0.0,-0.0,-1.0,0.06846709713034986,2.0,0
27.458215713500977,-11.19662094116211,-0.10555756092071533,-0.0,-0.0,-1.0,0.06364274503737541,2.0,0
26.176912307739258,-10.850364685058594,0.17769300937652588,0.4913186455793189,0.4469807058026505,-0.7475387863825317,0.10485396790684068,3.0,1
25.92482566833496,-11.853778839111328,0.4028312563896179,0.17143729043483927,0.9837486857830288,0.05336458252928,0.11941230003407244,3.0,1
25.944934844970703,-11.744318008422852,0.76746666431427,-0.0,-0.0,-1.0,0.123776121505088,1.0,1
25.497339248657227,-11.803975105285645,0.17542743682861328,-0.0,-0.0,-1.0,0.1525913522135016,2.0,1
26.23509407043457,-10.875761032104492,0.3213629722595215,-0.0,-0.0,-1.0,0.08006833602742203,2.0,1
25.978790283203125,-11.809539794921875,0.53447425365448,-0.5218288900401766,0.8372237177360863,0.16355750052994644,0.16583679401437715,3.0,1
26.073495864868164,-11.691301345825195,0.8597071170806885,0.9159317818650231,0.37494375551496584,-0.1431298402496746,0.16830600935633172,3.0,1
26.34188461303711,-9.417707443237305,-0.10107064247131348,-0.8268713429697572,0.05043433376216509,-0.5601251290143627,0.050579394482895494,4.0,0
26.299882888793945,-9.682844161987305,-0.13879942893981934,-0.33000951061051975,-0.5753031288404947,-0.7484116733809958,0.023164304325593355,3.0,0
27.342885971069336,-9.443743705749512,-0.17548704147338867,-0.0,-0.0,-1.0,0.042072897327824696,2.0,0
26.422502517700195,-9.919153213500977,-0.14862298965454102,-0.0,-0.0,-1.0,0.023604416545379387,1.0,0
