x,y,z,nx,ny,nz,curvature,density,label
36.6597900390625,13.571619987487793,-1.2237827777862549,-0.0,-0.0,-1.0,0.19757545763721174,1.0,0
36.622962951660156,15.424359321594238,-1.1895849704742432,-0.0,-0.0,-1.0,0.2292207871611827,1.0,0
36.66001892089844,15.211708068847656,-1.1984262466430664,-0.0,-0.0,-1.0,0.1561423023335602,2.0,0
37.167724609375,15.345294952392578,-1.2861268520355225,-0.0,-0.0,-1.0,0.17887843482122515,1.0,0
37.314491271972656,14.51097583770752,-1.3216617107391357,-0.0,-0.0,-1.0,0.20442816951619158,2.0,0
35.372623443603516,13.830320358276367,-1.3745770454406738,-0.0,-0.0,-1.0,0.18539919685105724,1.0,0
35.814537048339844,13.409408569335938,-1.4736156463623047,-0.0,-0.0,-1.0,0.18379086395180164,2.0,0
35.803382873535156,13.216568946838379,-1.479264259338379,-0.0,-0.0,-1.0,0.20108392222823906,1.0,0
35.75169372558594,14.476715087890625,-1.4224469661712646,-0.5125651780853276,0.6492659265581505,-0.5618991856418223,0.1794117924624567,3.0,0
36.132102966308594,13.694417953491211,-1.522144079208374,-0.0,-0.0,-1.0,0.2036469036651503,2.0,0
36.106529235839844,13.363115310668945,-1.5299880504608154,-0.0,-0.0,-1.0,0.06573676165900415,2.0,0
36.231964111328125,14.578445434570312,-1.5099494457244873,-0.0,-0.0,-1.0,0.18703489729652434,1.0,0
36.50720977783203,14.028273582458496,-1.580566167831421,-0.0,-0.0,-1.0,0.07047377019079784,2.0,0
36.49775695800781,13.871343612670898,-1.584338903427124,-0.0,-0.0,-1.0,0.08359665009056436,1.0,0
36.61662292480469,15.38397216796875,-1.5588583946228027,-0.0,-0.0,-1.0,0.2531110437081399,1.0,0
36.630821228027344,14.334721565246582,-1.593475103378296,-0.0,-0.0,-1.0,0.11398437609434776,1.0,0
36.72273254394531,15.503310203552246,-1.5759093761444092,-0.3316869781645586,0.9148935093982729,-0.23011652478032973,0.18793350434349732,4.0,0
37.119293212890625,14.990992546081543,-1.6659610271453857,-0.0,-0.0,-1.0,0.07451347121543746,2.0,0
37.023582458496094,14.7079439163208,-1.656174898147583,-0.0,-0.0,-1.0,0.07507221052639301,1.0,0
36.29121017456055,13.14853286743164,-0.8154861927032471,-0.0,-0.0,-1.0,0.19275573804496143,1.0,0
36.60857391357422,15.519485473632812,-0.8142750263214111,-0.0,-0.0,-1.0,0.12079399407064237,2.0,0
36.73905944824219,15.555415153503418,-0.8341677188873291,-0.5788791344996772,-0.19104235449545548,-0.7927179614653231,0.08552829681032412,3.0,0
35.33990478515625,15.604291915893555,-1.7564442157745361,-0.0,-0.0,-1.0,0.0682017429950405,1.0,0
35.50296401977539,13.243215560913086,-1.1762621402740479,-0.0,-0.0,-1.0,0.1269671561319457,1.0,0
35.81151580810547,13.736175537109375,-1.2133853435516357,-0.0,-0.0,-1.0,0.18871205421717768,1.0,0
35.80107116699219,13.312549591064453,-1.2267539501190186,-0.0,-0.0,-1.0,0.2523821744825075,1.0,0
36.136070251464844,14.608128547668457,-1.2436938285827637,-0.0,-0.0,-1.0,0.17287875167222627,1.0,0
36.247169494628906,13.29425048828125,-1.3070380687713623,-0.0,-0.0,-1.0,0.23894996972713334,2.0,0
36.36336898803711,14.611494064331055,-1.2847568988800049,0.1069786870815043,-0.8568595051214419,-0.5043286121105518,0.23789305016889337,3.0,0
36.65070724487305,14.145211219787598,-1.3507568836212158,-0.0,-0.0,-1.0,0.24814564697737276,2.0,0
36.384796142578125,13.782962799072266,-1.314584732055664,-0.0,-0.0,-1.0,0.19131390774320758,1.0,0
36.537654876708984,13.575767517089844,-1.3490688800811768,-0.0,-0.0,-1.0,0.20169462422940013,2.0,0
36.80448532104492,13.241159439086914,-1.4085900783538818,-0.0,-0.0,-1.0,0.15354589806051816,2.0,0
37.121726989746094,13.913328170776367,-1.443011999130249,-0.0,-0.0,-1.0,0.045521946444005486,1.0,0
36.866004943847656,13.301133155822754,-1.4174790382385254,-0.0,-0.0,-1.0,0.14560354289093994,1.0,0
37.51856231689453,14.755404472351074,-1.4905216693878174,-0.0,-0.0,-1.0,0.07955273596655982,1.0,0
37.59443283081055,14.46723747253418,-1.5121181011199951,-0.0,-0.0,-1.0,0.12158305852500684,2.0,0
35.72473907470703,13.265336990356445,-1.407944679260254,-0.0,-0.0,-1.0,0.21546629018976607,1.0,0
36.05473327636719,13.56118392944336,-1.4758920669555664,-0.0,-0.0,-1.0,0.19989455184409233,1.0,0
36.05732727050781,13.201354026794434,-1.4765760898590088,-0.0,-0.0,-1.0,0.09887950896276407,2.0,0
36.35655975341797,14.365843772888184,-1.5409705638885498,-0.0,-0.0,-1.0,0.1431708476760211,2.0,0
36.40289306640625,13.92207145690918,-1.5486268997192383,-0.0,-0.0,-1.0,0.12211063442694042,1.0,0
36.425941467285156,13.732160568237305,-1.5528910160064697,-0.0,-0.0,-1.0,0.05647865973221463,1.0,0
36.85296630859375,14.450876235961914,-1.6449987888336182,-0.0,-0.0,-1.0,0.11088300958794173,1.0,0
36.9554443359375,14.794221878051758,-1.6690738201141357,-0.0,-0.0,-1.0,0.1452225690559709,2.0,0
35.288917541503906,13.767688751220703,-1.3176743984222412,-0.0,-0.0,-1.0,0.18539919685105727,1.0,0
35.57175827026367,14.33642864227295,-1.3775749206542969,-0.0,-0.0,-1.0,0.1780377943377536,1.0,0
35.798133850097656,14.377616882324219,-1.4248178005218506,-0.0,-0.0,-1.0,0.15233324178813054,2.0,0
35.359649658203125,14.362199783325195,-1.7283554077148438,-0.0,-0.0,-1.0,0.06113191156262192,1.0,0
35.4013671875,13.981513023376465,-1.7383337020874023,-0.0,-0.0,-1.0,0.09955479801680003,1.0,0
35.26110076904297,15.213339805603027,-1.7087507247924805,0.35287926014371757,0.9328207820301072,0.0729494096834343,0.04880889393467304,3.0,0
35.38525390625,14.990494728088379,-1.735952377319336,-0.0,-0.0,-1.0,0.03164302417735467,1.0,0
35.52519989013672,14.554043769836426,-1.7664766311645508,-0.0,-0.0,-1.0,0.18554657195017712,2.0,0
36.27259063720703,14.219810485839844,-1.2315857410430908,-0.0,-0.0,-1.0,0.19579214965261457,1.0,0
36.52916717529297,14.997520446777344,-1.2909021377563477,-0.0,-0.0,-1.0,0.06899437661284455,1.0,0
36.51976776123047,14.082879066467285,-1.27815580368042,-0.0,-0.0,-1.0,0.1960361038736681,1.0,0
36.59368133544922,15.216992378234863,-1.3068866729736328,-0.0,-0.0,-1.0,0.15150232594720797,1.0,0
37.338409423828125,13.646038055419922,-1.4327325820922852,-0.0,-0.0,-1.0,0.18800394738473145,1.0,0
37.45336151123047,14.394025802612305,-1.4626426696777344,-0.0,-0.0,-1.0,0.23466595509600968,2.0,0
37.671478271484375,15.189950942993164,-1.5169434547424316,-0.0,-0.0,-1.0,0.0814696653087431,1.0,0
37.64834213256836,14.751154899597168,-1.5054419040679932,-0.0,-0.0,-1.0,0.06656086172898049,1.0,0
37.6124267578125,14.57351016998291,-1.4959197044372559,0.10764984637187489,0.9936488631114424,-0.032763507343535926,0.14566937980622544,3.0,0
35.650657653808594,13.549494743347168,-1.1068189144134521,0.21788570143644903,0.5700137329554665,-0.792218508589468,0.21744206780913553,3.0,0
35.841285705566406,13.148388862609863,-1.1419377326965332,-0.0,-0.0,-1.0,0.10365274558041693,1.0,0
35.99707794189453,14.431438446044922,-1.1803193092346191,-0.0,-0.0,-1.0,0.11303248075782528,2.0,0
35.961917877197266,14.371317863464355,-1.1728858947753906,-0.0,-0.0,-1.0,0.08651295900290963,1.0,0
36.36092758178711,15.621423721313477,-1.268331527709961,-0.0,-0.0,-1.0,0.14883063958258647,1.0,0
36.45763397216797,15.288254737854004,-1.2814574241638184,-0.0,-0.0,-1.0,0.09133996237116193,1.0,0
35.29463577270508,13.268529891967773,-1.4899847507476807,-0.0,-0.0,-1.0,0.09650266772668288,1.0,0
35.58819580078125,13.221747398376465,-1.5548222064971924,-0.0,-0.0,-1.0,0.09581266576470761,1.0,0
35.72914123535156,13.628339767456055,-1.5897676944732666,-0.0,-0.0,-1.0,0.1452225727527385,2.0,0
35.753578186035156,13.467823028564453,-1.5935328006744385,0.769789642289792,-0.6318988552471535,-0.09015399802943382,0.1237445264931451,3.0,0
35.61712646484375,14.511909484863281,-1.5768249034881592,-0.0,-0.0,-1.0,0.13032926319568297,2.0,0
36.025577545166016,14.211124420166016,-1.663585901260376,-0.0,-0.0,-1.0,0.05377764344604302,2.0,0
36.004119873046875,13.94428539276123,-1.6549146175384521,-0.0,-0.0,-1.0,0.052494607814275514,1.0,0
35.96654510498047,14.73190689086914,-1.6595594882965088,-0.9862323279728816,-0.15598021131867965,0.05491783806897971,0.19939524981665588,3.0,0
36.0672607421875,14.4385347366333,-1.6767785549163818,-0.0,-0.0,-1.0,0.12942479927918144,1.0,0
36.01225280761719,15.352869033813477,-1.6840875148773193,-0.0,-0.0,-1.0,0.028488264445769955,2.0,0
36.21126174926758,14.980667114257812,-1.7200968265533447,-0.0,-0.0,-1.0,0.058531807340575934,1.0,0
36.22190475463867,15.447164535522461,-1.7337090969085693,-0.0,-0.0,-1.0,0.11710194286670514,1.0,0
37.10993957519531,14.591147422790527,-1.1983909606933594,-0.0,-0.0,-1.0,0.0992985603648182,2.0,0
37.2677001953125,14.44991683959961,-1.2244722843170166,-0.0,-0.0,-1.0,0.16907491456006513,2.0,0
37.554542541503906,13.87177848815918,-1.2640693187713623,-0.0,-0.0,-1.0,0.12899075339087568,1.0,0
35.723663330078125,13.141825675964355,-0.9049248695373535,-0.0,-0.0,-1.0,0.08396872077379197,2.0,0
35.898902893066406,13.706413269042969,-0.9482336044311523,-0.7360428770673398,0.6415517795175191,0.21599119731215502,0.1699330754829937,5.0,0
36.043983459472656,13.331855773925781,-0.9682283401489258,-0.0,-0.0,-1.0,0.21544568873526487,2.0,0
36.589088439941406,15.384563446044922,-1.1228444576263428,-0.08830807142467012,-0.99605202856937,0.009057643407579651,0.22218129464149353,3.0,0
35.37602233886719,13.854286193847656,-1.4268856048583984,-0.0,-0.0,-1.0,0.1520490485226733,2.0,0
35.846466064453125,13.318756103515625,-1.5237829685211182,-0.0,-0.0,-1.0,0.2202109849626854,1.0,0
36.10700607299805,13.613472938537598,-1.5872104167938232,-0.0,-0.0,-1.0,0.11637482636603935,1.0,0
35.627235412597656,14.491244316101074,-1.497211217880249,-0.0,-0.0,-1.0,0.08977380536454174,1.0,0
36.14344787597656,14.217073440551758,-1.6077160835266113,-0.0,-0.0,-1.0,0.13094569933527384,2.0,0
36.276771545410156,13.918632507324219,-1.631354570388794,-0.0,-0.0,-1.0,0.04231748410948864,2.0,0
35.816802978515625,14.933714866638184,-1.5519719123840332,-0.0,-0.0,-1.0,0.11879935183265883,1.0,0
35.900718688964844,14.760087966918945,-1.5662000179290771,-0.0,-0.0,-1.0,0.24645506370413878,1.0,0
36.33766174316406,14.503890991210938,-1.6587224006652832,-0.0,-0.0,-1.0,0.17228576580547084,1.0,0
36.53025436401367,15.024739265441895,-1.7170970439910889,-0.0,-0.0,-1.0,0.14578538376681294,1.0,0
36.528804779052734,14.935991287231445,-1.7141849994659424,-0.0,-0.0,-1.0,0.12775192852394768,1.0,0
36.57422637939453,15.393281936645508,-1.738961935043335,-0.7837069844802467,-0.3216131769801733,-0.5313834085381264,0.11107992163768908,3.0,0
36.71124267578125,15.128874778747559,-1.7615840435028076,-0.0,-0.0,-1.0,0.17298209205726023,2.0,0
37.499916076660156,13.775876998901367,-1.1893460750579834,-0.0,-0.0,-1.0,0.15566289980144266,2.0,0
37.56083679199219,13.832649230957031,-1.2026441097259521,-0.0,-0.0,-1.0,0.10379924036523507,2.0,0
37.572364807128906,15.021236419677734,-1.244612216949463,-0.0,-0.0,-1.0,0.13424284937718922,1.0,0
35.83757781982422,13.249540328979492,-0.8597314357757568,-0.0,-0.0,-1.0,0.14225925486440558,1.0,0
36.50506591796875,13.536774635314941,-0.9933929443359375,-0.0,-0.0,-1.0,0.1885057543029761,1.0,0
37.08917236328125,14.629289627075195,-1.1379516124725342,0.2842740638842836,-0.9316813687302238,0.2261815283432549,0.15174071558847863,3.0,0
36.54484939575195,15.327604293823242,-1.0585966110229492,0.4763559532539257,-0.8779809221741063,0.04727056269867628,0.16598318784058053,3.0,0
37.09061813354492,14.763355255126953,-1.142848014831543,-0.0,-0.0,-1.0,0.14146600489053707,1.0,0
35.39252471923828,14.633225440979004,-1.712667465209961,-0.0,-0.0,-1.0,0.11113988052355624,2.0,0
35.282440185546875,15.152446746826172,-1.6917119026184082,-0.0,-0.0,-1.0,0.04302130602379395,2.0,0
36.55760955810547,13.189472198486328,-1.3384568691253662,-0.0,-0.0,-1.0,0.15391077389500285,1.0,0
36.818603515625,13.320569038391113,-1.3949716091156006,-0.0,-0.0,-1.0,0.19124855248825454,1.0,0
36.57398223876953,14.057290077209473,-1.3502192497253418,-0.0,-0.0,-1.0,0.1260753548682198,2.0,0
37.208984375,13.826330184936523,-1.4835309982299805,-0.0,-0.0,-1.0,0.08884661676845773,2.0,0
37.366455078125,13.725834846496582,-1.5160844326019287,-0.0,-0.0,-1.0,0.16377795378358756,2.0,0
35.21495819091797,15.540419578552246,-1.6817569732666016,-0.6921699924890543,-0.3697672943593752,-0.6198167870587643,0.07077697262395878,3.0,0
36.40028381347656,14.56867504119873,-1.3206629753112793,-0.0,-0.0,-1.0,0.2678611262328421,1.0,0
37.34979248046875,14.065152168273926,-1.5170106887817383,-0.0,-0.0,-1.0,0.0781124395070802,1.0,0
36.70494842529297,15.276163101196289,-1.4011321067810059,0.3562435228281897,-0.39216413762484076,-0.8481142856973495,0.1704194551857035,3.0,0
37.309749603271484,14.670433044433594,-1.5187740325927734,-0.0,-0.0,-1.0,0.20502368308388597,1.0,0
36.77755355834961,15.478370666503906,-1.421922206878662,-0.0,-0.0,-1.0,0.12775336650941213,1.0,0
37.33047103881836,14.962126731872559,-1.5292572975158691,-0.2836845508287027,0.9027820672125639,-0.3232763751660908,0.0679976112709573,3.0,0
37.426475524902344,15.441015243530273,-1.5616087913513184,-0.0,-0.0,-1.0,0.23996126734485085,1.0,0
35.69133377075195,13.33682918548584,-1.154932975769043,-0.0,-0.0,-1.0,0.19782768003876364,1.0,0
36.014652252197266,13.262569427490234,-1.2232632637023926,-0.0,-0.0,-1.0,0.16196207571337576,2.0,0
35.955833435058594,13.68896770477295,-1.2137501239776611,-0.0,-0.0,-1.0,0.19289219234758287,2.0,0
35.74334716796875,14.38418197631836,-1.176314353942871,-0.0,-0.0,-1.0,0.10132920491849556,2.0,0
36.20002365112305,14.478650093078613,-1.276029348373413,-0.0,-0.0,-1.0,0.1538113227639031,2.0,0
36.582725524902344,15.631633758544922,-0.7466094493865967,-0.0,-0.0,-1.0,0.07920773384866266,2.0,0
36.925392150878906,15.401392936706543,-0.8016419410705566,0.4943266040140512,-0.5835500170285055,-0.6442907621485554,0.1269594526913814,3.0,0
37.610260009765625,14.96058464050293,-0.912869930267334,0.3021552556101459,-0.9351480452517285,-0.18493332573940982,0.16638340923883377,6.0,0
36.040283203125,13.962864875793457,-1.693549633026123,-0.0,-0.0,-1.0,0.042859106621708436,2.0,0
36.050506591796875,14.282905578613281,-1.709622859954834,-0.0,-0.0,-1.0,0.06615236611336647,2.0,0
36.11735534667969,14.687695503234863,-1.7455430030822754,-0.0,-0.0,-1.0,0.11901477662370726,2.0,0
35.48678207397461,13.234010696411133,-1.5250351428985596,-0.0,-0.0,-1.0,0.11716426019617311,2.0,0
35.71690368652344,13.326273918151855,-1.5871310234069824,-0.0,-0.0,-1.0,0.15206285382605159,1.0,0
35.70561599731445,13.64438533782959,-1.594954252243042,-0.0,-0.0,-1.0,0.13535829548688558,2.0,0
35.773681640625,13.494280815124512,-1.6073226928710938,-0.0,-0.0,-1.0,0.11842208047665753,2.0,0
35.78451156616211,13.86815071105957,-1.6234722137451172,-0.0,-0.0,-1.0,0.21905617834695837,2.0,0
35.57123565673828,14.561810493469238,-1.5970489978790283,-0.0,-0.0,-1.0,0.16317299475015196,2.0,0
35.95485305786133,14.351410865783691,-1.6876683235168457,-0.0,-0.0,-1.0,0.156042984532838,1.0,0
37.43915557861328,13.807531356811523,-1.3953437805175781,-0.0,-0.0,-1.0,0.16396502096466817,1.0,0
35.91105651855469,14.909223556518555,-1.7025680541992188,-0.0,-0.0,-1.0,0.08657448683530305,2.0,0
36.055747985839844,14.658150672912598,-1.7280020713806152,-0.0,-0.0,-1.0,0.1387250277918522,2.0,0
37.65327453613281,13.896228790283203,-1.4473950862884521,-0.0,-0.0,-1.0,0.16579709710410978,1.0,0
35.643310546875,15.337078094482422,-1.6551527976989746,-0.137651058149306,-0.6623614957567304,-0.7364301970514812,0.06659534747575935,4.0,0
36.03186798095703,15.208442687988281,-1.750063419342041,-0.0,-0.0,-1.0,0.056017737854117455,2.0,0
37.663543701171875,14.592171669006348,-1.484898328781128,-0.0,-0.0,-1.0,0.13076854825247858,1.0,0
36.04270935058594,15.522455215454102,-1.7704010009765625,-0.0,-0.0,-1.0,0.016230022065103857,1.0,0
37.62449645996094,14.818726539611816,-1.488548755645752,-0.0,-0.0,-1.0,0.1116163272887165,1.0,0
37.680458068847656,15.095792770385742,-1.516843557357788,-0.0,-0.0,-1.0,0.09951366470897223,1.0,0
35.83026123046875,13.14794635772705,-1.0095775127410889,-0.0,-0.0,-1.0,0.12043514860715786,2.0,0
35.929527282714844,13.506111145019531,-1.0456733703613281,-0.0,-0.0,-1.0,0.15574067997541866,1.0,0
36.33448791503906,13.32685661315918,-1.1283717155456543,-0.0,-0.0,-1.0,0.19800044671587894,1.0,0
35.99433898925781,13.784576416015625,-1.0718162059783936,-0.0,-0.0,-1.0,0.2440810298286617,2.0,0
36.37661361694336,13.646391868591309,-1.151012659072876,-0.0,-0.0,-1.0,0.16772512606160056,2.0,0
36.813602447509766,13.431927680969238,-1.2391924858093262,-0.0,-0.0,-1.0,0.0966462171904261,1.0,0
36.26243591308594,14.465693473815918,-1.1638755798339844,-0.0725731209888181,-0.4013579352479808,-0.9130415926579796,0.1892112759042336,5.0,0
36.539573669433594,14.331977844238281,-1.2192728519439697,-0.0,-0.0,-1.0,0.13329227263870203,2.0,0
36.654808044433594,14.255784034729004,-1.2413139343261719,-0.0,-0.0,-1.0,0.18006976292130683,1.0,0
36.38639831542969,14.65259838104248,-1.201317310333252,-0.0,-0.0,-1.0,0.17783659319656878,1.0,0
36.359474182128906,14.538768768310547,-1.1893587112426758,-0.0,-0.0,-1.0,0.14809259596858432,2.0,0
36.68614196777344,15.14657974243164,-1.2958993911743164,-0.0,-0.0,-1.0,0.14596490181391245,2.0,0
37.243534088134766,14.588850975036621,-1.3903894424438477,-0.0,-0.0,-1.0,0.21833933790783086,1.0,0
36.74969482421875,15.39293098449707,-1.324721097946167,0.21429180680151283,0.6145701689227144,-0.7591986097247871,0.16717484981134145,3.0,0
36.795684814453125,15.313674926757812,-1.3303260803222656,-0.0,-0.0,-1.0,0.1901065792832672,1.0,0
37.08734893798828,15.587223052978516,-1.4126691818237305,-0.0,-0.0,-1.0,0.16748442334291705,1.0,0
36.94704055786133,15.460986137390137,-0.7520673274993896,0.42301059839612754,0.11053591876010986,-0.8993574619184568,0.15688304556772423,3.0,0
36.05620574951172,13.877782821655273,-1.6668124198913574,-0.0,-0.0,-1.0,0.08133423249100899,1.0,0
36.18498611450195,14.57872486114502,-1.7324647903442383,-0.0,-0.0,-1.0,0.13761731526355206,2.0,0
35.35444641113281,13.159847259521484,-1.4542579650878906,-0.0,-0.0,-1.0,0.09650266772668285,1.0,0
35.716468811035156,13.244043350219727,-1.5538949966430664,-0.0,-0.0,-1.0,0.1317207230730559,1.0,0
35.33307647705078,13.724251747131348,-1.4650404453277588,-0.0,-0.0,-1.0,0.11706813314901929,1.0,0
35.8613166809082,13.482767105102539,-1.600203037261963,-0.0,-0.0,-1.0,0.08568134967518534,1.0,0
35.97191619873047,13.853181838989258,-1.6430926322937012,0.573344096453687,-0.7603592991456888,-0.30517254670822336,0.07993840524797742,3.0,0
35.62646484375,14.518755912780762,-1.5768139362335205,-0.0,-0.0,-1.0,0.14260245710291825,2.0,0
36.020179748535156,14.239816665649414,-1.6718478202819824,-0.0,-0.0,-1.0,0.05716520073958184,2.0,0
37.572715759277344,13.844843864440918,-1.4475936889648438,-0.0,-0.0,-1.0,0.20051988682452815,1.0,0
35.924537658691406,14.850555419921875,-1.6748270988464355,-0.19810503156618245,-0.972603695066618,0.12164065443314263,0.16860921986960087,3.0,0
36.10099792480469,14.718213081359863,-1.7164311408996582,-0.0,-0.0,-1.0,0.11854801856270535,2.0,0
35.98680114746094,15.165314674377441,-1.7091255187988281,-0.0,-0.0,-1.0,0.12582691621926723,1.0,0
36.100502014160156,14.989447593688965,-1.730506420135498,-0.0,-0.0,-1.0,0.018284251381515158,2.0,0
37.528743743896484,14.688425064086914,-1.4806790351867676,-0.0,-0.0,-1.0,0.10725706349254777,1.0,0
36.04045486450195,15.455196380615234,-1.7411351203918457,-0.0,-0.0,-1.0,0.017555682594389648,1.0,0
37.57779312133789,14.947380065917969,-1.5072038173675537,-0.0,-0.0,-1.0,0.10009470970830515,1.0,0
37.57429504394531,15.42306900024414,-1.535879135131836,-0.0,-0.0,-1.0,0.1920992881983757,1.0,0
35.8898811340332,13.551292419433594,-1.039503574371338,-0.09547024274972907,0.8262528239239294,-0.5551501632054515,0.2080970061100262,3.0,0
36.255645751953125,13.234903335571289,-1.1129388809204102,-0.0,-0.0,-1.0,0.11999424441522338,1.0,0
35.96820068359375,13.74231243133545,-1.0655488967895508,-0.1398843639697885,0.9404346484365247,0.3098629321762089,0.26169455884904236,4.0,0
36.41680908203125,13.939491271972656,-1.1796433925628662,-0.0,-0.0,-1.0,0.17633891283283232,1.0,0
36.170326232910156,14.4515380859375,-1.1462008953094482,0.12629116668617377,-0.5868998809117971,-0.7997493801202746,0.17342332688760634,5.0,0
36.47709655761719,14.320055961608887,-1.2120404243469238,-0.0,-0.0,-1.0,0.1340552244749484,2.0,0
36.71461868286133,14.168119430541992,-1.2606308460235596,-0.0,-0.0,-1.0,0.16964160970726055,1.0,0
36.40952682495117,14.581903457641602,-1.2095894813537598,-0.0,-0.0,-1.0,0.21430680991364146,2.0,0
36.71312713623047,15.327932357788086,-1.324916124343872,-0.0,-0.0,-1.0,0.23172659864538311,1.0,0
37.645301818847656,14.86788272857666,-0.8993921279907227,-0.0,-0.0,-1.0,0.15106039603762775,2.0,0
36.611305236816406,15.626112937927246,-0.7403204441070557,-0.4559965675682867,-0.7924691511965889,0.4050429295367328,0.0792077338486627,4.0,0
36.84710693359375,15.441794395446777,-0.7754626274108887,-0.0,-0.0,-1.0,0.11950592756042844,2.0,0
37.63885498046875,14.984672546386719,-0.9053473472595215,0.1427401042940336,-0.09847955307174125,-0.9848487397833835,0.08869185104067058,7.0,0
35.39247512817383,13.211956977844238,-1.5137085914611816,-0.0,-0.0,-1.0,0.10974142711114904,1.0,0
35.66730499267578,13.346546173095703,-1.594994068145752,-0.0,-0.0,-1.0,0.13840247393916863,2.0,0
35.81470489501953,13.66014289855957,-1.6427536010742188,-0.36294176385019655,-0.6346565753184242,-0.6822641038911526,0.11756309775505322,3.0,0
35.945213317871094,13.849742889404297,-1.6846923828125,-0.0,-0.0,-1.0,0.07662725844897006,2.0,0
37.38153839111328,13.708218574523926,-1.5094754695892334,-0.0,-0.0,-1.0,0.1637779537835876,2.0,0
35.888519287109375,14.20083236694336,-1.6769599914550781,-0.5625779919119497,-0.6772017027657047,-0.4742402943525023,0.058227846489072435,4.0,0
36.00432586669922,14.002159118652344,-1.7057218551635742,-0.0,-0.0,-1.0,0.04015704772212766,1.0,0
37.40334701538086,13.957119941711426,-1.523160457611084,-0.0,-0.0,-1.0,0.16126370921627167,1.0,0
35.89145278930664,14.394148826599121,-1.6836528778076172,-0.0,-0.0,-1.0,0.18446175359476388,2.0,0
36.07355499267578,14.568132400512695,-1.7433099746704102,-0.0,-0.0,-1.0,0.12487265266478637,1.0,0
37.34783935546875,14.52584457397461,-1.5304591655731201,-0.0,-0.0,-1.0,0.1446550312742095,1.0,0
35.94760513305664,14.90979290008545,-1.7193379402160645,-0.4168245999062987,-0.013351090329098682,-0.9088888828124028,0.049542832834875525,3.0,0
37.3326301574707,14.777332305908203,-1.5376601219177246,-0.0,-0.0,-1.0,0.09007285106068265,2.0,0
35.64887237548828,15.276398658752441,-1.6470050811767578,0.4362500286926065,0.1592566960707135,-0.8856202443611713,0.06693147212741417,3.0,0
35.9753303527832,15.33674430847168,-1.7471237182617188,-0.0,-0.0,-1.0,0.029106702668745866,1.0,0
35.95880889892578,15.56803035736084,-1.7540836334228516,-0.0,-0.0,-1.0,0.018233457602775966,1.0,0
37.4089469909668,15.402825355529785,-1.588949203491211,-0.0,-0.0,-1.0,0.1994251817938671,1.0,0
35.686763763427734,13.4816312789917,-1.070152759552002,-0.0,-0.0,-1.0,0.20713649929131622,2.0,0
35.98827362060547,13.234973907470703,-1.1418471336364746,-0.0,-0.0,-1.0,0.18726497971825568,2.0,0
35.865760803222656,13.626155853271484,-1.1191725730895996,-0.0,-0.0,-1.0,0.1778552969148435,1.0,0
35.968414306640625,13.723731994628906,-1.1478664875030518,-0.0,-0.0,-1.0,0.21287726730723108,1.0,0
36.21702575683594,14.298157691955566,-1.2296531200408936,-0.0,-0.0,-1.0,0.228551000937074,1.0,0
36.574684143066406,14.025591850280762,-1.3123533725738525,-0.0,-0.0,-1.0,0.17438827780232957,2.0,0
36.19369125366211,14.431230545043945,-1.228597640991211,-0.0,-0.0,-1.0,0.19251929059031822,2.0,0
36.69413375854492,15.253599166870117,-1.3952412605285645,0.3562435228281897,-0.39216413762484076,-0.8481142856973495,0.17860033333935416,3.0,0
36.513206481933594,15.608718872070312,-1.3674952983856201,-0.0,-0.0,-1.0,0.1510161564822454,1.0,0
37.54167556762695,14.904048919677734,-1.0140206813812256,-0.0,-0.0,-1.0,0.20181064247004668,2.0,0
36.69063186645508,15.422810554504395,-0.8523063659667969,-0.0,-0.0,-1.0,0.09114869353576519,1.0,0
37.04408645629883,15.284560203552246,-0.9233965873718262,-0.0,-0.0,-1.0,0.09494592067690143,1.0,0
36.695274353027344,15.527243614196777,-0.8593056201934814,-0.0,-0.0,-1.0,0.12136372935273101,2.0,0
35.976600646972656,13.255090713500977,-1.5281703472137451,-0.0,-0.0,-1.0,0.10553528072587798,1.0,0
36.08381652832031,13.569473266601562,-1.558009386062622,-0.0,-0.0,-1.0,0.12181221784260647,2.0,0
36.320594787597656,13.7691011428833,-1.6281630992889404,-0.0,-0.0,-1.0,0.041715238945852516,1.0,0
36.182159423828125,13.990063667297363,-1.5878684520721436,-0.0,-0.0,-1.0,0.054185829198443544,1.0,0
36.37038803100586,14.07994556427002,-1.6445767879486084,-0.0,-0.0,-1.0,0.051431821234141466,1.0,0
36.1615104675293,14.510018348693848,-1.5870921611785889,-0.0,-0.0,-1.0,0.204915978040281,2.0,0
36.33871841430664,14.355716705322266,-1.638153314590454,-0.0,-0.0,-1.0,0.15558790398677563,1.0,0
36.242340087890625,14.759720802307129,-1.6158502101898193,-0.0,-0.0,-1.0,0.2158121053375944,2.0,0
36.479949951171875,14.75207233428955,-1.6873748302459717,-0.0,-0.0,-1.0,0.15816704494116543,2.0,0
36.608795166015625,15.175965309143066,-1.7370059490203857,-0.0,-0.0,-1.0,0.14219550060365316,1.0,0
36.68517303466797,15.139629364013672,-1.7588880062103271,-0.0,-0.0,-1.0,0.1433586609898587,2.0,0
36.60924530029297,15.529631614685059,-1.7488133907318115,-0.0,-0.0,-1.0,0.12973752049202403,1.0,0
36.80278396606445,13.328330993652344,-1.2321107387542725,-0.0,-0.0,-1.0,0.10100227731116028,1.0,0
35.46367263793945,13.776063919067383,-1.3735363483428955,-0.0,-0.0,-1.0,0.13949130343192725,1.0,0
37.42841339111328,13.712553024291992,-1.3981108665466309,-0.0,-0.0,-1.0,0.15479196090592637,1.0,0
36.6091423034668,14.18483829498291,-1.1904006004333496,-0.9703141221714656,0.24099950508932455,0.02024210614828389,0.205173901125686,5.0,0
37.51060485839844,13.987985610961914,-1.4236555099487305,-0.0,-0.0,-1.0,0.13529103867513503,1.0,0
35.56345748901367,14.499124526977539,-1.4074478149414062,-0.0,-0.0,-1.0,0.16959638780038877,2.0,0
35.95246124267578,14.381006240844727,-1.5225496292114258,-0.0,-0.0,-1.0,0.09215587264665746,2.0,0
37.58689880371094,14.50381851196289,-1.4540660381317139,-0.0,-0.0,-1.0,0.16193536573992565,2.0,0
37.6170654296875,14.73862361907959,-1.468245029449463,-0.0,-0.0,-1.0,0.08381362791023583,2.0,0
35.838653564453125,15.054044723510742,-1.5009148120880127,-0.0,-0.0,-1.0,0.19490184751691947,1.0,0
36.6229133605957,15.256580352783203,-1.2214016914367676,-0.0,-0.0,-1.0,0.17990670389884114,2.0,0
36.728363037109375,15.235051155090332,-1.2484650611877441,-0.42968209106980665,0.4002038382744398,-0.809450547250593,0.2591910000094992,3.0,0
37.65656661987305,15.02461051940918,-1.487243890762329,-0.0,-0.0,-1.0,0.09163860597265155,1.0,0
36.85369873046875,15.586135864257812,-1.2948284149169922,-0.0,-0.0,-1.0,0.15189805276144247,1.0,0
35.731109619140625,13.139632225036621,-0.9550292491912842,-0.0,-0.0,-1.0,0.08772005386992252,2.0,0
36.03760528564453,13.288311004638672,-1.03389310836792,-0.0,-0.0,-1.0,0.21396461500304123,2.0,0
35.92730712890625,13.6678466796875,-1.0064492225646973,-0.0,-0.0,-1.0,0.2602153494432268,2.0,0
36.1872673034668,14.49635124206543,-1.0854535102844238,0.023632586168241012,0.8953748859374093,0.4446856355939241,0.2230030375561857,4.0,0
36.33767318725586,14.408187866210938,-1.1233010292053223,-0.42119625895420476,-0.4630490033136955,-0.7798585333079175,0.1438158656113287,4.0,0
37.6262092590332,14.898723602294922,-0.9241578578948975,0.5323876928203539,-0.3046289750919447,-0.7897876499843818,0.14632256153633735,3.0,0
36.91658020019531,15.369680404663086,-0.7796800136566162,0.4943266040140512,-0.5835500170285055,-0.6442907621485554,0.1073217102006995,3.0,0
36.813941955566406,15.4518404006958,-0.7595274448394775,-0.0,-0.0,-1.0,0.09193819296452825,2.0,0
36.88972854614258,13.668224334716797,-1.5840299129486084,-0.0,-0.0,-1.0,0.1210948561962619,1.0,0
36.945159912109375,13.777153015136719,-1.601315975189209,-0.0,-0.0,-1.0,0.02805758582583032,1.0,0
37.05912399291992,14.460068702697754,-1.6444730758666992,-0.0,-0.0,-1.0,0.16194250837607896,1.0,0
37.09956741333008,14.754487991333008,-1.6634817123413086,-0.0,-0.0,-1.0,0.08156012807961295,1.0,0
37.18803405761719,14.980591773986816,-1.6967692375183105,-0.0,-0.0,-1.0,0.07913624270217695,2.0,0
35.70996856689453,13.189985275268555,-1.2305221557617188,-0.0,-0.0,-1.0,0.16417001711178417,1.0,0
36.28902053833008,13.228967666625977,-1.4038434028625488,-0.0,-0.0,-1.0,0.1752555449438752,1.0,0
35.987770080566406,13.632930755615234,-1.310852289199829,-0.0,-0.0,-1.0,0.2601687621764481,2.0,0
36.21417236328125,13.619422912597656,-1.379415512084961,-0.0,-0.0,-1.0,0.2840383383008966,2.0,0
36.5034065246582,13.40549087524414,-1.4672472476959229,-0.0,-0.0,-1.0,0.17039314818463028,1.0,0
35.552772521972656,14.137357711791992,-1.1799952983856201,-0.0,-0.0,-1.0,0.07721250072467822,1.0,0
36.726600646972656,14.031816482543945,-1.5366857051849365,0.3466762020774414,0.8397196186082395,-0.4179552285085016,0.034821468063091346,3.0,0
36.855438232421875,13.892922401428223,-1.5749485492706299,-0.0,-0.0,-1.0,0.026499653834297168,2.0,0
37.59104919433594,13.83765697479248,-1.2696006298065186,0.8107821041294253,0.27446742711974215,-0.5170106488978066,0.12076416541089305,3.0,0
35.867340087890625,14.397134780883789,-1.278491735458374,-0.0,-0.0,-1.0,0.13311391074452758,1.0,0
36.130584716796875,14.480945587158203,-1.3602352142333984,-0.0,-0.0,-1.0,0.20468872710418548,1.0,0
36.76697540283203,14.47983169555664,-1.5552124977111816,-0.0,-0.0,-1.0,0.08144735170023304,1.0,0
35.89432144165039,14.894180297851562,-1.2959892749786377,-0.0,-0.0,-1.0,0.13038974115900265,1.0,0
37.006492614746094,14.57766342163086,-1.6306474208831787,-0.23113138394626487,-0.9667617926511349,-0.1093156879182843,0.11366119340550533,4.0,0
36.682762145996094,15.28332805633545,-1.5505032539367676,0.9235805812431438,-0.379936830446645,-0.051448176068098324,0.18106859644496182,4.0,0
36.972633361816406,15.10528564453125,-1.6341204643249512,-0.0,-0.0,-1.0,0.13647175220692137,1.0,0
36.639984130859375,15.56937313079834,-1.5481226444244385,0.17346967626999918,0.7943577141060403,-0.5821546989031421,0.20547092596247202,3.0,0
36.98381042480469,15.477478981018066,-1.650747299194336,-0.0,-0.0,-1.0,0.09569576158902325,2.0,0
36.14462661743164,13.139659881591797,-0.8803436756134033,-0.0,-0.0,-1.0,0.1875929391231698,2.0,0
36.769439697265625,13.509628295898438,-1.046619176864624,-0.0,-0.0,-1.0,0.1284216428622064,1.0,0
36.91665267944336,13.399706840515137,-1.0849823951721191,-0.0,-0.0,-1.0,0.10308417725977277,1.0,0
37.15727233886719,14.451982498168945,-1.165417194366455,-0.0,-0.0,-1.0,0.2198828864473113,2.0,0
37.34635543823242,14.358199119567871,-1.2140536308288574,-0.0,-0.0,-1.0,0.12638918375028635,2.0,0
37.168827056884766,14.705543518066406,-1.175276756286621,-0.0,-0.0,-1.0,0.1535931325451009,1.0,0
36.60915756225586,15.038994789123535,-1.0341548919677734,-0.0,-0.0,-1.0,0.13875029090802393,2.0,0
36.624515533447266,15.42666244506836,-1.0524659156799316,-0.0,-0.0,-1.0,0.16499075459292195,2.0,0
36.612579345703125,13.427600860595703,-1.0872752666473389,-0.0,-0.0,-1.0,0.15971367365609954,1.0,0
36.78110122680664,13.402969360351562,-1.1373426914215088,0.03137112166177341,-0.29073096264800663,-0.9562904161829948,0.11867001051647172,3.0,0
37.43522262573242,13.82260513305664,-1.3330495357513428,-0.0,-0.0,-1.0,0.23110640112360706,1.0,0
37.675323486328125,14.021232604980469,-1.40702486038208,-0.0,-0.0,-1.0,0.18366931166552034,1.0,0
37.082305908203125,14.432906150817871,-1.2344708442687988,0.7266530471226815,-0.6619042742504692,-0.18400565435953767,0.22301653082562636,4.0,0
37.412052154541016,14.416006088256836,-1.3337788581848145,-0.7334838822141706,0.6273506663101197,0.26159613149333294,0.262689555202623,4.0,0
37.09709930419922,14.61474609375,-1.2426393032073975,-0.0,-0.0,-1.0,0.12970600502179122,2.0,0
37.314579010009766,14.52313232421875,-1.306443214416504,-0.535684188972314,0.6612703623799339,-0.5251323238222774,0.21240903902528718,3.0,0
36.96018600463867,15.607726097106934,-1.2332818508148193,-0.0,-0.0,-1.0,0.18436078036751702,2.0,0
37.47843933105469,15.606705665588379,-1.3916056156158447,-0.0,-0.0,-1.0,0.19692901475530736,1.0,0
35.95270538330078,13.1956205368042,-0.8963558673858643,-0.9707962748365414,-0.11744088359683112,0.20919424376280027,0.21654167880803363,4.0,0
37.630916595458984,14.994180679321289,-0.9341385364532471,0.6012586681242903,-0.6105310645468178,-0.5154995957600098,0.11447034522226388,7.0,0
36.3647346496582,15.383827209472656,-1.0425634384155273,0.8552389191008747,0.01792427281602469,-0.5179238473937884,0.177637054339719,5.0,0
36.617225646972656,15.382099151611328,-1.1195127964019775,0.05580466304292317,-0.9982227722542162,0.020907810401191523,0.24979318040353324,4.0,0
36.83216857910156,15.522931098937988,-0.7415835857391357,-0.07719715812511121,0.9183813635761678,-0.3880931200284094,0.09792628469424808,5.0,0
36.913421630859375,15.505592346191406,-0.7626657485961914,0.12793001972315982,0.5101489520087882,-0.8505186399003649,0.12744249665444932,6.0,0
37.1162109375,14.471050262451172,-1.000359058380127,-0.0,-0.0,-1.0,0.20782893362108135,1.0,0
37.153564453125,14.5870361328125,-1.01373291015625,0.7407171833193301,-0.3858312951333792,0.5499747867231528,0.19924167670833018,3.0,0
37.63985061645508,14.99653434753418,-1.173337697982788,-0.0,-0.0,-1.0,0.14615195454976385,1.0,0
36.58928680419922,15.486273765563965,-0.8641855716705322,-0.0,-0.0,-1.0,0.1273846482756652,2.0,0
36.87044143676758,15.338994026184082,-0.946033239364624,-0.7599296195049631,0.24356761829671603,-0.6026456576764719,0.07814897708777216,3.0,0
37.443153381347656,14.823600769042969,-0.9401462078094482,-0.0,-0.0,-1.0,0.20372323573390316,1.0,0
37.669715881347656,14.997852325439453,-1.0098237991333008,-0.17180412482941676,-0.286722658212963,-0.9424826045921968,0.10342657992236592,3.0,0
36.903011322021484,15.45986557006836,-0.7793002128601074,0.7715109496243977,0.04168400980616961,-0.6348490355479317,0.15433668991901842,4.0,0
35.67347717285156,13.42180061340332,-1.0999690294265747,-0.0,-0.0,-1.0,0.20404146135432896,2.0,0
36.43815612792969,13.543692588806152,-1.4742165803909302,-0.0,-0.0,-1.0,0.18903969378497168,1.0,0
36.64079284667969,13.279726028442383,-1.4272738695144653,-0.0,-0.0,-1.0,0.18968354593775194,1.0,0
37.559818267822266,13.767178535461426,-1.2507139444351196,-0.0,-0.0,-1.0,0.11682112554857413,1.0,0
35.95518493652344,13.147136688232422,-1.0463558435440063,-0.0,-0.0,-1.0,0.11462141963174816,2.0,0
35.913490295410156,13.683228492736816,-1.0666252374649048,0.27586230048925625,0.841549691614282,-0.46442879724741687,0.28163399524870114,4.0,0
36.39384841918945,13.52762508392334,-0.9816168546676636,0.4257562270618345,-0.6062200824435946,-0.6717356971012879,0.16316823618371204,4.0,0
35.584877014160156,14.144569396972656,-1.7007337808609009,-0.0,-0.0,-1.0,0.019838214933934405,1.0,0
36.192481994628906,14.287919044494629,-1.5843201875686646,-0.0,-0.0,-1.0,0.19789819556090965,2.0,0
36.17462158203125,13.884734153747559,-1.5752395391464233,-0.0,-0.0,-1.0,0.06717815340073939,1.0,0
36.648643493652344,13.429194450378418,-1.469624400138855,-0.0,-0.0,-1.0,0.3024393014148918,1.0,0
35.733924865722656,15.457684516906738,-1.7265304327011108,-0.0,-0.0,-1.0,0.02470072235324106,1.0,0
35.84223556518555,15.00995922088623,-1.6830796003341675,-0.0,-0.0,-1.0,0.1490349770783344,2.0,0
36.128299713134766,14.636536598205566,-1.6101239919662476,-0.0,-0.0,-1.0,0.23293871452972537,2.0,0
35.788185119628906,13.232891082763672,-1.0981892347335815,0.3044826018770463,-0.3619008403035516,-0.8810891708231167,0.1796684785839118,3.0,0
35.924827575683594,13.672473907470703,-1.0855954885482788,0.27586230048925625,0.841549691614282,-0.46442879724741687,0.2457507562302483,4.0,0
35.984989166259766,13.41931438446045,-1.070031762123108,-0.0,-0.0,-1.0,0.1697451172362046,1.0,0
36.8135986328125,13.26498031616211,-1.4335333108901978,-0.0,-0.0,-1.0,0.17558001922756616,2.0,0
36.196224212646484,14.40383243560791,-1.0631669759750366,-0.2663896005274458,-0.03915847052543967,-0.9630696729297085,0.132748484801136,5.0,0
37.52705001831055,13.709967613220215,-1.3007980585098267,-0.0,-0.0,-1.0,0.11610967576440955,1.0,0
37.14075469970703,14.705556869506836,-1.4115062952041626,-0.0,-0.0,-1.0,0.16413663429310316,1.0,0
37.3847770690918,14.350539207458496,-1.3488315343856812,-0.0,-0.0,-1.0,0.23163653164551692,1.0,0
37.62916564941406,13.959918975830078,-1.2873133420944214,-0.0,-0.0,-1.0,0.12249874459922049,2.0,0
36.94288635253906,15.581661224365234,-1.4937795400619507,-0.0,-0.0,-1.0,0.09536918528717453,1.0,0
37.31269454956055,15.41398811340332,-1.4112201929092407,-0.0,-0.0,-1.0,0.22769860526241217,1.0,0
37.41160583496094,14.80531120300293,-1.3616467714309692,-0.0,-0.0,-1.0,0.16129811402545632,1.0,0
36.37954330444336,13.537938117980957,-1.008055329322815,0.7725923675246655,-0.5218037242765816,-0.3616931115928549,0.2021063143236998,5.0,0
36.86344528198242,15.243010520935059,-0.9886201620101929,-0.12186877847990897,0.5830861710362396,-0.8032176031301306,0.1469555522226883,3.0,0
36.15276336669922,15.053838729858398,-1.7425578832626343,-0.0,-0.0,-1.0,0.014975363829205186,1.0,0
36.30253219604492,14.369117736816406,-1.6877127885818481,-0.0,-0.0,-1.0,0.1658591773673799,1.0,0
36.87783432006836,14.040955543518066,-1.5610090494155884,-0.0,-0.0,-1.0,0.02444593707593664,1.0,0
36.92127990722656,13.600193977355957,-1.5424834489822388,-0.0,-0.0,-1.0,0.10793185223754348,1.0,0
37.03339385986328,13.164046287536621,-1.5131534337997437,-0.0,-0.0,-1.0,0.2356934477775852,1.0,0
36.770450592041016,15.462282180786133,-1.6353908777236938,0.30721873158241825,0.6946424390501695,-0.6504525600190392,0.20799017172866124,3.0,0
37.029598236083984,14.25341796875,-1.535793662071228,-0.0,-0.0,-1.0,0.13272544166879519,1.0,0
36.999359130859375,15.62100601196289,-1.597004771232605,-0.0,-0.0,-1.0,0.08897905001521783,1.0,0
35.91529083251953,13.593632698059082,-1.2043272256851196,-0.0,-0.0,-1.0,0.23349408680647207,1.0,0
35.976287841796875,13.670162200927734,-1.1954323053359985,0.40289746944036503,-0.3750129920935839,-0.8348885463818317,0.2144616433830163,3.0,0
36.220760345458984,14.360675811767578,-1.1702769994735718,-0.0,-0.0,-1.0,0.18181244723764345,1.0,0
37.34009552001953,14.355350494384766,-1.4754480123519897,-0.0,-0.0,-1.0,0.2024558900596844,1.0,0
37.31155776977539,13.90530776977539,-1.46914541721344,-0.0,-0.0,-1.0,0.14669894063153321,1.0,0
37.698516845703125,14.450417518615723,-1.405394196510315,-0.0,-0.0,-1.0,0.1916944543197377,1.0,0
36.50562286376953,13.212015151977539,-1.0991171598434448,-0.0,-0.0,-1.0,0.2075204502719663,1.0,0
36.542850494384766,13.465886116027832,-1.0964561700820923,-0.0,-0.0,-1.0,0.17064333107845084,2.0,0
36.68952178955078,13.341246604919434,-1.0699044466018677,-0.0,-0.0,-1.0,0.26449385779724044,1.0,0
37.09140396118164,14.432989120483398,-1.0259753465652466,-0.0,-0.0,-1.0,0.19062043455593458,1.0,0
37.01607894897461,15.61623764038086,-1.082999587059021,-0.0,-0.0,-1.0,0.16848924461518375,1.0,0
37.298099517822266,15.210298538208008,-1.0185281038284302,-0.0,-0.0,-1.0,0.18614394215594857,1.0,0
37.66402053833008,15.094295501708984,-0.9527603387832642,-0.0,-0.0,-1.0,0.08750491534671831,2.0,0
35.913028717041016,13.74697208404541,-1.357326626777649,-0.0,-0.0,-1.0,0.22936928753094754,2.0,0
36.03880310058594,13.19672679901123,-1.334859013557434,-0.0,-0.0,-1.0,0.13565630824192243,2.0,0
36.37825393676758,14.410184860229492,-1.280418038368225,-0.0,-0.0,-1.0,0.20772385490279685,1.0,0
36.269371032714844,14.343799591064453,-1.2988492250442505,0.059417960637229136,-0.1833492230171836,-0.9812505125464688,0.25433553209288523,3.0,0
36.26563262939453,13.65355396270752,-1.294490933418274,-0.0,-0.0,-1.0,0.17415839041500095,1.0,0
36.336849212646484,13.408531188964844,-1.2817045450210571,-0.3891823358539176,-0.9175132624845147,-0.08189336129571774,0.18709275579992501,3.0,0
36.49399948120117,15.581624984741211,-1.2840088605880737,-0.0,-0.0,-1.0,0.22857061581404894,2.0,0
36.750328063964844,15.183079719543457,-1.2288817167282104,-0.0,-0.0,-1.0,0.15867318385337517,2.0,0
36.44252395629883,14.481292724609375,-1.270013689994812,-0.0,-0.0,-1.0,0.2312340454748876,2.0,0
36.61003875732422,14.187919616699219,-1.2369188070297241,-0.31193929273430443,0.9423080128583259,0.12144746416214248,0.18151608607968037,4.0,0
36.57062530517578,13.539247512817383,-1.2401527166366577,-0.0,-0.0,-1.0,0.20210991496503974,2.0,0
37.3526611328125,13.796031951904297,-1.601044774055481,-0.0,-0.0,-1.0,0.15180395668779828,1.0,0
37.441162109375,13.648226737976074,-1.5812345743179321,-0.0,-0.0,-1.0,0.13661441555345186,2.0,0
36.710411071777344,14.081385612487793,-1.2181357145309448,-0.7114679579564505,-0.6563580254874495,-0.25101292233567307,0.2350468913701203,3.0,0
36.819183349609375,13.382661819458008,-1.1959999799728394,-0.0,-0.0,-1.0,0.10744545624727161,2.0,0
37.04925537109375,15.603824615478516,-1.1877835988998413,-0.0,-0.0,-1.0,0.248611925028347,2.0,0
37.17423629760742,14.53052806854248,-1.1415945291519165,-0.0,-0.0,-1.0,0.11175347254808758,2.0,0
37.4537239074707,15.220242500305176,-1.1065548658370972,-0.0,-0.0,-1.0,0.20819578102734101,2.0,0
37.67421340942383,14.995808601379395,-1.062501311302185,-0.0,-0.0,-1.0,0.08328028456531644,1.0,0
36.06878662109375,13.278703689575195,-0.7914749383926392,-0.0,-0.0,-1.0,0.08134218951147551,1.0,0
35.807525634765625,15.223782539367676,-1.7164623737335205,-0.0,-0.0,-1.0,0.10075650398704604,2.0,0
35.85832977294922,14.783195495605469,-1.6865208148956299,-0.15244979938889366,-0.4042271301186194,-0.9018644498716819,0.13759089443937422,3.0,0
35.71769714355469,14.501606941223145,-1.7019047737121582,-0.0,-0.0,-1.0,0.11812408149103872,2.0,0
36.28474426269531,13.781240463256836,-1.5670266151428223,-0.0,-0.0,-1.0,0.07255230380644673,1.0,0
36.75590515136719,15.108678817749023,-1.5297026634216309,-0.0,-0.0,-1.0,0.11825903632768463,2.0,0
36.50992965698242,14.06821060180664,-1.5330514907836914,0.46127364059770276,-0.0888277027854557,-0.8828002422448691,0.258263846849019,3.0,0
36.46190643310547,13.799378395080566,-1.533515214920044,-0.0,-0.0,-1.0,0.09776976533841049,1.0,0
36.619606018066406,13.574938774108887,-1.4960825443267822,-0.0,-0.0,-1.0,0.27270624267807253,1.0,0
36.719078063964844,13.494613647460938,-1.4745547771453857,-0.0,-0.0,-1.0,0.21602912511253913,1.0,0
35.949256896972656,13.769392013549805,-1.0838661193847656,0.41534424571438927,-0.5361739389255725,-0.7348514576218662,0.2543194824343329,6.0,0
35.956512451171875,13.66238021850586,-1.0798358917236328,0.2933280269093446,0.8372877301414562,-0.46141946814589374,0.2477927446892831,5.0,0
37.036598205566406,15.514924049377441,-1.4974548816680908,-0.0,-0.0,-1.0,0.17016477997733984,1.0,0
37.08650207519531,14.699591636657715,-1.4472708702087402,-0.0,-0.0,-1.0,0.17863428735230633,1.0,0
36.830726623535156,13.387195587158203,-1.450035810470581,-0.0,-0.0,-1.0,0.2035657997626963,2.0,0
37.41864776611328,14.438607215881348,-1.372300148010254,0.8614330466095178,0.35970028028082573,0.3585370477021029,0.2736963246926902,3.0,0
37.35190963745117,14.174163818359375,-1.3746001720428467,-0.0,-0.0,-1.0,0.17442951647951668,1.0,0
37.56901168823242,13.813612937927246,-1.3199150562286377,0.8205200149908622,0.3372170698732812,-0.4615534127113278,0.14006656235745885,3.0,0
36.530029296875,15.320096969604492,-1.0486886501312256,0.4763559532539257,-0.8779809221741063,0.04727056269867628,0.15730099397501632,3.0,0
36.233089447021484,14.420832633972168,-1.0594971179962158,0.6412686134481667,0.7585615123749463,-0.11558112886496719,0.12565776077065616,8.0,0
36.075321197509766,13.524030685424805,-1.057722568511963,-0.0,-0.0,-1.0,0.1689682468241454,2.0,0
36.753448486328125,15.38142204284668,-1.0167982578277588,-0.665663812399546,-0.5800088035761665,-0.4695545512886076,0.15522573483752522,6.0,0
36.41371154785156,13.551060676574707,-1.004892110824585,-0.09402903116498809,-0.5922218959346891,-0.8002698090479835,0.21046624067272235,5.0,0
35.81461715698242,14.99761962890625,-1.7054734230041504,-0.0,-0.0,-1.0,0.14112734157252618,2.0,0
35.82918167114258,14.55967903137207,-1.68153715133667,-0.0,-0.0,-1.0,0.09868446668201827,1.0,0
35.696380615234375,14.522778511047363,-1.7054624557495117,-0.0,-0.0,-1.0,0.15874462319503024,2.0,0
36.68138122558594,15.511014938354492,-1.568296194076538,-0.17027215953532612,0.058140788898292065,-0.9836803547664558,0.25108105773341194,3.0,0
36.75289535522461,15.132991790771484,-1.5330414772033691,-0.0,-0.0,-1.0,0.16602087509067884,2.0,0
36.35795593261719,13.808281898498535,-1.5483083724975586,-0.0,-0.0,-1.0,0.05704638309169315,1.0,0
36.52717971801758,14.094490051269531,-1.5266823768615723,0.46127364059770276,-0.0888277027854557,-0.8828002422448691,0.24442271230199228,3.0,0
36.45574188232422,13.695353507995605,-1.525270700454712,-0.0,-0.0,-1.0,0.14322864879709551,1.0,0
35.691627502441406,13.522430419921875,-1.1150240898132324,0.4977456583105073,0.8298957399728646,-0.2520363473944409,0.23043443711059067,3.0,0
36.97792053222656,15.546072959899902,-1.5141069889068604,-0.0,-0.0,-1.0,0.10801782979131716,1.0,0
37.403594970703125,15.593326568603516,-1.4363763332366943,-0.0,-0.0,-1.0,0.2811060996549453,2.0,0
36.66715621948242,13.575462341308594,-1.480057954788208,-0.0,-0.0,-1.0,0.19463155823042652,2.0,0
37.4176025390625,14.438911437988281,-1.3700940608978271,0.8614330466095178,0.35970028028082573,0.3585370477021029,0.27369632469269006,3.0,0
37.317543029785156,14.233097076416016,-1.3799474239349365,-0.0,-0.0,-1.0,0.20393640862843948,1.0,0
36.85668182373047,13.361554145812988,-1.4363009929656982,-0.0,-0.0,-1.0,0.24488342739755392,2.0,0
37.64119338989258,14.495899200439453,-1.329829216003418,-0.0,-0.0,-1.0,0.13721004240850077,2.0,0
37.064598083496094,13.144450187683105,-1.3892407417297363,-0.0,-0.0,-1.0,0.17163106750019955,1.0,0
36.565956115722656,15.339587211608887,-1.0487287044525146,-0.2941510723216557,0.5171717081426244,-0.8037465837867434,0.20417731458214938,4.0,0
36.12773513793945,14.471630096435547,-1.0787487030029297,0.258066136949583,0.9595906360575127,0.11219483121185678,0.20396491784613452,4.0,0
36.72508239746094,15.409601211547852,-1.027510643005371,-0.20922022108196167,-0.7492259244461495,-0.6284006788890565,0.20883546550332108,5.0,0
36.272613525390625,14.39987564086914,-1.0531609058380127,0.624670174359609,0.7763072521021613,0.08446433329593737,0.2022567955505425,4.0,0
36.0401611328125,13.698835372924805,-1.065206527709961,-0.0,-0.0,-1.0,0.2366417876836869,2.0,0
36.11560821533203,13.275117874145508,-1.0409014225006104,-0.0,-0.0,-1.0,0.1705296872249671,1.0,0
36.4013786315918,13.564943313598633,-1.0039212703704834,-0.09402903116498809,-0.5922218959346891,-0.8002698090479835,0.21046624067272232,5.0,0
36.291866302490234,14.495609283447266,-1.3940894603729248,-0.0,-0.0,-1.0,0.24762772164795238,1.0,0
35.72517013549805,13.900468826293945,-1.4794552326202393,-0.0,-0.0,-1.0,0.19625648104159402,1.0,0
36.34541320800781,14.413382530212402,-1.3813378810882568,-0.0,-0.0,-1.0,0.23389288675441988,2.0,0
36.15665817260742,13.739397048950195,-1.3954384326934814,-0.0,-0.0,-1.0,0.14422181025481334,1.0,0
36.43348693847656,13.654376029968262,-1.3420662879943848,-0.0,-0.0,-1.0,0.194082720060397,2.0,0
36.207237243652344,13.308639526367188,-1.3760185241699219,-0.0,-0.0,-1.0,0.25047736502044954,1.0,0
36.868858337402344,15.305459976196289,-1.3230514526367188,-0.0,-0.0,-1.0,0.1567461537915922,1.0,0
37.09080505371094,15.251638412475586,-1.2803912162780762,-0.0,-0.0,-1.0,0.14165293175396462,2.0,0
37.268714904785156,14.617040634155273,-1.219982624053955,-0.0,-0.0,-1.0,0.14574309380170072,2.0,0
36.7386474609375,14.11761474609375,-1.2991199493408203,-0.0,-0.0,-1.0,0.24076939551594548,2.0,0
37.302154541015625,14.415061950683594,-1.2060270309448242,-0.0,-0.0,-1.0,0.12744261058065476,1.0,0
36.76677703857422,13.490585327148438,-1.2763562202453613,-0.0,-0.0,-1.0,0.08697490801854257,1.0,0
36.81581115722656,15.481278419494629,-0.8224380016326904,-0.0,-0.0,-1.0,0.08019197333225574,1.0,0
36.14032745361328,13.307726860046387,-0.8589365482330322,-0.13463550208559005,0.6280080726219062,-0.7664718796537027,0.11995766490607647,4.0,0
36.1284294128418,13.155579566955566,-0.8582484722137451,-0.0,-0.0,-1.0,0.18237520553933065,2.0,0
36.191551208496094,14.401065826416016,-1.3714264631271362,-0.0,-0.0,-1.0,0.24287323901930077,1.0,0
