x,y,z,nx,ny,nz,curvature,density,label
22.319238662719727,0.3113679885864258,-0.43868255615234375,-0.0,-0.0,-1.0,0.10401039596164983,2.0,0
22.158649444580078,0.11565685272216797,-0.44859230518341064,-0.04658003334115003,-0.8985373011320126,-0.4364183989800802,0.05136688070164596,4.0,0
22.243988037109375,-1.6117525100708008,-0.22614824771881104,-0.0,-0.0,-1.0,0.13282146034971987,2.0,0
22.53513526916504,0.5372180938720703,-0.4310203790664673,-0.12022850515470913,0.3892438937516452,-0.9132547824814945,0.15428461145163413,4.0,0
20.286785125732422,-0.4366292953491211,0.052045464515686035,-0.0,-0.0,-1.0,0.16115831686070123,2.0,1
20.67024040222168,0.26903438568115234,0.09643006324768066,-0.0,-0.0,-1.0,0.18388515670110625,2.0,1
21.12797737121582,-1.5738468170166016,-0.12832355499267578,-0.5440159391081472,-0.7661306142035512,-0.34218494995597065,0.22154537651796358,3.0,0
21.03512191772461,-1.795684814453125,-0.14379668235778809,0.14265631005354287,-0.348192692695814,-0.9265047360673049,0.18898917838141868,4.0,0
21.294706344604492,-0.9700222015380859,-0.07985591888427734,-0.0,-0.0,-1.0,0.20230255817892384,2.0,0
21.54792022705078,-1.1577177047729492,-0.11991274356842041,-0.0,-0.0,-1.0,0.16704052606425887,2.0,0
21.258726119995117,-1.7549142837524414,-0.15727019309997559,-0.0,-0.0,-1.0,0.11795994109818556,1.0,0
21.766277313232422,-0.9573469161987305,-0.11802089214324951,-0.0,-0.0,-1.0,0.21644395180177028,2.0,0
21.856874465942383,-1.1065301895141602,-0.141035795211792,-0.4265891382216426,0.740663401912399,-0.5190755554048645,0.20866867421884866,5.0,0
22.28658676147461,0.026772499084472656,-0.06531453132629395,-0.3125465352535676,-0.9496787293332797,-0.020614906085588334,0.14945023526834395,3.0,0
22.274219512939453,-1.5330286026000977,-0.22097992897033691,0.1319554187417114,-0.3954584875834043,-0.9089556381160445,0.21214001990522852,3.0,0
22.538331985473633,-0.0067901611328125,-0.09242260456085205,0.9919085045669319,0.015137605679571977,0.12604908354320618,0.14716710905115216,4.0,0
22.447696685791016,-1.480219841003418,-0.2313159704208374,-0.0,-0.0,-1.0,0.14214654645338562,2.0,0
21.48691177368164,-1.2351913452148438,0.32023072242736816,-0.9288283613244908,0.3704642463635575,0.005841007236975849,0.16316557068108684,10.0,1
21.805898666381836,-0.794306755065918,0.324654221534729,-0.0,-0.0,-1.0,0.1495736239736786,2.0,1
20.21451759338379,0.38208961486816406,-0.2753262519836426,-0.0,-0.0,-1.0,0.12043031069898943,1.0,0
20.552377700805664,0.1412181854248047,-0.3338528871536255,0.7717603519192185,-0.6287386553437462,-0.09525577400904402,0.23823566576157545,4.0,0
20.907869338989258,0.1390390396118164,-0.3611640930175781,-0.6360673233895803,0.541524642045403,-0.549699392553433,0.16247764209370877,3.0,0
21.058177947998047,0.0449676513671875,-0.38637495040893555,-0.0,-0.0,-1.0,0.19430384006591644,2.0,0
21.238405227661133,-1.8115034103393555,-0.19759106636047363,-0.0,-0.0,-1.0,0.11657072040032793,2.0,0
21.464513778686523,0.5752267837524414,-0.3454296588897705,-0.0,-0.0,-1.0,0.21564157447746196,2.0,0
21.354562759399414,0.29111576080322266,-0.37618017196655273,-0.0,-0.0,-1.0,0.15408197277073898,1.0,0
21.32404136657715,0.08590126037597656,-0.40249550342559814,-0.0,-0.0,-1.0,0.10543447814110384,2.0,0
21.604469299316406,-1.730112075805664,-0.2170717716217041,-0.0,-0.0,-1.0,0.09393131174396137,1.0,0
21.819955825805664,0.11247730255126953,-0.44230639934539795,-0.3435238118684622,0.7549964713732183,-0.5585442855256431,0.06646626698373458,3.0,0
22.177181243896484,0.31514930725097656,-0.4475257396697998,-0.48310591777746764,-0.636767960712398,-0.6009452857112405,0.07713720007103603,3.0,0
22.120559692382812,0.17333316802978516,-0.4617716073989868,-0.9092686404254686,-0.3911641015805534,-0.14220121368503946,0.04023584316882312,4.0,0
22.492023468017578,0.5684070587158203,-0.4436408281326294,0.39611081632581163,0.9180479564741927,-0.016857366438979622,0.10847407122409951,4.0,0
20.266460418701172,-0.2665882110595703,0.036972641944885254,-0.9719867345878388,-0.021846276478881814,-0.23401822148986262,0.13233613392129093,3.0,1
20.294340133666992,-0.4407215118408203,0.016473054885864258,0.6728261892563246,-0.7391299466179699,0.03149350827280445,0.1713021025795535,4.0,1
20.664653778076172,0.2319478988647461,0.06297218799591064,-0.0,-0.0,-1.0,0.18598828050257923,1.0,1
21.228933334350586,-0.9849615097045898,-0.10868334770202637,0.3265768188153556,-0.8858677167037469,-0.3295238533316402,0.11518636021005102,3.0,0
21.083765029907227,-1.471360206604004,-0.1496809720993042,0.4995405184621393,0.5397868739256189,-0.6775613633850329,0.1428010920516557,6.0,0
21.183069229125977,-1.7357540130615234,-0.18529558181762695,-0.6188810859112263,-0.09672004159318698,-0.7795071744734315,0.24202709846921175,5.0,0
21.58043670654297,-1.3470392227172852,-0.1745394468307495,-0.0,-0.0,-1.0,0.2617429783226852,1.0,0
21.605730056762695,-1.6552543640136719,-0.20919537544250488,0.20426115993793176,0.31312906161563697,-0.9274845385840786,0.11867654040927252,3.0,0
21.874401092529297,-1.2213869094848633,-0.1848158836364746,-0.3088044838972549,0.2911356122398547,-0.9054721674412056,0.14092509993709557,3.0,0
22.204387664794922,-1.5382137298583984,-0.24567735195159912,-0.0,-0.0,-1.0,0.21139772867820925,2.0,0
22.275346755981445,-0.02852344512939453,-0.0935293436050415,0.9692495724905207,-0.22278515904165166,0.10450856011700226,0.18153161180623323,6.0,0
22.335359573364258,-1.4920196533203125,-0.2519940137863159,-0.0,-0.0,-1.0,0.12396902024487129,2.0,0
22.610292434692383,0.04916095733642578,-0.11566495895385742,0.03711210597623938,-0.4827546313099561,-0.8749689466139907,0.22609003582596082,3.0,0
21.45993995666504,-1.285355567932129,0.2872718572616577,-0.3590291288168756,-0.2207374115632048,-0.9068478812884616,0.11799593217035524,3.0,1
21.8156795501709,-0.7466621398925781,0.2992591857910156,0.10357857055653032,0.12495801684531709,-0.9867405807746793,0.15869281688488215,8.0,1
20.378870010375977,0.1661205291748047,-0.41145873069763184,-0.0,-0.0,-1.0,0.14099040072447727,1.0,0
20.9875431060791,-1.8060302734375,-0.28016114234924316,-0.0,-0.0,-1.0,0.1479056444053586,2.0,0
20.614707946777344,0.17023372650146484,-0.4239470958709717,-0.0,-0.0,-1.0,0.23981030166846146,1.0,0
21.257795333862305,-1.5093326568603516,-0.2618051767349243,0.7744414403908794,-0.14394392012766524,0.6160524354822245,0.24147206065435645,3.0,0
21.2797794342041,-1.6838903427124023,-0.28315305709838867,0.5715951863563031,-0.3136510498345834,-0.7582228972221607,0.19472481208843706,3.0,0
20.94788932800293,0.2067880630493164,-0.4384051561355591,-0.08000896312223814,0.395494276146905,-0.9149769632920495,0.10100760884659363,4.0,0
21.105619430541992,0.012056350708007812,-0.4779062271118164,-0.0,-0.0,-1.0,0.15723438861097785,1.0,0
21.63189697265625,-1.6242523193359375,-0.2982276678085327,-0.0,-0.0,-1.0,0.07887334776173731,2.0,0
21.48892593383789,0.4290752410888672,-0.4416830539703369,-0.685522484147205,0.2860362402396094,-0.669508919282061,0.17235329328821214,3.0,0
21.35000228881836,0.144134521484375,-0.4744999408721924,-0.0,-0.0,-1.0,0.10502601400757934,2.0,0
22.286277770996094,-1.460789680480957,-0.32451677322387695,-0.0,-0.0,-1.0,0.1569559701267147,2.0,0
21.86406135559082,0.4789466857910156,-0.46296143531799316,-0.0,-0.0,-1.0,0.035135841915866446,1.0,0
21.858322143554688,0.27294445037841797,-0.49315953254699707,0.1686603433095781,0.9400557006722929,-0.2963932661654444,0.04011492115216732,5.0,0
22.453088760375977,-1.4464712142944336,-0.3353238105773926,-0.0,-0.0,-1.0,0.1619358852925134,2.0,0
22.207826614379883,0.4156370162963867,-0.5006905794143677,-0.0,-0.0,-1.0,0.08912790383156914,2.0,0
20.337005615234375,-0.0628509521484375,-0.04312694072723389,-0.0,-0.0,-1.0,0.11088832446271224,2.0,0
20.586393356323242,0.04005622863769531,-0.043956756591796875,-0.9898404680464429,0.0726965558833397,-0.12219271083129025,0.19627614205185245,3.0,0
21.663246154785156,-0.9637813568115234,-0.2244720458984375,0.5450992859856977,0.06942634244880008,-0.8354919217994061,0.2458735124925256,4.0,0
21.588232040405273,-1.2511987686157227,-0.25263547897338867,-0.0,-0.0,-1.0,0.21917965718256388,2.0,0
21.96658706665039,-1.0621871948242188,-0.25647687911987305,-0.0,-0.0,-1.0,0.16632873618448352,2.0,0
22.221538543701172,-0.21160411834716797,-0.17827081680297852,-0.0,-0.0,-1.0,0.20399669175286012,1.0,0
22.38517189025879,-0.04958057403564453,-0.17260289192199707,-0.0,-0.0,-1.0,0.2868516597319671,2.0,0
20.373252868652344,0.3949108123779297,0.3900057077407837,0.004702698336288839,-0.15645174206620444,-0.9876744084124118,0.14972441004777673,3.0,1
20.410377502441406,0.40317344665527344,0.3888736367225647,0.14716802471545223,-0.046568113769796964,-0.9880146675435924,0.11495794922150294,6.0,1
21.19366455078125,-1.559006690979004,0.1895594596862793,0.2568356087760241,-0.5913120910697458,0.7644510978600098,0.1438115985352155,3.0,1
21.786800384521484,-0.8278799057006836,0.2134401798248291,0.1747377858149963,-0.37690897048650523,-0.9096187850826714,0.10024431371283893,4.0,1
20.971240997314453,-1.6882829666137695,-0.2798522710800171,-0.0,-0.0,-1.0,0.16585501842795142,2.0,0
21.00103759765625,-1.7755508422851562,-0.2925832271575928,0.15463652938275002,-0.430818594203659,-0.8890910429583916,0.13172789120271092,3.0,0
21.157163619995117,-1.556443214416504,-0.28289079666137695,-0.0,-0.0,-1.0,0.1645120294285255,1.0,0
21.27037811279297,-1.5834121704101562,-0.297163724899292,-0.0,-0.0,-1.0,0.15320286166409003,2.0,0
20.372608184814453,0.4254283905029297,-0.36427390575408936,0.008167407894817907,-0.524853311441641,-0.851153508432541,0.1052447162737459,4.0,0
20.615678787231445,0.26820850372314453,-0.4106537103652954,-0.46177809944095427,0.23407700884027047,-0.8555518340866858,0.15868097843069345,3.0,0
20.95236587524414,0.366790771484375,-0.4292565584182739,-0.0,-0.0,-1.0,0.10751442734169565,1.0,0
21.11203956604004,0.22365951538085938,-0.4670974016189575,-0.0,-0.0,-1.0,0.12966622222663307,1.0,0
21.492778778076172,0.5870265960693359,-0.45462048053741455,-0.4327403534504695,0.49319639096223433,-0.754647670398173,0.2401872021507317,3.0,0
21.397689819335938,0.33791351318359375,-0.48088717460632324,-0.0,-0.0,-1.0,0.12727321365469338,1.0,0
21.8595027923584,0.6225252151489258,-0.4920295476913452,-0.0,-0.0,-1.0,0.10471485819946909,2.0,0
21.091522216796875,-1.5383663177490234,-0.27440834045410156,-0.0,-0.0,-1.0,0.259891021415822,2.0,0
20.363908767700195,-0.020406723022460938,-0.03372514247894287,-0.0,-0.0,-1.0,0.09805287336006653,2.0,0
21.408763885498047,-1.4199104309082031,-0.29258763790130615,-0.0,-0.0,-1.0,0.1763955092884504,1.0,0
20.658620834350586,0.12290191650390625,-0.04424870014190674,-0.299520661025719,0.8455173406208686,-0.4420269226281704,0.18416233350068373,5.0,0
21.292011260986328,-0.9845342636108398,-0.23151648044586182,-0.0,-0.0,-1.0,0.15047241627321223,2.0,0
21.579835891723633,-1.1815862655639648,-0.28334200382232666,-0.0,-0.0,-1.0,0.20482623675271927,2.0,0
21.91988182067871,-0.91571044921875,-0.28979671001434326,-0.0,-0.0,-1.0,0.08094623851699319,2.0,0
22.232772827148438,-1.105870246887207,-0.3455839157104492,-0.0,-0.0,-1.0,0.11909195167645212,1.0,0
22.44087791442871,-1.1186227798461914,-0.3707810640335083,-0.0,-0.0,-1.0,0.04374759158679128,2.0,0
22.415063858032227,-0.03997611999511719,-0.24841594696044922,0.2109482079366502,-0.510803445809232,-0.8334150786479273,0.21665148503339154,3.0,0
22.661001205444336,0.4228191375732422,-0.22711551189422607,-0.0,-0.0,-1.0,0.2204219931219087,2.0,0
22.681713104248047,0.18402576446533203,-0.25577473640441895,-0.0,-0.0,-1.0,0.10223287275019928,2.0,0
21.178211212158203,-1.6502189636230469,0.15760290622711182,-0.0,-0.0,-1.0,0.12551070441144446,1.0,1
20.420942306518555,0.41377735137939453,0.3886582851409912,-0.8614605815149774,0.49626087103238664,-0.10775348893680373,0.1149579492215029,5.0,1
22.030555725097656,-1.3757591247558594,0.09492135047912598,-0.0,-0.0,-1.0,0.10675727338863919,1.0,1
22.390348434448242,-0.14991092681884766,0.150742769241333,-0.0,-0.0,-1.0,0.27224392943257375,2.0,1
20.31138801574707,0.17137908935546875,-0.37766730785369873,-0.35049398645716767,0.04397444273302205,-0.9355320485390561,0.19431453321838502,3.0,0
20.420286178588867,0.18930912017822266,-0.38185393810272217,-0.0,-0.0,-1.0,0.12278708749069166,1.0,0
20.700780868530273,0.1911468505859375,-0.40066850185394287,-0.0,-0.0,-1.0,0.1937298097345469,2.0,0
20.98324966430664,0.010099411010742188,-0.44951748847961426,-0.8683765371679028,0.11991799179416145,-0.4811879725640884,0.08874563604730054,3.0,0
21.216455459594727,0.09870338439941406,-0.4538789987564087,0.7158793366781634,-0.6882225925969102,-0.11775584213286333,0.14467989175150192,3.0,0
21.76734733581543,0.24485301971435547,-0.47791361808776855,-0.0,-0.0,-1.0,0.038821688419959643,2.0,0
22.119510650634766,0.37544727325439453,-0.4908181428909302,-0.0,-0.0,-1.0,0.05374433451918585,1.0,0
20.703907012939453,-1.837158203125,-0.2732067108154297,-0.0,-0.0,-1.0,0.12342219035771317,1.0,0
20.734830856323242,-1.2942533493041992,-0.20966756343841553,-0.0,-0.0,-1.0,0.1750461990358629,2.0,0
20.94413948059082,-1.777237892150879,-0.2828487157821655,-0.0,-0.0,-1.0,0.12255011165227843,1.0,0
21.08896255493164,-1.368739128112793,-0.24399423599243164,-0.0,-0.0,-1.0,0.291386202143681,1.0,0
21.289758682250977,-1.5613985061645508,-0.28235363960266113,0.5592201098804578,0.06375496127574634,-0.8265640771398289,0.21063999222601104,3.0,0
20.215604782104492,-0.0870962142944336,-0.029632091522216797,0.05864652951109306,-0.28526406257568027,-0.9566530192181085,0.12643073493400822,3.0,0
20.45684814453125,-0.03675365447998047,-0.038915276527404785,0.5823949476008704,0.48076212147390945,-0.6555027898986285,0.06780681026623651,4.0,0
21.536169052124023,-1.1831083297729492,-0.255964994430542,-0.0,-0.0,-1.0,0.2633483431862003,2.0,0
20.209762573242188,0.41396045684814453,-0.3333733081817627,-0.0,-0.0,-1.0,0.19784723783830974,2.0,0
20.690635681152344,0.1683025360107422,-0.029739856719970703,-0.0,-0.0,-1.0,0.2141483812829134,2.0,0
21.89089584350586,-0.9867467880249023,-0.26169145107269287,-0.0,-0.0,-1.0,0.1684699450611915,2.0,0
22.214153289794922,-1.3137969970703125,-0.32872843742370605,-0.0,-0.0,-1.0,0.24049695872025542,1.0,0
22.317182540893555,-1.4372634887695312,-0.35264265537261963,-0.0,-0.0,-1.0,0.19344556328446624,2.0,0
22.657939910888672,-1.2558584213256836,-0.36247944831848145,-0.0,-0.0,-1.0,0.07230701043702102,1.0,0
21.46994972229004,0.4255504608154297,-0.423758864402771,-0.685522484147205,0.2860362402396094,-0.669508919282061,0.17552107195320407,3.0,0
22.2575626373291,-0.1447134017944336,-0.19334161281585693,0.878175120049841,-0.2729449099181583,0.39282252312617727,0.20878906636215194,4.0,0
21.995603561401367,0.4432497024536133,-0.4684549570083618,-0.0,-0.0,-1.0,0.02592927152921157,2.0,0
22.528091430664062,0.18040752410888672,-0.18020641803741455,-0.0,-0.0,-1.0,0.19607002524017086,1.0,0
20.89572525024414,-1.7117919921875,0.16582930088043213,-0.0,-0.0,-1.0,0.14356268100384414,2.0,1
21.421096801757812,-1.2973995208740234,0.1633378267288208,0.8069803329194072,-0.5218123665930534,0.2765765650807015,0.11636627157434525,5.0,1
20.373533248901367,0.4316530227661133,0.38418692350387573,0.6233097198046441,0.25038230346738716,-0.7408061118183498,0.16041060226409043,7.0,1
21.74941062927246,-0.8529472351074219,0.1759350299835205,0.6591641629312939,0.5805035690924378,-0.47803578587594053,0.08015363095997421,4.0,1
20.71072769165039,-1.6647920608520508,-0.31563258171081543,-0.0,-0.0,-1.0,0.0879272813375239,2.0,0
21.00621795654297,-1.4832229614257812,-0.2989717721939087,-0.0,-0.0,-1.0,0.2679601209590082,1.0,0
21.070343017578125,-1.5650043487548828,-0.3118917942047119,-0.0,-0.0,-1.0,0.14431696590787493,2.0,0
21.25811195373535,-1.037083625793457,-0.24675118923187256,-0.0,-0.0,-1.0,0.17186642400805904,1.0,0
21.406911849975586,-1.327885627746582,-0.2909212112426758,0.042578197005769654,-0.9473386249785029,0.3173903381698595,0.2526342587534466,3.0,0
21.717384338378906,-0.9506006240844727,-0.2519557476043701,0.39415923078398846,-0.5157467452114014,-0.760686397664386,0.2776387686612214,7.0,0
22.000707626342773,-1.0180463790893555,-0.27321624755859375,-0.0,-0.0,-1.0,0.17405107514399318,2.0,0
22.33084487915039,-1.2152681350708008,-0.315671443939209,-0.0,-0.0,-1.0,0.11486997060264391,1.0,0
20.474807739257812,0.21700191497802734,-0.4172782897949219,-0.0,-0.0,-1.0,0.22452790773966755,1.0,0
20.86855697631836,0.060980796813964844,-0.45070648193359375,-0.0,-0.0,-1.0,0.048292002848189075,1.0,0
22.06602668762207,-1.0192365646362305,-0.2763094902038574,-0.1894410582977539,0.5720335963858849,-0.7980536636322508,0.1606312162618811,4.0,0
22.51471710205078,-1.2935352325439453,-0.33562517166137695,-0.0,-0.0,-1.0,0.0853198090555139,1.0,0
20.921077728271484,0.20969581604003906,-0.4267888069152832,-0.0,-0.0,-1.0,0.1574236486345497,2.0,0
21.271974563598633,0.10690021514892578,-0.4537752866744995,0.9084069974561435,0.36742684690181243,-0.1994849346404546,0.09805397775389268,3.0,0
21.66448402404785,0.08366107940673828,-0.4718971252441406,-0.0,-0.0,-1.0,0.0727189435675482,1.0,0
21.880823135375977,0.15011978149414062,-0.46997761726379395,-0.0,-0.0,-1.0,0.055791906287809785,1.0,0
22.115697860717773,0.19313812255859375,-0.4740171432495117,-0.9788745054042971,-0.17091149163346803,0.11222283500747843,0.03700773755192607,3.0,0
22.353029251098633,-0.20377826690673828,-0.18121421337127686,0.5686681032738778,0.15094305477086203,-0.808599271911205,0.27914542969539635,3.0,0
22.39177894592285,0.4292879104614258,-0.4491097927093506,-0.2470474440955676,0.9218138530866841,0.29870852117629376,0.1163284651381173,4.0,0
21.023035049438477,-1.7879772186279297,0.0837712287902832,-0.0,-0.0,-1.0,0.22916902530273117,1.0,1
21.418676376342773,-1.3020153045654297,0.11887335777282715,0.8328401188513096,-0.5447004201642814,0.098380835047238,0.13402115458755004,4.0,1
21.988800048828125,-1.2306699752807617,0.1034858226776123,-0.0,-0.0,-1.0,0.2115583680884475,1.0,1
20.474254608154297,0.14203166961669922,-0.06933903694152832,0.5882839022597636,0.7298973096008572,0.3480976411575573,0.2306794766536887,4.0,0
20.681612014770508,0.1131134033203125,-0.07701742649078369,-0.3708937184934147,0.7857861581054342,-0.49495248591357643,0.3028179061319067,3.0,0
22.169475555419922,-0.17957782745361328,-0.1686251163482666,-0.0,-0.0,-1.0,0.16156093342331498,1.0,0
22.254262924194336,0.011815071105957031,-0.14724493026733398,0.14969696799240978,-0.9298673215879188,-0.33606187230447476,0.11605443078756904,4.0,0
22.4803524017334,-0.03323650360107422,-0.1652752161026001,-0.0,-0.0,-1.0,0.21867802149698837,1.0,0
22.553985595703125,0.2929344177246094,-0.1258779764175415,-0.0,-0.0,-1.0,0.23886269171299798,2.0,0
20.52600860595703,0.38805484771728516,0.31107544898986816,-0.6008588077362301,-0.6944010478821171,-0.39594933749914774,0.056642262832507215,10.0,1
20.985198974609375,0.11689090728759766,0.27309316396713257,-0.6568205572789663,-0.6084636740826094,0.4453748004295257,0.11199936428688365,3.0,1
20.925979614257812,-1.7252531051635742,-0.207067608833313,-0.0,-0.0,-1.0,0.22964093857458523,1.0,0
21.212650299072266,-1.7038135528564453,-0.20502042770385742,-0.0,-0.0,-1.0,0.23102659727471084,2.0,0
20.421646118164062,-1.0574636459350586,-0.12548363208770752,-0.0,-0.0,-1.0,0.09032352580596317,1.0,0
21.037988662719727,-1.3837041854858398,-0.16342902183532715,-0.23131837226675359,0.19762447158763477,-0.9525945511504711,0.17843408746810469,4.0,0
21.406784057617188,-1.438089370727539,-0.1721278429031372,-0.0,-0.0,-1.0,0.18178904904542245,1.0,0
22.569377899169922,-1.704207420349121,-0.22989165782928467,-0.24816828144952136,0.10747084060686882,-0.9627369954985857,0.06552130075304564,4.0,0
21.478790283203125,-0.9461355209350586,-0.10975825786590576,-0.0,-0.0,-1.0,0.1214818526859137,1.0,0
21.843141555786133,-1.0761547088623047,-0.13109946250915527,0.6835523631069421,0.381020456667316,-0.6225588956010066,0.18599044797535377,5.0,0
20.90662384033203,-0.2783803939819336,-0.3936814069747925,-0.0,-0.0,-1.0,0.09016430466501273,2.0,0
21.13559341430664,-0.38580322265625,-0.4098091125488281,-0.0,-0.0,-1.0,0.05047485383285296,1.0,0
21.62662696838379,-0.4506826400756836,-0.42176663875579834,-0.0,-0.0,-1.0,0.09740274237263782,2.0,0
20.545738220214844,0.19184398651123047,-0.32324063777923584,0.7113494577173827,0.5440412579652892,0.4449730987787144,0.22443308995287584,6.0,0
20.79716682434082,-0.0022144317626953125,-0.3501368761062622,-0.993901565441947,-0.11022337514602998,0.003238175947116954,0.1417704338886523,6.0,0
21.284975051879883,-0.1309823989868164,-0.36778175830841064,-0.0,-0.0,-1.0,0.03174764625083734,1.0,0
21.70870590209961,-0.33037853240966797,-0.40296077728271484,-0.0,-0.0,-1.0,0.0811694100493612,1.0,0
22.082368850708008,-0.16959762573242188,-0.3824368715286255,-0.0,-0.0,-1.0,0.13153871120550475,1.0,0
20.214113235473633,0.45653343200683594,-0.2893451452255249,-0.01446900940473809,0.940652561217522,-0.33906254119522156,0.1981324993918218,4.0,0
22.080904006958008,-0.04012775421142578,-0.36115312576293945,-0.5697753486733541,-0.792733293985734,0.2166332768775048,0.07289545454811647,3.0,0
22.457971572875977,-0.15674877166748047,-0.38989806175231934,-0.0,-0.0,-1.0,0.12407868469981072,2.0,0
22.64120101928711,0.6225881576538086,-0.26735830307006836,-0.0,-0.0,-1.0,0.18610108584963908,1.0,0
21.150367736816406,-1.4900140762329102,0.23185276985168457,0.6929866236913301,-0.028190082060873468,-0.7203990967916964,0.12727101915264288,3.0,1
22.026105880737305,-1.2192487716674805,0.2448369264602661,-0.9188738630068762,-0.21832725319805146,-0.3286396725804942,0.21437866242063985,3.0,1
20.386625289916992,-0.18056297302246094,-0.015965938568115234,0.34440570423367417,0.9293307540789009,-0.13315051789027402,0.11047806402626217,3.0,0
21.746173858642578,-0.7476930618286133,0.2943216562271118,-0.46171092053157475,0.8572350352358629,-0.22797175313194998,0.15291659781998548,7.0,1
20.629526138305664,0.3363780975341797,0.05252480506896973,-0.9434717284112962,0.32736877773779627,-0.05187273899711043,0.1565441759372144,5.0,1
20.76244354248047,0.09891223907470703,0.024051904678344727,-0.0,-0.0,-1.0,0.11844180555528974,1.0,1
22.209129333496094,0.03960227966308594,0.0057108402252197266,0.3988703665359329,-0.634831320636871,-0.661733802248258,0.21966123087251582,6.0,1
20.317279815673828,0.47258758544921875,0.409288227558136,-0.0,-0.0,-1.0,0.16041060226409043,1.0,1
20.373075485229492,0.5016250610351562,0.41261613368988037,-0.8138703301014101,-0.26694818696343003,-0.5160947115186892,0.17192590488777676,5.0,1
20.531431198120117,-1.0672979354858398,-0.3255692720413208,-0.0,-0.0,-1.0,0.07216926545428251,2.0,0
20.805740356445312,-1.2054862976074219,-0.3372102975845337,-0.0,-0.0,-1.0,0.12133062534428364,1.0,0
21.206567764282227,-1.3719711303710938,-0.3519386053085327,-0.0,-0.0,-1.0,0.07960214920256425,1.0,0
21.531463623046875,-1.1521644592285156,-0.31761765480041504,0.31428983185577575,-0.917755043080686,0.24279123232117825,0.18154215461745823,6.0,0
22.434099197387695,-1.3393945693969727,-0.34050607681274414,-0.0,-0.0,-1.0,0.19067363205575688,2.0,0
22.706405639648438,-1.2788610458374023,-0.3338688611984253,-0.0,-0.0,-1.0,0.0794799921770087,1.0,0
20.627042770385742,-1.01165771484375,-0.315598726272583,-0.0,-0.0,-1.0,0.024961267325453982,1.0,0
21.291419982910156,-0.8659563064575195,-0.28199291229248047,0.7391104601779921,-0.3623363119905314,-0.5678275483529983,0.2055784386942346,4.0,0
21.721054077148438,-0.9197673797607422,-0.28416574001312256,-0.14976694728896225,-0.594181905027094,-0.7902643388374035,0.21477266931108502,4.0,0
21.9708194732666,-0.9430875778198242,-0.28570330142974854,-0.0,-0.0,-1.0,0.0961976379411413,2.0,0
20.725187301635742,-0.04343414306640625,-0.18452417850494385,-0.09088975019609287,-0.9680874450411665,-0.2335503201945107,0.20422361661725613,6.0,0
20.74155044555664,0.4573860168457031,-0.47382938861846924,-0.0,-0.0,-1.0,0.08536979606833524,2.0,0
21.006298065185547,0.3585681915283203,-0.48049795627593994,-0.6646393071015151,-0.13982773534302922,-0.733963756519665,0.114270103604222,4.0,0
21.38199806213379,0.2664604187011719,-0.48478758335113525,-0.0,-0.0,-1.0,0.04939874432070244,1.0,0
21.782970428466797,0.1932821273803711,-0.48867297172546387,-0.0,-0.0,-1.0,0.043601273082635575,1.0,0
22.114112854003906,0.19569015502929688,-0.48395586013793945,-0.9788745054042971,-0.17091149163346803,0.11222283500747843,0.037007737551926094,3.0,0
21.468412399291992,0.6133203506469727,-0.4234638214111328,-0.0,-0.0,-1.0,0.22536673225725887,2.0,0
22.332609176635742,0.5115852355957031,-0.4277423620223999,-0.0,-0.0,-1.0,0.13577981136784142,2.0,0
22.61952018737793,0.5021553039550781,-0.4291270971298218,0.06135049214571313,0.9487255891323991,-0.3100901056771414,0.17802057277374908,5.0,0
20.831750869750977,-1.700469970703125,0.02293264865875244,-0.0,-0.0,-1.0,0.18855621785804963,1.0,1
21.075130462646484,-1.747511863708496,0.020943641662597656,0.2311689678286727,0.7667763331394991,-0.5988446904249628,0.2423754248247937,4.0,1
21.298091888427734,-1.2404680252075195,0.07393014430999756,-0.0,-0.0,-1.0,0.167645093278428,1.0,1
20.34718132019043,0.16247081756591797,-0.16987740993499756,0.04171081513421522,-0.9951521607239674,-0.08906393718704618,0.20831517290187634,10.0,0
20.563758850097656,0.12786579132080078,-0.16708266735076904,0.27021641159018683,0.9627100303394615,-0.013133483586462737,0.1636108495969918,3.0,0
20.95838165283203,0.13700485229492188,0.20726001262664795,0.4917876808344528,-0.7891174664680103,-0.36801970204675016,0.10342717780958291,3.0,1
22.305702209472656,-0.034584999084472656,-0.1600130796432495,0.9070893380946627,-0.4023705654397084,-0.12364004522288163,0.22315852862583552,5.0,0
22.37114906311035,-0.06508922576904297,-0.16424167156219482,0.6390251137620464,-0.7689835497024562,-0.017640982637408594,0.2515579113404255,4.0,0
20.55272674560547,0.23549842834472656,-0.15321576595306396,-0.5929181695903928,0.755797963172142,0.27788033941684176,0.21739466119178344,3.0,0
21.179882049560547,0.31174659729003906,-0.12557387351989746,0.3710841505664422,0.2947514884603943,-0.8805782834301352,0.10237253567368242,3.0,0
22.214984893798828,0.08656883239746094,-0.14343416690826416,0.15088146986055967,-0.020416611918015384,-0.9883410059339369,0.13468120109169235,7.0,0
22.607040405273438,0.101837158203125,-0.1420212984085083,-0.0,-0.0,-1.0,0.20037821189779537,1.0,0
21.090282440185547,-1.6748085021972656,0.44847846031188965,-0.0,-0.0,-1.0,0.15767225263119242,1.0,1
20.658071517944336,0.3587074279785156,0.22310376167297363,-0.0,-0.0,-1.0,0.0617790501433033,2.0,1
21.229616165161133,-1.4392051696777344,-0.33504998683929443,-0.0,-0.0,-1.0,0.07308943119363986,1.0,0
20.91692543029785,-1.1374883651733398,-0.318312406539917,-0.0,-0.0,-1.0,0.12140440485517395,1.0,0
21.249160766601562,-1.328603744506836,-0.32043397426605225,0.6461127849931322,-0.6639798985442967,0.3763893773707275,0.09924810826988703,3.0,0
21.513965606689453,-1.1247968673706055,-0.27976107597351074,-0.8915317972839147,0.040166861343627736,-0.45117366687508875,0.2038318668507751,4.0,0
22.192842483520508,-1.3529901504516602,-0.27331459522247314,0.4606013555479164,0.49645295779665377,-0.7357858737176024,0.22193744992080128,3.0,0
22.489505767822266,-1.3879480361938477,-0.2650045156478882,0.985806872442409,0.1258672860256744,0.11109561896783748,0.1633527703073241,3.0,0
20.576969146728516,-0.8690004348754883,-0.30982983112335205,-0.0,-0.0,-1.0,0.02816087507932309,1.0,0
20.742292404174805,-0.9208650588989258,-0.3041490316390991,-0.0,-0.0,-1.0,0.04961323150004196,1.0,0
21.323450088500977,-0.8602161407470703,-0.25862646102905273,-0.0,-0.0,-1.0,0.21561512695270682,2.0,0
21.757247924804688,-0.9536771774291992,-0.24510109424591064,-0.11443942832404654,-0.9308635261426877,-0.3469822948538831,0.14673127339332243,5.0,0
21.9873046875,-0.9447221755981445,-0.23190248012542725,-0.0,-0.0,-1.0,0.20961885110436948,2.0,0
21.76128387451172,-0.6099281311035156,-0.20225250720977783,-0.0,-0.0,-1.0,0.20061385088188244,2.0,0
20.624164581298828,0.18747329711914062,-0.1827641725540161,0.37455284324804794,0.9063071536254046,0.19574859106062645,0.28198121104149426,7.0,0
20.832345962524414,0.22557830810546875,-0.16221225261688232,0.7771292714682322,-0.3061017432859635,0.5498834587297099,0.12598724615009396,3.0,0
22.258201599121094,-0.15195655822753906,-0.1191779375076294,0.040701679144267776,0.08229289127290065,-0.9957767085852046,0.22442076630308905,4.0,0
20.506900787353516,0.2952852249145508,-0.1795494556427002,-0.0,-0.0,-1.0,0.2211332757945839,2.0,0
21.126310348510742,0.3928651809692383,-0.4866722822189331,-0.0,-0.0,-1.0,0.13815680148831314,2.0,0
21.507017135620117,0.3468027114868164,-0.4632049798965454,-0.0,-0.0,-1.0,0.11916631231886403,2.0,0
21.827959060668945,0.19559478759765625,-0.4635603427886963,-0.0,-0.0,-1.0,0.04485736646728236,2.0,0
22.234386444091797,0.17702007293701172,-0.4403172731399536,-0.0,-0.0,-1.0,0.07161206484069003,2.0,0
22.64023208618164,0.3247699737548828,-0.3938627243041992,-0.0,-0.0,-1.0,0.12938522403235522,1.0,0
21.106632232666016,-1.724111557006836,0.055957913398742676,0.7717147825575668,-0.4007279103929536,-0.4938354343445034,0.14157756529034082,4.0,1
21.775209426879883,-0.7902565002441406,0.17105352878570557,0.9948245638949341,-0.10156611447777114,-0.0029002519101862484,0.07098183956772874,6.0,1
22.36447525024414,-0.0115814208984375,-0.09641551971435547,0.5425310320078287,0.2854976780460789,0.7900323760067163,0.17431062924965798,3.0,0
22.519386291503906,-0.010855674743652344,-0.08915483951568604,0.9919085045669319,0.015137605679571977,0.12604908354320618,0.14667430129060166,4.0,0
21.189659118652344,0.5714397430419922,-0.09523403644561768,-0.0,-0.0,-1.0,0.1334762415103266,1.0,0
22.24117660522461,0.1750955581665039,-0.07912766933441162,-0.0,-0.0,-1.0,0.18226829650928136,2.0,0
20.889205932617188,-1.6189460754394531,-0.32601141929626465,-0.0,-0.0,-1.0,0.11520933845061676,1.0,0
21.633926391601562,0.12683486938476562,-0.4633982181549072,-0.0,-0.0,-1.0,0.05967644806434572,1.0,0
21.877195358276367,0.05789661407470703,-0.4525907039642334,-0.0,-0.0,-1.0,0.09821652106281094,1.0,0
22.095767974853516,0.06007099151611328,-0.43454790115356445,-0.3711040708049678,-0.6526649317578452,-0.6605378531814119,0.042489706111530495,3.0,0
20.848573684692383,0.6307964324951172,-0.470689058303833,-0.0,-0.0,-1.0,0.054821259746316624,2.0,0
21.08142852783203,0.3444786071777344,-0.48516392707824707,0.7185498534349344,0.43722223015244055,-0.5408537968704304,0.14898719816362976,3.0,0
21.52582550048828,0.23824691772460938,-0.45747697353363037,-0.11820968113854319,0.39061609446325907,-0.9129323841508714,0.05833936218996012,3.0,0
20.755292892456055,-1.4677457809448242,-0.31958818435668945,-0.0,-0.0,-1.0,0.08763719006183221,1.0,0
21.276897430419922,-1.5171308517456055,-0.2876405715942383,0.8319357682726768,0.28280013081024297,0.4773960237394744,0.1709708283466283,4.0,0
20.52674102783203,-1.0677204132080078,-0.2952127456665039,-0.0,-0.0,-1.0,0.07827026199275912,2.0,0
20.73957061767578,-1.2470464706420898,-0.29726076126098633,-0.7705675266571194,0.5617549557858975,-0.30109310272989315,0.18925804238663915,4.0,0
21.313045501708984,-1.232025146484375,-0.2538110017776489,-0.0,-0.0,-1.0,0.1671482201289977,1.0,0
21.589275360107422,-1.205240249633789,-0.23229074478149414,-0.0,-0.0,-1.0,0.21774368491268511,1.0,0
22.117660522460938,-1.3395462036132812,-0.21506547927856445,-0.954423327924756,0.05705736548293361,0.29295147747908745,0.27376740294248764,3.0,0
21.36594009399414,-0.8946294784545898,-0.21323537826538086,-0.0,-0.0,-1.0,0.14814914326938344,2.0,0
21.77382469177246,-0.9758882522583008,-0.19482290744781494,0.6360649702599361,-0.49187010956234334,-0.5945461705598267,0.13470083515631323,3.0,0
20.25933837890625,0.0890045166015625,-0.20081233978271484,0.004930838014998274,-0.83375061324348,0.5521191916177081,0.19971689760086442,3.0,0
20.653087615966797,0.14327239990234375,-0.16023898124694824,0.746785194482232,0.20754746089218012,0.6318511887931715,0.26404165858817186,9.0,0
22.304872512817383,0.010625839233398438,-0.2380051612854004,0.5472740490809896,-0.6211298379897223,-0.5609713357751537,0.19642334436157388,5.0,0
22.447803497314453,-0.10722923278808594,-0.05561685562133789,-0.0,-0.0,-1.0,0.14265159017050597,1.0,0
21.030376434326172,0.5836515426635742,-0.4580991268157959,-0.0,-0.0,-1.0,0.05735960045475254,2.0,0
21.491214752197266,0.46326637268066406,-0.42941904067993164,-0.685522484147205,0.2860362402396094,-0.669508919282061,0.15480222519555392,3.0,0
22.153827667236328,0.1093606948852539,-0.42289602756500244,0.01523879671329622,-0.9718138588085182,-0.2352564619780476,0.057184288531714714,3.0,0
21.036046981811523,0.6329402923583984,-0.4508953094482422,-0.0,-0.0,-1.0,0.06065808978744546,2.0,0
22.66499137878418,0.60894775390625,-0.3122262954711914,-0.0,-0.0,-1.0,0.1934092554551373,1.0,0
21.25003433227539,-1.5708560943603516,0.1419367790222168,-0.0,-0.0,-1.0,0.16265651921093147,1.0,1
21.05270004272461,0.12306690216064453,0.2573472261428833,-0.0,-0.0,-1.0,0.17345787184973194,1.0,1
22.31670379638672,0.16849136352539062,-0.03239285945892334,-0.0,-0.0,-1.0,0.2186372837256816,1.0,0
22.38284683227539,-1.4421730041503906,-0.4477149248123169,-0.0,-0.0,-1.0,0.14551500782196639,2.0,0
22.274967193603516,-1.3855218887329102,-0.46508193016052246,-0.0,-0.0,-1.0,0.22297750222505644,1.0,0
22.39719581604004,-1.4120655059814453,-0.44282424449920654,-0.0,-0.0,-1.0,0.12994171251376935,2.0,0
22.15802574157715,-0.8369722366333008,-0.4508563280105591,-0.0,-0.0,-1.0,0.0756005183235973,1.0,0
22.494163513183594,-0.8429355621337891,-0.402984619140625,-0.0,-0.0,-1.0,0.027248957137343138,2.0,0
21.993183135986328,0.19739723205566406,-0.4408382177352905,-0.0,-0.0,-1.0,0.030284502787499418,2.0,0
22.207218170166016,0.08277034759521484,-0.4019275903701782,-0.0,-0.0,-1.0,0.12757277449494364,1.0,0
21.8992919921875,0.3683605194091797,-0.4508225917816162,0.6228443924623902,0.7034588159407791,0.3423602737663251,0.03299120917810869,4.0,0
22.32376480102539,0.2777519226074219,-0.36453306674957275,-0.0,-0.0,-1.0,0.1377145128085715,1.0,0
22.570337295532227,0.5787124633789062,-0.29235970973968506,-0.05281524536145431,-0.8365326550545568,-0.5453656267906728,0.2213632037393751,3.0,0
21.01683235168457,-1.3645095825195312,-0.29405462741851807,-0.0,-0.0,-1.0,0.1979401915188752,1.0,0
21.197694778442383,-1.464040756225586,-0.2611008882522583,-0.0,-0.0,-1.0,0.10662136945523536,2.0,0
20.984155654907227,-1.0688228607177734,-0.29170310497283936,-0.0,-0.0,-1.0,0.13978171700700137,2.0,0
21.508907318115234,-1.0683479309082031,-0.18670880794525146,-0.0,-0.0,-1.0,0.25088499588373503,2.0,0
22.135272979736328,-1.091238021850586,-0.06523406505584717,0.3363758575921276,-0.941681413715564,-0.009348662568411064,0.15943940345053895,4.0,0
20.871318817138672,-0.6714105606079102,-0.3031367063522339,-0.0,-0.0,-1.0,0.07260469532951082,1.0,0
21.682720184326172,-0.8121004104614258,-0.1441028118133545,-0.0,-0.0,-1.0,0.195436944939513,1.0,0
20.84176254272461,-0.051194190979003906,-0.2922111749649048,-0.0,-0.0,-1.0,0.3010565439889085,2.0,0
20.66839599609375,0.2109222412109375,-0.3218914270401001,0.07176673328062459,0.6033167746673462,-0.7942659538210223,0.22900141979136665,4.0,0
20.890769958496094,0.13621902465820312,-0.2770947217941284,-0.0,-0.0,-1.0,0.19212468630707252,1.0,0
22.285993576049805,-0.08562278747558594,0.002436995506286621,0.014570915180028827,-0.9416958477944548,-0.3361496968279151,0.2274401062354962,7.0,1
21.591949462890625,-1.0233917236328125,0.26333898305892944,-0.0,-0.0,-1.0,0.10062078464681622,1.0,1
21.786367416381836,-0.7267417907714844,0.2986680269241333,-0.12403747913704243,0.7825799768268933,-0.6100682614584596,0.14290396468991823,14.0,1
20.214820861816406,-0.03566455841064453,0.005308032035827637,0.5670638781964261,-0.7368045642764887,0.3681814662719493,0.1396962600784166,3.0,1
20.4442081451416,-0.08388233184814453,0.04925978183746338,-0.0,-0.0,-1.0,0.06814567658511253,1.0,1
20.53460693359375,0.11261653900146484,0.0655297040939331,-0.0,-0.0,-1.0,0.15871138870538817,1.0,1
20.808509826660156,0.1295948028564453,0.11733019351959229,0.08009946932252617,-0.9256362996726788,-0.36983985147969206,0.10783569437489746,3.0,1
20.410789489746094,0.49868297576904297,0.44615089893341064,-0.0,-0.0,-1.0,0.14775784585886823,1.0,1
20.962873458862305,-1.765946388244629,-0.12370014190673828,-0.11918506514981508,-0.5581829593365486,-0.821113088527717,0.222918863380178,3.0,0
20.766098022460938,-1.271388053894043,-0.09500503540039062,-0.0,-0.0,-1.0,0.14633962327017255,1.0,0
21.11565399169922,-1.5780954360961914,-0.09921908378601074,0.8378404447886163,-0.47080583150572614,-0.27634264617792054,0.166172096249884,6.0,0
21.843158721923828,-0.5547771453857422,-0.4007986783981323,-0.0,-0.0,-1.0,0.17594096293579914,2.0,0
21.317981719970703,-0.0670309066772461,-0.38832855224609375,-0.0,-0.0,-1.0,0.049283988625249485,1.0,0
21.46449089050293,-0.18292713165283203,-0.38881516456604004,-0.0,-0.0,-1.0,0.028025528336809297,2.0,0
21.920135498046875,-0.17346954345703125,-0.3516184091567993,-0.0,-0.0,-1.0,0.20090963559027133,2.0,0
20.531888961791992,0.3328561782836914,-0.41756749153137207,-0.0,-0.0,-1.0,0.11879471395107412,2.0,0
20.81665802001953,0.25981903076171875,-0.3982408046722412,-0.49245820016401565,0.41770835108121945,0.763547414721723,0.1813357357160961,3.0,0
21.200849533081055,0.08748435974121094,-0.381805419921875,0.799517807306263,0.4922412505289719,-0.3441944611376823,0.15841769481464163,3.0,0
21.869585037231445,-0.0066089630126953125,-0.33672070503234863,-0.4877726313688303,0.7724053153575533,-0.4067774439357794,0.19597797749357662,3.0,0
22.376619338989258,0.18381309509277344,-0.2765079736709595,-0.0,-0.0,-1.0,0.2278463177909685,1.0,0
20.691543579101562,-1.8042936325073242,0.3415408134460449,-0.0,-0.0,-1.0,0.11006507427134249,2.0,1
20.920658111572266,-1.6137332916259766,0.36086320877075195,-0.0,-0.0,-1.0,0.2318563303036514,1.0,1
21.194820404052734,-1.347031593322754,0.38593733310699463,-0.0,-0.0,-1.0,0.1244251594846975,2.0,1
20.404895782470703,-0.10329914093017578,-0.029154300689697266,0.5776233639249463,-0.7549797522212991,-0.3104139545572891,0.07737913149988404,3.0,0
22.187923431396484,-0.1239175796508789,0.08356952667236328,0.6205648152000145,-0.5369270242012572,-0.5714968773476848,0.2316489761087458,4.0,1
20.599872589111328,0.2335205078125,0.009672164916992188,0.3811276791492555,0.9184382331527625,0.1058910008902272,0.21047676769231788,3.0,1
20.642105102539062,0.21579360961914062,0.011420011520385742,-0.0,-0.0,-1.0,0.20340274782596218,2.0,1
22.18404197692871,-0.05216789245605469,0.08940577507019043,0.6632333778143876,0.43668559689028863,0.6078052122361983,0.2477936003468739,4.0,1
22.28486442565918,-0.037853240966796875,0.09622883796691895,0.6863937684980151,0.02568757366144463,-0.7267762675861679,0.24110424976045125,9.0,1
21.170791625976562,-1.2993249893188477,0.38751113414764404,-0.005440725818156806,-0.9825406835873274,0.1859682865391812,0.20459932851785204,3.0,1
21.519020080566406,-1.24212646484375,0.4041217565536499,0.37213095862869877,-0.49491689925440663,-0.7852234156356324,0.19152707573815733,3.0,1
20.60405731201172,-1.7076025009155273,-0.32095634937286377,-0.0,-0.0,-1.0,0.08631250354045954,1.0,0
20.785831451416016,-1.7147417068481445,-0.3101600408554077,-0.0,-0.0,-1.0,0.10961178730971563,1.0,0
20.558839797973633,-1.4308156967163086,-0.2996237277984619,-0.0,-0.0,-1.0,0.05631148985290271,1.0,0
21.093647003173828,-1.4484682083129883,-0.26724302768707275,-0.3483441405424787,0.07132489850247084,-0.9346491954756789,0.21820096565989816,3.0,0
21.851722717285156,-1.624755859375,-0.23969781398773193,-0.0,-0.0,-1.0,0.12289309532035017,2.0,0
22.658632278442383,-1.7762823104858398,-0.21362459659576416,-0.0,-0.0,-1.0,0.08306832364292431,2.0,0
20.213539123535156,-1.0160198211669922,-0.2875910997390747,-0.0,-0.0,-1.0,0.12127881085716694,1.0,0
20.45624351501465,-1.1013259887695312,-0.27800416946411133,-0.0,-0.0,-1.0,0.09492136983031936,1.0,0
21.921031951904297,-1.2086143493652344,-0.19661223888397217,-0.14955331224013158,-0.2643343833500543,-0.9527649975607589,0.1749944011751633,6.0,0
22.014436721801758,-1.422231674194336,-0.21160352230072021,-0.0,-0.0,-1.0,0.22618148442334826,1.0,0
21.27039337158203,-0.9215812683105469,-0.20906269550323486,0.1006618662942077,-0.9885107988306608,-0.11275455320888746,0.1218532216164452,3.0,0
20.363174438476562,0.15410614013671875,-0.18180465698242188,-0.4013804062836394,-0.8825252802910556,0.24503652605024923,0.22046160264021727,11.0,0
20.655550003051758,0.1348276138305664,-0.16148841381072998,0.27616396315870545,-0.4722924996910491,-0.8370622797546533,0.25670039142797757,8.0,0
21.561418533325195,0.5526704788208008,-0.4862405061721802,-0.0,-0.0,-1.0,0.17982303642895958,2.0,0
21.911972045898438,0.36723995208740234,-0.47590792179107666,-0.0,-0.0,-1.0,0.033177685038248333,2.0,0
22.371065139770508,0.47505950927734375,-0.42426562309265137,-0.0,-0.0,-1.0,0.14395615824166036,1.0,0
21.202808380126953,-1.4576778411865234,0.2234741449356079,-0.0,-0.0,-1.0,0.1203034032687593,2.0,1
21.480192184448242,-1.2206268310546875,0.24928009510040283,-0.5960520039112027,-0.7979223200530059,-0.08967708622980694,0.1576342788939582,10.0,1
22.022275924682617,-1.2389240264892578,0.2686164379119873,-0.9188738630068762,-0.21832725319805146,-0.3286396725804942,0.20892404191310832,3.0,1
22.31890296936035,-0.04024028778076172,-0.06544840335845947,-0.0,-0.0,-1.0,0.19176517595716272,2.0,0
21.113033294677734,0.5430107116699219,-0.09497177600860596,-0.0,-0.0,-1.0,0.17279417683769066,1.0,0
21.720787048339844,-0.7976493835449219,0.28518354892730713,-0.0,-0.0,-1.0,0.11941595138395804,1.0,1
20.55651092529297,0.3705730438232422,0.29860442876815796,-0.6799843006422934,-0.2206834806799332,-0.6992282547459024,0.06076419600806118,9.0,1
20.695510864257812,-1.4528789520263672,-0.3289557695388794,-0.7521701078995936,-0.5379290460597054,-0.38062116360970905,0.08533365901901135,3.0,0
21.927875518798828,-1.441462516784668,-0.23075664043426514,-0.0,-0.0,-1.0,0.13261888517105336,2.0,0
22.115224838256836,-1.548966407775879,-0.22544312477111816,-0.0,-0.0,-1.0,0.18127188544171655,2.0,0
20.66933822631836,-0.9887571334838867,-0.29842686653137207,-0.0,-0.0,-1.0,0.026504971903008528,1.0,0
20.827617645263672,-1.145106315612793,-0.2959507703781128,-0.1486776572000866,0.6162547430246469,-0.7733854446193825,0.18602151149695742,4.0,0
21.2103271484375,-0.9223480224609375,-0.2481311559677124,-0.0,-0.0,-1.0,0.12613650828641604,1.0,0
21.8877010345459,-1.0477619171142578,-0.20334208011627197,-0.6169315397549598,0.7838407392607902,-0.07063406211363088,0.2687401788790322,5.0,0
20.35808563232422,-0.6387605667114258,-0.3019315004348755,-0.0,-0.0,-1.0,0.21511124571943127,1.0,0
20.67644500732422,-0.7218742370605469,-0.2794286012649536,-0.0,-0.0,-1.0,0.04508704035500934,1.0,0
21.09429931640625,-0.542363166809082,-0.23093974590301514,-0.0,-0.0,-1.0,0.07476327814095304,1.0,0
21.27798843383789,-0.9170312881469727,-0.2421715259552002,0.0863842791970361,-0.961076162383825,-0.26243164139483616,0.13685576023571291,4.0,0
21.8477783203125,-0.9599647521972656,-0.19971001148223877,-0.1052177696778382,0.5625063056618937,-0.8200706536845652,0.13822347640767865,3.0,0
20.67974090576172,-0.09659862518310547,-0.23747169971466064,-0.0,-0.0,-1.0,0.15295336796612818,2.0,0
21.81328582763672,-0.4211578369140625,-0.16226983070373535,-0.0,-0.0,-1.0,0.1452407063757619,1.0,0
20.384178161621094,0.1759624481201172,-0.24753201007843018,-0.6803262088039989,-0.7063334025778979,0.1955744717929902,0.19759139891778815,5.0,0
20.635379791259766,0.22469043731689453,-0.22103488445281982,0.6113170854177462,0.7909143984237873,0.027309987958453207,0.21660570434072052,6.0,0
22.135204315185547,-0.17112445831298828,-0.11782658100128174,-0.0,-0.0,-1.0,0.09477451354515691,1.0,0
21.53012466430664,-1.1192388534545898,0.25310003757476807,-0.0,-0.0,-1.0,0.168970457332611,1.0,1
21.78778648376465,-0.7223434448242188,0.28666889667510986,-0.15102088503481242,0.9777762466090758,-0.14541768754305529,0.19396152863477462,14.0,1
22.310382843017578,0.01947021484375,-0.08969295024871826,-0.10334889537656615,-0.9508743055219161,0.29181682768931855,0.22462575298049955,4.0,0
22.29570198059082,-1.430495262145996,-0.2677319049835205,-0.0,-0.0,-1.0,0.1168221279851168,2.0,0
21.05750846862793,-1.0550003051757812,-0.33943140506744385,-0.0,-0.0,-1.0,0.21240457210869992,1.0,0
21.28262710571289,-0.9117155075073242,-0.310835599899292,0.7823481049743526,0.4066010331405796,-0.4718125077740656,0.16901570446162595,6.0,0
22.037282943725586,-1.0445327758789062,-0.25893259048461914,0.11759913907032367,0.9438604059339836,0.3087037035735954,0.15338209330013844,4.0,0
22.08212661743164,-1.1825580596923828,-0.26553380489349365,-0.0,-0.0,-1.0,0.16443675314707068,1.0,0
22.492725372314453,-1.4240760803222656,-0.2526419162750244,0.9904971748394852,-0.10711709198215826,-0.08626282652617115,0.12192889074311905,7.0,0
20.758106231689453,-0.6493387222290039,-0.3386814594268799,-0.0,-0.0,-1.0,0.08315828430320062,2.0,0
20.984867095947266,-0.7827215194702148,-0.32755136489868164,-0.0,-0.0,-1.0,0.04184077694067518,1.0,0
21.87220001220703,-0.9111146926879883,-0.26247453689575195,0.830743275836729,0.12069980977814589,-0.5434125187843765,0.11174520836328775,4.0,0
20.74665069580078,-0.2423572540283203,-0.31434524059295654,0.6972656709053258,-0.5979680241552168,-0.39529081226971624,0.13933710564794013,5.0,0
20.50845718383789,0.2095661163330078,-0.30951380729675293,0.6427644079693487,0.6448518807030897,0.4135456054675236,0.15531502375062026,6.0,0
22.449859619140625,0.17924118041992188,-0.13932561874389648,-0.0,-0.0,-1.0,0.21039622904650385,1.0,0
22.614953994750977,0.16102313995361328,-0.12699294090270996,-0.0,-0.0,-1.0,0.15875521000370563,1.0,0
22.626861572265625,0.3021373748779297,-0.11625039577484131,-0.0,-0.0,-1.0,0.13995832415746323,1.0,0
21.352439880371094,-1.342641830444336,0.19070041179656982,-0.0,-0.0,-1.0,0.16460099569395076,1.0,1
22.04766082763672,-1.167658805847168,0.23756158351898193,-0.0,-0.0,-1.0,0.1353017002626825,1.0,1
21.78789710998535,-0.7186412811279297,0.2432084083557129,0.5723896799764252,0.23786946729785302,-0.7847217155042426,0.1257379546070229,9.0,1
21.774436950683594,0.26158905029296875,-0.4347248077392578,0.7810674626016001,0.5282895843219391,-0.33293202603842525,0.05024320481010979,3.0,0
21.84735107421875,0.1300334930419922,-0.4354243278503418,-0.3435238118684622,0.7549964713732183,-0.5585442855256431,0.052286984335004366,3.0,0
22.592784881591797,0.6013946533203125,-0.32932567596435547,-0.0,-0.0,-1.0,0.16264726525176498,2.0,0
21.424118041992188,-1.3079156875610352,-0.02060842514038086,-0.0,-0.0,-1.0,0.17298848378276094,1.0,0
21.87423324584961,-0.7159032821655273,0.03793895244598389,-0.0,-0.0,-1.0,0.11970926132249485,2.0,1
22.381921768188477,-0.09352588653564453,0.10189962387084961,-0.0,-0.0,-1.0,0.19361844723867785,1.0,1
22.272804260253906,0.0027456283569335938,0.09798359870910645,0.9384281995572282,0.26941946855933596,0.21625370340640018,0.18322182914271828,3.0,1
20.260419845581055,-0.7395038604736328,-0.318517804145813,-0.0,-0.0,-1.0,0.10777323133271285,1.0,0
20.276498794555664,-0.9589662551879883,-0.3281136751174927,-0.0,-0.0,-1.0,0.10787883137527939,1.0,0
20.4327335357666,0.32027244567871094,-0.2572517395019531,-0.0,-0.0,-1.0,0.19852206026241206,1.0,0
22.550430297851562,-1.6697568893432617,-0.21629488468170166,-0.0,-0.0,-1.0,0.0655949188025819,2.0,0
21.552692413330078,-0.5561084747314453,-0.2218698263168335,-0.0,-0.0,-1.0,0.1446615850441243,2.0,0
21.701160430908203,-0.6426563262939453,-0.21630525588989258,-0.0,-0.0,-1.0,0.2271844238437503,2.0,0
20.531211853027344,0.6145219802856445,-0.23721790313720703,-0.0,-0.0,-1.0,0.13476119770191555,1.0,0
21.079431533813477,-0.3634786605834961,-0.4141784906387329,-0.0,-0.0,-1.0,0.025721188056919024,1.0,0
20.89462661743164,0.2726736068725586,-0.399921178817749,-0.24953469751054388,0.9397401230570075,-0.2337112232117274,0.14583633767404774,5.0,0
21.21445083618164,-0.1356973648071289,-0.39295995235443115,-0.0,-0.0,-1.0,0.044542817625658475,1.0,0
