x,y,z,nx,ny,nz,curvature,density,label
21.96681785583496,-9.24998664855957,0.12794065475463867,-0.0,-0.0,-1.0,0.10171460843136801,1.0,1
20.585811614990234,-8.353496551513672,0.23968791961669922,-0.0,-0.0,-1.0,0.2933215860807849,2.0,1
20.84110450744629,-7.704780578613281,0.2905094623565674,-0.0,-0.0,-1.0,0.22622720175603359,1.0,1
21.878395080566406,-7.651895523071289,-0.0637063980102539,-0.0,-0.0,-1.0,0.06700636436053796,1.0,0
21.538347244262695,-6.967426300048828,0.014084100723266602,0.7771207530735661,0.08845271503124617,-0.6231046881110546,0.1554352991014179,3.0,1
20.537813186645508,-8.12491226196289,0.03316235542297363,-0.0,-0.0,-1.0,0.12247663984251723,1.0,1
20.69132423400879,-7.933759689331055,0.04859638214111328,-0.0,-0.0,-1.0,0.15350923851939563,1.0,1
21.676555633544922,-7.916526794433594,0.028107643127441406,-0.0,-0.0,-1.0,0.07919689163205985,1.0,1
21.845844268798828,-7.951543807983398,0.02032017707824707,-0.0,-0.0,-1.0,0.12057895712715122,1.0,1
20.38874626159668,-7.363000869750977,0.10882997512817383,-0.0,-0.0,-1.0,0.1859488949565065,1.0,1
20.909345626831055,-7.550117492675781,0.0811312198638916,-0.0,-0.0,-1.0,0.17411587397998202,2.0,1
20.349809646606445,-7.250612258911133,0.12020349502563477,-0.0,-0.0,-1.0,0.1457330186457526,2.0,1
21.274425506591797,-7.168794631958008,0.10995149612426758,0.4341748618356532,0.2088769083171428,-0.8762777108439217,0.19384654131844128,3.0,1
21.61998748779297,-7.043581008911133,0.11392021179199219,-0.0,-0.0,-1.0,0.2513440883096648,1.0,1
21.270740509033203,-6.938568115234375,0.13230061531066895,-0.0,-0.0,-1.0,0.21197285648564818,2.0,1
21.560321807861328,-8.610336303710938,0.05503535270690918,-0.0,-0.0,-1.0,0.07763914025399388,1.0,1
21.394351959228516,-8.553327560424805,0.06266427040100098,0.5895276161409225,-0.3730324401402464,-0.7164523629734323,0.09663601625113706,4.0,1
20.478221893310547,-8.23792839050293,0.10164523124694824,-0.0,-0.0,-1.0,0.21068409589686007,1.0,1
21.421865463256836,-8.360218048095703,0.08036541938781738,-0.0,-0.0,-1.0,0.0874472603878884,2.0,1
21.67103385925293,-8.413963317871094,0.07179069519042969,-0.0,-0.0,-1.0,0.1454422436880119,1.0,1
20.65880012512207,-7.969348907470703,0.12506651878356934,-0.0,-0.0,-1.0,0.14832262829234474,1.0,1
20.876379013061523,-7.468015670776367,0.16964936256408691,-0.0,-0.0,-1.0,0.2320466579914712,2.0,1
21.010738372802734,-7.409461975097656,0.17379403114318848,-0.0,-0.0,-1.0,0.17135748056468153,2.0,1
20.333229064941406,-7.305667877197266,0.18861174583435059,-0.0,-0.0,-1.0,0.19633884634094195,1.0,1
20.561260223388672,-7.305572509765625,0.18724751472473145,0.7281680824657343,0.12080707105559982,-0.6746679889109477,0.2535135917916999,3.0,1
21.21615982055664,-7.192098617553711,0.19185376167297363,-0.0,-0.0,-1.0,0.14709458246545104,2.0,1
21.433015823364258,-7.130302429199219,0.19507884979248047,-0.0,-0.0,-1.0,0.2066182224058618,2.0,1
21.632556915283203,-8.534244537353516,0.07811713218688965,-0.0,-0.0,-1.0,0.14032639368858588,1.0,1
21.530019760131836,-8.354482650756836,0.09614133834838867,0.07092353966792933,-0.21704172552865858,-0.9735824263515208,0.2008342486384247,3.0,1
20.647336959838867,-8.089754104614258,0.12909579277038574,-0.0,-0.0,-1.0,0.19629594653055316,1.0,1
20.236183166503906,-7.586193084716797,0.177293062210083,-0.0,-0.0,-1.0,0.21257873745799336,1.0,1
20.624427795410156,-7.393339157104492,0.19307780265808105,-0.0,-0.0,-1.0,0.24165031494343062,1.0,1
20.88327980041504,-7.610334396362305,0.1714317798614502,-0.0,-0.0,-1.0,0.16362762347811982,2.0,1
20.471073150634766,-7.312231063842773,0.2012789249420166,-0.0,-0.0,-1.0,0.19034045713586342,2.0,1
21.071552276611328,-7.358440399169922,0.19311022758483887,-0.0,-0.0,-1.0,0.16868975582275506,2.0,1
21.306283950805664,-7.149227142333984,0.2102506160736084,0.6919900921730734,0.05231277131883632,-0.7200090876449022,0.2890358772021567,4.0,1
21.648181915283203,-6.995317459106445,0.22089672088623047,-0.4672506434620247,0.8622182463510777,-0.19559277042773401,0.18753301411007914,3.0,1
21.570018768310547,-6.960611343383789,0.22500205039978027,-0.0,-0.0,-1.0,0.15287546738165647,2.0,1
20.226913452148438,-9.090459823608398,0.22638630867004395,-0.0,-0.0,-1.0,0.17691867319508178,1.0,1
21.456493377685547,-9.256004333496094,0.20616531372070312,0.5301678740770109,-0.6478458988406371,-0.5470079676312127,0.23563873534731145,4.0,1
21.359893798828125,-9.061159133911133,0.22372722625732422,-0.0,-0.0,-1.0,0.2032169747026234,1.0,1
20.22852325439453,-8.396800994873047,0.28482627868652344,-0.0,-0.0,-1.0,0.0932367580521376,1.0,1
20.958782196044922,-7.710014343261719,0.3414754867553711,-0.0,-0.0,-1.0,0.22493865998297588,1.0,1
21.317256927490234,-7.7215576171875,0.3388643264770508,-0.0,-0.0,-1.0,0.20518649057978414,2.0,1
21.53081512451172,-7.566898345947266,0.3507814407348633,-0.0,-0.0,-1.0,0.15737932176348485,1.0,1
21.58414077758789,-6.969432830810547,0.40162551403045654,-0.0,-0.0,-1.0,0.2537879954988617,2.0,1
21.503976821899414,-9.200775146484375,0.24733734130859375,-0.32394073203867774,0.7665657715801744,-0.55447210927867,0.16251109394395313,3.0,1
21.391733169555664,-8.931037902832031,0.2667059898376465,-0.0,-0.0,-1.0,0.2687265307851643,1.0,1
21.03697967529297,-7.617481231689453,0.36220455169677734,-0.0,-0.0,-1.0,0.2544855037648559,2.0,1
21.348682403564453,-7.7635955810546875,0.3570072650909424,-0.0,-0.0,-1.0,0.19070890225667547,1.0,1
21.399900436401367,-7.660533905029297,0.14350342750549316,-0.0,-0.0,-1.0,0.16198583662116106,1.0,1
20.440040588378906,-7.224905014038086,0.1497400999069214,0.9578105510710037,0.14114060989559177,0.25035629909263407,0.20228497100198622,3.0,1
21.253253936767578,-7.163684844970703,0.16941118240356445,0.4662848476821816,-0.8676673740544697,-0.1724290254667862,0.23483896856234823,3.0,1
21.468894958496094,-7.158622741699219,0.17354881763458252,-0.0,-0.0,-1.0,0.2561792853143632,2.0,1
20.423221588134766,-8.355550765991211,0.13019037246704102,-0.0,-0.0,-1.0,0.24204581394053815,1.0,1
20.535980224609375,-7.641183853149414,0.16314435005187988,-0.0,-0.0,-1.0,0.1490775875699777,2.0,1
20.28156280517578,-7.215251922607422,0.18036961555480957,-0.0,-0.0,-1.0,0.20098741891902983,1.0,1
20.549604415893555,-7.27845573425293,0.17952299118041992,-0.0,-0.0,-1.0,0.14983956144709698,2.0,1
21.22545623779297,-7.182229995727539,0.18755996227264404,-0.6599487923193084,0.3274781713439801,-0.6761846188797029,0.14738503902438274,3.0,1
21.44281005859375,-7.121669769287109,0.19116711616516113,-0.6113592143632526,-0.15970448061015427,-0.7750705709070546,0.1982593209544746,4.0,1
21.329463958740234,-6.937519073486328,0.19920623302459717,0.8561142768856236,0.1576929868453848,0.4921394790223471,0.2348301635567676,3.0,1
21.419782638549805,-6.955020904541016,0.09508788585662842,-0.0,-0.0,-1.0,0.2089527521580487,1.0,1
20.289377212524414,-8.343168258666992,0.05236101150512695,-0.0,-0.0,-1.0,0.19231581590910812,1.0,1
20.425783157348633,-8.301944732666016,0.05555367469787598,-0.0,-0.0,-1.0,0.18244214302681172,2.0,1
20.251914978027344,-7.116748809814453,0.10876083374023438,-0.0,-0.0,-1.0,0.16057696891719667,1.0,1
20.573345184326172,-7.305963516235352,0.10361838340759277,-0.0,-0.0,-1.0,0.22102552694512428,1.0,1
21.319305419921875,-7.077056884765625,0.12124752998352051,0.20559077242287818,-0.0817721828721326,-0.975215742491317,0.151554691246246,5.0,1
21.253108978271484,-6.917181015014648,0.12829971313476562,-0.0,-0.0,-1.0,0.15796226561322607,2.0,1
22.32118797302246,-9.336986541748047,0.05056631565093994,-0.0,-0.0,-1.0,0.16400429909049105,1.0,1
22.70818328857422,-8.908845901489258,0.07295477390289307,-0.0,-0.0,-1.0,0.022067035267492027,1.0,1
20.295063018798828,-8.232969284057617,0.06776702404022217,-0.0,-0.0,-1.0,0.2000189671575581,1.0,1
20.454055786132812,-7.24700927734375,0.10858237743377686,0.9578105510710037,0.14114060989559177,0.25035629909263407,0.20304962797176038,3.0,1
22.58693504333496,-8.629993438720703,-0.04033243656158447,-0.358960412792411,-0.5914953300063903,-0.7219977123430051,0.10205138603763443,3.0,0
22.345836639404297,-8.326459884643555,-0.035562872886657715,-0.0,-0.0,-1.0,0.06243488263166112,1.0,0
22.466047286987305,-8.351032257080078,-0.03349339962005615,-0.8369290765288823,-0.48339213192566816,-0.2566744390329312,0.05327073717639872,4.0,0
21.877527236938477,-9.330526351928711,0.03037858009338379,-0.0,-0.0,-1.0,0.1724036734780276,1.0,1
21.66104507446289,-9.104015350341797,0.033452749252319336,-0.0,-0.0,-1.0,0.08528931725104674,2.0,1
21.630029678344727,-8.619983673095703,0.04804039001464844,-0.0,-0.0,-1.0,0.07437876894458564,2.0,1
22.379627227783203,-8.938385009765625,0.05288553237915039,0.1251490126356995,-0.6162872985978174,-0.7775137878027079,0.04681809692363806,4.0,1
22.658235549926758,-8.954423904418945,0.05753588676452637,-0.0,-0.0,-1.0,0.023675308740780443,1.0,1
21.354907989501953,-8.251466751098633,0.05328369140625,-0.0,-0.0,-1.0,0.09341708243203693,1.0,1
21.77215003967285,-8.282949447631836,0.06148934364318848,-0.0,-0.0,-1.0,0.10637572352196396,2.0,1
22.007631301879883,-8.963687896728516,0.0033206939697265625,-0.0,-0.0,-1.0,0.022171308736714548,1.0,1
22.34585952758789,-8.755561828613281,0.017375469207763672,-0.0,-0.0,-1.0,0.027887408876908527,1.0,1
22.065696716308594,-8.04300308227539,0.03197765350341797,-0.0,-0.0,-1.0,0.09013533990815628,2.0,1
21.524778366088867,-6.863374710083008,0.7446525692939758,-0.1847084105860433,0.9827455643193216,0.009693238337926716,0.046093826954226286,3.0,1
21.36667823791504,-8.012772560119629,0.4476187229156494,-0.0,-0.0,-1.0,0.16722617065973427,1.0,1
21.127859115600586,-7.904667854309082,0.4688115119934082,-0.0,-0.0,-1.0,0.17314988142160115,2.0,1
21.281692504882812,-8.28981876373291,0.4223198890686035,-0.0,-0.0,-1.0,0.19787642393783547,1.0,1
21.342304229736328,-8.895831108093262,0.3563563823699951,-0.0,-0.0,-1.0,0.13987049394865594,2.0,1
21.06057357788086,-8.818560600280762,0.3763904571533203,0.582526327539961,0.1010771589763277,-0.8065026259449374,0.14283123038233841,3.0,1
21.499195098876953,-9.215388298034668,0.31605660915374756,-0.0,-0.0,-1.0,0.12502848975820452,1.0,1
21.200084686279297,-7.694955825805664,0.4787023067474365,-0.0,-0.0,-1.0,0.13421726815935575,2.0,1
21.072050094604492,-8.015623092651367,0.4710477590560913,-0.0,-0.0,-1.0,0.227275895043916,2.0,1
20.79529571533203,-8.555826187133789,0.4568908214569092,-0.0,-0.0,-1.0,0.1310714154597969,1.0,1
20.932762145996094,-9.278669357299805,0.4488013982772827,0.5376015895821329,0.6774846820681665,-0.5019950561925477,0.21107612739360926,3.0,1
21.344369888305664,-7.888741493225098,0.3444819450378418,-0.0,-0.0,-1.0,0.20266394863521392,2.0,1
21.112377166748047,-7.819626808166504,0.3407254219055176,-0.8321192297615946,0.3606756928867589,-0.4212963707672155,0.22625486308763465,3.0,1
21.110265731811523,-8.406540870666504,0.32808202505111694,-0.0,-0.0,-1.0,0.21344823305288982,1.0,1
20.264930725097656,-8.299216270446777,0.3112770915031433,-0.0,-0.0,-1.0,0.17255905276364275,2.0,1
22.272504806518555,-9.242331504821777,0.3371936082839966,-0.0,-0.0,-1.0,0.1852632862612724,1.0,1
21.407331466674805,-8.890158653259277,0.32458043098449707,-0.0,-0.0,-1.0,0.1909370021148245,1.0,1
21.23221778869629,-8.747843742370605,0.32359009981155396,0.9538739657469487,0.06754118094242825,-0.29251093372229825,0.22367337482222574,3.0,1
20.524219512939453,-7.222820281982422,0.2871803045272827,-0.0,-0.0,-1.0,0.129738856141461,1.0,1
21.122234344482422,-7.492622375488281,0.2692294120788574,-0.0,-0.0,-1.0,0.13465898593572087,1.0,1
20.571239471435547,-7.496953964233398,0.2747316360473633,-0.0,-0.0,-1.0,0.21602995583872286,1.0,1
21.30455780029297,-7.611297607421875,0.2621121406555176,-0.0,-0.0,-1.0,0.26931724313315863,1.0,1
21.03363037109375,-7.819976806640625,0.25586509704589844,-0.0,-0.0,-1.0,0.2153745187253012,2.0,1
20.841657638549805,-7.656839370727539,0.26499104499816895,-0.8924504504873588,-0.45058746134314126,-0.022430628730684646,0.2811816979334152,3.0,1
20.24282455444336,-8.090988159179688,0.2521219253540039,-0.0,-0.0,-1.0,0.13606083379381695,2.0,1
20.512174606323242,-8.300535202026367,0.24026823043823242,-0.0,-0.0,-1.0,0.25831693130629074,1.0,1
20.413846969604492,-7.3200178146362305,0.2753915786743164,-0.0,-0.0,-1.0,0.20933633004474517,1.0,1
20.929641723632812,-7.476141929626465,0.24068737030029297,-0.0,-0.0,-1.0,0.29212896450542875,2.0,1
20.704267501831055,-7.7952680587768555,0.23715102672576904,-0.0,-0.0,-1.0,0.16498648812759162,1.0,1
20.593868255615234,-8.149453163146973,0.22584211826324463,-0.0,-0.0,-1.0,0.1737629596583535,2.0,1
20.5071964263916,-8.146439552307129,0.23054933547973633,-0.0,-0.0,-1.0,0.1743985388841949,1.0,1
21.653955459594727,-8.303425788879395,0.16182684898376465,-0.0,-0.0,-1.0,0.2088104522704257,1.0,1
21.818281173706055,-8.508294105529785,0.1429821252822876,-0.0,-0.0,-1.0,0.05304704243483543,1.0,1
21.46592903137207,-6.993697166442871,0.23543250560760498,-0.3576678710195495,-0.41070769194754525,-0.838685212589004,0.2044031962561044,3.0,1
21.265541076660156,-7.065640449523926,0.24274826049804688,-0.0,-0.0,-1.0,0.18067665020415824,1.0,1
21.138385772705078,-7.279696464538574,0.23914992809295654,-0.0,-0.0,-1.0,0.21517868193294223,1.0,1
22.45591926574707,-7.090490341186523,0.5370851755142212,-0.0,-0.0,-1.0,0.1769026258347271,1.0,1
20.766637802124023,-9.158037185668945,0.5302799344062805,0.27669696548379513,-0.9013414012866917,-0.3332003415643547,0.11288909302567318,4.0,1
22.18191146850586,-9.095710754394531,0.03310132026672363,-0.0,-0.0,-1.0,0.18635792497461356,2.0,1
20.507658004760742,-7.338220596313477,0.209478497505188,0.5855492580614748,0.809236209361119,-0.04763217234709677,0.2305425229033781,3.0,1
20.65755271911621,-7.298120498657227,0.20389771461486816,-0.0,-0.0,-1.0,0.18685124155876956,2.0,1
21.604934692382812,-7.009235382080078,0.1700122356414795,0.5435310508963311,0.5682615332562139,0.6177805650332702,0.2623729110321133,5.0,1
21.32659912109375,-7.183502197265625,0.17546331882476807,-0.44836931549904396,-0.803498510709346,-0.39160579695247283,0.2151643713723138,5.0,1
21.064786911010742,-7.470006942749023,0.17425012588500977,0.47293342846925535,-0.6430696218998355,-0.6023250232440276,0.21238852987560383,7.0,1
20.834379196166992,-7.847707748413086,0.1667022705078125,-0.0,-0.0,-1.0,0.20895173013004556,2.0,1
20.753795623779297,-8.07221794128418,0.1593165397644043,-0.0,-0.0,-1.0,0.18829115828233842,1.0,1
21.87567710876465,-7.06751823425293,0.1529780626296997,-0.0,-0.0,-1.0,0.1600953343319169,1.0,1
21.90988540649414,-8.120353698730469,0.09724891185760498,-0.0,-0.0,-1.0,0.14074845405772748,1.0,1
21.691648483276367,-8.707521438598633,0.07849323749542236,-0.9251603205213691,0.08820375447482025,-0.36918623894904806,0.047575214560403326,3.0,1
20.656652450561523,-7.323810577392578,0.17208373546600342,0.14604703246458015,0.7676445986856636,-0.6240128479582902,0.21631587195276095,3.0,1
20.54931640625,-7.412599563598633,0.17301225662231445,-0.5583625440627842,0.7731355934369621,-0.30081991880294795,0.2754670739072379,3.0,1
21.389970779418945,-7.016735076904297,0.14870762825012207,-0.0,-0.0,-1.0,0.1908867271044073,2.0,1
21.087053298950195,-7.400482177734375,0.1446061134338379,0.3005519538211652,0.11278713073990723,-0.9470731683422033,0.17986459488870166,4.0,1
20.874691009521484,-7.821590423583984,0.13333725929260254,-0.0,-0.0,-1.0,0.13432714797044,2.0,1
21.59975814819336,-6.997520446777344,0.1380317211151123,0.5591209866669953,-0.09741495528511851,-0.8233432144344932,0.2507607061346111,5.0,1
21.393936157226562,-7.140352249145508,0.14178133010864258,-0.0,-0.0,-1.0,0.17780308147156534,2.0,1
21.192001342773438,-7.380886077880859,0.13991141319274902,-0.7876725648498454,-0.31770578447261916,0.5278588495947607,0.19571598070201654,4.0,1
20.766714096069336,-8.169137954711914,0.12032771110534668,-0.0,-0.0,-1.0,0.17220301354184445,2.0,1
22.013731002807617,-8.049890518188477,0.0576399564743042,-0.0,-0.0,-1.0,0.08250841796631266,1.0,1
21.804412841796875,-8.218645095825195,0.060378432273864746,-0.0,-0.0,-1.0,0.11635393770478408,1.0,1
22.175539016723633,-8.192739486694336,0.04065585136413574,-0.0,-0.0,-1.0,0.09458532365301502,2.0,1
22.590105056762695,-8.749767303466797,-0.013434290885925293,-0.0,-0.0,-1.0,0.09349892295713602,2.0,0
20.598173141479492,-7.381260871887207,0.2779008150100708,0.3277351277717966,-0.5177096636194928,-0.7902951285560325,0.23529870057950739,4.0,1
21.41320037841797,-7.035431861877441,0.21843266487121582,-0.3536762200291891,0.3606211875687885,-0.8630559022811561,0.25161914557811765,4.0,1
21.168174743652344,-7.438418388366699,0.22254419326782227,-0.0,-0.0,-1.0,0.19862069958925938,2.0,1
21.03824806213379,-7.573788642883301,0.22831964492797852,-0.0,-0.0,-1.0,0.16929601117960555,2.0,1
20.872364044189453,-7.79904842376709,0.2332475185394287,-0.0,-0.0,-1.0,0.26230819994313026,2.0,1
21.598228454589844,-7.045960426330566,0.2007211446762085,0.6645186371208036,0.3159257955555418,0.677204454076985,0.254178705458043,4.0,1
21.32912254333496,-7.3158063888549805,0.21327781677246094,-0.0,-0.0,-1.0,0.20242439518539865,2.0,1
21.242422103881836,-7.595873832702637,0.20837187767028809,0.22957412149898881,0.9329029849999252,0.2774666526200893,0.19382251465947611,4.0,1
20.78701400756836,-8.231539726257324,0.22111916542053223,-0.0,-0.0,-1.0,0.21606012603085695,1.0,1
22.057167053222656,-8.122830390930176,0.10812270641326904,-0.0,-0.0,-1.0,0.14085824252999993,1.0,1
21.938051223754883,-8.375521659851074,0.10757148265838623,-0.0,-0.0,-1.0,0.07176673408369538,1.0,1
22.329387664794922,-9.00331974029541,0.04197573661804199,-0.0,-0.0,-1.0,0.04882189330696,2.0,1
22.220991134643555,-9.033284187316895,0.0507359504699707,0.47362443348286065,-0.7878128422490919,-0.393739535220235,0.10411744551700593,3.0,1
20.65482521057129,-7.310999870300293,0.04971158504486084,-0.0,-0.0,-1.0,0.19315545549218205,1.0,1
20.75593376159668,-7.416813850402832,0.0320361852645874,-0.0,-0.0,-1.0,0.1392488143263356,1.0,1
21.292675018310547,-6.898009300231934,-0.0002620220184326172,-0.0,-0.0,-1.0,0.13210094358798974,1.0,0
21.70933723449707,-6.941977500915527,-0.05260646343231201,-0.0,-0.0,-1.0,0.23328688374485765,2.0,0
21.11887550354004,-8.467103958129883,0.4877234101295471,-0.0,-0.0,-1.0,0.1772858099917399,2.0,1
22.528905868530273,-7.199748992919922,0.4414359927177429,-0.0,-0.0,-1.0,0.13664783382556478,1.0,1
20.5639705657959,-8.777019500732422,0.33818304538726807,-0.0,-0.0,-1.0,0.14354080823922638,2.0,1
20.67137336730957,-7.470184326171875,0.3935638666152954,-0.0,-0.0,-1.0,0.2112648741096855,1.0,1
20.858396530151367,-7.858011245727539,0.36712944507598877,-0.7621315109454796,-0.09394824212335084,-0.640569502728543,0.2373473189894698,3.0,1
21.16403579711914,-7.480930328369141,0.37011635303497314,-0.0,-0.0,-1.0,0.22092799561092608,1.0,1
21.152414321899414,-7.876466751098633,0.3524683713912964,-0.0,-0.0,-1.0,0.16955949904936912,1.0,1
21.44276237487793,-7.714044570922852,0.3459358215332031,-0.0,-0.0,-1.0,0.12236940827439496,1.0,1
22.281858444213867,-9.180212020874023,0.2366182804107666,-0.0,-0.0,-1.0,0.15429836659240392,1.0,1
20.497024536132812,-8.228157043457031,0.3812440037727356,-0.0,-0.0,-1.0,0.23414013505018372,2.0,1
20.718544006347656,-7.424890518188477,0.39743268489837646,0.10746288787312565,-0.6576691665643011,-0.7456024376841759,0.18298182559525306,3.0,1
20.924076080322266,-7.795522689819336,0.3636137843132019,-0.0,-0.0,-1.0,0.24219560323309344,2.0,1
21.252830505371094,-7.656522750854492,0.34097719192504883,0.7056601621780387,0.28445808502649955,-0.6489432435721331,0.24797696586640547,3.0,1
21.30699348449707,-7.861965179443359,0.3273192048072815,-0.10392057083877662,-0.6354663432479217,-0.7651032881615772,0.19309632836544868,3.0,1
22.126909255981445,-9.329366683959961,0.1902163028717041,-0.0,-0.0,-1.0,0.21216803652105629,1.0,1
20.38361167907715,-8.306883811950684,0.30135685205459595,-0.0,-0.0,-1.0,0.1886878258481516,1.0,1
22.076112747192383,-9.312912940979004,0.13498294353485107,-0.7346475389285659,-0.5386869319460217,-0.41244318747772213,0.12997422427847383,4.0,1
20.742382049560547,-7.72159481048584,0.3074537515640259,-0.0,-0.0,-1.0,0.13383922032598447,1.0,1
20.994997024536133,-7.73061466217041,0.2900644540786743,-0.0,-0.0,-1.0,0.2042323139039004,1.0,1
22.20349884033203,-9.169713020324707,0.13295471668243408,0.759650256944613,-0.5503995538829337,-0.3463983519150331,0.20097001103104536,5.0,1
21.24680519104004,-7.7205610275268555,0.2734779715538025,-0.0,-0.0,-1.0,0.274282260478579,2.0,1
20.52360725402832,-7.298079490661621,0.3431892395019531,-0.0,-0.0,-1.0,0.16883983080945067,1.0,1
20.67896270751953,-7.485173225402832,0.32355356216430664,-0.0,-0.0,-1.0,0.18720859294182526,1.0,1
21.05582618713379,-7.635960578918457,0.2907712459564209,-0.0,-0.0,-1.0,0.23395576681301036,2.0,1
21.26078987121582,-7.513726234436035,0.28291481733322144,-0.0,-0.0,-1.0,0.24606758188933167,1.0,1
21.531511306762695,-7.089612007141113,0.28548383712768555,-0.710958122948021,0.6893656275974275,-0.13897330283702578,0.20586161524217508,6.0,1
20.59428596496582,-8.208110809326172,0.10941219329833984,-0.0,-0.0,-1.0,0.20965735117237563,2.0,1
22.010784149169922,-9.110671997070312,0.0017951726913452148,-0.0,-0.0,-1.0,0.06878994263870987,1.0,1
20.38678741455078,-7.4724884033203125,0.16238784790039062,-0.0,-0.0,-1.0,0.18056766258296827,2.0,1
20.737903594970703,-7.854364395141602,0.12747955322265625,-0.0,-0.0,-1.0,0.16690645481261474,1.0,1
20.341604232788086,-7.237451553344727,0.17862117290496826,-0.0,-0.0,-1.0,0.1785765819318219,1.0,1
20.51720428466797,-7.347658157348633,0.1664949655532837,-0.0,-0.0,-1.0,0.21376118873640282,2.0,1
20.9361572265625,-7.529624938964844,0.14181923866271973,-0.0,-0.0,-1.0,0.2009021775755582,1.0,1
21.86094093322754,-8.155149459838867,0.06860387325286865,-0.0,-0.0,-1.0,0.15688508487550407,2.0,1
21.155344009399414,-7.269184112548828,0.1510941982269287,-0.6678404560757277,-0.6292736460807373,-0.3974969227262255,0.19847992606766796,5.0,1
21.33704948425293,-7.053499221801758,0.15854370594024658,-0.10914877630389705,0.7267280739257581,-0.67819823886495,0.23956428702860705,5.0,1
21.560396194458008,-7.077951431274414,0.14884448051452637,-0.843584328212342,0.5012828340880658,0.19256427873094298,0.2393450788198983,4.0,1
20.830904006958008,-9.143655776977539,0.7193073034286499,0.7886324592640277,0.3342452639061335,-0.5160803694692236,0.1475658631529221,3.0,1
21.540401458740234,-9.235556602478027,0.17952334880828857,-0.0,-0.0,-1.0,0.22420565567593245,1.0,1
22.07241439819336,-9.2697172164917,0.165655255317688,-0.4454348623582754,0.029134180723366012,-0.8948401996498832,0.1649066350473958,3.0,1
21.70281410217285,-8.400416374206543,0.22519230842590332,-0.0,-0.0,-1.0,0.1622317830238363,1.0,1
20.7412052154541,-7.867701530456543,0.2726238965988159,-0.0,-0.0,-1.0,0.19351605701758895,2.0,1
21.049243927001953,-7.8452043533325195,0.26963281631469727,-0.0,-0.0,-1.0,0.2790825818846007,2.0,1
20.3901424407959,-7.6562910079956055,0.2887331247329712,-0.0,-0.0,-1.0,0.18729810418300316,1.0,1
20.48432159423828,-7.354874610900879,0.3052341938018799,-0.0,-0.0,-1.0,0.21253419654557143,2.0,1
20.829254150390625,-7.544289588928223,0.29026126861572266,-0.0,-0.0,-1.0,0.21737924767220246,1.0,1
21.219202041625977,-7.473885536193848,0.2886009216308594,-0.9162682117003309,-0.38302228516002773,-0.1172454404156822,0.23406301176511377,3.0,1
21.364776611328125,-7.712088584899902,0.2721933126449585,-0.47276758783677564,0.5622567006908523,-0.6784970231469213,0.23494663317305184,3.0,1
21.451087951660156,-7.232748985290527,0.2987022399902344,0.5340035888629895,-0.27517080845675546,-0.7994505571045051,0.22026224705366226,3.0,1
21.52257537841797,-6.990361213684082,0.31156694889068604,-0.0,-0.0,-1.0,0.1923860209530082,2.0,1
20.71471405029297,-7.881773948669434,0.0353543758392334,-0.0,-0.0,-1.0,0.16015583359763338,1.0,1
21.637834548950195,-8.038792610168457,0.01900017261505127,-0.0,-0.0,-1.0,0.058250397346444945,1.0,1
20.80185317993164,-7.725401878356934,0.04555010795593262,-0.0,-0.0,-1.0,0.1677146244325338,1.0,1
21.77762222290039,-7.89987850189209,0.027046680450439453,-0.0,-0.0,-1.0,0.09208127407474456,1.0,1
20.33852195739746,-7.15529727935791,0.08439171314239502,-0.0,-0.0,-1.0,0.11626156695457594,1.0,1
20.48859405517578,-7.191327095031738,0.08193361759185791,-0.0,-0.0,-1.0,0.15365142763885403,1.0,1
21.1143856048584,-7.255129814147949,0.07578480243682861,-0.0,-0.0,-1.0,0.18041004523425705,1.0,1
21.462087631225586,-7.387734413146973,0.06460070610046387,-0.914042462007081,-0.2985097929823012,-0.27462389033312057,0.22812285819228506,3.0,1
21.39907455444336,-7.000672340393066,0.09118831157684326,-0.0,-0.0,-1.0,0.17527320714517872,2.0,1
21.6331729888916,-6.938858985900879,0.09359109401702881,-0.0,-0.0,-1.0,0.12738158472811523,2.0,1
20.4853515625,-8.324462890625,0.09370803833007812,-0.0,-0.0,-1.0,0.17508931457462004,2.0,1
21.583730697631836,-8.633094787597656,0.10602617263793945,-0.0,-0.0,-1.0,0.0839762863188786,1.0,1
20.62505340576172,-8.141426086425781,0.10848486423492432,-0.0,-0.0,-1.0,0.2055524072679746,2.0,1
20.73104476928711,-7.960611343383789,0.12205898761749268,-0.0,-0.0,-1.0,0.15664116788997937,2.0,1
20.421939849853516,-7.363115310668945,0.14638888835906982,-0.0,-0.0,-1.0,0.16715228083808475,1.0,1
20.887584686279297,-7.688398361206055,0.14234983921051025,-0.0,-0.0,-1.0,0.14674324098251815,1.0,1
20.28357696533203,-7.155031204223633,0.15349364280700684,-0.0,-0.0,-1.0,0.1741605242546791,1.0,1
20.486682891845703,-7.272687911987305,0.15362286567687988,-0.0,-0.0,-1.0,0.23570410713048381,2.0,1
21.134523391723633,-7.253145217895508,0.1745760440826416,-0.0,-0.0,-1.0,0.19396522100781763,2.0,1
21.35342025756836,-7.161693572998047,0.18591749668121338,0.8626110265943078,0.5032647905356785,-0.05125199903412687,0.2042682517491884,5.0,1
21.719289779663086,-7.098909378051758,0.19907283782958984,-0.0,-0.0,-1.0,0.15370219039665908,1.0,1
21.454666137695312,-7.041597366333008,0.19555139541625977,-0.7379224405411144,0.16054960676519034,-0.6555107135000833,0.18582389995567503,6.0,1
21.678930282592773,-6.982288360595703,0.20487737655639648,-0.4672506434620247,0.8622182463510777,-0.19559277042773401,0.19162173200533242,3.0,1
20.93241310119629,-9.147483825683594,0.7413330078125,0.6518496561761242,-0.7260588275494648,0.21893059329514702,0.1474701403649351,3.0,1
20.3183650970459,-8.955387115478516,0.19441795349121094,-0.0,-0.0,-1.0,0.13381148403183424,1.0,1
21.54145622253418,-9.194719314575195,0.21404540538787842,-0.0,-0.0,-1.0,0.1418891040309225,2.0,1
21.42660903930664,-8.96662712097168,0.2230600118637085,-0.0,-0.0,-1.0,0.21596537205223362,1.0,1
21.497512817382812,-8.958883285522461,0.2250741720199585,-0.0,-0.0,-1.0,0.15813236751502058,1.0,1
20.581148147583008,-8.222951889038086,0.23805224895477295,-0.0,-0.0,-1.0,0.18226647212803762,1.0,1
21.371557235717773,-8.628446578979492,0.23889553546905518,-0.0,-0.0,-1.0,0.23882610009206745,1.0,1
20.270706176757812,-8.1029052734375,0.23449957370758057,-0.09904770456754164,0.7445307763020654,-0.6601995723710707,0.1900804967728694,3.0,1
20.400997161865234,-7.997278213500977,0.2436814308166504,-0.0,-0.0,-1.0,0.19550292068226335,1.0,1
20.653522491455078,-7.393926620483398,0.2807854413986206,-0.0,-0.0,-1.0,0.2785844713268511,2.0,1
21.054922103881836,-7.57111930847168,0.28368091583251953,-0.0,-0.0,-1.0,0.15498913023397404,1.0,1
21.38174819946289,-7.680070877075195,0.2869001626968384,-0.0,-0.0,-1.0,0.22871479624899185,2.0,1
20.218063354492188,-7.228914260864258,0.27485179901123047,-0.0,-0.0,-1.0,0.1941345254010266,2.0,1
21.366893768310547,-7.129865646362305,0.31407177448272705,-0.0,-0.0,-1.0,0.20317795626120957,2.0,1
21.72078514099121,-6.974346160888672,0.33083808422088623,-0.0,-0.0,-1.0,0.18704832276953645,1.0,1
21.2568302154541,-8.796732902526855,0.18948829174041748,-0.0,-0.0,-1.0,0.2782581252657393,2.0,1
21.353574752807617,-8.940434455871582,0.20398080348968506,-0.0,-0.0,-1.0,0.29379369347799195,1.0,1
20.212661743164062,-7.640011787414551,0.026241064071655273,-0.0,-0.0,-1.0,0.1226708730680812,1.0,1
20.7117919921875,-7.949458122253418,0.1067742109298706,-0.0,-0.0,-1.0,0.15664116788997937,2.0,1
21.10750389099121,-7.901507377624512,0.17167174816131592,-0.0,-0.0,-1.0,0.1900170921043933,1.0,1
20.52320098876953,-7.423609733581543,0.07891607284545898,-0.0,-0.0,-1.0,0.2606147242885338,1.0,1
20.886802673339844,-7.573908805847168,0.13779354095458984,-0.0,-0.0,-1.0,0.19713022668253755,2.0,1
21.28074073791504,-7.603697776794434,0.20179426670074463,0.0011385866262014419,-0.24322274775557906,-0.9699697926197087,0.2306765989846643,5.0,1
21.477312088012695,-7.6718645095825195,0.23315823078155518,-0.0,-0.0,-1.0,0.21411319606946294,1.0,1
21.55828094482422,-7.015084266662598,0.25088322162628174,0.1881802748890723,0.6194111262422904,-0.762179795605952,0.2810099118709061,3.0,1
21.01226043701172,-6.889466285705566,0.05843627452850342,-0.0,-0.0,-1.0,0.09447273534751655,1.0,1
21.441408157348633,-6.913992881774902,0.06624436378479004,-0.0,-0.0,-1.0,0.1459709769581273,1.0,1
21.511253356933594,-6.9886274337768555,0.06296646595001221,-0.0,-0.0,-1.0,0.20652094524856962,2.0,1
20.308574676513672,-8.29471492767334,0.4382662773132324,0.7281313532537221,0.5477993673192,-0.4119958562577877,0.23787382473386856,3.0,1
21.525630950927734,-6.879673957824707,0.5938656330108643,0.6586137296860275,0.752480763179211,-0.0008100088227346266,0.04222706900820025,3.0,1
21.270626068115234,-8.870944023132324,0.3141564726829529,-0.0,-0.0,-1.0,0.2316564850570893,2.0,1
22.17611312866211,-9.166350364685059,0.3297726511955261,0.02861813626988103,-0.9964449448351574,-0.07923682344023074,0.09902554852144126,3.0,1
20.28240203857422,-7.297677040100098,0.33088022470474243,-0.0,-0.0,-1.0,0.24379921703520957,1.0,1
20.694225311279297,-7.363532066345215,0.34338146448135376,-0.0,-0.0,-1.0,0.21508968192390113,1.0,1
20.929676055908203,-7.447953224182129,0.3488616943359375,-0.0,-0.0,-1.0,0.25743020143837786,1.0,1
21.30103874206543,-8.882440567016602,0.3578087091445923,-0.0,-0.0,-1.0,0.1394500415346628,2.0,1
22.206321716308594,-9.23088264465332,0.37099456787109375,-0.854312141359851,-0.4246577844094709,-0.2996940627800045,0.16305354040869702,3.0,1
20.317625045776367,-8.340089797973633,0.3440057039260864,-0.0,-0.0,-1.0,0.2030194089935044,2.0,1
21.16397476196289,-8.609745025634766,0.3619900941848755,0.7984038305596345,-0.2303464007065731,0.556319925069406,0.1940430291541462,3.0,1
20.64484405517578,-7.278589248657227,0.3831867575645447,-0.0,-0.0,-1.0,0.1639655719061746,1.0,1
21.92987823486328,-9.204395294189453,0.026087045669555664,-0.0,-0.0,-1.0,0.17294512446217117,1.0,1
21.706682205200195,-8.706281661987305,0.041115760803222656,-0.9251603205213691,0.08820375447482025,-0.36918623894904806,0.03980741967326409,3.0,1
22.427669525146484,-8.945623397827148,0.05285537242889404,-0.17224988025227703,-0.42603688386730104,-0.888156828683829,0.038643286052855344,5.0,1
21.736759185791016,-8.264867782592773,0.06131398677825928,-0.0,-0.0,-1.0,0.11754274364360878,2.0,1
20.354385375976562,-6.900714874267578,0.0672680139541626,-0.0,-0.0,-1.0,0.1310839230531383,1.0,1
20.592632293701172,-7.029132843017578,0.07148826122283936,-0.0,-0.0,-1.0,0.0974492137776284,1.0,1
21.50946807861328,-9.186120986938477,0.13960206508636475,-0.0,-0.0,-1.0,0.1926892718451329,2.0,1
21.650985717773438,-9.337493896484375,0.14011716842651367,-0.0,-0.0,-1.0,0.08899397444488122,2.0,1
22.2287540435791,-9.164190292358398,0.1676419973373413,0.7995095853990674,-0.45412088602174766,-0.39313947109624403,0.15784589090603077,4.0,1
21.250896453857422,-8.731433868408203,0.1438283920288086,0.61350792663813,0.6543340585798461,-0.44210288817718596,0.19183213407914507,3.0,1
21.51222801208496,-8.75253677368164,0.15356755256652832,-0.0,-0.0,-1.0,0.09832956554573703,1.0,1
21.294185638427734,-8.425027847290039,0.15511226654052734,-0.0,-0.0,-1.0,0.1148979955555638,1.0,1
21.786304473876953,-8.429201126098633,0.1747361421585083,-0.0,-0.0,-1.0,0.18236698585339087,2.0,1
21.40157699584961,-7.7988433837890625,0.17863678932189941,-0.0,-0.0,-1.0,0.24348051992771005,1.0,1
20.450481414794922,-7.286506652832031,0.15227341651916504,-0.0,-0.0,-1.0,0.2178793528808515,2.0,1
20.397083282470703,-7.175592422485352,0.15290451049804688,-0.0,-0.0,-1.0,0.18308711756139798,1.0,1
21.861778259277344,-9.345438003540039,0.07922327518463135,-0.0,-0.0,-1.0,0.15439122748116832,2.0,1
21.659263610839844,-8.817882537841797,0.09617698192596436,-0.03999104431696451,0.7941800974531106,-0.6063651450931246,0.09043874684237367,4.0,1
22.333415985107422,-9.141508102416992,0.10079443454742432,-0.0,-0.0,-1.0,0.20742368886162588,1.0,1
21.41405487060547,-8.316961288452148,0.11021184921264648,-0.0,-0.0,-1.0,0.17304552084894595,1.0,1
21.841962814331055,-8.408979415893555,0.1186208724975586,-0.0,-0.0,-1.0,0.17510334202027658,1.0,1
20.443302154541016,-7.204793930053711,0.1259242296218872,0.9578105510710037,0.14114060989559177,0.25035629909263407,0.19995829043339458,3.0,1
22.57659149169922,-7.348894119262695,0.18412601947784424,-0.0,-0.0,-1.0,0.2744735146107944,2.0,1
22.052600860595703,-8.955320358276367,-0.03636515140533447,-0.0,-0.0,-1.0,0.028453409494116125,1.0,0
22.446205139160156,-8.716585159301758,-0.011692047119140625,-0.6643642671784246,-0.39112766250419273,-0.6368981646389646,0.026378771404318768,3.0,0
22.080480575561523,-8.057994842529297,0.002256155014038086,-0.0,-0.0,-1.0,0.08309370423562705,2.0,1
22.681615829467773,-8.628335952758789,0.0007114410400390625,-0.0,-0.0,-1.0,0.09405727169518505,2.0,1
22.5986328125,-7.354034423828125,0.0511554479598999,-0.0,-0.0,-1.0,0.18233310191684435,2.0,1
22.589553833007812,-7.249729156494141,0.055112242698669434,-0.0,-0.0,-1.0,0.1574955827014696,2.0,1
21.829782485961914,-8.850432395935059,0.03813064098358154,-0.0,-0.0,-1.0,0.03625603628431039,1.0,1
21.84996223449707,-9.11304759979248,0.026877999305725098,-0.0,-0.0,-1.0,0.12592602972069594,1.0,1
21.944982528686523,-9.340437889099121,0.01927173137664795,-0.39825167809502693,-0.7287973120869975,0.5570009683916733,0.17778435987133667,3.0,1
21.561616897583008,-7.9585466384887695,0.06970798969268799,-0.0,-0.0,-1.0,0.13077618913617228,1.0,1
21.71788787841797,-8.185397148132324,0.06440961360931396,-0.0,-0.0,-1.0,0.1449190096293819,1.0,1
21.761592864990234,-8.502640724182129,0.05167973041534424,-0.0,-0.0,-1.0,0.07903317286427286,1.0,1
22.37344741821289,-9.03063678741455,0.04536020755767822,-0.0,-0.0,-1.0,0.037145812722746974,2.0,1
22.618412017822266,-8.923209190368652,0.05707216262817383,-0.0,-0.0,-1.0,0.024786026589385807,1.0,1
21.460752487182617,-7.838715553283691,0.07187342643737793,-0.0,-0.0,-1.0,0.16490445237169424,1.0,1
21.432640075683594,-7.690917015075684,0.07741177082061768,-0.0,-0.0,-1.0,0.19768338462008156,2.0,1
21.60454559326172,-7.821165084838867,-0.03326845169067383,-0.0,-0.0,-1.0,0.06359252440437288,1.0,0
22.227161407470703,-7.627567291259766,-4.363059997558594e-05,-0.0,-0.0,-1.0,0.0467523080235085,1.0,0
22.160442352294922,-7.81110954284668,-0.01037752628326416,-0.0,-0.0,-1.0,0.04291130767046783,2.0,0
22.357934951782227,-8.394417762756348,-0.027171015739440918,-0.0,-0.0,-1.0,0.04952368644520348,1.0,0
22.56667709350586,-8.631270408630371,-0.02921450138092041,-0.7823817083862367,-0.316288393425384,-0.5365077022438942,0.0287499174701384,4.0,0
22.288801193237305,-7.413168907165527,0.011347174644470215,-0.0,-0.0,-1.0,0.14737212522104065,2.0,1
21.66863441467285,-9.039230346679688,0.05199408531188965,-0.0,-0.0,-1.0,0.057296296583457154,1.0,1
21.844100952148438,-9.264396667480469,0.03907370567321777,-0.0,-0.0,-1.0,0.14972985232382027,1.0,1
21.2315731048584,-8.328052520751953,0.09245467185974121,-0.0,-0.0,-1.0,0.13118252923715554,2.0,1
21.426172256469727,-7.464009761810303,0.15001356601715088,-0.0,-0.0,-1.0,0.16059993976790993,1.0,1
21.390960693359375,-7.812037944793701,0.12760114669799805,-0.0,-0.0,-1.0,0.2296032497382062,1.0,1
21.500396728515625,-8.356462478637695,0.09442472457885742,-0.0,-0.0,-1.0,0.1578968319025051,2.0,1
21.692338943481445,-8.722677230834961,0.07314205169677734,-0.9251603205213691,0.08820375447482025,-0.36918623894904806,0.04951500341751075,3.0,1
21.719358444213867,-8.813827514648438,0.06749320030212402,-0.10595405526656793,0.9917609859182781,0.07199920126622325,0.05797360678781338,3.0,1
21.61772346496582,-7.0841145515441895,0.17671895027160645,-0.0,-0.0,-1.0,0.24702666746560448,2.0,1
21.938304901123047,-7.723633289337158,0.14122986793518066,-0.0,-0.0,-1.0,0.11424566052501009,1.0,1
22.439594268798828,-8.978939056396484,0.06482541561126709,0.4311490737920311,-0.45635158257262426,-0.778366050937305,0.04095175805371424,4.0,1
20.70050811767578,-8.568437576293945,0.2245866060256958,-0.0,-0.0,-1.0,0.15506788649340822,1.0,1
21.08957862854004,-8.539812088012695,0.22970545291900635,-0.0,-0.0,-1.0,0.15175810867611114,2.0,1
21.202781677246094,-7.436844348907471,0.29591768980026245,0.26975155460570366,0.30030277495423807,-0.914905646579247,0.23837479967602979,3.0,1
21.288461685180664,-7.660417079925537,0.28374481201171875,-0.0,-0.0,-1.0,0.23958155268945927,2.0,1
21.15149688720703,-8.073335647583008,0.2581247091293335,-0.0,-0.0,-1.0,0.1989229038486342,2.0,1
21.20232391357422,-8.648303985595703,0.22409117221832275,-0.0,-0.0,-1.0,0.1491008972790774,2.0,1
21.270389556884766,-8.905851364135742,0.20890510082244873,-0.0,-0.0,-1.0,0.15227609575028445,2.0,1
21.445545196533203,-9.202808380126953,0.19176137447357178,0.8365923931189287,0.12029319427459198,-0.5344555315335028,0.26264735479936324,3.0,1
21.520105361938477,-7.077757358551025,0.32000732421875,-0.0,-0.0,-1.0,0.24001337894297992,2.0,1
22.196979522705078,-7.359809398651123,0.31006622314453125,-0.0,-0.0,-1.0,0.12302954861460695,1.0,1
22.074661254882812,-9.216703414916992,0.19465339183807373,-0.22117402570968098,-0.5265045699083913,-0.8208988903738105,0.15527843735474217,3.0,1
20.827945709228516,-8.430715560913086,0.18859195709228516,-0.0,-0.0,-1.0,0.1988647090585317,2.0,1
21.060855865478516,-8.440919876098633,0.19193100929260254,-0.0,-0.0,-1.0,0.18835274807763322,1.0,1
21.15801239013672,-8.850502014160156,0.16983985900878906,-0.0,-0.0,-1.0,0.13285950449860642,2.0,1
21.28720474243164,-7.137446880340576,0.2689836025238037,-0.0,-0.0,-1.0,0.25727948269938034,2.0,1
21.216514587402344,-7.601450443267822,0.2421245574951172,-0.7259026472924407,-0.3182177368731788,-0.6097563600268056,0.24048455615152445,3.0,1
21.284704208374023,-7.781556606292725,0.23329007625579834,0.4691706161783407,-0.529103699452866,-0.707056014853227,0.22744736905630727,3.0,1
21.43093490600586,-9.119037628173828,0.1581737995147705,-0.0,-0.0,-1.0,0.153889326533408,2.0,1
21.583887100219727,-7.095752239227295,0.2768712639808655,-0.0,-0.0,-1.0,0.14591920705108424,2.0,1
22.14371109008789,-9.193090438842773,0.1638638973236084,0.04967442348746982,-0.803512596770056,-0.5932115630051633,0.09109358036230354,5.0,1
22.31447410583496,-7.327207088470459,0.2770058512687683,0.5600036563236535,-0.7780545596347267,-0.28465243216201697,0.17994626750154014,3.0,1
22.444782257080078,-7.316378116607666,0.27983731031417847,-0.0,-0.0,-1.0,0.2358597873444158,1.0,1
21.355852127075195,-6.997934818267822,0.10463106632232666,-0.0,-0.0,-1.0,0.22695782335943382,2.0,1
21.312894821166992,-7.373019695281982,0.08214318752288818,-0.0,-0.0,-1.0,0.13787166610649995,2.0,1
21.346895217895508,-7.7462687492370605,0.06164860725402832,-0.0,-0.0,-1.0,0.20465448734328437,2.0,1
21.75971031188965,-8.620527267456055,0.02094137668609619,-0.0,-0.0,-1.0,0.05981894501777325,2.0,1
21.80282974243164,-8.953954696655273,0.0014771223068237305,-0.0,-0.0,-1.0,0.032777029148278417,1.0,1
22.146780014038086,-8.22462272644043,0.055487990379333496,-0.7729883233566064,0.5507505982778311,-0.3149013027139672,0.09159897964017663,3.0,1
22.5023193359375,-7.293821811676025,0.12122666835784912,-0.0,-0.0,-1.0,0.14667481022205478,2.0,1
22.700014114379883,-8.59644889831543,0.04674828052520752,-0.0,-0.0,-1.0,0.02046971487438056,2.0,1
20.485151290893555,-8.785970687866211,0.38474833965301514,-0.0,-0.0,-1.0,0.10006809930865233,1.0,1
20.57512664794922,-7.296022891998291,0.4365045428276062,-0.8176230044676053,-0.1276649117522739,-0.561421671181876,0.1557976332245165,3.0,1
20.88536834716797,-7.774595737457275,0.42995452880859375,0.4246167153568796,-0.20829498259346926,-0.8810867410567027,0.20037429230399686,3.0,1
20.830516815185547,-8.378824234008789,0.4080406427383423,-0.0,-0.0,-1.0,0.2839694345803536,1.0,1
21.01198387145996,-8.785490036010742,0.398335337638855,-0.0,-0.0,-1.0,0.1731362356162896,1.0,1
20.928537368774414,-9.158502578735352,0.3826068639755249,-0.0,-0.0,-1.0,0.2046746908516387,2.0,1
21.20954704284668,-7.574791431427002,0.44545793533325195,0.6548587272534863,0.1097700778767978,-0.7477369706941511,0.19425626992476286,3.0,1
21.081321716308594,-7.915307521820068,0.43060004711151123,-0.0,-0.0,-1.0,0.16334468656055,1.0,1
21.649097442626953,-8.390024185180664,0.42887377738952637,-0.0,-0.0,-1.0,0.1869494249433305,2.0,1
22.49627113342285,-7.1687750816345215,0.49402815103530884,-0.0,-0.0,-1.0,0.12822042257805105,1.0,1
20.25122833251953,-7.352986812591553,0.28881919384002686,-0.0,-0.0,-1.0,0.24539628078784095,1.0,1
20.583120346069336,-8.626855850219727,0.270910382270813,-0.0,-0.0,-1.0,0.16746680761442065,1.0,1
20.423255920410156,-8.848840713500977,0.2584519386291504,-0.0,-0.0,-1.0,0.21589900578411667,2.0,1
20.53443717956543,-7.329324245452881,0.3014048933982849,-0.0,-0.0,-1.0,0.2404939530972616,2.0,1
20.941993713378906,-8.125394821166992,0.2987837791442871,-0.0,-0.0,-1.0,0.2019381749460681,1.0,1
20.859704971313477,-8.50306510925293,0.2853202819824219,0.513425909186162,-0.7803710487625497,-0.35695218451439786,0.22971070657991355,4.0,1
20.956966400146484,-7.392922878265381,0.3177517056465149,-0.0,-0.0,-1.0,0.20499150022350715,2.0,1
21.144235610961914,-7.688221454620361,0.3182793855667114,-0.0,-0.0,-1.0,0.15277170731594922,1.0,1
21.197956085205078,-7.979179859161377,0.3130089044570923,0.8081498794318558,-0.5571970423286154,-0.1908539451898223,0.18350977733623675,4.0,1
21.116870880126953,-8.59907341003418,0.29294300079345703,0.9442997324784126,0.045872960779155085,-0.3258737281686765,0.1276525100216671,4.0,1
21.194744110107422,-8.894325256347656,0.2875431776046753,-0.0,-0.0,-1.0,0.23381575111305952,1.0,1
21.34914779663086,-9.197481155395508,0.28449952602386475,-0.0,-0.0,-1.0,0.16311962257962806,1.0,1
21.713542938232422,-7.066591739654541,0.3572617173194885,-0.0,-0.0,-1.0,0.15573000256808742,2.0,1
22.11299705505371,-9.183769226074219,0.3137242794036865,-0.1907227540680786,0.43516855079611855,-0.8799165662031222,0.08855078128767817,3.0,1
20.433979034423828,-8.854527473449707,0.3456331491470337,-0.0,-0.0,-1.0,0.24846906253256085,1.0,1
20.5173282623291,-7.298521518707275,0.4119775891304016,-0.0,-0.0,-1.0,0.14904761553191204,1.0,1
20.650836944580078,-8.618986129760742,0.3619828224182129,-0.3193131546951268,-0.18565491518272262,-0.9292854037953798,0.14814981106995948,6.0,1
21.027128219604492,-7.599954128265381,0.41552287340164185,0.6813866057425731,-0.7309782470604667,-0.03718999649129304,0.2158903316877769,3.0,1
21.07599449157715,-7.810256481170654,0.4083845615386963,-0.162818286873968,-0.9368629485851169,-0.3094802433562232,0.14692984638566584,4.0,1
20.96918296813965,-8.229846000671387,0.3877277374267578,-0.0,-0.0,-1.0,0.21465790401557697,2.0,1
21.095537185668945,-8.66492748260498,0.37247592210769653,-0.0,-0.0,-1.0,0.1727606353986989,2.0,1
21.1186466217041,-9.01836109161377,0.3572917580604553,-0.0,-0.0,-1.0,0.20301100756301219,2.0,1
20.940227508544922,-9.326013565063477,0.3384319543838501,-0.0,-0.0,-1.0,0.10764737623157929,1.0,1
21.18508529663086,-7.6011061668396,0.4201715588569641,0.3268498375910921,-0.45878431717526474,-0.8262482278230331,0.22855577794321089,4.0,1
21.319154739379883,-7.6892523765563965,0.4205252528190613,-0.0,-0.0,-1.0,0.15776066368621525,1.0,1
22.154170989990234,-9.268091201782227,0.37299931049346924,-0.0,-0.0,-1.0,0.13851462557667613,1.0,1
22.62525749206543,-7.334874629974365,0.4733498692512512,-0.0,-0.0,-1.0,0.18579179774966634,1.0,1
21.615337371826172,-7.369607925415039,-0.04398083686828613,-0.0,-0.0,-1.0,0.14336026356827744,1.0,0
22.082317352294922,-8.248971939086914,-0.03780817985534668,-0.0,-0.0,-1.0,0.09055455708596681,2.0,0
22.07438850402832,-8.478580474853516,-0.04510176181793213,-0.0,-0.0,-1.0,0.03399333888306241,1.0,0
22.281570434570312,-7.3002777099609375,0.0010515451431274414,-0.0,-0.0,-1.0,0.16387971228746734,1.0,1
22.38241195678711,-8.576421737670898,-0.028812527656555176,-0.0,-0.0,-1.0,0.012204194236458774,1.0,0
22.290246963500977,-8.772566795349121,-0.0406724214553833,-0.0,-0.0,-1.0,0.032110201722107344,2.0,0
22.447168350219727,-7.2756829261779785,0.012391328811645508,-0.1238779357328503,-0.8476284645145966,-0.5159265870094265,0.1952435398629345,3.0,1
20.625734329223633,-8.86444091796875,0.5704129934310913,-0.0,-0.0,-1.0,0.12102062937877038,1.0,1
22.23801612854004,-9.208830833435059,0.6154797077178955,-0.0,-0.0,-1.0,0.09349844802384381,1.0,1
21.637428283691406,-7.200454235076904,-0.03105640411376953,-0.0,-0.0,-1.0,0.1598079466808485,2.0,0
21.523908615112305,-7.382051944732666,-0.042911529541015625,-0.0,-0.0,-1.0,0.17001398398230352,1.0,0
22.007461547851562,-8.168144226074219,-0.031116962432861328,-0.0,-0.0,-1.0,0.08590569596009401,2.0,0
22.190881729125977,-8.543327331542969,-0.029984474182128906,-0.0,-0.0,-1.0,0.015198372959538558,1.0,0
22.26211166381836,-8.760939598083496,-0.03185725212097168,-0.3603010821038179,-0.17754846981660302,-0.9157836377117691,0.029450644302318762,3.0,0
22.454660415649414,-8.573902130126953,-0.013884305953979492,-0.0,-0.0,-1.0,0.01561453262006825,1.0,0
22.65116310119629,-7.017608165740967,0.04115724563598633,-0.0,-0.0,-1.0,0.1425259012030251,2.0,1
22.415502548217773,-7.275182247161865,0.019171953201293945,-0.0,-0.0,-1.0,0.15544116270917874,2.0,1
21.53816795349121,-6.890620231628418,0.6187808513641357,0.31397684039316065,0.8839069522946509,-0.34659348433274034,0.046658720897693684,4.0,1
21.66039276123047,-6.912232875823975,0.6227942705154419,-0.3687143531903447,0.6657063550955501,-0.6487563290919198,0.08301781526733538,3.0,1
22.228219985961914,-9.133416175842285,0.612512469291687,-0.0,-0.0,-1.0,0.09349844802384391,1.0,1
21.05105209350586,-6.979697227478027,0.11828160285949707,-0.0,-0.0,-1.0,0.16682566040315164,2.0,1
21.372051239013672,-7.346128463745117,0.12385690212249756,-0.0,-0.0,-1.0,0.21538270871976867,2.0,1
21.31651496887207,-7.500760078430176,0.11546182632446289,-0.0,-0.0,-1.0,0.186103079034972,1.0,1
21.36085319519043,-7.553362846374512,0.11604940891265869,-0.0,-0.0,-1.0,0.14363353155962622,1.0,1
21.249818801879883,-8.291409492492676,0.0830080509185791,-0.0,-0.0,-1.0,0.10422739699424456,2.0,1
21.477930068969727,-8.408815383911133,0.09069764614105225,-0.0,-0.0,-1.0,0.07665990652143063,1.0,1
21.466876983642578,-8.656792640686035,0.08035147190093994,-0.0,-0.0,-1.0,0.12813349346925237,2.0,1
21.66423988342285,-8.82681941986084,0.0839012861251831,-0.03999104431696451,0.7941800974531106,-0.6063651450931246,0.09043874684237363,4.0,1
21.64533042907715,-9.154666900634766,0.0693061351776123,-0.0,-0.0,-1.0,0.10241318260255647,1.0,1
21.476154327392578,-6.9600114822387695,0.14255142211914062,0.21404274968228,0.6806223174076901,-0.7006703664027998,0.25062443047143734,3.0,1
21.51966667175293,-7.162365913391113,0.1382579803466797,-0.0,-0.0,-1.0,0.2020411414456496,1.0,1
22.575740814208984,-7.179793357849121,0.19569778442382812,-0.0,-0.0,-1.0,0.18109370288005394,1.0,1
22.5814266204834,-7.24163818359375,0.19380688667297363,-0.0,-0.0,-1.0,0.1953168864598806,2.0,1
20.93621063232422,-9.1522855758667,0.7141016721725464,0.6518496561761242,-0.7260588275494648,0.21893059329514702,0.14747014036493508,3.0,1
20.81685447692871,-8.41550064086914,0.18984675407409668,-0.0,-0.0,-1.0,0.22021712157503553,2.0,1
21.146413803100586,-8.973546981811523,0.18519437313079834,-0.0,-0.0,-1.0,0.1822093923369634,1.0,1
21.166641235351562,-9.12626838684082,0.1802074909210205,-0.0,-0.0,-1.0,0.2156326221669684,2.0,1
21.129451751708984,-7.378345012664795,0.2404998540878296,-0.0,-0.0,-1.0,0.131762241760189,2.0,1
21.511667251586914,-6.887023448944092,0.2751210927963257,-0.0,-0.0,-1.0,0.19131564406893975,1.0,1
