x,y,z,nx,ny,nz,curvature,density
10.71395206451416,-5.519757270812988,0.48612701892852783,-0.0,-0.0,-1.0,0.12610429986462363,1.0
11.13176155090332,-6.209836483001709,0.5540522336959839,-0.3700877354570825,-0.617301740216293,-0.6942432063694862,0.09768085736050891,3.0
10.233624458312988,-5.876474380493164,0.9782127141952515,-0.0,-0.0,-1.0,0.1692089086324879,2.0
9.736743927001953,-5.450721740722656,0.3870588541030884,0.5502354633241779,-0.765175872569064,-0.3342855350424219,0.06437673922328661,4.0
9.820438385009766,-5.569296836853027,0.4031163454055786,-0.8693333496085741,0.07548182328597816,-0.4884281130440396,0.102269131752159,3.0
10.396432876586914,-5.705491065979004,0.45952117443084717,-0.1585630459942132,0.1427543974241882,-0.9769743816810623,0.1203537611741194,3.0
10.15211009979248,-6.033580780029297,0.4660170078277588,-0.0,-0.0,-1.0,0.27123106996099045,1.0
10.11845588684082,-6.312261581420898,0.48447489738464355,-0.0,-0.0,-1.0,0.1656495942555424,1.0
10.144073486328125,-5.880970001220703,0.9754185676574707,0.539890560866948,-0.8311215655764141,-0.13324836029228374,0.17445899830531836,5.0
10.279996871948242,-5.735743522644043,0.5803035497665405,-0.0,-0.0,-1.0,0.2530573507904966,1.0
11.150105476379395,-6.2816572189331055,0.688621997833252,-0.7896274009097579,-0.5771218975480032,0.2083719825290644,0.1977813420033437,3.0
11.192787170410156,-6.236814498901367,1.179349422454834,0.9449384170083722,0.2857706212237839,0.1594570164874656,0.05587504522888007,4.0
10.80540657043457,-5.485378265380859,0.23121237754821777,-0.0,-0.0,-1.0,0.21176539530512437,1.0
10.84334659576416,-5.591470718383789,0.24692392349243164,-0.0,-0.0,-1.0,0.13411232528856293,1.0
11.016996383666992,-5.608962059020996,0.26130831241607666,-0.0,-0.0,-1.0,0.18582930184507937,1.0
10.373794555664062,-5.0611724853515625,0.7010213136672974,0.05107148097963205,0.9513168982723305,-0.30395371833892715,0.1372183583195189,3.0
10.959897994995117,-4.742544174194336,0.6931328773498535,-0.0,-0.0,-1.0,0.13382630747099694,1.0
11.179899215698242,-6.281255722045898,0.35472702980041504,-0.0,-0.0,-1.0,0.19305986608843576,2.0
10.682802200317383,-5.411105155944824,0.7494118213653564,-0.0,-0.0,-1.0,0.12269368672054605,1.0
9.92747688293457,-6.319791793823242,0.4295217990875244,-0.0,-0.0,-1.0,0.15499222319427816,1.0
11.475128173828125,-5.037639617919922,0.4525563716888428,-0.0,-0.0,-1.0,0.05705339173216302,1.0
9.71528434753418,-5.521324157714844,0.501847505569458,-0.0,-0.0,-1.0,0.07557756677543137,2.0
10.913101196289062,-5.318605422973633,0.4948701858520508,-0.0,-0.0,-1.0,0.08610151558949317,2.0
9.73086166381836,-5.857671737670898,0.44310760498046875,-0.0,-0.0,-1.0,0.0776512720369087,2.0
10.741228103637695,-4.72943115234375,0.4148221015930176,-0.0,-0.0,-1.0,0.13013211332616373,2.0
10.259115219116211,-6.231842041015625,0.4835946559906006,0.5202718520886872,0.8220953018953654,0.23124989627192408,0.24327703529761138,3.0
9.798419952392578,-5.945842742919922,0.4386169910430908,-0.0,-0.0,-1.0,0.19014853235119536,1.0
11.577503204345703,-4.801929473876953,0.4788236618041992,-0.0,-0.0,-1.0,0.14476665976862263,1.0
10.402896881103516,-5.670536041259766,0.4635796546936035,-0.0,-0.0,-1.0,0.15183990182028448,2.0
10.226144790649414,-6.212551116943359,0.4891929626464844,0.4608683930407044,0.8558312305562616,-0.23484724631264794,0.2122278215239143,3.0
9.869956970214844,-5.512308120727539,0.5986847877502441,-0.0,-0.0,-1.0,0.22655165312242748,1.0
9.755500793457031,-5.7265167236328125,0.6039414405822754,-0.0,-0.0,-1.0,0.07343574247050604,2.0
10.8262357711792,-5.558647155761719,0.6706638336181641,-0.38996342095608044,0.1152620322564907,-0.9135880878362715,0.24142137574689299,3.0
11.225014686584473,-6.339740753173828,0.7507326602935791,-0.0,-0.0,-1.0,0.14907671183708476,1.0
11.672205924987793,-4.855619430541992,0.8156013488769531,-0.0,-0.0,-1.0,0.05129408386484439,1.0
10.302983283996582,-5.785114288330078,0.85011887550354,-0.0,-0.0,-1.0,0.18054498719757,2.0
10.64370059967041,-4.773632049560547,0.2528035640716553,-0.0,-0.0,-1.0,0.24170101525212423,1.0
10.394091606140137,-5.273429870605469,0.2721271514892578,-0.0,-0.0,-1.0,0.19289765924651767,1.0
10.285277366638184,-5.876853942871094,0.31068921089172363,-0.0,-0.0,-1.0,0.21649503289372893,2.0
11.18673038482666,-6.271324157714844,0.4194755554199219,0.3614472049521008,-0.9276109592351751,0.09430708530705667,0.21757897204673537,5.0
10.927079200744629,-5.31968879699707,0.3431692123413086,-0.0,-0.0,-1.0,0.10831768444520341,1.0
11.115792274475098,-5.767948150634766,0.3966960906982422,-0.0,-0.0,-1.0,0.2422978221887286,1.0
11.196380615234375,-6.3354644775390625,0.4524095058441162,-0.3213931084705427,-0.8793420655294266,0.35137444645005667,0.13405404102086685,3.0
10.856219291687012,-6.276754379272461,0.4212493896484375,-0.0,-0.0,-1.0,0.13730124695722004,1.0
10.091381072998047,-6.341777801513672,0.36669206619262695,-0.0,-0.0,-1.0,0.1613838248005269,1.0
10.597626686096191,-4.937562942504883,0.829498291015625,0.2657950425404893,-0.07370121543603213,-0.9612081596637386,0.13350249867827704,3.0
9.87984561920166,-5.701763153076172,0.8416495323181152,-0.9423370723484178,0.2740364710246644,0.1921063627945749,0.07330449171781694,3.0
10.14537239074707,-5.936664581298828,0.8748428821563721,-0.0,-0.0,-1.0,0.17994396734939347,2.0
10.070635795593262,-5.649572372436523,0.8746891021728516,-0.0,-0.0,-1.0,0.20120512788426198,1.0
11.117263793945312,-6.279314041137695,0.9405767917633057,-0.0,-0.0,-1.0,0.04788012294633252,1.0
9.966511726379395,-5.560144424438477,0.8060719966888428,-0.0,-0.0,-1.0,0.1413742756667093,1.0
10.113799095153809,-5.908115386962891,0.8426644802093506,-0.0,-0.0,-1.0,0.17012856492960407,1.0
9.875046730041504,-5.696014404296875,0.8099091053009033,-0.5884169146399179,-0.7808075384999411,0.21001219580610753,0.11862852137716334,4.0
11.161067008972168,-6.184789657592773,0.41898488998413086,-0.0,-0.0,-1.0,0.20995068977914683,2.0
11.102521896362305,-5.684858322143555,0.36550164222717285,-0.0,-0.0,-1.0,0.22818322727398335,2.0
10.977294921875,-5.486196517944336,0.3345348834991455,-0.0,-0.0,-1.0,0.18419247573759578,1.0
11.145853042602539,-6.294216156005859,0.4279799461364746,0.053818422644411314,-0.6378806979423471,-0.7682524276412351,0.20528697804258644,4.0
10.88424015045166,-6.153408050537109,0.3894386291503906,0.843095976145411,-0.5349290813086217,0.05513667543233304,0.28236385001465647,3.0
9.993988037109375,-4.662117004394531,0.16188311576843262,-0.0,-0.0,-1.0,0.1672677501701742,1.0
10.278353691101074,-5.782831192016602,0.2956662178039551,-0.0,-0.0,-1.0,0.2645036651083601,1.0
10.117138862609863,-6.2782135009765625,0.32639074325561523,-0.0,-0.0,-1.0,0.18295892890755455,1.0
11.699647903442383,-4.914669036865234,0.749849796295166,-0.0,-0.0,-1.0,0.06705331046827473,1.0
11.154928207397461,-5.524242401123047,0.7622771263122559,-0.0,-0.0,-1.0,0.14843538492961034,1.0
11.090229034423828,-5.940814971923828,0.793811559677124,-0.0,-0.0,-1.0,0.16289158617974697,1.0
10.807456016540527,-5.380189895629883,0.7222099304199219,-0.0,-0.0,-1.0,0.12853337224367484,1.0
10.682642936706543,-4.506227493286133,0.6353130340576172,-0.0,-0.0,-1.0,0.1372059559995545,1.0
10.266653060913086,-5.091146469116211,0.6538248062133789,0.5018403655415917,0.45706846712171484,-0.7343328018521901,0.1266536355165685,3.0
10.282630920410156,-6.243074417114258,0.7545921802520752,-0.0,-0.0,-1.0,0.2143671038187621,1.0
10.252020835876465,-5.713817596435547,0.7066190242767334,-0.0,-0.0,-1.0,0.15263240616619791,2.0
9.810688018798828,-5.711824417114258,0.6702139377593994,-0.13921746475123575,-0.883027290710597,0.448197837309085,0.07851772588358881,4.0
11.083788871765137,-6.218235969543457,0.8036482334136963,-0.0,-0.0,-1.0,0.19817618467031597,1.0
11.123433113098145,-6.050440788269043,0.7909305095672607,-0.0,-0.0,-1.0,0.1991634526736023,1.0
10.827413558959961,-5.500150680541992,0.7139854431152344,0.8219341823686636,-0.2795546641981129,-0.4962593974717619,0.16617286060000264,3.0
11.022500991821289,-5.30134391784668,0.710824728012085,-0.0,-0.0,-1.0,0.16212317377030963,1.0
10.366305351257324,-5.681515693664551,0.6929376125335693,-0.0,-0.0,-1.0,0.12101352333854605,2.0
10.119053840637207,-6.036744117736816,0.7053554058074951,-0.0,-0.0,-1.0,0.16526701897700735,2.0
10.013134956359863,-6.122245788574219,0.7042489051818848,-0.0,-0.0,-1.0,0.16731893529164638,2.0
9.801153182983398,-5.729890823364258,0.6495611667633057,-0.13921746475123575,-0.883027290710597,0.448197837309085,0.06943720733321425,4.0
11.18392562866211,-6.277764320373535,0.5465099811553955,-0.0,-0.0,-1.0,0.12035409682691894,2.0
11.112653732299805,-6.069647789001465,0.5181598663330078,-0.0,-0.0,-1.0,0.16175994286672962,1.0
10.922648429870605,-5.254866600036621,0.4172811508178711,-0.0,-0.0,-1.0,0.09488742118398928,1.0
10.70253849029541,-4.712799072265625,0.33897924423217773,-0.9833587994429237,0.009475483071108683,0.18142680832429509,0.19627480120185037,3.0
10.297385215759277,-5.7233171463012695,0.387937068939209,-0.0,-0.0,-1.0,0.14925900786137578,2.0
10.515522956848145,-5.135900497436523,0.35810279846191406,-0.0,-0.0,-1.0,0.19762882147943533,2.0
10.051380157470703,-6.101652145385742,0.3931870460510254,-0.0,-0.0,-1.0,0.18109108029991164,1.0
9.845322608947754,-5.78333854675293,0.3385505676269531,-0.0,-0.0,-1.0,0.18485938426311416,1.0
11.188569068908691,-6.209718704223633,1.168489933013916,0.9449384170083722,0.2857706212237839,0.1594570164874656,0.05651354663495907,4.0
10.780722618103027,-5.57421875,0.5710175037384033,-0.0,-0.0,-1.0,0.16210842731515082,2.0
10.091243743896484,-5.900198936462402,0.522702693939209,-0.0,-0.0,-1.0,0.23133489870580526,1.0
9.71863842010498,-5.8467607498168945,0.47357916831970215,-0.0,-0.0,-1.0,0.07861380557499417,2.0
9.804130554199219,-5.709270477294922,0.47078728675842285,-0.0,-0.0,-1.0,0.07864616176201343,2.0
10.94210147857666,-5.248587608337402,0.6316111087799072,-0.0,-0.0,-1.0,0.10066744387012201,1.0
10.203922271728516,-6.359044075012207,0.6579892635345459,-0.0,-0.0,-1.0,0.14962985457170228,1.0
10.148856163024902,-5.7734880447387695,0.5933294296264648,-0.0,-0.0,-1.0,0.20650603791828354,1.0
9.793063163757324,-5.7988128662109375,0.5534498691558838,-0.0,-0.0,-1.0,0.1503595220967312,2.0
9.73858642578125,-5.396836280822754,0.5071225166320801,0.6688227180254597,0.621103866342624,-0.4085415022580689,0.053967401998575755,5.0
10.941678047180176,-6.161992073059082,0.7256782054901123,-0.0,-0.0,-1.0,0.19235471354667386,1.0
11.646807670593262,-4.732006072998047,0.3335385322570801,-0.0,-0.0,-1.0,0.14261122635130152,1.0
11.53116226196289,-4.3863983154296875,0.27635669708251953,-0.0,-0.0,-1.0,0.18837287059754454,1.0
11.084798812866211,-4.9012346267700195,0.2675766944885254,-0.0,-0.0,-1.0,0.22018578661635635,1.0
11.013879776000977,-4.576478004455566,0.22022485733032227,-0.0,-0.0,-1.0,0.11568345292377054,1.0
10.830029487609863,-5.498359680175781,0.2936420440673828,-0.0,-0.0,-1.0,0.14153091279962648,1.0
10.800410270690918,-4.636068344116211,0.19423484802246094,-0.0,-0.0,-1.0,0.29253995364085333,2.0
10.359484672546387,-5.75255012512207,0.24535775184631348,-0.0,-0.0,-1.0,0.23147327669074963,1.0
10.416889190673828,-5.058577537536621,0.1807096004486084,-0.11872301693666326,-0.9319857842544953,-0.3425015959042969,0.2197723693021849,4.0
10.462674140930176,-6.337183952331543,0.3227877616882324,-0.0,-0.0,-1.0,0.08823739594416026,1.0
10.301563262939453,-5.810642242431641,0.24200868606567383,-0.0,-0.0,-1.0,0.2841588109926246,1.0
11.028291702270508,-6.175362586975098,0.3978464603424072,-0.0,-0.0,-1.0,0.10516712941322139,1.0
10.829730033874512,-6.190647125244141,0.3674919605255127,0.1947576425626335,-0.9289167773477023,-0.3149334555511767,0.22358815897607306,3.0
9.905879020690918,-5.782403945922852,0.7457778453826904,-0.0,-0.0,-1.0,0.1419301328486759,2.0
9.952005386352539,-6.069062232971191,0.7740790843963623,-0.0,-0.0,-1.0,0.17355520188823675,2.0
11.466394424438477,-4.712635040283203,0.17035293579101562,-0.0,-0.0,-1.0,0.12006629719817416,2.0
11.425995826721191,-4.756382942199707,0.16977810859680176,-0.0,-0.0,-1.0,0.10355015208165184,2.0
10.927967071533203,-5.1012420654296875,0.13371014595031738,-0.0,-0.0,-1.0,0.12006080084104136,2.0
10.55912971496582,-5.145539283752441,0.0773477554321289,-0.0,-0.0,-1.0,0.12365094894436574,2.0
11.289351463317871,-6.202730178833008,0.33547163009643555,0.2601701959443209,-0.260698175541786,-0.9297031410140967,0.1876720549145711,3.0
11.162550926208496,-5.913908958435059,0.2774062156677246,-0.0,-0.0,-1.0,0.21469836710090343,1.0
10.43932819366455,-4.460596084594727,0.5277531147003174,-0.0,-0.0,-1.0,0.046394760727694544,1.0
9.7113618850708,-5.3327436447143555,0.5064220428466797,0.8911187010806345,0.2222023536088681,0.3956432416142629,0.11591733831190075,3.0
11.681163787841797,-4.694769859313965,0.7257199287414551,0.3035561073006497,-0.603444724236192,-0.7373656857435004,0.04559007059922529,3.0
11.184945106506348,-5.591569900512695,0.749995231628418,0.8186629419137053,0.5226731602480664,-0.23791543685414052,0.2544026795032618,3.0
11.124741554260254,-6.257403373718262,0.8074202537536621,-0.0,-0.0,-1.0,0.14810885846772792,2.0
11.094051361083984,-6.007903099060059,0.7783889770507812,-0.0,-0.0,-1.0,0.22900727700723553,1.0
10.779972076416016,-5.503209114074707,0.6822726726531982,0.2275181146364096,0.08588158623295292,-0.9699793093970642,0.18499998528195516,3.0
10.258718490600586,-5.680910110473633,0.6222457885742188,-0.0,-0.0,-1.0,0.16056094816035327,1.0
10.240121841430664,-5.589792251586914,0.610710620880127,-0.0,-0.0,-1.0,0.14913263709801172,1.0
10.121787071228027,-5.943434715270996,0.626349687576294,-0.0,-0.0,-1.0,0.24313657947208955,2.0
9.749577522277832,-5.598476409912109,0.5371706485748291,-0.0,-0.0,-1.0,0.09739223496886174,1.0
11.531874656677246,-5.027593612670898,0.40174245834350586,-0.0,-0.0,-1.0,0.07357481047824072,1.0
11.182604789733887,-5.647239685058594,0.43304443359375,-0.0,-0.0,-1.0,0.1279436013209081,1.0
10.984123229980469,-4.833644866943359,0.2892582416534424,-0.0,-0.0,-1.0,0.19865063026037477,1.0
10.79629898071289,-4.719998359680176,0.2438347339630127,-0.0,-0.0,-1.0,0.2572024006810101,1.0
11.157833099365234,-6.224056243896484,0.5063440799713135,-0.0,-0.0,-1.0,0.08309899728245014,2.0
10.880386352539062,-5.821882247924805,0.40718817710876465,-0.0,-0.0,-1.0,0.14365701186571786,1.0
10.888163566589355,-5.555233955383301,0.3728313446044922,-0.0,-0.0,-1.0,0.14065029864294742,2.0
10.329094886779785,-5.7432756423950195,0.304828405380249,-0.0,-0.0,-1.0,0.23098877597905002,2.0
10.230939865112305,-6.207786560058594,0.3471262454986572,-0.0,-0.0,-1.0,0.18351003490633908,1.0
10.261361122131348,-5.92647647857666,0.31679582595825195,0.27376960862771144,-0.9488415306540128,0.1573211718046232,0.18058063308593697,3.0
11.226548194885254,-5.985167503356934,0.9460885524749756,-0.0,-0.0,-1.0,0.1182911728767226,1.0
10.351480484008789,-5.644665718078613,0.786745548248291,-0.0,-0.0,-1.0,0.1522608027349049,2.0
9.843401908874512,-5.667169570922852,0.7157270908355713,-0.0,-0.0,-1.0,0.10001331384270631,1.0
11.67329216003418,-4.750618934631348,0.4471888542175293,-0.5398489385286223,-0.11140998169910059,-0.8343566021476226,0.08069774789414208,3.0
11.677478790283203,-6.145744323730469,0.2450699806213379,-0.0,-0.0,-1.0,0.07700530800922992,2.0
10.7830228805542,-4.702524185180664,0.29682397842407227,-0.0,-0.0,-1.0,0.17424514912676312,1.0
10.59438419342041,-4.65330696105957,0.25829100608825684,-0.0,-0.0,-1.0,0.11984346934654418,2.0
10.70950698852539,-5.493175506591797,0.4013845920562744,-0.0,-0.0,-1.0,0.11385420646336501,1.0
10.456500053405762,-4.635227203369141,0.2326679229736328,-0.0,-0.0,-1.0,0.21296148333552148,2.0
10.293212890625,-5.685426712036133,0.35650134086608887,-0.0,-0.0,-1.0,0.17881874352428676,2.0
10.02304744720459,-4.613635063171387,0.156463623046875,-0.0,-0.0,-1.0,0.20091146353420722,2.0
10.15619945526123,-6.040990829467773,0.3812105655670166,-0.0,-0.0,-1.0,0.23583037753996408,1.0
9.946030616760254,-5.963321685791016,0.332838773727417,-0.0,-0.0,-1.0,0.19490781855395678,1.0
9.79532241821289,-6.3163909912109375,0.3521115779876709,-0.0,-0.0,-1.0,0.15555304158287722,1.0
11.185014724731445,-5.63352108001709,0.5025773048400879,-0.0,-0.0,-1.0,0.11036686501278,2.0
11.186043739318848,-6.2403717041015625,0.5909552574157715,-0.0,-0.0,-1.0,0.18076649625164318,1.0
11.117792129516602,-6.227609634399414,0.5773024559020996,-0.0,-0.0,-1.0,0.14371612888590934,2.0
11.023306846618652,-5.6458539962768555,0.4770820140838623,-0.0,-0.0,-1.0,0.08080291414109493,1.0
10.380632400512695,-4.9156389236450195,0.7354941368103027,-0.0,-0.0,-1.0,0.08288350788317435,2.0
10.249658584594727,-5.588828086853027,0.795250415802002,-0.0,-0.0,-1.0,0.13769585796177758,1.0
10.266742706298828,-6.176015853881836,0.41954946517944336,-0.0,-0.0,-1.0,0.23462741075406057,1.0
9.894163131713867,-5.739252090454102,0.7584810256958008,-0.0,-0.0,-1.0,0.1500707993038886,2.0
9.983088493347168,-6.06710147857666,0.8085150718688965,-0.0,-0.0,-1.0,0.14224852943811916,2.0
11.694366455078125,-4.568984031677246,0.22026705741882324,-0.0,-0.0,-1.0,0.16115330025376282,2.0
11.624319076538086,-5.4272613525390625,0.36278343200683594,-0.0,-0.0,-1.0,0.10375559909838697,1.0
11.264793395996094,-4.774275779724121,0.17629432678222656,-0.0,-0.0,-1.0,0.12995954919447508,1.0
11.117573738098145,-5.629112243652344,0.2967946529388428,-0.0,-0.0,-1.0,0.1531648768763755,1.0
11.019811630249023,-5.31210994720459,0.22270512580871582,-0.0,-0.0,-1.0,0.1461425040224952,1.0
10.933158874511719,-4.9243059158325195,0.13806676864624023,-0.0,-0.0,-1.0,0.10266374123837145,1.0
11.101725578308105,-6.1957597732543945,0.3882267475128174,-0.0,-0.0,-1.0,0.17334735640309118,2.0
10.6697998046875,-5.411746978759766,0.16831326484680176,-0.0,-0.0,-1.0,0.09886280229595663,1.0
10.594941139221191,-5.1406402587890625,0.10708236694335938,-0.0,-0.0,-1.0,0.16823722802160984,2.0
10.751348495483398,-6.225339889526367,0.3186228275299072,-0.0,-0.0,-1.0,0.0907997522725117,1.0
10.547039031982422,-6.144773006439209,0.2621316909790039,-0.8841827193387956,-0.06468533806828795,-0.46264103348237906,0.0791893701807791,3.0
11.693748474121094,-4.766744613647461,0.6704962253570557,-0.0,-0.0,-1.0,0.04867832198585017,1.0
11.553960800170898,-4.454758644104004,0.5991456508636475,-0.0,-0.0,-1.0,0.08977004573402082,2.0
11.168389320373535,-5.586811065673828,0.7034816741943359,0.9464941462694679,0.18427096603485474,-0.2649396953161461,0.17557201689315546,5.0
10.750913619995117,-4.575828552246094,0.482558012008667,-0.0,-0.0,-1.0,0.14473954838396014,1.0
11.127220153808594,-6.1417059898376465,0.7746551036834717,-0.0,-0.0,-1.0,0.15753371490655074,1.0
10.81312370300293,-5.50496768951416,0.6283359527587891,-0.0,-0.0,-1.0,0.14698187800051002,1.0
10.473944664001465,-4.954501152038574,0.4892277717590332,-0.0,-0.0,-1.0,0.08982468527011268,1.0
10.305830001831055,-5.630619525909424,0.5532808303833008,-0.0,-0.0,-1.0,0.14623947438706514,2.0
10.090243339538574,-6.145562171936035,0.5812292098999023,-0.0,-0.0,-1.0,0.2768692281545384,1.0
9.956378936767578,-5.857000827789307,0.5180554389953613,-0.0,-0.0,-1.0,0.17437074617573373,1.0
9.812362670898438,-5.558893203735352,0.45140528678894043,-0.0,-0.0,-1.0,0.11736380028456209,2.0
9.787782669067383,-5.841727256774902,0.48395872116088867,-0.0,-0.0,-1.0,0.13808818380584048,1.0
11.182308197021484,-6.209165096282959,1.1748363971710205,0.9449384170083722,0.2857706212237839,0.1594570164874656,0.05651354663495908,4.0
10.024931907653809,-5.738524436950684,0.9385483264923096,-0.0,-0.0,-1.0,0.08991146837929051,1.0
9.943746566772461,-5.522549629211426,0.9019045829772949,-0.0,-0.0,-1.0,0.16565999906416823,2.0
11.682025909423828,-4.575976371765137,0.23137569427490234,-0.0,-0.0,-1.0,0.16920582733774547,2.0
11.689582824707031,-4.399079322814941,0.19698882102966309,-0.0,-0.0,-1.0,0.16797110045284158,1.0
11.147705078125,-4.846886157989502,0.17674946784973145,-0.0,-0.0,-1.0,0.12348720207076974,1.0
11.137340545654297,-4.663837432861328,0.13896656036376953,-0.0,-0.0,-1.0,0.06331719113116419,2.0
11.676328659057617,-6.199649810791016,0.19881176948547363,-0.0,-0.0,-1.0,0.06407650185874979,1.0
10.99787712097168,-5.168417930603027,0.20676898956298828,-0.0,-0.0,-1.0,0.1582575175219498,1.0
10.852885246276855,-4.806632995605469,0.10719633102416992,-0.0,-0.0,-1.0,0.14783503478750276,1.0
10.531824111938477,-5.322042465209961,0.13431429862976074,-0.0,-0.0,-1.0,0.12030336759424055,1.0
10.523954391479492,-5.047431468963623,0.08219432830810547,-0.0,-0.0,-1.0,0.19971011529152038,1.0
10.393037796020508,-5.821153163909912,0.19238686561584473,-0.0,-0.0,-1.0,0.14012987392917775,2.0
10.28768253326416,-5.370248794555664,0.08892488479614258,-0.0,-0.0,-1.0,0.11271625974459464,1.0
11.57895278930664,-4.363665580749512,0.5617513656616211,-0.0,-0.0,-1.0,0.09552608178374393,1.0
11.091350555419922,-5.502438545227051,0.2894418239593506,-0.0,-0.0,-1.0,0.1598037262449596,1.0
10.974809646606445,-5.276721477508545,0.22218704223632812,-0.0,-0.0,-1.0,0.16176210630841942,1.0
10.727298736572266,-4.548402786254883,0.4405484199523926,-0.0,-0.0,-1.0,0.18524286048814395,1.0
10.942852973937988,-6.082940101623535,0.3624267578125,-0.0,-0.0,-1.0,0.28528476771443634,2.0
10.822854995727539,-5.476215839385986,0.41771459579467773,-0.0,-0.0,-1.0,0.15682130669374628,2.0
10.586258888244629,-5.386236667633057,0.5482540130615234,-0.0,-0.0,-1.0,0.16113146108950954,1.0
10.178956031799316,-4.648288726806641,0.3539698123931885,-0.0,-0.0,-1.0,0.09969550592524709,1.0
10.536731719970703,-6.166656970977783,0.28489041328430176,-0.8912996499231726,-0.3929773818244348,0.22617186257632194,0.06797817427556976,4.0
10.455121994018555,-6.022151947021484,0.24146008491516113,-0.0,-0.0,-1.0,0.08397616202088024,1.0
10.278669357299805,-5.575778484344482,0.5172348022460938,-0.0,-0.0,-1.0,0.1498451105435293,1.0
10.110912322998047,-6.042323589324951,0.5526504516601562,-0.0,-0.0,-1.0,0.24375251076456353,2.0
9.812832832336426,-5.626840114593506,0.4317035675048828,0.9414261121759799,-0.2445788905610987,-0.23215951758461642,0.14812393244523114,4.0
9.736373901367188,-5.392693042755127,0.3818342685699463,-0.0,-0.0,-1.0,0.1328315566712665,1.0
11.169427871704102,-5.570253372192383,0.6888747215270996,-0.0,-0.0,-1.0,0.17433484218259115,2.0
10.961524963378906,-5.998171806335449,0.7158060073852539,-0.0,-0.0,-1.0,0.17278441870609026,1.0
10.902493476867676,-5.746082305908203,0.6654715538024902,-0.0,-0.0,-1.0,0.13620210750105324,1.0
10.191064834594727,-6.297422409057617,0.6057412624359131,-0.0,-0.0,-1.0,0.15822125280966526,1.0
10.137659072875977,-5.779266357421875,0.905519962310791,-0.0,-0.0,-1.0,0.17820579507184514,2.0
11.149238586425781,-6.184885025024414,1.129624605178833,-0.0,-0.0,-1.0,0.056513546634959104,1.0
11.211030960083008,-4.891695976257324,0.1959681510925293,-0.0,-0.0,-1.0,0.11575970956175724,1.0
11.04601764678955,-5.373196601867676,0.2622339725494385,-0.0,-0.0,-1.0,0.16240434515795285,2.0
10.923151016235352,-5.094935417175293,0.17305588722229004,-0.0,-0.0,-1.0,0.13197185487903346,2.0
10.788432121276855,-5.5685200691223145,0.24038434028625488,-0.0,-0.0,-1.0,0.09354584999893532,2.0
10.600483894348145,-5.389395713806152,0.15692567825317383,-0.0,-0.0,-1.0,0.13811244363646558,2.0
10.532587051391602,-6.127490520477295,0.2873353958129883,-0.8841827193387956,-0.06468533806828795,-0.46264103348237906,0.08198342247009542,3.0
10.514934539794922,-5.916027545928955,0.2415785789489746,-0.0,-0.0,-1.0,0.13958062972978605,2.0
10.391132354736328,-5.543872356414795,0.13633418083190918,-0.0,-0.0,-1.0,0.09874797473754413,1.0
11.183767318725586,-5.712867736816406,0.36745429039001465,-0.0,-0.0,-1.0,0.1873401899567535,1.0
11.118692398071289,-5.6927690505981445,0.3473834991455078,-0.0,-0.0,-1.0,0.215956120065909,2.0
11.015420913696289,-4.907751560211182,0.510387659072876,-0.0,-0.0,-1.0,0.14917356610936394,1.0
10.687185287475586,-4.760618686676025,0.413740873336792,-0.0,-0.0,-1.0,0.1681336773430511,1.0
11.204971313476562,-6.275487422943115,0.488201379776001,0.015739768958203885,-0.9165753896800983,-0.39955201752202174,0.17559717699653693,3.0
10.907524108886719,-6.02971887588501,0.5293135643005371,-0.0,-0.0,-1.0,0.15504876931560335,1.0
10.82482624053955,-5.592409133911133,0.5973944664001465,-0.0,-0.0,-1.0,0.20645353047736856,1.0
10.456497192382812,-5.337244510650635,0.4706737995147705,-0.0,-0.0,-1.0,0.10061810436793751,1.0
10.54478645324707,-5.003124713897705,0.42893266677856445,-0.0,-0.0,-1.0,0.13884516206341,1.0
10.019861221313477,-4.642067909240723,0.2494213581085205,0.8609520601446142,-0.46085774080559255,-0.21534087599039262,0.15790952505651876,4.0
10.519855499267578,-6.299427509307861,0.3168468475341797,-0.0,-0.0,-1.0,0.10585677653074,1.0
10.32593822479248,-5.751071929931641,0.5142593383789062,-0.0,-0.0,-1.0,0.20194228637818942,1.0
10.090051651000977,-6.14810037612915,0.5263526439666748,-0.0,-0.0,-1.0,0.28269444771847313,2.0
9.837961196899414,-5.744880676269531,0.40143275260925293,-0.0,-0.0,-1.0,0.1272920710455327,1.0
9.747082710266113,-5.442559719085693,0.3299229145050049,0.8710412774744442,0.40225809497074105,-0.28191402584156494,0.1057145796894203,6.0
11.231182098388672,-6.331487655639648,1.1253526210784912,-0.0,-0.0,-1.0,0.06766997084961356,1.0
11.15986442565918,-6.1047515869140625,0.76291823387146,-0.0,-0.0,-1.0,0.1735616733545542,1.0
10.79002857208252,-5.52150297164917,0.9160025119781494,-0.0,-0.0,-1.0,0.13497766484178247,1.0
10.460322380065918,-5.000839710235596,0.7715792655944824,-0.0,-0.0,-1.0,0.10394475670562743,1.0
10.36158561706543,-5.740718364715576,0.8661653995513916,-0.0,-0.0,-1.0,0.1995628685615625,2.0
10.11094856262207,-6.041326999664307,0.8596458435058594,-0.0,-0.0,-1.0,0.14907478902757978,2.0
10.486207962036133,-4.659046173095703,0.2409963607788086,0.1306877428055112,-0.17802379456207093,-0.9753093060409718,0.16825521397127818,3.0
9.941429138183594,-4.564215183258057,0.07902812957763672,-0.0,-0.0,-1.0,0.20903152955916826,1.0
9.760551452636719,-5.576587677001953,0.2140820026397705,-0.0,-0.0,-1.0,0.07829382311051443,1.0
11.575855255126953,-4.667595863342285,0.5171937942504883,-0.0,-0.0,-1.0,0.09499298089804667,1.0
11.180292129516602,-5.674315452575684,0.6223106384277344,-0.0,-0.0,-1.0,0.14478552746028872,2.0
10.92095947265625,-5.437329292297363,0.5075831413269043,-0.0,-0.0,-1.0,0.14552263083043807,2.0
10.724136352539062,-4.687958717346191,0.47512030601501465,-0.0,-0.0,-1.0,0.1254821319816107,2.0
10.991254806518555,-6.2421464920043945,0.6760470867156982,-0.0,-0.0,-1.0,0.1240264312001742,1.0
10.925529479980469,-5.8929853439331055,0.5947611331939697,-0.0,-0.0,-1.0,0.23679623967399602,1.0
10.734909057617188,-5.5813517570495605,0.4850728511810303,-0.958474110375157,0.28072961441526945,-0.05018230097161437,0.0753687712019862,3.0
10.376466751098633,-5.195488929748535,0.48082637786865234,-0.19733071878621994,0.9394074202171258,0.2803110526973899,0.19037464188390404,3.0
10.110002517700195,-4.530588150024414,0.4720652103424072,-0.0,-0.0,-1.0,0.07378825534214772,1.0
10.31069278717041,-5.804509162902832,0.4086029529571533,-0.0,-0.0,-1.0,0.2318489473177896,2.0
10.099954605102539,-6.228979587554932,0.42049074172973633,-0.0,-0.0,-1.0,0.22207664627155746,1.0
9.880670547485352,-5.871372222900391,0.4651017189025879,-0.0,-0.0,-1.0,0.161465213571968,1.0
9.802019119262695,-5.6329345703125,0.4054090976715088,0.9414261121759799,-0.2445788905610987,-0.23215951758461642,0.15642541587578981,4.0
11.172069549560547,-6.338712215423584,0.8832201957702637,-0.0,-0.0,-1.0,0.08934853879166821,1.0
10.742010116577148,-5.482159614562988,0.7810840606689453,-0.0,-0.0,-1.0,0.12627836221563007,2.0
10.24462890625,-5.831052780151367,0.8704218864440918,-0.0,-0.0,-1.0,0.18123173286522226,1.0
9.973639488220215,-5.56251859664917,0.9326140880584717,-0.6415805197896273,0.5348196198344318,-0.5498567184882124,0.23094160833691993,4.0
10.231653213500977,-6.201245307922363,0.7655622959136963,-0.0,-0.0,-1.0,0.22020974945519145,1.0
10.083637237548828,-5.934380054473877,0.688955545425415,-0.0,-0.0,-1.0,0.19561501247635693,1.0
9.94565200805664,-5.596419334411621,0.9308509826660156,-0.7119887801211969,0.6312780454014584,-0.30750610786721594,0.17628443996366056,4.0
9.856627464294434,-5.643598556518555,0.17455458641052246,-0.0,-0.0,-1.0,0.12273669711619017,1.0
10.184596061706543,-5.4427337646484375,0.18109917640686035,-0.0,-0.0,-1.0,0.1566311923003461,1.0
10.068328857421875,-5.577489852905273,0.17357611656188965,-0.0,-0.0,-1.0,0.11371940429317645,1.0
10.427002906799316,-5.068885803222656,0.20431900024414062,0.6037282554999102,-0.6027112574598741,-0.5217770919101109,0.20172355844667741,3.0
10.157525062561035,-5.888397216796875,0.9921523332595825,0.539890560866948,-0.8311215655764141,-0.13324836029228374,0.17445899830531839,5.0
9.807863235473633,-5.647577285766602,0.5705442428588867,-0.0,-0.0,-1.0,0.06474523758247297,2.0
10.159967422485352,-6.050790786743164,0.5186185836791992,-0.0,-0.0,-1.0,0.24637308240915606,2.0
10.39802074432373,-5.713232040405273,0.5313949584960938,0.42065562736489764,-0.35808344240133605,-0.8335616902450913,0.1402448487536283,3.0
10.267815589904785,-5.973295211791992,0.5184669494628906,-0.0,-0.0,-1.0,0.1972966193442685,2.0
11.137845039367676,-6.240488052368164,0.44483160972595215,-0.0,-0.0,-1.0,0.17587894352651542,1.0
9.774541854858398,-5.550251007080078,0.38651466369628906,-0.0,-0.0,-1.0,0.0998577220234851,2.0
10.053659439086914,-6.007059097290039,0.32966160774230957,-0.0,-0.0,-1.0,0.1905159612433059,1.0
10.30246353149414,-5.91352653503418,0.32337379455566406,0.297621867065608,-0.5817977147160658,-0.7569231423305438,0.13102018293349288,4.0
10.483555793762207,-6.057220458984375,0.29967308044433594,-0.0,-0.0,-1.0,0.09197926620082478,1.0
10.72465705871582,-4.689332962036133,0.40749692916870117,-0.3660700605060896,-0.4846067158537714,-0.7944488918429493,0.1302283345203208,4.0
10.513128280639648,-4.9399566650390625,0.39783787727355957,-0.0,-0.0,-1.0,0.1894091999960678,1.0
10.720337867736816,-5.580137252807617,0.32799363136291504,-0.0,-0.0,-1.0,0.11380382722752501,1.0
10.766890525817871,-6.017005920410156,0.2859988212585449,-0.0,-0.0,-1.0,0.08049625491908753,1.0
11.24426555633545,-5.682851791381836,0.8227167129516602,-0.0,-0.0,-1.0,0.2098701450365731,1.0
9.951570510864258,-6.16755485534668,0.6262884140014648,-0.0,-0.0,-1.0,0.13734656276116936,1.0
10.321693420410156,-5.2143096923828125,0.6894323825836182,-0.0,-0.0,-1.0,0.13244077982418762,1.0
10.326143264770508,-6.3359222412109375,0.594110369682312,-0.0,-0.0,-1.0,0.13715564862966037,1.0
10.78533935546875,-5.606239318847656,0.6333338022232056,-0.0,-0.0,-1.0,0.16952244314480697,1.0
11.131326675415039,-6.2873077392578125,0.5574536323547363,-0.0,-0.0,-1.0,0.11352691036318485,1.0
9.778421401977539,-5.578086853027344,0.3315086364746094,-0.0,-0.0,-1.0,0.08036375631469733,1.0
9.909246444702148,-5.778661727905273,0.3009340763092041,-0.0,-0.0,-1.0,0.21143508116055354,1.0
10.252893447875977,-5.520654678344727,0.3059685230255127,-0.0,-0.0,-1.0,0.22628243594156655,1.0
10.030464172363281,-5.813510894775391,0.2889857292175293,-0.0,-0.0,-1.0,0.13509735346488164,1.0
10.526579856872559,-4.63896369934082,0.3838768005371094,-0.0,-0.0,-1.0,0.13711955824558464,1.0
10.580144882202148,-5.824529647827148,0.24996209144592285,-0.0,-0.0,-1.0,0.11851481278647368,1.0
10.649741172790527,-4.648725509643555,0.37427353858947754,-0.0,-0.0,-1.0,0.12992694818348705,2.0
10.814873695373535,-4.875629425048828,0.3377659320831299,-0.0,-0.0,-1.0,0.15273359231237757,2.0
10.938868522644043,-5.127086639404297,0.30127978324890137,-0.0,-0.0,-1.0,0.14444103870067418,1.0
9.978635787963867,-6.218988418579102,0.4656331539154053,-0.0,-0.0,-1.0,0.15953085810283194,2.0
10.22354507446289,-6.0321502685546875,0.47844457626342773,-0.0,-0.0,-1.0,0.2243789944897213,1.0
10.337838172912598,-6.272937774658203,0.4524714946746826,-0.0,-0.0,-1.0,0.14950708949539313,1.0
10.955741882324219,-5.984689712524414,0.4654555320739746,-0.0,-0.0,-1.0,0.2047756957941159,1.0
9.716876029968262,-5.364837646484375,0.5533909797668457,0.8390426255749465,0.5402071500592656,-0.06468158542542561,0.12410517269426846,3.0
9.835832595825195,-5.558193206787109,0.5324492454528809,-0.0,-0.0,-1.0,0.1278821188876738,1.0
10.36737060546875,-5.694740295410156,0.5079836845397949,-0.0,-0.0,-1.0,0.13552028284386486,2.0
10.888567924499512,-5.466707229614258,0.5177433490753174,-0.0,-0.0,-1.0,0.12775931964616946,2.0
11.151585578918457,-5.773815155029297,0.48092079162597656,-0.0,-0.0,-1.0,0.11428765066708399,1.0
11.266172409057617,-6.247610092163086,1.2487536668777466,-0.0,-0.0,-1.0,0.08266448061609397,1.0
9.967107772827148,-4.559086799621582,0.18347573280334473,-0.0,-0.0,-1.0,0.1414649307792307,1.0
9.738286972045898,-5.17819881439209,0.11087536811828613,-0.0,-0.0,-1.0,0.11098895246045769,1.0
9.947029113769531,-5.2610673904418945,0.09965348243713379,-0.0,-0.0,-1.0,0.11968236000312653,1.0
10.166690826416016,-5.072945594787598,0.12047481536865234,-0.0,-0.0,-1.0,0.14911862157835468,1.0
10.318968772888184,-5.737879753112793,0.8071480989456177,-0.0,-0.0,-1.0,0.20621139152065074,2.0
9.745777130126953,-5.481330871582031,0.32235169410705566,-0.4461109121857127,0.07703117789652586,-0.8916564650473329,0.05451300451180218,4.0
9.875988006591797,-5.831653594970703,0.27694177627563477,-0.0,-0.0,-1.0,0.1544615771392472,2.0
10.024918556213379,-5.988218307495117,0.25377488136291504,-0.0,-0.0,-1.0,0.12266063016412493,1.0
10.506874084472656,-5.050365447998047,0.35027647018432617,-0.0,-0.0,-1.0,0.15867539700057057,1.0
10.311685562133789,-5.254817962646484,0.3321542739868164,-0.0,-0.0,-1.0,0.19041993751316857,2.0
10.227139472961426,-5.926897048950195,0.2546966075897217,-0.0,-0.0,-1.0,0.17747081267690104,1.0
10.729318618774414,-4.675809860229492,0.38770461082458496,-0.29482008402174614,-0.7552124163822326,-0.585436012045313,0.1592505869822221,3.0
10.518879890441895,-5.956335067749023,0.2415614128112793,0.10184185993403205,0.010392050450517686,-0.9947463198487394,0.12594522245221937,3.0
10.590242385864258,-5.9875946044921875,0.23539018630981445,-0.41127989523620656,0.4085617996212901,-0.8148166073815061,0.11081183955063224,3.0
9.746244430541992,-6.184293746948242,0.3149750232696533,-0.0,-0.0,-1.0,0.15760857230120787,1.0
10.087583541870117,-4.453617095947266,0.5316166877746582,-0.0,-0.0,-1.0,0.12492815214037988,1.0
9.978134155273438,-6.051990509033203,0.3347146511077881,-0.0,-0.0,-1.0,0.14831495523521634,1.0
10.37894344329834,-5.123409271240234,0.4542551040649414,-0.0,-0.0,-1.0,0.17642015007329687,1.0
10.35777759552002,-5.752717971801758,0.37668633460998535,-0.4693377331853445,-0.6949792136870055,-0.544725605008094,0.1999021981196732,3.0
10.415708541870117,-6.184047698974609,0.32423830032348633,-0.0,-0.0,-1.0,0.09390831350881122,2.0
10.807670593261719,-4.730047225952148,0.5079624652862549,-0.0,-0.0,-1.0,0.07583134067476635,2.0
10.953790664672852,-4.93901252746582,0.48363685607910156,-0.0,-0.0,-1.0,0.1537256701080693,2.0
10.824225425720215,-5.505912780761719,0.41225147247314453,-0.9989710767818785,-0.04439474145210291,-0.009267938533217508,0.1534406807628948,3.0
10.859702110290527,-6.140993118286133,0.3338940143585205,-0.0,-0.0,-1.0,0.1786082074159361,2.0
10.06843090057373,-5.195643424987793,0.15143895149230957,-0.0,-0.0,-1.0,0.10658485137666719,1.0
10.412274360656738,-5.054944038391113,0.1711728572845459,-0.11872301693666326,-0.9319857842544953,-0.3425015959042969,0.2773734916203579,4.0
10.101324081420898,-4.635125160217285,0.24327325820922852,-0.0,-0.0,-1.0,0.15617278847978022,1.0
10.54590892791748,-4.703892707824707,0.22763466835021973,-0.0,-0.0,-1.0,0.18997894641579455,2.0
10.185188293457031,-5.928133964538574,0.6994082927703857,-0.0,-0.0,-1.0,0.17857207335482805,1.0
9.938684463500977,-6.211087226867676,0.6672914028167725,-0.0,-0.0,-1.0,0.11963457434800932,1.0
9.745277404785156,-5.272249221801758,0.10007214546203613,-0.0,-0.0,-1.0,0.09363022588436655,2.0
10.021844863891602,-4.611495018005371,0.21939969062805176,0.9672374298309827,-0.06402839470967968,0.2456666827326336,0.2039686923885633,4.0
9.970232009887695,-5.350227355957031,0.10943841934204102,-0.0,-0.0,-1.0,0.11915382077001754,1.0
10.478652954101562,-4.700507164001465,0.24755191802978516,-0.0,-0.0,-1.0,0.22679763335473774,2.0
10.370254516601562,-5.055280685424805,0.18718338012695312,-0.10947484596028045,-0.9453286623043894,-0.30719534229503925,0.13729135507898255,3.0
10.756633758544922,-4.776933670043945,0.26049327850341797,-0.0,-0.0,-1.0,0.23057369067012684,1.0
10.689119338989258,-5.541961669921875,0.1442887783050537,-0.0,-0.0,-1.0,0.13671403842372082,1.0
9.815877914428711,-5.73115348815918,0.6720495223999023,-0.13921746475123575,-0.883027290710597,0.448197837309085,0.09504056402103178,4.0
10.566551208496094,-4.916284561157227,0.8192737102508545,0.23155226343759888,-0.11619788388215845,-0.965857961130017,0.1096382167537724,4.0
10.264582633972168,-5.7457122802734375,0.7053313255310059,-0.0,-0.0,-1.0,0.1794165535322026,2.0
9.712974548339844,-5.291877746582031,0.11095309257507324,-0.0,-0.0,-1.0,0.10700669934865109,2.0
10.120291709899902,-5.32774543762207,0.14772629737854004,-0.0,-0.0,-1.0,0.156302116890241,1.0
10.525653839111328,-5.510732650756836,0.15772104263305664,-0.0,-0.0,-1.0,0.12340228969650917,1.0
10.021353721618652,-4.589757919311523,0.25745272636413574,0.9299516928616343,0.324305408887206,-0.17325083177371203,0.14217373255728533,3.0
10.390508651733398,-5.017778396606445,0.22566676139831543,-0.0,-0.0,-1.0,0.1484058579170212,1.0
10.695716857910156,-4.72956657409668,0.30288076400756836,-0.9833587994429237,0.009475483071108683,0.18142680832429509,0.17954938670901788,3.0
10.567840576171875,-4.798702239990234,0.2791116237640381,-0.0,-0.0,-1.0,0.2189443675306484,1.0
10.089605331420898,-6.105864524841309,0.6200504302978516,-0.0,-0.0,-1.0,0.2128491204082509,1.0
9.837760925292969,-5.734452247619629,0.6453969478607178,-0.13921746475123575,-0.883027290710597,0.448197837309085,0.11841074650667736,4.0
10.562914848327637,-4.906084060668945,0.817486047744751,0.2657950425404893,-0.07370121543603213,-0.9612081596637386,0.10963821675377242,3.0
10.317790985107422,-5.734893798828125,0.6882338523864746,-0.0,-0.0,-1.0,0.13090228518313007,1.0
10.047412872314453,-4.496962547302246,0.4554591178894043,-0.0,-0.0,-1.0,0.08732091098570761,2.0
9.812146186828613,-5.648150444030762,0.22617006301879883,-0.0,-0.0,-1.0,0.18575939442920913,1.0
10.850958824157715,-4.6998748779296875,0.5040881633758545,-0.0,-0.0,-1.0,0.11275450882204222,2.0
10.374105453491211,-5.1309051513671875,0.3783283233642578,-0.0,-0.0,-1.0,0.24754112771523928,2.0
10.311195373535156,-5.723649978637695,0.2659015655517578,-0.0,-0.0,-1.0,0.21443953424344037,2.0
10.010016441345215,-5.854254722595215,0.2110135555267334,-0.0,-0.0,-1.0,0.06237245231764602,1.0
10.951050758361816,-4.89292049407959,0.4790763854980469,-0.0,-0.0,-1.0,0.1263051721070052,2.0
10.822550773620605,-5.5210418701171875,0.3531920909881592,-0.0,-0.0,-1.0,0.15824207022128708,2.0
10.41656494140625,-5.801219940185547,0.2627096176147461,-0.0,-0.0,-1.0,0.21101580310794552,1.0
10.489757537841797,-5.977502822875977,0.238358736038208,-0.0,-0.0,-1.0,0.08383278092559382,2.0
10.831403732299805,-5.964278221130371,0.2738802433013916,-0.0,-0.0,-1.0,0.13002266343530872,1.0
9.848495483398438,-5.690328598022461,0.7761740684509277,-0.0,-0.0,-1.0,0.09952797726834176,2.0
10.287120819091797,-5.700616836547852,0.8165383338928223,-0.0,-0.0,-1.0,0.20633622114104566,2.0
10.106132507324219,-6.04856014251709,0.7495157718658447,-0.0,-0.0,-1.0,0.1675590794470577,2.0
10.349006652832031,-5.665072441101074,0.8273906707763672,-0.0,-0.0,-1.0,0.17131947310695436,2.0
9.858144760131836,-4.380026340484619,0.4770185947418213,-0.0,-0.0,-1.0,0.2109990035634514,1.0
10.654430389404297,-4.8269572257995605,0.3889596462249756,-0.0,-0.0,-1.0,0.18493640368867775,1.0
10.419384002685547,-5.210904598236084,0.2819364070892334,-0.0,-0.0,-1.0,0.1963134366567046,1.0
10.020323753356934,-5.5114521980285645,0.1904432773590088,-0.0,-0.0,-1.0,0.16213152043146162,1.0
9.774517059326172,-5.474563121795654,0.1905193328857422,-0.0,-0.0,-1.0,0.09913641081820365,2.0
11.357523918151855,-5.060583591461182,0.342177152633667,-0.0,-0.0,-1.0,0.2299257034319317,2.0
11.01020336151123,-5.179701328277588,0.30500006675720215,-0.0,-0.0,-1.0,0.18785615608363881,1.0
10.572256088256836,-5.526923656463623,0.2038259506225586,-0.0,-0.0,-1.0,0.13336498542764225,1.0
10.209295272827148,-5.525303363800049,0.19327998161315918,-0.0,-0.0,-1.0,0.10333849340442143,1.0
11.126147270202637,-5.536787509918213,0.2133617401123047,-0.0,-0.0,-1.0,0.1722848946815928,2.0
10.746070861816406,-5.618691921234131,0.18412160873413086,-0.0,-0.0,-1.0,0.17213068707358395,1.0
11.346308708190918,-5.6307501792907715,0.19201421737670898,-0.0,-0.0,-1.0,0.12375331007968382,1.0
10.536513328552246,-4.948680400848389,0.8161704540252686,-0.0,-0.0,-1.0,0.059170765506100766,2.0
10.344319343566895,-5.024393558502197,0.7944662570953369,-0.0,-0.0,-1.0,0.11477536108267078,1.0
10.969493865966797,-5.174678325653076,0.7737927436828613,-0.0,-0.0,-1.0,0.11566964297583131,1.0
10.693952560424805,-5.515892505645752,0.6919708251953125,-0.0,-0.0,-1.0,0.14020723882581415,2.0
9.826379776000977,-5.7826972007751465,0.6102027893066406,-0.0,-0.0,-1.0,0.1036600955880625,2.0
11.20767879486084,-5.662918567657471,0.6668345928192139,0.4366413042979029,0.7749855655467573,-0.4568826376381558,0.14232319439576918,3.0
10.800104141235352,-5.584251880645752,0.6785876750946045,-0.0,-0.0,-1.0,0.16950813568510534,2.0
10.247644424438477,-6.087169170379639,0.5538153648376465,-0.0,-0.0,-1.0,0.21505795217115176,1.0
11.148080825805664,-5.782124042510986,0.6391716003417969,-0.0,-0.0,-1.0,0.11031586126614232,1.0
10.93368148803711,-5.996958255767822,0.5877068042755127,-0.0,-0.0,-1.0,0.16534452624252874,1.0
10.183996200561523,-5.232030868530273,0.10813760757446289,-0.0,-0.0,-1.0,0.18388441991535026,1.0
9.863243103027344,-5.331607818603516,0.08069682121276855,-0.0,-0.0,-1.0,0.12567157147822533,1.0
10.743380546569824,-5.300055503845215,0.07988333702087402,-0.0,-0.0,-1.0,0.04980816309884103,1.0
10.551543235778809,-4.6784515380859375,0.2657139301300049,-0.6855776814150473,0.6481090539323796,-0.3315688419566044,0.15543995038939465,3.0
10.036713600158691,-4.617210388183594,0.2885115146636963,0.9086445489916944,0.03792109624405913,-0.4158450120505582,0.143329110523432,3.0
10.583832740783691,-4.977910041809082,0.17739367485046387,-0.0,-0.0,-1.0,0.17107112514293898,1.0
10.378897666931152,-5.1698808670043945,0.12427496910095215,-0.0,-0.0,-1.0,0.2041217208403521,1.0
9.82888126373291,-5.295413970947266,0.3197896480560303,-0.0,-0.0,-1.0,0.14888747047819956,1.0
9.736614227294922,-5.4936323165893555,0.49217891693115234,0.17918180046262505,-0.44446264492803406,-0.877694046719327,0.0707495054945488,3.0
10.96593189239502,-5.038079261779785,0.1515977382659912,-0.0,-0.0,-1.0,0.09226409185442044,1.0
10.798246383666992,-5.115703582763672,0.13277554512023926,-0.0,-0.0,-1.0,0.08575132039140398,1.0
10.32902717590332,-5.800843238830566,0.407930850982666,0.016534575446824306,-0.259714927536809,-0.9655437660869359,0.19848888415805985,3.0
9.91748332977295,-6.088448524475098,0.3398611545562744,-0.0,-0.0,-1.0,0.17614739653319142,1.0
10.738081932067871,-5.5754499435424805,0.4574873447418213,-0.0,-0.0,-1.0,0.10813113588950118,2.0
10.341906547546387,-6.121761322021484,0.32566404342651367,-0.0,-0.0,-1.0,0.15192624986510958,1.0
9.958860397338867,-6.224758148193359,0.3046431541442871,-0.0,-0.0,-1.0,0.13620945194404688,1.0
11.17927360534668,-5.904266357421875,0.3610379695892334,-0.0,-0.0,-1.0,0.18165196545365656,2.0
10.92013168334961,-6.149808883666992,0.30567240715026855,-0.0,-0.0,-1.0,0.16661282271274003,1.0
10.585270881652832,-6.275829315185547,0.28171515464782715,-0.0,-0.0,-1.0,0.07547815007168598,1.0
11.41347885131836,-6.223559379577637,0.2710580825805664,-0.0,-0.0,-1.0,0.07046400837282232,1.0
10.490044593811035,-5.040407180786133,0.5993990898132324,-0.0,-0.0,-1.0,0.09212192532848844,1.0
10.309751510620117,-5.162082672119141,0.571246862411499,-0.0,-0.0,-1.0,0.13334443322766237,1.0
9.927310943603516,-5.625378608703613,0.9121251106262207,-0.9669052253610391,0.09078025272797871,0.2384391555180538,0.1578395712120962,4.0
10.982460021972656,-4.967016220092773,0.6070621013641357,-0.0,-0.0,-1.0,0.13430242419492172,1.0
9.985939979553223,-5.863195419311523,0.8595304489135742,-0.0,-0.0,-1.0,0.08147963123537802,1.0
10.242045402526855,-6.152154922485352,0.792210578918457,-0.0,-0.0,-1.0,0.21383538268844046,1.0
10.037053108215332,-6.165081977844238,0.7929461002349854,-0.0,-0.0,-1.0,0.15459718713884502,1.0
11.15774917602539,-6.337980270385742,0.7282898426055908,-0.0,-0.0,-1.0,0.1300943979613692,1.0
9.910971641540527,-6.293824195861816,0.35571956634521484,-0.0,-0.0,-1.0,0.15301538420812394,1.0
10.267335891723633,-6.313237190246582,0.34317469596862793,-0.0,-0.0,-1.0,0.17507618999762645,1.0
10.046842575073242,-6.306702613830566,0.3499133586883545,-0.0,-0.0,-1.0,0.17032379909698572,2.0
11.096736907958984,-6.273870468139648,0.32595133781433105,-0.0,-0.0,-1.0,0.1461308304679893,2.0
10.375504493713379,-5.0709686279296875,0.6706485748291016,0.05107148097963205,0.9513168982723305,-0.30395371833892715,0.14419206906119197,3.0
9.81417465209961,-5.6156415939331055,0.5371716022491455,-0.0,-0.0,-1.0,0.11251660870291465,2.0
10.784158706665039,-5.575966835021973,0.5236928462982178,-0.0,-0.0,-1.0,0.08550310903968811,2.0
10.387845039367676,-5.954813003540039,0.43552613258361816,-0.0,-0.0,-1.0,0.19361520903323406,1.0
10.156289100646973,-6.147141456604004,0.3900432586669922,-0.0,-0.0,-1.0,0.19219954164488987,1.0
9.9679594039917,-6.195648193359375,0.3808615207672119,-0.0,-0.0,-1.0,0.16419029595570678,1.0
11.354528427124023,-5.573582649230957,0.5045702457427979,-0.0,-0.0,-1.0,0.09652002918015173,1.0
11.058775901794434,-5.965963363647461,0.40920424461364746,-0.0,-0.0,-1.0,0.27011845318222844,1.0
10.79843521118164,-6.1942949295043945,0.358898401260376,0.20830458973045082,-0.9032514689104033,-0.3751612743986607,0.16701965204574445,3.0
11.35909652709961,-6.189609527587891,0.34139299392700195,-0.0,-0.0,-1.0,0.159821160872735,2.0
10.883750915527344,-6.199000358581543,0.3544747829437256,-0.0,-0.0,-1.0,0.20088978802739638,2.0
9.940979957580566,-5.645427703857422,0.9483189582824707,-0.0,-0.0,-1.0,0.12470034002225219,2.0
10.713570594787598,-5.543576240539551,0.9519147872924805,-0.0,-0.0,-1.0,0.10183837492546398,1.0
10.317550659179688,-5.762834548950195,0.913386344909668,-0.0,-0.0,-1.0,0.1589461642220755,1.0
9.977213859558105,-6.168064117431641,0.8282520771026611,-0.0,-0.0,-1.0,0.20232162368164064,1.0
11.350564956665039,-5.952607154846191,0.8380980491638184,-0.0,-0.0,-1.0,0.10135929142325692,1.0
11.146997451782227,-6.262564659118652,0.7713067531585693,-0.0,-0.0,-1.0,0.21678617480251527,2.0
11.200220108032227,-6.321009635925293,1.1954107284545898,-0.0,-0.0,-1.0,0.0690501588647053,1.0
9.739505767822266,-4.537867546081543,0.045803070068359375,-0.0,-0.0,-1.0,0.15923446859338708,1.0
11.349617004394531,-5.185146331787109,0.26448535919189453,-0.0,-0.0,-1.0,0.18973175596323275,1.0
11.314401626586914,-5.051596641540527,0.2892179489135742,-0.0,-0.0,-1.0,0.2114865518160232,1.0
11.346029281616211,-4.431266784667969,0.3394317626953125,-0.0,-0.0,-1.0,0.14442729871055007,1.0
11.139009475708008,-4.505359649658203,0.3998746871948242,-0.0,-0.0,-1.0,0.17455340699274244,1.0
10.387035369873047,-5.852815628051758,0.19125938415527344,-0.0,-0.0,-1.0,0.12683191490176093,2.0
10.165706634521484,-6.07240104675293,0.22466087341308594,-0.0,-0.0,-1.0,0.15759491484501004,1.0
10.512864112854004,-5.427631378173828,0.215850830078125,-0.0,-0.0,-1.0,0.15239286189172618,1.0
10.526471138000488,-5.061000823974609,0.2646169662475586,-0.0,-0.0,-1.0,0.19105149223516257,1.0
10.602354049682617,-4.699719429016113,0.29300689697265625,-0.0,-0.0,-1.0,0.14338862744217323,1.0
9.877915382385254,-6.113361358642578,0.3036923408508301,-0.0,-0.0,-1.0,0.1727450259865275,1.0
9.902304649353027,-6.017889022827148,0.31087303161621094,-0.0,-0.0,-1.0,0.14849573730173846,2.0
10.260600090026855,-5.061949729919434,0.34491968154907227,-0.0,-0.0,-1.0,0.16247069064593112,1.0
9.783845901489258,-4.788460731506348,0.5282735824584961,-0.0,-0.0,-1.0,0.09030444946165307,1.0
