x,y,z,nx,ny,nz,curvature,density,label
9.49661922454834,27.126876831054688,-1.3857662677764893,-0.45963387427534114,-0.383914302842934,-0.8008411263735549,0.2568895849855094,3.0,0
9.75880241394043,27.20099449157715,-0.5822327136993408,-0.0,-0.0,-1.0,0.08677269499975093,1.0,0
9.493898391723633,27.251792907714844,-0.6006242036819458,-0.0,-0.0,-1.0,0.14991158672129187,2.0,0
8.659116744995117,27.844905853271484,-1.5360183715820312,-0.0,-0.0,-1.0,0.10464429492098576,2.0,0
8.399616241455078,27.655086517333984,-1.5513508319854736,-0.0,-0.0,-1.0,0.026116750518943636,2.0,0
9.71289348602295,26.733808517456055,-1.3504064083099365,-0.0,-0.0,-1.0,0.08871471443744945,1.0,0
9.515108108520508,27.129222869873047,-1.3975024223327637,-0.3613622650234113,-0.4045987949385139,-0.8400697164827762,0.1920086749732482,4.0,0
8.979532241821289,27.007503509521484,-1.4469244480133057,-0.0,-0.0,-1.0,0.1261718514674404,2.0,0
8.845600128173828,27.026063919067383,-1.4625368118286133,-0.0,-0.0,-1.0,0.19447813912024428,2.0,0
8.618602752685547,27.66835594177246,-1.5287268161773682,-0.0,-0.0,-1.0,0.05643423560950353,2.0,0
9.687962532043457,27.142147064208984,-0.6193447113037109,-0.0,-0.0,-1.0,0.09181427522331374,2.0,0
9.484450340270996,27.136600494384766,-0.6356569528579712,0.8417328973069563,-0.5398930959879776,0.0010837415528418069,0.1807405479557667,3.0,0
9.793136596679688,27.013599395751953,-1.08595609664917,-0.0,-0.0,-1.0,0.15917886253056562,1.0,0
9.465320587158203,27.020652770996094,-1.124406337738037,-0.0,-0.0,-1.0,0.2019318574630715,2.0,0
9.372618675231934,27.10198974609375,-1.1386194229125977,-0.0,-0.0,-1.0,0.10150342441378168,1.0,0
9.2893705368042,26.497806549072266,-1.1232733726501465,-0.0,-0.0,-1.0,0.15322256975722642,2.0,0
9.328404426574707,26.950170516967773,-1.1374220848083496,-0.0,-0.0,-1.0,0.06446295302847574,1.0,0
8.622343063354492,26.775466918945312,-1.2130370140075684,-0.0,-0.0,-1.0,0.12000710738863003,1.0,0
8.138818740844727,27.794830322265625,-1.3116354942321777,-0.0,-0.0,-1.0,0.09732834439250157,1.0,0
9.562926292419434,27.0411434173584,-0.38300633430480957,-0.0,-0.0,-1.0,0.10943101730722102,1.0,0
9.705636978149414,27.32358169555664,-0.919045090675354,-0.0,-0.0,-1.0,0.14282904768766405,1.0,0
9.629609107971191,27.111209869384766,-0.9146054983139038,-0.0,-0.0,-1.0,0.11000078655885957,2.0,0
10.072874069213867,27.20728874206543,-1.0652202367782593,0.9161388378358334,-0.31748238587035643,0.24473366027351998,0.24198355516002995,3.0,0
9.599370002746582,27.156116485595703,-1.1116224527359009,-0.0,-0.0,-1.0,0.22851578659175015,1.0,0
9.596098899841309,26.332630157470703,-1.0580371618270874,0.5838379536899208,-0.669521155228553,0.45921091726198104,0.14038648133179493,5.0,0
9.38723373413086,26.71302032470703,-1.105059266090393,0.25580882775245006,0.9419396141844268,-0.21751231430429488,0.10685812840063134,7.0,0
9.230157852172852,26.4132080078125,-1.102690577507019,0.5758136813647227,-0.8023288892245234,-0.1571844708263136,0.12763592977741103,3.0,0
8.365062713623047,28.00416374206543,-1.2987157106399536,-0.0,-0.0,-1.0,0.22290141229381924,2.0,0
7.77381706237793,27.022907257080078,-1.2994540929794312,-0.6478706810108464,0.24379363452886424,-0.7216843107964509,0.12989066481756092,3.0,0
9.757002830505371,27.212657928466797,-0.43374502658843994,0.37154220745769717,-0.7541084027383133,-0.541550463943049,0.12279960884026296,5.0,0
9.644619941711426,27.223295211791992,-0.443065881729126,0.8277910944809399,0.43384650044359413,0.35572337279253124,0.20616132466833517,6.0,0
9.789571762084961,26.763023376464844,-1.3758949041366577,-0.0,-0.0,-1.0,0.11564673212045798,1.0,0
9.780476570129395,27.049448013305664,-1.3944340944290161,-0.0,-0.0,-1.0,0.2172544089191847,1.0,0
9.207181930541992,27.03487205505371,-1.4779242277145386,-0.0,-0.0,-1.0,0.04510325965847479,1.0,0
9.426929473876953,26.428401947021484,-1.4103754758834839,-0.9831623447089293,-0.17884208845588562,-0.03751414857327424,0.2631853073047497,3.0,0
9.30688190460205,26.674728393554688,-1.442294955253601,-0.0,-0.0,-1.0,0.12794148854107967,1.0,0
9.13552188873291,26.889339447021484,-1.480111002922058,-0.0,-0.0,-1.0,0.07856836400306988,1.0,0
10.047737121582031,27.152088165283203,-0.7380319833755493,-0.3930450859650451,0.46495744750729373,-0.7933033041694912,0.2117803175603132,3.0,0
9.888726234436035,27.130443572998047,-0.7560089826583862,-0.0,-0.0,-1.0,0.10919206307427182,1.0,0
9.648780822753906,27.252490997314453,-0.789124608039856,-0.0,-0.0,-1.0,0.13743843020630064,2.0,0
9.957484245300293,27.075336456298828,-1.191796064376831,0.8446258128608877,0.3428088332852162,-0.4112047422765374,0.1219594634831192,3.0,0
9.603655815124512,27.180360794067383,-1.2487688064575195,0.20310827919882307,0.8044393377935571,-0.5582332655182383,0.21558792753452574,7.0,0
9.460914611816406,27.105979919433594,-1.2646710872650146,-0.0,-0.0,-1.0,0.16779404359165884,2.0,0
8.324851036071777,27.89484977722168,-1.4756789207458496,-0.0,-0.0,-1.0,0.12661947631990073,2.0,0
9.359469413757324,26.404531478881836,-1.2382011413574219,-0.0,-0.0,-1.0,0.15020874798429903,2.0,0
8.202271461486816,27.710655212402344,-1.482461929321289,-0.0,-0.0,-1.0,0.07778733771451127,2.0,0
8.206418991088867,27.002620697021484,-1.4412262439727783,-0.0,-0.0,-1.0,0.16909806119193346,2.0,0
8.042468070983887,27.3526668548584,-1.485013723373413,-0.0,-0.0,-1.0,0.07816316753679778,1.0,0
7.725865364074707,26.920745849609375,-1.5078437328338623,-0.0,-0.0,-1.0,0.12158284890914549,1.0,0
9.553030014038086,27.19551658630371,-0.6594858169555664,-0.0,-0.0,-1.0,0.23862712725694785,2.0,0
8.85406494140625,28.045421600341797,-0.7733910083770752,-0.0,-0.0,-1.0,0.07795673323744735,2.0,0
8.482169151306152,27.95475196838379,-1.2917847633361816,-0.0,-0.0,-1.0,0.2497054228810021,2.0,0
8.2391357421875,27.95526885986328,-1.3276848793029785,0.053611263605574756,0.4077582321820279,-0.9115147044904985,0.09940255219377817,3.0,0
7.717347145080566,27.138484954833984,-1.3644425868988037,-0.0,-0.0,-1.0,0.06036140157756187,1.0,0
9.982667922973633,27.16970443725586,-1.028571367263794,-0.0,-0.0,-1.0,0.23260375494359306,2.0,0
9.546186447143555,27.19266128540039,-1.0936717987060547,0.6580575120204035,-0.6526627416013816,0.37548855721431074,0.1808185828504304,3.0,0
9.519227027893066,26.366470336914062,-1.0540392398834229,-0.0,-0.0,-1.0,0.13966348318504715,2.0,0
9.346966743469238,26.739341735839844,-1.0989480018615723,0.20970401416589965,0.9481166183266345,-0.2389541891149316,0.06880966048730237,6.0,0
9.98751449584961,27.275554656982422,-0.482174277305603,-0.0,-0.0,-1.0,0.1027982109201108,1.0,0
9.488492012023926,27.226266860961914,-0.5396239757537842,0.38044091546902403,-0.9243968414922705,0.027480707345427628,0.10982847050571919,3.0,0
8.210639953613281,27.851280212402344,-1.4504280090332031,-0.49875208009550676,-0.06765251880033143,-0.8641003988544248,0.12991225240806284,4.0,0
7.871698379516602,27.504289627075195,-1.4736549854278564,-0.0,-0.0,-1.0,0.11106512250563588,1.0,0
7.98715877532959,27.002239227294922,-1.4173965454101562,-0.0,-0.0,-1.0,0.13246416997130747,1.0,0
7.787703514099121,27.17615509033203,-1.461271047592163,-0.0,-0.0,-1.0,0.10371867316014322,1.0,0
10.165916442871094,27.055463790893555,-1.0953326225280762,-0.0,-0.0,-1.0,0.19495608239783144,1.0,0
9.811306953430176,27.181020736694336,-1.1578748226165771,-0.0,-0.0,-1.0,0.14598179638617748,2.0,0
9.49528980255127,27.217334747314453,-1.2072579860687256,0.7016425693069671,0.6447512537962672,0.30330434494820374,0.21050224167878334,5.0,0
9.601176261901855,27.062314987182617,-1.1786010265350342,-0.0,-0.0,-1.0,0.23917776800569998,2.0,0
9.47368335723877,27.098373413085938,-1.2004623413085938,-0.0,-0.0,-1.0,0.20020982048684158,2.0,0
9.526269912719727,26.35601043701172,-1.1323626041412354,-0.0,-0.0,-1.0,0.06670632979653765,2.0,0
9.360759735107422,26.633377075195312,-1.1793744564056396,-0.0,-0.0,-1.0,0.11969841726425022,2.0,0
9.123027801513672,26.36376190185547,-1.1944541931152344,-0.0,-0.0,-1.0,0.11397115247124877,2.0,0
9.805506706237793,27.191875457763672,-0.6381286382675171,0.8708268367534235,0.29345988947536117,-0.39438802423391967,0.06669178191377582,3.0,0
8.241968154907227,27.889873504638672,-1.461967945098877,-0.0,-0.0,-1.0,0.17367268319533577,2.0,0
8.101099967956543,27.685686111450195,-1.4798648357391357,0.4960222641163444,-0.34578150258833645,-0.7964904682220922,0.0749151808285731,3.0,0
8.151611328125,27.071041107177734,-1.4434542655944824,-0.0,-0.0,-1.0,0.20287608673529633,2.0,0
7.953731536865234,27.01779556274414,-1.4808835983276367,-0.0,-0.0,-1.0,0.13900057139761368,1.0,0
10.067307472229004,27.18219566345215,-1.0769343376159668,0.9161388378358334,-0.31748238587035643,0.24473366027351998,0.26618034754986014,3.0,0
9.722637176513672,27.414161682128906,-1.1544861793518066,-0.0,-0.0,-1.0,0.17974720842395436,1.0,0
9.775907516479492,27.186851501464844,-1.1323204040527344,-0.0,-0.0,-1.0,0.19376889530144045,2.0,0
9.47789478302002,27.2158145904541,-1.190730333328247,0.7264420448672549,0.6446099733209255,-0.2382434421852508,0.19909207323624706,5.0,0
8.917685508728027,27.319236755371094,-1.3037476539611816,-0.0,-0.0,-1.0,0.18184083524738512,1.0,0
9.303776741027832,26.596904754638672,-1.1953105926513672,-0.0,-0.0,-1.0,0.10860717510781007,2.0,0
9.254929542541504,26.37198257446289,-1.1955060958862305,-0.0,-0.0,-1.0,0.09153598476932445,2.0,0
8.882598876953125,26.730823516845703,-1.2842140197753906,-0.0,-0.0,-1.0,0.09979707647146392,2.0,0
9.812135696411133,27.171384811401367,-0.6387383937835693,0.8708268367534235,0.29345988947536117,-0.39438802423391967,0.06669178191377585,3.0,0
9.482476234436035,27.199668884277344,-0.6931753158569336,-0.0,-0.0,-1.0,0.1837946190301941,1.0,0
8.276945114135742,27.81864356994629,-1.5353071689605713,-0.0,-0.0,-1.0,0.12279231467433877,1.0,0
8.201290130615234,27.72901153564453,-1.545621395111084,-0.0,-0.0,-1.0,0.04519425674095954,2.0,0
8.091625213623047,27.510540008544922,-1.5561151504516602,-0.0,-0.0,-1.0,0.026862344932331344,2.0,0
7.777682304382324,26.988828659057617,-1.5964128971099854,-0.0,-0.0,-1.0,0.21577217598443774,1.0,0
10.015975952148438,27.27531623840332,-1.1456139087677002,-0.0,-0.0,-1.0,0.14733725367949688,1.0,0
9.917759895324707,27.173336029052734,-1.1582915782928467,-0.0,-0.0,-1.0,0.17083175152269833,1.0,0
9.503460884094238,27.200241088867188,-1.2440910339355469,0.944999122646813,-0.10130482534958309,0.31098873059589266,0.19460387945278892,4.0,0
9.33543586730957,26.666425704956055,-1.2464003562927246,-0.0,-0.0,-1.0,0.08865003416236923,2.0,0
9.061380386352539,27.04464340209961,-1.325735330581665,-0.0,-0.0,-1.0,0.16519380138358764,1.0,0
8.123369216918945,27.29848289489746,-1.5377774238586426,-0.0,-0.0,-1.0,0.0668533928635501,2.0,0
9.47301959991455,26.398099899291992,-1.2023298740386963,-0.0,-0.0,-1.0,0.10853792834357838,1.0,0
9.164323806762695,26.435991287231445,-1.2701776027679443,-0.0,-0.0,-1.0,0.08074961718074158,1.0,0
8.108651161193848,26.959487915039062,-1.523425817489624,-0.0,-0.0,-1.0,0.1456031723649095,2.0,0
8.202719688415527,26.578079223632812,-1.484619140625,-0.0,-0.0,-1.0,0.07483978688533774,1.0,0
7.931992530822754,26.50759506225586,-1.5407886505126953,-0.0,-0.0,-1.0,0.048577864336038265,1.0,0
7.800014495849609,25.657983779907227,-1.5384466648101807,-0.0,-0.0,-1.0,0.022030088973772618,1.0,0
8.561380386352539,27.825664520263672,-0.9749040603637695,-0.0,-0.0,-1.0,0.21026857005101277,1.0,0
9.843384742736816,27.1541748046875,-0.7214020490646362,-0.0,-0.0,-1.0,0.10122992688566528,1.0,0
9.546692848205566,27.292537689208984,-0.7791838645935059,0.5938799732060028,0.2095320933858921,-0.7767901127500034,0.2633936360951837,3.0,0
10.002894401550293,27.185468673706055,-0.6951473951339722,-0.0,-0.0,-1.0,0.18962882663085445,2.0,0
9.753833770751953,27.246170043945312,-0.2909533977508545,-0.0,-0.0,-1.0,0.15823446931001206,1.0,0
8.60732364654541,27.745594024658203,-1.5374641418457031,-0.0,-0.0,-1.0,0.06441221880439409,1.0,0
8.413918495178223,27.648357391357422,-1.5666661262512207,-0.0,-0.0,-1.0,0.026211863204029236,2.0,0
8.64411449432373,27.050735473632812,-1.4607605934143066,-0.0,-0.0,-1.0,0.2569588804497961,1.0,0
8.2257661819458,27.25307846069336,-1.5671370029449463,-0.0,-0.0,-1.0,0.06435379775974533,1.0,0
8.078272819519043,26.919300079345703,-1.5682435035705566,-0.0,-0.0,-1.0,0.0933617256449701,1.0,0
8.072096824645996,26.542926788330078,-1.5374798774719238,-0.0,-0.0,-1.0,0.056406824005911536,1.0,0
7.781638145446777,25.70646095275879,-1.5392765998840332,-0.0,-0.0,-1.0,0.024028454444710655,1.0,0
9.781685829162598,27.28874397277832,-1.2563838958740234,-0.0,-0.0,-1.0,0.23747849992678358,1.0,0
9.515867233276367,27.293506622314453,-1.308889627456665,-0.0,-0.0,-1.0,0.11182208737897567,1.0,0
10.17920207977295,27.035842895507812,-1.151296854019165,-0.0,-0.0,-1.0,0.15841631408712156,1.0,0
9.840208053588867,27.091999053955078,-1.2235188484191895,-0.0,-0.0,-1.0,0.133064702151391,1.0,0
9.558354377746582,27.163654327392578,-1.286536693572998,-0.0,-0.0,-1.0,0.19906262928863205,2.0,0
9.348661422729492,26.624996185302734,-1.273768424987793,-0.0,-0.0,-1.0,0.14188386933125666,1.0,0
9.241422653198242,26.360469818115234,-1.2711091041564941,-0.0,-0.0,-1.0,0.11058613330678482,2.0,0
9.232495307922363,25.79177474975586,-1.2224905490875244,-0.0,-0.0,-1.0,0.16560796692618682,2.0,0
9.923462867736816,27.17947769165039,-0.7965078353881836,-0.0,-0.0,-1.0,0.1370828400415529,1.0,0
9.515242576599121,27.314990997314453,-0.8767743110656738,-0.0,-0.0,-1.0,0.1883087399698729,2.0,0
9.300257682800293,27.207788467407227,-0.9046976566314697,-0.0,-0.0,-1.0,0.11625961741502748,1.0,0
9.745949745178223,26.44223403930664,-0.7667021751403809,-0.0,-0.0,-1.0,0.0741538321783155,1.0,0
8.64989948272705,26.56112289428711,-0.9726331233978271,-0.0,-0.0,-1.0,0.0598744900800598,1.0,0
9.65331745147705,27.24567222595215,-0.42384421825408936,0.8277910944809399,0.43384650044359413,0.35572337279253124,0.12710042470333408,6.0,0
8.425440788269043,28.084463119506836,-1.4286707639694214,-0.0,-0.0,-1.0,0.15935702455141765,1.0,0
8.275810241699219,27.96651840209961,-1.441135048866272,-0.49384307221032303,0.8146171329827437,-0.304167629245526,0.24759003590790193,4.0,0
8.676924705505371,27.80731964111328,-1.3499528169631958,-0.0,-0.0,-1.0,0.2517412305112672,1.0,0
8.592181205749512,27.874149322509766,-0.923190712928772,-0.0,-0.0,-1.0,0.14948157563284642,2.0,0
9.981647491455078,27.201068878173828,-1.0468932390213013,0.9928842774017893,-0.03431061017425666,-0.11403330091599026,0.22263500370833714,3.0,0
9.593544006347656,27.260467529296875,-1.1209050416946411,-0.0,-0.0,-1.0,0.21667129562521975,2.0,0
9.448781967163086,27.206212997436523,-1.1394201517105103,-0.36820517401988667,0.16386577146379822,-0.915190121650993,0.14349308854870657,3.0,0
9.334833145141602,26.81041145324707,-1.1118921041488647,0.8955694627169684,0.4271720937016773,-0.12441599499809358,0.08101971144647045,3.0,0
8.835217475891113,26.85761070251465,-1.2095588445663452,-0.0,-0.0,-1.0,0.112300151286381,1.0,0
9.581380844116211,26.416980743408203,-1.0207306146621704,0.04778355617901616,-0.5587902789690384,-0.8279312507017665,0.14036991107819444,4.0,0
9.179790496826172,26.486473083496094,-1.1032930612564087,-0.44338720486052746,-0.8584869944975195,-0.2576972387213032,0.16218620632471586,4.0,0
8.940409660339355,26.39893341064453,-1.1390513181686401,-0.0,-0.0,-1.0,0.07867726710632167,2.0,0
9.922231674194336,27.223302841186523,-0.6602641344070435,-0.0,-0.0,-1.0,0.1285296827168853,1.0,0
9.736692428588867,27.22896957397461,-0.6879652738571167,-0.0,-0.0,-1.0,0.1091974809490951,2.0,0
9.43271541595459,27.271448135375977,-0.7374163866043091,-0.0,-0.0,-1.0,0.1269767945268202,1.0,0
9.23646354675293,27.970102310180664,-1.5596290826797485,-0.0,-0.0,-1.0,0.1917837385791024,1.0,0
8.875944137573242,27.712862014770508,-1.5665394067764282,-0.0,-0.0,-1.0,0.14663845943485054,1.0,0
8.818439483642578,27.531864166259766,-1.5424236059188843,-0.0,-0.0,-1.0,0.11738141562413984,1.0,0
8.288480758666992,27.166358947753906,-1.5652698278427124,-0.0,-0.0,-1.0,0.05960045035925499,1.0,0
9.714811325073242,27.244869232177734,-1.3497334718704224,-0.0,-0.0,-1.0,0.17873042509812045,1.0,0
9.488021850585938,27.191082000732422,-1.3740423917770386,-0.0,-0.0,-1.0,0.20238252521755182,2.0,0
8.843421936035156,27.075096130371094,-1.455858826637268,-0.0,-0.0,-1.0,0.20888499224492593,2.0,0
8.721508026123047,27.066944122314453,-1.4746907949447632,-0.0,-0.0,-1.0,0.23801143202229735,1.0,0
8.213659286499023,26.954578399658203,-1.5420466661453247,-0.0,-0.0,-1.0,0.1296821661927502,2.0,0
7.786406517028809,26.780826568603516,-1.5893932580947876,-0.0,-0.0,-1.0,0.12624520369987138,1.0,0
9.694635391235352,26.924171447753906,-1.2921103239059448,-0.0,-0.0,-1.0,0.12112663712442494,2.0,0
8.180543899536133,26.52081298828125,-1.4753657579421997,-0.0,-0.0,-1.0,0.07257012831845595,1.0,0
8.609092712402344,27.85239601135254,-1.1968334913253784,-0.0,-0.0,-1.0,0.21196494947560782,1.0,0
10.082229614257812,27.2111759185791,-1.0951992273330688,0.9161388378358334,-0.31748238587035643,0.24473366027351998,0.2213973721588472,3.0,0
9.835790634155273,27.162635803222656,-0.9258068799972534,-0.0,-0.0,-1.0,0.1837002286585501,1.0,0
9.453742027282715,27.102340698242188,-0.966119647026062,-0.0,-0.0,-1.0,0.19640114502815859,2.0,0
8.715866088867188,26.816282272338867,-1.025194525718689,-0.0,-0.0,-1.0,0.07481943672654559,1.0,0
9.95255184173584,27.063711166381836,-1.2794798612594604,0.7112166166112754,0.5601095048750449,0.4247920277084334,0.10228996336638953,5.0,0
9.417976379394531,26.52231788635254,-1.2623730897903442,-0.0,-0.0,-1.0,0.16067944953494473,2.0,0
9.220476150512695,26.331321716308594,-1.2613872289657593,-0.0,-0.0,-1.0,0.10821447954081337,2.0,0
8.874106407165527,28.050495147705078,-0.7614883184432983,-0.0,-0.0,-1.0,0.07795673323744735,2.0,0
8.646495819091797,27.867305755615234,-0.7631086111068726,-0.0,-0.0,-1.0,0.0777574645959464,2.0,0
9.700776100158691,27.215503692626953,-0.5627323389053345,0.6873213095517875,-0.7165110769223422,-0.11916918260859843,0.09403382351753849,3.0,0
9.504314422607422,27.23139762878418,-0.5860793590545654,0.3438683497153224,-0.9056966172942134,-0.24792780297070385,0.14568149583377216,4.0,0
9.763635635375977,26.38747787475586,-0.8126882314682007,0.803450638440461,0.43476919299045785,-0.40674662926205263,0.0741538321783156,3.0,0
10.129852294921875,27.48430633544922,-0.532670259475708,-0.0,-0.0,-1.0,0.1332642834467627,1.0,0
9.721348762512207,27.257265090942383,-0.5275031328201294,0.9867673480668707,-0.10557753802127677,0.12305927130631611,0.0987073540714579,4.0,0
9.523300170898438,27.240549087524414,-0.5410796403884888,0.38044091546902403,-0.9243968414922705,0.027480707345427628,0.11634003748975526,3.0,0
9.706905364990234,27.21463394165039,-0.5221517086029053,0.9264621067447428,-0.37492670104385506,-0.033135081265396174,0.1158110789969542,4.0,0
9.790882110595703,27.277299880981445,-0.3748447895050049,-0.0,-0.0,-1.0,0.15952304743520315,1.0,0
9.712162017822266,27.29825210571289,-0.5081980228424072,-0.0,-0.0,-1.0,0.09862889753106109,2.0,0
10.17306900024414,27.288562774658203,-0.5125384330749512,-0.0,-0.0,-1.0,0.1429970459911229,1.0,0
8.696569442749023,27.895519256591797,-1.0062050819396973,-0.0,-0.0,-1.0,0.13712892845752186,1.0,0
9.659904479980469,27.68645477294922,-0.9594824314117432,-0.0,-0.0,-1.0,0.17750778909243764,1.0,0
9.584322929382324,27.365253448486328,-0.8919248580932617,-0.0,-0.0,-1.0,0.2053258817007501,1.0,0
9.516850471496582,27.14614486694336,-0.8463997840881348,-0.0,-0.0,-1.0,0.18347521280525256,1.0,0
9.901773452758789,27.249116897583008,-0.8688483238220215,-0.0,-0.0,-1.0,0.13691582512053665,1.0,0
10.12657356262207,27.32315444946289,-0.886385440826416,-0.0,-0.0,-1.0,0.14161314300619318,2.0,0
9.65653133392334,27.285202026367188,-0.4738917350769043,-0.0,-0.0,-1.0,0.11559886953553235,2.0,0
10.175140380859375,27.517507553100586,-0.5254274606704712,-0.0,-0.0,-1.0,0.13326428344676275,1.0,0
9.784972190856934,27.268342971801758,-0.4729055166244507,-0.0,-0.0,-1.0,0.12536139325086465,1.0,0
7.757002830505371,27.122316360473633,-1.3292490243911743,-0.0,-0.0,-1.0,0.07054977813490716,1.0,0
7.974269866943359,26.531129837036133,-1.627510666847229,-0.0,-0.0,-1.0,0.05350007897975941,1.0,0
7.720361232757568,26.446746826171875,-1.6292248964309692,-0.0,-0.0,-1.0,0.037637294326911125,1.0,0
7.721781253814697,25.747249603271484,-1.4676851034164429,-0.0,-0.0,-1.0,0.02760532929963934,1.0,0
8.31456184387207,26.54283905029297,-1.6036170721054077,-0.11108385122379423,-0.6701153212580958,-0.7338977001002582,0.05433826009160523,3.0,0
8.568254470825195,26.5985164642334,-1.5984283685684204,-0.0,-0.0,-1.0,0.04364283255433395,2.0,0
8.290485382080078,26.242233276367188,-1.6421376466751099,-0.0,-0.0,-1.0,0.07384999476438514,2.0,0
9.477189064025879,27.2344913482666,-1.1457858085632324,0.708022905505018,-0.6481166680706409,0.28044313122136405,0.16021793914759,3.0,0
9.211694717407227,26.570802688598633,-1.1027765274047852,-0.0,-0.0,-1.0,0.12907287703220627,1.0,0
7.729036331176758,26.95478630065918,-1.249687671661377,-0.0,-0.0,-1.0,0.06853378692213831,2.0,0
9.621490478515625,26.35637664794922,-1.0770509243011475,0.7742969872989176,-0.6246178527965605,-0.10157122342294853,0.13078925868864388,4.0,0
9.226738929748535,26.486560821533203,-1.1145002841949463,0.01230597110903927,-0.9989675657974207,0.0437306020978355,0.186736492437453,3.0,0
9.66942024230957,27.18280792236328,-1.0239744186401367,-0.0,-0.0,-1.0,0.21490352252418576,2.0,0
10.076122283935547,27.167016983032227,-1.2454493045806885,0.13090524751323504,-0.5792877661390237,-0.8045430381124172,0.13943084996077942,5.0,0
9.765920639038086,27.1380672454834,-1.2611944675445557,-0.0,-0.0,-1.0,0.24637844776024043,1.0,0
9.485010147094727,27.078092575073242,-1.2716176509857178,-0.0,-0.0,-1.0,0.21385045286117738,2.0,0
9.23856258392334,26.36604881286621,-1.2018296718597412,-0.0,-0.0,-1.0,0.09153598476932442,2.0,0
8.475785255432129,28.003450393676758,-1.4482471942901611,-0.0,-0.0,-1.0,0.22130977106551983,1.0,0
8.30512523651123,27.891756057739258,-1.446265459060669,-0.0,-0.0,-1.0,0.16994909000169117,2.0,0
9.915045738220215,27.235454559326172,-1.0680339336395264,-0.0,-0.0,-1.0,0.16756735132846046,1.0,0
9.55975341796875,27.385879516601562,-1.1062471866607666,-0.0,-0.0,-1.0,0.23204955042443948,1.0,0
8.763835906982422,26.454879760742188,-1.042100191116333,-0.0,-0.0,-1.0,0.13177984217111072,1.0,0
9.517267227172852,27.055583953857422,-0.9222848415374756,-0.0,-0.0,-1.0,0.11993039388638621,2.0,0
9.956808090209961,27.303234100341797,-0.8028841018676758,-0.0,-0.0,-1.0,0.1715948339216491,1.0,0
10.100934982299805,27.245498657226562,-0.781306266784668,-0.0,-0.0,-1.0,0.2053230350365011,1.0,0
9.670923233032227,27.267532348632812,-0.8112447261810303,-0.0,-0.0,-1.0,0.18205287675152818,2.0,0
9.737190246582031,27.17106819152832,-0.8088898658752441,-0.0,-0.0,-1.0,0.11579663364375474,1.0,0
10.167013168334961,27.23232650756836,-1.193044662475586,-0.0,-0.0,-1.0,0.1699890583347033,1.0,0
9.77280044555664,27.16010284423828,-1.2058398723602295,-0.0,-0.0,-1.0,0.1854483936219069,1.0,0
9.584686279296875,27.082908630371094,-1.2065231800079346,0.6540586687796528,0.7395121839542512,0.15915083278890596,0.21933333515832937,3.0,0
9.667152404785156,27.253931045532227,-1.224341869354248,-0.0,-0.0,-1.0,0.1811560438642382,1.0,0
8.798688888549805,27.979639053344727,-1.372422218322754,-0.0,-0.0,-1.0,0.24982842488009224,1.0,0
8.580169677734375,28.1142578125,-1.4038658142089844,-0.0,-0.0,-1.0,0.23776929779510378,1.0,0
8.446996688842773,27.961902618408203,-1.3923149108886719,-0.0,-0.0,-1.0,0.22173669388166384,2.0,0
8.290841102600098,27.993633270263672,-1.4065752029418945,0.4821514622479496,0.5750951026680096,-0.6609051296059333,0.19355796931466038,3.0,0
7.797692775726318,26.972993850708008,-1.305562973022461,0.49282552063208485,-0.05875505236226714,-0.8681421830758032,0.19084503579046835,5.0,0
10.079182624816895,27.09836196899414,-1.180281639099121,-0.0,-0.0,-1.0,0.1815908403739801,1.0,0
9.590723991394043,27.319284439086914,-0.6882572174072266,-0.0,-0.0,-1.0,0.13313985297582095,2.0,0
8.677789688110352,27.873626708984375,-0.8013079166412354,-0.0,-0.0,-1.0,0.07775746459594628,2.0,0
10.000292778015137,27.131025314331055,-1.1897971630096436,0.5624124684651332,-0.5548844074755348,-0.6130216225024043,0.15290609738848976,3.0,0
9.689926147460938,27.208419799804688,-1.217639684677124,-0.0,-0.0,-1.0,0.18005639486613081,1.0,0
9.560866355895996,27.104759216308594,-1.2101621627807617,0.6755822426436535,0.7372690524096196,0.00479351474321591,0.2563750808430915,3.0,0
8.635002136230469,28.074142456054688,-1.4015429019927979,-0.0,-0.0,-1.0,0.20641612276949664,1.0,0
8.294989585876465,27.985937118530273,-1.410245656967163,0.4821514622479496,0.5750951026680096,-0.6609051296059333,0.19355796931466043,3.0,0
7.728497505187988,26.955245971679688,-1.3023180961608887,-0.4035308015784758,0.6106453102649607,-0.6813774264156709,0.1312933676886922,5.0,0
7.83729362487793,27.16801643371582,-1.324897050857544,-0.0,-0.0,-1.0,0.051165888322531085,1.0,0
9.247296333312988,26.485671997070312,-1.1405892372131348,0.19506096585917782,-0.9355905007308027,0.2943155356762029,0.15668731407131298,4.0,0
9.205596923828125,26.70567512512207,-1.5620460510253906,-0.0,-0.0,-1.0,0.12639196984836434,1.0,0
10.106790542602539,27.097597122192383,-0.7034890651702881,-0.0,-0.0,-1.0,0.19621994563697476,1.0,0
9.502124786376953,27.137296676635742,-0.7322807312011719,-0.0,-0.0,-1.0,0.2404628763778419,2.0,0
9.581977844238281,27.30010414123535,-0.7501664161682129,0.4770884779442527,0.4354974924089912,-0.7633665687717253,0.1670797577966334,4.0,0
8.669095993041992,27.816511154174805,-0.8556919097900391,-0.0,-0.0,-1.0,0.08421089249765927,2.0,0
9.37145709991455,26.166584014892578,-1.4508461952209473,-0.0,-0.0,-1.0,0.14916692867950468,1.0,0
9.192028999328613,26.61861801147461,-1.534132480621338,-0.0,-0.0,-1.0,0.12003807819054953,1.0,0
9.037652969360352,26.504623413085938,-1.5188727378845215,-0.0,-0.0,-1.0,0.19594996223490405,1.0,0
8.446722984313965,26.762859344482422,-1.5821471214294434,-0.0,-0.0,-1.0,0.028233255796506596,1.0,0
8.106047630310059,26.868871688842773,-1.6122231483459473,-0.0,-0.0,-1.0,0.05945772189589129,1.0,0
7.76976203918457,26.93508529663086,-1.635995864868164,-0.0,-0.0,-1.0,0.20078222762798387,1.0,0
10.077030181884766,27.1574764251709,-0.749387264251709,-0.3930450859650451,0.46495744750729373,-0.7933033041694912,0.23060932931014141,3.0,0
10.011014938354492,27.104351043701172,-1.0415592193603516,-0.0,-0.0,-1.0,0.1780520750163825,1.0,0
9.56287956237793,27.21773910522461,-1.0793375968933105,0.6580575120204035,-0.6526627416013816,0.37548855721431074,0.16893002357727088,3.0,0
9.690288543701172,26.44373893737793,-0.9544248580932617,-0.0,-0.0,-1.0,0.04085127257079816,1.0,0
8.739400863647461,26.507156372070312,-1.0103163719177246,-0.0,-0.0,-1.0,0.0703268188831648,1.0,0
8.583907127380371,28.12853240966797,-1.4774773120880127,-0.0,-0.0,-1.0,0.24651886017628424,2.0,0
8.382203102111816,28.0280704498291,-1.4685704708099365,-0.0,-0.0,-1.0,0.22719491257067637,2.0,0
10.041597366333008,27.15764045715332,-1.259723424911499,0.7217604952521335,-0.18360233712692517,-0.6673469632019957,0.12548004633729595,6.0,0
9.571642875671387,26.385540008544922,-1.1439862251281738,-0.0,-0.0,-1.0,0.07461779809648429,2.0,0
9.617030143737793,27.164161682128906,-1.2749745845794678,0.9991368278260043,-0.037838584387485025,0.01714178559372173,0.16116028018386017,5.0,0
9.423375129699707,26.65483856201172,-1.1950368881225586,-0.0,-0.0,-1.0,0.10058097837179848,2.0,0
8.758949279785156,27.0108699798584,-1.2804758548736572,-0.08398710596075566,-0.3506264481697907,-0.9327417970028866,0.25186572560100795,3.0,0
10.098428726196289,27.12600326538086,-1.4598519802093506,-0.0,-0.0,-1.0,0.2018332420643034,1.0,0
9.910475730895996,27.491365432739258,-1.5393650531768799,-0.0,-0.0,-1.0,0.03624475660419847,1.0,0
9.600208282470703,26.371137619018555,-1.3454883098602295,-0.0,-0.0,-1.0,0.09949657198535133,2.0,0
9.71697998046875,26.982810974121094,-1.4543108940124512,-0.0,-0.0,-1.0,0.17268444200742067,1.0,0
9.4207124710083,26.45451545715332,-1.3719332218170166,-0.9831623447089293,-0.17884208845588562,-0.03751414857327424,0.23077066794599058,3.0,0
9.12536334991455,27.027536392211914,-1.4983527660369873,-0.0,-0.0,-1.0,0.054486868373110904,1.0,0
8.865701675415039,26.952072143554688,-1.5005886554718018,-0.0,-0.0,-1.0,0.1326798041305871,2.0,0
8.346803665161133,26.967443466186523,-1.5378425121307373,-0.0,-0.0,-1.0,0.050419856626521146,1.0,0
8.631614685058594,27.32281494140625,-1.5858418941497803,-0.0,-0.0,-1.0,0.00943589203585171,1.0,0
8.124076843261719,26.973068237304688,-1.554347276687622,-0.0,-0.0,-1.0,0.14560317236490944,2.0,0
7.9547929763793945,27.22261619567871,-1.613412618637085,-0.0,-0.0,-1.0,0.08930646900530254,2.0,0
7.7845048904418945,27.039691925048828,-1.5911715030670166,-0.0,-0.0,-1.0,0.1668936796280536,2.0,0
9.605682373046875,27.15180015563965,-0.7280421257019043,-0.0,-0.0,-1.0,0.18679060019953053,2.0,0
8.871654510498047,28.019872665405273,-0.9051439762115479,-0.0,-0.0,-1.0,0.10161102905032235,1.0,0
10.033214569091797,27.149057388305664,-1.2543761730194092,0.7217604952521335,-0.18360233712692517,-0.6673469632019957,0.14314108035929457,6.0,0
9.564468383789062,27.171499252319336,-1.2746930122375488,0.2543767851717747,0.7329532076861646,-0.6309295099361218,0.24358512998446555,4.0,0
8.823657989501953,27.782867431640625,-1.419121503829956,-0.0,-0.0,-1.0,0.22795444019102923,2.0,0
8.556404113769531,28.117055892944336,-1.4937384128570557,-0.0,-0.0,-1.0,0.24988989093096836,2.0,0
8.279576301574707,27.957212448120117,-1.4759652614593506,-0.0,-0.0,-1.0,0.2480245475506866,2.0,0
9.600431442260742,26.35121726989746,-1.1183228492736816,0.8997772909188649,-0.20445348930822813,-0.3854861832237288,0.12804923976884616,4.0,0
9.295299530029297,26.57111358642578,-1.1712205410003662,-0.0,-0.0,-1.0,0.09421282595548888,2.0,0
8.772311210632324,26.97721290588379,-1.2690269947052002,-0.0,-0.0,-1.0,0.21633517852461032,2.0,0
7.789300918579102,26.961347579956055,-1.3115291595458984,0.49282552063208485,-0.05875505236226714,-0.8681421830758032,0.19084503579046833,5.0,0
10.09216022491455,27.374094009399414,-0.5618996620178223,0.07551257301824879,0.8129082070121911,-0.5774756257093357,0.18203134966445556,3.0,0
9.452181816101074,27.266374588012695,-0.5677592754364014,-0.0,-0.0,-1.0,0.12221408156086455,2.0,0
8.94067096710205,28.091129302978516,-0.713637113571167,-0.0,-0.0,-1.0,0.10175668943400373,1.0,0
10.107253074645996,27.14811897277832,-1.4078171253204346,-0.0,-0.0,-1.0,0.2121596160303984,1.0,0
9.997390747070312,27.69487762451172,-1.5219476222991943,-0.0,-0.0,-1.0,0.13511586093474268,1.0,0
9.657666206359863,27.20421028137207,-1.4292042255401611,-0.0,-0.0,-1.0,0.12072286454692077,1.0,0
9.312381744384766,27.933895111083984,-1.5877587795257568,-0.0,-0.0,-1.0,0.17436653691345272,1.0,0
8.697129249572754,27.716054916381836,-1.5631401538848877,-0.0,-0.0,-1.0,0.09828620988436772,1.0,0
8.965994834899902,27.94970703125,-1.6016895771026611,-0.0,-0.0,-1.0,0.06763895125654926,1.0,0
8.525364875793457,27.729856491088867,-1.5723168849945068,-0.0,-0.0,-1.0,0.04457943210038671,1.0,0
8.38620662689209,27.78310203552246,-1.5886189937591553,-0.0,-0.0,-1.0,0.04957078188474618,1.0,0
8.056632041931152,27.46369171142578,-1.5370585918426514,-0.0,-0.0,-1.0,0.03328862134112263,1.0,0
7.822077751159668,27.924222946166992,-1.641664743423462,-0.0,-0.0,-1.0,0.04149309655253413,2.0,0
10.100391387939453,27.030174255371094,-1.383960485458374,-0.0,-0.0,-1.0,0.22433492270909952,2.0,0
9.39493465423584,26.392515182495117,-1.2700285911560059,-0.0,-0.0,-1.0,0.20258508095225405,2.0,0
9.398427963256836,26.71649742126465,-1.3360998630523682,-0.0,-0.0,-1.0,0.16291355754006245,1.0,0
9.137884140014648,26.328014373779297,-1.2641863822937012,-0.0,-0.0,-1.0,0.09637010253210475,1.0,0
8.608020782470703,27.806350708007812,-0.8677291870117188,-0.0,-0.0,-1.0,0.08632058811340707,1.0,0
9.869969367980957,27.733182907104492,-1.5268120765686035,-0.0,-0.0,-1.0,0.14569748371269065,1.0,0
8.979223251342773,27.72926902770996,-1.5562825202941895,-0.0,-0.0,-1.0,0.09354197298451007,1.0,0
8.63216781616211,27.627235412597656,-1.5479531288146973,-0.0,-0.0,-1.0,0.09679171847395023,2.0,0
8.364721298217773,27.584476470947266,-1.5501532554626465,-0.0,-0.0,-1.0,0.02449970334899061,1.0,0
7.946118354797363,27.455995559692383,-1.5417208671569824,-0.0,-0.0,-1.0,0.05990204533640988,1.0,0
7.803009033203125,27.678497314453125,-1.5977683067321777,-0.0,-0.0,-1.0,0.020026093986606035,2.0,0
10.133428573608398,27.30990982055664,-1.4264869689941406,-0.0,-0.0,-1.0,0.26745392735029994,2.0,0
10.0267915725708,27.12501335144043,-1.3887660503387451,0.05123929996379502,-0.5705092231558673,-0.8196912592149006,0.17152698192805796,3.0,0
9.938983917236328,27.181360244750977,-1.4035863876342773,-0.0,-0.0,-1.0,0.22098663884529599,2.0,0
9.522577285766602,26.358285903930664,-1.2353835105895996,-0.0,-0.0,-1.0,0.11508196357539621,1.0,0
9.568492889404297,26.806861877441406,-1.3326416015625,-0.0,-0.0,-1.0,0.12130920839362083,2.0,0
9.593667984008789,27.182905197143555,-1.414398431777954,-0.0,-0.0,-1.0,0.12792609671057226,2.0,0
9.205024719238281,26.401899337768555,-1.2559125423431396,-0.0,-0.0,-1.0,0.07569403015385588,2.0,0
8.784099578857422,27.37460708618164,-1.4859986305236816,-0.0,-0.0,-1.0,0.042445825705102525,1.0,0
8.152225494384766,27.033903121948242,-1.4389476776123047,-0.8260967481406885,-0.08132816143880703,-0.5576288128032513,0.2140352001590325,3.0,0
7.937276840209961,26.985088348388672,-1.4388227462768555,-0.0,-0.0,-1.0,0.06361126853207692,1.0,0
10.039450645446777,27.154083251953125,-0.7327570915222168,-0.3930450859650451,0.46495744750729373,-0.7933033041694912,0.19830243987051255,3.0,0
9.59836196899414,27.272476196289062,-0.7681515216827393,-0.0,-0.0,-1.0,0.2151102692395073,2.0,0
8.82722282409668,28.075977325439453,-0.9436156749725342,-0.0,-0.0,-1.0,0.10201203120978747,2.0,0
8.629246711730957,27.876073837280273,-0.9149117469787598,0.21108798213404278,0.1118227748577262,-0.9710497056390555,0.08799308606290625,3.0,0
9.901626586914062,27.1315975189209,-1.3469021320343018,-0.0,-0.0,-1.0,0.11232520935331083,2.0,0
9.798196792602539,27.510480880737305,-1.4362859725952148,-0.0,-0.0,-1.0,0.14303476073260551,1.0,0
9.533397674560547,27.196786880493164,-1.3717803955078125,-0.018759541049722026,0.49389711054798074,-0.8693179647355505,0.1764414187057805,3.0,0
9.3046293258667,27.89332389831543,-1.5385022163391113,-0.0,-0.0,-1.0,0.18309027551429444,2.0,0
9.059056282043457,26.3673095703125,-1.1967415809631348,-0.0,-0.0,-1.0,0.09137777178378147,2.0,0
8.905987739562988,27.955947875976562,-1.5664925575256348,-0.0,-0.0,-1.0,0.08817818780040731,1.0,0
8.716465950012207,26.93717384338379,-1.339937448501587,-0.0,-0.0,-1.0,0.2156224444605955,1.0,0
8.54407024383545,27.80748176574707,-1.5463862419128418,-0.0,-0.0,-1.0,0.07369608343520956,1.0,0
8.071124076843262,27.505638122558594,-1.4974942207336426,-0.0,-0.0,-1.0,0.03278118710567978,2.0,0
8.252626419067383,27.706329345703125,-1.535416603088379,-0.0,-0.0,-1.0,0.0503753639607266,1.0,0
7.7612481117248535,26.953031539916992,-1.3856110572814941,-0.0,-0.0,-1.0,0.09783750597786639,1.0,0
7.832954406738281,27.92361068725586,-1.6044588088989258,-0.0,-0.0,-1.0,0.0473292171125671,2.0,0
8.825325965881348,28.04107666015625,-0.9300093650817871,-0.0,-0.0,-1.0,0.08140562920363152,2.0,0
8.6358642578125,27.902393341064453,-0.9104423522949219,-0.0,-0.0,-1.0,0.08603934637174916,2.0,0
10.066717147827148,27.271299362182617,-0.7426834106445312,-0.0,-0.0,-1.0,0.2034647638684782,1.0,0
9.668243408203125,27.224031448364258,-0.7445187568664551,-0.0,-0.0,-1.0,0.1300196343533318,2.0,0
9.548900604248047,27.32761573791504,-0.7680339813232422,0.5938799732060028,0.2095320933858921,-0.7767901127500034,0.14280739250820118,3.0,0
9.961954116821289,27.149314880371094,-1.3904297351837158,0.8257352492072021,0.5579775046064068,-0.08259783635136725,0.14216417670343598,3.0,0
9.902115821838379,27.650524139404297,-1.5158276557922363,-0.0,-0.0,-1.0,0.1263800285289455,1.0,0
9.752792358398438,26.87847137451172,-1.3291120529174805,-0.0,-0.0,-1.0,0.09956642653993816,2.0,0
9.542091369628906,27.095535278320312,-1.3893299102783203,-0.07559382757420406,-0.2918584853092517,-0.9534695578704498,0.17986113012412108,3.0,0
9.407394409179688,27.73764419555664,-1.552842617034912,-0.0,-0.0,-1.0,0.09035947943030233,1.0,0
8.915599822998047,27.612438201904297,-1.5405821800231934,-0.0,-0.0,-1.0,0.12315869503977235,1.0,0
8.512028694152832,27.593704223632812,-1.5537943840026855,-0.0,-0.0,-1.0,0.016039740849518445,2.0,0
8.257076263427734,27.226085662841797,-1.4749560356140137,-0.0,-0.0,-1.0,0.11373918166086139,1.0,0
8.117703437805176,27.405601501464844,-1.5268135070800781,-0.0,-0.0,-1.0,0.02858966125416389,1.0,0
7.732997417449951,26.914573669433594,-1.4262547492980957,-0.0,-0.0,-1.0,0.08021618381919737,1.0,0
7.905116081237793,27.498046875,-1.5611448287963867,-0.0,-0.0,-1.0,0.10050707863694491,1.0,0
7.816017150878906,27.64350128173828,-1.6022343635559082,-0.0,-0.0,-1.0,0.036912838764338686,2.0,0
9.19757080078125,26.389629364013672,-1.2262706756591797,-0.0,-0.0,-1.0,0.08074961718074158,2.0,0
9.066596984863281,26.368968963623047,-1.2260513305664062,-0.0,-0.0,-1.0,0.09992465698255976,2.0,0
9.459590911865234,27.074398040771484,-0.7960100173950195,-0.0,-0.0,-1.0,0.09294340415310735,1.0,0
9.529170989990234,27.270519256591797,-0.8349716663360596,-0.0,-0.0,-1.0,0.2531505401451237,1.0,0
9.98879337310791,26.97759437561035,-1.5006728172302246,-0.0,-0.0,-1.0,0.12332560260384587,1.0,0
9.760902404785156,27.064422607421875,-1.5255494117736816,-0.0,-0.0,-1.0,0.10406410176079348,1.0,0
9.086983680725098,26.916276931762695,-1.4951415061950684,-0.0,-0.0,-1.0,0.07406232121835218,1.0,0
8.82662296295166,26.928730010986328,-1.5043549537658691,-0.0,-0.0,-1.0,0.21401413896670862,2.0,0
8.589917182922363,27.066593170166016,-1.5483169555664062,-0.0,-0.0,-1.0,0.12610735838607318,1.0,0
8.224617958068848,26.97268295288086,-1.5346274375915527,-0.0,-0.0,-1.0,0.1296821661927502,2.0,0
7.942811012268066,27.15839195251465,-1.59586763381958,-0.0,-0.0,-1.0,0.08008735357835282,2.0,0
7.751800060272217,27.062667846679688,-1.5779213905334473,-0.0,-0.0,-1.0,0.12391137604149395,2.0,0
9.574752807617188,26.759437561035156,-1.4449639320373535,-0.0,-0.0,-1.0,0.10709599248223259,1.0,0
9.37266731262207,26.543785095214844,-1.3892080783843994,-0.0,-0.0,-1.0,0.19942142133310672,1.0,0
8.926606178283691,26.861896514892578,-1.4837899208068848,-0.0,-0.0,-1.0,0.17641881864736783,1.0,0
9.186692237854004,26.282123565673828,-1.3211803436279297,-0.0,-0.0,-1.0,0.1289492397871944,1.0,0
8.14988899230957,26.893863677978516,-1.5157966613769531,-0.0,-0.0,-1.0,0.05655218344683597,2.0,0
9.78436279296875,26.36264419555664,-0.7982902526855469,0.803450638440461,0.43476919299045785,-0.40674662926205263,0.07415383217831563,3.0,0
9.500656127929688,27.15021324157715,-0.9860713481903076,-0.0,-0.0,-1.0,0.17164346272576222,1.0,0
9.713200569152832,27.189159393310547,-0.4332611560821533,0.450474993866496,-0.8456019783929003,-0.28640805512239625,0.2078051679416695,3.0,0
9.556375503540039,27.22779083251953,-0.44373393058776855,-0.0,-0.0,-1.0,0.1473945121590665,1.0,0
8.630839347839355,27.861743927001953,-1.424644947052002,-0.0,-0.0,-1.0,0.11593792080126113,1.0,0
8.465267181396484,28.126819610595703,-1.4942982196807861,-0.0,-0.0,-1.0,0.158066289195498,1.0,0
8.132601737976074,27.972549438476562,-1.4564173221588135,-0.0,-0.0,-1.0,0.1676298153456293,1.0,0
9.939126014709473,27.070213317871094,-1.2337753772735596,0.6861850172289479,0.7096385854232193,-0.15988495929586577,0.12094149448798484,6.0,0
9.612409591674805,27.201011657714844,-1.261040449142456,0.9991368278260043,-0.037838584387485025,0.01714178559372173,0.1978979549870624,5.0,0
9.331136703491211,26.768543243408203,-1.144582986831665,-0.0,-0.0,-1.0,0.08247483805336853,1.0,0
9.351715087890625,26.402606964111328,-1.0504860877990723,-0.0,-0.0,-1.0,0.09088640800964719,1.0,0
9.021065711975098,26.488906860351562,-1.0686545372009277,-0.0,-0.0,-1.0,0.0861219073087367,1.0,0
8.820180892944336,26.396207809448242,-1.0432379245758057,-0.0,-0.0,-1.0,0.17018656377154934,1.0,0
9.902186393737793,27.34021759033203,-0.7511465549468994,-0.0,-0.0,-1.0,0.1728084658583111,1.0,0
9.619985580444336,27.204010009765625,-0.716989278793335,-0.0,-0.0,-1.0,0.19786342174692648,2.0,0
9.480060577392578,27.311588287353516,-0.7393481731414795,-0.0,-0.0,-1.0,0.16381869072240482,1.0,0
9.965490341186523,27.126224517822266,-1.1323645114898682,-0.053071666831274955,-0.7775502211041005,-0.6265772512952527,0.13083570143482237,3.0,0
9.47238826751709,27.054840087890625,-1.0939269065856934,-0.0,-0.0,-1.0,0.1852711863125343,2.0,0
8.711625099182129,27.691556930541992,-1.2384920120239258,-0.0,-0.0,-1.0,0.15319801807591477,1.0,0
8.421662330627441,28.040420532226562,-1.3251419067382812,-0.0,-0.0,-1.0,0.22047701821268292,1.0,0
8.629888534545898,26.839054107666016,-1.0140106678009033,-0.0,-0.0,-1.0,0.07832561995354406,2.0,0
10.113736152648926,27.33205795288086,-0.6614346504211426,-0.0,-0.0,-1.0,0.1712435043009413,1.0,0
9.717666625976562,27.17203712463379,-0.6124227046966553,-0.0,-0.0,-1.0,0.09142250132359202,2.0,0
9.588024139404297,27.26868438720703,-0.6298983097076416,-0.0,-0.0,-1.0,0.1560149601343873,1.0,0
8.914956092834473,28.033458709716797,-0.7852323055267334,-0.0,-0.0,-1.0,0.10175668943400372,1.0,0
9.717194557189941,26.32906723022461,-0.9165990352630615,-0.0,-0.0,-1.0,0.0751625211703997,2.0,0
10.145697593688965,27.16751480102539,-1.2716572284698486,-0.0,-0.0,-1.0,0.18926758941549005,1.0,0
9.936559677124023,27.076751708984375,-1.233595848083496,0.8644523825760908,0.34890732562093985,-0.36191954407929344,0.0903612162669027,5.0,0
9.624683380126953,27.189350128173828,-1.2470698356628418,0.7768751417376005,0.3528650161757884,-0.5214894960681796,0.21805043392735637,5.0,0
8.767401695251465,27.798141479492188,-1.379950761795044,-0.0,-0.0,-1.0,0.22656913761677086,1.0,0
8.256059646606445,27.93082618713379,-1.4022488594055176,-0.0,-0.0,-1.0,0.2193097156992294,1.0,0
9.675150871276855,27.021400451660156,-1.2030730247497559,-0.0,-0.0,-1.0,0.21696951049337165,1.0,0
9.453571319580078,27.08780288696289,-1.2097527980804443,0.5683065191218524,-0.5229914530994136,-0.6352225124384115,0.20020982048684155,3.0,0
8.825132369995117,27.988475799560547,-0.9113028049468994,-0.0,-0.0,-1.0,0.08577140354655732,1.0,0
9.155856132507324,26.47695541381836,-1.024068832397461,-0.0,-0.0,-1.0,0.18314568531345665,1.0,0
8.680207252502441,26.681621551513672,-1.0611271858215332,-0.0,-0.0,-1.0,0.054323130489157045,1.0,0
9.995616912841797,27.1258487701416,-0.7472918033599854,-0.0,-0.0,-1.0,0.13089409964488705,1.0,0
9.868980407714844,27.205554962158203,-0.7602579593658447,-0.0,-0.0,-1.0,0.1206528614098428,1.0,0
9.66425895690918,27.17621612548828,-0.7436232566833496,-0.0,-0.0,-1.0,0.159524402730626,2.0,0
9.462090492248535,27.14748191833496,-0.7278594970703125,-0.0,-0.0,-1.0,0.14388214158642057,2.0,0
10.106136322021484,27.151216506958008,-0.6886677742004395,-0.0,-0.0,-1.0,0.2053365216002924,1.0,0
9.668547630310059,27.137109756469727,-0.670874834060669,-0.0,-0.0,-1.0,0.11591671487613461,1.0,0
8.649169921875,27.83692169189453,-0.8410837650299072,-0.0,-0.0,-1.0,0.08421089249765938,2.0,0
9.739274978637695,27.189788818359375,-0.39410853385925293,0.3294885493378784,-0.7558663383463123,-0.5657767885042286,0.1189649581017926,5.0,0
8.166001319885254,27.309850692749023,-1.5224089622497559,-0.0,-0.0,-1.0,0.06611756166424344,2.0,0
7.83300256729126,27.178312301635742,-1.5276570320129395,-0.0,-0.0,-1.0,0.13636542648565664,1.0,0
8.311083793640137,27.307458877563477,-1.507002830505371,-0.0,-0.0,-1.0,0.032227853131469204,1.0,0
8.061328887939453,26.940793991088867,-1.4493889808654785,-0.0,-0.0,-1.0,0.10657914200069558,1.0,0
8.613414764404297,26.921083450317383,-1.388115406036377,-0.0,-0.0,-1.0,0.20935704733620888,1.0,0
8.408462524414062,27.582759857177734,-1.5247304439544678,-0.0,-0.0,-1.0,0.026935193091292827,1.0,0
8.093864440917969,27.511322021484375,-1.5145418643951416,0.24599849863589804,-0.9692574047315579,0.004982172410610693,0.026862344932331347,3.0,0
7.8830084800720215,27.34267807006836,-1.478018045425415,-0.0,-0.0,-1.0,0.08819633970711298,1.0,0
8.834514617919922,27.652782440185547,-1.5331108570098877,-0.0,-0.0,-1.0,0.13266239102761898,1.0,0
8.679643630981445,27.52729034423828,-1.5047733783721924,-0.0,-0.0,-1.0,0.12535077772389608,1.0,0
9.543614387512207,27.558521270751953,-1.4970920085906982,-0.0,-0.0,-1.0,0.06681070773681144,1.0,0
9.779568672180176,27.447490692138672,-1.4658420085906982,-0.0,-0.0,-1.0,0.12511060811850486,1.0,0
9.44328784942627,27.18661117553711,-1.404808759689331,-0.0,-0.0,-1.0,0.1798221720219949,1.0,0
9.27493667602539,27.142154693603516,-1.3964002132415771,-0.0,-0.0,-1.0,0.1600763924025307,1.0,0
8.919744491577148,26.301288604736328,-1.1919782161712646,-0.0,-0.0,-1.0,0.07313600729890872,1.0,0
10.142483711242676,27.10171127319336,-1.374056100845337,-0.0,-0.0,-1.0,0.2152486593129424,1.0,0
9.818824768066406,27.07138442993164,-1.370171308517456,-0.0,-0.0,-1.0,0.17868360266550543,1.0,0
9.226011276245117,26.455081939697266,-1.2244117259979248,-0.0,-0.0,-1.0,0.12926071123464383,1.0,0
9.49797248840332,27.251567840576172,-0.6974809169769287,0.4887518955642132,-0.7363967027202056,0.4678049602186768,0.19254987763844741,3.0,0
8.541935920715332,28.105897903442383,-1.298943281173706,-0.0,-0.0,-1.0,0.1524732781595732,1.0,0
9.469856262207031,27.14763641357422,-1.0432331562042236,-0.0,-0.0,-1.0,0.103668583621935,1.0,0
9.933564186096191,27.066938400268555,-1.0107085704803467,-0.0,-0.0,-1.0,0.22121228300024504,1.0,0
9.764841079711914,26.336811065673828,-0.8462541103363037,-0.0,-0.0,-1.0,0.07865086737793413,2.0,0
7.9434709548950195,28.01702117919922,-1.578049898147583,-0.0,-0.0,-1.0,0.06683948522752556,1.0,0
8.497099876403809,27.8486385345459,-1.5365440845489502,-0.0,-0.0,-1.0,0.05944717001816426,1.0,0
8.28868293762207,27.73955535888672,-1.5104687213897705,-0.45333219628199717,-0.522812280845283,-0.7219122099060896,0.0684248603655068,3.0,0
9.08393669128418,27.93488883972168,-1.5601356029510498,-0.0,-0.0,-1.0,0.09726110756772995,1.0,0
8.76887321472168,27.75227928161621,-1.5141322612762451,-0.0,-0.0,-1.0,0.17261906618759357,1.0,0
9.830684661865234,27.866117477416992,-1.5531871318817139,-0.0,-0.0,-1.0,0.14956916350036759,1.0,0
9.754462242126465,27.889572143554688,-1.5575449466705322,-0.0,-0.0,-1.0,0.18227253157569487,1.0,0
8.773850440979004,26.936887741088867,-1.318340539932251,-0.0,-0.0,-1.0,0.26905348441222554,2.0,0
10.155864715576172,27.344240188598633,-1.4333112239837646,-0.0,-0.0,-1.0,0.1867094280749063,2.0,0
9.577462196350098,27.178380966186523,-1.3831884860992432,-0.436558604672586,-0.8300606424573731,-0.3470099631560711,0.19284375917512986,3.0,0
10.033438682556152,27.101810455322266,-1.3722012042999268,-0.0,-0.0,-1.0,0.1829465056630346,2.0,0
9.770575523376465,26.884021759033203,-1.3149187564849854,-0.0,-0.0,-1.0,0.10151611971091876,2.0,0
9.455561637878418,26.54705047607422,-1.2293570041656494,-0.0,-0.0,-1.0,0.16490056999870242,1.0,0
9.160727500915527,26.38421058654785,-1.1875221729278564,-0.0,-0.0,-1.0,0.09929750425002534,2.0,0
9.608707427978516,26.377973556518555,-1.1904375553131104,-0.0,-0.0,-1.0,0.08134181639644994,1.0,0
9.702047348022461,27.22332191467285,-0.6372344493865967,-0.0,-0.0,-1.0,0.11865707663258027,1.0,0
7.916967391967773,27.7034912109375,-1.5574071407318115,-0.0,-0.0,-1.0,0.046436083062062906,1.0,0
8.736628532409668,27.58392333984375,-1.5348427295684814,-0.0,-0.0,-1.0,0.12691328174196073,1.0,0
8.506301879882812,27.580535888671875,-1.5319688320159912,-0.0,-0.0,-1.0,0.015537786250001776,2.0,0
8.188814163208008,27.425010681152344,-1.493833303451538,-0.0,-0.0,-1.0,0.026798509624074405,1.0,0
7.819092750549316,26.949756622314453,-1.3828232288360596,-0.0,-0.0,-1.0,0.15518065935144354,1.0,0
9.050447463989258,27.425434112548828,-1.5017902851104736,-0.0,-0.0,-1.0,0.0625637556681195,1.0,0
8.835116386413574,27.255027770996094,-1.459460973739624,-0.0,-0.0,-1.0,0.10485905448330622,1.0,0
9.43224048614502,27.242393493652344,-1.4651663303375244,-0.0,-0.0,-1.0,0.2228773377902565,1.0,0
