x,y,z,nx,ny,nz,curvature,density,label
54.7320556640625,29.490867614746094,-3.1870226860046387,-0.0,-0.0,-1.0,0.03104076544788388,2.0,0
55.117820739746094,28.901412963867188,-3.223572254180908,-0.0,-0.0,-1.0,0.011147145257349488,1.0,0
54.413658142089844,29.359201431274414,-3.183864116668701,-0.0,-0.0,-1.0,0.023118296429201296,1.0,0
53.29421615600586,28.99364471435547,-3.057736396789551,-0.0,-0.0,-1.0,0.01788420465514446,1.0,0
54.22962188720703,28.88193702697754,-3.181819438934326,-0.0,-0.0,-1.0,0.010420873893512667,1.0,0
54.8529052734375,29.805423736572266,-3.1665990352630615,-0.5755868958112103,0.12462631304657569,-0.808188101537527,0.08818802075927631,3.0,0
53.03558349609375,29.35999298095703,-2.8530895709991455,0.9237519286628711,-0.3747543340981229,0.07900356552902177,0.13279912747380535,3.0,0
52.894554138183594,29.80169677734375,-2.910653829574585,-0.0,-0.0,-1.0,0.21211789337640072,2.0,0
53.54866027832031,29.305320739746094,-3.078557252883911,-0.0,-0.0,-1.0,0.1325901285372745,1.0,0
53.188411712646484,29.37885856628418,-2.8918566703796387,0.8286890922453763,-0.2024341188167531,-0.5218187577429723,0.08380982834472595,3.0,0
52.801658630371094,29.519882202148438,-2.860013961791992,0.21664588550241168,0.9296863607278707,0.29790574175642054,0.11783783237675763,3.0,0
54.90503692626953,29.487709045410156,-3.171877384185791,-0.0,-0.0,-1.0,0.040212531343136286,1.0,0
53.197975158691406,29.385639190673828,-2.8792996406555176,0.7747424617856987,-0.14804938210655916,-0.614699518760265,0.10741177469228744,4.0,0
52.830101013183594,29.508441925048828,-2.8449959754943848,0.7352046281737988,0.6771976653675017,0.02962223375492398,0.11789879722657225,4.0,0
53.12803268432617,29.392684936523438,-2.7878501415252686,-0.0,-0.0,-1.0,0.10728821032246424,1.0,0
52.793739318847656,29.629901885986328,-2.7811834812164307,-0.00536615434344666,0.04873923790673429,-0.9987971220802717,0.1476870477445936,3.0,0
53.21469497680664,29.349754333496094,-2.851431369781494,-0.0,-0.0,-1.0,0.10459199543904456,2.0,0
52.81306076049805,29.506507873535156,-2.826568126678467,0.7381563902056665,0.674475386765465,0.01442554144964596,0.11442166280584411,5.0,0
54.82719039916992,30.45172882080078,-3.129758358001709,-0.0,-0.0,-1.0,0.05055598426387872,1.0,0
54.88605880737305,29.876811981201172,-3.006840705871582,-0.0,-0.0,-1.0,0.13756211317011624,2.0,0
52.944000244140625,29.74469757080078,-2.7021474838256836,-0.0,-0.0,-1.0,0.20072712654655778,1.0,0
53.862998962402344,29.93178939819336,-3.241936683654785,-0.0,-0.0,-1.0,0.002952762084266463,1.0,0
53.28114318847656,29.319040298461914,-3.07346773147583,-0.0,-0.0,-1.0,0.06477006964104796,1.0,0
54.497798919677734,29.490859985351562,-3.1683192253112793,-0.0,-0.0,-1.0,0.027471994673422297,1.0,0
53.80959701538086,29.745912551879883,-3.2111103534698486,-0.0,-0.0,-1.0,0.0033130120793901765,2.0,0
53.57941818237305,29.391983032226562,-2.7761638164520264,-0.0,-0.0,-1.0,0.15212912527508068,1.0,0
54.952964782714844,29.764888763427734,-3.1413638591766357,-0.0,-0.0,-1.0,0.10373922637930774,2.0,0
54.929100036621094,29.815631866455078,-3.075087070465088,-0.0,-0.0,-1.0,0.10589044692940265,2.0,0
52.79283142089844,29.533397674560547,-2.7993550300598145,-0.0,-0.0,-1.0,0.10223561340532114,2.0,0
53.11736297607422,29.326011657714844,-2.7896409034729004,-0.0,-0.0,-1.0,0.13857076890815492,1.0,0
54.79766082763672,29.805198669433594,-3.055204391479492,-0.0,-0.0,-1.0,0.09025638414754672,1.0,0
53.0568733215332,29.545316696166992,-2.767420768737793,-0.0,-0.0,-1.0,0.06056807296008879,1.0,0
54.74568557739258,29.376117706298828,-3.146960973739624,-0.0,-0.0,-1.0,0.025383461296674206,1.0,0
52.990055084228516,29.349140167236328,-2.8831799030303955,-0.0,-0.0,-1.0,0.13072306935211597,2.0,0
53.99448013305664,29.217304229736328,-3.1131787300109863,-0.0,-0.0,-1.0,0.011341279408993434,1.0,0
53.06840896606445,29.253582000732422,-2.9711356163024902,-0.0,-0.0,-1.0,0.10341916990877104,1.0,0
54.868682861328125,29.91763687133789,-3.0027143955230713,-0.0,-0.0,-1.0,0.1344961684695912,2.0,0
54.77021026611328,29.672273635864258,-3.234192132949829,-0.0,-0.0,-1.0,0.08075567603825946,2.0,0
54.84578323364258,29.514606475830078,-3.1588988304138184,-0.0,-0.0,-1.0,0.04585277879543446,2.0,0
52.81072235107422,29.36623191833496,-2.9303956031799316,0.4486873267002404,-0.4469496642005026,-0.7738964275209246,0.08941925601012733,5.0,0
54.680755615234375,29.729360580444336,-3.1571996212005615,-0.9596439350769265,-0.07325704557789048,-0.27150860602063953,0.0935280741812467,3.0,0
53.17444610595703,29.333038330078125,-2.9601776599884033,0.4233763704740897,0.9026384266645215,-0.07743590661174861,0.09042047095869832,4.0,0
52.715782165527344,29.922277450561523,-2.7655324935913086,-0.0,-0.0,-1.0,0.20019006875337172,1.0,0
52.78696823120117,29.642274856567383,-2.780543327331543,-0.00536615434344666,0.04873923790673429,-0.9987971220802717,0.14526224060753945,3.0,0
54.868804931640625,29.593852996826172,-3.102034568786621,-0.0,-0.0,-1.0,0.08912419107200363,1.0,0
54.877601623535156,29.767765045166016,-3.0860137939453125,-0.9338774085188984,0.35655556364860935,-0.02722344374337512,0.1095772343573801,4.0,0
54.88823318481445,29.995729446411133,-3.1085386276245117,-0.0,-0.0,-1.0,0.09729839292486077,1.0,0
53.00230407714844,29.29191780090332,-2.8405189514160156,-0.0,-0.0,-1.0,0.14239492108364007,1.0,0
52.855323791503906,29.41700553894043,-2.8367276191711426,0.8126490090198772,-0.27670218665948326,0.5128718046811226,0.06664719499171884,5.0,0
52.83598709106445,29.62066078186035,-2.854074478149414,-0.0,-0.0,-1.0,0.14684610037261067,2.0,0
52.91959762573242,29.601646423339844,-2.8904454708099365,-0.0,-0.0,-1.0,0.12841215089207003,1.0,0
53.57835388183594,28.30309295654297,-1.5052549839019775,-0.0,-0.0,-1.0,0.08031754016148158,2.0,0
53.90079116821289,30.320178985595703,-3.2040834426879883,-0.0,-0.0,-1.0,0.00641067945962395,1.0,0
53.587181091308594,28.30663299560547,-1.5700035095214844,-0.0,-0.0,-1.0,0.0870883530786792,2.0,0
54.63642883300781,30.009910583496094,-3.1194255352020264,-0.0,-0.0,-1.0,0.07267447141572232,1.0,0
52.838401794433594,29.27059555053711,-2.875746965408325,-0.0,-0.0,-1.0,0.06429626705676372,1.0,0
53.594459533691406,28.24112319946289,-1.3553085327148438,-0.0,-0.0,-1.0,0.09887270540082842,1.0,0
53.56694793701172,28.268611907958984,-1.9134650230407715,0.6658419086723636,-0.4507597945468808,-0.5945335653061128,0.05247655069994939,3.0,0
53.44153594970703,28.35109519958496,-2.6323623657226562,-0.0,-0.0,-1.0,0.046352026738354576,1.0,0
53.53734588623047,28.268146514892578,-1.8391716480255127,-0.0,-0.0,-1.0,0.06315032562737541,2.0,0
53.634490966796875,28.467021942138672,-2.3653101921081543,-0.0,-0.0,-1.0,0.04909638794956092,1.0,0
53.547977447509766,28.306869506835938,-2.125964641571045,-0.0,-0.0,-1.0,0.035444808694358704,1.0,0
53.511810302734375,28.318504333496094,-2.302607774734497,-0.0,-0.0,-1.0,0.049323540958776835,1.0,0
52.9669075012207,29.79276466369629,-3.102336883544922,-0.0,-0.0,-1.0,0.1857641685503598,1.0,0
53.60218811035156,30.17164421081543,-3.1950736045837402,-0.0,-0.0,-1.0,0.001781517095209878,1.0,0
53.503963470458984,28.21300506591797,-1.7039141654968262,-0.0,-0.0,-1.0,0.0628220655865434,1.0,0
53.57596206665039,28.373695373535156,-1.3264076709747314,-0.19334818595430397,-0.03421583756223648,-0.9805334035350831,0.09972703317350581,3.0,0
53.57476043701172,28.41408920288086,-2.012026309967041,-0.0,-0.0,-1.0,0.044891234084798864,1.0,0
53.49713134765625,28.596723556518555,-1.290865182876587,-0.0,-0.0,-1.0,0.09972703317350581,1.0,0
55.12654113769531,29.227079391479492,-3.2646355628967285,-0.0,-0.0,-1.0,0.013362059049674392,1.0,0
54.00951385498047,29.492835998535156,-3.1545615196228027,-0.0,-0.0,-1.0,0.003945043880425198,2.0,0
54.19976806640625,29.297592163085938,-3.156829357147217,-0.0,-0.0,-1.0,0.007198079603701307,1.0,0
54.763938903808594,29.3016414642334,-3.2275266647338867,-0.0,-0.0,-1.0,0.01842015143644231,2.0,0
53.72297668457031,30.576642990112305,-3.2395339012145996,-0.0,-0.0,-1.0,0.0047508104970764315,1.0,0
53.57341766357422,28.35432243347168,-2.19036602973938,-0.0,-0.0,-1.0,0.03931572934346231,1.0,0
53.62092971801758,28.32156753540039,-2.317866802215576,-0.0,-0.0,-1.0,0.04878568287409157,2.0,0
53.62879180908203,28.363235473632812,-1.1879677772521973,-0.0,-0.0,-1.0,0.09972703317350588,2.0,0
53.11860656738281,28.77483558654785,-3.172775983810425,-0.0,-0.0,-1.0,0.019658537756356346,1.0,0
53.54541778564453,28.292160034179688,-2.0777385234832764,-0.0,-0.0,-1.0,0.0389280244826533,2.0,0
53.58403396606445,28.263587951660156,-2.09934401512146,-0.0,-0.0,-1.0,0.04070830851924709,2.0,0
54.191650390625,28.34979248046875,-3.221346139907837,-0.0,-0.0,-1.0,0.04570990710522264,1.0,0
54.010799407958984,28.725770950317383,-3.238029718399048,-0.0,-0.0,-1.0,0.004480567735819005,1.0,0
52.83668899536133,29.02599334716797,-3.093125581741333,-0.0,-0.0,-1.0,0.03823016601936014,2.0,0
53.137149810791016,28.946334838867188,-3.12961745262146,-0.0,-0.0,-1.0,0.018276657912583393,1.0,0
53.387306213378906,28.895870208740234,-3.1620523929595947,-0.0,-0.0,-1.0,0.011033603475507185,1.0,0
52.83449935913086,29.38004493713379,-2.928389072418213,0.2184850284510613,0.015702418264361556,-0.9757139572658525,0.1005399745582172,4.0,0
52.73754119873047,29.543638229370117,-2.935431957244873,-0.0,-0.0,-1.0,0.11692990080534076,2.0,0
54.76242446899414,29.581743240356445,-3.201545238494873,-0.0,-0.0,-1.0,0.043808057734544416,1.0,0
54.4940299987793,29.936370849609375,-3.2081751823425293,-0.0,-0.0,-1.0,0.03528712540129446,1.0,0
54.668617248535156,29.79945945739746,-3.2146944999694824,-0.0,-0.0,-1.0,0.05924493505164678,1.0,0
53.57972717285156,28.306655883789062,-1.9279969930648804,0.6658419086723636,-0.4507597945468808,-0.5945335653061128,0.05247655069994939,3.0,0
53.57672119140625,28.304365158081055,-2.5581464767456055,-0.0,-0.0,-1.0,0.03935243037806022,1.0,0
53.606040954589844,28.33867835998535,-1.628187894821167,0.06734031627250514,-0.6286383603639785,-0.7747768024942461,0.06834730649956981,3.0,0
54.89223098754883,29.999034881591797,-3.0493879318237305,-0.0,-0.0,-1.0,0.10258290773543413,1.0,0
53.605316162109375,28.336326599121094,-2.710813045501709,-0.0,-0.0,-1.0,0.04106040815735298,1.0,0
52.99736022949219,29.533897399902344,-2.770630359649658,-0.0,-0.0,-1.0,0.056243262621935394,2.0,0
53.072757720947266,29.474651336669922,-2.772928237915039,-0.0,-0.0,-1.0,0.048617815906504214,1.0,0
52.89643096923828,29.678680419921875,-2.7750329971313477,-0.0,-0.0,-1.0,0.1340011457727151,1.0,0
53.60211181640625,28.262500762939453,-1.7992839813232422,-0.0,-0.0,-1.0,0.06493736642515711,1.0,0
53.56005096435547,28.336322784423828,-2.4229490756988525,-0.0,-0.0,-1.0,0.04915243913059967,2.0,0
53.593299865722656,28.285926818847656,-1.5531656742095947,-0.0,-0.0,-1.0,0.08522545536550569,2.0,0
53.577056884765625,28.313993453979492,-2.4434049129486084,-0.0,-0.0,-1.0,0.04915243913059967,2.0,0
53.655887603759766,28.287120819091797,-1.6106741428375244,-0.08051345633156333,-0.1477385214336058,-0.9857438372285963,0.06726905923265365,3.0,0
53.123046875,29.382335662841797,-3.0077757835388184,-0.0,-0.0,-1.0,0.08924461372049318,1.0,0
53.18381881713867,29.32662582397461,-3.0086445808410645,-0.0,-0.0,-1.0,0.09349103364712981,2.0,0
54.63981628417969,29.30414581298828,-3.20833683013916,-0.0,-0.0,-1.0,0.012917214831194958,1.0,0
54.924903869628906,29.233461380004883,-3.2392005920410156,-0.0,-0.0,-1.0,0.015153209704083589,1.0,0
55.202903747558594,29.154354095458984,-3.2682175636291504,-0.0,-0.0,-1.0,0.012840082023103522,1.0,0
52.76829528808594,29.523460388183594,-2.9782423973083496,-0.0,-0.0,-1.0,0.11539598989354936,1.0,0
54.3240966796875,29.653791427612305,-3.2103829383850098,-0.6985366993957332,-0.15794561220060643,-0.6979252561584876,0.01584197372771977,3.0,0
54.437904357910156,29.475656509399414,-3.2026124000549316,-0.0,-0.0,-1.0,0.022760863843045424,1.0,0
54.27460861206055,29.92627716064453,-3.2398829460144043,-0.0,-0.0,-1.0,0.014557176678811555,1.0,0
53.670654296875,30.58704376220703,-3.2469301223754883,-0.0,-0.0,-1.0,0.00475081049707643,1.0,0
52.79338455200195,29.394756317138672,-2.964165210723877,0.8829273875727233,-0.019681182023975955,-0.46909687629331437,0.06925584600530432,4.0,0
54.42729949951172,28.536075592041016,-3.1652817726135254,-0.0,-0.0,-1.0,0.04230345995895734,1.0,0
53.03801345825195,29.09197998046875,-3.0335168838500977,-0.0,-0.0,-1.0,0.03246582661525593,1.0,0
53.153404235839844,29.03406524658203,-3.0425100326538086,-0.0,-0.0,-1.0,0.019072288172138203,1.0,0
53.67827224731445,29.030242919921875,-3.1197028160095215,-0.0,-0.0,-1.0,0.03150125363408378,1.0,0
54.07866668701172,28.902423858642578,-3.1620235443115234,-0.0,-0.0,-1.0,0.0061565321518572465,1.0,0
54.31745529174805,28.70234489440918,-3.1708946228027344,-0.0,-0.0,-1.0,0.008053598448127813,2.0,0
52.860443115234375,29.153276443481445,-3.0159640312194824,0.9071623609386142,-0.18955585871883512,0.37566611148950324,0.03971279209750471,3.0,0
53.415061950683594,28.14491844177246,-3.046182155609131,-0.0,-0.0,-1.0,0.13919622270274323,1.0,0
54.14887237548828,28.423614501953125,-3.1987857818603516,-0.0,-0.0,-1.0,0.038033244665169975,1.0,0
53.0103645324707,28.92711639404297,-3.1198086738586426,-0.0,-0.0,-1.0,0.022122051608139924,2.0,0
53.267879486083984,28.849750518798828,-3.1430678367614746,-0.0,-0.0,-1.0,0.015003511789401562,1.0,0
53.725364685058594,28.773136138916016,-3.195481300354004,-0.0,-0.0,-1.0,0.012927681782297707,1.0,0
54.02674102783203,28.670372009277344,-3.221724033355713,-0.0,-0.0,-1.0,0.004480567735819005,1.0,0
53.58930969238281,28.304319381713867,-2.348324775695801,0.6556091209981093,0.11575717694093145,-0.7461748832885976,0.048482665286256506,3.0,0
53.61951446533203,28.321163177490234,-1.6128053665161133,0.11701273380816207,-0.18088235605715117,-0.9765191208542483,0.06726905923265365,4.0,0
52.986183166503906,29.410629272460938,-2.855325937271118,-0.0,-0.0,-1.0,0.10576657815223897,2.0,0
53.20127868652344,29.407941818237305,-2.8827054500579834,0.8286890922453763,-0.2024341188167531,-0.5218187577429723,0.09283671450654594,3.0,0
52.88370895385742,29.696945190429688,-2.8912193775177,-0.0,-0.0,-1.0,0.18087378211747776,2.0,0
54.85508728027344,29.80921173095703,-3.1675689220428467,-0.5755868958112103,0.12462631304657569,-0.808188101537527,0.08411283266870619,3.0,0
54.479949951171875,30.19180679321289,-3.181795358657837,-0.0,-0.0,-1.0,0.045257165987937775,1.0,0
54.66081619262695,30.04376220703125,-3.1807377338409424,-0.0,-0.0,-1.0,0.059681035714315156,2.0,0
54.436927795410156,30.355209350585938,-3.2037394046783447,-0.0,-0.0,-1.0,0.03328389713553168,2.0,0
52.84357452392578,29.47353744506836,-2.847736120223999,0.704801304590387,0.2190923383426379,0.6747248834356444,0.08408211448589892,3.0,0
53.602298736572266,28.35495376586914,-1.330946922302246,-0.0,-0.0,-1.0,0.09972703317350574,2.0,0
54.284202575683594,29.059635162353516,-3.1481969356536865,-0.0,-0.0,-1.0,0.009298920245678452,2.0,0
54.59370040893555,29.021806716918945,-3.1893370151519775,-0.0,-0.0,-1.0,0.006279965833470822,1.0,0
54.99014663696289,28.847749710083008,-3.222215414047241,-0.0,-0.0,-1.0,0.009353093179420919,1.0,0
53.038917541503906,30.608169555664062,-3.2308332920074463,-0.0,-0.0,-1.0,0.02974004676956222,1.0,0
54.12035369873047,29.10674285888672,-3.131108522415161,-0.0,-0.0,-1.0,0.01078806610827587,2.0,0
52.955474853515625,29.228595733642578,-2.977633237838745,-0.0,-0.0,-1.0,0.09753240780198122,1.0,0
53.300941467285156,29.222919464111328,-3.02768874168396,-0.0,-0.0,-1.0,0.07292276238020316,1.0,0
53.748504638671875,29.202899932861328,-3.0911433696746826,0.8878624049185242,0.11253069335685395,-0.4461358458865634,0.044546885375045774,3.0,0
54.04795837402344,29.183807373046875,-3.133014440536499,-0.0,-0.0,-1.0,0.011017275168311903,2.0,0
54.982852935791016,28.449573516845703,-3.202002763748169,-0.0,-0.0,-1.0,0.030444598752962997,1.0,0
54.207122802734375,29.046300888061523,-3.1811697483062744,-0.0,-0.0,-1.0,0.010803659282485554,1.0,0
54.52710723876953,28.964099884033203,-3.217348337173462,-0.0,-0.0,-1.0,0.005052248625372805,1.0,0
54.807281494140625,28.79077911376953,-3.231982469558716,-0.0,-0.0,-1.0,0.004156171972341115,1.0,0
52.916046142578125,29.23712921142578,-3.0163166522979736,-0.0,-0.0,-1.0,0.07305198465235804,1.0,0
53.31048583984375,29.16704559326172,-3.0636160373687744,-0.0,-0.0,-1.0,0.05559830982701077,1.0,0
53.727821350097656,29.198482513427734,-3.1334197521209717,0.8878624049185242,0.11253069335685395,-0.4461358458865634,0.04380205563351551,3.0,0
54.03413772583008,29.117671966552734,-3.1666643619537354,-0.0,-0.0,-1.0,0.010198478792002166,1.0,0
53.655433654785156,28.36016082763672,-1.647425651550293,-0.0,-0.0,-1.0,0.06842930048184918,2.0,0
53.65414047241211,28.3349666595459,-2.777775764465332,-0.0,-0.0,-1.0,0.041060408157353075,1.0,0
52.88199234008789,29.418163299560547,-2.853304386138916,0.8126490090198772,-0.27670218665948326,0.5128718046811226,0.07226337856827507,5.0,0
53.031578063964844,29.348072052001953,-2.8628029823303223,-0.1793017348065649,0.9805009313189209,0.08042892252221671,0.13419587401421665,4.0,0
54.849342346191406,29.48147964477539,-3.165076732635498,-0.0,-0.0,-1.0,0.03309060096467956,2.0,0
55.190773010253906,29.426555633544922,-3.209372043609619,-0.0,-0.0,-1.0,0.03168707016817584,1.0,0
52.89326858520508,29.71924591064453,-2.9100823402404785,-0.0,-0.0,-1.0,0.15998990207696973,2.0,0
54.53073501586914,29.88144302368164,-3.185898780822754,-0.0,-0.0,-1.0,0.05122606874181348,1.0,0
54.68892288208008,29.701993942260742,-3.178682804107666,-0.0,-0.0,-1.0,0.06598244180508757,2.0,0
54.16362380981445,30.338878631591797,-3.2119240760803223,-0.0,-0.0,-1.0,0.014432101401579873,1.0,0
54.35283279418945,30.140918731689453,-3.2050046920776367,-0.0,-0.0,-1.0,0.03639884865979055,1.0,0
53.621585845947266,28.319610595703125,-1.5051143169403076,-0.2507305547628856,-0.4420318411579136,-0.8612444718608302,0.08031754016148154,4.0,0
55.003746032714844,29.589492797851562,-3.2061820030212402,-0.9213380129751745,-0.31144459101782895,0.23267688448295598,0.0715853716989407,3.0,0
54.64047622680664,29.87438201904297,-3.1979284286499023,-0.0,-0.0,-1.0,0.06260924785488457,2.0,0
54.80945587158203,29.719818115234375,-3.197575569152832,-0.0,-0.0,-1.0,0.12296366420328533,2.0,0
54.274314880371094,30.351972579956055,-3.2262678146362305,-0.0,-0.0,-1.0,0.02539795378008725,1.0,0
54.46285629272461,30.166900634765625,-3.2223801612854004,-0.0,-0.0,-1.0,0.045257165987937775,1.0,0
54.2147216796875,30.485946655273438,-3.241507053375244,-0.0,-0.0,-1.0,0.010274803351681223,1.0,0
52.957733154296875,29.441694259643555,-2.8523383140563965,0.6920366799476525,0.5943882861816392,0.4096190899568578,0.05756186794658968,3.0,0
52.920021057128906,29.81036376953125,-2.9152674674987793,-0.0,-0.0,-1.0,0.21326596018145205,2.0,0
53.62757110595703,28.332714080810547,-1.5405443906784058,-0.0,-0.0,-1.0,0.0852254553655057,2.0,0
54.82987976074219,29.838104248046875,-3.1451609134674072,-0.5755868958112103,0.12462631304657569,-0.808188101537527,0.1183303700768635,3.0,0
54.5079345703125,30.25140380859375,-3.169358491897583,-0.0,-0.0,-1.0,0.04411232631443974,1.0,0
54.67161560058594,30.04123306274414,-3.1566884517669678,-0.0,-0.0,-1.0,0.06935213139861633,2.0,0
54.2866096496582,30.597152709960938,-3.19889235496521,-0.0,-0.0,-1.0,0.016257515935741047,1.0,0
52.90981674194336,29.441139221191406,-2.7630093097686768,-0.0,-0.0,-1.0,0.05468508487151699,1.0,0
53.58137893676758,28.318592071533203,-3.0098366737365723,-0.0,-0.0,-1.0,0.14414433625223003,1.0,0
54.659912109375,28.151927947998047,-3.1729273796081543,-0.0,-0.0,-1.0,0.037617562921727236,1.0,0
54.03749084472656,28.852832794189453,-3.208833694458008,-0.0,-0.0,-1.0,0.006018846608771059,2.0,0
54.26803207397461,28.648893356323242,-3.206334114074707,-0.0,-0.0,-1.0,0.038516525083655474,1.0,0
52.79463577270508,29.1787109375,-3.065034866333008,-0.0,-0.0,-1.0,0.04236791878155492,2.0,0
53.10572052001953,29.05144500732422,-3.0890111923217773,-0.0,-0.0,-1.0,0.022243757879286112,1.0,0
53.57525634765625,28.993099212646484,-3.1574831008911133,-0.0,-0.0,-1.0,0.03869927268254361,1.0,0
53.81596374511719,28.939632415771484,-3.188159942626953,-0.0,-0.0,-1.0,0.005717748722075635,1.0,0
53.631324768066406,28.366817474365234,-2.4604761600494385,-0.0,-0.0,-1.0,0.04899305212572695,1.0,0
54.539283752441406,29.643451690673828,-2.8446502685546875,-0.0,-0.0,-1.0,0.099441284508847,1.0,0
52.726661682128906,28.16620635986328,-3.036259651184082,-0.0,-0.0,-1.0,0.058131391086099625,1.0,0
52.861507415771484,28.246170043945312,-3.0807085037231445,-0.0,-0.0,-1.0,0.05813200597407646,1.0,0
54.773616790771484,29.704509735107422,-3.1796908378601074,-0.0,-0.0,-1.0,0.09038666708712208,2.0,0
55.077239990234375,29.580902099609375,-3.2032470703125,-0.0,-0.0,-1.0,0.07698910925785866,1.0,0
54.40485763549805,30.094255447387695,-3.2061986923217773,-0.0,-0.0,-1.0,0.039129921936836946,1.0,0
54.55656814575195,29.94532012939453,-3.197437286376953,-0.0,-0.0,-1.0,0.053186763502755086,1.0,0
54.043975830078125,30.444459915161133,-3.2282094955444336,-0.0,-0.0,-1.0,0.00833645965541424,1.0,0
54.232330322265625,30.25607681274414,-3.21512508392334,-0.0,-0.0,-1.0,0.017538167727921796,1.0,0
52.880313873291016,29.412559509277344,-2.815009117126465,0.8126490090198772,-0.27670218665948326,0.5128718046811226,0.06961508402659113,5.0,0
53.02876281738281,29.34952163696289,-2.823009490966797,0.9237519286628711,-0.3747543340981229,0.07900356552902177,0.13667812544147062,3.0,0
52.86731719970703,29.604251861572266,-2.8571853637695312,-0.0,-0.0,-1.0,0.14429542309024856,2.0,0
53.61702346801758,28.301673889160156,-2.138509750366211,-0.0,-0.0,-1.0,0.03544480869435875,1.0,0
54.33149337768555,28.60205078125,-3.185056209564209,-0.0,-0.0,-1.0,0.03559404496026248,1.0,0
54.58817672729492,28.399751663208008,-3.1781272888183594,-0.0,-0.0,-1.0,0.03437970510889536,1.0,0
52.969871520996094,29.00444793701172,-3.0693187713623047,-0.0,-0.0,-1.0,0.028888202599245825,1.0,0
53.4125862121582,28.918275833129883,-3.115459442138672,-0.0,-0.0,-1.0,0.009848995767196375,1.0,0
53.78150177001953,28.891704559326172,-3.168135166168213,-0.0,-0.0,-1.0,0.0037709767194797094,2.0,0
54.155670166015625,28.758548736572266,-3.1956911087036133,-0.0,-0.0,-1.0,0.0070489581671021725,1.0,0
54.773399353027344,30.470712661743164,-3.126345157623291,-0.0,-0.0,-1.0,0.0493288131893027,1.0,0
54.86149215698242,30.395435333251953,-3.121847152709961,-0.0,-0.0,-1.0,0.04240620186178185,1.0,0
53.056724548339844,29.734668731689453,-2.714691638946533,-0.0,-0.0,-1.0,0.18681659896023706,1.0,0
54.79198455810547,29.994613647460938,-3.0197153091430664,-0.0,-0.0,-1.0,0.08876423690093387,1.0,0
54.9661750793457,29.933595657348633,-3.03182315826416,-0.0,-0.0,-1.0,0.11691425198275177,1.0,0
55.14904022216797,29.55449676513672,-3.2016234397888184,-0.0,-0.0,-1.0,0.048310370573186545,2.0,0
54.999393463134766,29.61278533935547,-3.192239284515381,-0.4784863157048323,-0.5150972608907272,0.7111439077332278,0.09492765236165736,3.0,0
53.3553581237793,29.396427154541016,-2.9863533973693848,-0.0,-0.0,-1.0,0.17282782415285747,1.0,0
54.43905258178711,30.43231773376465,-3.1831560134887695,-0.0,-0.0,-1.0,0.01715834922647049,2.0,0
54.61440658569336,30.27403450012207,-3.1576743125915527,-0.0,-0.0,-1.0,0.038872742687653165,1.0,0
54.88665771484375,29.93490219116211,-3.095541000366211,-0.0,-0.0,-1.0,0.1344961684695912,1.0,0
55.11001205444336,29.748779296875,-3.069000244140625,-0.0,-0.0,-1.0,0.06464500368867541,1.0,0
55.20500564575195,29.597938537597656,-3.232537269592285,-0.0,-0.0,-1.0,0.0522787263163581,1.0,0
54.09902572631836,29.771076202392578,-3.214608669281006,-0.0,-0.0,-1.0,0.012014702663071114,1.0,0
53.79083251953125,29.775590896606445,-3.2020559310913086,-0.0,-0.0,-1.0,0.003142295281414744,2.0,0
53.45176315307617,29.535545349121094,-3.1313443183898926,-0.0,-0.0,-1.0,0.0919403424550289,1.0,0
54.31104278564453,29.673736572265625,-3.201831340789795,-0.0,-0.0,-1.0,0.014828228818104106,2.0,0
53.06877517700195,29.210281372070312,-3.0399675369262695,-0.0,-0.0,-1.0,0.0443638706907337,2.0,0
52.86585998535156,29.166194915771484,-3.022526264190674,0.9071623609386142,-0.18955585871883512,0.37566611148950324,0.041849939520940044,3.0,0
55.017581939697266,29.54605484008789,-3.209538459777832,-0.0,-0.0,-1.0,0.05954991921944763,2.0,0
54.72846221923828,29.49649429321289,-3.181939125061035,-0.0,-0.0,-1.0,0.031086757807220592,2.0,0
53.51844787597656,28.304828643798828,-2.2059316635131836,-0.0,-0.0,-1.0,0.039315729343462294,1.0,0
53.528770446777344,28.34333610534668,-1.5844298601150513,0.7839259499143646,-0.359515987753596,-0.5061702871568199,0.08708835307867935,4.0,0
54.327022552490234,29.61408042907715,-3.20432448387146,-0.0,-0.0,-1.0,0.016154087614305215,2.0,0
53.974246978759766,29.670677185058594,-3.200850248336792,-0.0,-0.0,-1.0,0.002797663569785025,1.0,0
55.130096435546875,29.516254425048828,-3.2251760959625244,-0.0,-0.0,-1.0,0.04463046465187518,2.0,0
54.77977752685547,29.4506893157959,-3.190190553665161,-0.0,-0.0,-1.0,0.031871357999532744,1.0,0
54.37472915649414,29.5487003326416,-3.191518545150757,-0.0,-0.0,-1.0,0.018566155184746462,1.0,0
53.81681823730469,29.635820388793945,-3.185737371444702,-0.0,-0.0,-1.0,0.0036662573968176924,1.0,0
53.551979064941406,29.506423950195312,-3.144232988357544,-0.0,-0.0,-1.0,0.10099480320498706,2.0,0
54.619327545166016,29.43644142150879,-3.1781842708587646,-0.0,-0.0,-1.0,0.034757532938988464,1.0,0
54.28321838378906,29.514415740966797,-3.1791484355926514,-0.0,-0.0,-1.0,0.019365557165109397,1.0,0
53.47015380859375,29.443208694458008,-3.126096487045288,-0.0,-0.0,-1.0,0.11676021581338385,1.0,0
53.12305450439453,29.220054626464844,-3.060408353805542,-0.0,-0.0,-1.0,0.06509154814029912,2.0,0
53.51902389526367,28.31930160522461,-1.5830109119415283,0.7839259499143646,-0.359515987753596,-0.5061702871568199,0.0870883530786792,4.0,0
55.06458282470703,28.808425903320312,-3.2734456062316895,-0.0,-0.0,-1.0,0.008614775250406617,1.0,0
54.0540657043457,28.83538055419922,-3.203380584716797,-0.0,-0.0,-1.0,0.005813621690815524,2.0,0
53.777557373046875,28.85297393798828,-3.188717842102051,-0.0,-0.0,-1.0,0.003301506245516056,2.0,0
53.362823486328125,28.81842041015625,-3.153956413269043,-0.0,-0.0,-1.0,0.010287609502380736,1.0,0
52.9953727722168,28.812984466552734,-3.1306943893432617,-0.0,-0.0,-1.0,0.02371602945312827,2.0,0
53.59271240234375,28.35980224609375,-1.7618716955184937,-0.0,-0.0,-1.0,0.07763873329772258,1.0,0
54.82052993774414,29.994586944580078,-3.144390344619751,-0.0,-0.0,-1.0,0.09592590622706926,1.0,0
54.74595642089844,29.989013671875,-3.1296708583831787,-0.0,-0.0,-1.0,0.06411698364474683,1.0,0
54.454734802246094,29.5888671875,-3.006124258041382,-0.0,-0.0,-1.0,0.08548592401838861,1.0,0
53.52433776855469,28.219806671142578,-1.314934492111206,-0.0,-0.0,-1.0,0.09887270540082846,1.0,0
54.83315658569336,29.219867706298828,-3.2154364585876465,-0.0,-0.0,-1.0,0.014524494202879757,1.0,0
54.51271057128906,29.27889633178711,-3.200258731842041,-0.0,-0.0,-1.0,0.02047577481044482,1.0,0
54.2520751953125,29.23050308227539,-3.1676697731018066,-0.0,-0.0,-1.0,0.007395687888502629,1.0,0
53.97266387939453,29.25252914428711,-3.1500515937805176,-0.0,-0.0,-1.0,0.010447568189488176,1.0,0
53.73088073730469,29.215538024902344,-3.1230292320251465,0.8878624049185242,0.11253069335685395,-0.4461358458865634,0.042947014975996664,3.0,0
53.41026306152344,29.130558013916016,-3.080228805541992,-0.0,-0.0,-1.0,0.06824490322024693,1.0,0
53.19364929199219,29.121196746826172,-3.0627098083496094,-0.0,-0.0,-1.0,0.04156401227532427,1.0,0
52.873451232910156,29.151615142822266,-3.0482144355773926,0.9071623609386142,-0.18955585871883512,0.37566611148950324,0.037093788771635224,3.0,0
53.217220306396484,28.282485961914062,-2.874788761138916,-0.0,-0.0,-1.0,0.12122374035703422,1.0,0
53.445919036865234,29.390174865722656,-2.7703068256378174,-0.0,-0.0,-1.0,0.1400108521013875,1.0,0
53.26951217651367,29.473590850830078,-2.781700849533081,-0.0,-0.0,-1.0,0.07675155661563625,1.0,0
53.94593048095703,28.30019760131836,-1.280320167541504,-0.0,-0.0,-1.0,0.09073220992074948,1.0,0
54.909088134765625,29.295509338378906,-3.2110955715179443,-0.0,-0.0,-1.0,0.019157755509022007,1.0,0
54.57295608520508,29.366626739501953,-3.1991426944732666,-0.0,-0.0,-1.0,0.02173458103587255,1.0,0
54.377037048339844,29.303386688232422,-3.1691176891326904,-0.0,-0.0,-1.0,0.022418078849325066,1.0,0
54.02538299560547,29.46432113647461,-3.1789357662200928,-0.0,-0.0,-1.0,0.004757370855260793,2.0,0
53.80691146850586,29.52733612060547,-3.1774919033050537,-0.0,-0.0,-1.0,0.004580526343133212,1.0,0
53.535499572753906,29.373088836669922,-3.1228649616241455,-0.0,-0.0,-1.0,0.1254786158012943,1.0,0
53.24851989746094,29.162452697753906,-3.054558038711548,-0.0,-0.0,-1.0,0.07058696291316335,1.0,0
52.78229522705078,29.16141128540039,-3.0249950885772705,-0.0,-0.0,-1.0,0.04236791878155487,2.0,0
53.9684944152832,28.25818634033203,-2.898963212966919,-0.0,-0.0,-1.0,0.06508172623624457,1.0,0
53.67662048339844,28.249820709228516,-2.8743197917938232,-0.0,-0.0,-1.0,0.053220744102922914,1.0,0
52.74732208251953,28.445865631103516,-2.8548386096954346,-0.0,-0.0,-1.0,0.08081988956246217,1.0,0
53.64696502685547,28.32815933227539,-1.616096019744873,-0.16935691121809246,-0.4712183387521247,-0.865604709926162,0.0672690592326536,5.0,0
55.035072326660156,29.028461456298828,-3.3199281692504883,-0.0,-0.0,-1.0,0.010760770024703138,1.0,0
54.78299331665039,29.073566436767578,-3.284377098083496,-0.0,-0.0,-1.0,0.009290831926584937,1.0,0
54.42271423339844,29.175315856933594,-3.2418088912963867,-0.0,-0.0,-1.0,0.00985981459130659,1.0,0
53.750789642333984,29.48943328857422,-3.1917243003845215,-0.0,-0.0,-1.0,0.009940050228702526,1.0,0
54.23060607910156,29.152355194091797,-3.2053489685058594,-0.0,-0.0,-1.0,0.009945831264039341,1.0,0
53.944435119628906,29.29815673828125,-3.1861000061035156,-0.0,-0.0,-1.0,0.008913285270738282,1.0,0
53.526737213134766,29.465808868408203,-3.1518659591674805,-0.0,-0.0,-1.0,0.10932715540801695,2.0,0
53.371803283691406,29.357559204101562,-3.106761932373047,-0.0,-0.0,-1.0,0.06540225850246928,1.0,0
53.03704833984375,29.218978881835938,-3.0284695625305176,-0.0,-0.0,-1.0,0.0496496856983665,2.0,0
52.836605072021484,29.22797393798828,-3.0001068115234375,-0.0,-0.0,-1.0,0.045413779320230434,1.0,0
53.60258102416992,28.258697509765625,-2.9323883056640625,-0.0,-0.0,-1.0,0.11330234300692289,1.0,0
54.47240447998047,30.274093627929688,-3.1973865032196045,-0.0,-0.0,-1.0,0.040229988813042884,1.0,0
54.18391418457031,30.552230834960938,-3.228135824203491,-0.0,-0.0,-1.0,0.010103930198719028,1.0,0
55.148651123046875,29.833404541015625,-3.1753170490264893,-0.0,-0.0,-1.0,0.06295177129467104,1.0,0
54.78724670410156,29.887924194335938,-3.1493985652923584,-0.0,-0.0,-1.0,0.10514490985460867,2.0,0
54.596622467041016,30.102819442749023,-3.1741960048675537,-0.0,-0.0,-1.0,0.0675966749859081,1.0,0
53.13753128051758,29.33293342590332,-2.881355047225952,-0.0,-0.0,-1.0,0.1204015465832269,1.0,0
52.752830505371094,29.553028106689453,-2.89605975151062,-0.0,-0.0,-1.0,0.11692990080534076,2.0,0
52.934940338134766,29.352705001831055,-2.8684651851654053,-0.0,-0.0,-1.0,0.13650368509741234,2.0,0
52.720916748046875,28.384902954101562,-2.6465845108032227,-0.0,-0.0,-1.0,0.09184603921969971,1.0,0
54.73320770263672,30.602367401123047,-3.2018256187438965,-0.0,-0.0,-1.0,0.028425097275188282,1.0,0
54.86670684814453,30.41277313232422,-3.180260181427002,-0.0,-0.0,-1.0,0.05334295017842655,1.0,0
54.807247161865234,29.883155822753906,-3.0740251541137695,-0.0,-0.0,-1.0,0.1207925821867301,2.0,0
52.87263488769531,29.477523803710938,-2.7958126068115234,-0.0,-0.0,-1.0,0.11314742890703408,1.0,0
52.98292922973633,29.351821899414062,-2.7816100120544434,-0.0,-0.0,-1.0,0.07744375762725161,1.0,0
54.15423583984375,28.84414291381836,-3.209050178527832,-0.0,-0.0,-1.0,0.0076842025679736995,1.0,0
54.415550231933594,28.641380310058594,-3.2019944190979004,-0.0,-0.0,-1.0,0.03287957037374488,1.0,0
54.31148147583008,28.719852447509766,-3.20418119430542,-0.0,-0.0,-1.0,0.008081644962984719,2.0,0
53.72737503051758,28.93857765197754,-3.1757020950317383,-0.0,-0.0,-1.0,0.004898582102045158,1.0,0
53.47618865966797,28.922245025634766,-3.1425724029541016,-0.0,-0.0,-1.0,0.009837441691868112,1.0,0
52.99512481689453,28.94881248474121,-3.0924072265625,-0.0,-0.0,-1.0,0.024051904871018603,2.0,0
53.50365447998047,28.256399154663086,-3.011098861694336,-0.0,-0.0,-1.0,0.15245353595432096,1.0,0
52.71150207519531,28.16413688659668,-2.897979736328125,-0.0,-0.0,-1.0,0.07206156751271794,1.0,0
54.061927795410156,28.534732818603516,-3.2068872451782227,-0.0,-0.0,-1.0,0.034793434874758285,1.0,0
53.94632339477539,28.6597900390625,-3.2142505645751953,-0.0,-0.0,-1.0,0.0047025038184270555,1.0,0
53.50252151489258,28.754173278808594,-3.172330379486084,-0.0,-0.0,-1.0,0.028339925116416146,1.0,0
52.96085739135742,28.83953094482422,-3.118504047393799,-0.0,-0.0,-1.0,0.019373976677756314,2.0,0
53.4638671875,28.1839599609375,-3.059030055999756,-0.0,-0.0,-1.0,0.14023167784279464,1.0,0
54.98970031738281,30.355892181396484,-3.161196708679199,-0.0,-0.0,-1.0,0.047164592162460175,1.0,0
54.90011978149414,29.806846618652344,-3.0706772804260254,-0.7194299549009734,0.6237341970073089,0.30557518137903594,0.12036619003618308,4.0,0
54.787254333496094,29.960474014282227,-3.075502395629883,-0.0,-0.0,-1.0,0.10379874091912833,2.0,0
53.13811492919922,29.534379959106445,-2.777100086212158,-0.0,-0.0,-1.0,0.083239829868412,1.0,0
52.958377838134766,29.645471572875977,-2.7687578201293945,-0.0,-0.0,-1.0,0.12563166475494772,1.0,0
52.904388427734375,28.792552947998047,-3.119080066680908,-0.0,-0.0,-1.0,0.025337233505599483,1.0,0
53.1132698059082,28.59429168701172,-3.1231584548950195,-0.0,-0.0,-1.0,0.036851751732070254,1.0,0
52.819976806640625,28.44927406311035,-3.0528697967529297,-0.0,-0.0,-1.0,0.04614847677735845,1.0,0
52.78276443481445,28.71346092224121,-3.167114734649658,-0.0,-0.0,-1.0,0.034824265022802045,1.0,0
54.351253509521484,30.076282501220703,-3.1771652698516846,-0.0,-0.0,-1.0,0.038009901008765855,1.0,0
54.17266082763672,30.23236083984375,-3.1715519428253174,-0.0,-0.0,-1.0,0.014163637651520237,1.0,0
55.11132049560547,29.371204376220703,-3.2022969722747803,-0.0,-0.0,-1.0,0.02436096246035995,1.0,0
54.596649169921875,29.56542205810547,-3.148139238357544,-0.0,-0.0,-1.0,0.03724934185698034,1.0,0
54.48411560058594,29.82701873779297,-3.164593458175659,-0.0,-0.0,-1.0,0.03252057829085709,1.0,0
54.692115783691406,29.43416976928711,-3.1460611820220947,-0.0,-0.0,-1.0,0.04212700608805955,1.0,0
52.77547836303711,29.65771484375,-2.894080877304077,-0.0,-0.0,-1.0,0.13782796147184043,1.0,0
52.888545989990234,29.366268157958984,-2.8708555698394775,0.08169004158295949,0.7908699324532503,-0.6065076149955297,0.09635813704500448,4.0,0
53.451114654541016,28.292156219482422,-2.0561821460723877,-0.0,-0.0,-1.0,0.03892802448265331,1.0,0
53.545082092285156,28.359085083007812,-1.3198087215423584,-0.0,-0.0,-1.0,0.09972703317350577,2.0,0
53.56085205078125,30.609966278076172,-3.210629940032959,-0.0,-0.0,-1.0,0.0049930045445455784,1.0,0
53.97657775878906,29.711448669433594,-3.1670784950256348,-0.0,-0.0,-1.0,0.01268962520213716,1.0,0
53.94965362548828,29.787322998046875,-3.171703815460205,-0.0,-0.0,-1.0,0.0034536470003295387,1.0,0
54.52785110473633,29.0891170501709,-3.1849145889282227,-0.0,-0.0,-1.0,0.00816753487244606,1.0,0
53.95335006713867,29.44205665588379,-3.1322989463806152,-0.0,-0.0,-1.0,0.005196316116765231,1.0,0
54.936744689941406,28.7586727142334,-3.216433525085449,-0.0,-0.0,-1.0,0.004266209683248365,1.0,0
54.7850341796875,28.9412784576416,-3.210935592651367,-0.0,-0.0,-1.0,0.0073950412982256445,1.0,0
54.27655792236328,29.095752716064453,-3.1449031829833984,-0.0,-0.0,-1.0,0.009232359598345582,2.0,0
54.120941162109375,29.116905212402344,-3.1221609115600586,-0.0,-0.0,-1.0,0.010780563196741496,2.0,0
54.997596740722656,28.264057159423828,-3.1752638816833496,-0.0,-0.0,-1.0,0.031278490050582086,1.0,0
54.05546569824219,29.16541290283203,-3.1170878410339355,-0.0,-0.0,-1.0,0.011017275168311845,2.0,0
53.180477142333984,29.24805450439453,-2.987978458404541,-0.0,-0.0,-1.0,0.09591194287435285,1.0,0
52.778480529785156,29.354339599609375,-2.938316822052002,-0.0,-0.0,-1.0,0.07011286763506278,2.0,0
54.829124450683594,30.04751968383789,-3.0085251331329346,-0.0,-0.0,-1.0,0.08876423690093388,1.0,0
54.66339874267578,29.850563049316406,-3.233201265335083,-0.0,-0.0,-1.0,0.05184640339418844,2.0,0
54.577430725097656,30.058555603027344,-3.238476514816284,-0.0,-0.0,-1.0,0.05933431035832038,1.0,0
54.97100830078125,29.589359283447266,-3.2584264278411865,-0.0,-0.0,-1.0,0.06431131255912044,1.0,0
54.806236267089844,29.692394256591797,-3.241579294204712,-0.0,-0.0,-1.0,0.10428251635530018,2.0,0
52.841949462890625,29.654075622558594,-2.937309980392456,-0.0,-0.0,-1.0,0.13785098113842317,1.0,0
53.18238830566406,29.333839416503906,-2.9591262340545654,0.07581905785739182,0.42943763214392644,-0.8999082122995851,0.09042047095869828,3.0,0
52.91717529296875,29.30510139465332,-2.9160706996917725,-0.0,-0.0,-1.0,0.1036565998004466,2.0,0
52.7528076171875,29.441829681396484,-2.903862714767456,-0.0,-0.0,-1.0,0.07533859740886326,2.0,0
53.46375274658203,28.363651275634766,-2.2600011825561523,-0.0,-0.0,-1.0,0.049323540958776835,1.0,0
52.89324188232422,29.42047119140625,-2.848593235015869,0.8126490090198772,-0.27670218665948326,0.5128718046811226,0.07185126593225061,5.0,0
54.78092956542969,29.879453659057617,-3.030174732208252,-0.0,-0.0,-1.0,0.12079258218673022,1.0,0
53.53192901611328,28.32887077331543,-1.5646122694015503,0.7839259499143646,-0.359515987753596,-0.5061702871568199,0.08708835307867918,4.0,0
53.13022232055664,29.14068603515625,-3.115731716156006,-0.0,-0.0,-1.0,0.03299223207165405,1.0,0
53.46668243408203,29.162765502929688,-3.144331455230713,-0.0,-0.0,-1.0,0.06464019757043911,1.0,0
55.12562561035156,28.975444793701172,-3.2517824172973633,-0.0,-0.0,-1.0,0.010777802305863943,1.0,0
53.53863525390625,28.282676696777344,-1.8712239265441895,-0.0,-0.0,-1.0,0.05941512981075666,2.0,0
54.78171920776367,29.82681655883789,-3.0982160568237305,-0.0,-0.0,-1.0,0.08695605138166795,2.0,0
54.73138427734375,30.075199127197266,-3.145904064178467,-0.0,-0.0,-1.0,0.06857963047016626,1.0,0
54.77362823486328,30.470111846923828,-3.2240681648254395,-0.0,-0.0,-1.0,0.046289573026294044,1.0,0
53.022708892822266,29.373149871826172,-2.982558250427246,-0.0,-0.0,-1.0,0.06727325861302527,1.0,0
52.882999420166016,29.0228271484375,-3.100087881088257,-0.0,-0.0,-1.0,0.029822290936665694,2.0,0
55.12337112426758,29.764602661132812,-3.1889853477478027,-0.0,-0.0,-1.0,0.06971077837002641,1.0,0
54.42828369140625,30.385356903076172,-3.1778321266174316,-0.8736816629012387,0.1478028934805287,-0.46350259609727074,0.027585320118237305,3.0,0
53.52357482910156,28.334651947021484,-2.897915840148926,-0.0,-0.0,-1.0,0.14931364467897223,1.0,0
52.8130989074707,29.4205322265625,-2.928668975830078,0.6735691161347445,0.37509600040950486,-0.6368733282735678,0.0729435687857885,4.0,0
52.93627166748047,29.56415557861328,-2.777719497680664,-0.0,-0.0,-1.0,0.09515234565454236,2.0,0
52.93452072143555,29.493656158447266,-2.773608922958374,-0.0,-0.0,-1.0,0.07839374476314234,1.0,0
53.07096481323242,29.409709930419922,-2.7770020961761475,-0.0,-0.0,-1.0,0.09480573045682489,1.0,0
52.809906005859375,29.658084869384766,-2.779895067214966,-0.00536615434344666,0.04873923790673429,-0.9987971220802717,0.1371997852661116,3.0,0
53.57244873046875,28.34171485900879,-2.3573379516601562,-0.0,-0.0,-1.0,0.048028778460430716,2.0,0
52.92430877685547,29.35027503967285,-2.9400620460510254,-0.0,-0.0,-1.0,0.09583299613542345,2.0,0
53.083831787109375,29.382904052734375,-2.960190773010254,-0.0,-0.0,-1.0,0.09387261903183983,1.0,0
54.68120193481445,29.777206420898438,-3.1716866493225098,-0.0,-0.0,-1.0,0.0644206201259111,2.0,0
54.973594665527344,29.64369773864746,-3.1872072219848633,-0.0,-0.0,-1.0,0.09657528697160167,2.0,0
54.36223602294922,30.24018096923828,-3.1921963691711426,-0.0,-0.0,-1.0,0.030452252166557333,1.0,0
54.559104919433594,30.008127212524414,-3.1855907440185547,-0.0,-0.0,-1.0,0.0511164108398703,1.0,0
54.25556182861328,30.492271423339844,-3.2107434272766113,-0.0,-0.0,-1.0,0.01608668147065731,1.0,0
52.91043472290039,29.319456100463867,-2.9332988262176514,0.6579738539205806,-0.43162196474306663,-0.617067976083862,0.09551159102572063,3.0,0
52.72956085205078,29.463037490844727,-2.9350173473358154,-0.0,-0.0,-1.0,0.07909045502811708,2.0,0
54.63861846923828,29.819908142089844,-3.16461443901062,-0.0,-0.0,-1.0,0.060610204621420485,1.0,0
54.9334716796875,29.711889266967773,-3.1799190044403076,-0.0,-0.0,-1.0,0.08649383872150852,1.0,0
54.30252456665039,30.31509780883789,-3.1956636905670166,-0.0,-0.0,-1.0,0.017538167727921793,1.0,0
54.494171142578125,30.095935821533203,-3.185941457748413,-0.0,-0.0,-1.0,0.046434979486903664,1.0,0
54.28425979614258,30.44220542907715,-3.210383176803589,-0.0,-0.0,-1.0,0.015454982279735829,1.0,0
53.550235748291016,28.274261474609375,-1.9364650249481201,0.6658419086723636,-0.4507597945468808,-0.5945335653061128,0.046764808275503916,3.0,0
54.71693801879883,28.27206802368164,-2.856754779815674,-0.0,-0.0,-1.0,0.03736684374005355,1.0,0
54.51211929321289,28.351032257080078,-2.8591203689575195,-0.0,-0.0,-1.0,0.04067061925596089,1.0,0
54.97966766357422,29.693559646606445,-3.2830629348754883,-0.0,-0.0,-1.0,0.06848154575899855,1.0,0
54.6390266418457,30.114538192749023,-3.318397045135498,-0.0,-0.0,-1.0,0.05904400126075073,1.0,0
54.46598815917969,30.255918502807617,-3.3284835815429688,-0.0,-0.0,-1.0,0.03686919931051184,1.0,0
53.128013610839844,29.105138778686523,-3.160900115966797,-0.0,-0.0,-1.0,0.03052513695918242,1.0,0
52.835533142089844,29.056730270385742,-3.147000312805176,-0.0,-0.0,-1.0,0.041018107833652735,1.0,0
53.544227600097656,28.253881454467773,-2.0893304347991943,-0.2986349177451685,0.2850996211473275,-0.9107883354133313,0.038928024482653326,3.0,0
54.887367248535156,29.7658748626709,-3.054971694946289,-0.8729902720443685,0.38600524990100404,0.2981407921851064,0.10776228946052337,3.0,0
54.77245330810547,29.946199417114258,-3.069258689880371,-0.0,-0.0,-1.0,0.0995984777173206,2.0,0
53.62283706665039,28.270910263061523,-1.502776026725769,-0.7866401326504862,-0.04975843349394902,-0.6154034449041161,0.08031754016148156,3.0,0
53.615867614746094,28.260190963745117,-2.5200860500335693,-0.0,-0.0,-1.0,0.0415036643238995,1.0,0
54.8709602355957,29.838220596313477,-3.036543607711792,-0.0,-0.0,-1.0,0.14184728852782624,1.0,0
54.75742721557617,29.265689849853516,-3.2071104049682617,-0.0,-0.0,-1.0,0.014408494449586444,2.0,0
52.76592254638672,29.067882537841797,-3.0473265647888184,-0.0,-0.0,-1.0,0.03148056162270053,1.0,0
53.65010452270508,28.200233459472656,-1.699388861656189,-0.0,-0.0,-1.0,0.0795881074811321,1.0,0
53.584617614746094,28.193092346191406,-2.683049440383911,-0.0,-0.0,-1.0,0.041060408157352964,1.0,0
52.971412658691406,29.539413452148438,-2.7764484882354736,0.27443164985664853,0.3436363498231363,-0.8981098644582347,0.06042721670406225,3.0,0
53.5966796875,28.248497009277344,-1.4675281047821045,-0.0,-0.0,-1.0,0.07761202355412541,2.0,0
53.553096771240234,28.25271987915039,-2.1605682373046875,-0.0,-0.0,-1.0,0.040562652073510584,1.0,0
54.86993408203125,29.717512130737305,-3.155634880065918,-0.0,-0.0,-1.0,0.1069984365226819,2.0,0
53.20848083496094,29.318273544311523,-2.964355945587158,0.07581905785739182,0.42943763214392644,-0.8999082122995851,0.0994255299411028,3.0,0
52.80659866333008,29.3999080657959,-2.936959743499756,0.7268070768194009,0.09513974751599599,-0.6802204800855602,0.0729435687857885,5.0,0
53.68204116821289,28.216838836669922,-1.7473018169403076,-0.0,-0.0,-1.0,0.07763873329772254,1.0,0
54.83760070800781,29.911056518554688,-3.0917534828186035,-0.0,-0.0,-1.0,0.13449616846959114,2.0,0
53.09801483154297,29.37620735168457,-2.8692097663879395,-0.0,-0.0,-1.0,0.14965377660571852,1.0,0
52.87232208251953,29.375547409057617,-2.8453822135925293,0.781155018666563,-0.229803050424473,0.5805061539963627,0.09754594058940333,6.0,0
54.883941650390625,29.75371742248535,-3.1292314529418945,-0.8041149161793175,0.52051998348762,-0.2871552687449365,0.1288448033158408,3.0,0
54.76716613769531,29.829784393310547,-3.1232361793518066,-0.8217817083277219,0.2571197492839941,0.5084921419118555,0.08238644716098772,3.0,0
52.8682861328125,29.342227935791016,-2.890672206878662,-0.0,-0.0,-1.0,0.08529757767946226,2.0,0
53.485023498535156,28.391399383544922,-2.43394136428833,-0.0,-0.0,-1.0,0.048356189087271004,1.0,0
53.50048065185547,28.404985427856445,-2.485586166381836,-0.0,-0.0,-1.0,0.04899305212572695,1.0,0
53.50722122192383,29.206527709960938,-2.8157265186309814,-0.0,-0.0,-1.0,0.10545920803238697,1.0,0
53.037208557128906,29.248628616333008,-2.797339916229248,-0.0,-0.0,-1.0,0.11880587289544796,1.0,0
52.92742919921875,29.451452255249023,-2.815300464630127,-0.0,-0.0,-1.0,0.05630359693913075,2.0,0
54.935508728027344,29.75575065612793,-3.1523921489715576,-0.0,-0.0,-1.0,0.10373922637930771,2.0,0
53.114192962646484,29.241323471069336,-3.0381534099578857,-0.0,-0.0,-1.0,0.06509154814029912,2.0,0
52.80359649658203,29.31483268737793,-3.0367319583892822,-0.0,-0.0,-1.0,0.140838805689721,1.0,0
53.67589569091797,28.272178649902344,-1.2636699676513672,-0.0,-0.0,-1.0,0.09887270540082845,1.0,0
53.71411895751953,28.27737045288086,-1.69758939743042,-0.0,-0.0,-1.0,0.07958810748113211,1.0,0
53.621116638183594,28.374210357666016,-1.1772825717926025,-0.0,-0.0,-1.0,0.09972703317350588,2.0,0
52.919734954833984,29.9254150390625,-2.802523612976074,-0.0,-0.0,-1.0,0.25252923150830825,1.0,0
53.546607971191406,28.327733993530273,-1.5468504428863525,0.7839259499143646,-0.359515987753596,-0.5061702871568199,0.08522545536550556,4.0,0
53.6003303527832,28.17422866821289,-1.730898380279541,-0.0,-0.0,-1.0,0.06900616427096576,1.0,0
53.581912994384766,28.471965789794922,-1.9624266624450684,-0.0,-0.0,-1.0,0.04203390498530047,1.0,0
53.631446838378906,28.452592849731445,-2.4898972511291504,-0.0,-0.0,-1.0,0.044346750380075094,1.0,0
53.555416107177734,28.16849708557129,-2.582245111465454,-0.0,-0.0,-1.0,0.04643939733129467,1.0,0
55.07986831665039,28.17420196533203,-3.1718177795410156,-0.0,-0.0,-1.0,0.029920890090375022,1.0,0
54.718631744384766,30.150901794433594,-3.1093015670776367,-0.0,-0.0,-1.0,0.05077977223740623,1.0,0
52.761226654052734,29.722110748291016,-2.7733097076416016,-0.0,-0.0,-1.0,0.17583605971558383,1.0,0
54.768184661865234,29.860414505004883,-3.137078285217285,0.0056070294154900845,-0.4119612167518025,-0.9111841290943934,0.09186856037597199,3.0,0
55.017818450927734,30.593467712402344,-3.1953792572021484,-0.0,-0.0,-1.0,0.0487763339252486,1.0,0
52.798763275146484,29.437156677246094,-2.778749465942383,-0.0,-0.0,-1.0,0.05909185546160203,1.0,0
54.96858596801758,29.438358306884766,-3.1131887435913086,-0.0,-0.0,-1.0,0.030053699446657253,1.0,0
55.08411407470703,30.374065399169922,-3.2977147102355957,-0.0,-0.0,-1.0,0.05426919604617646,1.0,0
52.79314422607422,29.81201171875,-2.5271501541137695,-0.0,-0.0,-1.0,0.17870769477962062,1.0,0
52.827640533447266,29.48601531982422,-3.1434125900268555,-0.0,-0.0,-1.0,0.13898731407020345,1.0,0
52.81991195678711,29.703826904296875,-2.3576807975769043,-0.0,-0.0,-1.0,0.19580855276196255,1.0,0
