x,y,z,nx,ny,nz,curvature,density,label
53.350059509277344,22.520198822021484,-2.6575000286102295,-0.0,-0.0,-1.0,0.04170115836241958,1.0,0
53.193790435791016,22.37619972229004,-2.636422872543335,-0.0,-0.0,-1.0,0.1139853782481623,1.0,0
53.96852493286133,20.963945388793945,-2.7965023517608643,-0.0,-0.0,-1.0,0.047626894349365505,1.0,0
53.692054748535156,21.170530319213867,-2.7669055461883545,-0.0,-0.0,-1.0,0.04604175234094069,1.0,0
53.52848815917969,21.356775283813477,-2.7504169940948486,-0.0,-0.0,-1.0,0.03764905723731705,2.0,0
53.19811248779297,21.560041427612305,-2.71452260017395,-0.0,-0.0,-1.0,0.03384810981429441,1.0,0
53.28957748413086,22.790557861328125,-2.7470667362213135,-0.0,-0.0,-1.0,0.04713767915797136,1.0,0
52.910037994384766,21.918359756469727,-2.6863067150115967,-0.0,-0.0,-1.0,0.06299812133394611,2.0,0
52.780033111572266,22.242431640625,-2.676438570022583,-0.0,-0.0,-1.0,0.06932224100991687,1.0,0
52.731632232666016,22.62627410888672,-2.6776654720306396,-0.0,-0.0,-1.0,0.06216648912249472,1.0,0
53.697147369384766,21.730403900146484,-2.5620546340942383,-0.8892265676383364,0.07156722119522195,-0.4518343106234151,0.1959887477279843,4.0,0
53.58821487426758,21.926082611083984,-2.551607131958008,-0.0,-0.0,-1.0,0.12248975717670792,1.0,0
53.401832580566406,22.30345916748047,-2.5342965126037598,-0.0,-0.0,-1.0,0.11211415073631575,2.0,0
53.29777145385742,22.32909393310547,-2.522843837738037,0.8710157329389671,0.441961234707623,-0.21448044197200736,0.17378582898748765,3.0,0
55.01426696777344,22.558643341064453,-2.6722590923309326,-0.0,-0.0,-1.0,0.0185638019556982,1.0,0
53.18004608154297,20.749561309814453,-2.514171838760376,-0.0,-0.0,-1.0,0.08100743073235483,1.0,0
53.12635803222656,21.170392990112305,-2.4983127117156982,-0.0,-0.0,-1.0,0.12791539706611224,1.0,0
53.44170379638672,21.406583786010742,-2.5267975330352783,-0.0,-0.0,-1.0,0.11716914836859432,1.0,0
53.89336395263672,21.446504592895508,-2.5746614933013916,-0.5360394517021769,0.09741751572460237,-0.8385532385298361,0.10739334224447929,5.0,0
54.0975341796875,21.637502670288086,-2.592437982559204,-0.0,-0.0,-1.0,0.05264297738692828,1.0,0
53.96283721923828,22.08602523803711,-2.568035364151001,-0.0,-0.0,-1.0,0.08772679668632491,1.0,0
54.366943359375,22.468507766723633,-2.6037800312042236,-0.0,-0.0,-1.0,0.05582761356374036,1.0,0
53.30548095703125,22.049524307250977,-2.4766340255737305,-0.0,-0.0,-1.0,0.1367907229767333,1.0,0
53.69389343261719,21.425870895385742,-2.53309965133667,-0.0,-0.0,-1.0,0.18402259405777832,1.0,0
53.399044036865234,22.25155258178711,-2.483900547027588,0.4242977994484028,-0.6931593096221921,-0.5826676143972043,0.13519605562199974,3.0,0
53.677772521972656,21.575031280517578,-2.528428077697754,-0.0,-0.0,-1.0,0.15578700876808374,1.0,0
54.41825485229492,22.90251922607422,-2.591554641723633,-0.0,-0.0,-1.0,0.09946482711117872,1.0,0
55.112457275390625,21.98223114013672,-2.687415599822998,-0.0,-0.0,-1.0,0.015447586915398673,1.0,0
53.701820373535156,22.15955924987793,-2.3716044425964355,-0.0,-0.0,-1.0,0.06998338245722642,1.0,0
53.53874206542969,22.31549072265625,-2.365063190460205,-0.0,-0.0,-1.0,0.13354061734048542,1.0,0
53.43763732910156,21.368013381958008,-2.771225929260254,-0.0,-0.0,-1.0,0.022636825826132433,1.0,0
53.703102111816406,21.125028610229492,-2.789362907409668,-0.0,-0.0,-1.0,0.06054507168219771,1.0,0
53.03461456298828,21.702938079833984,-2.7411861419677734,-0.0,-0.0,-1.0,0.04218034445709817,1.0,0
53.25737762451172,21.507593154907227,-2.7567801475524902,-0.0,-0.0,-1.0,0.027855794753342343,1.0,0
52.84104919433594,21.8952693939209,-2.729855537414551,-0.0,-0.0,-1.0,0.03955939698552556,1.0,0
54.334495544433594,20.750938415527344,-2.8170244693756104,-0.0,-0.0,-1.0,0.04782838499335818,2.0,0
53.82743835449219,21.0721492767334,-2.761842966079712,-0.0,-0.0,-1.0,0.09857930647448274,1.0,0
54.056556701660156,20.88306427001953,-2.7834503650665283,-0.0,-0.0,-1.0,0.057656908884211946,1.0,0
53.17046356201172,21.635860443115234,-2.7025463581085205,-0.0,-0.0,-1.0,0.04065736342580164,1.0,0
53.45127868652344,21.405412673950195,-2.7285053730010986,-0.0,-0.0,-1.0,0.09609740175993808,1.0,0
52.833797454833984,22.01456642150879,-2.6799099445343018,-0.03230132632276212,0.35915611760137495,-0.9327183430743162,0.05953732092221624,3.0,0
52.97663879394531,21.8199462890625,-2.6867897510528564,-0.0,-0.0,-1.0,0.05460598637094057,2.0,0
53.4405517578125,21.207725524902344,-2.7706336975097656,-0.006968403447769713,-0.9986908705341258,0.050675304292913,0.02486660689367862,3.0,0
53.58454513549805,21.072071075439453,-2.7831077575683594,-0.0,-0.0,-1.0,0.01366491661101448,1.0,0
53.27000045776367,21.44199562072754,-2.7619638442993164,-0.0,-0.0,-1.0,0.03635896506413867,2.0,0
52.895530700683594,21.75295066833496,-2.72698974609375,-0.0,-0.0,-1.0,0.040464804603532675,1.0,0
54.8623046875,21.338077545166016,-2.7132632732391357,-0.0,-0.0,-1.0,0.12737719153887217,2.0,0
53.765769958496094,21.582294464111328,-2.561142683029175,-0.5409699153152878,0.1380811415585977,-0.8296295251916034,0.129287477809235,4.0,0
54.644248962402344,21.46424102783203,-2.6894185543060303,-0.0,-0.0,-1.0,0.049970658885933765,1.0,0
54.08899688720703,22.960472106933594,-2.732018232345581,-0.0,-0.0,-1.0,0.022725919162255585,2.0,0
53.629913330078125,21.766157150268555,-2.555413007736206,-0.6488869087030883,0.5272937078404498,-0.5485500208601038,0.13169138608024303,3.0,0
53.35558319091797,22.129087448120117,-2.5436904430389404,-0.018260826822846143,0.7577121666907664,-0.6523333615970675,0.12109703202203763,3.0,0
53.4666748046875,21.892024993896484,-2.5405662059783936,-0.1373317132974408,-0.6872242175225733,-0.7133462520917009,0.10969422763657884,4.0,0
53.192649841308594,22.354928970336914,-2.5379302501678467,-0.0,-0.0,-1.0,0.1408440859269985,2.0,0
55.032920837402344,21.21928596496582,-2.7183878421783447,-0.0,-0.0,-1.0,0.11492030207208712,2.0,0
54.742698669433594,21.38239288330078,-2.684823751449585,-0.0,-0.0,-1.0,0.06119372083328199,1.0,0
53.642425537109375,21.795879364013672,-2.5416433811187744,-0.6488869087030883,0.5272937078404498,-0.5485500208601038,0.11504598111553554,3.0,0
53.74809265136719,21.61772918701172,-2.5435125827789307,-0.8431319080303519,-0.16618074172506908,-0.5113829746293909,0.10462307681381032,3.0,0
54.55204772949219,21.45392608642578,-2.659895181655884,-0.0,-0.0,-1.0,0.028941061488630997,2.0,0
53.40851593017578,22.050071716308594,-2.5258986949920654,-0.7898395878065556,-0.5376816819129667,-0.2950454786449251,0.14550027757746062,4.0,0
53.24028015136719,22.311603546142578,-2.521692991256714,0.6009546335064302,-0.7265452885857578,0.33314482151309194,0.1536102600942897,3.0,0
54.046836853027344,22.942522048950195,-2.708024263381958,-0.0,-0.0,-1.0,0.022725919162255578,1.0,0
54.127098083496094,22.805313110351562,-2.7085702419281006,-0.0,-0.0,-1.0,0.02711466469134623,2.0,0
53.7254638671875,21.782981872558594,-2.4501163959503174,-0.3461584029683784,-0.7549167137204347,-0.5570234424150572,0.12220266387848014,3.0,0
55.142730712890625,21.703998565673828,-2.675178289413452,-0.0,-0.0,-1.0,0.02194872243254979,1.0,0
53.488555908203125,22.118621826171875,-2.4427988529205322,-0.0,-0.0,-1.0,0.15088667034854905,1.0,0
53.640716552734375,21.913848876953125,-2.4484336376190186,-0.7930911221172473,0.5156265075238697,0.3242464753201526,0.0930027357001065,3.0,0
55.0325927734375,21.835784912109375,-2.66918683052063,-0.0,-0.0,-1.0,0.018080289203653965,1.0,0
53.40821075439453,22.288286209106445,-2.44576096534729,-0.0,-0.0,-1.0,0.19601165513386545,1.0,0
54.693260192871094,22.872228622436523,-2.711423635482788,-0.0,-0.0,-1.0,0.11480884300155865,1.0,0
55.049560546875,22.7478084564209,-2.757549524307251,-0.0,-0.0,-1.0,0.0722933411959531,1.0,0
54.44855499267578,23.01865005493164,-2.685753583908081,-0.0,-0.0,-1.0,0.1441036271082131,1.0,0
54.203948974609375,20.859134674072266,-2.8026771545410156,-0.0,-0.0,-1.0,0.05436829090664393,1.0,0
54.510372161865234,20.682275772094727,-2.8408145904541016,-0.0,-0.0,-1.0,0.04521967361877279,1.0,0
53.80103302001953,21.161455154418945,-2.760308265686035,-0.0,-0.0,-1.0,0.06352605532792106,2.0,0
54.039268493652344,20.972923278808594,-2.7842369079589844,0.22705030192981931,-0.5109106096762229,-0.829107055399873,0.05640134293639292,3.0,0
53.136024475097656,21.721906661987305,-2.6988277435302734,-0.0,-0.0,-1.0,0.043841768004593586,1.0,0
53.429405212402344,21.506410598754883,-2.729024887084961,-0.0,-0.0,-1.0,0.10149739114401582,2.0,0
52.96678161621094,21.95092010498047,-2.6931910514831543,-0.0,-0.0,-1.0,0.0605676077401054,2.0,0
52.74449920654297,22.352458953857422,-2.6977248191833496,-0.0,-0.0,-1.0,0.06059259296479473,2.0,0
53.39371871948242,21.062095642089844,-2.796623945236206,-0.0,-0.0,-1.0,0.016539116501559623,2.0,0
53.12759017944336,21.384212493896484,-2.7789556980133057,-0.0,-0.0,-1.0,0.01442673793037375,1.0,0
53.32134246826172,21.173219680786133,-2.7935712337493896,-0.0,-0.0,-1.0,0.01901064192920768,2.0,0
52.73833465576172,21.716184616088867,-2.7430851459503174,-0.0,-0.0,-1.0,0.03267095780326589,1.0,0
53.349388122558594,21.113632202148438,-2.7824935913085938,-0.0,-0.0,-1.0,0.01952746983454492,2.0,0
53.726810455322266,20.782114028930664,-2.813948154449463,-0.0,-0.0,-1.0,0.05497518633293578,2.0,0
53.346168518066406,21.190298080444336,-2.7891855239868164,-0.18505971517977107,0.48805375065864204,-0.8529691895289149,0.02024163710222347,3.0,0
53.076805114746094,21.415969848632812,-2.766368865966797,-0.0,-0.0,-1.0,0.013682467773030367,1.0,0
53.267860412597656,21.258594512939453,-2.7827587127685547,-0.0,-0.0,-1.0,0.02085666908993078,1.0,0
52.85334396362305,21.56753921508789,-2.744269371032715,-0.0,-0.0,-1.0,0.026705612534278122,1.0,0
54.49674987792969,21.42617416381836,-2.668947219848633,-0.0,-0.0,-1.0,0.02842126266677588,1.0,0
54.914642333984375,21.271997451782227,-2.7203290462493896,-0.0,-0.0,-1.0,0.15491798406555668,1.0,0
53.96465301513672,22.89584732055664,-2.7308714389801025,-0.0,-0.0,-1.0,0.019217067776588565,1.0,0
53.825416564941406,21.514827728271484,-2.571782350540161,-0.8816428200813172,0.4717901009218132,0.010956206973537663,0.13512536297381558,5.0,0
53.474605560302734,21.905384063720703,-2.554723024368286,-0.1373317132974408,-0.6872242175225733,-0.7133462520917009,0.10743622258327519,4.0,0
53.716224670410156,21.72782325744629,-2.575227737426758,-0.8892265676383364,0.07156722119522195,-0.4518343106234151,0.19133649125459398,4.0,0
53.31403350830078,22.181840896606445,-2.5571277141571045,-0.0,-0.0,-1.0,0.08134991604508504,2.0,0
53.17143249511719,22.42600440979004,-2.5594873428344727,0.1865131751938159,-0.5287294006068406,-0.828044718848597,0.15071831226871735,3.0,0
53.88671112060547,23.038249969482422,-2.733494520187378,-0.0,-0.0,-1.0,0.01843316911057171,1.0,0
53.822486877441406,21.428937911987305,-2.57570219039917,-0.0,-0.0,-1.0,0.08808297294446857,2.0,0
54.387779235839844,21.333110809326172,-2.662065267562866,-0.0,-0.0,-1.0,0.029204301695183253,1.0,0
54.78260803222656,21.187889099121094,-2.715512990951538,-0.0,-0.0,-1.0,0.08764645183956749,2.0,0
55.031776428222656,21.047941207885742,-2.745103120803833,-0.0,-0.0,-1.0,0.1495109942936696,1.0,0
53.661109924316406,21.777774810791016,-2.581148386001587,-0.6488869087030883,0.5272937078404498,-0.5485500208601038,0.17628237439909178,3.0,0
53.804683685302734,21.58025360107422,-2.5867316722869873,-0.3840659868968879,-0.010241422742113124,-0.9232488456365038,0.12534238846119475,5.0,0
53.35853576660156,22.112930297851562,-2.562540292739868,0.24686635851154953,-0.9686877985209593,-0.02647546093770349,0.11013892995884923,4.0,0
53.457942962646484,21.913999557495117,-2.5600435733795166,-0.1373317132974408,-0.6872242175225733,-0.7133462520917009,0.10121054593702908,4.0,0
53.18691635131836,22.330080032348633,-2.555049180984497,0.11392073686754808,0.5456701767560334,-0.8302205272760929,0.14805830153802116,3.0,0
53.80863952636719,22.909587860107422,-2.715794324874878,-0.0,-0.0,-1.0,0.018414968945534523,2.0,0
53.59864807128906,20.966018676757812,-2.8191938400268555,-0.0,-0.0,-1.0,0.01103459862537922,1.0,0
53.80672073364258,20.80260467529297,-2.8424806594848633,-0.0,-0.0,-1.0,0.01580229769227852,1.0,0
53.218177795410156,21.438304901123047,-2.795966625213623,-0.0,-0.0,-1.0,0.016502598096427668,1.0,0
53.41699981689453,21.20592498779297,-2.809356689453125,-0.0,-0.0,-1.0,0.01871348332549203,2.0,0
52.827369689941406,21.784059524536133,-2.759294033050537,-0.0,-0.0,-1.0,0.04094832650021427,1.0,0
53.00888442993164,21.590238571166992,-2.7725372314453125,-0.0,-0.0,-1.0,0.02890148317759041,1.0,0
53.51386260986328,20.95398712158203,-2.805851459503174,-0.0,-0.0,-1.0,0.011976042514878193,1.0,0
53.7139892578125,20.73505401611328,-2.8230576515197754,-0.0,-0.0,-1.0,0.05121660693673473,2.0,0
53.018714904785156,21.396484375,-2.757932662963867,-0.0,-0.0,-1.0,0.013091944917393728,2.0,0
53.344696044921875,21.245433807373047,-2.8033041954040527,-0.0,-0.0,-1.0,0.023875939873752867,1.0,0
52.880104064941406,21.521455764770508,-2.7441654205322266,-0.0,-0.0,-1.0,0.02569328385845088,2.0,0
54.0069580078125,20.937740325927734,-2.77140474319458,-0.0,-0.0,-1.0,0.05493714458481058,2.0,0
54.3026123046875,20.73099136352539,-2.806478977203369,-0.0,-0.0,-1.0,0.049361038308439964,2.0,0
53.536033630371094,21.327777862548828,-2.7251620292663574,-0.0,-0.0,-1.0,0.07678570670619181,2.0,0
53.76520538330078,21.10718536376953,-2.7433815002441406,-0.0,-0.0,-1.0,0.118511295355201,1.0,0
53.07185745239258,21.725496292114258,-2.684206485748291,-0.0,-0.0,-1.0,0.0531681162572072,1.0,0
53.33311462402344,21.49172592163086,-2.705502986907959,-0.0,-0.0,-1.0,0.0885416549868135,1.0,0
52.73893737792969,22.086626052856445,-2.6674997806549072,-0.0,-0.0,-1.0,0.0626438495322008,1.0,0
52.931331634521484,20.967546463012695,-2.7856009006500244,-0.0,-0.0,-1.0,0.08062606904914761,1.0,0
52.781700134277344,21.20724868774414,-2.7842113971710205,-0.0,-0.0,-1.0,0.061437702680086116,1.0,0
55.06256866455078,21.42416000366211,-2.6719114780426025,-0.0,-0.0,-1.0,0.08886433481340142,2.0,0
53.75432586669922,21.77878189086914,-2.462360382080078,-0.3461584029683784,-0.7549167137204347,-0.5570234424150572,0.15368071768555325,3.0,0
54.691444396972656,21.703746795654297,-2.6343586444854736,-0.0,-0.0,-1.0,0.013363310401768882,1.0,0
54.882530212402344,21.564882278442383,-2.654134750366211,-0.0,-0.0,-1.0,0.03807301318343174,1.0,0
53.459781646728516,22.210037231445312,-2.4632182121276855,-0.0,-0.0,-1.0,0.1855612000569159,1.0,0
53.59543991088867,22.00861167907715,-2.4620137214660645,-0.0,-0.0,-1.0,0.1470184210657824,1.0,0
54.20644760131836,22.9879207611084,-2.713162660598755,-0.0,-0.0,-1.0,0.05691343213721053,1.0,0
55.117671966552734,20.995664596557617,-2.7810161113739014,-0.0,-0.0,-1.0,0.148585425180693,2.0,0
54.40214920043945,21.382156372070312,-2.673415184020996,-0.0,-0.0,-1.0,0.02867752157814606,1.0,0
54.75947189331055,21.22332191467285,-2.730863332748413,-0.0,-0.0,-1.0,0.07041461343045904,2.0,0
53.646549224853516,23.087146759033203,-2.74645733833313,-0.0,-0.0,-1.0,0.011710707020983657,1.0,0
53.91046905517578,21.44593048095703,-2.5756776332855225,-0.3059922882898295,-0.9246967291601039,-0.22650536105743482,0.08587651134266745,5.0,0
53.52565002441406,21.876087188720703,-2.5501492023468018,-0.0919037944783038,-0.5245782895757342,-0.8463872108357305,0.10273465052083045,3.0,0
53.79160690307617,21.650165557861328,-2.5767626762390137,-0.3678519327436328,0.06882626969335746,-0.9273337587820638,0.10888539036278393,3.0,0
53.28800582885742,22.244850158691406,-2.55055832862854,-0.0,-0.0,-1.0,0.08408710622930207,1.0,0
53.40513610839844,22.0684871673584,-2.550783157348633,0.6783456230850429,-0.6812079888580395,-0.2753232492132662,0.13076064163515086,4.0,0
53.192806243896484,22.428855895996094,-2.5564937591552734,0.1865131751938159,-0.5287294006068406,-0.828044718848597,0.16815347041232892,3.0,0
53.67695617675781,22.72979164123535,-2.700895071029663,-0.0,-0.0,-1.0,0.013930227485830239,1.0,0
53.683990478515625,22.82484245300293,-2.716038942337036,-0.0,-0.0,-1.0,0.017238789648330557,1.0,0
53.07212448120117,20.880943298339844,-2.7717249393463135,-0.0,-0.0,-1.0,0.0816168246886275,1.0,0
52.73097229003906,21.382091522216797,-2.7610456943511963,-0.0,-0.0,-1.0,0.061508149060645376,1.0,0
52.917320251464844,21.188648223876953,-2.7784388065338135,-0.0,-0.0,-1.0,0.07443790803165627,1.0,0
53.97760772705078,21.477523803710938,-2.5326414108276367,-0.2732781595832382,-0.019771739016972868,-0.9617318367565064,0.10540199955011947,3.0,0
54.67989730834961,21.390275955200195,-2.6772000789642334,-0.0,-0.0,-1.0,0.05880650848266796,1.0,0
55.02113342285156,21.182636260986328,-2.7260563373565674,-0.0,-0.0,-1.0,0.11492030207208713,2.0,0
53.608375549316406,21.870990753173828,-2.5068576335906982,-0.6511457722746484,0.006711136645741222,-0.7589230157886727,0.12458760895188098,3.0,0
53.78996276855469,21.689910888671875,-2.520961046218872,-0.0018092001156751279,-0.4567558402843001,-0.8895902591424462,0.15167481540376307,3.0,0
54.35214614868164,21.50163459777832,-2.6192405223846436,-0.0,-0.0,-1.0,0.03199986610594847,1.0,0
53.45045471191406,22.115875244140625,-2.5082926750183105,-0.0,-0.0,-1.0,0.09079234812453939,2.0,0
53.298744201660156,22.33441162109375,-2.5079357624053955,0.8710157329389671,0.441961234707623,-0.21448044197200736,0.1840025089377531,3.0,0
53.721065521240234,22.64518165588379,-2.6466219425201416,-0.0,-0.0,-1.0,0.018395755563530472,1.0,0
53.82402038574219,22.932632446289062,-2.7131526470184326,-0.0,-0.0,-1.0,0.01841496894553451,2.0,0
54.561702728271484,20.653507232666016,-2.8633008003234863,-0.0,-0.0,-1.0,0.028044248403672704,1.0,0
53.815467834472656,21.14899444580078,-2.739319324493408,-0.0,-0.0,-1.0,0.12711156759730247,2.0,0
54.063751220703125,21.03050422668457,-2.7864484786987305,-0.0,-0.0,-1.0,0.039678584737917175,1.0,0
54.33367919921875,20.840112686157227,-2.829498767852783,-0.0,-0.0,-1.0,0.05152412586572285,1.0,0
53.74598693847656,21.277254104614258,-2.7406787872314453,-0.0,-0.0,-1.0,0.055709126204658684,2.0,0
53.46942901611328,21.5543155670166,-2.712287425994873,-0.0,-0.0,-1.0,0.09469530374937914,2.0,0
53.5897216796875,21.445947647094727,-2.726250171661377,-0.0,-0.0,-1.0,0.0958248323883189,2.0,0
53.07339859008789,21.975461959838867,-2.6796813011169434,-0.0,-0.0,-1.0,0.04785342738251442,1.0,0
53.269615173339844,21.77614974975586,-2.6968607902526855,-0.0,-0.0,-1.0,0.04470825558235643,1.0,0
54.22285461425781,21.952613830566406,-2.4276068210601807,-0.0,-0.0,-1.0,0.03604533345265316,1.0,0
55.085777282714844,21.944259643554688,-2.6183922290802,-0.0,-0.0,-1.0,0.015447586915398662,1.0,0
52.930908203125,22.219396591186523,-2.6851134300231934,-0.0,-0.0,-1.0,0.07360646429502435,1.0,0
54.09331130981445,22.032554626464844,-2.4104442596435547,-0.0,-0.0,-1.0,0.058809126259247634,2.0,0
55.09031677246094,22.033058166503906,-2.631768226623535,-0.0,-0.0,-1.0,0.019188354724127756,1.0,0
52.76597595214844,22.475385665893555,-2.688101291656494,-0.0,-0.0,-1.0,0.06135346808414705,1.0,0
54.54960250854492,23.02395248413086,-2.6578052043914795,-0.0,-0.0,-1.0,0.13790631632487588,1.0,0
54.81609344482422,22.886293411254883,-2.6949033737182617,-0.0,-0.0,-1.0,0.07147967974205094,1.0,0
53.8668098449707,22.20147132873535,-2.3852250576019287,-0.0,-0.0,-1.0,0.05576551655166197,1.0,0
53.96522521972656,22.11166000366211,-2.393671989440918,-0.0,-0.0,-1.0,0.06016559579305959,1.0,0
52.95231628417969,20.71821403503418,-2.7855992317199707,-0.0,-0.0,-1.0,0.07991644042560063,1.0,0
52.73955535888672,21.127511978149414,-2.792363166809082,-0.0,-0.0,-1.0,0.06416032118159047,1.0,0
52.88573455810547,20.90609359741211,-2.7973475456237793,-0.0,-0.0,-1.0,0.0780514721752345,1.0,0
54.76194381713867,20.75997543334961,-2.8289856910705566,-0.0,-0.0,-1.0,0.056740619074193296,1.0,0
54.023834228515625,21.207523345947266,-2.6951279640197754,-0.0,-0.0,-1.0,0.047826190940715815,1.0,0
54.305362701416016,21.09515953063965,-2.754058837890625,-0.0,-0.0,-1.0,0.03761326355572464,2.0,0
54.58694076538086,20.90057373046875,-2.8015799522399902,-0.0,-0.0,-1.0,0.01952609573642915,1.0,0
53.63676452636719,21.639326095581055,-2.6602706909179688,-0.0,-0.0,-1.0,0.15184175012383203,2.0,0
53.81205368041992,21.418701171875,-2.671536922454834,-0.0,-0.0,-1.0,0.08063990909596871,1.0,0
53.281986236572266,22.018932342529297,-2.6304492950439453,-0.0,-0.0,-1.0,0.10960620119776977,1.0,0
53.467735290527344,21.83501625061035,-2.6481008529663086,-0.0,-0.0,-1.0,0.1901162059490226,1.0,0
53.142696380615234,22.27587890625,-2.6391119956970215,-0.0,-0.0,-1.0,0.07457959050388656,2.0,0
53.130924224853516,22.65716552734375,-2.7041821479797363,-0.0,-0.0,-1.0,0.10516668102515667,1.0,0
54.746002197265625,23.048076629638672,-2.645258903503418,-0.0,-0.0,-1.0,0.0962326393858071,1.0,0
55.120819091796875,22.893526077270508,-2.706498146057129,-0.0,-0.0,-1.0,0.06751897377639982,1.0,0
53.81782913208008,20.74007797241211,-2.8192217350006104,-0.0,-0.0,-1.0,0.02396832924086949,1.0,0
53.47541809082031,21.20619773864746,-2.7959482669830322,-0.5223367548916842,-0.5022830744155757,-0.6891124927360275,0.01396359295634052,3.0,0
53.646522521972656,21.01462173461914,-2.8141324520111084,-0.0,-0.0,-1.0,0.027954704246766764,1.0,0
55.00932312011719,21.126628875732422,-2.7586472034454346,-0.0,-0.0,-1.0,0.07988241560346412,1.0,0
53.06788635253906,21.61257553100586,-2.7489750385284424,-0.0,-0.0,-1.0,0.030316514152580257,1.0,0
53.297119140625,21.413349151611328,-2.7802016735076904,-0.0,-0.0,-1.0,0.01694501528284198,2.0,0
53.80931091308594,21.610734939575195,-2.5087530612945557,-0.0,-0.0,-1.0,0.10956846432894672,1.0,0
54.17681884765625,21.552412033081055,-2.5984060764312744,-0.0,-0.0,-1.0,0.04296522082764993,1.0,0
54.55609893798828,21.46240234375,-2.687091827392578,-0.0,-0.0,-1.0,0.028941061488631015,2.0,0
54.846031188964844,21.294010162353516,-2.7397243976593018,-0.0,-0.0,-1.0,0.12847425446770389,1.0,0
52.872955322265625,21.82470703125,-2.73271107673645,-0.0,-0.0,-1.0,0.04191637918265135,2.0,0
53.53190612792969,21.993650436401367,-2.500922679901123,-0.0,-0.0,-1.0,0.10965219406214129,2.0,0
53.678306579589844,21.802156448364258,-2.5064187049865723,0.0346502428569457,-0.5877705696607122,-0.8082852949984161,0.12027645593055032,3.0,0
53.397193908691406,22.278091430664062,-2.5168192386627197,0.7145300747703619,-0.5194891460786137,-0.46859129244489084,0.0931661797450491,4.0,0
53.838897705078125,22.8220157623291,-2.7325403690338135,-0.0,-0.0,-1.0,0.01841496894553451,1.0,0
53.7449951171875,23.041221618652344,-2.7497031688690186,-0.0,-0.0,-1.0,0.013502201051817294,2.0,0
53.49178695678711,22.001256942749023,-2.4916539192199707,0.3052224334494108,0.7844769561930951,-0.539847359279673,0.1123378447242705,4.0,0
53.59119415283203,21.854923248291016,-2.492258310317993,-0.29025754180929547,0.017079358442984506,-0.9567961407415903,0.15950341769741808,4.0,0
53.36615753173828,22.21249771118164,-2.4965054988861084,0.8139631896741882,-0.5758330935532433,-0.0766822940731641,0.14125225954856307,3.0,0
55.10096740722656,20.87487030029297,-2.844973564147949,-0.0,-0.0,-1.0,0.13486355519239487,1.0,0
55.055702209472656,20.92359733581543,-2.8393616676330566,-0.0,-0.0,-1.0,0.1465852477882788,1.0,0
54.58989715576172,21.27542495727539,-2.7591519355773926,-0.0,-0.0,-1.0,0.05725704273092853,1.0,0
54.841251373291016,21.077686309814453,-2.8003768920898438,-0.0,-0.0,-1.0,0.09358834770269389,2.0,0
53.81294250488281,21.606595993041992,-2.5884597301483154,-0.38334022393813016,0.059722413310147694,-0.921674294997683,0.08644343938686247,3.0,0
54.163509368896484,21.46428680419922,-2.6655826568603516,-0.0,-0.0,-1.0,0.043467014847366606,1.0,0
54.41417694091797,21.371068954467773,-2.723510265350342,-0.0,-0.0,-1.0,0.029283803255462322,1.0,0
53.45246887207031,22.02057647705078,-2.56693696975708,-0.0,-0.0,-1.0,0.0947242876511809,1.0,0
53.703773498535156,21.83646011352539,-2.6022820472717285,-0.0,-0.0,-1.0,0.13918652101070886,1.0,0
53.163719177246094,22.449337005615234,-2.5761232376098633,0.3407621538136085,-0.2443527251768918,-0.9078396886162984,0.07945657796837716,4.0,0
53.261539459228516,22.30696678161621,-2.572934865951538,0.31791863307557416,-0.9288685007842574,-0.19008169557893956,0.10193321225957258,4.0,0
53.50410461425781,22.857524871826172,-2.7628989219665527,-0.0,-0.0,-1.0,0.01923239320916375,1.0,0
55.06366729736328,22.855304718017578,-2.7213778495788574,-0.0,-0.0,-1.0,0.07110711810713956,1.0,0
54.60832214355469,23.086795806884766,-2.6482596397399902,-0.0,-0.0,-1.0,0.12395817907537175,1.0,0
54.892452239990234,22.955402374267578,-2.695876121520996,-0.0,-0.0,-1.0,0.063393291154136,1.0,0
54.88689041137695,22.86673355102539,-2.716984748840332,-0.0,-0.0,-1.0,0.07110711810713953,1.0,0
55.153953552246094,22.67232322692871,-2.74992036819458,-0.0,-0.0,-1.0,0.023684863993941742,1.0,0
54.45665740966797,23.10858154296875,-2.652812957763672,-0.0,-0.0,-1.0,0.13727547885915992,2.0,0
54.715965270996094,22.97269058227539,-2.6929736137390137,-0.0,-0.0,-1.0,0.10700817531112132,1.0,0
54.30109786987305,22.907169342041016,-2.75227689743042,-0.0,-0.0,-1.0,0.09548502346826702,1.0,0
54.100486755371094,23.045162200927734,-2.7246298789978027,0.5098064653133421,0.19565805186592347,-0.8377441701765208,0.025516025405146216,3.0,0
53.39451217651367,22.38884162902832,-2.4953389167785645,-0.0,-0.0,-1.0,0.14561822152315881,1.0,0
54.614288330078125,21.588438034057617,-2.6843223571777344,-0.0,-0.0,-1.0,0.051922051605739684,1.0,0
54.21739959716797,21.654338836669922,-2.600080966949463,-0.0,-0.0,-1.0,0.037546229817241886,1.0,0
53.67212677001953,21.77890968322754,-2.489778995513916,-0.0,-0.0,-1.0,0.14013726244378294,2.0,0
53.483970642089844,22.034282684326172,-2.4754581451416016,0.9093854199476108,-0.05040527963891252,-0.412889168871297,0.13704838040284348,5.0,0
54.846153259277344,21.364192962646484,-2.716724395751953,-0.0,-0.0,-1.0,0.12153638983533813,2.0,0
53.777671813964844,21.649335861206055,-2.500102996826172,-0.0018092001156751279,-0.4567558402843001,-0.8895902591424462,0.09332625894008725,3.0,0
54.36822509765625,23.024208068847656,-2.6669087409973145,-0.0,-0.0,-1.0,0.09871278647065491,1.0,0
53.552001953125,21.937156677246094,-2.3965258598327637,-0.0,-0.0,-1.0,0.1850024458611976,1.0,0
53.4434814453125,22.100299835205078,-2.3873682022094727,-0.0,-0.0,-1.0,0.13238272945230292,1.0,0
53.69599914550781,21.76062774658203,-2.4128270149230957,-0.0,-0.0,-1.0,0.18318543058072378,2.0,0
54.377174377441406,22.96933937072754,-2.720219135284424,-0.0,-0.0,-1.0,0.08618189601256346,1.0,0
54.237220764160156,23.068241119384766,-2.7012925148010254,-0.0,-0.0,-1.0,0.04481379751092917,1.0,0
53.50502395629883,22.02393341064453,-2.4559073448181152,0.7180798039401084,0.43598071296312385,-0.5424778457204514,0.12440600215539253,3.0,0
53.3961181640625,22.129905700683594,-2.4430155754089355,-0.0,-0.0,-1.0,0.15459420929698098,2.0,0
54.79464340209961,21.870906829833984,-2.5364465713500977,-0.0,-0.0,-1.0,0.016198037154263083,1.0,0
54.9082145690918,21.7706356048584,-2.540646553039551,-0.0,-0.0,-1.0,0.018373526451904015,1.0,0
53.543975830078125,21.76006317138672,-2.4011337757110596,-0.0,-0.0,-1.0,0.1570682326506485,2.0,0
53.770790100097656,21.461830139160156,-2.397784948348999,-0.0,-0.0,-1.0,0.2206206307239165,1.0,0
54.416481018066406,23.059011459350586,-2.5771892070770264,-0.0,-0.0,-1.0,0.11377670021060642,1.0,0
54.66473388671875,22.821300506591797,-2.5799221992492676,-0.0,-0.0,-1.0,0.09698912562943263,1.0,0
53.716552734375,21.492534637451172,-2.4315645694732666,-0.0,-0.0,-1.0,0.22139388450839786,1.0,0
54.585472106933594,22.643123626708984,-2.6342809200286865,-0.0,-0.0,-1.0,0.06412944928546237,1.0,0
54.79889678955078,22.46705436706543,-2.629162549972534,-0.0,-0.0,-1.0,0.02410531069759438,1.0,0
54.55215835571289,21.649578094482422,-2.7147741317749023,-0.0,-0.0,-1.0,0.030966912451719737,1.0,0
54.98240280151367,21.61005401611328,-2.7382607460021973,-0.0,-0.0,-1.0,0.03761120947115744,1.0,0
53.351070404052734,21.92670440673828,-2.6805710792541504,-0.0,-0.0,-1.0,0.10571880063270978,2.0,0
53.698341369628906,21.71335792541504,-2.666689395904541,-0.0,-0.0,-1.0,0.16412482588998864,2.0,0
52.98832702636719,22.357479095458984,-2.733781337738037,-0.0,-0.0,-1.0,0.04217738958014537,1.0,0
53.16594696044922,22.117544174194336,-2.7022247314453125,-0.0,-0.0,-1.0,0.03438011992544495,1.0,0
52.855491638183594,22.507333755493164,-2.752401351928711,-0.0,-0.0,-1.0,0.0747788680177261,1.0,0
53.726158142089844,21.805404663085938,-2.4809367656707764,-0.36638306576704094,-0.8842374570358882,-0.28963350754677797,0.13858804632086363,4.0,0
53.90291213989258,21.722938537597656,-2.4920670986175537,-0.0,-0.0,-1.0,0.18308653350033513,1.0,0
53.544944763183594,22.04452133178711,-2.4834063053131104,-0.0,-0.0,-1.0,0.13511614929475385,1.0,0
55.02912139892578,22.01321029663086,-2.6352531909942627,-0.0,-0.0,-1.0,0.01664628689356428,1.0,0
53.35869598388672,22.3432674407959,-2.490976095199585,-0.0,-0.0,-1.0,0.16673917874101374,1.0,0
54.47472381591797,23.120834350585938,-2.6766369342803955,-0.0,-0.0,-1.0,0.13727547885915992,2.0,0
53.534915924072266,22.171396255493164,-2.373605728149414,-0.0,-0.0,-1.0,0.13331179830743375,2.0,0
53.80817794799805,22.042387008666992,-2.393242835998535,-0.0,-0.0,-1.0,0.057850832742770315,1.0,0
54.04798126220703,21.940723419189453,-2.411497116088867,-0.0,-0.0,-1.0,0.06853875703979019,1.0,0
53.448978424072266,22.289173126220703,-2.373526096343994,-0.0,-0.0,-1.0,0.18226779727731296,2.0,0
53.53562927246094,21.883853912353516,-2.556046485900879,-0.0919037944783038,-0.5245782895757342,-0.8463872108357305,0.10234413601219015,3.0,0
53.7489013671875,21.661277770996094,-2.558997631072998,-0.4501898439518117,-0.3981087226024615,-0.7992737637321018,0.20421190793403676,5.0,0
54.37782287597656,21.666757583618164,-2.636781930923462,-0.0,-0.0,-1.0,0.03246308980948939,1.0,0
54.57963562011719,21.677570343017578,-2.6627631187438965,-0.0,-0.0,-1.0,0.029122515970264846,1.0,0
55.00773620605469,21.457183837890625,-2.693664789199829,-0.0,-0.0,-1.0,0.09781417977113084,1.0,0
53.23246383666992,22.286705017089844,-2.5618937015533447,0.37542833734002984,-0.9014247728395615,0.21560830789476934,0.10193321225957254,5.0,0
53.41046905517578,22.055166244506836,-2.5588135719299316,0.6783456230850429,-0.6812079888580395,-0.2753232492132662,0.13653259784013078,4.0,0
53.938507080078125,23.083799362182617,-2.7320704460144043,-0.0,-0.0,-1.0,0.020845310812996842,2.0,0
53.730308532714844,21.678630828857422,-2.5670645236968994,-0.3996311027772473,-0.7824153285583494,-0.47762038831060283,0.1911482406410969,4.0,0
54.130859375,21.529888153076172,-2.6019835472106934,-0.0,-0.0,-1.0,0.057507245349106575,1.0,0
54.483306884765625,21.58728790283203,-2.652811050415039,-0.0,-0.0,-1.0,0.027988285233607843,1.0,0
54.783172607421875,21.483762741088867,-2.680309295654297,-0.0,-0.0,-1.0,0.04497401608737253,1.0,0
55.159423828125,21.290056228637695,-2.708662509918213,-0.0,-0.0,-1.0,0.07460641462007019,1.0,0
53.376319885253906,22.035022735595703,-2.5610954761505127,-0.20379592743659894,0.44431932395044427,-0.8723803977190665,0.11990932784993165,3.0,0
53.57472229003906,21.83736801147461,-2.5645339488983154,-0.0,-0.0,-1.0,0.11498523525517367,2.0,0
53.222042083740234,22.298728942871094,-2.5708351135253906,-0.20955512200170448,-0.1384324700109555,-0.9679478819076556,0.10882399879026895,5.0,0
53.54267501831055,21.160980224609375,-2.795637845993042,-0.0,-0.0,-1.0,0.01568868423350856,1.0,0
53.823097229003906,20.984254837036133,-2.815148115158081,-0.0,-0.0,-1.0,0.023667117746478828,1.0,0
54.156394958496094,20.792728424072266,-2.8413898944854736,-0.0,-0.0,-1.0,0.05038725336761481,1.0,0
52.81769561767578,21.69805908203125,-2.758840799331665,-0.0,-0.0,-1.0,0.03189184273009443,1.0,0
53.061134338378906,21.555992126464844,-2.775585889816284,-0.0,-0.0,-1.0,0.02586816162157783,1.0,0
53.319725036621094,21.369253158569336,-2.7892091274261475,-0.0,-0.0,-1.0,0.018124850121547742,1.0,0
53.12018966674805,21.288883209228516,-2.7615504264831543,-0.0,-0.0,-1.0,0.07648600480565651,1.0,0
53.36445236206055,21.06671714782715,-2.7772293090820312,-0.5612436221656276,-0.2680763190186072,-0.7830330029825308,0.015467242103970932,3.0,0
53.5540885925293,20.80759048461914,-2.7807083129882812,-0.0,-0.0,-1.0,0.05711069866650148,1.0,0
53.02082061767578,21.393007278442383,-2.7570133209228516,-0.0,-0.0,-1.0,0.013091944917393735,2.0,0
54.777191162109375,20.953399658203125,-2.782625675201416,-0.0,-0.0,-1.0,0.06820070284469658,2.0,0
55.009368896484375,20.840492248535156,-2.8074069023132324,-0.0,-0.0,-1.0,0.09998522725709583,1.0,0
52.782432556152344,21.45363426208496,-2.7790870666503906,-0.0,-0.0,-1.0,0.01401356999282676,1.0,0
52.992759704589844,21.39458465576172,-2.8032021522521973,-0.0,-0.0,-1.0,0.011566225765662358,1.0,0
53.34880065917969,21.893104553222656,-2.5922231674194336,-0.0,-0.0,-1.0,0.11092105869275211,1.0,0
53.599388122558594,21.744705200195312,-2.6071581840515137,-0.0,-0.0,-1.0,0.08379089964697865,1.0,0
53.75910186767578,21.48401641845703,-2.5989279747009277,-0.0,-0.0,-1.0,0.14412720016507444,2.0,0
54.01888656616211,21.465423583984375,-2.629775047302246,-0.0,-0.0,-1.0,0.06614086165864909,1.0,0
54.95945739746094,21.181392669677734,-2.6783928871154785,-0.0,-0.0,-1.0,0.1053725292584749,1.0,0
55.07628631591797,21.11264419555664,-2.6842398643493652,-0.0,-0.0,-1.0,0.09537969706468608,1.0,0
53.22246170043945,22.273141860961914,-2.459346294403076,-0.0,-0.0,-1.0,0.15215936427698676,1.0,0
53.52241134643555,21.86480140686035,-2.436051607131958,-0.0,-0.0,-1.0,0.19834309629112568,1.0,0
53.83395767211914,21.156673431396484,-2.548452854156494,-0.0,-0.0,-1.0,0.12285872286967117,1.0,0
54.024253845214844,21.80400276184082,-2.5841224193573,-0.0,-0.0,-1.0,0.07681354058122017,1.0,0
55.13018798828125,20.845125198364258,-2.5708980560302734,-0.0,-0.0,-1.0,0.13414975623249983,1.0,0
53.73509979248047,21.050634384155273,-2.5024194717407227,-0.0,-0.0,-1.0,0.10161885946399886,1.0,0
55.142005920410156,21.784696578979492,-2.6261892318725586,-0.0,-0.0,-1.0,0.022454262639320426,1.0,0
54.97138977050781,21.87781524658203,-2.626458168029785,-0.0,-0.0,-1.0,0.01857385894522712,1.0,0
54.46305847167969,21.714069366455078,-2.580362319946289,-0.0,-0.0,-1.0,0.029050043952523797,1.0,0
53.832183837890625,21.530038833618164,-2.5254006385803223,-0.6799629490201111,-0.7058993268490191,0.19838479859599917,0.16141200052554977,4.0,0
53.69436264038086,21.71856117248535,-2.5382208824157715,-0.4137439130873424,-0.7951060726484579,-0.4434211402501224,0.1202159940768556,3.0,0
53.45037078857422,21.899763107299805,-2.5446434020996094,-0.5919093499294046,-0.6116177356844636,-0.5249448226836416,0.10144515517220681,5.0,0
53.29579162597656,22.153642654418945,-2.5642037391662598,-0.0,-0.0,-1.0,0.08605011696869488,2.0,0
53.49412155151367,21.114648818969727,-2.727684736251831,-0.0,-0.0,-1.0,0.014412939017114641,1.0,0
53.00298309326172,21.713926315307617,-2.686185598373413,-0.0,-0.0,-1.0,0.044655552977868676,1.0,0
52.863956451416016,21.755577087402344,-2.6704843044281006,-0.0,-0.0,-1.0,0.038080742080712424,1.0,0
54.96800994873047,20.95233154296875,-2.716360569000244,-0.0,-0.0,-1.0,0.14308969086602888,1.0,0
54.77349090576172,20.97894859313965,-2.7030062675476074,-0.0,-0.0,-1.0,0.09292122868681067,1.0,0
54.53062438964844,21.039474487304688,-2.689267158508301,-0.0,-0.0,-1.0,0.03777025415448854,1.0,0
54.15692138671875,21.090778350830078,-2.663987159729004,-0.0,-0.0,-1.0,0.041184252347939036,1.0,0
53.95921325683594,21.174341201782227,-2.656662940979004,-0.0,-0.0,-1.0,0.04409615924084221,1.0,0
53.730037689208984,21.302322387695312,-2.6516823768615723,0.3814904530791406,-0.8661708736372326,-0.32282046383707663,0.06679904330461117,3.0,0
53.51385498046875,21.442245483398438,-2.649193286895752,-0.0,-0.0,-1.0,0.11770891121293345,1.0,0
53.092159271240234,21.696664810180664,-2.643118381500244,-0.0,-0.0,-1.0,0.045490429443019474,1.0,0
52.96654510498047,21.743921279907227,-2.6383514404296875,-0.0,-0.0,-1.0,0.05440487374239995,1.0,0
52.72399139404297,21.98906707763672,-2.646393299102783,-0.0,-0.0,-1.0,0.06477333847426606,1.0,0
53.652870178222656,22.115028381347656,-2.392862319946289,-0.0,-0.0,-1.0,0.11430439621118413,1.0,0
53.48297119140625,22.149856567382812,-2.3830418586730957,-0.0,-0.0,-1.0,0.11527794720515186,2.0,0
54.84001922607422,21.09218978881836,-2.7543559074401855,-0.0,-0.0,-1.0,0.05620939281253571,2.0,0
54.52314758300781,21.14945411682129,-2.727592945098877,-0.0,-0.0,-1.0,0.02908242107781477,1.0,0
54.1825065612793,21.19403839111328,-2.697402000427246,-0.0,-0.0,-1.0,0.031054443245029272,1.0,0
53.71894073486328,21.380237579345703,-2.6681294441223145,-0.0,-0.0,-1.0,0.07591310134447125,1.0,0
53.46331024169922,21.60586929321289,-2.6636605262756348,-0.0,-0.0,-1.0,0.052995804151977834,1.0,0
53.307186126708984,21.770267486572266,-2.663649559020996,-0.0,-0.0,-1.0,0.06133232717919564,1.0,0
53.02960968017578,21.99732208251953,-2.6578421592712402,-0.0,-0.0,-1.0,0.051034289872922196,1.0,0
52.94218444824219,22.957550048828125,-2.742893695831299,-0.0,-0.0,-1.0,0.06614367315987824,1.0,0
52.74391174316406,22.365421295166016,-2.6653661727905273,-0.0,-0.0,-1.0,0.06059259296479473,2.0,0
52.82201385498047,23.079212188720703,-2.7433409690856934,-0.0,-0.0,-1.0,0.05645087939503282,1.0,0
55.101783752441406,20.827529907226562,-2.793996572494507,-0.0,-0.0,-1.0,0.10731239204496756,1.0,0
54.7432861328125,20.932270050048828,-2.7669899463653564,-0.0,-0.0,-1.0,0.06070629391650268,2.0,0
54.37355041503906,21.034589767456055,-2.7388296127319336,-0.0,-0.0,-1.0,0.05183066964857073,1.0,0
53.983360290527344,21.12775421142578,-2.70792293548584,-0.0,-0.0,-1.0,0.047054236868412334,2.0,0
53.66413116455078,21.407081604003906,-2.702955722808838,-0.0,-0.0,-1.0,0.11291173748912493,1.0,0
53.4566764831543,21.496013641357422,-2.690810203552246,-0.0,-0.0,-1.0,0.10134133221978182,2.0,0
53.205589294433594,21.735307693481445,-2.689688205718994,-0.0,-0.0,-1.0,0.040870780618920334,1.0,0
52.80036163330078,22.016563415527344,-2.677983045578003,-0.03230132632276212,0.35915611760137495,-0.9327183430743162,0.06618962043787371,3.0,0
53.750022888183594,21.876436233520508,-2.3894693851470947,-0.0,-0.0,-1.0,0.06877063799869289,1.0,0
53.58995056152344,21.990320205688477,-2.3796253204345703,-0.0,-0.0,-1.0,0.14200233782352334,2.0,0
53.516517639160156,22.13014793395996,-2.3808846473693848,0.13105713648104922,0.11530020874001447,-0.9846470884747981,0.1726722139174751,3.0,0
54.71604919433594,22.82973861694336,-2.6737027168273926,-0.0,-0.0,-1.0,0.09329783549757975,1.0,0
55.10755920410156,21.297317504882812,-2.661810874938965,-0.0,-0.0,-1.0,0.07282356062501509,1.0,0
55.058326721191406,21.398082733154297,-2.6593875885009766,-0.0,-0.0,-1.0,0.09707300735169133,2.0,0
54.29944610595703,23.034517288208008,-2.6333680152893066,-0.0,-0.0,-1.0,0.09617971070440995,1.0,0
53.97593688964844,21.453231811523438,-2.5316672325134277,-0.2732781595832382,-0.019771739016972868,-0.9617318367565064,0.10913993136333372,3.0,0
53.78224182128906,21.566604614257812,-2.512704849243164,-0.0,-0.0,-1.0,0.17744559051588818,1.0,0
53.6019172668457,21.839550018310547,-2.5015945434570312,-0.6511457722746484,0.006711136645741222,-0.7589230157886727,0.1901120706009951,3.0,0
53.48357009887695,22.078948974609375,-2.4969820976257324,0.28555739273855957,-0.41395468326051427,-0.8643485961457001,0.09302688087764092,3.0,0
53.409114837646484,22.133874893188477,-2.490417003631592,-0.6983786534206265,-0.552282897437225,-0.45524812755763855,0.12943094972494631,4.0,0
54.34992599487305,23.078529357910156,-2.635776996612549,-0.0,-0.0,-1.0,0.09768576662824172,1.0,0
53.674137115478516,21.951976776123047,-2.504068374633789,-0.0,-0.0,-1.0,0.1071912047109907,1.0,0
53.72108459472656,21.799129486083984,-2.5023837089538574,-0.09547846053007226,-0.9490625160306875,0.30027354901873815,0.16470493437911563,3.0,0
53.50037384033203,22.076181411743164,-2.490105152130127,0.28555739273855957,-0.41395468326051427,-0.8643485961457001,0.09071509393206795,3.0,0
53.36475372314453,22.208446502685547,-2.480984687805176,-0.0,-0.0,-1.0,0.14595888410060742,2.0,0
53.28083038330078,22.295886993408203,-2.475686550140381,-0.0,-0.0,-1.0,0.186748975405634,2.0,0
53.54069519042969,22.449447631835938,-2.51094126701355,-0.0,-0.0,-1.0,0.09157868207975768,1.0,0
53.79062271118164,22.352733612060547,-2.534259080886841,-0.0,-0.0,-1.0,0.0571363013807484,1.0,0
53.45940017700195,22.258655548095703,-2.420661211013794,-0.0,-0.0,-1.0,0.15527808691636308,1.0,0
53.66415786743164,21.940811157226562,-2.433973550796509,-0.7930911221172473,0.5156265075238697,0.3242464753201526,0.08726783943279143,3.0,0
53.495967864990234,21.969257354736328,-2.3518736362457275,-0.0,-0.0,-1.0,0.0843175517834121,1.0,0
53.85670471191406,21.88525390625,-2.3627841472625732,-0.0,-0.0,-1.0,0.08939272392246607,1.0,0
53.222747802734375,22.30706787109375,-2.368553876876831,-0.0,-0.0,-1.0,0.15818052000953278,1.0,0
53.34077453613281,22.18096160888672,-2.363118886947632,-0.0,-0.0,-1.0,0.14634871082016868,1.0,0
53.37681579589844,21.531497955322266,-2.7296552658081055,-0.0,-0.0,-1.0,0.08898981087600719,1.0,0
54.8046760559082,21.246356964111328,-2.766968250274658,-0.0,-0.0,-1.0,0.11696858596716228,1.0,0
54.9776611328125,21.199222564697266,-2.770297050476074,-0.0,-0.0,-1.0,0.12094879659307149,1.0,0
53.03399658203125,21.79913330078125,-2.7421669960021973,-0.0,-0.0,-1.0,0.05595718473369906,1.0,0
52.95612335205078,21.870630264282227,-2.74269437789917,-0.0,-0.0,-1.0,0.05074897619667699,1.0,0
54.04045104980469,21.31941795349121,-2.615396022796631,-0.0,-0.0,-1.0,0.03224852830552357,1.0,0
53.80863952636719,21.601396560668945,-2.6658477783203125,-0.0,-0.0,-1.0,0.09792179211072718,1.0,0
53.620689392089844,21.662717819213867,-2.6625795364379883,-0.0,-0.0,-1.0,0.10226177801916982,2.0,0
53.373138427734375,21.897966384887695,-2.6765222549438477,-0.0,-0.0,-1.0,0.16880205602053705,2.0,0
52.977874755859375,22.447317123413086,-2.7200279235839844,-0.0,-0.0,-1.0,0.044844348357475784,1.0,0
53.76416015625,21.29061508178711,-2.741260051727295,-0.0,-0.0,-1.0,0.05511761793455332,2.0,0
53.54405212402344,21.55453109741211,-2.7405290603637695,-0.0,-0.0,-1.0,0.07934781873476138,1.0,0
53.71473693847656,21.344181060791016,-2.7877418994903564,-0.0,-0.0,-1.0,0.079994180509947,1.0,0
52.81452941894531,22.450246810913086,-2.809415102005005,-0.0,-0.0,-1.0,0.07306849383445611,1.0,0
52.76966857910156,22.194366455078125,-2.7824790477752686,-0.0,-0.0,-1.0,0.06995263798165723,1.0,0
53.58600616455078,21.938255310058594,-2.489893913269043,-0.0,-0.0,-1.0,0.1114184012257792,1.0,0
53.561058044433594,22.238971710205078,-2.513434410095215,-0.0,-0.0,-1.0,0.13233386489629678,1.0,0
54.32379150390625,21.11841583251953,-2.7335126399993896,-0.0,-0.0,-1.0,0.03602141977961322,2.0,0
54.00600814819336,21.09937286376953,-2.7049548625946045,-0.0,-0.0,-1.0,0.06359140616458756,2.0,0
53.609371185302734,21.431913375854492,-2.702012300491333,-0.0,-0.0,-1.0,0.10443804356567037,2.0,0
53.50582504272461,21.573305130004883,-2.7064130306243896,-0.0,-0.0,-1.0,0.06343421519173327,2.0,0
53.91209411621094,20.910015106201172,-2.7861669063568115,-0.0,-0.0,-1.0,0.022801317537050673,1.0,0
55.09437942504883,21.368526458740234,-2.6867945194244385,-0.0,-0.0,-1.0,0.09289511862320944,1.0,0
53.96978759765625,23.05530548095703,-2.731532335281372,-0.0,-0.0,-1.0,0.020845310812996867,2.0,0
53.839412689208984,21.55817413330078,-2.591867685317993,-0.4876743058149944,-0.3605481794432664,-0.7950967121979627,0.1283107201818944,4.0,0
53.645606994628906,21.72382354736328,-2.588974714279175,-0.0,-0.0,-1.0,0.15552726846075746,2.0,0
53.360374450683594,22.127559661865234,-2.5988247394561768,-0.0,-0.0,-1.0,0.11416596121066035,2.0,0
54.13779830932617,23.13532829284668,-2.6991820335388184,-0.0,-0.0,-1.0,0.041092716861729245,1.0,0
53.722686767578125,21.663013458251953,-2.539060592651367,-0.4474865424456842,-0.7236909445811583,-0.5253829185091934,0.1406997399473435,3.0,0
53.553627014160156,21.854948043823242,-2.5400853157043457,-0.6928842841416457,-0.6649591557226818,-0.2788201750413652,0.09354837960068779,4.0,0
53.378910064697266,22.126365661621094,-2.5475049018859863,-0.018260826822846143,0.7577121666907664,-0.6523333615970675,0.12261195391735563,3.0,0
54.64695739746094,23.11053466796875,-2.582859754562378,-0.0,-0.0,-1.0,0.12395817907537168,1.0,0
53.66072463989258,21.917083740234375,-2.4046390056610107,-0.7930911221172473,0.5156265075238697,0.3242464753201526,0.12335192012164645,3.0,0
53.48697280883789,21.78771209716797,-2.6395835876464844,-0.0,-0.0,-1.0,0.15101829637972833,1.0,0
53.32268142700195,21.972135543823242,-2.6388463973999023,-0.0,-0.0,-1.0,0.11923429497585489,1.0,0
53.156612396240234,22.254566192626953,-2.6456551551818848,-0.0,-0.0,-1.0,0.08194279833123186,2.0,0
53.59492111206055,22.107881546020508,-2.47843599319458,-0.0,-0.0,-1.0,0.13644767429930946,1.0,0
55.19390106201172,21.543598175048828,-2.695142984390259,-0.0,-0.0,-1.0,0.04577365293585656,1.0,0
54.0949821472168,22.998437881469727,-2.7388923168182373,0.7601025488197741,-0.06344861292120178,-0.6466980661762165,0.022725919162255602,4.0,0
53.71335220336914,21.696950912475586,-2.587759256362915,-0.9021689670267349,-0.43010728608475246,0.03314931961175921,0.16418068759830093,4.0,0
53.501548767089844,21.790430068969727,-2.579028367996216,-0.0,-0.0,-1.0,0.11138600583438862,1.0,0
53.3375129699707,22.07630157470703,-2.5919783115386963,-0.0,-0.0,-1.0,0.11297809764426543,1.0,0
53.09938049316406,22.331756591796875,-2.596346139907837,0.8172686400467216,-0.053342977623138894,-0.5737826214991871,0.07039668464292623,3.0,0
53.4047966003418,22.269601821899414,-2.381700038909912,-0.0,-0.0,-1.0,0.19041279236727848,2.0,0
53.70074462890625,21.824607849121094,-2.4033069610595703,-0.0,-0.0,-1.0,0.13297649654573215,1.0,0
53.51409149169922,22.04055404663086,-2.388392448425293,-0.0,-0.0,-1.0,0.129177745235848,1.0,0
54.982242584228516,21.009300231933594,-2.847822904586792,-0.0,-0.0,-1.0,0.12828850088183186,1.0,0
55.03336715698242,20.666370391845703,-2.8410117626190186,-0.0,-0.0,-1.0,0.07843155806469872,1.0,0
53.444007873535156,21.892736434936523,-2.7188875675201416,-0.0,-0.0,-1.0,0.15412941300170716,1.0,0
54.446598052978516,22.881481170654297,-2.5298609733581543,-0.0,-0.0,-1.0,0.12317857806385547,1.0,0
53.6565055847168,21.496450424194336,-2.384521961212158,-0.0,-0.0,-1.0,0.20468732668797573,1.0,0
53.52638626098633,21.752286911010742,-2.3837032318115234,-0.0,-0.0,-1.0,0.14644978824139399,2.0,0
53.48043441772461,21.173160552978516,-2.775670289993286,-0.0,-0.0,-1.0,0.015628064479230853,2.0,0
53.37128829956055,21.352384567260742,-2.7734639644622803,-0.0,-0.0,-1.0,0.02187700002074764,1.0,0
52.756309509277344,21.819026947021484,-2.7296202182769775,-0.0,-0.0,-1.0,0.0381232212986383,2.0,0
54.22953414916992,20.718339920043945,-2.6675949096679688,-0.0,-0.0,-1.0,0.04804708794913104,1.0,0
53.806819915771484,21.185386657714844,-2.6256866455078125,-0.0,-0.0,-1.0,0.13883456987971662,1.0,0
53.38334274291992,21.53712272644043,-2.577914237976074,-0.0,-0.0,-1.0,0.07938161642233385,1.0,0
53.31962966918945,21.742359161376953,-2.5784683227539062,-0.0,-0.0,-1.0,0.07146705774233274,1.0,0
53.08148956298828,21.909996032714844,-2.5501174926757812,-0.0,-0.0,-1.0,0.06134694910690379,1.0,0
52.900794982910156,22.088756561279297,-2.5312423706054688,-0.0,-0.0,-1.0,0.06673365608884065,1.0,0
52.72344207763672,22.26723861694336,-2.512887954711914,-0.0,-0.0,-1.0,0.06511215740660828,1.0,0
52.87050247192383,21.51894760131836,-2.778972625732422,-0.0,-0.0,-1.0,0.023850831276970942,2.0,0
52.729522705078125,21.798566818237305,-2.740001678466797,-0.0,-0.0,-1.0,0.033977679537439104,2.0,0
52.73971939086914,21.99386978149414,-2.7329721450805664,-0.0,-0.0,-1.0,0.05102102381012422,2.0,0
53.30965805053711,23.1232967376709,-2.78757381439209,-0.0,-0.0,-1.0,0.03432418541727647,2.0,0
53.31830978393555,21.217464447021484,-2.767597198486328,-0.0,-0.0,-1.0,0.023875939873752885,2.0,0
53.195804595947266,21.495792388916016,-2.74727725982666,-0.0,-0.0,-1.0,0.03385277055941855,1.0,0
53.09096145629883,21.66366958618164,-2.7294960021972656,-0.0,-0.0,-1.0,0.03478761674047471,1.0,0
52.883209228515625,21.82209014892578,-2.6930980682373047,-0.0,-0.0,-1.0,0.04191637918265135,2.0,0
