x,y,z,nx,ny,nz,curvature,density,label
22.52423667907715,34.650230407714844,-2.674198865890503,-0.0,-0.0,-1.0,0.11879116463802886,1.0,0
21.064708709716797,34.83815002441406,-2.61749267578125,-0.8648843974612487,0.19999524769972563,-0.46040946984789344,0.03119434083087421,3.0,0
21.315038681030273,35.02068328857422,-2.4116172790527344,-0.0,-0.0,-1.0,0.1272329229048915,2.0,0
20.575647354125977,34.73941421508789,-2.449467658996582,-0.630004430789091,-0.7486721870360724,0.20635981572180626,0.04964758198466024,4.0,0
21.915512084960938,34.823516845703125,-2.614529848098755,-0.0,-0.0,-1.0,0.0974056391396945,1.0,0
21.801973342895508,34.942386627197266,-2.5630574226379395,-0.0,-0.0,-1.0,0.11446606250829337,2.0,0
22.270414352416992,34.929481506347656,-2.584632396697998,-0.0,-0.0,-1.0,0.0796749745974956,2.0,0
22.15730094909668,33.17352294921875,-2.5051450729370117,-0.0,-0.0,-1.0,0.14256863916547208,1.0,0
22.095130920410156,34.99685287475586,-2.7161362171173096,-0.0,-0.0,-1.0,0.09029736964359354,2.0,0
21.125276565551758,34.84367370605469,-2.3700852394104004,-0.0,-0.0,-1.0,0.16237102842851783,2.0,0
20.464181900024414,34.4083366394043,-2.477980852127075,-0.0,-0.0,-1.0,0.018567127207724715,1.0,0
22.038755416870117,34.87528991699219,-2.7566463947296143,-0.0,-0.0,-1.0,0.09900442505208533,1.0,0
22.638896942138672,34.413963317871094,-2.7789976596832275,-0.0,-0.0,-1.0,0.09987387706951323,1.0,0
22.310890197753906,33.518863677978516,-2.5725784301757812,-0.0,-0.0,-1.0,0.15860215765879584,1.0,0
20.23542022705078,34.806640625,-2.478703498840332,-0.0,-0.0,-1.0,0.011475102177844365,1.0,0
22.235952377319336,34.82023239135742,-2.766197681427002,-0.0,-0.0,-1.0,0.08475024368264059,1.0,0
22.021034240722656,33.1666259765625,-2.5678300857543945,-0.0,-0.0,-1.0,0.19689739766278774,2.0,0
20.31142807006836,34.61193084716797,-2.4692792892456055,-0.0,-0.0,-1.0,0.018532993844121253,1.0,0
21.894193649291992,33.210601806640625,-2.6332406997680664,-0.10354920130235315,-0.7221257923242421,-0.6839677645691576,0.16274119096328754,3.0,0
22.27311897277832,33.57548522949219,-2.730813980102539,-0.0,-0.0,-1.0,0.08706433538388093,1.0,0
22.369476318359375,34.70996856689453,-2.718954086303711,-0.0,-0.0,-1.0,0.0511555517907384,1.0,0
22.24751091003418,34.73208999633789,-2.715972900390625,-0.0,-0.0,-1.0,0.03507980116637163,1.0,0
21.54487419128418,34.782379150390625,-2.6847634315490723,-0.0,-0.0,-1.0,0.05459390520606816,1.0,0
21.77962875366211,34.87973403930664,-2.718019485473633,-0.0,-0.0,-1.0,0.1013677354401953,1.0,0
22.43059539794922,33.42975616455078,-2.701996088027954,-0.0,-0.0,-1.0,0.10696915471305567,1.0,0
22.518394470214844,33.53632354736328,-2.660637617111206,-0.0,-0.0,-1.0,0.09727606791003034,1.0,0
21.700769424438477,33.949928283691406,-2.6801059246063232,-0.0,-0.0,-1.0,0.0095539293265073,1.0,0
21.92011833190918,34.09510803222656,-2.5720863342285156,-0.0,-0.0,-1.0,0.02409321681472023,1.0,0
22.056177139282227,34.60569763183594,-2.6685709953308105,-0.0,-0.0,-1.0,0.03956911925367462,1.0,0
22.6661319732666,33.532440185546875,-2.534731864929199,-0.0,-0.0,-1.0,0.09137105148937238,1.0,0
22.666301727294922,34.6004638671875,-2.6122493743896484,-0.0,-0.0,-1.0,0.07557828786891198,1.0,0
20.395544052124023,34.49205780029297,-2.407712936401367,-0.0,-0.0,-1.0,0.02312316716932678,1.0,0
20.225261688232422,33.18719482421875,-2.1766295433044434,-0.0,-0.0,-1.0,0.05348952861043228,1.0,0
22.55127716064453,33.39329528808594,-2.648000478744507,-0.0,-0.0,-1.0,0.11064146710682245,1.0,0
22.430225372314453,33.52117156982422,-2.6642301082611084,-0.0,-0.0,-1.0,0.11289026646928851,1.0,0
22.20583724975586,33.33018493652344,-2.6047117710113525,-0.0,-0.0,-1.0,0.09882094263222796,1.0,0
22.67825698852539,34.35533142089844,-2.7696285247802734,-0.03752463412353418,0.9653439795873842,-0.25826905139463957,0.11671158417916813,5.0,0
22.420032501220703,34.598724365234375,-2.7802114486694336,-0.0,-0.0,-1.0,0.08297659693240143,1.0,0
22.01668357849121,34.597476959228516,-2.72377347946167,-0.0,-0.0,-1.0,0.037419216157853194,2.0,0
22.123645782470703,33.35441589355469,-2.4970269203186035,-0.0,-0.0,-1.0,0.09528544623817642,1.0,0
21.06403350830078,34.792213439941406,-2.636178493499756,-0.0,-0.0,-1.0,0.05134923796828032,2.0,0
20.767507553100586,34.68876647949219,-2.5771617889404297,-0.0,-0.0,-1.0,0.030492140835606963,1.0,0
20.872295379638672,34.777252197265625,-2.6086020469665527,-0.0,-0.0,-1.0,0.08872508153165329,1.0,0
20.333377838134766,34.564369201660156,-2.497039794921875,-0.0,-0.0,-1.0,0.0204487328221302,1.0,0
20.247453689575195,33.41645431518555,-2.2496376037597656,-0.0,-0.0,-1.0,0.059328724784263646,2.0,0
22.40329360961914,33.42267990112305,-2.5298948287963867,-0.0,-0.0,-1.0,0.14641264907055837,1.0,0
22.49797821044922,33.627479553222656,-2.585714340209961,-0.0,-0.0,-1.0,0.1063665308530912,1.0,0
22.50078582763672,34.47474670410156,-2.7620692253112793,-0.0,-0.0,-1.0,0.0901305040632028,1.0,0
22.14445686340332,34.53153991699219,-2.724545478820801,-0.0,-0.0,-1.0,0.03190317055352984,1.0,0
20.8626766204834,34.5584716796875,-2.5607805252075195,-0.0,-0.0,-1.0,0.026435957067522102,1.0,0
20.653078079223633,34.505306243896484,-2.5225391387939453,-0.0,-0.0,-1.0,0.01828076800754801,2.0,0
20.387113571166992,34.42580795288086,-2.471754550933838,-0.0,-0.0,-1.0,0.018031516527946663,2.0,0
22.688732147216797,34.643062591552734,-2.6987338066101074,-0.0,-0.0,-1.0,0.11478836301444643,1.0,0
22.291397094726562,34.86895751953125,-2.678786277770996,-0.0,-0.0,-1.0,0.06899211665364977,2.0,0
22.138029098510742,34.904605865478516,-2.6614999771118164,-0.0,-0.0,-1.0,0.09955537409110896,1.0,0
22.106552124023438,34.978492736816406,-2.6712841987609863,-0.0,-0.0,-1.0,0.09711118836192262,2.0,0
20.288904190063477,33.17578887939453,-2.025193214416504,-0.0,-0.0,-1.0,0.051040627097625794,1.0,0
20.794118881225586,34.89961624145508,-2.5726940631866455,-0.0,-0.0,-1.0,0.0917638372889199,1.0,0
20.98264503479004,34.94175338745117,-2.606361150741577,-0.0,-0.0,-1.0,0.14608180435442786,1.0,0
21.217330932617188,34.93022918701172,-2.630910634994507,-0.0,-0.0,-1.0,0.04716391675439618,1.0,0
21.510656356811523,35.04755401611328,-2.6996233463287354,-0.0,-0.0,-1.0,0.04437373711106886,1.0,0
20.943695068359375,33.43537521362305,-2.5443620681762695,-0.0,-0.0,-1.0,0.007960957864359403,1.0,0
20.99590492248535,33.49320983886719,-2.5502424240112305,-0.0,-0.0,-1.0,0.007634891842194943,1.0,0
21.29363250732422,34.018707275390625,-2.6166892051696777,-0.0,-0.0,-1.0,0.0032013030376496225,2.0,0
21.274246215820312,34.296409606933594,-2.6638998985290527,-0.0,-0.0,-1.0,0.011184494281939336,1.0,0
21.40139389038086,34.269439697265625,-2.6511876583099365,-0.0,-0.0,-1.0,0.009724807035919969,1.0,0
21.729393005371094,33.799625396728516,-2.5965356826782227,-0.0,-0.0,-1.0,0.025502710763051252,1.0,0
21.947620391845703,33.804725646972656,-2.581150531768799,-0.0,-0.0,-1.0,0.03745762527066865,1.0,0
21.927623748779297,34.07267379760742,-2.62487530708313,-0.0,-0.0,-1.0,0.023306513755187424,1.0,0
21.971118927001953,34.020469665527344,-2.6134326457977295,-0.0,-0.0,-1.0,0.026675253775335243,1.0,0
21.870288848876953,34.45061492919922,-2.688854932785034,-0.0,-0.0,-1.0,0.025503537825245448,1.0,0
22.270057678222656,34.43906784057617,-2.6583123207092285,-0.0,-0.0,-1.0,0.029272209867703635,1.0,0
21.57378387451172,34.97999954223633,-2.483290433883667,-0.0,-0.0,-1.0,0.069848238809456,1.0,0
21.248287200927734,35.06683349609375,-2.5141570568084717,-0.0,-0.0,-1.0,0.1258215029748564,1.0,0
21.055871963500977,33.50321960449219,-2.520066738128662,-0.0,-0.0,-1.0,0.007742173494694468,1.0,0
21.043920516967773,33.35835647583008,-2.5118770599365234,-0.0,-0.0,-1.0,0.0064907690044183584,1.0,0
22.582202911376953,34.34205627441406,-2.7372217178344727,-0.0,-0.0,-1.0,0.12292769797860599,1.0,0
22.685068130493164,34.25786590576172,-2.722109794616699,-0.0,-0.0,-1.0,0.09550740660054305,1.0,0
22.534109115600586,33.9141960144043,-2.711977005004883,-0.0,-0.0,-1.0,0.05637607027255218,1.0,0
22.341936111450195,33.35500717163086,-2.691584587097168,-0.0,-0.0,-1.0,0.09737981516996982,1.0,0
21.345272064208984,35.029632568359375,-2.4131927490234375,-0.0,-0.0,-1.0,0.12765936838971603,2.0,0
20.373762130737305,35.005958557128906,-2.487368583679199,-0.0,-0.0,-1.0,0.045759104306620155,1.0,0
20.475257873535156,34.58625030517578,-2.45231032371521,-0.0,-0.0,-1.0,0.02483365903837686,1.0,0
20.262924194335938,34.42401123046875,-2.4587137699127197,-0.17201766664575488,0.5117375736275536,-0.8417449602459967,0.019106697454560683,3.0,0
20.23758888244629,33.95396041870117,-2.430903911590576,-0.0,-0.0,-1.0,0.011767564996251088,1.0,0
21.925621032714844,34.51415252685547,-2.627203941345215,-0.0,-0.0,-1.0,0.03600813056713977,1.0,0
21.851316452026367,34.81634521484375,-2.651827573776245,-0.6303393277636006,0.7381257534647149,-0.24050510170613676,0.09721297575517511,3.0,0
22.095260620117188,34.044769287109375,-2.5836291313171387,-0.0,-0.0,-1.0,0.026863268085080206,1.0,0
22.016239166259766,34.11406707763672,-2.5956215858459473,-0.0,-0.0,-1.0,0.026610661313437187,1.0,0
21.618358612060547,33.90434265136719,-2.6252353191375732,-0.0,-0.0,-1.0,0.009753027826592608,1.0,0
21.479555130004883,33.94422912597656,-2.641754150390625,-0.0,-0.0,-1.0,0.005819658624831409,1.0,0
21.99990463256836,33.19233322143555,-2.5470504760742188,0.16350450555768256,0.6979632791990423,-0.6972184288672074,0.20063681171227857,3.0,0
21.62584114074707,33.351715087890625,-2.5946812629699707,-0.0,-0.0,-1.0,0.07237344588566352,1.0,0
21.702375411987305,33.141807556152344,-2.575507640838623,-0.0,-0.0,-1.0,0.11355592582434738,1.0,0
21.286657333374023,34.88734436035156,-2.5793616771698,-0.0,-0.0,-1.0,0.11175890708166392,2.0,0
20.950828552246094,34.692344665527344,-2.6010241508483887,-0.0,-0.0,-1.0,0.107595827953817,2.0,0
20.861360549926758,33.96922302246094,-2.5690290927886963,-0.0,-0.0,-1.0,0.0017914505019925623,1.0,0
20.819461822509766,34.40176773071289,-2.597456216812134,-0.0,-0.0,-1.0,0.012317343540498096,1.0,0
20.795757293701172,33.71331024169922,-2.5613300800323486,-0.0,-0.0,-1.0,0.004151508382654052,1.0,0
22.607995986938477,34.84922409057617,-2.704545497894287,-0.0,-0.0,-1.0,0.11080562410138803,1.0,0
22.66724967956543,34.490570068359375,-2.676225423812866,-0.9221384047158496,-0.2799516254268518,0.2669978463751565,0.09369947399127122,3.0,0
22.309091567993164,34.54044723510742,-2.7230947017669678,-0.0,-0.0,-1.0,0.04328280616449094,1.0,0
22.355806350708008,34.344940185546875,-2.706043243408203,-0.0,-0.0,-1.0,0.042351786793111405,1.0,0
22.02728271484375,34.357696533203125,-2.7474138736724854,-0.0,-0.0,-1.0,0.028953998893889856,1.0,0
22.460500717163086,33.80137634277344,-2.6620147228240967,-0.0,-0.0,-1.0,0.054875126731503014,1.0,0
22.227041244506836,33.87322235107422,-2.695127248764038,-0.0,-0.0,-1.0,0.03256105200434347,1.0,0
21.291242599487305,34.914512634277344,-2.5932626724243164,-0.0,-0.0,-1.0,0.0635815569144823,2.0,0
21.086206436157227,34.717018127441406,-2.6086673736572266,-0.0,-0.0,-1.0,0.048257740059023876,1.0,0
20.961795806884766,34.337581634521484,-2.605105400085449,-0.0,-0.0,-1.0,0.007776819545835564,2.0,0
21.053699493408203,33.88628005981445,-2.571166515350342,-0.0,-0.0,-1.0,0.0023893386353781654,1.0,0
20.966896057128906,33.74852752685547,-2.575429916381836,-0.0,-0.0,-1.0,0.0033445567453982885,1.0,0
22.527605056762695,34.97697448730469,-2.7038073539733887,-0.0,-0.0,-1.0,0.11038136076804092,1.0,0
22.129377365112305,34.57969665527344,-2.7216830253601074,-0.0,-0.0,-1.0,0.030811893072203132,1.0,0
22.55729866027832,34.716331481933594,-2.6805267333984375,-0.0,-0.0,-1.0,0.11465361856979396,1.0,0
22.4443359375,34.617088317871094,-2.686558246612549,-0.0,-0.0,-1.0,0.07016838954742075,1.0,0
22.24199676513672,34.46720886230469,-2.6996893882751465,-0.0,-0.0,-1.0,0.030432227095802608,1.0,0
22.178409576416016,33.666595458984375,-2.6485848426818848,-0.0,-0.0,-1.0,0.13850507967521172,2.0,0
22.07691764831543,33.27668762207031,-2.6329941749572754,-0.0,-0.0,-1.0,0.19333799568899665,1.0,0
21.252952575683594,35.0282096862793,-2.6040945053100586,-0.0,-0.0,-1.0,0.07712114928492259,1.0,0
21.1180362701416,34.87965774536133,-2.6093645095825195,-0.0,-0.0,-1.0,0.13682108158760659,2.0,0
21.027786254882812,34.75179672241211,-2.6109824180603027,-0.0,-0.0,-1.0,0.054785384362246996,1.0,0
21.51529884338379,35.047569274902344,-2.5746445655822754,-0.0,-0.0,-1.0,0.07010144506909244,1.0,0
20.964466094970703,34.59658432006836,-2.6075477600097656,-0.0,-0.0,-1.0,0.04174714424080157,1.0,0
20.939247131347656,34.187801361083984,-2.581949234008789,-0.0,-0.0,-1.0,0.005430679400018749,2.0,0
20.951948165893555,34.39838790893555,-2.595127582550049,-0.0,-0.0,-1.0,0.008621844656793571,1.0,0
20.924198150634766,33.91804122924805,-2.565103530883789,-0.0,-0.0,-1.0,0.001557585380723512,2.0,0
21.82004737854004,34.80134582519531,-2.615908622741699,-0.6303393277636006,0.7381257534647149,-0.24050510170613676,0.07993810621725227,3.0,0
21.568422317504883,34.64544677734375,-2.6305832862854004,-0.0,-0.0,-1.0,0.024404358772129008,1.0,0
22.486873626708984,34.91731262207031,-2.552365779876709,-0.0,-0.0,-1.0,0.09010783694941148,1.0,0
22.231365203857422,34.919647216796875,-2.580711841583252,-0.0,-0.0,-1.0,0.0979159767953339,2.0,0
21.963300704956055,34.78586196899414,-2.5985026359558105,-0.0,-0.0,-1.0,0.05549585549316747,1.0,0
21.64934539794922,34.55598068237305,-2.613558769226074,-0.0,-0.0,-1.0,0.020210963267536634,1.0,0
21.552471160888672,34.37517547607422,-2.6088337898254395,-0.0,-0.0,-1.0,0.009314310773518701,1.0,0
21.909212112426758,33.180267333984375,-2.4653825759887695,-0.0,-0.0,-1.0,0.17800541557844007,1.0,0
21.386518478393555,34.985816955566406,-2.562471389770508,-0.0,-0.0,-1.0,0.07985694163508188,1.0,0
21.151777267456055,34.81161880493164,-2.5780029296875,-0.0,-0.0,-1.0,0.25434109528846943,1.0,0
20.951066970825195,34.464447021484375,-2.576343536376953,-0.0,-0.0,-1.0,0.028920834231351673,1.0,0
20.957782745361328,34.183563232421875,-2.554037094116211,-0.0,-0.0,-1.0,0.005211048213265368,2.0,0
20.973434448242188,33.49085235595703,-2.500039577484131,-0.0,-0.0,-1.0,0.007931535500400877,1.0,0
22.63445281982422,34.567108154296875,-2.6380577087402344,-0.0,-0.0,-1.0,0.07473330669602755,1.0,0
22.31981658935547,34.61026382446289,-2.6836514472961426,-0.0,-0.0,-1.0,0.05011276042308088,1.0,0
22.00740623474121,34.56961441040039,-2.7213644981384277,-0.0,-0.0,-1.0,0.036174435249600165,2.0,0
22.132991790771484,34.1346435546875,-2.6637773513793945,-0.0,-0.0,-1.0,0.033134296708026624,1.0,0
22.224254608154297,33.88627624511719,-2.628345489501953,-0.0,-0.0,-1.0,0.029486187392357522,1.0,0
22.094144821166992,33.439361572265625,-2.604857921600342,-0.0,-0.0,-1.0,0.12910854059202442,1.0,0
21.743175506591797,35.025047302246094,-2.6350104808807373,-0.0,-0.0,-1.0,0.10337969403748504,2.0,0
21.48951530456543,34.856689453125,-2.648725986480713,-0.0,-0.0,-1.0,0.05331027625603967,2.0,0
21.378623962402344,34.703392028808594,-2.646868944168091,-0.0,-0.0,-1.0,0.033271921203073734,1.0,0
21.40715217590332,34.31640625,-2.604444980621338,-0.0,-0.0,-1.0,0.010506223757688709,1.0,0
21.14866828918457,33.42963409423828,-2.549816131591797,-0.0,-0.0,-1.0,0.005903389083527338,1.0,0
21.116127014160156,34.87419128417969,-2.32658314704895,-0.4283204249230164,0.9019624587659926,-0.05482095010643452,0.1913568477814024,3.0,0
22.424999237060547,34.342105865478516,-2.7643840312957764,-0.0,-0.0,-1.0,0.047422314650431424,1.0,0
22.70241928100586,34.354286193847656,-2.7344977855682373,-0.0,-0.0,-1.0,0.1115505303988134,2.0,0
22.520526885986328,33.71065139770508,-2.667935848236084,-0.0,-0.0,-1.0,0.07464784587249185,2.0,0
22.286827087402344,33.777748107910156,-2.704254150390625,-0.0,-0.0,-1.0,0.04377790742603449,1.0,0
22.223344802856445,33.59727478027344,-2.6876718997955322,-0.0,-0.0,-1.0,0.14564784558110858,2.0,0
20.398086547851562,33.17926788330078,-2.0324313640594482,-0.0,-0.0,-1.0,0.051040627097625565,2.0,0
22.623741149902344,34.645198822021484,-2.6335628032684326,-0.0,-0.0,-1.0,0.11869264464477265,1.0,0
22.214088439941406,34.666603088378906,-2.683767318725586,-0.0,-0.0,-1.0,0.030973313793019406,2.0,0
21.898439407348633,34.62113952636719,-2.714566707611084,-0.0,-0.0,-1.0,0.04644362535228456,1.0,0
21.816017150878906,34.459228515625,-2.7024431228637695,-0.0,-0.0,-1.0,0.027213438913457767,1.0,0
21.641315460205078,33.948402404785156,-2.6551010608673096,-0.0,-0.0,-1.0,0.009593448975384276,1.0,0
21.92745590209961,33.19480895996094,-2.519845724105835,-0.0,-0.0,-1.0,0.17800541557844013,2.0,0
22.439863204956055,34.9500732421875,-2.6449663639068604,-0.0,-0.0,-1.0,0.09555035583404485,1.0,0
22.252986907958984,34.89384460449219,-2.6627931594848633,-0.007377556750749256,0.532522743697266,-0.8463835413697064,0.07310150596997152,3.0,0
22.527996063232422,34.717254638671875,-2.6021900177001953,-0.0,-0.0,-1.0,0.12084586611739015,1.0,0
22.094663619995117,34.72222137451172,-2.6620349884033203,-0.0,-0.0,-1.0,0.047813870115547524,1.0,0
21.71664047241211,34.18297576904297,-2.645287036895752,-0.0,-0.0,-1.0,0.01448386518029816,1.0,0
21.94547462463379,33.348777770996094,-2.5063254833221436,-0.0,-0.0,-1.0,0.18690627217355762,2.0,0
21.526470184326172,33.52775192260742,-2.5898404121398926,-0.0,-0.0,-1.0,0.02257439975103872,1.0,0
21.51017189025879,33.212650299072266,-2.552973985671997,-0.0,-0.0,-1.0,0.03872962505259885,1.0,0
20.371089935302734,33.172794342041016,-1.9491801261901855,-0.0,-0.0,-1.0,0.05104062709762561,1.0,0
21.14276123046875,34.90912628173828,-2.5831518173217773,-0.7393232711920291,0.6709409260583663,-0.056915502403647816,0.20488319804952101,3.0,0
20.97002601623535,34.830421447753906,-2.5927577018737793,-0.0,-0.0,-1.0,0.13062956072055706,1.0,0
20.760719299316406,34.39385223388672,-2.558320999145508,-0.0,-0.0,-1.0,0.011592595502148943,1.0,0
20.61481475830078,34.21381759643555,-2.5519347190856934,-0.0,-0.0,-1.0,0.0068311620593048475,1.0,0
20.49603843688965,33.78263854980469,-2.509049892425537,-0.0,-0.0,-1.0,0.006214877831728252,1.0,0
20.55059814453125,33.50372314453125,-2.465054512023926,-0.0,-0.0,-1.0,0.02129141021694338,1.0,0
20.674732208251953,33.19062423706055,-2.407742977142334,-0.0,-0.0,-1.0,0.03799121244612986,1.0,0
22.654102325439453,34.55825424194336,-2.7740254402160645,-0.0,-0.0,-1.0,0.11084396703482352,1.0,0
22.642993927001953,34.35808563232422,-2.740659236907959,-0.25677539980514685,0.881454228722864,-0.39636452505425845,0.1325477052019645,3.0,0
22.44196319580078,33.68489456176758,-2.647918224334717,-0.0,-0.0,-1.0,0.07433341244579728,1.0,0
22.197223663330078,33.57787322998047,-2.657811164855957,-0.0,-0.0,-1.0,0.1379340353485148,2.0,0
22.00770378112793,33.649078369140625,-2.691864013671875,-0.0,-0.0,-1.0,0.0917642074791134,1.0,0
21.832897186279297,33.19399642944336,-2.6364729404449463,-0.0,-0.0,-1.0,0.14403210013378845,2.0,0
20.414108276367188,33.18096160888672,-2.094134569168091,-0.0,-0.0,-1.0,0.05104062709762567,2.0,0
22.425052642822266,34.12388610839844,-2.8603763580322266,-0.0,-0.0,-1.0,0.026490447974815836,1.0,0
20.31907844543457,34.765933990478516,-2.4820642471313477,-0.0,-0.0,-1.0,0.013333697283974799,2.0,0
22.49203109741211,33.71968460083008,-2.777711868286133,-0.0,-0.0,-1.0,0.05479198908766377,1.0,0
20.574291229248047,34.74633026123047,-2.4506592750549316,-0.630004430789091,-0.7486721870360724,0.20635981572180626,0.04964758198466026,4.0,0
20.42461395263672,34.719730377197266,-2.4634413719177246,-0.0,-0.0,-1.0,0.021322146353617434,2.0,0
20.250282287597656,34.44513702392578,-2.443286895751953,-0.0,-0.0,-1.0,0.01692848657418351,2.0,0
22.4537353515625,34.660797119140625,-2.776193618774414,-0.0,-0.0,-1.0,0.08314392015545072,2.0,0
22.69525909423828,34.57297897338867,-2.737745761871338,-0.0,-0.0,-1.0,0.10663045397018527,1.0,0
22.224300384521484,34.38526153564453,-2.7444772720336914,-0.0,-0.0,-1.0,0.029409423577165195,1.0,0
22.10857582092285,33.90595245361328,-2.664170265197754,-0.0,-0.0,-1.0,0.031061610041523375,1.0,0
21.987279891967773,33.68738555908203,-2.634568214416504,-0.0,-0.0,-1.0,0.0662053421934415,2.0,0
21.664875030517578,33.54463577270508,-2.640355110168457,-0.0,-0.0,-1.0,0.03626604157103301,1.0,0
21.99199676513672,33.25628662109375,-2.55275821685791,-0.0,-0.0,-1.0,0.20063681171227848,1.0,0
21.604623794555664,33.28246307373047,-2.5976171493530273,-0.0,-0.0,-1.0,0.07237344588566354,1.0,0
20.450889587402344,33.15161895751953,-2.0280518531799316,-0.0,-0.0,-1.0,0.05127741931695818,1.0,0
21.952375411987305,35.03062438964844,-2.650914430618286,-0.0,-0.0,-1.0,0.09537458285371742,2.0,0
21.684959411621094,34.99298095703125,-2.664623975753784,-0.0,-0.0,-1.0,0.09440430454287214,2.0,0
21.47769546508789,34.878883361816406,-2.6600282192230225,-0.0,-0.0,-1.0,0.053310276256039624,2.0,0
21.271860122680664,34.76502990722656,-2.6559102535247803,-0.23813315484718936,-0.0837832267829272,-0.967611994278887,0.03130478978845771,4.0,0
21.071422576904297,34.6336669921875,-2.648763656616211,-0.0,-0.0,-1.0,0.04076519389367348,1.0,0
22.076610565185547,34.96345138549805,-2.6286633014678955,-0.0,-0.0,-1.0,0.0824757924625095,1.0,0
21.173084259033203,34.646453857421875,-2.6423020362854004,-0.0,-0.0,-1.0,0.03979300038333506,1.0,0
20.994625091552734,34.36207580566406,-2.6053271293640137,-0.0,-0.0,-1.0,0.007493290348076166,2.0,0
20.880857467651367,34.1988525390625,-2.5854880809783936,-0.0,-0.0,-1.0,0.00551945036426713,1.0,0
20.74088478088379,34.02774429321289,-2.5670342445373535,-0.0,-0.0,-1.0,0.0036315382899682613,1.0,0
20.62657356262207,33.80579376220703,-2.537309408187866,-0.0,-0.0,-1.0,0.00658535092888686,1.0,0
20.73236846923828,33.21794128417969,-2.4201624393463135,-0.0,-0.0,-1.0,0.04096966722281963,1.0,0
22.36410903930664,34.85417175292969,-2.714524269104004,-0.0,-0.0,-1.0,0.0788998336910245,2.0,0
22.09710693359375,34.7548713684082,-2.7095441818237305,-0.0,-0.0,-1.0,0.06149435497185188,1.0,0
22.176372528076172,34.701332092285156,-2.6937131881713867,-0.0,-0.0,-1.0,0.03362561709799292,1.0,0
21.69873809814453,34.59407043457031,-2.701563835144043,-0.0,-0.0,-1.0,0.03189191988036265,1.0,0
21.507808685302734,34.29087829589844,-2.652592182159424,-0.0,-0.0,-1.0,0.008468533073981115,1.0,0
21.36829948425293,34.20384979248047,-2.6447925567626953,-0.0,-0.0,-1.0,0.004672652916882141,1.0,0
22.686172485351562,34.46538543701172,-2.616370677947998,-0.0,-0.0,-1.0,0.1055454967207589,2.0,0
21.328432083129883,34.01963806152344,-2.610360622406006,-0.0,-0.0,-1.0,0.0032123379318798953,2.0,0
22.20821762084961,33.588348388671875,-2.4626545906066895,-0.0,-0.0,-1.0,0.12709430415660097,1.0,0
22.15035629272461,33.572792053222656,-2.4631075859069824,-0.0,-0.0,-1.0,0.1265194960909423,1.0,0
20.927928924560547,33.652870178222656,-2.56728458404541,-0.0,-0.0,-1.0,0.008753861287785504,1.0,0
21.887128829956055,33.419795989990234,-2.449122905731201,-0.0,-0.0,-1.0,0.09498889243777668,1.0,0
20.749004364013672,33.242645263671875,-2.500225067138672,-0.0,-0.0,-1.0,0.03973776807115445,1.0,0
21.6721248626709,34.99510955810547,-2.6627705097198486,-0.0,-0.0,-1.0,0.08532056475425558,2.0,0
21.392820358276367,34.920677185058594,-2.6628634929656982,-0.0,-0.0,-1.0,0.048680728119502574,1.0,0
22.091520309448242,34.90205764770508,-2.62286639213562,-0.0,-0.0,-1.0,0.10192513573949706,1.0,0
21.250211715698242,34.7889404296875,-2.6445298194885254,-0.0,-0.0,-1.0,0.03280910344100512,2.0,0
21.047948837280273,34.59076690673828,-2.6167097091674805,-0.0,-0.0,-1.0,0.04146593321029134,1.0,0
20.883251190185547,34.35633850097656,-2.580125093460083,-0.0,-0.0,-1.0,0.006049213486519452,1.0,0
20.707080841064453,34.2855110168457,-2.57776141166687,-0.0,-0.0,-1.0,0.007409348900243247,1.0,0
22.696430206298828,34.48381805419922,-2.5105297565460205,-0.0,-0.0,-1.0,0.09804384767711063,1.0,0
20.59309959411621,34.12901306152344,-2.5544068813323975,-0.0,-0.0,-1.0,0.005584877106127709,1.0,0
20.75599479675293,33.24289321899414,-2.3664095401763916,-0.0,-0.0,-1.0,0.03889256952157857,1.0,0
22.546030044555664,34.427398681640625,-2.8051228523254395,-0.0,-0.0,-1.0,0.08532819521437396,1.0,0
22.68073844909668,34.34486389160156,-2.7847533226013184,-0.23556404385315496,0.9580677516568727,-0.16314338625483368,0.11671158417916813,4.0,0
22.25777244567871,34.21430969238281,-2.762234687805176,-0.0,-0.0,-1.0,0.03275655301466248,1.0,0
22.50455093383789,33.97399139404297,-2.7040181159973145,-0.0,-0.0,-1.0,0.04456052792560477,1.0,0
22.271738052368164,33.90263748168945,-2.6923465728759766,-0.0,-0.0,-1.0,0.04028306648841185,1.0,0
22.089988708496094,33.701454162597656,-2.6510372161865234,-0.0,-0.0,-1.0,0.11595585070968616,1.0,0
22.25294303894043,33.576053619384766,-2.619466781616211,0.6562241048030458,-0.23021219507690896,-0.7185904741320414,0.16493223325445472,3.0,0
21.976594924926758,33.45000457763672,-2.597668409347534,-0.0,-0.0,-1.0,0.11543337628957838,2.0,0
21.684261322021484,33.46095275878906,-2.608060121536255,-0.0,-0.0,-1.0,0.062402935082961915,1.0,0
21.9635066986084,33.20465087890625,-2.54325532913208,-0.2900075037032776,-0.6368558929918364,-0.7143600068294446,0.1919074644208002,3.0,0
21.165424346923828,34.93498992919922,-2.5726518630981445,-0.0,-0.0,-1.0,0.18154780260778397,2.0,0
20.735748291015625,34.714813232421875,-2.53613543510437,-0.0,-0.0,-1.0,0.01935906109806158,1.0,0
20.55030632019043,34.648502349853516,-2.526867389678955,-0.0,-0.0,-1.0,0.03554952271006161,1.0,0
21.75725555419922,34.93645095825195,-2.5658106803894043,-0.0,-0.0,-1.0,0.10511079168455895,2.0,0
21.27226448059082,35.04512023925781,-2.55935001373291,-0.0,-0.0,-1.0,0.10447513849162048,1.0,0
20.888534545898438,34.93743896484375,-2.5225958824157715,-0.0,-0.0,-1.0,0.1742214713105005,1.0,0
20.57840347290039,34.73432922363281,-2.471191883087158,-0.630004430789091,-0.7486721870360724,0.20635981572180626,0.033372614857778954,4.0,0
21.937395095825195,34.92194747924805,-2.5657052993774414,-0.0,-0.0,-1.0,0.10586307717410749,1.0,0
22.089370727539062,33.17045974731445,-2.7136390209198,-0.0,-0.0,-1.0,0.15247860356387766,1.0,0
20.782283782958984,34.695377349853516,-2.636514186859131,-0.0,-0.0,-1.0,0.01729739971346346,1.0,0
22.1163330078125,33.63901138305664,-2.5892539024353027,-0.0,-0.0,-1.0,0.12814173527412215,1.0,0
21.174707412719727,34.7545166015625,-2.3606436252593994,-0.0,-0.0,-1.0,0.15666411856299658,1.0,0
20.97519874572754,34.761695861816406,-2.3509252071380615,-0.0,-0.0,-1.0,0.21396196055781222,1.0,0
21.874238967895508,34.93285369873047,-2.607360363006592,-0.0,-0.0,-1.0,0.10473442867656774,1.0,0
21.28968048095703,34.838565826416016,-2.629767894744873,-0.0,-0.0,-1.0,0.016697929705630315,1.0,0
21.61607551574707,34.97196960449219,-2.552111864089966,-0.0,-0.0,-1.0,0.06881784322735396,1.0,0
21.205554962158203,35.02641677856445,-2.584195613861084,-0.0,-0.0,-1.0,0.14300485109812308,1.0,0
20.71863555908203,34.485145568847656,-2.557992458343506,-0.0,-0.0,-1.0,0.01500328696927282,1.0,0
22.21077537536621,34.93735122680664,-2.759877920150757,-0.0,-0.0,-1.0,0.08866339680152896,1.0,0
21.834510803222656,34.92182922363281,-2.7828500270843506,-0.0,-0.0,-1.0,0.10380345826054381,1.0,0
20.500774383544922,34.720542907714844,-2.4494080543518066,-0.5887837100509542,-0.7966058680008256,-0.13694098672525026,0.02666735544826048,4.0,0
22.684858322143555,34.449440002441406,-2.6585354804992676,-0.9305607330762178,-0.33193005644112905,0.15452883125048647,0.10900865986467194,3.0,0
22.443208694458008,34.873470306396484,-2.7202954292297363,-0.0,-0.0,-1.0,0.09852647487498327,2.0,0
22.258419036865234,34.674842834472656,-2.6937623023986816,-0.0,-0.0,-1.0,0.034254188811705256,2.0,0
21.594314575195312,34.42296600341797,-2.6646060943603516,-0.0,-0.0,-1.0,0.012271292205175886,1.0,0
21.95035171508789,34.73539733886719,-2.705085277557373,-0.0,-0.0,-1.0,0.07949115420150957,1.0,0
22.04631996154785,33.18708419799805,-2.4857115745544434,-0.0,-0.0,-1.0,0.20063681171227854,1.0,0
21.088232040405273,34.858699798583984,-2.3635170459747314,0.23892122571133606,0.8178497469293908,-0.523486809148162,0.22857107067114643,3.0,0
21.164966583251953,34.97612762451172,-2.378460645675659,-0.0,-0.0,-1.0,0.11010658072664846,1.0,0
22.03570556640625,33.200706481933594,-2.6692545413970947,-0.0,-0.0,-1.0,0.19689739766278777,2.0,0
21.42584800720215,35.03972625732422,-2.545463800430298,-0.0,-0.0,-1.0,0.08421157931092155,1.0,0
20.837177276611328,34.67531204223633,-2.5439810752868652,-0.0,-0.0,-1.0,0.0655917390975343,1.0,0
21.042415618896484,34.88137435913086,-2.5561771392822266,-0.0,-0.0,-1.0,0.20279749304884817,1.0,0
20.67091178894043,34.467803955078125,-2.528273344039917,-0.0,-0.0,-1.0,0.01587989731910058,2.0,0
22.146100997924805,34.9492301940918,-2.609670400619507,-0.0,-0.0,-1.0,0.09619251759642393,1.0,0
21.856182098388672,34.83110046386719,-2.619295120239258,-0.6303393277636006,0.7381257534647149,-0.24050510170613676,0.09644429884139263,3.0,0
21.780380249023438,35.02732849121094,-2.6593050956726074,-0.0,-0.0,-1.0,0.12012316007862626,2.0,0
21.320417404174805,34.761962890625,-2.6632752418518066,-0.16050020086713176,-0.24502722280905928,-0.9561387690100689,0.03601659533824429,3.0,0
21.448692321777344,34.932945251464844,-2.6778781414031982,-0.0,-0.0,-1.0,0.045373162550686026,1.0,0
21.11701011657715,34.59959411621094,-2.6582906246185303,-0.0,-0.0,-1.0,0.031309808579347134,1.0,0
20.85497283935547,33.812713623046875,-2.558267831802368,-0.0,-0.0,-1.0,0.004958629738920655,1.0,0
20.896142959594727,33.924346923828125,-2.571964740753174,-0.0,-0.0,-1.0,0.0016937402923326275,2.0,0
22.56435775756836,34.4450798034668,-2.7455897331237793,-0.0,-0.0,-1.0,0.09594944040702905,1.0,0
22.490074157714844,34.620521545410156,-2.7828516960144043,-0.0,-0.0,-1.0,0.11162603831924468,1.0,0
22.249807357788086,34.47146987915039,-2.7673850059509277,-0.0,-0.0,-1.0,0.030500972549198695,1.0,0
22.277183532714844,33.56177520751953,-2.5927557945251465,-0.0,-0.0,-1.0,0.16273131498117707,2.0,0
22.140464782714844,34.15510940551758,-2.7133922576904297,-0.0,-0.0,-1.0,0.03128103838159091,1.0,0
22.092391967773438,33.36870574951172,-2.56660795211792,-0.0,-0.0,-1.0,0.12370487488525522,1.0,0
21.97861099243164,33.72062683105469,-2.63997745513916,-0.0,-0.0,-1.0,0.06380485601882153,2.0,0
22.661096572875977,34.339088439941406,-2.8261804580688477,-0.0,-0.0,-1.0,0.07799577425311185,2.0,0
22.534276962280273,33.71487808227539,-2.705845832824707,-0.0,-0.0,-1.0,0.07084208895956849,2.0,0
22.391040802001953,33.91442108154297,-2.7544212341308594,-0.0,-0.0,-1.0,0.02910255442970267,1.0,0
22.134252548217773,33.4324951171875,-2.6711745262145996,-0.0,-0.0,-1.0,0.11609525069339577,1.0,0
21.860076904296875,33.22783279418945,-2.646267890930176,0.15251755197877204,-0.3858954347407527,-0.909847849799431,0.14926106289747249,3.0,0
21.091087341308594,34.86433410644531,-2.2931251525878906,-0.7465302754634576,0.529689648771077,-0.4026430476255952,0.20923262561923497,3.0,0
20.407154083251953,33.16432571411133,-2.056244373321533,-0.9516099227236853,-0.17599110120915998,-0.25192397120760307,0.05104062709762566,3.0,0
22.6849422454834,33.7175407409668,-2.58620023727417,-0.0,-0.0,-1.0,0.0650378992225877,1.0,0
22.57024574279785,34.2307243347168,-2.7020859718322754,-0.9150811027339695,0.3654540707407286,0.17049896656054253,0.07025258207126857,3.0,0
22.441360473632812,33.49164962768555,-2.5536465644836426,-0.0,-0.0,-1.0,0.13588846369502994,1.0,0
22.239728927612305,33.79840850830078,-2.631868362426758,-0.0,-0.0,-1.0,0.06514311184040056,1.0,0
22.03483772277832,33.22429275512695,-2.524386405944824,-0.0,-0.0,-1.0,0.21008445602020262,1.0,0
21.771053314208984,33.43960189819336,-2.588834285736084,-0.0,-0.0,-1.0,0.07555739392135173,1.0,0
22.51183319091797,34.93462371826172,-2.6808857917785645,-0.0,-0.0,-1.0,0.11899021484347977,1.0,0
22.173288345336914,34.8206672668457,-2.67423939704895,-0.0,-0.0,-1.0,0.10377959912941177,2.0,0
21.903833389282227,34.879371643066406,-2.701798677444458,-0.0,-0.0,-1.0,0.10528804360248765,1.0,0
21.68498992919922,34.79551696777344,-2.696884870529175,-0.0,-0.0,-1.0,0.07148757763588072,1.0,0
21.36720848083496,34.59182357788086,-2.673217535018921,-0.0,-0.0,-1.0,0.022015764870004815,1.0,0
21.148418426513672,34.34082794189453,-2.634061098098755,-0.0,-0.0,-1.0,0.014588146443683713,1.0,0
20.95456314086914,34.077720642089844,-2.591338634490967,-0.0,-0.0,-1.0,0.0022289247968123663,1.0,0
20.73771095275879,33.831809997558594,-2.5545992851257324,-0.0,-0.0,-1.0,0.0057130404819470074,1.0,0
22.64790153503418,34.07390594482422,-2.8211593627929688,-0.0,-0.0,-1.0,0.03066399420599137,1.0,0
22.452606201171875,33.79669189453125,-2.7615623474121094,-0.0,-0.0,-1.0,0.05487512673150301,1.0,0
22.359140396118164,33.651031494140625,-2.7300660610198975,-0.0,-0.0,-1.0,0.07479319259257212,1.0,0
22.22371482849121,33.435272216796875,-2.683558702468872,-0.0,-0.0,-1.0,0.16150728003094375,1.0,0
20.55314826965332,34.75707244873047,-2.4626872539520264,-0.630004430789091,-0.7486721870360724,0.20635981572180626,0.03594843235719744,4.0,0
21.932483673095703,33.215576171875,-2.644289493560791,-0.0,-0.0,-1.0,0.1706912350457357,2.0,0
20.463151931762695,34.73540496826172,-2.464538812637329,0.0864903338100735,-0.8372842806787703,-0.5398837425646901,0.020440967137461956,4.0,0
22.614347457885742,33.9810905456543,-2.7608132362365723,-0.0,-0.0,-1.0,0.03329086925413064,1.0,0
22.497831344604492,33.619422912597656,-2.670034885406494,-0.0,-0.0,-1.0,0.08500042008036479,1.0,0
22.428478240966797,33.743019104003906,-2.7011492252349854,-0.0,-0.0,-1.0,0.050452598729870866,1.0,0
22.25226402282715,33.53354263305664,-2.649118661880493,-0.0,-0.0,-1.0,0.16000262357298223,1.0,0
21.903806686401367,33.236366271972656,-2.577028512954712,-0.0,-0.0,-1.0,0.1780054155784401,1.0,0
21.15276527404785,33.253211975097656,-2.5936732292175293,-0.0,-0.0,-1.0,0.005460101381283099,1.0,0
21.19623374938965,34.857505798339844,-2.3714752197265625,-0.0,-0.0,-1.0,0.14782770669531065,1.0,0
21.275028228759766,33.15039825439453,-2.56597900390625,-0.0,-0.0,-1.0,0.011327646681031131,1.0,0
22.036888122558594,33.19386291503906,-2.6555991172790527,-0.0,-0.0,-1.0,0.19689739766278783,2.0,0
21.082984924316406,34.83721160888672,-2.3137831687927246,-0.0,-0.0,-1.0,0.21290007273328598,2.0,0
20.910770416259766,34.87846374511719,-2.308807849884033,-0.0,-0.0,-1.0,0.17103635605108025,1.0,0
21.914691925048828,35.02142333984375,-2.6664278507232666,-0.0,-0.0,-1.0,0.09629183955195898,2.0,0
22.397064208984375,34.88868713378906,-2.722604513168335,-0.02019279640376041,-0.20957775143177917,-0.9775834578583027,0.07869312177981533,3.0,0
22.209999084472656,34.92483901977539,-2.697774648666382,-0.0,-0.0,-1.0,0.08866339680152893,1.0,0
21.829925537109375,34.979156494140625,-2.6458632946014404,-0.0,-0.0,-1.0,0.10554162347602,1.0,0
22.05296516418457,34.81621170043945,-2.6542792320251465,-0.0,-0.0,-1.0,0.07725447340901413,2.0,0
22.257871627807617,33.562252044677734,-2.4808268547058105,-0.0,-0.0,-1.0,0.12838020301465503,1.0,0
20.866287231445312,33.668479919433594,-2.5666656494140625,-0.0,-0.0,-1.0,0.007830104859451526,1.0,0
22.236467361450195,34.87648391723633,-2.673572063446045,-0.0,-0.0,-1.0,0.07922015059370101,2.0,0
21.764957427978516,34.97947311401367,-2.694568157196045,-0.0,-0.0,-1.0,0.12096457373969126,1.0,0
22.17116928100586,34.80937957763672,-2.6868584156036377,-0.0,-0.0,-1.0,0.09430910878912387,2.0,0
20.259597778320312,35.08232116699219,-2.5063629150390625,-0.0,-0.0,-1.0,0.04575910430662002,2.0,0
20.555870056152344,34.647762298583984,-2.435420036315918,-0.0,-0.0,-1.0,0.02616518750752915,1.0,0
20.266815185546875,34.88680648803711,-2.469259738922119,-0.0,-0.0,-1.0,0.025728391038564766,1.0,0
22.588525772094727,34.55673599243164,-2.6605303287506104,-0.0,-0.0,-1.0,0.07473330669602751,1.0,0
22.08597755432129,34.797279357910156,-2.6492645740509033,-0.0,-0.0,-1.0,0.08304383439798534,2.0,0
20.957408905029297,34.93817901611328,-2.5611231327056885,-0.0,-0.0,-1.0,0.1831130754150886,1.0,0
20.484647750854492,34.7354621887207,-2.479614019393921,-0.22902218555339318,-0.9157633412593671,-0.3300399086926116,0.026161165364908028,3.0,0
22.680076599121094,34.524532318115234,-2.621344804763794,-0.0,-0.0,-1.0,0.07956445081973973,1.0,0
22.325834274291992,34.923484802246094,-2.6605870723724365,-0.0,-0.0,-1.0,0.07860498060841635,1.0,0
21.157026290893555,35.0130615234375,-2.5697638988494873,-0.0,-0.0,-1.0,0.14237942257140976,1.0,0
20.302127838134766,35.01667022705078,-2.4967315196990967,-0.0,-0.0,-1.0,0.04575910430662003,1.0,0
20.405536651611328,34.59485626220703,-2.4233291149139404,-0.0,-0.0,-1.0,0.01898292607107777,1.0,0
20.28845977783203,33.16489791870117,-2.138946294784546,-0.0,-0.0,-1.0,0.05104062709762566,1.0,0
20.577251434326172,35.06920623779297,-2.4013829231262207,-0.0,-0.0,-1.0,0.06600055288696281,1.0,0
22.637479782104492,34.3391227722168,-2.7792575359344482,-0.21854481808039825,0.8754650424285916,-0.4310442227610874,0.11901221527282616,4.0,0
21.49669647216797,34.745574951171875,-2.6832964420318604,-0.0,-0.0,-1.0,0.03368990649317607,1.0,0
21.313167572021484,34.73835372924805,-2.656008005142212,-0.16050020086713176,-0.24502722280905928,-0.9561387690100689,0.03215389403732927,3.0,0
20.93362808227539,34.64802551269531,-2.5865190029144287,-0.0,-0.0,-1.0,0.09373384768374872,2.0,0
20.45124626159668,34.50613021850586,-2.493853807449341,-0.0,-0.0,-1.0,0.02178690478535104,1.0,0
20.23247718811035,34.61649703979492,-2.483921766281128,-0.0,-0.0,-1.0,0.018319702599632108,1.0,0
22.574588775634766,34.24904251098633,-2.7180404663085938,-0.9150811027339695,0.3654540707407286,0.17049896656054253,0.07215161979731195,3.0,0
21.60753059387207,34.70100784301758,-2.6653013229370117,-0.0,-0.0,-1.0,0.030509245348639295,1.0,0
21.4232234954834,34.75441360473633,-2.6498379707336426,-0.0,-0.0,-1.0,0.038842138974735346,1.0,0
20.88787841796875,34.51607894897461,-2.5281763076782227,-0.0,-0.0,-1.0,0.026697265446114685,1.0,0
20.45969009399414,34.35791015625,-2.437455654144287,-0.0,-0.0,-1.0,0.015225837306948787,1.0,0
20.604402542114258,34.57768249511719,-2.501199722290039,-0.0,-0.0,-1.0,0.020129594028252998,1.0,0
20.232284545898438,34.361671447753906,-2.4069457054138184,-0.0,-0.0,-1.0,0.01546322897039155,2.0,0
20.249094009399414,33.34087371826172,-2.208315372467041,-0.0,-0.0,-1.0,0.05348952861043232,1.0,0
22.70535659790039,33.39728546142578,-2.7098283767700195,-0.0,-0.0,-1.0,0.09184816289381811,1.0,0
22.130359649658203,33.65927505493164,-2.6571874618530273,-0.0,-0.0,-1.0,0.13668098931747122,2.0,0
21.928924560546875,33.44224166870117,-2.585155963897705,-0.0,-0.0,-1.0,0.1068941173413044,2.0,0
21.284629821777344,34.42139434814453,-2.6544861793518066,-0.0,-0.0,-1.0,0.013743006218710836,1.0,0
20.787006378173828,34.32573699951172,-2.556338310241699,-0.0,-0.0,-1.0,0.006032271578965092,1.0,0
20.3145751953125,34.38665771484375,-2.492373466491699,-0.0,-0.0,-1.0,0.019745575572654588,1.0,0
20.343387603759766,34.1343994140625,-2.449315071105957,-0.0,-0.0,-1.0,0.007530321206121619,1.0,0
20.231746673583984,33.38993835449219,-2.29317569732666,-0.0,-0.0,-1.0,0.05932872478426362,2.0,0
22.06684112548828,33.5731086730957,-2.6661975383758545,-0.0,-0.0,-1.0,0.12447451089828693,1.0,0
21.84512710571289,33.1898078918457,-2.5605061054229736,-0.0,-0.0,-1.0,0.14926106289747249,1.0,0
22.020709991455078,33.805416107177734,-2.6971418857574463,-0.0,-0.0,-1.0,0.027876274387204473,2.0,0
21.15750503540039,34.22107696533203,-2.6123745441436768,-0.0,-0.0,-1.0,0.0035640986691453385,1.0,0
20.834522247314453,34.31108474731445,-2.570690870285034,-0.0,-0.0,-1.0,0.00570510815656172,1.0,0
20.215869903564453,33.40049362182617,-2.2965638637542725,-0.0,-0.0,-1.0,0.05932872478426354,2.0,0
20.226428985595703,34.175926208496094,-2.4381020069122314,-0.0,-0.0,-1.0,0.009837419957875416,1.0,0
20.2506160736084,34.383907318115234,-2.4805796146392822,-0.0,-0.0,-1.0,0.017972987535563055,2.0,0
20.26600456237793,33.477867126464844,-2.456871271133423,-0.0,-0.0,-1.0,0.0528112002683829,1.0,0
21.787309646606445,33.25640106201172,-2.657991886138916,-0.0,-0.0,-1.0,0.10797477209837439,1.0,0
20.869230270385742,34.03477096557617,-2.5954179763793945,-0.0,-0.0,-1.0,0.002057312525664901,1.0,0
20.246028900146484,33.74307632446289,-2.4120116233825684,-0.0,-0.0,-1.0,0.028900391227126433,2.0,0
20.44733428955078,34.119667053222656,-2.5219969749450684,-0.0,-0.0,-1.0,0.006579080109910861,1.0,0
20.372526168823242,33.62056350708008,-2.4907608032226562,-0.0,-0.0,-1.0,0.03034646451958443,1.0,0
22.244647979736328,33.61189651489258,-2.6385247707366943,-0.0,-0.0,-1.0,0.14626284801169825,2.0,0
22.692790985107422,33.62816619873047,-2.7547781467437744,-0.0,-0.0,-1.0,0.07070865377711838,1.0,0
22.70232391357422,33.873756408691406,-2.8037097454071045,-0.0,-0.0,-1.0,0.05470540968032571,1.0,0
22.297428131103516,33.990970611572266,-2.724684953689575,-0.0,-0.0,-1.0,0.03638789868739431,1.0,0
22.12462043762207,34.4113883972168,-2.765089273452759,-0.0,-0.0,-1.0,0.029365364648897697,1.0,0
21.654926300048828,34.74787521362305,-2.7188050746917725,-0.0,-0.0,-1.0,0.05680820024341417,1.0,0
21.85114288330078,34.61455154418945,-2.7391092777252197,-0.0,-0.0,-1.0,0.04310206316325094,1.0,0
21.057769775390625,34.855159759521484,-2.597069025039673,-0.0,-0.0,-1.0,0.13331544523464087,2.0,0
21.427053451538086,34.82703399658203,-2.6801235675811768,-0.0,-0.0,-1.0,0.04968677351078908,1.0,0
20.289688110351562,33.23237609863281,-2.074941873550415,-0.0,-0.0,-1.0,0.05348952861043232,1.0,0
20.300220489501953,33.29625701904297,-2.090202569961548,-0.0,-0.0,-1.0,0.053489528610432324,1.0,0
20.66608238220215,34.82734680175781,-2.4972035884857178,-0.0,-0.0,-1.0,0.05144244199477268,1.0,0
21.914440155029297,34.817298889160156,-2.7124340534210205,-0.0,-0.0,-1.0,0.08594855234646268,1.0,0
22.12538719177246,34.72285461425781,-2.7366182804107666,-0.0,-0.0,-1.0,0.05261241432522774,1.0,0
22.452213287353516,34.651763916015625,-2.7956879138946533,-0.0,-0.0,-1.0,0.08045194816626333,2.0,0
22.63165283203125,34.75733184814453,-2.8659656047821045,-0.0,-0.0,-1.0,0.08273712960126553,1.0,0
22.37206268310547,34.258914947509766,-2.775089740753174,-0.0,-0.0,-1.0,0.03460986501335651,1.0,0
22.30316162109375,33.78832244873047,-2.638944625854492,-0.0,-0.0,-1.0,0.052971273031772445,1.0,0
22.372398376464844,33.69482421875,-2.6316075325012207,-0.0,-0.0,-1.0,0.0866120779459295,1.0,0
22.67626190185547,33.92527770996094,-2.762234687805176,-0.0,-0.0,-1.0,0.03967141890340036,1.0,0
21.06090545654297,34.38923645019531,-1.9931681156158447,-0.0,-0.0,-1.0,0.11481732828307842,1.0,0
21.835830688476562,33.96300506591797,-2.694357395172119,-0.0,-0.0,-1.0,0.023119613015112988,1.0,0
22.00156021118164,33.819461822509766,-2.678081512451172,-0.0,-0.0,-1.0,0.024788110369169135,2.0,0
20.50945281982422,33.59957504272461,-2.4297609329223633,-0.0,-0.0,-1.0,0.02153722983669387,1.0,0
20.254417419433594,33.724571228027344,-2.4188833236694336,-0.0,-0.0,-1.0,0.02860533332697545,2.0,0
20.399883270263672,33.65908432006836,-2.469733715057373,-0.0,-0.0,-1.0,0.030701639764683306,1.0,0
20.46854019165039,33.222408294677734,-2.394979953765869,-0.0,-0.0,-1.0,0.05127741931695806,1.0,0
22.5753173828125,34.24216079711914,-2.6993794441223145,-0.9150811027339695,0.3654540707407286,0.17049896656054253,0.07215161979731192,3.0,0
22.307445526123047,34.276954650878906,-2.6543850898742676,-0.0,-0.0,-1.0,0.038321030426018296,1.0,0
21.92043685913086,34.391136169433594,-2.599648952484131,-0.0,-0.0,-1.0,0.02125135859687716,1.0,0
21.72857666015625,34.79789733886719,-2.627833843231201,-0.0,-0.0,-1.0,0.07463133839682591,1.0,0
21.16223907470703,34.62972640991211,-2.495847225189209,-0.0,-0.0,-1.0,0.1523540239045823,1.0,0
21.041397094726562,34.706459045410156,-2.4855942726135254,-0.0,-0.0,-1.0,0.18497590465658753,1.0,0
22.660158157348633,34.47444534301758,-2.7176246643066406,-0.0,-0.0,-1.0,0.10900865986467194,2.0,0
22.299619674682617,34.7830696105957,-2.674612045288086,-0.0,-0.0,-1.0,0.0648402294610822,1.0,0
20.594768524169922,35.080780029296875,-2.3216543197631836,-0.0,-0.0,-1.0,0.06168657063292244,1.0,0
20.228626251220703,33.221771240234375,-1.9863471984863281,-0.0,-0.0,-1.0,0.053489528610432366,2.0,0
21.141189575195312,34.4842529296875,-2.6086530685424805,-0.0,-0.0,-1.0,0.02711247525606274,1.0,0
20.9050350189209,34.60886764526367,-2.5560407638549805,-0.0,-0.0,-1.0,0.08355852785735354,1.0,0
20.53256607055664,34.687164306640625,-2.4611825942993164,-0.0,-0.0,-1.0,0.03554952271006161,2.0,0
20.21451187133789,33.45286560058594,-2.244993209838867,-0.0,-0.0,-1.0,0.06116344817191939,2.0,0
20.415756225585938,34.013484954833984,-2.4530301094055176,-0.0,-0.0,-1.0,0.004870620094656812,1.0,0
20.225162506103516,34.37630844116211,-2.4354844093322754,-0.0,-0.0,-1.0,0.014072225624157561,2.0,0
20.641096115112305,34.081939697265625,-2.5280752182006836,-0.0,-0.0,-1.0,0.006083600333876807,1.0,0
20.74385643005371,34.18018341064453,-2.5699329376220703,-0.0,-0.0,-1.0,0.006496318355536338,1.0,0
20.483901977539062,34.250038146972656,-2.496676445007324,-0.0,-0.0,-1.0,0.010216282889036681,1.0,0
20.388635635375977,34.47066879272461,-2.49029541015625,-0.0,-0.0,-1.0,0.023123167169326726,2.0,0
20.33310317993164,34.74067306518555,-2.501620292663574,-0.0,-0.0,-1.0,0.015410632104760126,2.0,0
20.26927375793457,35.087989807128906,-2.5191221237182617,-0.0,-0.0,-1.0,0.045759104306620065,2.0,0
20.23874855041504,33.23127746582031,-2.3167409896850586,-0.0,-0.0,-1.0,0.05348952861043232,1.0,0
21.887773513793945,33.25362777709961,-2.717498302459717,-0.0,-0.0,-1.0,0.1530193949194018,1.0,0
21.95759391784668,33.362510681152344,-2.486001968383789,-0.0,-0.0,-1.0,0.1869062721735577,2.0,0
20.638883590698242,33.60723876953125,-2.5499448776245117,-0.0,-0.0,-1.0,0.010181634972382763,1.0,0
20.349199295043945,33.53013229370117,-2.530917167663574,-0.0,-0.0,-1.0,0.03345423355869517,1.0,0
22.667089462280273,34.81808090209961,-2.4728527069091797,-0.0,-0.0,-1.0,0.09820242340961545,1.0,0
20.69967269897461,35.0132942199707,-2.326387405395508,-0.0,-0.0,-1.0,0.10346852118137823,1.0,0
20.256261825561523,33.213382720947266,-2.0179343223571777,-0.0,-0.0,-1.0,0.05348952861043232,2.0,0
