x,y,z,nx,ny,nz,curvature,density,label
2.6194839477539062,21.314252853393555,-1.1337354183197021,-0.0,-0.0,-1.0,0.021788597023967845,1.0,0
1.4191341400146484,23.03225326538086,-0.9040160179138184,0.5425529854847727,0.42632621123626285,-0.7237970845164365,0.2352077029816465,5.0,0
1.1977639198303223,22.94655418395996,-0.9115967750549316,0.5530364244338003,0.691242026244131,0.465118452013447,0.24438821527996987,3.0,0
1.497213363647461,22.998607635498047,-1.0314345359802246,0.8582709479075297,-0.31727587389440576,-0.40336955738187746,0.1956298562434043,5.0,0
1.1351361274719238,22.766576766967773,-1.0344369411468506,-0.6482296708492866,0.07084062377799596,0.7581424007753228,0.1675856550291669,4.0,0
2.410093307495117,22.647598266601562,-1.1387691497802734,-0.0,-0.0,-1.0,0.046128695780756006,1.0,0
2.5072946548461914,23.06692886352539,-1.2133216857910156,-0.0,-0.0,-1.0,0.032317568072754606,1.0,0
2.2291617393493652,22.483898162841797,-1.129319190979004,-0.0,-0.0,-1.0,0.05547920122488134,1.0,0
2.3121538162231445,22.65536117553711,-1.1534671783447266,-0.0,-0.0,-1.0,0.062246011554894065,1.0,0
1.9376602172851562,22.290771484375,-1.130312442779541,-0.0,-0.0,-1.0,0.0603865225843126,1.0,0
1.8339447975158691,22.505084991455078,-1.1885671615600586,-0.0,-0.0,-1.0,0.02833085853634291,1.0,0
1.3689279556274414,22.056961059570312,-1.16627836227417,-0.0,-0.0,-1.0,0.07602379989468355,1.0,0
1.283398151397705,22.12261199951172,-1.192159652709961,-0.0,-0.0,-1.0,0.08004038822504335,1.0,0
2.0736069679260254,21.358959197998047,-0.9220759868621826,-0.0,-0.0,-1.0,0.1526247121008276,1.0,0
1.8156533241271973,22.146190643310547,-1.118363380432129,-0.0,-0.0,-1.0,0.054807548352449185,1.0,0
2.245267868041992,21.45789337158203,-0.34102606773376465,-0.10132461387337861,0.36155923722123273,-0.9268269744690273,0.09722680069821359,3.0,0
2.1129937171936035,21.36248207092285,-0.3416898250579834,-0.0,-0.0,-1.0,0.11843801855844903,2.0,0
1.4981040954589844,23.01927947998047,-1.0552096366882324,0.9404940927762658,-0.33627285518137756,-0.04890223227126936,0.19284781901355785,4.0,0
1.0189142227172852,22.749919891357422,-1.072094440460205,0.06482207559330674,-0.019963988749769686,-0.9976971171998918,0.13683621477166658,4.0,0
1.2496070861816406,22.903043746948242,-1.0677626132965088,-0.0,-0.0,-1.0,0.15816770517110823,2.0,0
2.129927635192871,20.916107177734375,-0.5593690872192383,-0.0,-0.0,-1.0,0.15734295284375385,1.0,0
2.076895236968994,21.231037139892578,-0.6273839473724365,-0.0,-0.0,-1.0,0.21012009388906722,1.0,0
1.6585235595703125,22.79709243774414,-1.1452083587646484,-0.1581489977920024,0.04895066047561368,-0.9862011596709804,0.03801794884978003,4.0,0
1.8845281600952148,23.00550651550293,-1.1568777561187744,0.8769284157213276,-0.0484829279812704,-0.4781693835816398,0.10604371781741395,3.0,0
1.491105556488037,22.445186614990234,-1.0954978466033936,-0.0,-0.0,-1.0,0.02670440976960376,1.0,0
1.5728578567504883,22.61983871459961,-1.1201579570770264,-0.0,-0.0,-1.0,0.03003370211522248,2.0,0
1.1784257888793945,22.565208435058594,-1.1701300144195557,-0.8152311643816641,-0.5789771885650682,0.01354856974761286,0.07904908481166964,3.0,0
2.559225082397461,22.186389923095703,-0.8800404071807861,-0.0,-0.0,-1.0,0.14364209978286893,1.0,0
2.127058982849121,21.24591064453125,-0.7413556575775146,0.8065233110172324,-0.5908754015737931,-0.019657278570777884,0.24480469707707195,4.0,0
2.143728256225586,21.39141273498535,-0.2579336166381836,0.0452673049421716,0.8828008629301156,-0.46756123397167487,0.12121008889453438,7.0,0
1.4986176490783691,22.905302047729492,-0.6597440242767334,-0.0,-0.0,-1.0,0.13734313614548835,2.0,0
2.1064953804016113,21.38519287109375,-0.2740488052368164,0.22855465909263895,0.5039849680072442,-0.8329237178936522,0.11557224038622688,6.0,0
1.4488615989685059,22.95165252685547,-0.8068337440490723,-0.0,-0.0,-1.0,0.14678562063802966,1.0,0
1.0963459014892578,23.073711395263672,-0.895228385925293,-0.0,-0.0,-1.0,0.14699662743668518,1.0,0
2.2639665603637695,21.43513298034668,-0.35194921493530273,-0.10132461387337861,0.36155923722123273,-0.9268269744690273,0.07602213895119676,3.0,0
1.5930490493774414,23.07758903503418,-1.0043001174926758,0.5704969562778691,-0.3154747395368989,-0.7582934205120156,0.12759048464499176,4.0,0
1.151160717010498,22.812164306640625,-1.0303287506103516,-0.7929267662729721,0.45279578504506746,-0.4077292243306933,0.17280848078964542,5.0,0
1.339388370513916,22.954416275024414,-1.0253403186798096,-0.34022287842659854,0.9011564115757535,0.2686363990062237,0.19186069014881582,4.0,0
1.002373218536377,22.760108947753906,-1.0487849712371826,-0.6981762187467704,0.32542074413335487,-0.6376921724971656,0.20698107981344305,3.0,0
2.1032419204711914,21.234363555908203,-0.4769611358642578,0.31988028731463514,-0.5748467137625786,-0.7531453096606724,0.057069442548802314,3.0,0
2.109452247619629,21.38743019104004,-0.23939752578735352,0.2706064586910079,-0.8769439611167876,-0.39716675789334405,0.13590278322423202,7.0,0
1.5353007316589355,22.989336013793945,-0.6318268775939941,-0.0,-0.0,-1.0,0.13809670637656368,2.0,0
2.098464012145996,21.45207977294922,-0.22266435623168945,-0.17906371056868758,-0.8943927580634334,-0.40987532480140537,0.11894715501692309,3.0,0
1.9471864700317383,21.242521286010742,-0.6781768798828125,-0.0,-0.0,-1.0,0.2527109600685116,1.0,0
1.988290786743164,20.959381103515625,-1.0732553005218506,-0.0,-0.0,-1.0,0.05803763340151136,1.0,0
2.1796875,20.895416259765625,-1.0617551803588867,-0.0,-0.0,-1.0,0.03772425442837339,1.0,0
1.5148992538452148,21.330760955810547,-1.0656561851501465,-0.0,-0.0,-1.0,0.07050318507493585,1.0,0
1.8560409545898438,21.09709930419922,-1.0643696784973145,-0.0,-0.0,-1.0,0.09531187604681209,1.0,0
2.0247631072998047,23.017377853393555,-1.2237470149993896,-0.0,-0.0,-1.0,0.05788670901876703,1.0,0
2.4074926376342773,22.721778869628906,-1.2219572067260742,-0.0,-0.0,-1.0,0.030610728334545464,1.0,0
2.330145835876465,22.999229431152344,-1.1779472827911377,-0.0,-0.0,-1.0,0.03427240089710631,2.0,0
1.8593788146972656,21.27535629272461,-1.0315420627593994,-0.0,-0.0,-1.0,0.17889785025869706,1.0,0
2.400096893310547,20.95867919921875,-1.0235567092895508,-0.0,-0.0,-1.0,0.07528337614289685,1.0,0
2.6892595291137695,20.947799682617188,-0.991621732711792,-0.0,-0.0,-1.0,0.1843861628009773,1.0,0
1.6749963760375977,21.709827423095703,-0.9775650501251221,-0.0,-0.0,-1.0,0.0918974560008861,1.0,0
1.8593101501464844,21.490413665771484,-0.9926967620849609,-0.0,-0.0,-1.0,0.08127103123406909,2.0,0
2.532292366027832,20.67578887939453,-0.49396443367004395,-0.0,-0.0,-1.0,0.11316732051710193,1.0,0
2.380117416381836,21.102550506591797,-0.4409759044647217,-0.0,-0.0,-1.0,0.20605870398122175,1.0,0
1.9179515838623047,21.63290023803711,-0.406116247177124,-0.0,-0.0,-1.0,0.15371831231503896,1.0,0
1.5327625274658203,21.472957611083984,-1.1365776062011719,-0.0,-0.0,-1.0,0.026878999907448888,1.0,0
1.942488670349121,21.22358512878418,-1.1176345348358154,-0.0,-0.0,-1.0,0.10419169749613823,1.0,0
2.297971725463867,21.040145874023438,-1.0985641479492188,-0.0,-0.0,-1.0,0.10750134154352715,1.0,0
2.5209808349609375,20.876222610473633,-1.0967051982879639,-0.0,-0.0,-1.0,0.03612915430059092,1.0,0
1.237410545349121,21.848718643188477,-1.1114327907562256,-0.0,-0.0,-1.0,0.08594890846594673,1.0,0
1.5267667770385742,21.581787109375,-1.1172733306884766,-0.0,-0.0,-1.0,0.07455708059257898,1.0,0
1.9688224792480469,21.49869155883789,-1.0667588710784912,-0.0,-0.0,-1.0,0.12097703966261342,1.0,0
2.232790946960449,21.196155548095703,-1.0805516242980957,0.18050274811548703,0.16724626740577514,-0.969250970575523,0.16750759794944506,3.0,0
2.0781450271606445,21.781604766845703,-1.0025501251220703,-0.0,-0.0,-1.0,0.06808610670614655,1.0,0
2.155881881713867,20.986135482788086,-0.5559749603271484,-0.0,-0.0,-1.0,0.16702081504968075,1.0,0
2.005568504333496,22.34035873413086,-0.9121155738830566,-0.0,-0.0,-1.0,0.04794932704145576,1.0,0
2.486358642578125,22.270675659179688,-0.8591330051422119,-0.0,-0.0,-1.0,0.19176699780962422,1.0,0
2.08121395111084,22.707843780517578,-0.8406429290771484,-0.0,-0.0,-1.0,0.0712383818016356,1.0,0
1.5621166229248047,20.72771453857422,-0.9215908050537109,-0.0,-0.0,-1.0,0.09903149094756075,1.0,0
2.0275354385375977,20.986183166503906,-0.8179779052734375,-0.0,-0.0,-1.0,0.11736557658914519,1.0,0
1.7522687911987305,22.498855590820312,-1.1918323040008545,-0.0,-0.0,-1.0,0.023400566349772608,1.0,0
2.1790294647216797,22.026256561279297,-1.193141222000122,-0.0,-0.0,-1.0,0.06737791811572769,1.0,0
2.3792715072631836,21.818336486816406,-1.1938798427581787,-0.0,-0.0,-1.0,0.04439720803329376,1.0,0
1.7674407958984375,23.05990219116211,-1.101773738861084,-0.0,-0.0,-1.0,0.11233744585910135,2.0,0
1.7834930419921875,22.746232986450195,-1.1474127769470215,-0.0,-0.0,-1.0,0.029101399734395413,1.0,0
2.0616931915283203,22.482147216796875,-1.1388962268829346,-0.0,-0.0,-1.0,0.043922257385665305,1.0,0
2.2356719970703125,22.063915252685547,-1.176924228668213,-0.0,-0.0,-1.0,0.06868201723468556,1.0,0
2.5616884231567383,21.716407775878906,-1.1808812618255615,-0.0,-0.0,-1.0,0.038264285557913336,1.0,0
1.8560857772827148,23.006481170654297,-1.093501091003418,-0.0,-0.0,-1.0,0.1176984336809377,1.0,0
2.271866798400879,22.574968338012695,-1.0863375663757324,-0.1361396681083475,0.23618895975887386,-0.9621230514104577,0.06936582407132973,3.0,0
2.115067481994629,21.166501998901367,-0.7791204452514648,0.4597797316023446,-0.13819866041712991,-0.8772136163253432,0.2521275563629285,3.0,0
2.155827522277832,21.45088005065918,-0.17702937126159668,-0.0,-0.0,-1.0,0.11180887030833034,1.0,0
1.4116830825805664,20.82979965209961,-0.9640457630157471,-0.0,-0.0,-1.0,0.10130231267831181,1.0,0
1.514113426208496,20.852149963378906,-0.9470241069793701,-0.0,-0.0,-1.0,0.09816364148250732,1.0,0
1.7456865310668945,20.75164794921875,-0.9331793785095215,-0.0,-0.0,-1.0,0.08043034935527335,1.0,0
1.8181514739990234,22.640727996826172,-1.1715188026428223,-0.0,-0.0,-1.0,0.026296056562895333,1.0,0
1.7989978790283203,23.09576416015625,-1.0979821681976318,0.53420350030542,-0.3908259940615027,-0.7495876617362875,0.10817942928241468,3.0,0
1.973653793334961,22.66205406188965,-1.1416845321655273,-0.0,-0.0,-1.0,0.0214463813801333,1.0,0
2.248546600341797,22.42290496826172,-1.1377263069152832,-0.0,-0.0,-1.0,0.04884918852850144,2.0,0
2.4386444091796875,22.11054229736328,-1.163128137588501,-0.0,-0.0,-1.0,0.12485950471498895,1.0,0
2.691208839416504,21.861793518066406,-1.1692006587982178,-0.0,-0.0,-1.0,0.16170797662943337,1.0,0
2.34232234954834,22.601451873779297,-1.0904998779296875,-0.0,-0.0,-1.0,0.11806304239726655,1.0,0
2.097209930419922,21.12822151184082,-0.8268792629241943,0.6564013873241761,-0.4295246994381648,0.6201981548597602,0.24410424579101053,3.0,0
2.1524181365966797,21.402488708496094,-0.22046995162963867,-0.40568729782002827,0.9094637062751181,-0.09106911307248633,0.12010529052290907,6.0,0
1.3686161041259766,21.545320510864258,-1.0775067806243896,-0.0,-0.0,-1.0,0.07759361066596457,2.0,0
1.5640430450439453,21.371353149414062,-1.082632303237915,-0.0,-0.0,-1.0,0.0682440538375047,2.0,0
1.8461723327636719,21.46880340576172,-1.0255722999572754,0.17289414687316368,0.789918291921884,-0.5883338389589821,0.0734171973314326,3.0,0
2.118541717529297,21.13690948486328,-1.0524423122406006,-0.0,-0.0,-1.0,0.18959289979663926,2.0,0
2.3280811309814453,20.97972869873047,-1.0556936264038086,-0.0,-0.0,-1.0,0.0925348649901236,1.0,0
2.5099868774414062,20.892147064208984,-1.0500106811523438,-0.0,-0.0,-1.0,0.0634479368015918,1.0,0
1.2231369018554688,23.04018211364746,-0.8385312557220459,-0.0,-0.0,-1.0,0.13954506817523452,1.0,0
1.4457902908325195,22.88576889038086,-0.8302555084228516,-0.0,-0.0,-1.0,0.12942807625283467,2.0,0
2.155977249145508,21.29778480529785,-0.4600343704223633,-0.7018073910591389,0.5233182800186558,-0.48332635315393363,0.07267226686528197,3.0,0
2.1202831268310547,20.970457077026367,-0.5185093879699707,-0.0,-0.0,-1.0,0.14529757755826878,1.0,0
2.096592903137207,21.168132781982422,-0.6781649589538574,0.5015449639334089,-0.4094505793919607,0.7621042397130615,0.2249752909754252,3.0,0
1.6662664413452148,20.932512283325195,-0.9407188892364502,-0.0,-0.0,-1.0,0.0973476152021138,1.0,0
1.7978544235229492,20.896867752075195,-0.9255537986755371,-0.0,-0.0,-1.0,0.11956239211640542,2.0,0
1.8764533996582031,20.726520538330078,-0.9396741390228271,0.24621936312855694,0.8702258858233994,-0.4267117678989505,0.09773893904261384,3.0,0
2.077376365661621,21.229217529296875,-0.8314285278320312,-0.0,-0.0,-1.0,0.21253718375861008,1.0,0
2.0812196731567383,21.407711029052734,-0.26723361015319824,-0.6885506755905819,-0.7222882329963266,0.06478947151195016,0.1525843763280057,5.0,0
2.2491378784179688,21.405391693115234,-0.4337892532348633,0.9826328765826478,0.12236044360015123,-0.1395010813609874,0.0903490063688201,3.0,0
2.165037155151367,21.21802520751953,-0.46776723861694336,-0.0,-0.0,-1.0,0.09558362339819067,2.0,0
1.499312400817871,22.945240020751953,-0.6556601524353027,-0.0,-0.0,-1.0,0.14922129939588247,2.0,0
2.12746524810791,21.239938735961914,-0.6940770149230957,0.707264830147006,-0.642352271010842,-0.29522875870135074,0.2800353187176908,6.0,0
2.1581811904907227,21.540721893310547,-0.1370549201965332,-0.0,-0.0,-1.0,0.09108801776892415,1.0,0
1.5644588470458984,23.06536293029785,-0.5510990619659424,-0.0,-0.0,-1.0,0.14062074341462696,1.0,0
2.126066207885742,21.278244018554688,-0.5521466732025146,-0.0,-0.0,-1.0,0.10124187791047039,2.0,0
2.1971540451049805,21.36391830444336,-0.593956708908081,-0.0,-0.0,-1.0,0.13276898748188298,2.0,0
2.250469207763672,21.37300682067871,-0.4528172016143799,0.9826328765826478,0.12236044360015123,-0.1395010813609874,0.09070904084817619,3.0,0
2.1439294815063477,21.2698974609375,-0.4727354049682617,-0.7297502260466104,0.30960183550789316,-0.6095993036700948,0.05639396297419855,4.0,0
1.181828498840332,22.88340187072754,-0.9233622550964355,-0.8581655263251267,0.3616965235805226,-0.3643179301885685,0.1932508239410916,4.0,0
1.3059911727905273,22.42698860168457,-0.8790328502655029,-0.0,-0.0,-1.0,0.1203660199688271,1.0,0
2.1248788833618164,21.47937774658203,-0.14087343215942383,-0.0,-0.0,-1.0,0.1118088703083303,2.0,0
1.1862907409667969,22.83909797668457,-1.0412898063659668,-0.6291943693707021,0.6955040761471274,-0.34697049674999103,0.11756934660065681,4.0,0
1.360727310180664,22.972518920898438,-1.0227892398834229,-0.0,-0.0,-1.0,0.1576088526334416,2.0,0
1.6205148696899414,23.112457275390625,-0.9897551536560059,0.35418522237818667,-0.32243632160878855,-0.8778312176929621,0.1514681845293921,5.0,0
1.3716449737548828,21.519500732421875,-1.116253137588501,-0.677673147438787,0.5863938284340585,-0.44373571325154354,0.07759361066596457,3.0,0
1.5048351287841797,21.955760955810547,-1.135728120803833,-0.0,-0.0,-1.0,0.07077781982541843,1.0,0
1.8585395812988281,20.727771759033203,-0.9474589824676514,0.24621936312855694,0.8702258858233994,-0.4267117678989505,0.09339142280316443,3.0,0
1.6125144958496094,22.079893112182617,-1.1285243034362793,-0.0,-0.0,-1.0,0.04714579209500326,1.0,0
1.9739007949829102,21.529434204101562,-1.0011188983917236,-0.0,-0.0,-1.0,0.08650446464260465,1.0,0
2.0577268600463867,21.246013641357422,-0.9568042755126953,-0.0,-0.0,-1.0,0.1633950334806975,2.0,0
1.7870903015136719,22.098875045776367,-1.0972397327423096,-0.0,-0.0,-1.0,0.07530364021058908,1.0,0
1.5198173522949219,23.089826583862305,-0.9618937969207764,-0.0,-0.0,-1.0,0.09285615583420895,1.0,0
2.265605926513672,22.563465118408203,-1.0882755517959595,-0.27395966277113326,-0.022368714243298976,-0.9614810158278886,0.06848047629909607,4.0,0
1.6191596984863281,23.069915771484375,-0.9808886051177979,0.44739685319685757,-0.6062875181023277,-0.6574583645698554,0.1947630314773449,7.0,0
1.3173103332519531,22.94700813293457,-1.0044400691986084,0.07597904478892216,0.8843360269251039,0.4606267211477045,0.16962073497089325,4.0,0
1.1708717346191406,22.78704071044922,-1.0177392959594727,-0.13093047217248366,-0.5379990147511272,0.8327150002152637,0.1608554065854708,4.0,0
1.3883895874023438,22.866947174072266,-0.7314728498458862,-0.0,-0.0,-1.0,0.09856128807832572,1.0,0
1.8667259216308594,23.11345863342285,-1.0371692180633545,-0.0,-0.0,-1.0,0.11651047670667528,1.0,0
1.5398616790771484,22.869474411010742,-1.0605273246765137,-0.0,-0.0,-1.0,0.08553457293655262,1.0,0
1.7235889434814453,22.240711212158203,-1.0418610572814941,-0.0,-0.0,-1.0,0.0586591497224875,1.0,0
2.1472702026367188,21.248188018798828,-0.6730266809463501,0.499296354842015,-0.5815862409551718,-0.6422309509616535,0.24475627716750495,5.0,0
1.7431354522705078,22.978271484375,-1.0612504482269287,-0.0,-0.0,-1.0,0.1165457108011457,1.0,0
1.48553466796875,22.854324340820312,-1.086090087890625,-0.0,-0.0,-1.0,0.09866508444143046,2.0,0
2.1401119232177734,22.553936004638672,-1.0288548469543457,-0.0,-0.0,-1.0,0.10351230493347288,2.0,0
1.7083110809326172,22.32166862487793,-1.0711472034454346,-0.0,-0.0,-1.0,0.07781308194823985,2.0,0
2.075389862060547,21.818601608276367,-1.0431997776031494,-0.0,-0.0,-1.0,0.06980661103549955,1.0,0
1.4101524353027344,22.04794692993164,-1.1019113063812256,-0.0,-0.0,-1.0,0.05844415463040929,1.0,0
2.1782455444335938,21.378150939941406,-0.4848940372467041,-0.0,-0.0,-1.0,0.06881309423522292,1.0,0
1.8202381134033203,23.014205932617188,-1.0460102558135986,-0.0,-0.0,-1.0,0.11286144261149657,1.0,0
1.5412101745605469,22.763912200927734,-1.0765480995178223,-0.0,-0.0,-1.0,0.058194735501137886,2.0,0
1.7676258087158203,22.346904754638672,-1.0563151836395264,-0.0,-0.0,-1.0,0.029563831979471742,2.0,0
1.8665180206298828,22.194751739501953,-1.0473899841308594,-0.0,-0.0,-1.0,0.04833028946430534,1.0,0
2.160167694091797,21.13327407836914,-1.029299259185791,0.3365906820273874,0.8113345747873688,-0.4779570279083026,0.22227552906165596,3.0,0
2.1226329803466797,21.361270904541016,-0.22160029411315918,-0.2870051230183702,-0.6334791619447889,-0.7185626004343242,0.13048248228121295,3.0,0
1.569284439086914,22.689178466796875,-1.0944151878356934,-0.0,-0.0,-1.0,0.033307212916812254,1.0,0
1.5502376556396484,22.61164093017578,-1.0957417488098145,-0.0,-0.0,-1.0,0.030581990191906473,2.0,0
1.1953907012939453,22.134275436401367,-1.1298904418945312,-0.0,-0.0,-1.0,0.07367254425903036,2.0,0
1.814706802368164,23.068374633789062,-1.0725064277648926,-0.0,-0.0,-1.0,0.11834695763297279,2.0,0
1.7661666870117188,22.30042266845703,-1.0704684257507324,-0.8800142672351541,0.16341114168469514,-0.44595032036750315,0.02946927855815607,3.0,0
2.104581832885742,21.212635040283203,-1.0292346477508545,-0.0,-0.0,-1.0,0.207054454152533,1.0,0
2.149383544921875,20.85501480102539,-1.023965835571289,-0.0,-0.0,-1.0,0.07135370528407092,1.0,0
1.3665542602539062,22.992115020751953,-0.8754845857620239,-0.0,-0.0,-1.0,0.27218296832473005,2.0,0
1.127542495727539,22.8690185546875,-0.8953427076339722,0.3125585880075929,0.9239147643360179,0.22065501876146046,0.15806540446284797,3.0,0
2.171466827392578,21.273418426513672,-0.769957423210144,-0.014710816449799175,-0.9780345417756152,0.20792312755714,0.18951150954881424,3.0,0
2.1401615142822266,21.206092834472656,-0.7722049951553345,0.2271743485839352,0.02605422119745059,-0.9735055176542448,0.20533232568235082,3.0,0
1.7274436950683594,23.09217071533203,-1.05147385597229,-0.0,-0.0,-1.0,0.11839255206308788,2.0,0
1.4458999633789062,22.816688537597656,-1.0803251266479492,-0.0,-0.0,-1.0,0.09512709852782206,2.0,0
1.6443462371826172,22.501115798950195,-1.0559146404266357,-0.0,-0.0,-1.0,0.025929206768951538,2.0,0
1.5880146026611328,22.279090881347656,-1.0611193180084229,-0.0,-0.0,-1.0,0.06743823726700898,2.0,0
1.15863037109375,22.197694778442383,-1.1093907356262207,-0.0,-0.0,-1.0,0.11750408038806558,1.0,0
1.33575439453125,21.499032974243164,-1.088489055633545,-0.0,-0.0,-1.0,0.07759361066596457,2.0,0
2.164215087890625,21.152576446533203,-0.9936830997467041,-0.0,-0.0,-1.0,0.13801928089154655,2.0,0
2.1808319091796875,20.810256958007812,-0.9927408695220947,-0.0,-0.0,-1.0,0.06928068016996058,1.0,0
2.1188392639160156,21.298290252685547,-0.26727449893951416,-0.0,-0.0,-1.0,0.07725089111868465,2.0,0
1.1583023071289062,23.055774688720703,-0.8596389293670654,-0.0,-0.0,-1.0,0.1602853389447837,2.0,0
1.0334129333496094,22.696481704711914,-0.8603811264038086,-0.0,-0.0,-1.0,0.20590127108260323,1.0,0
1.1822395324707031,22.714481353759766,-0.8470468521118164,-0.0,-0.0,-1.0,0.17052996550908406,1.0,0
2.0966339111328125,21.091646194458008,-0.7196557521820068,-0.0,-0.0,-1.0,0.17279736269648888,1.0,0
1.9777469635009766,20.917022705078125,-0.7275880575180054,-0.0,-0.0,-1.0,0.10340284507539191,1.0,0
1.4239826202392578,22.84630012512207,-1.0760987997055054,-0.0,-0.0,-1.0,0.12751799639934588,2.0,0
1.0783977508544922,22.556640625,-1.0864533185958862,-0.0,-0.0,-1.0,0.08234820588174732,1.0,0
1.5621929168701172,22.774900436401367,-1.0590285062789917,-0.0,-0.0,-1.0,0.057782462561404395,2.0,0
1.9767208099365234,20.87571144104004,-0.8993576765060425,-0.0,-0.0,-1.0,0.11936699227108284,1.0,0
2.0619468688964844,21.20647430419922,-0.19650328159332275,-0.0,-0.0,-1.0,0.04919653174392214,1.0,0
1.6452770233154297,22.986282348632812,-0.8904061317443848,-0.0,-0.0,-1.0,0.21119484883249987,1.0,0
2.199054718017578,21.30731773376465,-0.7317867279052734,-0.0,-0.0,-1.0,0.2075372836130303,2.0,0
1.3658905029296875,23.057174682617188,-1.0138851404190063,-0.0,-0.0,-1.0,0.1300822850758257,1.0,0
1.1400394439697266,22.323877334594727,-1.1449575424194336,-0.0,-0.0,-1.0,0.12233516445132342,1.0,0
1.2599658966064453,22.165130615234375,-1.120417833328247,-0.0,-0.0,-1.0,0.1177247744564431,2.0,0
1.6972599029541016,22.77212905883789,-1.152862548828125,-0.2901873513170151,-0.4465040105072718,-0.8464192044941664,0.03864052484540424,4.0,0
1.773752212524414,22.539226531982422,-1.1231420040130615,-0.0,-0.0,-1.0,0.0267755791797056,1.0,0
2.155029296875,23.124483108520508,-1.160181999206543,-0.0,-0.0,-1.0,0.04784536655303911,1.0,0
2.118133544921875,23.01632308959961,-1.15083909034729,-0.0,-0.0,-1.0,0.04973589073385971,1.0,0
1.8964519500732422,22.463430404663086,-1.106825828552246,-0.0,-0.0,-1.0,0.05644234897802423,1.0,0
2.0041961669921875,21.599536895751953,-1.0106871128082275,-0.0,-0.0,-1.0,0.0966986227610559,2.0,0
2.2914180755615234,22.725177764892578,-1.107919454574585,-0.0,-0.0,-1.0,0.05207256650685442,1.0,0
2.2757835388183594,22.52372932434082,-1.0874123573303223,-0.01625290431809443,-0.5052414377851676,-0.8628249721965652,0.11535974941685842,4.0,0
2.0601749420166016,21.205711364746094,-0.9675729274749756,-0.0,-0.0,-1.0,0.18342981931477537,2.0,0
1.3203487396240234,22.147132873535156,-1.1320054531097412,-0.0,-0.0,-1.0,0.0890120740487826,1.0,0
2.0121994018554688,22.443546295166016,-1.1100192070007324,-0.0,-0.0,-1.0,0.07531381586726892,1.0,0
1.9595985412597656,22.350107192993164,-1.104494571685791,-0.0,-0.0,-1.0,0.06835007429252031,1.0,0
2.059276580810547,21.6251163482666,-1.026036262512207,-0.0,-0.0,-1.0,0.10498824282188399,1.0,0
2.310495376586914,22.54619026184082,-1.0988681316375732,0.09237461836809158,-0.22196805128903482,-0.970668385231691,0.12808397145310885,6.0,0
2.151754379272461,21.24100685119629,-0.9824519157409668,-0.0,-0.0,-1.0,0.1665172759054038,2.0,0
2.306232452392578,21.52385711669922,-0.2842843532562256,0.25361793789962206,-0.4586876462785777,-0.8516358287008374,0.09412918507499309,3.0,0
2.324502944946289,21.81488609313965,-0.13521897792816162,-0.0,-0.0,-1.0,0.09337076678615805,1.0,0
1.3040390014648438,23.014514923095703,-0.8387244939804077,-0.0,-0.0,-1.0,0.14393716281088878,1.0,0
1.5947933197021484,23.070642471313477,-0.9835224151611328,0.5704969562778691,-0.3154747395368989,-0.7582934205120156,0.1763247070794239,4.0,0
1.8445568084716797,22.9356746673584,-1.0823322534561157,-0.0,-0.0,-1.0,0.12395244202613678,1.0,0
1.4597396850585938,22.76530647277832,-1.1030665636062622,-0.0,-0.0,-1.0,0.06650511474822886,1.0,0
1.7173900604248047,23.131986618041992,-1.0764609575271606,-0.0,-0.0,-1.0,0.12176499671100964,2.0,0
1.4918575286865234,22.98778533935547,-1.073860764503479,0.9404940927762658,-0.33627285518137756,-0.04890223227126936,0.1521575278750837,4.0,0
1.1033992767333984,22.756547927856445,-1.0710500478744507,-0.0,-0.0,-1.0,0.1501832982270483,2.0,0
1.2355766296386719,22.851646423339844,-1.0733393430709839,-0.0,-0.0,-1.0,0.0730688220835778,2.0,0
2.1042537689208984,21.202190399169922,-0.4320216178894043,-0.0,-0.0,-1.0,0.048428169235437885,2.0,0
1.478363037109375,23.01239776611328,-0.9268007278442383,-0.0,-0.0,-1.0,0.1999205512112144,2.0,0
1.0325775146484375,22.82878875732422,-0.9335236549377441,-0.0,-0.0,-1.0,0.19650639801628217,1.0,0
1.1680984497070312,22.861328125,-0.9296591281890869,-0.7255891474740634,0.56384732177025,-0.3944573320403338,0.21349567047016826,3.0,0
1.3516063690185547,22.890338897705078,-1.0778571367263794,-0.0,-0.0,-1.0,0.1656143087763396,2.0,0
1.3976802825927734,22.97283935546875,-1.08102548122406,-0.0,-0.0,-1.0,0.16461376231288227,1.0,0
1.7583389282226562,22.16766357421875,-1.0870699882507324,-0.0,-0.0,-1.0,0.06861084396713865,2.0,0
2.2544708251953125,21.270957946777344,-0.6619950532913208,-0.0,-0.0,-1.0,0.185530919945232,1.0,0
1.9746112823486328,21.596904754638672,-0.9044657945632935,-0.0,-0.0,-1.0,0.13757947466395737,2.0,0
1.4018211364746094,22.944456100463867,-0.9905394315719604,-0.20053654912593363,0.4102942974799473,-0.8896312055678458,0.19746825707548887,4.0,0
1.784189224243164,20.824050903320312,-0.9030145406723022,-0.0,-0.0,-1.0,0.10575607796085754,1.0,0
1.8285198211669922,20.895055770874023,-0.9006754159927368,-0.0,-0.0,-1.0,0.12369087223693997,2.0,0
1.3814582824707031,23.03702735900879,-0.9353264570236206,0.4108022815354733,0.21196473099159596,-0.8867425998004774,0.1941331706757788,5.0,0
1.214761734008789,22.918338775634766,-0.9524401426315308,-0.67569438669086,0.6904798438758317,0.25821440896214415,0.1467132334498238,4.0,0
2.1686973571777344,21.317737579345703,-0.8608831167221069,-0.0,-0.0,-1.0,0.17471147627029165,1.0,0
1.4375858306884766,22.875003814697266,-0.7952191829681396,-0.4021418761551818,0.8973951957947517,0.18155928510238745,0.1326417365603638,3.0,0
2.029195785522461,21.203887939453125,-0.716984748840332,-0.0,-0.0,-1.0,0.2680780895361728,2.0,0
1.2697334289550781,22.393159866333008,-0.8931469917297363,-0.0,-0.0,-1.0,0.10105931041789944,1.0,0
1.2301788330078125,22.882503509521484,-0.9001193046569824,-0.8545666756026103,-0.40847157772169923,0.3207284944357906,0.12493506200226914,5.0,0
2.072542190551758,21.173446655273438,-0.8025035858154297,-0.0,-0.0,-1.0,0.2674144643774605,2.0,0
1.2421493530273438,22.908050537109375,-0.8371782302856445,-0.0,-0.0,-1.0,0.13991784848904643,1.0,0
1.0364036560058594,23.02617645263672,-0.8568377494812012,-0.0,-0.0,-1.0,0.13571087414745062,1.0,0
1.5616703033447266,20.654407501220703,-0.922400951385498,-0.0,-0.0,-1.0,0.06770520221488939,2.0,0
2.0794925689697266,21.426376342773438,-0.1631605625152588,-0.0,-0.0,-1.0,0.13590278322423197,2.0,0
2.1117172241210938,22.529741287231445,-1.0409080982208252,-0.0,-0.0,-1.0,0.08571700132227758,2.0,0
1.83984375,22.4600772857666,-1.085005521774292,-0.0,-0.0,-1.0,0.05597901878356565,2.0,0
1.5174446105957031,22.860586166381836,-1.1095194816589355,-0.0,-0.0,-1.0,0.06780588452401153,2.0,0
2.0539093017578125,22.029855728149414,-1.0791375637054443,-0.0,-0.0,-1.0,0.05949252080338405,1.0,0
1.7830390930175781,22.303407669067383,-1.1026697158813477,-0.0,-0.0,-1.0,0.08147550740397731,2.0,0
2.1510791778564453,21.756088256835938,-1.081695556640625,-0.0,-0.0,-1.0,0.07118455062300445,1.0,0
2.0420379638671875,21.861745834350586,-1.0912370681762695,-0.0,-0.0,-1.0,0.05648503498124068,1.0,0
2.410654067993164,20.857351303100586,-0.49998903274536133,-0.0,-0.0,-1.0,0.11554958704054358,1.0,0
2.0045032501220703,21.1788330078125,-0.5231102705001831,-0.0,-0.0,-1.0,0.11541845550685126,1.0,0
1.9102897644042969,23.135421752929688,-1.1040210723876953,-0.0,-0.0,-1.0,0.09472194549935262,1.0,0
2.2320480346679688,22.64914321899414,-1.0718824863433838,-0.0,-0.0,-1.0,0.06531683611511002,1.0,0
2.0540103912353516,22.843555450439453,-1.0922789573669434,-0.0,-0.0,-1.0,0.061118745698776025,1.0,0
1.7213878631591797,22.93927001953125,-1.1404592990875244,-0.0,-0.0,-1.0,0.06647477700234812,2.0,0
2.176189422607422,22.544654846191406,-1.0847184658050537,-0.0,-0.0,-1.0,0.05568888580205229,1.0,0
1.9728450775146484,22.50864028930664,-1.118013620376587,-0.0,-0.0,-1.0,0.06510162120116131,1.0,0
2.152006149291992,21.88374900817871,-1.1169636249542236,-0.0,-0.0,-1.0,0.06137145167513208,1.0,0
1.9450950622558594,22.151212692260742,-1.1374599933624268,-0.0,-0.0,-1.0,0.038158386968105015,1.0,0
2.7055435180664062,21.619667053222656,-1.0420966148376465,-0.0,-0.0,-1.0,0.1464603322856541,1.0,0
1.471658706665039,23.020788192749023,-0.5648095607757568,-0.0,-0.0,-1.0,0.14480837885281925,2.0,0
1.4345245361328125,23.090984344482422,-0.5661941766738892,-0.0,-0.0,-1.0,0.1534917465110172,1.0,0
1.356379508972168,23.050743103027344,-0.9337650537490845,0.11818765458266671,0.3229970917173231,-0.9389912443928323,0.21007217195512384,3.0,0
1.0896492004394531,22.885066986083984,-0.977220892906189,-0.8367546436018403,0.3098997871350445,0.4514463294173634,0.16163395979740414,3.0,0
0.987091064453125,22.82292938232422,-0.9940229654312134,-0.0,-0.0,-1.0,0.22054661823706354,1.0,0
2.073101043701172,21.308574676513672,-0.8913718461990356,-0.0,-0.0,-1.0,0.18611111991211549,1.0,0
1.9296026229858398,21.60651397705078,-0.8999148607254028,-0.0,-0.0,-1.0,0.13527441397226941,2.0,0
1.922027587890625,21.028438568115234,-0.9264861345291138,-0.0,-0.0,-1.0,0.17085809519948375,1.0,0
1.9006872177124023,20.717222213745117,-0.9446536302566528,0.24621936312855694,0.8702258858233994,-0.4267117678989505,0.10973128313392319,3.0,0
1.3367643356323242,23.037750244140625,-0.940703272819519,0.11818765458266671,0.3229970917173231,-0.9389912443928323,0.21258981646657746,3.0,0
2.6467790603637695,23.11780548095703,-1.2677043676376343,-0.0,-0.0,-1.0,0.029681787505396014,2.0,0
1.1979923248291016,22.912508010864258,-0.9577754735946655,-0.31526427302571686,0.8243263488319436,0.4702068786980505,0.16621667789252836,5.0,0
1.0822086334228516,22.859153747558594,-0.9732235670089722,-0.13700696219761857,-0.37575276099963584,-0.916536390390764,0.15448731385204748,4.0,0
2.6443328857421875,21.79269027709961,-0.7312870025634766,-0.0,-0.0,-1.0,0.18426774654753394,2.0,0
2.1214590072631836,21.30719757080078,-0.8024533987045288,-0.0,-0.0,-1.0,0.22837680459265233,1.0,0
2.1865758895874023,21.454856872558594,-0.2881253957748413,-0.0,-0.0,-1.0,0.0886080407353662,1.0,0
1.2448358535766602,23.035953521728516,-0.9622247219085693,-0.0,-0.0,-1.0,0.13564337517488873,2.0,0
1.1525182723999023,22.908374786376953,-0.9776821136474609,-0.24582957457024376,0.893386109766235,0.3760705773433567,0.16807184771970604,3.0,0
2.627923011779785,22.837980270385742,-1.2126386165618896,-0.0,-0.0,-1.0,0.03111221981180037,1.0,0
2.559708595275879,22.70365333557129,-1.2242052555084229,-0.0,-0.0,-1.0,0.029983931488148135,1.0,0
1.2484989166259766,22.51306915283203,-0.9643690586090088,-0.0,-0.0,-1.0,0.16022843169498124,1.0,0
2.707962989807129,22.496963500976562,-1.1927289962768555,-0.0,-0.0,-1.0,0.06309569275615569,1.0,0
2.685614585876465,22.339954376220703,-1.1959760189056396,-0.0,-0.0,-1.0,0.10620079366659774,2.0,0
2.6847848892211914,22.064157485961914,-1.1951661109924316,-0.0,-0.0,-1.0,0.09162684658243514,1.0,0
2.6452407836914062,21.797893524169922,-0.7403671741485596,0.13350078630280537,-0.865575459796241,-0.4826558436972032,0.14434412521039752,3.0,0
2.107685089111328,21.33997344970703,-0.8393335342407227,-0.0,-0.0,-1.0,0.1684487924010566,2.0,0
1.5944786071777344,21.031387329101562,-0.9351084232330322,-0.0,-0.0,-1.0,0.09336726063714311,1.0,0
1.6838274002075195,20.86149024963379,-0.9252419471740723,-0.0,-0.0,-1.0,0.09321703058033248,1.0,0
2.646664619445801,20.723426818847656,-0.7645788192749023,-0.0,-0.0,-1.0,0.1787355176927884,1.0,0
1.3628349304199219,22.969640731811523,-0.807769775390625,-0.0,-0.0,-1.0,0.147711832506733,1.0,0
2.063981056213379,21.363359451293945,-0.6834874153137207,-0.0,-0.0,-1.0,0.20876155397198448,1.0,0
2.0574254989624023,21.462575912475586,-0.22763943672180176,-0.0,-0.0,-1.0,0.12006052658875807,2.0,0
1.5458135604858398,23.116514205932617,-0.5984097719192505,-0.0,-0.0,-1.0,0.13962735252052974,1.0,0
2.1857166290283203,21.47936248779297,-0.4490020275115967,-0.0,-0.0,-1.0,0.09745735808026605,1.0,0
2.093425750732422,21.37669563293457,-0.45901691913604736,-0.0,-0.0,-1.0,0.11558538863957211,1.0,0
2.0818443298339844,21.195659637451172,-0.4565080404281616,0.6625504166559002,-0.6018881580923834,-0.44582237554574433,0.042949080413704384,3.0,0
1.2668418884277344,23.071727752685547,-0.9452662467956543,-0.0,-0.0,-1.0,0.14025213448124607,2.0,0
2.154696464538574,21.403287887573242,-0.7085055112838745,-0.0,-0.0,-1.0,0.21561085440314143,2.0,0
2.069441795349121,21.486051559448242,-0.2738356590270996,-0.0,-0.0,-1.0,0.12006052658875813,1.0,0
2.3814821243286133,22.78265953063965,-1.213232398033142,-0.0,-0.0,-1.0,0.033131589973867615,2.0,0
2.2269372940063477,22.329294204711914,-1.1853562593460083,-0.0,-0.0,-1.0,0.07079626271847483,1.0,0
2.1927833557128906,22.142602920532227,-1.170488715171814,-0.0,-0.0,-1.0,0.05959550046434722,1.0,0
2.5458412170410156,22.744359970092773,-1.1843115091323853,-0.0,-0.0,-1.0,0.030259112703338167,1.0,0
2.406357765197754,22.422792434692383,-1.1683837175369263,-0.0,-0.0,-1.0,0.13696159508927067,1.0,0
2.2194929122924805,22.007963180541992,-1.1521435976028442,-0.0,-0.0,-1.0,0.06918068944523859,1.0,0
2.251697540283203,21.409637451171875,-1.0870710611343384,-0.0,-0.0,-1.0,0.13584806960067033,1.0,0
2.1608781814575195,21.22747802734375,-1.0846058130264282,-0.0,-0.0,-1.0,0.2209820857361982,1.0,0
2.5685930252075195,21.695085525512695,-1.0653146505355835,-0.0,-0.0,-1.0,0.18272709609361337,1.0,0
1.2141838073730469,22.91997528076172,-0.8916198015213013,-0.828987655505823,-0.4630027428940695,-0.31370037789509747,0.19693576042799438,4.0,0
1.366267204284668,23.035364151000977,-0.8842164278030396,-0.9515056721120891,0.05480081264963559,0.3027107974147296,0.2140130841235824,3.0,0
1.3608646392822266,22.927148818969727,-0.8745893239974976,-0.0,-0.0,-1.0,0.20533986841733926,2.0,0
2.155590057373047,21.213619232177734,-0.6276184320449829,-0.0,-0.0,-1.0,0.21017903847493333,2.0,0
2.14760684967041,21.391237258911133,-0.1880660057067871,-0.0,-0.0,-1.0,0.11894715501692305,2.0,0
1.1879243850708008,22.834707260131836,-0.9701930284500122,-0.0,-0.0,-1.0,0.2540084466066742,2.0,0
2.6906776428222656,22.285934448242188,-1.205499291419983,-0.0,-0.0,-1.0,0.15565903748647522,1.0,0
2.658358573913574,21.927297592163086,-1.1723099946975708,-0.0,-0.0,-1.0,0.1711781004976823,1.0,0
2.6672887802124023,21.172809600830078,-1.0963696241378784,-0.0,-0.0,-1.0,0.06255618215058291,1.0,0
1.3859243392944336,22.97124671936035,-0.9575010538101196,-0.3930373264661557,0.34167290746066364,-0.8536868772048178,0.23448706149354523,4.0,0
1.3532524108886719,22.870336532592773,-0.9527212381362915,-0.0,-0.0,-1.0,0.13072318601560104,1.0,0
1.6164321899414062,23.057538986206055,-0.9371246099472046,-0.48618939101998593,-0.866547803564432,0.11275983414883961,0.2014212210627868,5.0,0
2.1789913177490234,21.265892028808594,-0.7183622121810913,-0.0,-0.0,-1.0,0.19561834533653058,2.0,0
2.092850685119629,21.31634521484375,-0.26920533180236816,-0.3839750938956276,-0.6253492478986074,-0.6793389768153231,0.08722446550462475,3.0,0
1.0714702606201172,22.722518920898438,-0.942906379699707,-0.0,-0.0,-1.0,0.2483762086302137,1.0,0
1.1943359375,23.000553131103516,-0.9790263175964355,-0.0,-0.0,-1.0,0.18020487903972743,1.0,0
1.1600055694580078,22.7357177734375,-0.9386560916900635,-0.0,-0.0,-1.0,0.18727145423402924,2.0,0
2.0171289443969727,20.80480194091797,-0.7516804933547974,-0.0,-0.0,-1.0,0.12269554360868269,1.0,0
1.6365671157836914,22.955921173095703,-1.0615460872650146,-0.0,-0.0,-1.0,0.09301536696767694,1.0,0
1.2452211380004883,22.79355239868164,-1.0809671878814697,-0.0,-0.0,-1.0,0.07674221510752756,2.0,0
1.371652603149414,23.029930114746094,-1.0947239398956299,-0.0,-0.0,-1.0,0.11046213325823097,1.0,0
1.1565980911254883,22.732742309570312,-1.0828516483306885,-0.0,-0.0,-1.0,0.14587326101099748,1.0,0
2.160475730895996,21.264820098876953,-0.8268890380859375,-0.0,-0.0,-1.0,0.20681301649435524,2.0,0
1.6404180526733398,23.054779052734375,-0.9429798126220703,-0.016775248498334266,-0.9496798780076874,-0.3127726336256467,0.19476303147734483,4.0,0
2.117460250854492,21.241207122802734,-0.6964972019195557,0.707264830147006,-0.642352271010842,-0.29522875870135074,0.2668489493886974,6.0,0
1.341893196105957,22.966218948364258,-0.9616341590881348,-0.11995553782312536,0.9900502587194018,0.07356054754561496,0.26567569505326766,3.0,0
1.1240692138671875,22.846485137939453,-0.9693965911865234,-0.14358775541259527,-0.7081990896548169,0.6912572646328294,0.21722179288907018,5.0,0
1.5195798873901367,23.124755859375,-1.0031659603118896,-0.0,-0.0,-1.0,0.10049569722481806,1.0,0
1.2244224548339844,22.950725555419922,-1.0140421390533447,-0.0,-0.0,-1.0,0.12327564316150916,2.0,0
1.6951179504394531,23.092226028442383,-0.9707751274108887,-0.0,-0.0,-1.0,0.1094548832481009,2.0,0
1.444498062133789,22.96067237854004,-0.9810101985931396,0.17911838596136836,0.10352855158763316,-0.9783651888823319,0.17985689641001384,3.0,0
1.1469287872314453,22.813276290893555,-0.9945464134216309,0.6630911307406979,0.717764330645305,-0.21242532331697286,0.17175891396566867,5.0,0
2.610995292663574,22.914344787597656,-1.234055519104004,-0.0,-0.0,-1.0,0.03224919680564545,1.0,0
2.169734001159668,21.418893814086914,-0.2386174201965332,0.9660312540055271,-0.11195019099849887,-0.23291794911493807,0.12121008889453438,4.0,0
2.094572067260742,21.26936149597168,-0.547938346862793,-0.0,-0.0,-1.0,0.11351235866432506,2.0,0
2.6780471801757812,20.63937759399414,-0.42743706703186035,-0.0,-0.0,-1.0,0.12686075545870878,1.0,0
2.5742759704589844,22.917558670043945,-1.1937031745910645,-0.0,-0.0,-1.0,0.03585083404050964,1.0,0
2.217496871948242,22.502758026123047,-1.1778621673583984,-0.0,-0.0,-1.0,0.05369761375260941,1.0,0
2.0445337295532227,20.798255920410156,-0.9787907600402832,-0.0,-0.0,-1.0,0.10380051758209823,2.0,0
2.4734134674072266,20.972549438476562,-1.115900993347168,-0.0,-0.0,-1.0,0.0714298167066682,1.0,0
2.6285905838012695,22.664636611938477,-1.2127466201782227,-0.0,-0.0,-1.0,0.024123162378887966,1.0,0
2.4218826293945312,21.831613540649414,-1.0946204662322998,-0.0,-0.0,-1.0,0.06681837001246939,2.0,0
2.259462356567383,22.42066764831543,-1.2029995918273926,-0.0,-0.0,-1.0,0.04705874759200986,1.0,0
2.1621222496032715,21.81499481201172,-1.1136860847473145,-0.0,-0.0,-1.0,0.061226153061269564,2.0,0
2.001293182373047,20.819835662841797,-0.9689195156097412,-0.0,-0.0,-1.0,0.1254030268888237,2.0,0
2.2665963172912598,21.472524642944336,-0.3376500606536865,-0.10132461387337861,0.36155923722123273,-0.9268269744690273,0.0999843208400538,3.0,0
1.523177146911621,23.066537857055664,-1.0161621570587158,-0.0,-0.0,-1.0,0.10283834218905685,2.0,0
1.1845436096191406,22.894817352294922,-1.0237531661987305,-0.6404162813311965,-0.43585794165908537,0.6323723913159297,0.1269780449934839,3.0,0
1.6663265228271484,23.044816970825195,-1.0529119968414307,-0.0,-0.0,-1.0,0.11272327782933493,2.0,0
1.355672836303711,22.873233795166016,-1.051889419555664,-0.0,-0.0,-1.0,0.10208749970874813,2.0,0
1.3038396835327148,22.876142501831055,-1.0568175315856934,-0.0,-0.0,-1.0,0.10664909829900329,2.0,0
1.0274238586425781,22.78889274597168,-1.0615229606628418,0.06482207559330674,-0.019963988749769686,-0.9976971171998918,0.18268430011501893,4.0,0
2.439767837524414,21.738962173461914,-1.1370301246643066,-0.0,-0.0,-1.0,0.04454748406161208,1.0,0
2.0999011993408203,20.65497589111328,-0.9922137260437012,-0.0,-0.0,-1.0,0.10380051758209813,2.0,0
2.2438416481018066,21.394012451171875,-0.4810764789581299,0.9826328765826478,0.12236044360015123,-0.1395010813609874,0.08585797859171494,3.0,0
1.57684326171875,23.07406997680664,-1.0840075016021729,-0.0,-0.0,-1.0,0.1340132068097547,2.0,0
1.2698564529418945,22.891681671142578,-1.0858149528503418,0.4523071032700432,0.8902867318659093,-0.05298886104626896,0.17705558495707263,3.0,0
2.692032814025879,21.8084716796875,-0.7463951110839844,-0.0,-0.0,-1.0,0.13415906636709365,2.0,0
2.1502513885498047,21.354408264160156,-0.7248005867004395,-0.0,-0.0,-1.0,0.22346269533971114,1.0,0
2.0716185569763184,21.26612663269043,-0.7182035446166992,-0.0,-0.0,-1.0,0.2514012784048895,2.0,0
2.1345672607421875,21.500194549560547,-0.16724634170532227,-0.0,-0.0,-1.0,0.09069930294208964,2.0,0
2.0502572059631348,23.104177474975586,-1.187788963317871,-0.0,-0.0,-1.0,0.05174272000711901,1.0,0
1.8307361602783203,23.02970314025879,-1.2028748989105225,-0.0,-0.0,-1.0,0.10640150538007283,1.0,0
1.4479999542236328,22.642366409301758,-1.1850292682647705,-0.0,-0.0,-1.0,0.029201643626488534,1.0,0
1.0908870697021484,22.453922271728516,-1.2017834186553955,-0.0,-0.0,-1.0,0.06806330307673111,1.0,0
2.1105942726135254,21.148738861083984,-0.8268353939056396,-0.0,-0.0,-1.0,0.20311422611072386,2.0,0
2.1161623001098633,21.311447143554688,-0.8550119400024414,-0.0,-0.0,-1.0,0.16218774088372462,2.0,0
1.5626130104064941,23.00752830505371,-0.6225409507751465,-0.0,-0.0,-1.0,0.13380470018154575,2.0,0
2.429898262023926,22.421066284179688,-0.9344103336334229,-0.0,-0.0,-1.0,0.13499550345391906,1.0,0
1.926783561706543,23.07827377319336,-1.1288526058197021,-0.0,-0.0,-1.0,0.09302879067530449,2.0,0
1.5389456748962402,22.51519203186035,-1.0673213005065918,-0.0,-0.0,-1.0,0.027722051152241096,1.0,0
1.663179874420166,22.906211853027344,-1.1282501220703125,0.4373704378058972,-0.682954045034316,-0.5850477523285972,0.05611626248218535,3.0,0
1.1806979179382324,22.563072204589844,-1.1247022151947021,-0.8152311643816641,-0.5789771885650682,0.01354856974761286,0.08305833759470253,3.0,0
2.0738720893859863,21.271108627319336,-0.7523193359375,-0.6978581010634676,-0.700689292025315,-0.14842030461211903,0.21670296766832925,3.0,0
1.51414155960083,23.01959991455078,-0.5893096923828125,-0.0,-0.0,-1.0,0.17018830749973984,2.0,0
2.065432071685791,21.428604125976562,-0.26436805725097656,-0.0,-0.0,-1.0,0.15120651071612354,2.0,0
2.480912685394287,21.444154739379883,-1.1162333488464355,-0.0,-0.0,-1.0,0.050431877939948105,1.0,0
2.0787181854248047,20.69378662109375,-1.002213478088379,-0.0,-0.0,-1.0,0.10380051758209814,2.0,0
1.997772216796875,20.655210494995117,-1.0063886642456055,-0.0,-0.0,-1.0,0.10863949159540727,1.0,0
1.4013891220092773,22.9213809967041,-1.0754692554473877,-0.0,-0.0,-1.0,0.18255897932870652,1.0,0
1.5900254249572754,23.049684524536133,-1.0767412185668945,-0.0,-0.0,-1.0,0.12762838882143324,2.0,0
1.182429313659668,22.798442840576172,-1.0802881717681885,-0.0,-0.0,-1.0,0.13539410025396215,1.0,0
2.1086535453796387,21.069467544555664,-0.6030888557434082,-0.0,-0.0,-1.0,0.07717924722291647,1.0,0
2.1034092903137207,21.437490463256836,-0.19298934936523438,-0.1105127237142615,-0.8990809314063365,-0.4236040801016556,0.11894715501692311,3.0,0
2.481069564819336,21.37721824645996,-1.121246099472046,-0.0,-0.0,-1.0,0.0526903552428062,1.0,0
2.4628748893737793,22.38381004333496,-0.8934295177459717,-0.0,-0.0,-1.0,0.17425892091719172,1.0,0
2.614511489868164,21.312400817871094,-1.0806920528411865,-0.0,-0.0,-1.0,0.02178859702396786,1.0,0
1.8895363807678223,23.057659149169922,-1.1324880123138428,0.06215071138341657,0.06335896389208957,-0.9960536786584627,0.10826159320700647,3.0,0
2.248246669769287,20.808521270751953,-1.0244801044464111,-0.0,-0.0,-1.0,0.06201899548902167,1.0,0
1.5979080200195312,22.426292419433594,-1.0425405502319336,-0.0,-0.0,-1.0,0.021507744473552238,1.0,0
1.6255216598510742,22.829940795898438,-1.1254146099090576,-0.0,-0.0,-1.0,0.045331710566637276,1.0,0
1.9540529251098633,20.641305923461914,-1.0418000221252441,-0.0,-0.0,-1.0,0.06531144042459766,1.0,0
1.4861092567443848,22.520774841308594,-1.0815904140472412,-0.0,-0.0,-1.0,0.06172159456084825,1.0,0
1.1919431686401367,22.546947479248047,-1.137129306793213,-0.8152311643816641,-0.5789771885650682,0.01354856974761286,0.07799746170439706,3.0,0
1.065232276916504,22.435949325561523,-1.135439395904541,-0.0,-0.0,-1.0,0.0934867858747885,2.0,0
2.664417266845703,20.64856719970703,-0.4817323684692383,-0.0,-0.0,-1.0,0.11787285643776631,1.0,0
2.2887396812438965,21.500873565673828,-0.2771148681640625,0.4186296790912562,-0.38134989579033124,-0.824209590313444,0.09412918507499306,4.0,0
2.109041690826416,21.38553237915039,-0.2824263572692871,0.22855465909263895,0.5039849680072442,-0.8329237178936522,0.11557224038622688,6.0,0
1.8990559577941895,23.035667419433594,-1.1332929134368896,0.6048132979763303,0.28896666093287615,-0.7420910614340392,0.10826159320700647,3.0,0
1.679274559020996,22.93218994140625,-1.1465435028076172,0.2145113935078256,-0.6477072336348095,-0.7310678501701967,0.05395945255384337,3.0,0
1.5405197143554688,22.437393188476562,-1.0546021461486816,-0.0,-0.0,-1.0,0.02766177440384705,1.0,0
1.4098916053771973,22.631376266479492,-1.1236472129821777,-0.0,-0.0,-1.0,0.04033517381723866,1.0,0
1.0540385246276855,22.438291549682617,-1.1448326110839844,-0.0,-0.0,-1.0,0.09532712295397724,2.0,0
2.060208797454834,21.07040786743164,-0.6423535346984863,-0.0,-0.0,-1.0,0.15823410515802652,1.0,0
2.0348610877990723,21.2164249420166,-0.6806836128234863,-0.0,-0.0,-1.0,0.27420649307916006,2.0,0
2.6660866737365723,20.825626373291016,-0.4747781753540039,-0.0,-0.0,-1.0,0.09882635262488738,1.0,0
2.2512741088867188,21.472444534301758,-0.2868926525115967,-0.0,-0.0,-1.0,0.11096061870613307,2.0,0
2.0790085792541504,21.3466854095459,-0.2893104553222656,0.6264959464936747,-0.23790742308098034,-0.7422283254295553,0.0939629896240395,4.0,0
1.5477161407470703,22.889652252197266,-0.6856567859649658,-0.0,-0.0,-1.0,0.11930461962370498,1.0,0
2.1618690490722656,21.3702392578125,-0.24517822265625,0.7860572239025037,-0.47702644120075943,0.39314096091100426,0.12121008889453438,5.0,0
1.2074012756347656,22.83759880065918,-0.8836302757263184,-0.0,-0.0,-1.0,0.15703512252649418,1.0,0
1.3342218399047852,22.92060089111328,-0.8700857162475586,-0.23466040436113386,0.9717647042317514,0.024654700047774526,0.1711608965423801,3.0,0
1.2287521362304688,22.157896041870117,-1.131913661956787,0.39407546200600174,-0.6150823740420569,-0.6829188849252474,0.10988225754234335,3.0,0
1.1385698318481445,21.968563079833984,-1.1209993362426758,-0.0,-0.0,-1.0,0.059246245994469454,1.0,0
1.3695859909057617,22.291770935058594,-1.1250462532043457,-0.0,-0.0,-1.0,0.05862323489001489,1.0,0
1.7901983261108398,22.865093231201172,-1.136915683746338,-0.0,-0.0,-1.0,0.07842868941544634,2.0,0
1.6200180053710938,22.253787994384766,-1.0705463886260986,-0.0,-0.0,-1.0,0.06796559859044699,2.0,0
1.935561180114746,22.95962905883789,-1.125544786453247,-0.0,-0.0,-1.0,0.09876804732430107,2.0,0
1.7689847946166992,22.66596221923828,-1.1081185340881348,-0.0,-0.0,-1.0,0.02992101001757039,1.0,0
1.726806640625,22.40192413330078,-1.0734226703643799,-0.0,-0.0,-1.0,0.02715087859086227,1.0,0
2.0463485717773438,21.600046157836914,-0.8869612216949463,-0.0,-0.0,-1.0,0.08690739873698172,1.0,0
2.2013626098632812,21.15740966796875,-0.7910785675048828,-0.0,-0.0,-1.0,0.12563486503262047,2.0,0
2.147768020629883,21.37057876586914,-0.31775784492492676,-0.0,-0.0,-1.0,0.12880379231625794,2.0,0
2.3274478912353516,21.447654724121094,-0.29837965965270996,-0.0,-0.0,-1.0,0.08292029236489343,1.0,0
1.0845880508422852,22.844390869140625,-0.95867919921875,-0.13700696219761857,-0.37575276099963584,-0.916536390390764,0.20075483486571896,4.0,0
1.316636085510254,22.961332321166992,-0.9370520114898682,-0.5648924126182245,0.70570246072195,-0.42764541280989554,0.24056614552963068,4.0,0
1.6092195510864258,23.09083366394043,-0.9081888198852539,-0.4934487606327876,0.5071879134580503,-0.7065895138423975,0.14574364476995305,3.0,0
1.2172718048095703,22.850648880004883,-1.0731658935546875,-0.04913486642833474,0.9533871242765306,0.2977226161459634,0.07358079918611157,3.0,0
1.5085067749023438,23.015087127685547,-1.053095817565918,0.9404940927762658,-0.33627285518137756,-0.04890223227126936,0.20561001692074016,4.0,0
