x,y,z,nx,ny,nz,curvature,density,label
12.601883888244629,32.23383331298828,-1.8886725902557373,-0.0,-0.0,-1.0,0.102110106319577,2.0,0
12.677603721618652,32.208839416503906,-1.848076343536377,-0.0,-0.0,-1.0,0.08632086098770023,2.0,0
12.69404411315918,32.620811462402344,-1.7356369495391846,-0.0,-0.0,-1.0,0.0686282125552287,1.0,0
10.4728364944458,32.95531463623047,-1.9009233713150024,-0.0,-0.0,-1.0,0.12211646875898868,1.0,0
10.237081527709961,32.551368713378906,-1.842612624168396,-0.0,-0.0,-1.0,0.05191506491830998,1.0,0
12.618627548217773,32.48628234863281,-1.8625636100769043,-0.0,-0.0,-1.0,0.08927600659324268,1.0,0
12.547897338867188,32.2490348815918,-1.8970792293548584,-0.0,-0.0,-1.0,0.10047000120360662,1.0,0
12.704530715942383,32.18667221069336,-1.836526870727539,-0.0,-0.0,-1.0,0.1122306133019726,2.0,0
10.306081771850586,31.811683654785156,-2.0044078826904297,-0.0,-0.0,-1.0,0.029498950144761085,1.0,0
10.816987991333008,32.770751953125,-1.8602938652038574,-0.0,-0.0,-1.0,0.062116660213802626,1.0,0
10.962032318115234,32.09725570678711,-1.883814811706543,-0.0,-0.0,-1.0,0.07145153556285004,1.0,0
11.534103393554688,32.730491638183594,-1.9655570983886719,-0.0,-0.0,-1.0,0.03514687849473522,1.0,0
12.089366912841797,32.8459358215332,-2.0714268684387207,-0.0,-0.0,-1.0,0.04760814728901932,1.0,0
12.675773620605469,32.67860412597656,-1.707838535308838,-0.0,-0.0,-1.0,0.05489096079041552,1.0,0
12.563002586364746,32.246665954589844,-2.277125358581543,-0.0,-0.0,-1.0,0.15556103970018964,1.0,0
12.55179214477539,32.06050109863281,-1.8789286613464355,-0.0,-0.0,-1.0,0.09920539594014598,1.0,0
12.34858512878418,32.24307632446289,-1.9131736755371094,-0.0,-0.0,-1.0,0.06999150574076626,1.0,0
12.228433609008789,32.58796310424805,-1.9804115295410156,-0.0,-0.0,-1.0,0.03248190364933016,1.0,0
12.633781433105469,32.639373779296875,-1.8258700370788574,-0.0,-0.0,-1.0,0.08712517176144463,1.0,0
12.655481338500977,32.83574676513672,-1.7701106071472168,-0.0,-0.0,-1.0,0.0814817557192563,1.0,0
12.596006393432617,32.22655487060547,-1.8347654342651367,-0.0,-0.0,-1.0,0.10211010631957704,1.0,0
12.489753723144531,32.65032196044922,-1.9250946044921875,-0.0,-0.0,-1.0,0.09773261949243012,1.0,0
11.449145317077637,32.75894546508789,-1.942744255065918,-0.0,-0.0,-1.0,0.05112887875575301,2.0,0
11.579798698425293,33.01979446411133,-1.9995121955871582,-0.0,-0.0,-1.0,0.06617806733163462,1.0,0
10.353939056396484,32.84178161621094,-1.9621973037719727,-0.0,-0.0,-1.0,0.07279471166117775,1.0,0
12.634387016296387,31.995973587036133,-1.971086025238037,-0.0,-0.0,-1.0,0.08892373877563278,1.0,0
12.51912784576416,32.28239822387695,-2.037515640258789,-0.0,-0.0,-1.0,0.16999289195630896,2.0,0
12.323518753051758,32.727725982666016,-2.1411666870117188,-0.0,-0.0,-1.0,0.036939159347868185,1.0,0
11.620363235473633,32.67543411254883,-2.1313438415527344,-0.0,-0.0,-1.0,0.03454379162019599,1.0,0
11.891134262084961,32.90530014038086,-2.1836485862731934,-0.0,-0.0,-1.0,0.04558506333916914,1.0,0
11.390283584594727,32.310691833496094,-2.0477395057678223,-0.0,-0.0,-1.0,0.03293352119607317,1.0,0
11.51130485534668,32.5709342956543,-2.107652187347412,-0.0,-0.0,-1.0,0.026317733850749713,2.0,0
10.690023422241211,32.04508972167969,-1.9928836822509766,-0.0,-0.0,-1.0,0.033336199879370025,1.0,0
10.944351196289062,32.16112518310547,-2.0170674324035645,-0.0,-0.0,-1.0,0.0714515355628501,2.0,0
10.411224365234375,32.193817138671875,-2.0317001342773438,-0.0,-0.0,-1.0,0.039336063530228164,1.0,0
10.570257186889648,31.544029235839844,-1.8772025108337402,-0.0,-0.0,-1.0,0.04458271711732348,1.0,0
10.445939064025879,30.730220794677734,-1.95829176902771,-0.0,-0.0,-1.0,0.013832962347569689,1.0,0
10.91351318359375,31.783166885375977,-2.0095951557159424,-0.0,-0.0,-1.0,0.04457134494981673,1.0,0
10.557284355163574,31.303298950195312,-1.9253466129302979,-0.0,-0.0,-1.0,0.029310655947335503,2.0,0
10.326030731201172,31.19793128967285,-1.9086410999298096,-0.0,-0.0,-1.0,0.020233981846491347,1.0,0
10.241146087646484,31.328174591064453,-1.9335286617279053,-0.0,-0.0,-1.0,0.03269602656227937,1.0,0
10.351869583129883,32.492279052734375,-1.9022159576416016,-0.0,-0.0,-1.0,0.04687501821717324,1.0,0
10.555103302001953,32.945640563964844,-1.986457347869873,-0.0,-0.0,-1.0,0.12800135953219557,1.0,0
11.295412063598633,30.88705062866211,-1.5854730606079102,-0.0,-0.0,-1.0,0.16176187248119528,1.0,0
12.692384719848633,31.962013244628906,-1.9166357517242432,-0.0,-0.0,-1.0,0.07443027980647281,1.0,0
12.611379623413086,32.227291107177734,-1.9708402156829834,-0.0,-0.0,-1.0,0.1377120600756265,1.0,0
12.517648696899414,32.452327728271484,-2.016587495803833,-0.0,-0.0,-1.0,0.1358926558573735,1.0,0
12.468700408935547,32.95893096923828,-2.1219942569732666,-0.0,-0.0,-1.0,0.0782712944070656,1.0,0
12.050840377807617,32.947044372558594,-2.115342855453491,-0.0,-0.0,-1.0,0.04274327207018302,2.0,0
11.646476745605469,32.71806716918945,-2.0646655559539795,-0.0,-0.0,-1.0,0.03806046889275828,1.0,0
11.623286247253418,32.87184524536133,-2.096991777420044,-0.0,-0.0,-1.0,0.04790419782439104,1.0,0
11.141730308532715,32.11701965332031,-1.9369738101959229,-0.0,-0.0,-1.0,0.07414401603830317,1.0,0
10.869583129882812,32.22208023071289,-1.9595277309417725,-0.0,-0.0,-1.0,0.06750363199947428,1.0,0
10.892642974853516,32.50508117675781,-2.0191566944122314,-0.0,-0.0,-1.0,0.07493365340518647,1.0,0
10.717592239379883,32.87492370605469,-2.0979063510894775,-0.0,-0.0,-1.0,0.07514631309932314,1.0,0
10.508996963500977,32.22750473022461,-1.9623029232025146,-0.0,-0.0,-1.0,0.03394399208748401,1.0,0
10.352983474731445,32.3188362121582,-1.982731580734253,-0.0,-0.0,-1.0,0.03535166615407976,1.0,0
11.964387893676758,33.051048278808594,-2.200091600418091,-0.0,-0.0,-1.0,0.040218954064498165,1.0,0
12.687129974365234,31.892620086669922,-1.9510552883148193,-0.0,-0.0,-1.0,0.06992865017836856,1.0,0
12.518081665039062,32.26012420654297,-2.03008770942688,-0.0,-0.0,-1.0,0.14846708637193115,2.0,0
12.426921844482422,32.41738510131836,-2.0637733936309814,-0.0,-0.0,-1.0,0.12921957919697016,1.0,0
12.399124145507812,32.77081298828125,-2.1426565647125244,-0.0,-0.0,-1.0,0.05028123380880453,1.0,0
12.153018951416016,32.69944763183594,-2.123107671737671,-0.0,-0.0,-1.0,0.03132463125695779,1.0,0
12.056360244750977,32.83745574951172,-2.1529910564422607,-0.0,-0.0,-1.0,0.04887765319114316,1.0,0
11.531754493713379,32.72560119628906,-2.1233127117156982,-0.0,-0.0,-1.0,0.0351468784947353,1.0,0
11.08362865447998,32.142024993896484,-1.9898936748504639,-0.0,-0.0,-1.0,0.08523119129874025,2.0,0
10.76945686340332,32.22563934326172,-2.0092809200286865,-0.0,-0.0,-1.0,0.059628932875562646,1.0,0
10.733455657958984,32.51527786254883,-2.074981927871704,-0.0,-0.0,-1.0,0.04666077056394698,1.0,0
10.372745513916016,32.25248718261719,-2.0174620151519775,-0.0,-0.0,-1.0,0.034426190460390735,1.0,0
12.182439804077148,30.982994079589844,-1.9420742988586426,0.33459604817627325,0.6161762478668331,-0.7130023254587404,0.010092696760138724,3.0,0
11.931745529174805,31.63650131225586,-2.1004638671875,-0.0,-0.0,-1.0,0.015415752149674566,1.0,0
11.490066528320312,31.163753509521484,-1.980820655822754,-0.0,-0.0,-1.0,0.08661166906482813,2.0,0
11.584877014160156,31.460487365722656,-2.0546770095825195,-0.0,-0.0,-1.0,0.04229774909198955,2.0,0
10.980113983154297,31.228965759277344,-1.9968671798706055,-0.0,-0.0,-1.0,0.022088558959034412,1.0,0
10.794938087463379,31.099266052246094,-1.965531349182129,-0.0,-0.0,-1.0,0.032802061283290565,1.0,0
10.613141059875488,30.984634399414062,-1.9382410049438477,-0.0,-0.0,-1.0,0.01568067389243619,2.0,0
10.313495635986328,30.83765411376953,-1.9047136306762695,-0.0,-0.0,-1.0,0.015066543891712523,1.0,0
10.507226943969727,30.927921295166016,-1.925065040588379,-0.0,-0.0,-1.0,0.016038576521398826,2.0,0
12.357829093933105,33.11736297607422,-2.1034905910491943,-0.0,-0.0,-1.0,0.05304928622787051,1.0,0
12.496639251708984,32.434539794921875,-1.9372332096099854,-0.0,-0.0,-1.0,0.14272046597764204,1.0,0
12.438603401184082,32.941322326660156,-2.0605432987213135,-0.0,-0.0,-1.0,0.07827129440706551,1.0,0
12.105925559997559,32.913124084472656,-2.054231882095337,-0.0,-0.0,-1.0,0.04760814728901931,1.0,0
12.120416641235352,33.020774841308594,-2.080528974533081,-0.0,-0.0,-1.0,0.042743272070183025,1.0,0
11.54673957824707,32.786048889160156,-2.026777505874634,-0.0,-0.0,-1.0,0.03514687849473527,1.0,0
11.732315063476562,33.10051345825195,-2.1021645069122314,-0.0,-0.0,-1.0,0.0580922778888039,1.0,0
11.12173080444336,32.16802978515625,-1.8800795078277588,-0.0,-0.0,-1.0,0.0819752392227445,2.0,0
10.819355010986328,32.2939567565918,-1.915717363357544,-0.0,-0.0,-1.0,0.06411556247698112,1.0,0
10.43537712097168,32.290748596191406,-1.9223496913909912,-0.0,-0.0,-1.0,0.0396236508284754,2.0,0
12.644946098327637,32.38688659667969,-1.8919315338134766,-0.0,-0.0,-1.0,0.11158916217335217,2.0,0
12.59009838104248,32.62595748901367,-1.9506793022155762,-0.0,-0.0,-1.0,0.0840233771411778,1.0,0
11.721166610717773,32.976219177246094,-2.0253090858459473,-0.0,-0.0,-1.0,0.05602216768118783,1.0,0
11.559605598449707,32.797916412353516,-1.9787468910217285,-0.0,-0.0,-1.0,0.03562718330885064,1.0,0
10.564207077026367,33.02412414550781,-2.033562183380127,-0.0,-0.0,-1.0,0.12800135953219557,2.0,0
10.405232429504395,32.70448303222656,-1.9530010223388672,-0.0,-0.0,-1.0,0.12028354218156576,1.0,0
11.76426887512207,31.81056022644043,-2.181868553161621,-0.0,-0.0,-1.0,0.016209900230056078,1.0,0
12.1455717086792,30.971885681152344,-1.96897554397583,-0.0,-0.0,-1.0,0.010361493797504746,2.0,0
11.95726203918457,31.00786590576172,-1.9711356163024902,-0.0,-0.0,-1.0,0.04909397686769956,1.0,0
11.772621154785156,31.53345489501953,-2.10689115524292,-0.0,-0.0,-1.0,0.014780473698852737,1.0,0
11.847797393798828,31.643081665039062,-2.139329433441162,-0.0,-0.0,-1.0,0.015240399685451966,1.0,0
11.360832214355469,31.465137481689453,-2.075256824493408,-0.0,-0.0,-1.0,0.03829180372476432,1.0,0
11.0926513671875,31.193370819091797,-1.9939303398132324,-0.0,-0.0,-1.0,0.021866409326694727,1.0,0
10.943559646606445,31.323951721191406,-2.0261688232421875,-0.0,-0.0,-1.0,0.03153433470737547,1.0,0
10.452272415161133,31.15096092224121,-1.9699053764343262,-0.0,-0.0,-1.0,0.022382040357010385,2.0,0
10.661680221557617,31.259784698486328,-2.003060817718506,-0.0,-0.0,-1.0,0.027071588698653688,1.0,0
10.227827072143555,31.12416648864746,-1.9598627090454102,-0.0,-0.0,-1.0,0.016129600272623452,1.0,0
10.499953269958496,30.948179244995117,-1.8778409957885742,-0.0,-0.0,-1.0,0.01603857652139882,2.0,0
10.772631645202637,31.14783477783203,-1.8985137939453125,-0.0,-0.0,-1.0,0.017497668767740813,1.0,0
10.73835277557373,31.19282341003418,-1.911844253540039,-0.0,-0.0,-1.0,0.01901610883155352,1.0,0
10.494068145751953,31.359296798706055,-1.8729143142700195,-0.47228049810458816,-0.6967809239084112,-0.5398587548492876,0.0312169425308497,3.0,0
11.954763412475586,32.07645797729492,-2.1169393062591553,-0.0,-0.0,-1.0,0.02924446425279952,1.0,0
12.585224151611328,31.589513778686523,-1.9588162899017334,-0.0,-0.0,-1.0,0.04294221945191133,2.0,0
12.351051330566406,31.743000030517578,-2.011800527572632,-0.0,-0.0,-1.0,0.03233733368147403,1.0,0
10.305622100830078,32.854888916015625,-1.9963549375534058,-0.0,-0.0,-1.0,0.07279471166117776,1.0,0
10.441513061523438,32.28425598144531,-1.9710415601730347,-0.0,-0.0,-1.0,0.0396236508284754,2.0,0
12.64544677734375,32.35926055908203,-1.7388311624526978,-0.0,-0.0,-1.0,0.07291207351171217,1.0,0
10.458486557006836,32.992889404296875,-1.9957526922225952,-0.0,-0.0,-1.0,0.11654462608926695,2.0,0
10.311782836914062,32.57121276855469,-1.9934402704238892,-0.0,-0.0,-1.0,0.05182039433513388,1.0,0
11.124504089355469,32.1925163269043,-1.8811625242233276,-0.0,-0.0,-1.0,0.08197523922274445,2.0,0
12.536231994628906,32.44573974609375,-1.7308331727981567,-0.0,-0.0,-1.0,0.07438509132621293,2.0,0
10.514463424682617,32.87759017944336,-1.850932240486145,-0.0,-0.0,-1.0,0.1254837108551528,1.0,0
10.682073593139648,33.06928253173828,-2.1034486293792725,-0.0,-0.0,-1.0,0.09077316944826665,1.0,0
10.525097846984863,31.361785888671875,-1.9032723903656006,-0.47228049810458816,-0.6967809239084112,-0.5398587548492876,0.02993940725337132,3.0,0
10.496549606323242,31.288463592529297,-1.8992600440979004,-0.0,-0.0,-1.0,0.022345228110501793,2.0,0
12.61237621307373,32.11772155761719,-1.7395979166030884,-0.0,-0.0,-1.0,0.07510643018869338,1.0,0
10.490694999694824,31.369613647460938,-1.8832790851593018,-0.47228049810458816,-0.6967809239084112,-0.5398587548492876,0.03121694253084971,3.0,0
10.39639663696289,32.6723518371582,-2.0465784072875977,-0.0,-0.0,-1.0,0.061500240451068,1.0,0
10.503996849060059,31.546104431152344,-1.898158073425293,-0.0,-0.0,-1.0,0.05184170285856488,1.0,0
10.390151977539062,31.51519012451172,-1.9151151180267334,-0.0,-0.0,-1.0,0.05461581708698913,1.0,0
10.240527153015137,31.06967544555664,-1.8933820724487305,-0.0,-0.0,-1.0,0.015614695517577073,1.0,0
11.0288724899292,30.756736755371094,-1.7154245376586914,-0.0,-0.0,-1.0,0.12590878422933843,1.0,0
10.649040222167969,31.993492126464844,-2.0332348346710205,-0.0,-0.0,-1.0,0.028097100920070096,1.0,0
10.617746353149414,31.704206466674805,-1.999025583267212,-0.0,-0.0,-1.0,0.02156151468716737,1.0,0
11.079182624816895,30.913127899169922,-1.808988332748413,-0.0,-0.0,-1.0,0.12109550480865577,1.0,0
10.410355567932129,31.14286994934082,-1.9615671634674072,-0.0,-0.0,-1.0,0.021399315649624058,2.0,0
11.03427505493164,30.74095916748047,-1.7937862873077393,-0.0,-0.0,-1.0,0.1259087842293385,1.0,0
10.438379287719727,33.03617477416992,-1.9483997821807861,-0.0,-0.0,-1.0,0.11654462608926698,1.0,0
10.376317024230957,32.925254821777344,-1.9390697479248047,-0.0,-0.0,-1.0,0.11654462608926698,1.0,0
10.246898651123047,32.700225830078125,-1.9214210510253906,-0.0,-0.0,-1.0,0.068796050339915,1.0,0
10.217279434204102,31.760040283203125,-1.7809879779815674,-0.0,-0.0,-1.0,0.03133177473103232,1.0,0
11.021376609802246,30.83656120300293,-1.5253360271453857,-0.0,-0.0,-1.0,0.12818791907192958,1.0,0
10.342264175415039,32.82770919799805,-1.8619970083236694,-0.0,-0.0,-1.0,0.12028354218156574,1.0,0
10.258180618286133,31.76946258544922,-1.6941672563552856,-0.0,-0.0,-1.0,0.03151883897820899,1.0,0
10.418066024780273,32.80314636230469,-1.8761106729507446,-0.0,-0.0,-1.0,0.12028354218156576,1.0,0
11.462295532226562,31.199783325195312,-1.9847501516342163,0.7906539422852522,0.6118555119426452,0.022342248190199015,0.08319788952913668,3.0,0
10.342194557189941,32.43895721435547,-2.0133206844329834,-0.0,-0.0,-1.0,0.04315525411719875,1.0,0
10.507452964782715,32.89997482299805,-1.981001853942871,-0.0,-0.0,-1.0,0.12548371085515275,1.0,0
10.416556358337402,32.70429992675781,-1.8851604461669922,-0.0,-0.0,-1.0,0.11212068811059288,1.0,0
10.30536937713623,31.761959075927734,-1.744999885559082,-0.0,-0.0,-1.0,0.032450139451857,1.0,0
10.636544227600098,31.302303314208984,-1.9467723369598389,-0.0,-0.0,-1.0,0.027522941272855792,1.0,0
10.311592102050781,30.968629837036133,-1.8998405933380127,-0.0,-0.0,-1.0,0.01897845116222056,1.0,0
10.504512786865234,30.912776947021484,-1.9505321979522705,-0.0,-0.0,-1.0,0.016038576521398826,2.0,0
10.325273513793945,30.65227699279785,-1.9068467617034912,-0.0,-0.0,-1.0,0.011235780531984516,1.0,0
12.661940574645996,32.312660217285156,-1.826077938079834,-0.0,-0.0,-1.0,0.07863130098632512,2.0,0
10.447416305541992,32.93569564819336,-1.9997143745422363,-0.0,-0.0,-1.0,0.11654462608926702,2.0,0
10.529314041137695,33.02511978149414,-2.0161447525024414,-0.0,-0.0,-1.0,0.12800135953219557,2.0,0
12.583654403686523,31.565702438354492,-2.00624418258667,-0.0,-0.0,-1.0,0.04133788701280736,2.0,0
12.341297149658203,31.599590301513672,-2.011185646057129,-0.0,-0.0,-1.0,0.013064616719385514,1.0,0
12.012733459472656,31.910734176635742,-2.08013916015625,-0.0,-0.0,-1.0,0.02496744508535431,1.0,0
11.81689739227295,32.008575439453125,-2.101668357849121,-0.0,-0.0,-1.0,0.018340697513663462,1.0,0
11.134315490722656,32.00569152832031,-2.101184368133545,-0.0,-0.0,-1.0,0.06249877400732201,1.0,0
10.801071166992188,31.442590713500977,-1.9721240997314453,-0.0,-0.0,-1.0,0.01890842442625415,1.0,0
10.883773803710938,31.529233932495117,-1.991739273071289,-0.0,-0.0,-1.0,0.01601070366070737,1.0,0
10.502642631530762,31.25841522216797,-1.9317426681518555,-0.0,-0.0,-1.0,0.023440939064171013,2.0,0
10.660696983337402,31.420515060424805,-1.9680652618408203,-0.0,-0.0,-1.0,0.027216796382880982,1.0,0
10.216161727905273,31.261728286743164,-1.9359183311462402,-0.0,-0.0,-1.0,0.021298305649064184,1.0,0
12.542644500732422,32.50679016113281,-1.9528295993804932,-0.0,-0.0,-1.0,0.1480742627230226,1.0,0
12.465738296508789,32.63127899169922,-1.977250337600708,-0.0,-0.0,-1.0,0.10221425819146393,1.0,0
12.608410835266113,32.1885986328125,-1.886155366897583,-0.0,-0.0,-1.0,0.09066713117177157,2.0,0
11.534418106079102,32.89177703857422,-2.007765531539917,-0.0,-0.0,-1.0,0.07045783062953628,1.0,0
10.462345123291016,32.981956481933594,-2.009197950363159,-0.886345754457518,0.20046916137620216,-0.4173767110084795,0.116544626089267,3.0,0
12.653608322143555,32.365028381347656,-1.8725075721740723,-0.0,-0.0,-1.0,0.1066374657796307,2.0,0
12.334938049316406,32.17831802368164,-2.0850279331207275,-0.0,-0.0,-1.0,0.09539487514889183,1.0,0
12.160919189453125,32.327796936035156,-2.1105592250823975,-0.0,-0.0,-1.0,0.06404493283129031,1.0,0
11.871797561645508,32.70682144165039,-2.1855838298797607,-0.0,-0.0,-1.0,0.04641419329670348,1.0,0
11.518153190612793,32.58848571777344,-2.139055013656616,-0.0,-0.0,-1.0,0.026317733850749533,2.0,0
12.519950866699219,31.723445892333984,-1.9884917736053467,-0.0,-0.0,-1.0,0.05894977282942583,2.0,0
12.417283058166504,31.923927307128906,-2.0295913219451904,-0.0,-0.0,-1.0,0.05826071076886963,1.0,0
11.31850814819336,32.38117599487305,-2.0794003009796143,-0.0,-0.0,-1.0,0.04171921864114852,1.0,0
11.082504272460938,32.11153030395508,-2.003255605697632,-0.0,-0.0,-1.0,0.08152522873003377,2.0,0
10.875961303710938,32.14285659790039,-2.0016634464263916,-0.0,-0.0,-1.0,0.0718682876087348,1.0,0
10.58177661895752,32.20406723022461,-2.004490613937378,-0.0,-0.0,-1.0,0.03915899894710389,2.0,0
10.29623031616211,32.21691131591797,-1.9967772960662842,-0.0,-0.0,-1.0,0.04276142496489657,2.0,0
12.277372360229492,32.29032516479492,-2.1166884899139404,-0.0,-0.0,-1.0,0.06626560338199207,1.0,0
12.039913177490234,32.56267166137695,-2.178687810897827,-0.0,-0.0,-1.0,0.03230567056504189,1.0,0
11.741371154785156,32.563777923583984,-2.16847825050354,-0.0,-0.0,-1.0,0.030114515758594165,1.0,0
11.503120422363281,32.45280838012695,-2.131626844406128,-0.0,-0.0,-1.0,0.03330293249212129,1.0,0
12.548482894897461,31.71471405029297,-1.9794414043426514,-0.0,-0.0,-1.0,0.05904044746772072,2.0,0
12.57229232788086,31.876590728759766,-2.022392988204956,-0.0,-0.0,-1.0,0.06947742275970081,1.0,0
11.358684539794922,32.31463623046875,-2.090791940689087,-0.0,-0.0,-1.0,0.03278571471743417,1.0,0
10.980945587158203,32.16120529174805,-2.0401322841644287,-0.0,-0.0,-1.0,0.08648864509500859,2.0,0
11.07259750366211,30.975183486938477,-1.727879285812378,-0.0,-0.0,-1.0,0.1210955048086558,1.0,0
10.632266998291016,32.15492248535156,-2.0306265354156494,-0.0,-0.0,-1.0,0.04059202418209478,1.0,0
10.559812545776367,32.1837272644043,-2.037036180496216,-0.0,-0.0,-1.0,0.04150305876284984,2.0,0
12.63751220703125,32.31587219238281,-1.8598217964172363,-0.0,-0.0,-1.0,0.09362744014140624,2.0,0
12.619974136352539,32.67289352416992,-1.9475417137145996,-0.0,-0.0,-1.0,0.09496862492020791,1.0,0
10.264165878295898,32.77180480957031,-1.8572611808776855,-0.0,-0.0,-1.0,0.06372033665714508,1.0,0
10.218135833740234,32.826812744140625,-1.870100498199463,-0.0,-0.0,-1.0,0.06372033665714512,1.0,0
12.564447402954102,32.443389892578125,-1.7504122257232666,-0.0,-0.0,-1.0,0.07438509132621293,2.0,0
11.484127044677734,32.24414825439453,-2.1977341175079346,-0.0,-0.0,-1.0,0.03955042665019495,1.0,0
11.151718139648438,32.073883056640625,-2.1594436168670654,-0.0,-0.0,-1.0,0.06664076322823187,1.0,0
10.892765998840332,32.05123519897461,-2.156172037124634,-0.0,-0.0,-1.0,0.0693229426961194,1.0,0
11.904691696166992,32.46730422973633,-2.249803304672241,-0.0,-0.0,-1.0,0.02117167435239736,1.0,0
11.715141296386719,32.16522216796875,-2.178921937942505,-0.0,-0.0,-1.0,0.022034481914816096,1.0,0
11.404272079467773,32.111881256103516,-2.1670124530792236,-0.0,-0.0,-1.0,0.048466041000932325,1.0,0
10.67411994934082,31.561925888061523,-2.044135808944702,-0.0,-0.0,-1.0,0.016663999133506427,1.0,0
12.344759941101074,31.960891723632812,-2.132826089859009,-0.0,-0.0,-1.0,0.0741621206387666,1.0,0
10.450263023376465,31.285972595214844,-1.982665777206421,-0.0,-0.0,-1.0,0.021964046389908117,1.0,0
11.068281173706055,30.69475746154785,-1.8372762203216553,-0.0,-0.0,-1.0,0.11979053057816269,1.0,0
10.507400512695312,32.83498001098633,-1.803312063217163,-0.0,-0.0,-1.0,0.12254901011671913,1.0,0
10.286681175231934,32.795127868652344,-1.7893531322479248,-0.0,-0.0,-1.0,0.11212068811059289,1.0,0
10.76883316040039,31.278783798217773,-1.940993070602417,-0.0,-0.0,-1.0,0.02261271783458971,1.0,0
10.423826217651367,31.258087158203125,-1.9141566753387451,-0.0,-0.0,-1.0,0.02332047037023405,1.0,0
10.325525283813477,32.22053146362305,-1.9896321296691895,-0.0,-0.0,-1.0,0.03548410999351945,2.0,0
10.81942367553711,32.18286895751953,-2.012037754058838,-0.0,-0.0,-1.0,0.08375255924661304,1.0,0
10.544026374816895,32.08587646484375,-1.975907802581787,-0.0,-0.0,-1.0,0.032051277764663245,1.0,0
10.691831588745117,32.54423141479492,-1.8140394687652588,-0.0,-0.0,-1.0,0.046627341536274715,1.0,0
10.97801399230957,32.4718017578125,-1.8227474689483643,-0.0,-0.0,-1.0,0.065957454702713,1.0,0
11.654197692871094,32.838619232177734,-2.024745464324951,-0.0,-0.0,-1.0,0.050397695928544664,1.0,0
11.831196784973145,33.07883071899414,-2.1455140113830566,-0.0,-0.0,-1.0,0.04657708450759294,1.0,0
12.24345588684082,32.39268493652344,-2.0728230476379395,-0.0,-0.0,-1.0,0.07064042657037539,1.0,0
11.497452735900879,32.66499328613281,-2.0284485816955566,-0.0,-0.0,-1.0,0.028291354355542274,1.0,0
12.611868858337402,31.657323837280273,-1.9876608848571777,-0.0,-0.0,-1.0,0.05478802915442736,1.0,0
10.341382026672363,31.547039031982422,-1.951369285583496,-0.0,-0.0,-1.0,0.054484860317304096,1.0,0
10.910459518432617,31.211456298828125,-1.962071418762207,-0.0,-0.0,-1.0,0.0299128666465331,1.0,0
10.55686092376709,31.257762908935547,-1.9195938110351562,-0.0,-0.0,-1.0,0.022361903357778264,2.0,0
11.149208068847656,30.82756233215332,-1.9145135879516602,-0.0,-0.0,-1.0,0.12109550480865593,1.0,0
12.001415252685547,31.62783432006836,-2.0724005699157715,-0.0,-0.0,-1.0,0.015880774218147688,1.0,0
11.45090103149414,31.212907791137695,-1.9409394264221191,-0.0,-0.0,-1.0,0.08558000827909809,2.0,0
11.153397560119629,31.27450942993164,-1.9469866752624512,-0.0,-0.0,-1.0,0.12163159821376292,1.0,0
10.698328971862793,31.230623245239258,-1.9200186729431152,-0.0,-0.0,-1.0,0.02610653703531112,1.0,0
10.340775489807129,31.092193603515625,-1.8714241981506348,-0.0,-0.0,-1.0,0.020674378510967182,1.0,0
12.213336944580078,30.999740600585938,-1.913102626800537,-0.0,-0.0,-1.0,0.05653712705711767,2.0,0
11.175436019897461,30.823171615600586,-1.8265728950500488,-0.0,-0.0,-1.0,0.13510130983170546,1.0,0
11.190985679626465,30.895401000976562,-1.9565353393554688,-0.0,-0.0,-1.0,0.1182606999290824,1.0,0
10.893754959106445,30.952653884887695,-1.932744026184082,-0.0,-0.0,-1.0,0.05772022859228811,1.0,0
10.641717910766602,30.96486473083496,-1.904153823852539,-0.0,-0.0,-1.0,0.014245154237184941,2.0,0
10.2110595703125,31.384307861328125,-1.953683853149414,-0.0,-0.0,-1.0,0.04583724119089876,1.0,0
11.308329582214355,30.643665313720703,-1.910970687866211,-0.0,-0.0,-1.0,0.10342361702981907,1.0,0
10.489070892333984,30.92393684387207,-1.875274658203125,-0.0,-0.0,-1.0,0.016038576521398822,2.0,0
10.873851776123047,30.648212432861328,-1.8896937370300293,-0.0,-0.0,-1.0,0.06663324641318404,1.0,0
10.57478141784668,30.788578033447266,-1.8800835609436035,-0.0,-0.0,-1.0,0.01958157117650092,1.0,0
12.111442565917969,31.39905548095703,-2.083986759185791,-0.0,-0.0,-1.0,0.007305281950107037,1.0,0
11.585380554199219,31.773860931396484,-2.0930285453796387,-0.0,-0.0,-1.0,0.022615568013795728,1.0,0
12.135644912719727,30.917068481445312,-1.9740300178527832,-0.0,-0.0,-1.0,0.050253765581230896,1.0,0
12.174629211425781,31.179603576660156,-2.0418810844421387,-0.0,-0.0,-1.0,0.007277651210148292,1.0,0
11.59585952758789,31.46851348876953,-2.0220322608947754,-0.0,-0.0,-1.0,0.04229774909198955,2.0,0
10.681295394897461,32.09490966796875,-2.0355782508850098,-0.0,-0.0,-1.0,0.030494778865450507,1.0,0
10.277017593383789,32.327632904052734,-2.0328030586242676,-0.0,-0.0,-1.0,0.03139583908693037,1.0,0
12.28668212890625,30.72840118408203,-1.9530320167541504,-0.0,-0.0,-1.0,0.052215974062100226,1.0,0
12.308841705322266,33.10407257080078,-2.2308154106140137,-0.0,-0.0,-1.0,0.03984237714422461,1.0,0
12.650186538696289,32.484352111816406,-2.182168483734131,-0.0,-0.0,-1.0,0.10595351525788463,1.0,0
11.833427429199219,32.02294921875,-1.92289400100708,-0.0,-0.0,-1.0,0.027586112553335096,1.0,0
10.96074104309082,32.67499923706055,-1.8706440925598145,-0.0,-0.0,-1.0,0.04723619071581822,1.0,0
11.042985916137695,32.484886169433594,-1.8500962257385254,-0.0,-0.0,-1.0,0.05444799074203342,1.0,0
12.441764831542969,31.965938568115234,-1.9141955375671387,-0.0,-0.0,-1.0,0.09131183391099319,1.0,0
12.30044174194336,32.317081451416016,-1.967395305633545,-0.0,-0.0,-1.0,0.06658492136926653,1.0,0
12.210563659667969,32.65234375,-2.027374744415283,-0.0,-0.0,-1.0,0.030720445719250932,1.0,0
12.06692886352539,32.982582092285156,-2.0765719413757324,-0.0,-0.0,-1.0,0.042743272070183025,1.0,0
11.510292053222656,32.896663665771484,-1.9520411491394043,-0.0,-0.0,-1.0,0.0673029067770728,1.0,0
11.430255889892578,32.78331756591797,-1.9106078147888184,-0.0,-0.0,-1.0,0.0570041894004137,2.0,0
12.642072677612305,30.679473876953125,-1.6622405052185059,-0.0,-0.0,-1.0,0.05983736817907111,1.0,0
10.305925369262695,32.94718933105469,-1.7422480583190918,-0.0,-0.0,-1.0,0.11654462608926702,1.0,0
11.979463577270508,31.426929473876953,-2.0129127502441406,-0.0,-0.0,-1.0,0.008748067511127122,1.0,0
11.900003433227539,31.73662567138672,-2.0552501678466797,-0.0,-0.0,-1.0,0.015536414020960156,1.0,0
11.793760299682617,31.941360473632812,-2.0692996978759766,-0.0,-0.0,-1.0,0.01785477005562656,1.0,0
11.573774337768555,32.24100875854492,-2.073549270629883,-0.0,-0.0,-1.0,0.04225140531059142,1.0,0
11.080789566040039,32.0806884765625,-1.9112415313720703,-0.0,-0.0,-1.0,0.07363241335945749,1.0,0
11.125188827514648,33.12272262573242,-2.1418514251708984,-0.0,-0.0,-1.0,0.0321263655965424,1.0,0
10.880268096923828,32.24275207519531,-1.8931465148925781,-0.0,-0.0,-1.0,0.06411556247698114,1.0,0
11.988595962524414,30.651927947998047,-1.857767105102539,-0.0,-0.0,-1.0,0.060935901689172796,1.0,0
11.961965560913086,30.929771423339844,-1.9068946838378906,-0.0,-0.0,-1.0,0.050992375512652045,1.0,0
11.916667938232422,31.032737731933594,-1.9156951904296875,-0.0,-0.0,-1.0,0.054402829691762716,1.0,0
12.318885803222656,31.038341522216797,-1.906850814819336,-0.0,-0.0,-1.0,0.0099671974508721,1.0,0
12.356605529785156,31.39000701904297,-1.9799442291259766,-0.0,-0.0,-1.0,0.0050920347759056805,1.0,0
12.33102035522461,31.81998634338379,-2.047369956970215,-0.0,-0.0,-1.0,0.03894063071438991,1.0,0
12.249879837036133,32.03209686279297,-2.059603691101074,-0.0,-0.0,-1.0,0.033283520442756134,1.0,0
12.183027267456055,32.26815414428711,-2.0808944702148438,-0.0,-0.0,-1.0,0.06321798181384955,1.0,0
12.145774841308594,32.632911682128906,-2.134659767150879,-0.0,-0.0,-1.0,0.03077060877001773,1.0,0
12.044219970703125,32.918861389160156,-2.15509033203125,-0.0,-0.0,-1.0,0.04452308195800295,2.0,0
11.879192352294922,33.033775329589844,-2.125598907470703,-0.0,-0.0,-1.0,0.044084508484879485,1.0,0
11.53518295288086,32.98601531982422,-2.0125732421875,-0.0,-0.0,-1.0,0.0678459284572391,1.0,0
12.375085830688477,30.876930236816406,-1.896627426147461,-0.0,-0.0,-1.0,0.05983736817907111,1.0,0
12.65414810180664,31.261028289794922,-1.9635004997253418,-0.0,-0.0,-1.0,0.008588936369485302,1.0,0
12.547674179077148,31.571163177490234,-1.984327793121338,-0.13399591165818317,0.887403735088426,-0.44108922749258245,0.026652413715864593,3.0,0
12.434215545654297,31.88030242919922,-2.0034852027893066,-0.0,-0.0,-1.0,0.07422738073302888,1.0,0
12.395675659179688,32.139442443847656,-2.0383009910583496,-0.0,-0.0,-1.0,0.09539487514889188,1.0,0
12.337606430053711,32.37755584716797,-2.063424587249756,-0.0,-0.0,-1.0,0.11220874339642169,1.0,0
12.294227600097656,32.79983139038086,-2.1277384757995605,-0.0,-0.0,-1.0,0.035536577619914765,1.0,0
12.561468124389648,30.641666412353516,-1.8233580589294434,-0.0,-0.0,-1.0,0.05983736817907111,1.0,0
12.661605834960938,31.05029296875,-1.9285073280334473,-0.0,-0.0,-1.0,0.009888822018019158,1.0,0
11.320045471191406,31.573963165283203,-1.551079273223877,-0.0,-0.0,-1.0,0.08442793943650684,1.0,0
11.749805450439453,30.838661193847656,-1.3214459419250488,-0.0,-0.0,-1.0,0.10282455905041568,1.0,0
11.41771125793457,30.76046371459961,-1.3232731819152832,-0.0,-0.0,-1.0,0.16583379831850054,1.0,0
11.213741302490234,31.164264678955078,-1.447359561920166,-0.0,-0.0,-1.0,0.1545911906071141,1.0,0
12.661210060119629,32.00382614135742,-2.212322235107422,-0.0,-0.0,-1.0,0.11960117282626849,1.0,0
12.293924331665039,31.583555221557617,-2.0084829330444336,-0.0,-0.0,-1.0,0.009855382814764484,1.0,0
10.913311004638672,32.18733215332031,-1.9658989906311035,-0.0,-0.0,-1.0,0.08326361048532706,1.0,0
12.149236679077148,32.183265686035156,-2.0991735458374023,-0.0,-0.0,-1.0,0.03742956122170958,1.0,0
11.427204132080078,32.775115966796875,-2.126777172088623,-0.0,-0.0,-1.0,0.06240015496561471,1.0,0
12.007072448730469,32.50813293457031,-2.141596794128418,-0.0,-0.0,-1.0,0.026725496692424012,1.0,0
11.710861206054688,33.12290954589844,-2.2199316024780273,-0.0,-0.0,-1.0,0.058092277888803875,1.0,0
12.033906936645508,32.87702941894531,-2.2107152938842773,-0.0,-0.0,-1.0,0.04434141253979355,1.0,0
