x,y,z,nx,ny,nz,curvature,density,label
55.49525451660156,10.926895141601562,-1.923710584640503,-0.0,-0.0,-1.0,0.10040793804111395,1.0,0
56.07000732421875,11.243523597717285,-2.070441961288452,-0.0,-0.0,-1.0,0.0605563718359613,2.0,0
55.56803894042969,11.8289794921875,-1.918297290802002,-0.0,-0.0,-1.0,0.2679456528501626,1.0,0
55.63828659057617,12.162220001220703,-1.9319977760314941,-0.0,-0.0,-1.0,0.18760829249396854,2.0,0
56.27964782714844,12.348194122314453,-2.109795093536377,-0.0,-0.0,-1.0,0.2310301398361825,1.0,0
56.25035095214844,12.998186111450195,-2.100135326385498,-0.0,-0.0,-1.0,0.09925840255721456,1.0,0
55.3438720703125,10.86837387084961,-1.9311062097549438,0.8830008143626766,-0.0007221329716736121,-0.46937089850013175,0.11084407278597248,4.0,0
55.62141036987305,11.039833068847656,-2.0013132095336914,-0.0,-0.0,-1.0,0.07613510613822558,2.0,0
55.79218292236328,11.22057056427002,-2.041194438934326,-0.0,-0.0,-1.0,0.06901331973730372,1.0,0
56.086585998535156,12.394615173339844,-2.079878330230713,-0.11468037919468983,-0.8606305018300873,-0.49614871757110696,0.12854067046453777,3.0,0
56.11865234375,12.96998405456543,-2.076406955718994,-0.0,-0.0,-1.0,0.07239440581600858,1.0,0
55.443756103515625,11.859145164489746,-1.9045358896255493,-0.0,-0.0,-1.0,0.24791789946846152,1.0,0
55.50450134277344,12.123404502868652,-1.911472201347351,-0.9549067954912605,-0.2968856650742521,0.0034516370074714154,0.24312461751606293,3.0,0
57.503265380859375,12.935076713562012,-2.034700393676758,-0.0,-0.0,-1.0,0.0669233921731066,1.0,0
57.548831939697266,12.945649147033691,-2.0871801376342773,-0.0,-0.0,-1.0,0.07510252809460145,2.0,0
56.476261138916016,12.883308410644531,-1.7618937492370605,-0.6098465649050763,-0.16440386071133575,-0.7752796513882501,0.07888401030395127,3.0,0
55.43433380126953,12.144170761108398,-1.960748314857483,-0.0,-0.0,-1.0,0.15833010166359243,2.0,0
55.478851318359375,11.951216697692871,-2.0001115798950195,-0.0,-0.0,-1.0,0.21514310395834588,1.0,0
55.503501892089844,11.859122276306152,-1.8508793115615845,-0.0,-0.0,-1.0,0.22446585609598474,2.0,0
55.411293029785156,11.886693954467773,-1.7893428802490234,-0.0,-0.0,-1.0,0.160513353886664,1.0,0
55.505218505859375,11.98204517364502,-1.8139677047729492,-0.09797270973298458,-0.9945214857102673,-0.03644670915485644,0.12866070402379184,4.0,0
56.308074951171875,12.369041442871094,-1.9775035381317139,-0.0,-0.0,-1.0,0.11402182404654733,1.0,0
55.49414825439453,11.914392471313477,-1.892822027206421,-0.8916796106379427,0.24408662042872623,-0.3812206627404264,0.23603302999866677,3.0,0
55.21608352661133,10.657276153564453,-1.965134620666504,-0.0,-0.0,-1.0,0.11084407278597251,1.0,0
55.453651428222656,11.942024230957031,-1.8476779460906982,-0.0,-0.0,-1.0,0.17825290327375862,2.0,0
55.51362991333008,12.11357307434082,-1.8282346725463867,-0.0,-0.0,-1.0,0.1655081364637548,1.0,0
56.09894561767578,12.813085556030273,-2.280862331390381,-0.0,-0.0,-1.0,0.04823205965181043,1.0,0
55.571285247802734,12.293733596801758,-2.2439184188842773,-0.0,-0.0,-1.0,0.15340624491855734,1.0,0
56.170433044433594,12.840517044067383,-2.2339320182800293,-0.0,-0.0,-1.0,0.05989556475764226,2.0,0
56.25265121459961,11.67064094543457,-1.9823522567749023,-0.0,-0.0,-1.0,0.02489392228848446,1.0,0
55.56236267089844,12.100143432617188,-1.9191107749938965,-0.7588965134113524,0.18532487666052622,0.6242842077314255,0.23087148217270462,3.0,0
55.622920989990234,12.263385772705078,-1.9242472648620605,-0.0,-0.0,-1.0,0.14543956139995723,1.0,0
55.8663330078125,11.9954833984375,-2.144412040710449,-0.0,-0.0,-1.0,0.08286941903935875,1.0,0
56.12771987915039,12.266185760498047,-2.167412757873535,-0.0,-0.0,-1.0,0.1287028849106172,1.0,0
56.03242111206055,11.306289672851562,-1.7806816101074219,-0.0,-0.0,-1.0,0.06572098395281685,1.0,0
56.92286682128906,12.151556015014648,-1.8213777542114258,-0.0,-0.0,-1.0,0.08658724374713643,1.0,0
55.877193450927734,12.264226913452148,-1.736351490020752,-0.0,-0.0,-1.0,0.08220002547642999,1.0,0
56.94511795043945,12.533966064453125,-1.8105816841125488,-0.0,-0.0,-1.0,0.1329962850158825,1.0,0
55.85695266723633,12.457254409790039,-1.7283496856689453,-0.0,-0.0,-1.0,0.04584969104136571,1.0,0
55.873294830322266,11.688709259033203,-2.1598963737487793,-0.0,-0.0,-1.0,0.07833416339964323,1.0,0
55.900856018066406,11.867208480834961,-2.165511131286621,-0.0,-0.0,-1.0,0.08413208650470988,1.0,0
55.98518371582031,12.008712768554688,-2.176888942718506,-0.0,-0.0,-1.0,0.01601693455934399,1.0,0
55.61530303955078,12.364839553833008,-2.141408920288086,-0.0,-0.0,-1.0,0.1249201773997667,1.0,0
56.2490348815918,12.647729873657227,-2.2159042358398438,-0.0,-0.0,-1.0,0.14217699709247553,1.0,0
56.325740814208984,12.421926498413086,-2.2208261489868164,-0.0,-0.0,-1.0,0.21524501761071743,1.0,0
56.34175491333008,12.78569221496582,-2.2284045219421387,-0.0,-0.0,-1.0,0.14844420286672927,1.0,0
55.381534576416016,11.872745513916016,-1.931434154510498,-0.0,-0.0,-1.0,0.18444129249619418,2.0,0
55.41577911376953,12.040313720703125,-1.9319586753845215,-0.0,-0.0,-1.0,0.14358433925474043,1.0,0
56.67862319946289,11.629861831665039,-2.0566906929016113,-0.0,-0.0,-1.0,0.02188805932345373,1.0,0
56.15827178955078,12.444217681884766,-1.995485782623291,-0.0,-0.0,-1.0,0.11259997453095497,1.0,0
56.62177276611328,11.85453987121582,-2.047895908355713,-0.7999431580128644,-0.07707775147771205,-0.5951050026470497,0.0580541715883345,3.0,0
57.64425277709961,12.304754257202148,-2.1376428604125977,-0.0,-0.0,-1.0,0.058463846902187123,1.0,0
57.514217376708984,12.945390701293945,-2.1166958808898926,-0.0,-0.0,-1.0,0.06866510476455273,2.0,0
55.61943817138672,12.642744064331055,-2.2858827114105225,-0.0,-0.0,-1.0,0.07889268573982922,2.0,0
55.59560775756836,12.481962203979492,-2.2857511043548584,-0.0,-0.0,-1.0,0.06905534761709256,1.0,0
55.73456954956055,12.765457153320312,-2.296313524246216,-0.0,-0.0,-1.0,0.03430193402319455,2.0,0
55.6412353515625,12.807023048400879,-2.3258841037750244,-0.0,-0.0,-1.0,0.05369784432969061,2.0,0
55.605743408203125,12.114803314208984,-1.7496941089630127,-0.0,-0.0,-1.0,0.11539099605089001,1.0,0
56.39806365966797,12.865533828735352,-1.8382837772369385,-0.0,-0.0,-1.0,0.0879809438984976,1.0,0
55.32642364501953,11.014642715454102,-1.9231078624725342,-0.0,-0.0,-1.0,0.07286697350621509,1.0,0
55.551387786865234,12.285418510437012,-1.9606058597564697,-0.0,-0.0,-1.0,0.13934027756778689,1.0,0
55.481536865234375,12.156993865966797,-1.9513943195343018,0.10814334954196009,0.29454054109985434,-0.9495003347016001,0.1576747497907028,3.0,0
56.65077209472656,12.349318504333496,-2.085705518722534,-0.0,-0.0,-1.0,0.12225837336497267,1.0,0
56.902339935302734,12.652839660644531,-2.1175034046173096,-0.0,-0.0,-1.0,0.12236861536755038,1.0,0
56.92355728149414,12.349287986755371,-2.116560697555542,-0.0,-0.0,-1.0,0.19376560498050066,1.0,0
55.58537292480469,12.204657554626465,-1.6992976665496826,-0.0,-0.0,-1.0,0.08455896140654308,1.0,0
55.29249572753906,11.827537536621094,-2.149933338165283,-0.0,-0.0,-1.0,0.15587340217293702,1.0,0
55.31282043457031,11.679201126098633,-2.147977828979492,-0.0,-0.0,-1.0,0.18039812974648414,1.0,0
55.633033752441406,10.856558799743652,-2.163540840148926,-0.0,-0.0,-1.0,0.07722195342963943,1.0,0
55.81880187988281,11.026411056518555,-2.191725730895996,-0.0,-0.0,-1.0,0.04803313336860897,1.0,0
55.645240783691406,13.129631996154785,-2.234891891479492,-0.0,-0.0,-1.0,0.03957827134142224,1.0,0
56.048011779785156,12.64976978302002,-2.270059108734131,-0.0,-0.0,-1.0,0.061497775380916685,1.0,0
56.53289031982422,12.144940376281738,-2.3149547576904297,-0.0,-0.0,-1.0,0.09315722177424755,1.0,0
56.63746643066406,12.338114738464355,-2.3340954780578613,-0.0,-0.0,-1.0,0.11094874815504746,1.0,0
55.416351318359375,11.946449279785156,-1.874941110610962,0.12489847517812343,-0.9380738559739715,-0.32313745006777567,0.24583666446046715,3.0,0
55.45860290527344,12.074639320373535,-1.8855903148651123,-0.8177391003377833,0.023349912419889072,-0.5751152452932677,0.16796198737501677,3.0,0
56.31480407714844,12.483512878417969,-2.0064857006073,-0.0,-0.0,-1.0,0.13081161268607222,2.0,0
56.312957763671875,12.269363403320312,-1.996809720993042,-0.0,-0.0,-1.0,0.13876524517884992,1.0,0
57.157196044921875,11.914630889892578,-2.082728624343872,-0.0,-0.0,-1.0,0.07984009914358761,1.0,0
56.518035888671875,11.961631774902344,-2.0040838718414307,-0.0,-0.0,-1.0,0.057995071115739545,1.0,0
57.03737258911133,11.44340705871582,-2.0423223972320557,-0.0,-0.0,-1.0,0.029703107828859723,1.0,0
56.38303756713867,12.393707275390625,-2.008619546890259,-0.0,-0.0,-1.0,0.2351038543067284,2.0,0
56.39417266845703,12.187237739562988,-1.9999401569366455,-0.0,-0.0,-1.0,0.11693641673956119,1.0,0
57.45899963378906,12.919035911560059,-2.1653501987457275,-0.0,-0.0,-1.0,0.04942763481679837,2.0,0
55.443233489990234,11.999786376953125,-1.875359296798706,-0.7495696137943851,0.16714298750942502,-0.6404753046000763,0.2203216226016669,4.0,0
55.494415283203125,11.857271194458008,-1.8747460842132568,-0.0,-0.0,-1.0,0.19795473916150616,2.0,0
57.421112060546875,11.011247634887695,-1.9837589263916016,-0.0,-0.0,-1.0,0.12099727996699558,1.0,0
57.460548400878906,12.04890251159668,-2.057077407836914,-0.0,-0.0,-1.0,0.10171329165015393,1.0,0
57.592506408691406,13.065652847290039,-2.143491268157959,-0.0,-0.0,-1.0,0.06866510476455258,1.0,0
55.52924346923828,11.992267608642578,-1.8037357330322266,0.49890813008887525,-0.7651164486949587,-0.4070472916844394,0.1255329888764391,3.0,0
55.569053649902344,12.171952247619629,-1.8208122253417969,-0.0,-0.0,-1.0,0.16881605687941986,1.0,0
56.37300109863281,12.505518913269043,-1.947190761566162,-0.0,-0.0,-1.0,0.12907172798428246,2.0,0
55.64501190185547,11.665281295776367,-2.2259647846221924,-0.0,-0.0,-1.0,0.1589737656399858,1.0,0
55.41828155517578,11.96689224243164,-2.2036664485931396,-0.0,-0.0,-1.0,0.1785815923866345,1.0,0
55.87921905517578,12.726630210876465,-2.311769723892212,-0.0,-0.0,-1.0,0.03211357861077427,1.0,0
55.51313018798828,12.003543853759766,-2.2139503955841064,-0.0,-0.0,-1.0,0.14877531805316965,1.0,0
55.63701248168945,12.671418190002441,-2.2644479274749756,-0.0,-0.0,-1.0,0.0877707946954563,2.0,0
55.828369140625,12.804656982421875,-2.301887273788452,-0.0,-0.0,-1.0,0.035064135362254514,1.0,0
55.987823486328125,11.316505432128906,-2.099663019180298,-0.0,-0.0,-1.0,0.05757604464136615,1.0,0
56.161285400390625,11.496655464172363,-2.136650800704956,-0.0,-0.0,-1.0,0.05477542320972346,1.0,0
56.24336242675781,12.160863876342773,-2.182744264602661,-0.0,-0.0,-1.0,0.1117571966307834,1.0,0
56.03464126586914,12.295843124389648,-2.155207872390747,-0.0,-0.0,-1.0,0.10446235096483623,1.0,0
56.418060302734375,12.451314926147461,-2.226392984390259,-0.0,-0.0,-1.0,0.18111961768894363,1.0,0
56.221702575683594,12.894659996032715,-2.217315912246704,-0.0,-0.0,-1.0,0.07075670291373892,1.0,0
56.52586364746094,12.699427604675293,-2.2571446895599365,-0.0,-0.0,-1.0,0.07698555754521928,1.0,0
55.659820556640625,10.909226417541504,-2.0272181034088135,-0.0,-0.0,-1.0,0.07514470809502294,1.0,0
55.61430740356445,11.021591186523438,-2.024836301803589,-0.0,-0.0,-1.0,0.07613510613822558,2.0,0
55.73220443725586,11.151379585266113,-2.0500824451446533,-0.0,-0.0,-1.0,0.06949409908270164,1.0,0
55.44737243652344,11.976091384887695,-2.0425493717193604,-0.0,-0.0,-1.0,0.1185527131210505,2.0,0
55.49207305908203,13.08790397644043,-2.1072161197662354,-0.0,-0.0,-1.0,0.08427017725450361,1.0,0
55.45433044433594,11.959964752197266,-1.899497151374817,-0.6679677817244961,0.2515663447666908,-0.7003809083340168,0.23917544837936122,4.0,0
56.66268539428711,11.94613265991211,-2.0703301429748535,-0.0,-0.0,-1.0,0.12338195815453895,1.0,0
57.17589569091797,11.957496643066406,-2.143641948699951,-0.0,-0.0,-1.0,0.07457449360614762,1.0,0
57.28590393066406,12.03571891784668,-2.1624808311462402,-0.0,-0.0,-1.0,0.07929344906574129,1.0,0
56.35132598876953,12.377486228942871,-2.0439395904541016,-0.0,-0.0,-1.0,0.256251844573662,1.0,0
56.30274200439453,12.630249977111816,-2.0478057861328125,-0.0,-0.0,-1.0,0.16248744171478785,2.0,0
57.52172088623047,13.011133193969727,-2.238400936126709,-0.0,-0.0,-1.0,0.04315648852129207,1.0,0
57.54218292236328,12.987810134887695,-2.0288569927215576,0.5780573955984017,0.6298476959897933,-0.5187885188112222,0.06866510476455266,3.0,0
55.51521301269531,12.021879196166992,-1.7337357997894287,-0.7098029661121634,-0.209907014580644,-0.6723977948567474,0.10503910110703861,5.0,0
56.47893524169922,12.557491302490234,-1.8764393329620361,-0.0,-0.0,-1.0,0.06160815295770227,1.0,0
56.339080810546875,12.765827178955078,-1.867098093032837,-0.0,-0.0,-1.0,0.1126361895515993,1.0,0
55.5321044921875,12.044719696044922,-1.6342854499816895,-0.8160095138378278,-0.40659454459344035,0.4108641498512675,0.08979253476169685,3.0,0
56.481422424316406,12.596273422241211,-1.7876498699188232,-0.0,-0.0,-1.0,0.070292424904791,2.0,0
56.38156509399414,12.789466857910156,-1.7851903438568115,0.9618625305510647,0.028697292593212558,-0.27202378153338225,0.07196070425345386,3.0,0
55.647308349609375,11.489700317382812,-2.1774938106536865,-0.0,-0.0,-1.0,0.06961626301039589,1.0,0
55.601905822753906,11.839359283447266,-2.1852967739105225,-0.0,-0.0,-1.0,0.18241905279062853,1.0,0
55.37775421142578,12.048929214477539,-2.1590323448181152,-0.0,-0.0,-1.0,0.11445541450600079,2.0,0
55.80776596069336,12.6453218460083,-2.2548587322235107,-0.0,-0.0,-1.0,0.03161462134300448,1.0,0
55.928749084472656,12.795138359069824,-2.281334161758423,-0.0,-0.0,-1.0,0.02746051999484848,2.0,0
55.421722412109375,12.772844314575195,-2.268556833267212,-0.0,-0.0,-1.0,0.0992307228301882,1.0,0
55.50352478027344,12.839166641235352,-2.2853221893310547,-0.0,-0.0,-1.0,0.08968859449338172,1.0,0
56.540863037109375,12.639816284179688,-1.6139342784881592,-0.0,-0.0,-1.0,0.07392710407602957,1.0,0
56.75285339355469,11.895940780639648,-2.0096211433410645,-0.0,-0.0,-1.0,0.046891849852290356,2.0,0
57.5583610534668,11.949288368225098,-2.13870906829834,-0.0,-0.0,-1.0,0.09943959621254457,1.0,0
55.47843551635742,11.996660232543945,-1.8131189346313477,-0.5656274795989784,-0.8234366166397384,-0.04491873439231957,0.16339179472523377,4.0,0
56.273765563964844,12.552507400512695,-1.9615225791931152,-0.0,-0.0,-1.0,0.17802319374699485,2.0,0
56.376731872558594,12.651214599609375,-1.9821107387542725,-0.0,-0.0,-1.0,0.16622142180895016,1.0,0
57.4139518737793,10.953777313232422,-2.141335964202881,-0.0,-0.0,-1.0,0.1210660826959568,1.0,0
56.99115753173828,11.449735641479492,-2.0894694328308105,-0.0,-0.0,-1.0,0.018150668464790493,1.0,0
55.550865173339844,11.975210189819336,-1.8690892457962036,-0.0,-0.0,-1.0,0.19938173076401988,2.0,0
56.47956085205078,12.136373519897461,-2.031473159790039,-0.0,-0.0,-1.0,0.1764143221705154,2.0,0
56.5704345703125,11.930686950683594,-2.0381879806518555,-0.0,-0.0,-1.0,0.05975683753489619,1.0,0
56.45878982543945,12.36814022064209,-2.037899971008301,-0.0,-0.0,-1.0,0.25561638313961627,1.0,0
56.71993637084961,12.382471084594727,-2.082448959350586,-0.0,-0.0,-1.0,0.16322510062052942,1.0,0
57.09558868408203,12.518813133239746,-2.1517062187194824,-0.0,-0.0,-1.0,0.09697812022072679,2.0,0
57.67243957519531,11.820212364196777,-2.0768604278564453,-0.0,-0.0,-1.0,0.09551294245468421,2.0,0
55.47404098510742,12.021294593811035,-1.7094192504882812,0.1886794042784685,-0.9372827029375185,0.29308909426190205,0.09411670653858545,4.0,0
56.39849853515625,12.519142150878906,-1.8870604038238525,-0.0,-0.0,-1.0,0.10941943455109565,1.0,0
56.33087921142578,12.708765983581543,-1.8835747241973877,-0.0,-0.0,-1.0,0.11268082329847329,2.0,0
56.591941833496094,13.083918571472168,-1.9454030990600586,-0.0,-0.0,-1.0,0.10799449281174714,1.0,0
55.66287612915039,10.979247093200684,-2.0988399982452393,-0.0,-0.0,-1.0,0.07500771129617541,1.0,0
55.81874084472656,11.254228591918945,-2.1329922676086426,-0.0,-0.0,-1.0,0.02613282579931223,1.0,0
56.041107177734375,11.445049285888672,-2.179677963256836,-0.0,-0.0,-1.0,0.05492955289528485,1.0,0
56.03615188598633,11.682096481323242,-2.182976722717285,-0.0,-0.0,-1.0,0.012505681625878793,1.0,0
56.22380828857422,12.237863540649414,-2.232518434524536,-0.0,-0.0,-1.0,0.17788133866860348,1.0,0
56.26471710205078,12.4448823928833,-2.24615478515625,-0.0,-0.0,-1.0,0.23584635962591352,1.0,0
56.029029846191406,13.005060195922852,-2.21563720703125,-0.0,-0.0,-1.0,0.05977605209588962,1.0,0
56.166873931884766,12.860920906066895,-2.2387454509735107,-0.0,-0.0,-1.0,0.05989556475764222,2.0,0
55.28358840942383,10.894302368164062,-2.0239131450653076,-0.0,-0.0,-1.0,0.10541681468385687,1.0,0
55.46150207519531,11.890582084655762,-2.0734124183654785,-0.0,-0.0,-1.0,0.16908097541607411,1.0,0
55.47398376464844,12.147330284118652,-2.081390142440796,-0.0,-0.0,-1.0,0.10266218122686512,2.0,0
55.58525466918945,12.314502716064453,-2.1073458194732666,-0.0,-0.0,-1.0,0.11597708884834243,1.0,0
55.362022399902344,11.773754119873047,-2.2205464839935303,-0.0,-0.0,-1.0,0.2200098480365311,1.0,0
55.33289337158203,12.083751678466797,-2.2188732624053955,-0.0,-0.0,-1.0,0.0953067666017781,1.0,0
55.59315490722656,12.595921516418457,-2.2865068912506104,-0.0,-0.0,-1.0,0.07008209128725723,1.0,0
55.28056335449219,13.024715423583984,-2.2281334400177,-0.0,-0.0,-1.0,0.08458709996922217,1.0,0
55.68262481689453,12.792146682739258,-2.3111090660095215,-0.0,-0.0,-1.0,0.053578693030497386,2.0,0
57.116241455078125,10.80242919921875,-1.9014692306518555,-0.0,-0.0,-1.0,0.12242525918981896,1.0,0
57.32416534423828,11.777861595153809,-1.9617211818695068,-0.0,-0.0,-1.0,0.08861679236078807,1.0,0
56.3748779296875,12.654759407043457,-1.8117504119873047,-0.0,-0.0,-1.0,0.07786608800303256,1.0,0
56.42710876464844,12.80383014678955,-1.826378583908081,-0.0,-0.0,-1.0,0.07585519487254977,1.0,0
57.59764099121094,12.944818496704102,-2.0493717193603516,-0.0,-0.0,-1.0,0.0751025280946015,1.0,0
55.538307189941406,12.027463912963867,-1.639042854309082,-0.8160095138378278,-0.40659454459344035,0.4108641498512675,0.08979253476169684,3.0,0
55.60959243774414,11.256534576416016,-2.1640734672546387,-0.0,-0.0,-1.0,0.048770858073124965,1.0,0
55.75056457519531,11.77819538116455,-2.20314621925354,-0.0,-0.0,-1.0,0.15211769151232804,1.0,0
56.038475036621094,12.751139640808105,-2.291137933731079,-0.0,-0.0,-1.0,0.04342270414383314,2.0,0
55.337249755859375,11.017772674560547,-2.1007792949676514,-0.0,-0.0,-1.0,0.08952311395330084,1.0,0
55.549522399902344,11.190155029296875,-2.1498734951019287,-0.0,-0.0,-1.0,0.059995073390409756,1.0,0
55.731971740722656,11.723917007446289,-2.1980273723602295,-0.0,-0.0,-1.0,0.1559558264974705,1.0,0
55.63884735107422,11.986993789672852,-2.181575059890747,-0.0,-0.0,-1.0,0.2380351018744908,1.0,0
55.79764938354492,12.121267318725586,-2.2203423976898193,-0.0,-0.0,-1.0,0.1229810973094199,1.0,0
55.859893798828125,12.515698432922363,-2.243734836578369,-0.0,-0.0,-1.0,0.031029576631075487,1.0,0
55.905670166015625,12.814702033996582,-2.2625114917755127,-0.0,-0.0,-1.0,0.03001902139407267,2.0,0
57.565155029296875,12.991670608520508,-1.9985735416412354,-0.33018631732806536,0.934737641957315,0.131310839451312,0.06692339217310651,3.0,0
55.55716323852539,12.048186302185059,-1.5770623683929443,-0.0,-0.0,-1.0,0.06830473467766014,1.0,0
56.528541564941406,12.580769538879395,-1.7814183235168457,-0.0,-0.0,-1.0,0.07029242490479098,2.0,0
56.58277893066406,12.629613876342773,-1.7936580181121826,-0.0,-0.0,-1.0,0.07117171059915223,1.0,0
56.43077850341797,12.800224304199219,-1.7703025341033936,-0.0,-0.0,-1.0,0.08410550116233868,1.0,0
55.33518981933594,10.833335876464844,-1.9293479919433594,0.9052325581491957,-0.41333241753469624,0.09854099797336291,0.11084407278597248,5.0,0
55.760196685791016,10.960020065307617,-2.024949550628662,-0.0,-0.0,-1.0,0.07424154626584997,1.0,0
55.88313674926758,11.18661880493164,-2.052854299545288,-0.0,-0.0,-1.0,0.07073708954799726,1.0,0
56.097408294677734,11.376548767089844,-2.102369785308838,-0.0,-0.0,-1.0,0.061624375332208076,1.0,0
55.4946403503418,11.876310348510742,-1.9678099155426025,-0.0,-0.0,-1.0,0.19639017315276833,2.0,0
55.49971389770508,12.039684295654297,-1.970550298690796,-0.0,-0.0,-1.0,0.1629977235879733,2.0,0
56.322322845458984,12.17422103881836,-2.1618573665618896,-0.0,-0.0,-1.0,0.1285432497692797,1.0,0
56.398624420166016,11.978229522705078,-2.176720142364502,-0.0,-0.0,-1.0,0.09292461224774907,1.0,0
56.060325622558594,12.41258716583252,-2.10498309135437,-0.11468037919468983,-0.8606305018300873,-0.49614871757110696,0.14121385642704912,3.0,0
56.66742706298828,12.51916217803955,-2.2478044033050537,-0.0,-0.0,-1.0,0.10053051771462074,2.0,0
55.958595275878906,13.104349136352539,-2.0957274436950684,-0.0,-0.0,-1.0,0.06379044454022735,2.0,0
56.20131301879883,12.968477249145508,-2.1490559577941895,-0.0,-0.0,-1.0,0.07471651554930561,1.0,0
56.76737594604492,12.87231731414795,-2.2789580821990967,-0.0,-0.0,-1.0,0.06146622880147145,1.0,0
57.273529052734375,10.910528182983398,-1.7474627494812012,-0.0,-0.0,-1.0,0.12444741031049596,2.0,0
57.4344482421875,11.732295989990234,-1.7936861515045166,-0.0,-0.0,-1.0,0.08812630042501464,2.0,0
56.50303268432617,12.681632041931152,-1.6349332332611084,-0.0,-0.0,-1.0,0.07785374241199884,2.0,0
55.43971252441406,10.691532135009766,-1.9070481061935425,-0.0,-0.0,-1.0,0.10048772091170075,2.0,0
55.55263137817383,10.863513946533203,-1.9319041967391968,-0.0,-0.0,-1.0,0.09423128204429779,1.0,0
56.02322006225586,10.960103988647461,-2.042492389678955,-0.0,-0.0,-1.0,0.059693354057081614,1.0,0
56.09295654296875,11.256658554077148,-2.057981014251709,-0.0,-0.0,-1.0,0.06055637183596129,2.0,0
56.309085845947266,11.414175033569336,-2.1095829010009766,-0.0,-0.0,-1.0,0.0515177381455594,1.0,0
56.45025634765625,11.9346342086792,-2.145866870880127,-0.0,-0.0,-1.0,0.07955823507246322,1.0,0
56.165077209472656,12.335623741149902,-2.0808653831481934,-0.0,-0.0,-1.0,0.1565894534865437,1.0,0
56.33409118652344,12.129368782043457,-2.1195626258850098,-0.0,-0.0,-1.0,0.07013451899621563,1.0,0
56.755897521972656,12.254673957824707,-2.223170280456543,-0.0,-0.0,-1.0,0.10626549211044904,1.0,0
56.35139083862305,12.447884559631348,-2.127530574798584,-0.0,-0.0,-1.0,0.21377266252839117,1.0,0
56.805458068847656,12.544044494628906,-2.2395262718200684,-0.0,-0.0,-1.0,0.08786387802472623,1.0,0
56.172607421875,12.966276168823242,-2.092698574066162,-0.0,-0.0,-1.0,0.08352152195698767,1.0,0
56.286346435546875,12.85708999633789,-2.118372917175293,-0.0,-0.0,-1.0,0.11722211119477279,2.0,0
56.902435302734375,13.036766052246094,-2.2729063034057617,-0.0,-0.0,-1.0,0.05057027928366337,1.0,0
57.30490493774414,10.925413131713867,-1.7587255239486694,-0.0,-0.0,-1.0,0.11941946650157344,2.0,0
55.51066207885742,11.932821273803711,-1.91964852809906,0.11340841011654824,-0.9030441968952063,-0.4143063009039661,0.17867044680211855,4.0,0
55.552947998046875,12.100763320922852,-1.9307395219802856,-0.7588965134113524,0.18532487666052622,0.6242842077314255,0.2522953523553105,3.0,0
56.89244079589844,10.757814407348633,-2.1053028106689453,-0.0,-0.0,-1.0,0.12242525918981889,1.0,0
56.914451599121094,10.860721588134766,-2.109870433807373,-0.0,-0.0,-1.0,0.1224252591898189,1.0,0
57.41755676269531,10.975210189819336,-2.231935739517212,-0.0,-0.0,-1.0,0.12106608269595687,1.0,0
55.43655014038086,11.819008827209473,-2.2317068576812744,-0.0,-0.0,-1.0,0.23454793982917926,1.0,0
55.38837432861328,12.132866859436035,-2.214707851409912,-0.0,-0.0,-1.0,0.15935722700954788,1.0,0
55.593841552734375,12.532930374145508,-2.2709219455718994,-0.0,-0.0,-1.0,0.07491851582805005,1.0,0
55.71397399902344,12.68771743774414,-2.3052446842193604,-0.0,-0.0,-1.0,0.03375754583593411,1.0,0
57.079620361328125,12.533642768859863,-2.1563334465026855,-0.0,-0.0,-1.0,0.11255903171193934,2.0,0
57.27118682861328,12.65402889251709,-2.206042528152466,-0.0,-0.0,-1.0,0.03538994240890133,1.0,0
55.440948486328125,13.088851928710938,-2.229100465774536,-0.0,-0.0,-1.0,0.08146246630028241,1.0,0
55.68318176269531,12.8933687210083,-2.297243356704712,-0.0,-0.0,-1.0,0.05013859778330339,1.0,0
57.576133728027344,12.764677047729492,-2.284420967102051,-0.0,-0.0,-1.0,0.07510252809460147,1.0,0
55.591346740722656,10.918306350708008,-1.7892825603485107,-0.0,-0.0,-1.0,0.07188313813362658,1.0,0
57.24677276611328,10.93521499633789,-1.638441562652588,-0.0,-0.0,-1.0,0.12444741031049596,1.0,0
55.526214599609375,11.970719337463379,-1.766944408416748,-0.92774922864365,0.35028191517337487,0.1287786808970537,0.10386086610883516,3.0,0
56.608482360839844,11.880144119262695,-2.0333471298217773,-0.7999431580128644,-0.07707775147771205,-0.5951050026470497,0.06082554963030734,3.0,0
55.575374603271484,12.075393676757812,-1.7791547775268555,-0.0,-0.0,-1.0,0.11471827077539437,1.0,0
56.42220687866211,12.321060180664062,-1.990039348602295,-0.0,-0.0,-1.0,0.18503745995170326,2.0,0
56.501426696777344,12.120511054992676,-2.0081677436828613,-0.0,-0.0,-1.0,0.13102601457495808,2.0,0
56.332210540771484,12.498355865478516,-1.969423532485962,-0.052674416767011234,-0.9182479931937542,0.3924869791647855,0.1293486377915438,3.0,0
56.45085144042969,12.641071319580078,-2.000704050064087,-0.0,-0.0,-1.0,0.2611049736969069,1.0,0
55.67002487182617,12.847787857055664,-2.3850042819976807,-0.0,-0.0,-1.0,0.05151888316767397,1.0,0
55.44383239746094,10.75926685333252,-1.9161527156829834,-0.0,-0.0,-1.0,0.11084407278597247,1.0,0
55.81896209716797,10.6962890625,-2.019784927368164,-0.0,-0.0,-1.0,0.05707519789795688,1.0,0
55.67076873779297,10.9156494140625,-1.9715921878814697,-0.0,-0.0,-1.0,0.0647920620242912,1.0,0
56.07834243774414,11.050253868103027,-2.0782759189605713,-0.0,-0.0,-1.0,0.058021409930538885,1.0,0
56.25600051879883,11.384847640991211,-2.1181387901306152,-0.0,-0.0,-1.0,0.05495407989093633,1.0,0
55.574180603027344,11.916160583496094,-1.9182868003845215,-0.0,-0.0,-1.0,0.17923476924810014,1.0,0
55.63218688964844,11.981473922729492,-1.9331903457641602,-0.0,-0.0,-1.0,0.16139961805105804,1.0,0
56.516845703125,11.95809555053711,-2.180330991744995,-0.0,-0.0,-1.0,0.0842554658291564,1.0,0
55.2454948425293,12.250582695007324,-2.2618680000305176,-0.0,-0.0,-1.0,0.12042298917851182,1.0,0
55.642635345458984,12.115579605102539,-1.9339022636413574,-0.0,-0.0,-1.0,0.183115435193376,2.0,0
56.306495666503906,12.265645980834961,-2.1180260181427,-0.0,-0.0,-1.0,0.17975828548794298,1.0,0
56.620174407958984,12.22805404663086,-2.206719398498535,-0.0,-0.0,-1.0,0.14011359265599604,1.0,0
56.999855041503906,12.37939739227295,-2.3129212856292725,-0.0,-0.0,-1.0,0.06777712034003555,1.0,0
55.491424560546875,12.721797943115234,-2.3297533988952637,-0.0,-0.0,-1.0,0.08252184953427968,1.0,0
56.39182662963867,12.867528915405273,-2.140063762664795,-0.0,-0.0,-1.0,0.20636726555783333,1.0,0
56.71702575683594,12.586936950683594,-2.2324793338775635,-0.0,-0.0,-1.0,0.10517973819186038,1.0,0
56.898155212402344,12.555649757385254,-2.2837460041046143,-0.0,-0.0,-1.0,0.08154853103667438,1.0,0
56.31752395629883,12.934171676635742,-2.119070053100586,-0.0,-0.0,-1.0,0.19828279752199038,1.0,0
57.04536437988281,13.029387474060059,-2.3274221420288086,-0.0,-0.0,-1.0,0.024084043389159895,1.0,0
57.38886260986328,10.985634803771973,-1.9164834022521973,-0.0,-0.0,-1.0,0.12099727996699548,1.0,0
55.56218719482422,12.075870513916016,-1.9121184349060059,-0.7588965134113524,0.18532487666052622,0.6242842077314255,0.23544061217969803,3.0,0
57.42292022705078,11.80374813079834,-1.9211935997009277,-0.0,-0.0,-1.0,0.08812630042501464,1.0,0
56.52970886230469,12.746408462524414,-1.705822467803955,-0.0,-0.0,-1.0,0.08198249177274354,1.0,0
57.605125427246094,13.002764701843262,-1.9770398139953613,-0.0,-0.0,-1.0,0.0789645883398977,2.0,0
56.66835021972656,12.406129837036133,-2.258965015411377,-0.0,-0.0,-1.0,0.11091468750031351,1.0,0
56.65013122558594,12.542435646057129,-2.2500929832458496,-0.0,-0.0,-1.0,0.11944131044240573,2.0,0
56.745567321777344,12.686635971069336,-2.277073860168457,-0.0,-0.0,-1.0,0.07043752283178785,1.0,0
56.80003356933594,13.009390830993652,-2.2889528274536133,-0.0,-0.0,-1.0,0.05305006998915533,1.0,0
55.2516975402832,10.711819648742676,-1.9152640104293823,-0.0,-0.0,-1.0,0.1108440727859725,2.0,0
55.60857009887695,10.86294174194336,-2.008641242980957,-0.0,-0.0,-1.0,0.08560958999984293,1.0,0
57.00398254394531,10.663408279418945,-1.946468710899353,-0.0,-0.0,-1.0,0.12242525918981896,1.0,0
57.124107360839844,10.853962898254395,-1.9707976579666138,-0.0,-0.0,-1.0,0.12256308360866157,1.0,0
55.772727966308594,11.065326690673828,-2.0444068908691406,-0.0,-0.0,-1.0,0.07523627723501766,1.0,0
55.97691345214844,11.265207290649414,-2.0936732292175293,-0.0,-0.0,-1.0,0.059979591417702684,1.0,0
57.3072395324707,10.925243377685547,-2.016727924346924,-0.0,-0.0,-1.0,0.11941946650157337,1.0,0
56.08827590942383,11.441610336303711,-2.117934226989746,-0.0,-0.0,-1.0,0.054929552895284874,1.0,0
57.413673400878906,11.65619945526123,-2.0246667861938477,-0.0,-0.0,-1.0,0.08861679236078807,1.0,0
55.47052001953125,12.005338668823242,-1.9061394929885864,-0.7867920893756346,0.11331401751395717,-0.606727402983226,0.21173708430571436,4.0,0
55.50653076171875,11.91581916809082,-1.920871376991272,0.11340841011654824,-0.9030441968952063,-0.4143063009039661,0.23634894915350496,4.0,0
56.29670715332031,12.102100372314453,-2.1536288261413574,-0.0,-0.0,-1.0,0.10987753085046859,1.0,0
56.349151611328125,11.930387496948242,-2.1757969856262207,-0.0,-0.0,-1.0,0.08300205694960078,2.0,0
57.24900436401367,11.769793510437012,-1.9777127504348755,-0.0,-0.0,-1.0,0.0782113398318816,1.0,0
56.191226959228516,12.257749557495117,-2.1162362098693848,-0.0,-0.0,-1.0,0.12939668874780771,1.0,0
56.445308685302734,12.336450576782227,-2.1921048164367676,-0.0,-0.0,-1.0,0.24087543009104836,1.0,0
57.46737289428711,12.29934024810791,-2.0285186767578125,-0.0,-0.0,-1.0,0.09936508182067033,1.0,0
56.21897506713867,12.876203536987305,-2.109321117401123,-0.0,-0.0,-1.0,0.14764569864903765,1.0,0
56.64226150512695,12.722436904907227,-2.244020938873291,-0.0,-0.0,-1.0,0.07699002935072576,1.0,0
57.52051544189453,12.998922348022461,-2.039508819580078,-0.0,-0.0,-1.0,0.06866510476455266,2.0,0
56.44268035888672,12.727130889892578,-1.7431672811508179,0.41554806796164595,-0.7860987409634599,-0.4575681071370753,0.08177257576654261,4.0,0
57.215938568115234,10.885580062866211,-2.0637824535369873,-0.0,-0.0,-1.0,0.12444741031049598,1.0,0
57.21995162963867,10.953041076660156,-2.060960292816162,-0.0,-0.0,-1.0,0.12393551668791444,1.0,0
57.62611389160156,11.937799453735352,-2.135455846786499,-0.0,-0.0,-1.0,0.12017176599409407,1.0,0
57.10486602783203,10.917757034301758,-2.0297789573669434,-0.0,-0.0,-1.0,0.12188583880454999,1.0,0
57.2819709777832,11.609123229980469,-2.0461270809173584,-0.0,-0.0,-1.0,0.08861679236078805,1.0,0
57.2253303527832,11.80708122253418,-2.0210530757904053,-0.0,-0.0,-1.0,0.0782113398318816,2.0,0
56.45355987548828,12.749605178833008,-1.758467674255371,0.29906676564231177,-0.6316880025475032,-0.7152127915003986,0.0820243083388793,3.0,0
57.564308166503906,13.004419326782227,-2.091109275817871,-0.0,-0.0,-1.0,0.06866510476455266,2.0,0
57.07734680175781,10.760061264038086,-1.8328951597213745,-0.0,-0.0,-1.0,0.12242525918981893,1.0,0
57.302127838134766,10.897655487060547,-1.8755325078964233,-0.0,-0.0,-1.0,0.11941946650157344,1.0,0
57.451053619384766,11.704815864562988,-1.8291059732437134,0.47967458572641447,0.7878157257497546,-0.3863401015550685,0.08812630042501461,3.0,0
56.93292999267578,11.517379760742188,-1.9891998767852783,-0.0,-0.0,-1.0,0.01983149106578644,1.0,0
55.44143295288086,12.706103324890137,-2.0284743309020996,-0.0,-0.0,-1.0,0.09181275588692533,1.0,0
55.41987609863281,12.511242866516113,-2.014091968536377,-0.0,-0.0,-1.0,0.07328542603858172,1.0,0
56.53436279296875,13.06576156616211,-2.1485824584960938,-0.0,-0.0,-1.0,0.14751067169656434,1.0,0
55.50221252441406,12.086182594299316,-1.6882458925247192,-0.0,-0.0,-1.0,0.10585000351235384,1.0,0
56.384239196777344,12.8748779296875,-1.7908817529678345,-0.0,-0.0,-1.0,0.06730945405727409,1.0,0
57.50068664550781,11.837994575500488,-1.8435612916946411,-0.0,-0.0,-1.0,0.1190499205918814,1.0,0
55.48011016845703,12.287222862243652,-1.908573865890503,-0.0,-0.0,-1.0,0.16472598603038066,1.0,0
55.49223327636719,12.16297435760498,-1.9019513130187988,-0.9411620680963999,-0.3192070435605014,0.11099921133896436,0.25428594607073907,4.0,0
56.28662872314453,12.635995864868164,-2.0023105144500732,-0.0,-0.0,-1.0,0.18298326319236377,2.0,0
56.72447967529297,12.111527442932129,-2.0088083744049072,-0.0,-0.0,-1.0,0.12477292565268656,1.0,0
56.87847900390625,12.002351760864258,-2.015831708908081,-0.0,-0.0,-1.0,0.05470843592702579,1.0,0
57.681617736816406,12.550540924072266,-2.1214921474456787,-0.0,-0.0,-1.0,0.06842020930155646,1.0,0
56.52810287475586,12.674538612365723,-1.7716050148010254,-0.0,-0.0,-1.0,0.07219278506106182,1.0,0
56.384708404541016,12.82746410369873,-1.7700672149658203,-0.0,-0.0,-1.0,0.06730945405727405,2.0,0
55.494903564453125,11.936782836914062,-1.9451472759246826,-0.827854141878037,0.1625450959033877,0.5368767191573292,0.2339664170200056,3.0,0
56.635955810546875,11.873790740966797,-2.0694541931152344,-0.7999431580128644,-0.07707775147771205,-0.5951050026470497,0.05805417158833453,3.0,0
56.86610412597656,11.63991928100586,-2.0818533897399902,-0.0,-0.0,-1.0,0.020387840291491835,1.0,0
55.50216293334961,12.130393028259277,-1.9572968482971191,-0.7912468422107353,-0.6088949580142882,-0.05635037529882172,0.18790139394135177,4.0,0
56.74029541015625,12.438709259033203,-2.11427640914917,-0.0,-0.0,-1.0,0.14554107207949424,1.0,0
57.54418182373047,13.087172508239746,-2.2433817386627197,-0.0,-0.0,-1.0,0.04315648852129207,1.0,0
55.38483428955078,10.922160148620605,-1.8753230571746826,-0.0,-0.0,-1.0,0.1108440727859725,1.0,0
56.602989196777344,11.666519165039062,-2.0764822959899902,-0.0,-0.0,-1.0,0.038098412460359575,1.0,0
56.539146423339844,11.855260848999023,-2.077423572540283,-0.0,-0.0,-1.0,0.06418471510302085,1.0,0
56.59862518310547,12.48941421508789,-2.1136727333068848,-0.0,-0.0,-1.0,0.16278345160204277,1.0,0
56.80171585083008,12.362716674804688,-2.131584644317627,-0.0,-0.0,-1.0,0.19848494746272333,1.0,0
56.29838562011719,12.888678550720215,-2.0975136756896973,-0.0,-0.0,-1.0,0.10196321077056551,2.0,0
56.630035400390625,12.63864803314209,-2.1244239807128906,-0.0,-0.0,-1.0,0.18090580364468925,1.0,0
55.46004867553711,10.66992473602295,-1.899023175239563,-0.0,-0.0,-1.0,0.0891242978211552,2.0,0
55.34855651855469,10.891610145568848,-1.89517080783844,-0.0,-0.0,-1.0,0.1108440727859725,2.0,0
55.50996398925781,11.871759414672852,-1.9571348428726196,-0.0,-0.0,-1.0,0.2013995621921124,2.0,0
55.498191833496094,12.010202407836914,-1.962077021598816,-0.8238861921191439,0.19543316654923953,0.5319938156106276,0.17268597593054408,3.0,0
56.155372619628906,13.013944625854492,-2.086845874786377,-0.0,-0.0,-1.0,0.06963463188980129,1.0,0
55.970481872558594,13.13290023803711,-2.071016311645508,-0.0,-0.0,-1.0,0.06098098334418156,2.0,0
57.28501510620117,10.97459602355957,-1.6925965547561646,-0.0,-0.0,-1.0,0.1202004443567643,1.0,0
55.53840637207031,12.111778259277344,-1.596623420715332,-0.0,-0.0,-1.0,0.08181453458709244,1.0,0
57.544960021972656,11.759917259216309,-1.803748369216919,-0.0,-0.0,-1.0,0.10553078867143492,1.0,0
56.45549011230469,12.869302749633789,-1.7425849437713623,-0.6098465649050763,-0.16440386071133575,-0.7752796513882501,0.07888401030395129,3.0,0
55.32158660888672,10.852527618408203,-1.938171148300171,0.9052325581491957,-0.41333241753469624,0.09854099797336291,0.11084407278597248,5.0,0
56.279991149902344,11.578939437866211,-2.1064958572387695,-0.0,-0.0,-1.0,0.015069529332438351,1.0,0
55.44389724731445,11.996500015258789,-2.012986660003662,-0.03846069713424476,-0.8244445008895136,0.5646344301660929,0.11010587018225194,3.0,0
56.30771255493164,11.79228401184082,-2.1214380264282227,-0.0,-0.0,-1.0,0.03616746440067554,1.0,0
55.44148635864258,12.196972846984863,-2.023587226867676,-0.0,-0.0,-1.0,0.09536004848625329,1.0,0
56.78478240966797,12.64543628692627,-2.233814239501953,-0.0,-0.0,-1.0,0.082829169228943,1.0,0
56.154090881347656,13.069807052612305,-2.171618938446045,-0.0,-0.0,-1.0,0.06963463188980128,2.0,0
56.80753707885742,12.820225715637207,-2.246931791305542,-0.0,-0.0,-1.0,0.0632798075101011,1.0,0
55.268821716308594,10.730535507202148,-1.9249858856201172,-0.0,-0.0,-1.0,0.11084407278597248,2.0,0
56.36499786376953,11.642589569091797,-2.109665632247925,-0.0,-0.0,-1.0,0.02973746261527707,1.0,0
56.49485778808594,11.855886459350586,-2.1399331092834473,-0.0,-0.0,-1.0,0.07307914617079701,1.0,0
56.35375213623047,12.88493824005127,-2.179689407348633,-0.0,-0.0,-1.0,0.16615912615180273,1.0,0
57.013912200927734,12.811853408813477,-2.2692198753356934,-0.0,-0.0,-1.0,0.03451340488361289,1.0,0
56.22881317138672,13.029019355773926,-2.170766592025757,-0.0,-0.0,-1.0,0.08627313862501275,1.0,0
55.31550598144531,10.823400497436523,-1.9165351390838623,-0.24736721432366202,-0.5439616165927241,-0.8018199429744696,0.1108440727859725,3.0,0
55.65447998046875,10.649271965026855,-1.9564416408538818,-0.0,-0.0,-1.0,0.06697948064194541,1.0,0
55.45590591430664,12.10370922088623,-2.005527973175049,-0.0,-0.0,-1.0,0.11278865064872926,1.0,0
55.54474639892578,11.87662124633789,-2.00532603263855,-0.0,-0.0,-1.0,0.22061713228836877,1.0,0
56.08590316772461,12.414026260375977,-2.113391399383545,-0.11468037919468983,-0.8606305018300873,-0.49614871757110696,0.1412138564270491,3.0,0
57.54197692871094,13.006462097167969,-2.1044888496398926,-0.0,-0.0,-1.0,0.0686651047645526,2.0,0
55.47905349731445,12.00466537475586,-1.7710033655166626,0.38455544026321764,-0.9078840996041078,0.16692386003804616,0.12123079505862064,3.0,0
57.224937438964844,11.834890365600586,-2.009399890899658,-0.0,-0.0,-1.0,0.07449188578860692,2.0,0
56.2598991394043,12.583497047424316,-1.9057215452194214,-0.0,-0.0,-1.0,0.15094813277784977,1.0,0
56.35974884033203,12.59738826751709,-1.9203506708145142,-0.0,-0.0,-1.0,0.11931013267873011,2.0,0
55.57377624511719,12.85454273223877,-2.3227012157440186,-0.0,-0.0,-1.0,0.05806395723425654,1.0,0
55.52006530761719,12.920576095581055,-2.3178327083587646,-0.0,-0.0,-1.0,0.04651456789186047,1.0,0
55.36792755126953,12.29146957397461,-2.2522222995758057,-0.0,-0.0,-1.0,0.12161905814935876,1.0,0
55.22410202026367,13.13648796081543,-2.2818410396575928,-0.0,-0.0,-1.0,0.08458709996922215,1.0,0
56.44813537597656,12.72275161743164,-1.7097649574279785,-0.0,-0.0,-1.0,0.08524701597561242,2.0,0
57.247676849365234,10.855341911315918,-2.1222400665283203,-0.0,-0.0,-1.0,0.12444741031049592,1.0,0
56.94297790527344,11.513193130493164,-2.080352306365967,-0.0,-0.0,-1.0,0.01623880472288809,1.0,0
56.749752044677734,11.849334716796875,-2.05413818359375,-0.0,-0.0,-1.0,0.026289977002680306,1.0,0
56.86375427246094,11.756056785583496,-2.0711617469787598,-0.0,-0.0,-1.0,0.021810227349691326,1.0,0
57.53532409667969,12.959809303283691,-2.205646514892578,-0.0,-0.0,-1.0,0.04435922226241915,1.0,0
55.56711959838867,11.800281524658203,-1.8601640462875366,-0.0,-0.0,-1.0,0.22806321942288546,1.0,0
55.50200653076172,11.993576049804688,-1.8532625436782837,-0.8968038615180283,-0.4389693377436046,-0.0552155275922886,0.1717450146811926,4.0,0
56.38378143310547,12.296396255493164,-2.0031509399414062,-0.0,-0.0,-1.0,0.15464900040866073,2.0,0
56.24634552001953,12.521871566772461,-1.9858280420303345,-0.0,-0.0,-1.0,0.12454942772741837,2.0,0
56.357460021972656,12.433918952941895,-2.001883029937744,-0.0,-0.0,-1.0,0.1359040100607368,2.0,0
55.41283416748047,12.35771656036377,-2.269622802734375,-0.0,-0.0,-1.0,0.09555551488821296,1.0,0
55.26310729980469,13.090019226074219,-2.268594264984131,-0.0,-0.0,-1.0,0.08458709996922213,1.0,0
55.351768493652344,12.977296829223633,-2.280611991882324,-0.0,-0.0,-1.0,0.08458709996922216,1.0,0
57.40827941894531,11.7383451461792,-1.890754222869873,-0.0,-0.0,-1.0,0.0881263004250146,2.0,0
55.559043884277344,12.01177978515625,-1.6133792400360107,-0.8160095138378278,-0.40659454459344035,0.4108641498512675,0.09264160043815899,3.0,0
56.43141555786133,12.746824264526367,-1.7652711868286133,0.29906676564231177,-0.6316880025475032,-0.7152127915003986,0.07790275182418625,3.0,0
57.694618225097656,11.809697151184082,-2.0928611755371094,-0.0,-0.0,-1.0,0.0955129424546842,2.0,0
55.482460021972656,11.810256004333496,-1.733327865600586,-0.0,-0.0,-1.0,0.11674083561648131,1.0,0
55.53253936767578,11.979522705078125,-1.7453248500823975,-0.7639410010560845,-0.4554594674823436,0.4571113872855579,0.0944834428521639,4.0,0
57.25537109375,10.86371898651123,-2.006154775619507,-0.0,-0.0,-1.0,0.12444741031049596,1.0,0
56.412086486816406,12.571535110473633,-1.9024946689605713,-0.0,-0.0,-1.0,0.07616047778266538,1.0,0
56.523521423339844,12.409856796264648,-1.9162302017211914,-0.0,-0.0,-1.0,0.13994608941295159,1.0,0
56.51298522949219,10.726495742797852,-1.9017446041107178,-0.0,-0.0,-1.0,0.024373657348591975,1.0,0
56.400569915771484,10.771150588989258,-1.89601731300354,-0.0,-0.0,-1.0,0.03248969734631173,1.0,0
55.558319091796875,11.97653579711914,-1.7070494890213013,-0.0,-0.0,-1.0,0.08166934152655983,2.0,0
56.484107971191406,12.0812406539917,-1.8674159049987793,-0.0,-0.0,-1.0,0.05395712025506854,1.0,0
56.351051330566406,12.263020515441895,-1.8765017986297607,-0.0,-0.0,-1.0,0.10812013112399502,1.0,0
56.52247619628906,11.701164245605469,-2.151453971862793,-0.0,-0.0,-1.0,0.04869066015055039,2.0,0
56.41167449951172,11.885509490966797,-2.159609317779541,-0.0,-0.0,-1.0,0.0855444568138648,1.0,0
56.34654235839844,12.911369323730469,-2.250241279602051,-0.0,-0.0,-1.0,0.08051479205248978,1.0,0
56.04454040527344,13.133487701416016,-2.2484560012817383,-0.0,-0.0,-1.0,0.06600109934374433,1.0,0
57.416847229003906,11.71218490600586,-1.8565493822097778,0.3489090540151388,-0.7001815060198318,-0.6229031470895465,0.0886167923607881,3.0,0
56.30908966064453,12.702923774719238,-1.8515900373458862,-0.0,-0.0,-1.0,0.08640370973851445,2.0,0
55.498558044433594,12.018842697143555,-1.7388283014297485,0.1807208706889669,-0.9415319100274006,0.28435475958312384,0.11478569184839041,5.0,0
56.3763542175293,12.75030517578125,-1.8077471256256104,-0.0,-0.0,-1.0,0.05993445899117754,2.0,0
56.067726135253906,11.106547355651855,-1.9707598686218262,-0.0,-0.0,-1.0,0.06055809058856556,1.0,0
55.446311950683594,12.03880500793457,-1.8695690631866455,-0.9062383225243592,0.1311421616076797,-0.4019127221637811,0.17980949170051774,3.0,0
55.2607536315918,10.825789451599121,-1.8878579139709473,-0.0,-0.0,-1.0,0.11084407278597248,1.0,0
56.51438903808594,12.005952835083008,-2.1029977798461914,-0.0,-0.0,-1.0,0.13715692743002497,1.0,0
55.47111511230469,12.003151893615723,-2.001420021057129,0.23130509122639625,-0.9727635135413811,0.015136099080531982,0.11223200643958672,3.0,0
56.512603759765625,12.655527114868164,-1.8350390195846558,-0.0,-0.0,-1.0,0.07492857549223195,1.0,0
56.300079345703125,12.838312149047852,-1.8296133279800415,-0.0,-0.0,-1.0,0.0702459444604375,1.0,0
55.49152755737305,12.028719902038574,-1.7020055055618286,0.1886794042784685,-0.9372827029375185,0.29308909426190205,0.08755801973704591,4.0,0
56.497982025146484,12.699122428894043,-1.6514997482299805,-0.0,-0.0,-1.0,0.08198249177274355,2.0,0
55.93668746948242,12.337701797485352,-2.2235498428344727,-0.0,-0.0,-1.0,0.06140097507192594,1.0,0
56.01216125488281,12.942645072937012,-2.2667675018310547,-0.0,-0.0,-1.0,0.058085893743947854,1.0,0
55.58915328979492,12.202286720275879,-2.178194046020508,-0.0,-0.0,-1.0,0.22654560274404537,1.0,0
55.863807678222656,12.439990997314453,-2.2214713096618652,-0.0,-0.0,-1.0,0.03515347272871366,1.0,0
55.806884765625,13.084715843200684,-2.252986431121826,-0.0,-0.0,-1.0,0.05065713530811445,1.0,0
55.39856719970703,12.030431747436523,-2.1478934288024902,-0.0,-0.0,-1.0,0.14616249015263955,2.0,0
56.047332763671875,12.749817848205566,-2.292407274246216,-0.0,-0.0,-1.0,0.04520564508711506,2.0,0
55.95703887939453,12.851892471313477,-2.2879438400268555,-0.0,-0.0,-1.0,0.04181794407688404,1.0,0
55.676429748535156,12.935688018798828,-2.261411190032959,-0.0,-0.0,-1.0,0.05392793654534133,1.0,0
55.900630950927734,12.9253511428833,-2.2583742141723633,-0.0,-0.0,-1.0,0.05628171996749709,1.0,0
55.91031265258789,13.038289070129395,-2.255812168121338,-0.0,-0.0,-1.0,0.05680740555438773,1.0,0
55.81528854370117,12.819109916687012,-2.2527871131896973,-0.0,-0.0,-1.0,0.03506413536225451,1.0,0
55.5162239074707,12.496763229370117,-2.2114601135253906,-0.0,-0.0,-1.0,0.08697811726968056,1.0,0
55.58418655395508,12.712621688842773,-2.2316153049468994,-0.0,-0.0,-1.0,0.11988752346798026,1.0,0
56.2308349609375,12.115771293640137,-2.2479026317596436,-0.0,-0.0,-1.0,0.10000658381940519,1.0,0
55.618133544921875,12.320756912231445,-1.5219385623931885,-0.0,-0.0,-1.0,0.11084608487343518,1.0,0
56.50179672241211,13.02033519744873,-1.6245191097259521,-0.0,-0.0,-1.0,0.16254013587154986,1.0,0
55.49708557128906,12.152769088745117,-1.8563348054885864,-0.20505725997735486,-0.9595606990709726,-0.1928594953042386,0.20647318439436294,3.0,0
56.29026794433594,12.63447093963623,-1.9391266107559204,-0.0,-0.0,-1.0,0.1303044568133634,1.0,0
57.68939971923828,12.418848037719727,-2.040607452392578,-0.0,-0.0,-1.0,0.050486649519828786,1.0,0
55.458248138427734,12.115450859069824,-2.0877723693847656,-0.0,-0.0,-1.0,0.11368709085259818,2.0,0
56.18034362792969,12.324095726013184,-2.1571531295776367,-0.0,-0.0,-1.0,0.1364396599367504,1.0,0
56.30720901489258,11.914881706237793,-2.155453681945801,-0.0,-0.0,-1.0,0.06101772114197601,2.0,0
56.394859313964844,12.600796699523926,-2.184492588043213,-0.0,-0.0,-1.0,0.2587676968789919,1.0,0
56.15109634399414,13.073762893676758,-2.1781539916992188,-0.0,-0.0,-1.0,0.06963463188980129,2.0,0
56.94221878051758,12.881847381591797,-2.240980625152588,-0.0,-0.0,-1.0,0.061236247632263076,1.0,0
55.504417419433594,11.957147598266602,-1.8659497499465942,-0.18445402315957202,0.31234811091504616,-0.9318880678214793,0.13507029858460096,3.0,0
55.506160736083984,12.153404235839844,-1.869144082069397,-0.20505725997735486,-0.9595606990709726,-0.1928594953042386,0.24651418475004064,3.0,0
56.343421936035156,12.70781421661377,-1.9475938081741333,-0.0,-0.0,-1.0,0.121181915996093,1.0,0
57.576690673828125,13.098695755004883,-2.056529998779297,-0.0,-0.0,-1.0,0.0686651047645526,1.0,0
55.52000427246094,12.109755516052246,-1.9809762239456177,-0.0,-0.0,-1.0,0.19518763977883813,2.0,0
56.687164306640625,11.825929641723633,-2.0741753578186035,-0.0,-0.0,-1.0,0.03204264236966644,1.0,0
56.38329315185547,12.733722686767578,-2.0751900672912598,-0.0,-0.0,-1.0,0.12045940112956059,1.0,0
56.75536346435547,12.488553047180176,-2.1001572608947754,-0.0,-0.0,-1.0,0.26473904660838127,1.0,0
57.56066131591797,13.068647384643555,-2.1880578994750977,-0.0,-0.0,-1.0,0.06866510476455258,1.0,0
55.57121276855469,12.131853103637695,-1.6423912048339844,-0.0,-0.0,-1.0,0.08181453458709244,1.0,0
56.447227478027344,12.889869689941406,-1.7404468059539795,-0.6098465649050763,-0.16440386071133575,-0.7752796513882501,0.07888401030395134,3.0,0
55.47126007080078,12.385786056518555,-2.2252464294433594,-0.0,-0.0,-1.0,0.07415437889597587,1.0,0
57.673072814941406,12.321584701538086,-1.741790533065796,-0.0,-0.0,-1.0,0.06058567459906984,1.0,0
55.38145065307617,12.071296691894531,-1.8512940406799316,-0.0,-0.0,-1.0,0.12394082407127205,1.0,0
56.342140197753906,12.622858047485352,-1.9581727981567383,-0.0,-0.0,-1.0,0.18958961764738186,2.0,0
55.46085739135742,12.092361450195312,-1.9371099472045898,-0.0,-0.0,-1.0,0.16844534942039724,1.0,0
56.72367858886719,11.868820190429688,-1.98222017288208,-0.0,-0.0,-1.0,0.04689184985229038,2.0,0
57.387550354003906,12.12997817993164,-2.045588493347168,-0.0,-0.0,-1.0,0.08979944732602782,1.0,0
55.344478607177734,11.944328308105469,-1.8948752880096436,-0.0,-0.0,-1.0,0.1998367350221192,1.0,0
56.14283752441406,12.528373718261719,-2.0106890201568604,-0.0,-0.0,-1.0,0.13346755500316412,1.0,0
57.434814453125,12.935026168823242,-2.148076295852661,-0.0,-0.0,-1.0,0.04942763481679837,2.0,0
56.977760314941406,11.606470108032227,-2.0261335372924805,-0.0,-0.0,-1.0,0.024589121194903567,1.0,0
55.322288513183594,10.817700386047363,-1.966038703918457,0.8143053221092045,0.3725587185691962,-0.4450919496044644,0.1108440727859725,3.0,0
55.38723373413086,10.679414749145508,-1.8568971157073975,-0.0,-0.0,-1.0,0.10048772091170079,1.0,0
