x,y,z,nx,ny,nz,curvature,density,label
22.821636199951172,-24.182636260986328,1.194343090057373,-0.0,-0.0,-1.0,0.13075224051088358,2.0,2
24.397384643554688,-23.39226531982422,1.177518606185913,-0.0,-0.0,-1.0,0.15100178258676167,2.0,2
22.82442855834961,-24.336830139160156,1.1922943592071533,-0.0,-0.0,-1.0,0.13883094847179753,1.0,2
23.062965393066406,-22.47890853881836,0.7261265516281128,-0.0,-0.0,-1.0,0.15422075718929243,1.0,1
23.767337799072266,-22.35651397705078,0.7063475847244263,0.3971714017460166,-0.9176352406293438,-0.014157781967199492,0.22146709573591059,3.0,1
23.198532104492188,-22.647071838378906,0.7111936807632446,-0.0,-0.0,-1.0,0.07944968106777221,2.0,1
22.8144474029541,-24.117990493774414,1.3659230470657349,-0.09787810197345076,-0.8800438503980881,-0.46469635089010847,0.06878853530410034,3.0,2
23.043224334716797,-22.73276138305664,0.860024631023407,-0.0,-0.0,-1.0,0.1349852033968821,1.0,1
23.12105941772461,-22.936355590820312,0.8596367835998535,-0.0,-0.0,-1.0,0.18437457465262524,1.0,1
23.30147361755371,-23.239543914794922,0.8607717752456665,-0.0,-0.0,-1.0,0.19823062922088389,1.0,1
23.917484283447266,-21.889999389648438,0.632597804069519,-0.0,-0.0,-1.0,0.16253219440204397,1.0,1
23.669145584106445,-22.815067291259766,0.5689293146133423,-0.0,-0.0,-1.0,0.02934416563386603,1.0,1
23.268674850463867,-23.307003021240234,1.2244458198547363,-0.0,-0.0,-1.0,0.11571551578986043,1.0,2
24.562217712402344,-23.390045166015625,1.0718357563018799,-0.0,-0.0,-1.0,0.24268344248006932,1.0,2
25.146690368652344,-23.456424713134766,0.9985899925231934,-0.0,-0.0,-1.0,0.04807395663652823,1.0,1
23.905315399169922,-22.11498260498047,0.8694391846656799,-0.0,-0.0,-1.0,0.23040729941671656,2.0,1
23.128684997558594,-23.546466827392578,0.824103057384491,-0.0,-0.0,-1.0,0.1448380601996157,1.0,1
22.854507446289062,-24.10683822631836,0.8076251745223999,-0.0,-0.0,-1.0,0.06754281637074865,1.0,1
23.623868942260742,-22.991241455078125,0.9860928058624268,-0.0,-0.0,-1.0,0.19629165071078028,1.0,1
23.386493682861328,-23.25344467163086,1.010880470275879,0.6148212447863098,0.24635837145478864,-0.7492011677604069,0.10316205793026786,3.0,2
23.775054931640625,-23.011981964111328,0.9730579853057861,-0.0,-0.0,-1.0,0.18487728799129655,1.0,1
22.736515045166016,-24.183414459228516,1.1486427783966064,-0.0,-0.0,-1.0,0.12301429481516743,1.0,2
24.546558380126953,-23.066600799560547,0.8579935431480408,-0.0,-0.0,-1.0,0.19811883008173561,1.0,1
24.313634872436523,-23.136497497558594,0.7604383230209351,-0.0,-0.0,-1.0,0.22502583190998304,1.0,1
22.788978576660156,-22.684463500976562,1.379593849182129,-0.0,-0.0,-1.0,0.06551276730912345,1.0,2
24.12282371520996,-22.93439483642578,1.2866814136505127,-0.0,-0.0,-1.0,0.15631890592688708,1.0,2
24.005056381225586,-22.339305877685547,0.8451858162879944,-0.0,-0.0,-1.0,0.1415641617721368,1.0,1
24.517507553100586,-23.46881866455078,1.1420177221298218,-0.0,-0.0,-1.0,0.18830643380810236,1.0,2
24.770708084106445,-22.648588180541992,1.125903606414795,-0.0,-0.0,-1.0,0.1428701605557337,1.0,2
25.184898376464844,-22.568132400512695,1.095763087272644,-0.0,-0.0,-1.0,0.11240287348066753,1.0,2
25.05557632446289,-22.87694549560547,1.1043615341186523,-0.0,-0.0,-1.0,0.1468558663522111,1.0,2
22.83211898803711,-24.28812026977539,1.0545932054519653,-0.0,-0.0,-1.0,0.17070840278646854,1.0,2
23.870243072509766,-22.10219955444336,1.010650396347046,-0.07923879891588598,-0.9945248866384778,-0.0681282804941605,0.1402784551319701,3.0,2
24.40428924560547,-23.448575973510742,0.9611112475395203,-0.0,-0.0,-1.0,0.21461552618296362,1.0,1
22.796873092651367,-22.643348693847656,1.4110933542251587,0.6263173319201504,-0.5999363752715595,-0.49779809698556143,0.06816154916294839,3.0,2
22.80779457092285,-24.218759536743164,1.3130334615707397,0.9993154372261341,0.02192400797039694,-0.029799241534887028,0.09294385881864659,3.0,2
22.745784759521484,-22.695144653320312,1.3256347179412842,-0.7701834944259406,-0.6308507179865642,0.09404656575167035,0.06551276730912352,4.0,2
25.208288192749023,-22.772171020507812,1.1419733762741089,-0.0,-0.0,-1.0,0.13349373620786034,2.0,2
23.549789428710938,-22.935523986816406,0.7103903293609619,-0.0,-0.0,-1.0,0.0831447968982154,1.0,1
22.797086715698242,-24.000856399536133,1.4971500635147095,-0.0,-0.0,-1.0,0.0687885353041004,2.0,2
22.823631286621094,-22.650535583496094,1.4643661975860596,-0.09654773319603524,0.26466230656101425,-0.9594959086418822,0.07652969025066539,3.0,2
22.74317169189453,-24.234928131103516,0.9713976383209229,0.9522968927619786,0.14476870867890576,-0.26864967713236293,0.17756417228012017,3.0,1
23.866825103759766,-22.099966049194336,0.9820214509963989,-0.07923879891588598,-0.9945248866384778,-0.0681282804941605,0.14504314857526185,3.0,1
23.998186111450195,-22.996627807617188,1.2460074424743652,-0.9536800655588141,0.2874536685540955,0.08868326217797927,0.20899574696315482,5.0,2
24.689834594726562,-22.498611450195312,1.230067253112793,-0.0,-0.0,-1.0,0.2387370634007896,2.0,2
22.748023986816406,-24.207353591918945,1.0034570693969727,0.8987161243776438,-0.12540638951349414,-0.4202172833818451,0.1420637165271663,4.0,2
24.108013153076172,-23.709993362426758,0.9916082620620728,-0.0,-0.0,-1.0,0.14718744974901218,1.0,1
24.41822052001953,-23.277538299560547,1.0039646625518799,-0.0,-0.0,-1.0,0.13012258995774148,1.0,2
24.720338821411133,-22.648183822631836,1.0260580778121948,-0.8564056543593186,0.43483591106364805,-0.2783650222833942,0.21033252986927767,3.0,2
24.561126708984375,-23.05283546447754,1.0108420848846436,-0.0,-0.0,-1.0,0.241147281373632,1.0,2
24.82721519470215,-22.845781326293945,1.01310396194458,-0.0,-0.0,-1.0,0.23875633711865682,1.0,2
22.896331787109375,-23.41102409362793,1.082739233970642,-0.0,-0.0,-1.0,0.16010610859216876,1.0,2
24.449581146240234,-23.174121856689453,1.0465636253356934,-0.0,-0.0,-1.0,0.16387933269025523,1.0,2
24.68210792541504,-22.940919876098633,1.0506466627120972,-0.0,-0.0,-1.0,0.223916976360474,1.0,2
24.518503189086914,-23.110586166381836,1.0475033521652222,-0.0,-0.0,-1.0,0.21550938494840788,1.0,2
25.0687255859375,-22.023086547851562,1.0842490196228027,-0.0,-0.0,-1.0,0.09749488760136749,1.0,2
23.008440017700195,-23.58659553527832,1.0516691207885742,-0.0,-0.0,-1.0,0.19769865502511166,1.0,2
23.545391082763672,-22.443241119384766,1.1012322902679443,-0.0,-0.0,-1.0,0.1398582598226673,1.0,2
23.69772720336914,-23.267126083374023,1.0541901588439941,-0.0,-0.0,-1.0,0.09880565412691583,1.0,2
24.26090431213379,-23.270538330078125,1.0411524772644043,-0.0,-0.0,-1.0,0.18799473203746497,1.0,2
24.923662185668945,-22.899194717407227,1.046267032623291,0.15399593471192838,-0.3085169266702746,-0.9386706334226761,0.19913349039411482,3.0,2
24.67888832092285,-23.1787166595459,1.0375421047210693,-0.0,-0.0,-1.0,0.2397152834762321,2.0,2
25.172046661376953,-22.79747772216797,1.0451319217681885,-0.0,-0.0,-1.0,0.1412007060126189,1.0,2
23.66482162475586,-22.373315811157227,1.1024131774902344,-0.0,-0.0,-1.0,0.18199099222041124,1.0,2
23.060487747192383,-23.612594604492188,0.9158761501312256,-0.9610556580931092,-0.06880645447248879,-0.26765218824090703,0.1851976729739699,3.0,1
22.82033348083496,-24.155588150024414,0.8883008360862732,-0.0,-0.0,-1.0,0.19276013354300708,2.0,1
22.864151000976562,-24.228553771972656,0.881679117679596,-0.0,-0.0,-1.0,0.1536996959055554,1.0,1
23.151647567749023,-23.563562393188477,0.9156683087348938,-0.0,-0.0,-1.0,0.26503304835669744,2.0,1
23.64470863342285,-24.34030532836914,0.8431382179260254,-0.0,-0.0,-1.0,0.08702414377779362,2.0,1
24.075973510742188,-23.543907165527344,0.8796133995056152,-0.0,-0.0,-1.0,0.2602807374870553,1.0,1
22.723678588867188,-22.252639770507812,1.0205304622650146,0.27989096956568876,-0.807829157762504,-0.5187225626713212,0.18409248879185428,4.0,2
23.866113662719727,-22.161623001098633,0.9826020002365112,-0.0,-0.0,-1.0,0.17551210973211864,1.0,1
23.853759765625,-23.177812576293945,0.9138345122337341,-0.0,-0.0,-1.0,0.16290265718310365,2.0,1
24.271635055541992,-23.211177825927734,0.8940809965133667,-0.0,-0.0,-1.0,0.2373720601621156,2.0,1
25.138906478881836,-22.526975631713867,0.9027974605560303,-0.0,-0.0,-1.0,0.09459100057727744,1.0,1
24.59983253479004,-23.081998825073242,0.888774573802948,-0.0,-0.0,-1.0,0.27066294159794607,1.0,1
25.182950973510742,-22.660629272460938,0.8916234374046326,-0.0,-0.0,-1.0,0.10993215834710401,1.0,1
22.8167781829834,-24.0081787109375,1.4587743282318115,-0.0,-0.0,-1.0,0.06878853530410034,2.0,2
24.779361724853516,-22.95547866821289,1.40469491481781,-0.0,-0.0,-1.0,0.13363656351484438,1.0,2
23.779287338256836,-21.94129180908203,0.7129535675048828,-0.0,-0.0,-1.0,0.18641293704841233,1.0,1
23.501401901245117,-22.30136489868164,0.6822799444198608,-0.0,-0.0,-1.0,0.17565462771702753,1.0,1
23.77203369140625,-22.354005813598633,0.6755161285400391,0.3971714017460166,-0.9176352406293438,-0.014157781967199492,0.23328652723668175,3.0,1
22.810176849365234,-22.28580665588379,1.1511406898498535,-0.0,-0.0,-1.0,0.13722287297348434,1.0,2
22.729076385498047,-22.32436752319336,1.1497044563293457,-0.0,-0.0,-1.0,0.12295596166608294,1.0,2
22.73271942138672,-24.25897979736328,1.0422885417938232,-0.0,-0.0,-1.0,0.20749974660049147,2.0,2
23.40734100341797,-23.309541702270508,1.0880069732666016,-0.0,-0.0,-1.0,0.11537367971826053,1.0,2
23.187915802001953,-23.610031127929688,1.0737051963806152,-0.0,-0.0,-1.0,0.17232775249519142,1.0,2
22.7786922454834,-24.303611755371094,1.0393483638763428,-0.0,-0.0,-1.0,0.20534379207258918,2.0,2
24.76717185974121,-22.737037658691406,1.1010396480560303,-0.0,-0.0,-1.0,0.1305390000323464,1.0,2
24.656564712524414,-23.02008819580078,1.0868804454803467,-0.0,-0.0,-1.0,0.17723215216263843,2.0,2
24.362539291381836,-23.440593719482422,1.0678116083145142,-0.0,-0.0,-1.0,0.17773232326432178,2.0,2
25.090675354003906,-23.084131240844727,1.075890064239502,-0.0,-0.0,-1.0,0.15399566398304726,2.0,2
22.883480072021484,-21.917068481445312,1.044668436050415,-0.0,-0.0,-1.0,0.14092467727525954,1.0,2
23.851213455200195,-22.10000228881836,1.0007081031799316,-0.07923879891588598,-0.9945248866384778,-0.0681282804941605,0.15536998008626068,3.0,2
23.096040725708008,-23.66436767578125,0.9051802158355713,-0.0,-0.0,-1.0,0.17689108523941627,2.0,1
23.84378433227539,-23.19217300415039,0.9172680377960205,-0.0,-0.0,-1.0,0.16680434393815366,2.0,1
24.472457885742188,-23.190690994262695,0.8954906463623047,-0.0,-0.0,-1.0,0.2198438577567891,2.0,1
24.29361343383789,-23.182022094726562,0.9025477766990662,-0.0,-0.0,-1.0,0.23889715509045045,2.0,1
24.129722595214844,-23.69108009338379,0.869231641292572,0.5570792648068482,-0.8076672546325705,-0.19322602960405802,0.18137646556301296,4.0,1
24.919435501098633,-22.823545455932617,0.9071460962295532,-0.0,-0.0,-1.0,0.10475455158352988,1.0,1
24.69655990600586,-23.02861213684082,0.8997432589530945,-0.0,-0.0,-1.0,0.14371741953533962,1.0,1
22.76130485534668,-24.11418914794922,1.3679399490356445,-0.04405231019414266,-0.9044874310812808,-0.4242191426403864,0.06878853530410034,3.0,2
22.71910285949707,-22.270496368408203,1.0513790845870972,0.34957106401688337,-0.8324127355305452,-0.42998733577706477,0.17501215578201743,3.0,2
23.861675262451172,-22.154911041259766,1.0325173139572144,-0.0,-0.0,-1.0,0.14550791561500906,1.0,2
23.37027931213379,-23.331066131591797,0.9542637467384338,-0.0,-0.0,-1.0,0.13754413386663192,2.0,1
23.050752639770508,-23.50366973876953,0.9487565159797668,-0.0,-0.0,-1.0,0.20840789032378312,2.0,1
22.72964096069336,-23.939817428588867,0.922595202922821,-0.0,-0.0,-1.0,0.11273289664865944,2.0,1
24.6324520111084,-22.649641036987305,0.9719323515892029,-0.0,-0.0,-1.0,0.19460004515517543,1.0,1
24.327878952026367,-23.19316864013672,0.9388912916183472,-0.0,-0.0,-1.0,0.24341516474773145,1.0,1
25.0696964263916,-22.777748107910156,0.9481635093688965,-0.0,-0.0,-1.0,0.20963591582589153,2.0,1
24.759275436401367,-22.913291931152344,0.9475640058517456,-0.0,-0.0,-1.0,0.19019106173638056,1.0,1
24.68593978881836,-23.368549346923828,0.9145382046699524,-0.0,-0.0,-1.0,0.1682917631453383,1.0,1
24.346981048583984,-23.460689544677734,0.9175927639007568,-0.0,-0.0,-1.0,0.17609867224005943,2.0,1
22.789825439453125,-22.662654876708984,1.425493597984314,0.6263173319201504,-0.5999363752715595,-0.49779809698556143,0.07652969025066533,3.0,2
24.15624237060547,-22.183013916015625,0.7090802192687988,-0.0,-0.0,-1.0,0.17239679051265597,1.0,1
23.85683822631836,-22.425945281982422,0.6891055107116699,-0.0,-0.0,-1.0,0.21284715785929498,2.0,1
24.054821014404297,-22.439510345458984,0.6832166910171509,-0.0,-0.0,-1.0,0.18470927880223165,2.0,1
23.7646427154541,-22.34239959716797,1.0648274421691895,-0.0,-0.0,-1.0,0.19816348263461012,1.0,2
23.388259887695312,-23.286090850830078,1.0015949010849,-0.8357083966379565,0.2022117537849606,-0.5105897398303519,0.1301998137246565,5.0,2
23.087173461914062,-23.69647979736328,0.9764206409454346,-0.0,-0.0,-1.0,0.10499702698388005,1.0,1
24.717926025390625,-22.657432556152344,1.019033670425415,-0.8564056543593186,0.43483591106364805,-0.2783650222833942,0.21420089932463815,3.0,2
24.34473419189453,-23.071828842163086,0.9971795678138733,-0.0,-0.0,-1.0,0.16786771259643452,1.0,1
23.90569496154785,-23.610754013061523,0.9666895866394043,-0.0,-0.0,-1.0,0.1373931647662322,1.0,1
25.171249389648438,-22.734283447265625,1.0011860132217407,-0.0,-0.0,-1.0,0.1356878582526441,1.0,2
24.856807708740234,-22.94824981689453,0.9936525225639343,-0.0,-0.0,-1.0,0.2621120619487467,2.0,1
24.50535774230957,-23.15568733215332,0.9870243668556213,-0.0,-0.0,-1.0,0.2593188418890502,1.0,1
24.262271881103516,-23.476665496826172,0.9687619805335999,-0.0,-0.0,-1.0,0.2051312780080313,1.0,1
22.782899856567383,-22.676921844482422,1.433974266052246,0.6263173319201504,-0.5999363752715595,-0.49779809698556143,0.06551276730912346,3.0,2
22.769746780395508,-24.118703842163086,1.3766891956329346,-0.08045082359163194,-0.91529215029714,-0.3946744792710394,0.06878853530410038,3.0,2
24.16854476928711,-22.022829055786133,0.7156635522842407,-0.0,-0.0,-1.0,0.18934648777914384,2.0,1
24.108076095581055,-22.20306396484375,0.698562502861023,-0.0,-0.0,-1.0,0.1432520294084305,1.0,1
23.79155158996582,-22.345966339111328,0.701978325843811,0.9426429776414522,-0.3128198657693314,-0.11648153623348931,0.26273112563736056,4.0,1
24.061220169067383,-22.39007568359375,0.6797264814376831,-0.0,-0.0,-1.0,0.1945055512034613,2.0,1
23.90306854248047,-22.50173568725586,0.6767483949661255,-0.0,-0.0,-1.0,0.20044209252302386,1.0,1
23.887643814086914,-21.944904327392578,0.7429375648498535,-0.0,-0.0,-1.0,0.20120657250815793,1.0,1
23.04116439819336,-23.492477416992188,0.9859262704849243,-0.0,-0.0,-1.0,0.1675196354359184,2.0,1
23.386503219604492,-23.32617950439453,0.9802776575088501,0.9531787997663875,0.027223809695023155,-0.30117941473745835,0.13589894203460112,4.0,1
22.765893936157227,-24.135356903076172,0.9480922818183899,0.7673049536136395,0.48509853113807166,0.41943119012259383,0.1651728726017863,4.0,1
24.05685806274414,-23.2498779296875,0.9472205638885498,-0.0,-0.0,-1.0,0.1444268966661788,1.0,1
24.882984161376953,-22.913070678710938,0.9232861995697021,-0.0,-0.0,-1.0,0.1997946580022064,1.0,1
24.52428436279297,-23.138181686401367,0.9277632236480713,-0.0,-0.0,-1.0,0.22450247145720947,2.0,1
24.33726692199707,-23.471858978271484,0.9121124744415283,-0.0,-0.0,-1.0,0.1822575305113338,2.0,1
24.13551902770996,-23.699827194213867,0.9057504534721375,0.42598720812512064,-0.862198913733524,-0.27413123074632767,0.16367839620511346,3.0,1
25.1369686126709,-23.119949340820312,0.8900034427642822,-0.0,-0.0,-1.0,0.19943191670742227,1.0,1
22.75296401977539,-22.710466384887695,1.4109163284301758,-0.0,-0.0,-1.0,0.06551276730912345,1.0,2
24.133262634277344,-22.973766326904297,1.3216743469238281,-0.0,-0.0,-1.0,0.14916070088263397,1.0,2
24.798538208007812,-22.991918563842773,1.2826118469238281,-0.0,-0.0,-1.0,0.10078161823910423,1.0,2
24.464908599853516,-23.467960357666016,1.279552936553955,-0.0,-0.0,-1.0,0.18611096367931268,1.0,2
23.22705841064453,-23.680278778076172,0.7709387540817261,-0.0,-0.0,-1.0,0.08139075051699371,2.0,1
23.597911834716797,-23.634449005126953,0.7534418106079102,-0.0,-0.0,-1.0,0.02493270741870611,1.0,1
24.842893600463867,-23.59752655029297,0.6669429540634155,-0.0,-0.0,-1.0,0.07472575480184407,1.0,1
24.822843551635742,-23.665401458740234,0.6599109172821045,-0.0,-0.0,-1.0,0.1014844986006601,1.0,1
22.7860107421875,-22.317501068115234,0.9744929075241089,-0.0,-0.0,-1.0,0.1454505238090992,1.0,1
22.898679733276367,-23.348791122436523,0.833478569984436,-0.0,-0.0,-1.0,0.2344712821832142,1.0,1
22.845935821533203,-23.400020599365234,0.829798698425293,-0.0,-0.0,-1.0,0.20133498506432979,1.0,1
23.90790367126465,-21.956796646118164,0.9493083953857422,-0.0,-0.0,-1.0,0.20261234470600553,2.0,1
23.71360969543457,-22.34825325012207,0.9124691486358643,-0.0,-0.0,-1.0,0.14323979453162017,2.0,1
23.436965942382812,-23.195499420166016,1.150805950164795,-0.0,-0.0,-1.0,0.25085696480649256,1.0,2
23.08214569091797,-23.475475311279297,0.8063311576843262,-0.0,-0.0,-1.0,0.18199869266674212,1.0,1
22.741296768188477,-24.22198486328125,1.092910885810852,-0.0,-0.0,-1.0,0.17482361850096906,1.0,2
22.77665901184082,-24.29092788696289,1.0844430923461914,-0.4769189160178778,0.8166568516558242,-0.3249922063495202,0.19037644386570507,4.0,2
23.785961151123047,-23.2254695892334,0.9589977264404297,-0.0,-0.0,-1.0,0.1776690717523438,1.0,1
23.548864364624023,-23.558914184570312,0.7664471864700317,-0.0,-0.0,-1.0,0.040081466165926366,2.0,1
24.593154907226562,-22.952428817749023,0.7692363262176514,-0.0,-0.0,-1.0,0.11900652372580584,1.0,1
24.43918800354004,-23.180988311767578,0.9192126989364624,-0.0,-0.0,-1.0,0.25264325509990954,2.0,1
24.291601181030273,-23.37955093383789,0.9088808298110962,-0.0,-0.0,-1.0,0.2186577288555196,1.0,1
24.139488220214844,-23.697795867919922,1.058797001838684,-0.0,-0.0,-1.0,0.13473467083925858,1.0,2
25.06262969970703,-22.92724609375,1.0651013851165771,-0.0,-0.0,-1.0,0.10687949151055642,1.0,2
24.48318862915039,-23.322669982910156,1.070602297782898,-0.0,-0.0,-1.0,0.18064641669256992,1.0,2
24.726030349731445,-22.620512008666992,1.1185647249221802,-0.0,-0.0,-1.0,0.17894462980460474,1.0,2
25.140033721923828,-22.593128204345703,1.0898877382278442,-0.0,-0.0,-1.0,0.11333812076417696,1.0,2
24.70670509338379,-23.035964965820312,1.4109067916870117,-0.0,-0.0,-1.0,0.09699737307501423,1.0,2
24.596799850463867,-23.14498519897461,1.4115123748779297,-0.0,-0.0,-1.0,0.08405484961060104,1.0,2
22.92085838317871,-22.7509708404541,0.7545584440231323,-0.0,-0.0,-1.0,0.06538596172545731,2.0,1
23.71137809753418,-22.40955352783203,0.7487564086914062,-0.0,-0.0,-1.0,0.1911364121645129,1.0,1
23.132108688354492,-22.987895965576172,0.6985878944396973,-0.0,-0.0,-1.0,0.05173437742164942,1.0,1
24.1485652923584,-22.340473175048828,0.7224746942520142,-0.0,-0.0,-1.0,0.14486973784193705,1.0,1
23.95621109008789,-22.546092987060547,0.7041274309158325,-0.0,-0.0,-1.0,0.1857251339275188,1.0,1
23.72271156311035,-22.788721084594727,0.6817622184753418,-0.0,-0.0,-1.0,0.09292028291930816,1.0,1
24.54631805419922,-22.189931869506836,0.7102110385894775,-0.0,-0.0,-1.0,0.06734695747608138,1.0,1
24.46063804626465,-22.502769470214844,0.6653251647949219,-0.0,-0.0,-1.0,0.14442265426192508,1.0,1
22.717456817626953,-22.86738395690918,1.0350821018218994,-0.0,-0.0,-1.0,0.07714632380254018,1.0,2
23.829011917114258,-22.272293090820312,1.0358856916427612,-0.0,-0.0,-1.0,0.21253797041234088,2.0,2
23.06000328063965,-23.574905395507812,0.9079267978668213,0.20062269796629525,-0.1997122994494604,-0.9590962050333293,0.1851976729739699,3.0,1
22.728181838989258,-23.947303771972656,0.8828705549240112,-0.0,-0.0,-1.0,0.08171775742327154,2.0,1
23.386384963989258,-23.26675033569336,0.9295463562011719,-0.0,-0.0,-1.0,0.16197629886055678,2.0,1
23.11138153076172,-23.631359100341797,0.9002684354782104,0.4849022018022894,-0.3449475475078172,-0.8036672471586941,0.20455791007685142,3.0,1
22.81546401977539,-24.301616668701172,0.9972573518753052,0.5150507635808723,0.4613690905066865,-0.7223996631088594,0.22459366265196107,3.0,1
24.158124923706055,-22.704254150390625,0.9501707553863525,-0.0,-0.0,-1.0,0.19715505169047526,1.0,1
23.452754974365234,-24.253856658935547,0.7866067886352539,-0.0,-0.0,-1.0,0.07495268673615987,1.0,1
24.856353759765625,-22.764968872070312,0.8823248147964478,-0.0,-0.0,-1.0,0.2859816153731352,1.0,1
24.651451110839844,-22.980806350708008,0.8710217475891113,-0.0,-0.0,-1.0,0.16683607597598316,1.0,1
24.466394424438477,-23.275081634521484,0.846480131149292,-0.0,-0.0,-1.0,0.25445053945981055,1.0,1
24.259986877441406,-23.615192413330078,0.816230058670044,-0.0,-0.0,-1.0,0.14778104183101798,1.0,1
23.919010162353516,-24.085861206054688,0.7771321535110474,-0.0,-0.0,-1.0,0.026353634931421545,1.0,1
23.81948471069336,-24.32787322998047,0.9241832494735718,-0.0,-0.0,-1.0,0.08587531668204317,1.0,1
25.070974349975586,-22.715023040771484,0.8694071769714355,-0.0,-0.0,-1.0,0.20902633508953353,1.0,1
24.43844985961914,-23.848588943481445,0.769920825958252,-0.0,-0.0,-1.0,0.09347125473785056,1.0,1
24.27721405029297,-24.146390914916992,0.7415204048156738,-0.0,-0.0,-1.0,0.022351605904839002,1.0,1
22.737716674804688,-22.79559326171875,1.3265272378921509,-0.0,-0.0,-1.0,0.06551276730912352,1.0,2
24.006248474121094,-23.006092071533203,1.2177002429962158,-0.7521852346419298,0.5300721892406721,-0.39145989191776176,0.22799910408369733,3.0,2
24.738059997558594,-22.442922592163086,1.2216949462890625,-0.7851973595897557,0.615709550363405,0.0660821918868424,0.20117207200471238,3.0,2
24.807735443115234,-22.89380645751953,1.4691858291625977,-0.0,-0.0,-1.0,0.1329955320946692,1.0,2
24.426679611206055,-23.27912139892578,1.159496545791626,-0.0,-0.0,-1.0,0.1866351456873425,1.0,2
22.999755859375,-22.297889709472656,0.7803820371627808,-0.0,-0.0,-1.0,0.16706749964184064,1.0,1
22.763545989990234,-23.496875762939453,0.8572812080383301,-0.0,-0.0,-1.0,0.19197757144360722,1.0,1
23.218059539794922,-23.291725158691406,0.8478366136550903,-0.7256524676114959,0.010571291916463523,-0.6879801916018831,0.13216951624351947,3.0,1
23.023714065551758,-23.46263313293457,0.8388068675994873,-0.0,-0.0,-1.0,0.14687601362136468,2.0,1
23.148889541625977,-23.799678802490234,0.7717344760894775,-0.0,-0.0,-1.0,0.09380054058079437,1.0,1
24.056753158569336,-22.119277954101562,0.6889245510101318,-0.0,-0.0,-1.0,0.17548559638061242,1.0,1
23.87299919128418,-22.41120147705078,0.6565746068954468,-0.0,-0.0,-1.0,0.2391760376246383,2.0,1
23.589881896972656,-23.324710845947266,0.8040200471878052,-0.0,-0.0,-1.0,0.19705541071772015,1.0,1
23.475509643554688,-23.66395378112793,0.7610695362091064,-0.0,-0.0,-1.0,0.018450796108858962,1.0,1
23.374271392822266,-23.827367782592773,0.744900107383728,-0.0,-0.0,-1.0,0.023176672124344044,1.0,1
24.13140869140625,-22.155595779418945,0.6719182729721069,-0.0,-0.0,-1.0,0.1690572326232891,1.0,1
24.132261276245117,-23.31281280517578,0.7450294494628906,-0.0,-0.0,-1.0,0.15064488738354193,1.0,1
24.676849365234375,-22.826236724853516,0.7542142868041992,-0.0,-0.0,-1.0,0.20845749444119777,1.0,1
24.437292098999023,-23.061668395996094,0.7477856874465942,-0.6856793999863042,-0.2175686094819377,-0.6946277136729557,0.24763189833684765,3.0,1
24.258163452148438,-23.28526496887207,0.7345011234283447,-0.0,-0.0,-1.0,0.17675086043938318,1.0,1
24.722871780395508,-23.466964721679688,0.6484992504119873,-0.0,-0.0,-1.0,0.11507257066342086,1.0,1
23.651721954345703,-21.99197006225586,1.0115474462509155,-0.0,-0.0,-1.0,0.13632034325176298,1.0,2
23.508583068847656,-22.373023986816406,0.9664832353591919,-0.0,-0.0,-1.0,0.08797279704499945,1.0,1
23.036462783813477,-23.696165084838867,1.097336769104004,-0.0,-0.0,-1.0,0.17372272968592664,1.0,2
23.692598342895508,-22.29129981994629,0.9590643644332886,-0.0,-0.0,-1.0,0.24208146028388003,2.0,1
24.173614501953125,-23.284400939941406,1.0369497537612915,-0.0,-0.0,-1.0,0.1795628143494014,1.0,2
23.977294921875,-23.667705535888672,1.009819507598877,-0.0,-0.0,-1.0,0.18332795803954224,1.0,2
24.90548324584961,-21.949573516845703,0.9882175922393799,-0.0,-0.0,-1.0,0.09602978483347467,1.0,1
24.597265243530273,-22.639347076416016,1.068830966949463,-0.0,-0.0,-1.0,0.14272117132514345,1.0,2
24.48000717163086,-23.06866455078125,1.0296766757965088,-0.0,-0.0,-1.0,0.19756102463449118,1.0,2
24.292638778686523,-23.431396484375,1.0057306289672852,-0.0,-0.0,-1.0,0.22509836564471025,1.0,2
25.177078247070312,-22.098133087158203,1.0626485347747803,-0.0,-0.0,-1.0,0.09539090297792312,1.0,2
25.20557975769043,-22.41689109802246,1.0213909149169922,-0.0,-0.0,-1.0,0.07233706153605565,2.0,2
25.004579544067383,-22.853515625,0.9942808151245117,-0.0,-0.0,-1.0,0.15376499010443484,2.0,1
24.919818878173828,-23.056339263916016,0.9801070690155029,-0.0,-0.0,-1.0,0.11407067714410955,2.0,1
24.188207626342773,-23.38359260559082,1.315861701965332,-0.0,-0.0,-1.0,0.08488939755853075,1.0,2
22.779315948486328,-22.202613830566406,1.027395248413086,-0.0,-0.0,-1.0,0.20212457476589216,1.0,2
22.97286605834961,-23.23809242248535,0.74254310131073,-0.0,-0.0,-1.0,0.023166325720080753,1.0,1
22.81914520263672,-24.079681396484375,0.8483014106750488,-0.0,-0.0,-1.0,0.0696656916783056,1.0,1
23.23647689819336,-23.270973205566406,0.8287296295166016,-0.7256524676114959,0.010571291916463523,-0.6879801916018831,0.11760871126343986,3.0,1
23.217445373535156,-24.20444107055664,0.7668039798736572,-0.0,-0.0,-1.0,0.022991038261122348,1.0,1
23.812545776367188,-21.979820251464844,0.9081499576568604,-0.0,-0.0,-1.0,0.22451449168534351,2.0,1
23.754152297973633,-23.049436569213867,0.6618499755859375,-0.0,-0.0,-1.0,0.1388337737727644,1.0,1
23.504838943481445,-23.16119384765625,0.8106876611709595,-0.0,-0.0,-1.0,0.16257683024689412,1.0,1
23.62193489074707,-24.149816513061523,0.7175689935684204,-0.0,-0.0,-1.0,0.025198804009473972,1.0,1
24.022647857666016,-21.864343643188477,0.8941797018051147,-0.0,-0.0,-1.0,0.1729835147226774,1.0,1
23.916004180908203,-22.129674911499023,0.852420449256897,-0.0,-0.0,-1.0,0.24886375712659764,2.0,1
23.91939926147461,-22.905731201171875,0.6662497520446777,-0.0,-0.0,-1.0,0.11684459677414684,1.0,1
23.86490821838379,-23.110910415649414,0.7608463764190674,-0.0,-0.0,-1.0,0.23001949077618838,1.0,1
24.122970581054688,-23.641040802001953,0.7404412031173706,-0.0,-0.0,-1.0,0.1847222698825317,1.0,1
23.930421829223633,-23.989849090576172,0.7013840675354004,-0.0,-0.0,-1.0,0.019933198704629403,2.0,1
24.52853775024414,-22.628578186035156,0.6114633083343506,-0.0,-0.0,-1.0,0.14940901694011283,1.0,1
24.477920532226562,-22.924535751342773,0.6897053718566895,-0.0,-0.0,-1.0,0.1339159660346147,1.0,1
24.43119239807129,-23.254070281982422,0.7634725570678711,-0.0,-0.0,-1.0,0.2380705014500464,1.0,1
24.430301666259766,-23.70363998413086,0.6730879545211792,-0.0,-0.0,-1.0,0.07818543507559368,1.0,1
24.69704246520996,-22.461637496948242,0.6137434244155884,-0.0,-0.0,-1.0,0.18400714530557552,1.0,1
24.857988357543945,-22.860248565673828,0.7585829496383667,-0.0,-0.0,-1.0,0.14143528748415987,2.0,1
24.82216453552246,-23.255651473999023,0.688521146774292,-0.0,-0.0,-1.0,0.1453078460601938,1.0,1
24.652570724487305,-23.682151794433594,0.6366003751754761,-0.0,-0.0,-1.0,0.11487768511615913,1.0,1
25.19447898864746,-22.54463768005371,0.749262809753418,-0.0,-0.0,-1.0,0.07385371626953098,1.0,1
25.0900936126709,-22.762887954711914,0.7300481796264648,-0.0,-0.0,-1.0,0.13959188876846076,2.0,1
22.732637405395508,-22.15838623046875,1.0450546741485596,-0.0,-0.0,-1.0,0.1830165482028413,1.0,2
22.783464431762695,-22.609989166259766,1.2809520959854126,-0.0,-0.0,-1.0,0.0735263665483289,1.0,2
22.82628059387207,-24.045879364013672,1.281020164489746,-0.0,-0.0,-1.0,0.07039902612675597,1.0,2
22.743703842163086,-24.296356201171875,1.1083354949951172,-0.5760681390638308,0.4255394037474222,-0.6978980692148556,0.167257337505733,3.0,2
23.439538955688477,-22.028854370117188,0.9646891355514526,-0.0,-0.0,-1.0,0.13596437622938334,1.0,1
24.072065353393555,-22.861873626708984,1.038069248199463,-0.0,-0.0,-1.0,0.18497901068575034,1.0,2
24.20813751220703,-23.55765151977539,1.0240516662597656,-0.0,-0.0,-1.0,0.08565409828382038,1.0,2
24.628265380859375,-23.026187896728516,1.040353536605835,-0.0,-0.0,-1.0,0.20982172079040853,2.0,2
24.549236297607422,-23.352924346923828,1.1403756141662598,-0.0,-0.0,-1.0,0.2434749399052217,2.0,2
24.833280563354492,-22.403697967529297,0.9788374900817871,-0.0,-0.0,-1.0,0.08551831501323813,1.0,1
24.82416534423828,-22.929704666137695,1.0203734636306763,-0.0,-0.0,-1.0,0.24061306990440656,2.0,2
24.661834716796875,-23.499916076660156,0.956524133682251,-0.0,-0.0,-1.0,0.23113893765203422,1.0,1
22.94662094116211,-24.153884887695312,0.882387638092041,-0.0,-0.0,-1.0,0.09107214912787605,1.0,1
23.053789138793945,-24.166202545166016,0.869586706161499,-0.0,-0.0,-1.0,0.09331085105587812,2.0,1
23.09044647216797,-24.138811111450195,0.8723636865615845,-0.0,-0.0,-1.0,0.06143729086196002,2.0,1
23.311012268066406,-24.179378509521484,0.8407238721847534,-0.0,-0.0,-1.0,0.06814956774743947,1.0,1
23.68535614013672,-24.138019561767578,0.8085201978683472,-0.0,-0.0,-1.0,0.0735477504152569,2.0,1
24.041973114013672,-23.851871490478516,0.8285257816314697,-0.0,-0.0,-1.0,0.13655598218432663,1.0,1
23.972166061401367,-24.01567268371582,0.8009427785873413,-0.0,-0.0,-1.0,0.02300178516774419,1.0,1
24.48604965209961,-23.77398109436035,0.7837233543395996,-0.0,-0.0,-1.0,0.09320534184294493,1.0,1
24.371976852416992,-23.94208526611328,0.7630448341369629,-0.0,-0.0,-1.0,0.05830108741078756,2.0,1
24.710494995117188,-23.65631675720215,0.7752588987350464,-0.0,-0.0,-1.0,0.1956960383792409,1.0,1
24.711957931518555,-23.82468032836914,0.7384597063064575,-0.0,-0.0,-1.0,0.14380352811550298,1.0,1
22.801790237426758,-24.267587661743164,1.1540095806121826,0.16356360715871995,0.9824552042541704,-0.0896031140481391,0.20800784401359754,3.0,2
23.102569580078125,-23.914398193359375,0.9227734804153442,-0.0,-0.0,-1.0,0.0740127808259913,1.0,1
23.421632766723633,-23.249401092529297,1.0410465002059937,-0.0,-0.0,-1.0,0.09602384740701263,2.0,2
23.359643936157227,-23.305017471313477,1.0353765487670898,-0.792304403143303,0.1365392643281495,-0.594651799002124,0.0947491565628003,3.0,2
23.838512420654297,-23.17222785949707,1.0073630809783936,-0.0,-0.0,-1.0,0.0876254735568549,2.0,2
24.11427116394043,-23.70492172241211,0.8517086505889893,-0.0,-0.0,-1.0,0.17922444208031707,2.0,1
24.052913665771484,-22.741846084594727,1.073520302772522,-0.0,-0.0,-1.0,0.131557235006094,1.0,2
24.344654083251953,-23.308185577392578,1.0382640361785889,-0.0,-0.0,-1.0,0.15696987671694382,1.0,2
24.388486862182617,-23.507781982421875,0.8563241958618164,-0.0,-0.0,-1.0,0.20447951151176477,2.0,1
24.692062377929688,-22.771793365478516,0.9678057432174683,-0.0,-0.0,-1.0,0.16819048411076878,1.0,1
24.618452072143555,-23.069002151489258,1.0457868576049805,-0.0,-0.0,-1.0,0.24605959788013412,2.0,2
24.54278564453125,-23.450559616088867,0.8457646369934082,-0.0,-0.0,-1.0,0.22366285582898957,1.0,1
25.096214294433594,-22.78461456298828,1.0242631435394287,-0.0,-0.0,-1.0,0.15155340510990167,2.0,2
25.073169708251953,-23.016571044921875,0.9842369556427002,-0.0,-0.0,-1.0,0.152179036112371,2.0,1
24.938457489013672,-23.31924057006836,0.8105922937393188,-0.0,-0.0,-1.0,0.1393037317528672,1.0,1
22.75986099243164,-24.04187774658203,1.4740655422210693,-0.0,-0.0,-1.0,0.06878853530410038,1.0,2
22.786754608154297,-22.631576538085938,1.47330641746521,-0.0,-0.0,-1.0,0.06816154916294839,2.0,2
24.009113311767578,-23.0297908782959,1.2654765844345093,-0.9266958074083652,0.27985542119640283,0.250830268824841,0.23930673349641324,4.0,2
24.72736358642578,-22.461410522460938,1.2668569087982178,-0.7851973595897557,0.615709550363405,0.0660821918868424,0.24389918730639115,3.0,2
24.664310455322266,-23.136287689208984,1.413373589515686,-0.0,-0.0,-1.0,0.10265077925304632,1.0,2
25.17173957824707,-22.719341278076172,1.15025794506073,-0.0,-0.0,-1.0,0.10908504326523726,1.0,2
22.800785064697266,-24.15989875793457,1.248870849609375,-0.0,-0.0,-1.0,0.08828032944529597,1.0,2
24.031795501708984,-23.050716400146484,1.2053515911102295,-0.0,-0.0,-1.0,0.19528286383680504,2.0,2
24.40669059753418,-23.402345657348633,1.0823204517364502,-0.0,-0.0,-1.0,0.16239836985552936,1.0,2
24.702457427978516,-24.12120246887207,0.8991079330444336,-0.0,-0.0,-1.0,0.07764599710523767,1.0,1
24.630475997924805,-23.042438507080078,1.1160377264022827,-0.0,-0.0,-1.0,0.2258574301806588,2.0,2
24.6552791595459,-23.15463638305664,1.0905194282531738,-0.0,-0.0,-1.0,0.22000775520301902,1.0,2
24.771648406982422,-22.51848602294922,1.1898242235183716,-0.0,-0.0,-1.0,0.20117207200471238,2.0,2
24.966028213500977,-22.842309951782227,1.0957316160202026,-0.0,-0.0,-1.0,0.16639820929849658,1.0,2
25.097383499145508,-23.074007034301758,1.0299184322357178,-0.0,-0.0,-1.0,0.15328747446391483,2.0,2
22.772109985351562,-22.778324127197266,1.4036712646484375,-0.0,-0.0,-1.0,0.0655127673091235,1.0,2
24.60535430908203,-23.57883644104004,1.272884488105774,-0.0,-0.0,-1.0,0.15922116545721188,1.0,2
22.798696517944336,-24.105606079101562,1.2722992897033691,0.4128650219513677,-0.8234661008061567,-0.3891607052005655,0.07229795357356171,3.0,2
22.848390579223633,-24.246658325195312,1.2433373928070068,-0.0,-0.0,-1.0,0.12626885869531662,2.0,2
24.631561279296875,-23.540313720703125,1.246711015701294,-0.0,-0.0,-1.0,0.1592211654572119,2.0,2
22.760299682617188,-24.09510040283203,1.3273447751998901,-0.0,-0.0,-1.0,0.07547032975604609,2.0,2
22.763593673706055,-24.15985107421875,1.2864857912063599,0.4004446330422089,-0.2915710649799489,-0.8686946586310689,0.0817494932494547,3.0,2
22.796411514282227,-24.118772506713867,1.297735333442688,0.4128650219513677,-0.8234661008061567,-0.3891607052005655,0.07229795357356172,3.0,2
22.87084197998047,-22.600414276123047,1.4754163026809692,-0.0,-0.0,-1.0,0.06668677818161757,2.0,2
22.79999351501465,-24.258270263671875,1.0139110088348389,0.2350374170910771,0.533648489103425,-0.8123895018061147,0.2029334190654878,4.0,2
22.77718162536621,-24.177135467529297,1.028153419494629,-0.31078521863405484,0.7630444041092985,-0.5667237291979826,0.17065217025579024,3.0,2
22.749378204345703,-22.702634811401367,1.3096259832382202,-0.7610962437034267,-0.6258842153511839,-0.17029814090226233,0.06551276730912352,5.0,2
22.777183532714844,-24.168865203857422,1.0392875671386719,-0.0,-0.0,-1.0,0.15561695735895986,2.0,2
23.057201385498047,-23.823974609375,1.030074119567871,-0.0,-0.0,-1.0,0.11048792839684457,1.0,2
23.018829345703125,-23.3971004486084,1.0851447582244873,-0.0,-0.0,-1.0,0.2181927853010908,2.0,2
22.948043823242188,-23.358888626098633,1.0797324180603027,-0.0,-0.0,-1.0,0.231155553960859,2.0,2
23.005935668945312,-23.371286392211914,1.0867867469787598,-0.03435234340868631,0.046343988623081124,-0.9983346889800211,0.19601639928130377,3.0,2
22.776142120361328,-24.28386688232422,1.2301137447357178,-0.0,-0.0,-1.0,0.12322407045003352,1.0,2
22.755691528320312,-24.114933013916016,1.2473124265670776,-0.0,-0.0,-1.0,0.09120788974606833,2.0,2
23.31995391845703,-23.430187225341797,1.1245331764221191,-0.0,-0.0,-1.0,0.10136597476910664,1.0,2
24.47397804260254,-23.23047637939453,1.305220365524292,-0.0,-0.0,-1.0,0.14124878073005107,1.0,2
22.771059036254883,-22.778457641601562,1.2582743167877197,-0.0,-0.0,-1.0,0.05568141502349254,1.0,2
22.811491012573242,-24.053577423095703,0.9823559522628784,-0.0,-0.0,-1.0,0.12453307842417831,1.0,1
23.382511138916016,-23.309696197509766,1.0038343667984009,-0.8037888299374049,0.29913896471936596,-0.5142367126669232,0.12107122755612688,4.0,2
22.71249771118164,-22.727954864501953,0.9515446424484253,-0.0,-0.0,-1.0,0.12346630032698076,1.0,1
22.829463958740234,-23.929443359375,1.475282073020935,-0.0,-0.0,-1.0,0.0701656604663893,2.0,2
24.483272552490234,-23.377994537353516,1.1637195348739624,-0.0,-0.0,-1.0,0.20911394492348845,1.0,2
23.98888397216797,-23.051055908203125,1.133934736251831,-0.0,-0.0,-1.0,0.1397485812149251,1.0,2
23.287109375,-24.324214935302734,0.7866441011428833,-0.0,-0.0,-1.0,0.057246514246401314,1.0,1
23.077428817749023,-23.969303131103516,0.7911226749420166,-0.0,-0.0,-1.0,0.05755136353602834,1.0,1
23.13861846923828,-24.141685485839844,0.7829777002334595,-0.0,-0.0,-1.0,0.03229441610822762,1.0,1
22.778308868408203,-23.342357635498047,0.8003370761871338,-0.0,-0.0,-1.0,0.1811030798463637,1.0,1
22.927818298339844,-23.482200622558594,0.8138329982757568,-0.0,-0.0,-1.0,0.11978943458699993,2.0,1
22.785566329956055,-23.217920303344727,0.8127832412719727,-0.0,-0.0,-1.0,0.11780612761066497,1.0,1
22.85595703125,-24.198413848876953,1.079836130142212,0.9139151074619788,0.22981315904020153,0.33458196048908934,0.22187015018015782,3.0,2
23.118375778198242,-23.473722457885742,0.8486711978912354,-0.18386672990007707,-0.17712502627476823,-0.9668607711056513,0.1164559834832478,3.0,1
23.20923614501953,-23.549684524536133,0.8570379018783569,-0.0,-0.0,-1.0,0.07699175869909737,2.0,1
22.755245208740234,-23.08342742919922,0.8189182281494141,-0.0,-0.0,-1.0,0.07850753357843043,1.0,1
23.948883056640625,-23.093711853027344,1.0308573246002197,-0.0,-0.0,-1.0,0.13978373955997897,1.0,2
24.330842971801758,-23.4947566986084,1.0492205619812012,-0.0,-0.0,-1.0,0.16344209915899344,2.0,2
24.471923828125,-23.27235984802246,1.0974855422973633,-0.0,-0.0,-1.0,0.14392452095171643,1.0,2
24.622819900512695,-22.975196838378906,1.1557371616363525,-0.0,-0.0,-1.0,0.20587841117181496,1.0,2
22.8475341796875,-23.951976776123047,1.439282774925232,-0.0,-0.0,-1.0,0.0701656604663893,2.0,2
24.92043113708496,-22.85456085205078,1.2172491550445557,-0.0,-0.0,-1.0,0.2145706012858683,1.0,2
24.904541015625,-22.66506576538086,1.2364119291305542,-0.0,-0.0,-1.0,0.1129451892199328,1.0,2
23.66853904724121,-24.242862701416016,0.7451109886169434,-0.0,-0.0,-1.0,0.08898764995158479,1.0,1
23.550798416137695,-23.90521240234375,0.7566027641296387,-0.0,-0.0,-1.0,0.01841023600155103,2.0,1
23.868410110473633,-24.223569869995117,0.7807880640029907,-0.0,-0.0,-1.0,0.07822286047435525,1.0,1
24.85384750366211,-23.01132583618164,1.0666909217834473,-0.0,-0.0,-1.0,0.16872577603927857,1.0,2
24.236574172973633,-23.933868408203125,0.7591298818588257,-0.0,-0.0,-1.0,0.059727043993881776,1.0,1
24.965421676635742,-24.355165481567383,0.824196457862854,-0.0,-0.0,-1.0,0.03339658737367044,1.0,1
24.350448608398438,-24.1578311920166,0.7940536737442017,-0.0,-0.0,-1.0,0.02477789610162535,1.0,1
24.47901153564453,-24.198318481445312,0.8070719242095947,-0.0,-0.0,-1.0,0.04219873208467066,1.0,1
23.230884552001953,-22.950672149658203,0.761741042137146,-0.0,-0.0,-1.0,0.08572681123326503,1.0,1
23.40086555480957,-23.049041748046875,0.7776236534118652,-0.0,-0.0,-1.0,0.06921207238045939,1.0,1
24.015226364135742,-23.52965545654297,0.8181551694869995,-0.0,-0.0,-1.0,0.20009471917134586,1.0,1
22.86551856994629,-22.470909118652344,0.7505391836166382,-0.0,-0.0,-1.0,0.08819199599157061,1.0,1
23.10451889038086,-22.767139434814453,0.76007080078125,-0.0,-0.0,-1.0,0.07261402105165615,2.0,1
25.12848472595215,-22.650165557861328,0.7578778266906738,-0.0,-0.0,-1.0,0.2045625985193563,1.0,1
25.205785751342773,-22.1842098236084,0.8281077146530151,-0.0,-0.0,-1.0,0.059817200675968775,1.0,1
23.663108825683594,-24.362003326416016,1.0645750761032104,-0.0,-0.0,-1.0,0.07887114617789968,1.0,2
22.925495147705078,-23.253026962280273,1.0791822671890259,-0.0,-0.0,-1.0,0.21404406091183256,1.0,2
24.708988189697266,-24.22455596923828,0.8354204893112183,-0.0,-0.0,-1.0,0.06556795834868026,1.0,1
23.372962951660156,-22.988210678100586,1.1542003154754639,-0.0,-0.0,-1.0,0.22980765207334353,1.0,2
23.790725708007812,-22.93625831604004,1.2079648971557617,-0.0,-0.0,-1.0,0.12085732618939349,1.0,2
24.373472213745117,-22.722200393676758,0.9562027454376221,-0.0,-0.0,-1.0,0.16618128915254762,1.0,1
24.995271682739258,-23.0393123626709,1.0137734413146973,-0.31901209340191466,-0.7913245513152567,-0.5215714128947595,0.13188179620400542,5.0,2
25.192649841308594,-23.130680084228516,1.0317630767822266,-0.0,-0.0,-1.0,0.10745303292403002,1.0,2
23.734243392944336,-22.159391403198242,0.9130985736846924,-0.0,-0.0,-1.0,0.20268690266571684,1.0,1
24.63039207458496,-22.46543312072754,1.0205763578414917,-0.0,-0.0,-1.0,0.2119816037578662,1.0,2
25.001014709472656,-22.721282958984375,1.0490821599960327,-0.0,-0.0,-1.0,0.18338771517287966,1.0,2
25.160110473632812,-22.41373062133789,1.104848027229309,-0.0,-0.0,-1.0,0.1819959007076999,1.0,2
24.326988220214844,-23.18997573852539,1.2484394311904907,-0.0,-0.0,-1.0,0.22494155361817614,1.0,2
23.445289611816406,-22.706899642944336,0.7158467769622803,-0.0,-0.0,-1.0,0.029413900990013495,1.0,1
23.523963928222656,-22.77287483215332,0.7260421514511108,-0.0,-0.0,-1.0,0.05621112255506649,1.0,1
23.216442108154297,-22.190536499023438,0.7012784481048584,0.8338452232440426,0.20168338915118147,-0.5138345591857226,0.05292733706037026,3.0,1
23.390029907226562,-22.486909866333008,0.7178574800491333,-0.0,-0.0,-1.0,0.06350853759158825,1.0,1
23.566097259521484,-24.313697814941406,1.0237808227539062,-0.0,-0.0,-1.0,0.08726543834191394,2.0,2
23.559856414794922,-24.272396087646484,1.0254913568496704,-0.0,-0.0,-1.0,0.08726543834191394,2.0,2
23.24056053161621,-23.0242919921875,1.0479185581207275,-0.0,-0.0,-1.0,0.13056252711655325,1.0,2
24.36097526550293,-24.032873153686523,0.7800977230072021,-0.0,-0.0,-1.0,0.04041447368700867,1.0,1
24.459524154663086,-24.07436180114746,0.7927671670913696,-0.0,-0.0,-1.0,0.04382900952613477,1.0,1
23.29832649230957,-22.92055320739746,1.0609033107757568,-0.0,-0.0,-1.0,0.1353339804923721,1.0,2
24.70498275756836,-24.12444305419922,0.8282357454299927,-0.0,-0.0,-1.0,0.07764599710523767,1.0,1
24.91330337524414,-24.31015968322754,0.8449472188949585,-0.0,-0.0,-1.0,0.04602223331752253,1.0,1
23.64258575439453,-22.46978187561035,0.7642097473144531,-0.0,-0.0,-1.0,0.17428916654505144,1.0,1
23.78582763671875,-22.81884765625,1.1356308460235596,-0.0,-0.0,-1.0,0.09319066197055459,1.0,2
23.707252502441406,-22.031707763671875,0.7980880737304688,-0.0,-0.0,-1.0,0.19155977086767648,1.0,1
24.805620193481445,-22.969947814941406,0.9369091987609863,-0.0,-0.0,-1.0,0.20729948958840425,2.0,1
25.07305335998535,-22.954191207885742,0.9835845232009888,0.9770354082902621,-0.0836152145828144,0.19598547608777273,0.1168210063167154,3.0,1
24.992332458496094,-22.592647552490234,0.9949581623077393,-0.0,-0.0,-1.0,0.18707174203975677,1.0,1
25.20113182067871,-22.340015411376953,0.8902901411056519,-0.0,-0.0,-1.0,0.11535553901489635,1.0,1
22.999500274658203,-22.426572799682617,0.6806038618087769,-0.0,-0.0,-1.0,0.11237184891113419,2.0,1
23.109773635864258,-22.603469848632812,0.6924164295196533,-0.0,-0.0,-1.0,0.07262157176483662,1.0,1
23.375213623046875,-23.021604537963867,0.7186979055404663,-0.0,-0.0,-1.0,0.051547878185329105,1.0,1
22.98876953125,-21.96647071838379,0.6956830024719238,-0.0,-0.0,-1.0,0.15093679898735032,2.0,1
23.24762725830078,-22.65105628967285,0.7145847082138062,-0.05449575884784646,-0.8938058120717719,-0.44513074772960526,0.06151774841207529,4.0,1
23.328100204467773,-22.84748077392578,0.7193646430969238,-0.0,-0.0,-1.0,0.03045809318862679,1.0,1
22.78313446044922,-24.314809799194336,0.9657813310623169,-0.0,-0.0,-1.0,0.20623913845904626,2.0,1
23.248645782470703,-23.530136108398438,1.0665204524993896,-0.0,-0.0,-1.0,0.1334199981353114,1.0,2
23.88387107849121,-22.325557708740234,0.840530276298523,-0.0,-0.0,-1.0,0.18135207906377337,1.0,1
23.89192771911621,-22.047954559326172,0.8533754348754883,-0.0,-0.0,-1.0,0.22232885837102567,1.0,1
24.330352783203125,-21.87929344177246,0.9375197887420654,-0.0,-0.0,-1.0,0.153806092985032,1.0,1
24.713172912597656,-22.672903060913086,0.9673608541488647,-0.0,-0.0,-1.0,0.2021505332694686,2.0,1
25.10688018798828,-22.787750244140625,1.0277700424194336,-0.0,-0.0,-1.0,0.15296521706802108,2.0,2
25.173553466796875,-22.38641357421875,1.0618410110473633,-0.0,-0.0,-1.0,0.15568100130668716,1.0,2
22.843141555786133,-24.138315200805664,1.3983702659606934,-0.0,-0.0,-1.0,0.06878853530410038,2.0,2
24.455520629882812,-23.38535499572754,1.2370319366455078,-0.0,-0.0,-1.0,0.24931573001748247,1.0,2
23.353731155395508,-24.157190322875977,0.7936811447143555,-0.0,-0.0,-1.0,0.016169247886323762,2.0,1
22.905364990234375,-22.625337600708008,0.7708256244659424,0.11802632749783443,-0.13771031476608322,-0.9834153015000326,0.14097620469846078,3.0,1
23.058895111083984,-22.844457626342773,0.7913920879364014,-0.0,-0.0,-1.0,0.07322336818118198,2.0,1
23.150854110717773,-23.184770584106445,0.7975618839263916,-0.0,-0.0,-1.0,0.05035702279238792,1.0,1
23.223548889160156,-23.701568603515625,0.7919456958770752,-0.0,-0.0,-1.0,0.06934581463218002,2.0,1
23.381872177124023,-24.164894104003906,0.7976698875427246,0.2842012305091457,0.939731049925796,-0.19009264683950328,0.05413838186387856,3.0,1
23.760482788085938,-22.239059448242188,0.919525146484375,-0.0,-0.0,-1.0,0.22663036077084936,1.0,1
23.67272186279297,-22.401798248291016,0.9021849632263184,-0.0,-0.0,-1.0,0.12195212081680246,1.0,1
24.15996742248535,-23.531930923461914,0.9486067295074463,-0.0,-0.0,-1.0,0.12780957164825393,1.0,1
25.125083923339844,-24.204692840576172,0.7169806957244873,-0.0,-0.0,-1.0,0.014236389893523346,2.0,1
25.07023048400879,-23.893957138061523,0.7283014059066772,-0.0,-0.0,-1.0,0.04766648709082134,1.0,1
25.12279510498047,-24.01520347595215,0.7300078868865967,-0.0,-0.0,-1.0,0.01749402611259574,2.0,1
22.83403205871582,-24.27526092529297,1.1287308931350708,0.16356360715871995,0.9824552042541704,-0.0896031140481391,0.21231998830288473,3.0,2
23.946075439453125,-22.745283126831055,0.9397838115692139,-0.0,-0.0,-1.0,0.16627975809358814,1.0,1
23.94322967529297,-22.06706428527832,0.9522204399108887,-0.0,-0.0,-1.0,0.11436944251119399,1.0,1
23.864185333251953,-22.32440948486328,0.9353349208831787,0.07429979804808483,-0.867310312059147,-0.49219138818743974,0.2114398544367357,3.0,1
24.18099594116211,-22.756473541259766,0.9780145883560181,-0.0,-0.0,-1.0,0.12105284506700872,2.0,1
24.704116821289062,-22.654315948486328,1.0663869380950928,-0.8564056543593186,0.43483591106364805,-0.2783650222833942,0.17637487863164877,3.0,2
24.918581008911133,-22.968090057373047,1.091562271118164,-0.0,-0.0,-1.0,0.16030449705693114,1.0,2
25.18767547607422,-22.780895233154297,1.1413931846618652,-0.0,-0.0,-1.0,0.12984379739596594,2.0,2
23.11634063720703,-22.33222198486328,0.6933925151824951,-0.0,-0.0,-1.0,0.08536004177426339,1.0,1
23.14516830444336,-22.485271453857422,0.6983948945999146,-0.0,-0.0,-1.0,0.17792975525735488,2.0,1
23.219467163085938,-22.176923751831055,0.7115305662155151,0.8338452232440426,0.20168338915118147,-0.5138345591857226,0.07333218899675102,3.0,1
23.29193115234375,-22.659217834472656,0.7237894535064697,-0.08253942350451869,-0.9089474509251044,-0.4086585066094874,0.04724321833253832,3.0,1
23.575313568115234,-23.542621612548828,0.7638944387435913,-0.0,-0.0,-1.0,0.05760866960569747,2.0,1
23.576852798461914,-23.93519401550293,0.7561870813369751,-0.0,-0.0,-1.0,0.016511877079770084,2.0,1
23.66880989074707,-24.135944366455078,0.7671670913696289,-0.0,-0.0,-1.0,0.05582572953771502,2.0,1
23.901912689208984,-24.276323318481445,0.8034483194351196,-0.0,-0.0,-1.0,0.07012284910741501,1.0,1
23.966291427612305,-21.979511260986328,0.84397292137146,-0.0,-0.0,-1.0,0.20336541970156893,1.0,1
22.74738121032715,-22.80750274658203,1.0429613590240479,-0.0,-0.0,-1.0,0.08113785701811178,1.0,2
22.710588455200195,-22.98077964782715,1.037549614906311,-0.0,-0.0,-1.0,0.10022675981824493,1.0,2
22.872650146484375,-24.325172424316406,1.0481882095336914,-0.0,-0.0,-1.0,0.22641652135739057,1.0,2
22.776290893554688,-22.340600967407227,1.0460929870605469,-0.0,-0.0,-1.0,0.19612529111710128,1.0,2
23.983623504638672,-23.09685516357422,1.2166612148284912,-0.42243829624949325,0.04896351688455164,-0.9050682073060139,0.129228737623031,3.0,2
24.567646026611328,-23.205198287963867,0.9431465864181519,-0.0,-0.0,-1.0,0.18032557934860483,1.0,1
24.69167137145996,-23.707008361816406,0.9546630382537842,-0.0,-0.0,-1.0,0.16022024026570156,1.0,1
24.6984920501709,-23.93783950805664,0.9498835802078247,-0.0,-0.0,-1.0,0.13150272075238403,1.0,1
25.192808151245117,-22.697887420654297,1.0595982074737549,-0.0,-0.0,-1.0,0.11746207741647745,2.0,2
