x,y,z,nx,ny,nz,curvature,density,label
33.99882888793945,-28.655181884765625,0.9961947202682495,-0.0,-0.0,-1.0,0.1372056796904562,1.0,1
33.87272644042969,-28.626293182373047,0.997624933719635,-0.0,-0.0,-1.0,0.26350966822513794,1.0,1
34.50008010864258,-29.057998657226562,0.9875685572624207,-0.0,-0.0,-1.0,0.19917911843492084,1.0,1
34.79317092895508,-26.93344497680664,0.7240204811096191,-0.0,-0.0,-1.0,0.04323497623397947,1.0,1
34.570247650146484,-27.06610679626465,0.7297676205635071,-0.0,-0.0,-1.0,0.034930800257785825,2.0,1
34.73413848876953,-27.518844604492188,1.4990432262420654,-0.0,-0.0,-1.0,0.05423076819313209,2.0,2
33.36433029174805,-28.337549209594727,1.5624258518218994,-0.0,-0.0,-1.0,0.12308484707651572,1.0,2
32.79632568359375,-29.081764221191406,1.5951695442199707,-0.0,-0.0,-1.0,0.14573980698521857,2.0,2
33.06111526489258,-29.257198333740234,1.5865106582641602,-0.0,-0.0,-1.0,0.1517863947155,1.0,2
34.60040283203125,-28.78160858154297,1.5201290845870972,-0.0,-0.0,-1.0,0.09895994107626414,1.0,2
34.203956604003906,-28.85984992980957,0.9493582248687744,-0.0,-0.0,-1.0,0.07084496132828523,2.0,1
33.61709976196289,-29.249324798583984,1.016284465789795,-0.0,-0.0,-1.0,0.1355861529697946,1.0,2
33.027652740478516,-27.086523056030273,1.1064947843551636,-0.32395263030742716,-0.04709722835019715,-0.9449002827804789,0.2323447050388012,4.0,2
32.841697692871094,-27.122892379760742,1.1278470754623413,-0.0,-0.0,-1.0,0.1700766562852649,2.0,2
33.44208526611328,-27.529638290405273,1.0534424781799316,0.9907652451822011,0.04568804656672144,-0.12765904331448646,0.1338355674568058,3.0,2
34.212223052978516,-27.777090072631836,0.958497166633606,0.5415327649037938,-0.047655136385907564,-0.8393278575811078,0.10410114878266329,4.0,1
34.74395751953125,-27.806568145751953,0.8928935527801514,-0.9575500813363238,0.1996355600843841,-0.20795067896641772,0.2382557137288784,3.0,1
34.379249572753906,-27.97821044921875,0.936217188835144,-0.0,-0.0,-1.0,0.21477583756245355,1.0,1
35.154823303222656,-28.070343017578125,0.8392521142959595,-0.0,-0.0,-1.0,0.1533320323474876,1.0,1
34.59709930419922,-28.300270080566406,0.9064805507659912,-0.0,-0.0,-1.0,0.12546230351968107,1.0,1
33.250152587890625,-28.620847702026367,1.8659220933914185,-0.0,-0.0,-1.0,0.058334574407060955,1.0,2
32.95417022705078,-27.215362548828125,1.1914900541305542,-0.0,-0.0,-1.0,0.07732994258887756,2.0,2
33.40740966796875,-27.554122924804688,1.2124038934707642,-0.0,-0.0,-1.0,0.13849080011902962,1.0,2
33.69786071777344,-28.94449806213379,1.220991849899292,-0.0,-0.0,-1.0,0.15434483689155376,1.0,2
32.746826171875,-29.032150268554688,1.1736730337142944,0.5493060129172415,0.3015854516736499,-0.7793004038955477,0.15942171547081985,3.0,2
33.63447952270508,-29.295957565307617,1.2162829637527466,-0.0,-0.0,-1.0,0.1676094085588612,1.0,2
32.95281219482422,-27.66600799560547,1.3136217594146729,-0.0,-0.0,-1.0,0.0807955314146791,1.0,2
32.88945007324219,-29.233089447021484,1.3479551076889038,0.7762189259441079,-0.020633662247079878,-0.6301257263343951,0.20258865635065465,4.0,2
32.80000305175781,-29.165863037109375,1.5628185272216797,-0.0,-0.0,-1.0,0.15823530926532914,2.0,2
32.810752868652344,-29.31171417236328,1.331575870513916,-0.0,-0.0,-1.0,0.10166639926518296,2.0,2
32.9156379699707,-27.586246490478516,1.2343034744262695,-0.12010875250813963,0.8930473329302022,0.43363619396585285,0.1269347940000106,3.0,2
32.76824188232422,-29.20427894592285,1.6411938667297363,-0.0,-0.0,-1.0,0.1727917914410868,1.0,2
32.911685943603516,-29.24332046508789,1.164334774017334,0.6559094360826664,0.2166909329696044,-0.7230683586124351,0.14978457028787823,3.0,2
33.104248046875,-29.301860809326172,1.152750015258789,-0.6320878360618479,-0.3121576217807668,-0.7092408523673931,0.1455072850286759,3.0,2
32.79243850708008,-27.320438385009766,1.1231653690338135,-0.0,-0.0,-1.0,0.0817498474005038,2.0,2
33.00402069091797,-29.284725189208984,1.1566137075424194,-0.0,-0.0,-1.0,0.09004050707223236,2.0,2
32.927467346191406,-27.116374969482422,1.1194093227386475,-0.0,-0.0,-1.0,0.19897420618358128,2.0,2
34.27845764160156,-27.782196044921875,1.0404548645019531,-0.0,-0.0,-1.0,0.13159229697760566,2.0,2
34.70951461791992,-27.722484588623047,1.0097730159759521,0.8098025821492292,-0.1733545118272911,-0.5605069055538591,0.16718685981383674,4.0,2
32.82805633544922,-28.93490982055664,1.027716040611267,0.9665728455199233,-0.19151130193733032,-0.17047098150062734,0.134979250505152,3.0,2
33.115867614746094,-28.914806365966797,1.00958251953125,-0.0,-0.0,-1.0,0.20521887976627853,1.0,2
34.741722106933594,-27.678672790527344,0.8911691308021545,-0.0,-0.0,-1.0,0.16559070091819747,2.0,1
32.91413497924805,-29.167266845703125,1.1153161525726318,-0.0,-0.0,-1.0,0.20315001011856526,1.0,2
34.706451416015625,-27.688404083251953,0.977454423904419,0.13639658356605197,-0.7520547596440169,-0.6448330097694198,0.17277986453015187,4.0,1
32.9076042175293,-28.946273803710938,1.2494032382965088,-0.0,-0.0,-1.0,0.22129320723213589,1.0,2
32.82606506347656,-27.929561614990234,1.250330924987793,-0.0,-0.0,-1.0,0.12255929926168546,2.0,2
33.33582305908203,-29.0328369140625,1.2518119812011719,-0.0,-0.0,-1.0,0.1464374507851177,1.0,2
33.73274612426758,-29.258480072021484,1.2538998126983643,-0.0,-0.0,-1.0,0.1253388771092126,1.0,2
33.0025634765625,-27.141590118408203,1.2524980306625366,-0.0,-0.0,-1.0,0.05476778308657708,1.0,2
33.62924575805664,-27.51111602783203,1.2558379173278809,-0.0,-0.0,-1.0,0.10462021799285315,1.0,2
34.81004333496094,-28.74245834350586,1.2615941762924194,-0.0,-0.0,-1.0,0.11552322407692756,2.0,2
35.14749526977539,-28.104854583740234,1.2649332284927368,-0.0,-0.0,-1.0,0.09901187769737307,1.0,2
32.962303161621094,-29.21807098388672,1.1823704242706299,-0.2706138712723502,-0.4174913337624024,-0.8674497788969011,0.15815360053383323,5.0,2
33.228797912597656,-29.258544921875,1.172238826751709,-0.0,-0.0,-1.0,0.12355795057836501,2.0,2
34.2566032409668,-28.850994110107422,1.1283072233200073,0.786924845682746,-0.39994826171929954,0.4698836826225158,0.055365840632147466,4.0,2
34.7773551940918,-27.7503662109375,1.0982441902160645,-0.0,-0.0,-1.0,0.14214809280916932,1.0,2
34.80827713012695,-28.563064575195312,1.1043531894683838,-0.0,-0.0,-1.0,0.15601941004427475,2.0,2
32.758731842041016,-29.2314510345459,1.6964020729064941,-0.0,-0.0,-1.0,0.24506106310175904,1.0,2
33.34352111816406,-28.31481170654297,1.6279778480529785,-0.0,-0.0,-1.0,0.12493754182569848,2.0,2
33.20166778564453,-28.65662956237793,1.6482917070388794,-0.0,-0.0,-1.0,0.07568613578348726,1.0,2
32.88270568847656,-29.18987274169922,1.4710532426834106,-0.0,-0.0,-1.0,0.0898268044074369,2.0,2
33.188602447509766,-28.593570709228516,1.4385005235671997,-0.15562762915628794,0.8941856872549374,-0.41977612813451953,0.07910136874097794,3.0,2
33.02676773071289,-29.25716209411621,1.4638946056365967,-0.0,-0.0,-1.0,0.09287415281387508,2.0,2
33.33848571777344,-28.31257438659668,1.4228546619415283,-0.0,-0.0,-1.0,0.1287472322616959,1.0,2
33.98656463623047,-28.499086380004883,1.3881957530975342,-0.0,-0.0,-1.0,0.09092523153330184,1.0,2
34.30894470214844,-28.3929500579834,1.366384744644165,-0.0,-0.0,-1.0,0.13219081010803926,2.0,2
34.762725830078125,-27.664154052734375,1.3223557472229004,-0.2425133829343925,0.960706987398285,0.13501608593729889,0.07121073031265698,5.0,2
34.72624969482422,-27.310422897338867,0.7229875326156616,-0.0,-0.0,-1.0,0.030188804504194512,1.0,1
33.15955352783203,-28.514869689941406,1.5428138971328735,-0.0,-0.0,-1.0,0.12984933317356417,1.0,2
32.94105911254883,-29.3106746673584,1.5810859203338623,-0.0,-0.0,-1.0,0.1506193693019261,2.0,2
33.32484817504883,-28.363040924072266,1.5269348621368408,-0.0,-0.0,-1.0,0.10646987514964112,2.0,2
34.874786376953125,-28.106243133544922,1.4125629663467407,-0.0,-0.0,-1.0,0.07740525057258899,2.0,2
34.15436553955078,-27.95623779296875,0.8950810432434082,-0.0,-0.0,-1.0,0.16862627879460515,2.0,1
34.819908142089844,-27.750568389892578,0.8648478388786316,-0.0,-0.0,-1.0,0.22873788654087054,1.0,1
33.18363952636719,-28.750946044921875,1.643953800201416,-0.0,-0.0,-1.0,0.10114261010807717,1.0,2
32.943336486816406,-29.327505111694336,1.6628469228744507,-0.0,-0.0,-1.0,0.18580587655653183,2.0,2
33.26518249511719,-28.347667694091797,1.6356217861175537,-0.0,-0.0,-1.0,0.1386441248939258,1.0,2
34.229366302490234,-27.625995635986328,1.575529932975769,0.717363058430342,-0.25157487839078313,-0.649692483381275,0.04304924914596132,3.0,2
32.82284927368164,-29.13713836669922,1.6149770021438599,-0.0,-0.0,-1.0,0.1865697782756718,1.0,2
33.03221130371094,-29.346847534179688,1.5988004207611084,-0.0,-0.0,-1.0,0.1360609262717292,1.0,2
33.212982177734375,-28.640153884887695,1.566349983215332,0.6947429593299038,-0.5603990968330096,-0.45087145921013294,0.06716499008700763,5.0,2
34.26374053955078,-27.711397171020508,1.4431283473968506,-0.0,-0.0,-1.0,0.03595916352623334,1.0,2
34.81719207763672,-27.660924911499023,1.3870928287506104,-0.7812376411509114,-0.5435508451577511,0.30695313449654515,0.07974406283078905,3.0,2
32.889930725097656,-29.21700668334961,1.4294180870056152,-0.0,-0.0,-1.0,0.10329299705976232,2.0,2
32.97291946411133,-28.103870391845703,1.4245818853378296,-0.0,-0.0,-1.0,0.08425526266900281,2.0,2
34.255435943603516,-28.855392456054688,1.350940227508545,-0.0,-0.0,-1.0,0.049690932301743936,2.0,2
34.23969268798828,-27.732219696044922,1.351432204246521,0.3211147325353096,-0.9367250467437086,-0.1393969703823348,0.05983362261138645,5.0,2
34.489532470703125,-27.92603302001953,1.3369873762130737,-0.0,-0.0,-1.0,0.14600816237311687,1.0,2
34.37640380859375,-28.92331314086914,1.3439598083496094,-0.0,-0.0,-1.0,0.0809773264604632,1.0,2
34.7635383605957,-27.64710235595703,1.3208674192428589,-0.2425133829343925,0.960706987398285,0.13501608593729889,0.07602352148601087,5.0,2
34.77186965942383,-28.170520782470703,1.3206534385681152,0.8483186024182261,-0.49420120291381137,0.19005451804608497,0.09885163373440559,4.0,2
32.911216735839844,-29.260360717773438,1.2547894716262817,0.1802455196875666,-0.8914550049464023,-0.41571568022937166,0.11270200918306492,3.0,2
33.03514862060547,-27.614463806152344,1.2726199626922607,-0.848074039905921,0.033118803895316566,-0.5288417226980054,0.0679519130873579,4.0,2
33.07140350341797,-28.44736099243164,1.2598010301589966,-0.0,-0.0,-1.0,0.2222450769479367,1.0,2
33.09866714477539,-29.299762725830078,1.2470285892486572,-0.0,-0.0,-1.0,0.11262039836174492,2.0,2
33.19318771362305,-27.56766700744629,1.267109990119934,-0.3026910418954501,-0.3665325814151086,-0.8797908841977301,0.0887418879616344,5.0,2
33.801727294921875,-28.90688705444336,1.225113034248352,-0.0,-0.0,-1.0,0.12216978706810018,1.0,2
34.18268966674805,-27.763187408447266,1.2256004810333252,-0.0,-0.0,-1.0,0.05212674802033497,2.0,2
34.375282287597656,-27.799352645874023,1.2174824476242065,-0.0,-0.0,-1.0,0.11056994726887129,1.0,2
34.211402893066406,-28.880962371826172,1.2094001770019531,0.644192484943632,0.39407106065161,-0.6555334022756306,0.1095553558975201,5.0,2
34.843692779541016,-28.565711975097656,1.1886138916015625,-0.0,-0.0,-1.0,0.16219619629466245,2.0,2
32.91394805908203,-28.493263244628906,1.2142393589019775,-0.0,-0.0,-1.0,0.22286597764806498,1.0,2
33.09053039550781,-28.777929306030273,1.2021137475967407,-0.0,-0.0,-1.0,0.17482664936634068,1.0,2
33.728084564208984,-28.866971969604492,1.1727873086929321,-0.0,-0.0,-1.0,0.15001786709893078,1.0,2
34.163185119628906,-27.89128875732422,1.1684629917144775,-0.0,-0.0,-1.0,0.08299612057938956,1.0,2
34.12917709350586,-29.016935348510742,1.1527725458145142,-0.0,-0.0,-1.0,0.10634391482676842,1.0,2
34.65610885620117,-27.822792053222656,1.1474552154541016,-0.0,-0.0,-1.0,0.07575746643172308,1.0,2
34.70267105102539,-28.86552619934082,1.1295803785324097,-0.0,-0.0,-1.0,0.17056700737457084,1.0,2
32.91609573364258,-27.674253463745117,1.226865530014038,-0.0,-0.0,-1.0,0.12056286098098529,2.0,2
33.092227935791016,-27.580366134643555,1.2205976247787476,-0.0,-0.0,-1.0,0.03149200661777392,2.0,2
33.37310791015625,-29.22553062438965,1.20429265499115,-0.0,-0.0,-1.0,0.22545616560245116,1.0,2
33.52480697631836,-29.275550842285156,1.1980504989624023,-0.0,-0.0,-1.0,0.09810247444150949,2.0,2
34.55738830566406,-28.803001403808594,1.1694124937057495,-0.0,-0.0,-1.0,0.1289152951768828,1.0,2
34.749229431152344,-29.06438446044922,1.1579153537750244,-0.0,-0.0,-1.0,0.19553734287262367,1.0,2
33.35171890258789,-27.484066009521484,1.2358453273773193,-0.0,-0.0,-1.0,0.07570902701777853,1.0,2
32.95684051513672,-28.966407775878906,1.2235382795333862,-0.0,-0.0,-1.0,0.21930550516344605,1.0,2
33.51896667480469,-27.513198852539062,1.2293540239334106,-0.0,-0.0,-1.0,0.13372026424106653,1.0,2
33.42466354370117,-28.493730545043945,1.2154395580291748,-0.0,-0.0,-1.0,0.12102633382906637,1.0,2
34.08965301513672,-28.596282958984375,1.1898846626281738,-0.0,-0.0,-1.0,0.08155120192734837,1.0,2
34.819488525390625,-28.1622257232666,1.1710079908370972,-0.0,-0.0,-1.0,0.11392218247962024,1.0,2
35.01848220825195,-28.23394012451172,1.162489891052246,-0.0,-0.0,-1.0,0.14023272767758502,1.0,2
33.514644622802734,-27.583332061767578,0.8065584897994995,-0.0,-0.0,-1.0,0.21077152276654465,2.0,1
33.316139221191406,-28.305755615234375,1.5417126417160034,-0.0,-0.0,-1.0,0.11574140661170655,2.0,2
33.19099426269531,-28.616458892822266,1.5470126867294312,0.8377410867040666,-0.2682705841410283,-0.475626707968046,0.11653148732145746,4.0,2
32.86450958251953,-29.181503295898438,1.5609186887741089,-0.5244204353095541,0.8180374958952172,-0.236215711457176,0.13296219790086972,4.0,2
34.73725128173828,-27.482898712158203,1.4834966659545898,-0.0,-0.0,-1.0,0.09400181115358823,2.0,2
34.42462921142578,-28.8372802734375,1.496023416519165,-0.0,-0.0,-1.0,0.1922229068410563,2.0,2
33.17372131347656,-27.580102920532227,1.2796794176101685,-0.5552501471347554,0.8308180909767319,-0.037928535598028536,0.025093576290406445,3.0,2
33.108436584472656,-27.594690322875977,1.2810742855072021,-0.0,-0.0,-1.0,0.04671233199768222,1.0,2
33.25001907348633,-27.591005325317383,1.277483344078064,-0.0,-0.0,-1.0,0.07402605538981173,1.0,2
33.132591247558594,-28.203676223754883,1.2681788206100464,-0.0,-0.0,-1.0,0.0822468432904209,1.0,2
33.102210998535156,-28.511432647705078,1.2627365589141846,-0.0,-0.0,-1.0,0.18886315616057958,1.0,2
33.22612380981445,-28.625335693359375,1.2572636604309082,-0.0,-0.0,-1.0,0.22449535900621695,1.0,2
32.883079528808594,-29.265209197998047,1.2529867887496948,-0.0,-0.0,-1.0,0.11193979805458237,2.0,2
34.18630599975586,-27.791011810302734,1.2489217519760132,0.6460523546425521,-0.4426625227659795,-0.6218249319537393,0.050271776568575954,4.0,2
33.796234130859375,-28.679183959960938,1.2414697408676147,-0.0,-0.0,-1.0,0.18948815042405195,2.0,2
34.50773239135742,-28.111360549926758,1.2340364456176758,-0.0,-0.0,-1.0,0.1759238883656721,1.0,2
34.22820281982422,-28.912446975708008,1.2255266904830933,0.8207957325010001,0.15659753013289174,-0.5493374000233596,0.12458788772921957,3.0,2
34.87705993652344,-28.531705856323242,1.215881109237671,-0.0,-0.0,-1.0,0.11233023310422272,1.0,2
32.732269287109375,-27.157665252685547,0.8371725082397461,0.5088541643316864,0.7602504188187057,-0.4038399932253906,0.16746795449097854,3.0,1
33.51289749145508,-27.62356185913086,0.7831407785415649,-0.0,-0.0,-1.0,0.2088745489931417,2.0,1
33.297733306884766,-28.32537841796875,1.4576398134231567,-0.0,-0.0,-1.0,0.09993636082074484,2.0,2
32.852272033691406,-29.206851959228516,1.4639365673065186,-0.0,-0.0,-1.0,0.10075768388311686,2.0,2
34.33364486694336,-27.69158935546875,1.4322787523269653,-0.0,-0.0,-1.0,0.04000057475785434,2.0,2
34.63117218017578,-28.163883209228516,1.4193286895751953,0.522956130027628,0.29028224853047124,-0.8014069517134352,0.1136253790948869,4.0,2
34.26842498779297,-28.39398193359375,1.4279768466949463,0.7966976494883959,0.5635849958848076,-0.21827690604639405,0.11409114890720345,4.0,2
34.881343841552734,-28.176006317138672,1.4119096994400024,0.6732964549796231,0.28403082738149543,-0.6826407348004186,0.13476617561943416,3.0,2
33.10122299194336,-28.698829650878906,1.105484962463379,-0.0,-0.0,-1.0,0.24984146988232403,1.0,2
32.91088104248047,-29.266448974609375,1.1048760414123535,-0.0,-0.0,-1.0,0.1752191272502321,1.0,2
33.030433654785156,-29.327739715576172,1.096130132675171,-0.0,-0.0,-1.0,0.12294609567221366,2.0,2
33.22081756591797,-28.601802825927734,1.7340360879898071,0.29853689701555813,-0.41527205489538604,-0.8593164967247433,0.07208736860523737,4.0,2
32.75907516479492,-29.326454162597656,1.7584561109542847,-0.0,-0.0,-1.0,0.2024662003191619,2.0,2
32.817054748535156,-28.556983947753906,1.078776240348816,-0.0,-0.0,-1.0,0.1311632982443586,1.0,2
32.87455368041992,-28.768321990966797,1.0697823762893677,-0.0,-0.0,-1.0,0.20106021863669732,1.0,2
33.978057861328125,-27.964168548583984,0.9918210506439209,-0.0,-0.0,-1.0,0.17128926491264249,1.0,1
33.4659309387207,-29.244709014892578,1.010636568069458,-0.0,-0.0,-1.0,0.12411450326068879,2.0,2
34.11481857299805,-28.29009246826172,0.974045991897583,-0.0,-0.0,-1.0,0.175138115722245,1.0,1
34.46198654174805,-29.037914276123047,0.9303783178329468,-0.0,-0.0,-1.0,0.1908007731168316,1.0,1
34.896339416503906,-28.694664001464844,0.8998861312866211,-0.0,-0.0,-1.0,0.1577330112187808,1.0,1
32.943092346191406,-28.42858123779297,1.6655457019805908,-0.0,-0.0,-1.0,0.17287477464460363,1.0,2
32.95286178588867,-28.80950164794922,1.6677272319793701,-0.0,-0.0,-1.0,0.07783712217296898,1.0,2
34.003543853759766,-27.732315063476562,1.5959097146987915,-0.0,-0.0,-1.0,0.04831132326927341,1.0,2
32.87052917480469,-27.053836822509766,0.856586217880249,-0.3910726637582761,0.37487251736632016,-0.8405550353096723,0.18933631643351426,3.0,1
32.74634552001953,-27.28437614440918,0.8700370788574219,-0.0,-0.0,-1.0,0.17314506093322768,1.0,1
32.75446701049805,-27.84514045715332,0.8578366041183472,-0.0,-0.0,-1.0,0.056999524138435176,1.0,1
33.1430549621582,-26.993818283081055,0.8184801340103149,-0.0,-0.0,-1.0,0.16809448424266016,2.0,1
33.059837341308594,-28.261653900146484,0.8060553073883057,-0.0,-0.0,-1.0,0.2997412285479905,2.0,1
33.0902099609375,-28.37987518310547,0.799343466758728,-0.0,-0.0,-1.0,0.0673019062556478,1.0,1
32.84806823730469,-26.932519912719727,0.8620877265930176,-0.0,-0.0,-1.0,0.22759217917277005,1.0,1
32.93096923828125,-27.970949172973633,1.3951563835144043,-0.168158968073059,-0.3977082522867108,-0.9019704582300094,0.1196405715325825,3.0,2
33.06114196777344,-29.238901138305664,1.3866862058639526,-0.0,-0.0,-1.0,0.09070022000273002,1.0,2
33.2618522644043,-28.58160400390625,1.359586477279663,-0.0,-0.0,-1.0,0.10969286148844426,2.0,2
33.78021240234375,-28.498857498168945,1.2979774475097656,-0.0,-0.0,-1.0,0.1674488268347119,1.0,2
33.642372131347656,-29.314544677734375,1.318807601928711,-0.0,-0.0,-1.0,0.1682069525625655,1.0,2
34.26456069946289,-27.69723892211914,1.2356477975845337,-0.0,-0.0,-1.0,0.04233878520740313,1.0,2
33.93378448486328,-28.530391693115234,1.2800191640853882,-0.0,-0.0,-1.0,0.20505103367605798,1.0,2
34.39769744873047,-27.66162109375,1.2195931673049927,-0.0,-0.0,-1.0,0.08437003666134282,1.0,2
34.306724548339844,-28.82935333251953,1.2377139329910278,-0.0,-0.0,-1.0,0.15049417204828666,1.0,2
34.736854553222656,-28.394115447998047,1.184080958366394,-0.0,-0.0,-1.0,0.11350830873468698,1.0,2
32.82260513305664,-28.97665023803711,1.043699860572815,0.9665728455199233,-0.19151130193733032,-0.17047098150062734,0.14653244886625028,3.0,2
32.71792221069336,-27.059085845947266,1.112955093383789,-0.0,-0.0,-1.0,0.27423049764961543,1.0,2
32.781429290771484,-27.457338333129883,1.0941098928451538,-0.0,-0.0,-1.0,0.1239675785600477,1.0,2
32.86724853515625,-27.700641632080078,1.0766501426696777,-0.0,-0.0,-1.0,0.19418447063016298,1.0,2
33.102230072021484,-28.604970932006836,1.021416187286377,-0.0,-0.0,-1.0,0.20643047679227508,1.0,2
33.02082443237305,-28.986797332763672,1.019560694694519,-0.0,-0.0,-1.0,0.151455543132962,2.0,2
32.92957305908203,-27.047805786132812,1.086754560470581,-0.03357495487029927,0.5848959574007008,-0.8104131300896938,0.23368693375047647,3.0,2
33.356136322021484,-28.671024322509766,0.9884974956512451,-0.0,-0.0,-1.0,0.2726839401263833,1.0,1
33.65917205810547,-28.614158630371094,0.9529685974121094,-0.0,-0.0,-1.0,0.16563588525526662,1.0,1
34.17937469482422,-27.75156021118164,0.911003589630127,-0.0,-0.0,-1.0,0.10877652132236361,2.0,1
34.40918731689453,-28.209503173828125,0.8703584671020508,-0.0,-0.0,-1.0,0.198132442566623,1.0,1
34.678260803222656,-27.125778198242188,0.8615800142288208,-0.0,-0.0,-1.0,0.030713752219179758,1.0,1
34.84225845336914,-27.78093719482422,0.8256491422653198,-0.0,-0.0,-1.0,0.2628575085601369,1.0,1
35.00646209716797,-28.194549560546875,0.7948907613754272,-0.0,-0.0,-1.0,0.13704293662605155,1.0,1
35.1180534362793,-28.462419509887695,0.7741739749908447,-0.0,-0.0,-1.0,0.132938578758043,1.0,1
35.17336654663086,-27.760433197021484,0.7834889888763428,-0.0,-0.0,-1.0,0.11136344500603115,1.0,1
33.15135192871094,-28.482837677001953,1.5911946296691895,-0.0,-0.0,-1.0,0.11345153626171965,1.0,2
33.25959396362305,-28.307964324951172,1.5812139511108398,-0.0,-0.0,-1.0,0.10761010861335726,1.0,2
34.433631896972656,-27.62752914428711,1.4651532173156738,-0.0,-0.0,-1.0,0.024310125617260855,1.0,2
34.72370147705078,-27.579727172851562,1.4356670379638672,-0.0,-0.0,-1.0,0.057271284787059396,2.0,2
33.116371154785156,-29.339004516601562,1.1984792947769165,-0.0,-0.0,-1.0,0.10154735071351173,1.0,2
33.101295471191406,-28.404712677001953,1.2041455507278442,0.2957733896554713,-0.24661912098299507,-0.9228743745154525,0.15416090201535565,3.0,2
33.2102165222168,-28.85000228881836,1.1885861158370972,-0.0,-0.0,-1.0,0.23081788705292178,1.0,2
33.29216003417969,-29.257320404052734,1.1763797998428345,-0.5792095431688932,0.12503334110783626,-0.8055327235522427,0.18917680298140618,3.0,2
33.09589767456055,-27.37751007080078,1.2063149213790894,-0.04134796755953037,-0.061114864348913764,-0.9972739437758862,0.03322913660628513,3.0,2
33.00166320800781,-27.719741821289062,1.2185821533203125,-0.0,-0.0,-1.0,0.1126933134333028,2.0,2
33.66250991821289,-28.926666259765625,1.1296882629394531,0.38952103964270185,-0.2752675974588116,-0.8789204227146635,0.18373593143271352,3.0,2
33.138099670410156,-27.304874420166016,1.2006808519363403,0.5865804072361281,0.009218658656508087,-0.8098385284606263,0.0719332867783231,3.0,2
33.79263687133789,-28.651521682739258,1.1132420301437378,-0.3850713887239557,-0.0055787852617454736,-0.922869927314357,0.23079616126433553,3.0,2
34.34465789794922,-27.777013778686523,1.039299488067627,-0.8350118831702221,0.1642000144039713,-0.5251604614156083,0.1411490350450065,3.0,2
34.535884857177734,-28.188419342041016,1.014351487159729,-0.0,-0.0,-1.0,0.19504202157218217,1.0,2
34.75260925292969,-27.692455291748047,0.9836153984069824,-0.08327274371587837,0.8517513791449312,-0.5172864180304151,0.21663338333222623,4.0,1
35.18983459472656,-28.46807098388672,0.9266637563705444,-0.0,-0.0,-1.0,0.1428929191208392,1.0,1
34.2584228515625,-27.636375427246094,1.611632227897644,0.5443296304617985,-0.38832938472546635,-0.7435761846375003,0.04304924914596128,4.0,2
33.07408142089844,-29.306171417236328,1.1815322637557983,-0.561606814024613,-0.49862372668458266,-0.6602818834621337,0.08290597201686087,4.0,2
33.32035827636719,-29.16983413696289,1.1559675931930542,-0.0,-0.0,-1.0,0.2220260301720896,1.0,2
33.329368591308594,-29.349212646484375,1.151292085647583,-0.0,-0.0,-1.0,0.14897227627019352,1.0,2
33.08022689819336,-28.409440994262695,1.1986567974090576,-0.0,-0.0,-1.0,0.15978915336649685,2.0,2
33.66449737548828,-28.724159240722656,1.1237108707427979,-0.0,-0.0,-1.0,0.17067017688043862,1.0,2
33.027801513671875,-27.56325912475586,1.219076156616211,-0.0,-0.0,-1.0,0.04362717000712215,2.0,2
33.803184509277344,-28.6304931640625,1.1087138652801514,-0.6075780919538695,-0.2710019025702868,-0.7465968329567036,0.21830936717348157,4.0,2
33.1483268737793,-27.327072143554688,1.2078359127044678,0.5898140824076695,0.015157684421100472,-0.8073968000906301,0.02764525314674416,4.0,2
34.335567474365234,-27.77344512939453,1.0548691749572754,-0.8350118831702221,0.1642000144039713,-0.5251604614156083,0.1470844848027132,3.0,2
34.47929763793945,-28.058183670043945,1.0336918830871582,-0.0,-0.0,-1.0,0.2950576730833849,1.0,2
34.79191207885742,-27.667476654052734,0.9980957508087158,-0.0,-0.0,-1.0,0.17777539618959223,2.0,1
32.83419418334961,-29.217208862304688,1.7634154558181763,-0.490711966073114,0.8310776043765304,0.2617475536780157,0.15898495726496112,4.0,2
34.2921257019043,-27.606433868408203,1.610010027885437,0.2658604454619512,-0.3479660471161095,-0.8990204967592019,0.043505032307052716,3.0,2
33.35816955566406,-28.61004638671875,0.8068056106567383,-0.0,-0.0,-1.0,0.10652484904465116,1.0,1
34.184043884277344,-28.00754165649414,0.7222378253936768,-0.0,-0.0,-1.0,0.1089789635629446,1.0,1
32.993980407714844,-28.59505844116211,0.8542449474334717,-0.0,-0.0,-1.0,0.12689976376052026,1.0,1
33.19853591918945,-28.593841552734375,0.8281377553939819,-0.0,-0.0,-1.0,0.14830967866440672,1.0,1
32.874515533447266,-27.772830963134766,0.9075196981430054,-0.0,-0.0,-1.0,0.14528795956139234,1.0,1
32.84353256225586,-27.14403533935547,0.9384801387786865,-0.0,-0.0,-1.0,0.11087068245159343,2.0,1
34.04607391357422,-27.729537963867188,0.7517967224121094,-0.0,-0.0,-1.0,0.27112675090902066,1.0,1
33.650001525878906,-26.93408203125,0.8358975648880005,-0.0,-0.0,-1.0,0.07639260903466077,2.0,1
33.99913787841797,-27.307296752929688,0.7737438678741455,-0.0,-0.0,-1.0,0.02814231103112355,1.0,1
33.68626403808594,-26.89992904663086,0.8320162296295166,-0.0,-0.0,-1.0,0.06272654946874262,2.0,1
34.319236755371094,-27.128738403320312,0.7348138093948364,-0.0,-0.0,-1.0,0.021093214368693533,1.0,1
34.51583480834961,-27.05887794494629,0.7089866399765015,0.7818350790713952,0.17719740904295073,-0.597775030728025,0.03474038074452764,3.0,1
32.958778381347656,-29.28876495361328,1.3747282028198242,-0.0,-0.0,-1.0,0.08808998152295479,2.0,2
33.38530349731445,-29.16842269897461,1.3339321613311768,-0.0,-0.0,-1.0,0.19221941341981605,2.0,2
33.178794860839844,-28.687061309814453,1.3656193017959595,-0.0,-0.0,-1.0,0.1605576871783524,1.0,2
32.845184326171875,-28.03600311279297,1.413844108581543,0.10636171980238729,-0.06197019518187671,-0.9923945180571074,0.1638549439205034,5.0,2
32.91194152832031,-27.99129867553711,1.4076765775680542,-0.06659495409221289,-0.24442323005403999,-0.9673791380319332,0.09359387839913792,4.0,2
33.83339309692383,-28.602947235107422,1.2979707717895508,-0.866454935095613,0.2608820272834731,-0.4256717200953365,0.2137355195153232,5.0,2
34.236900329589844,-28.873153686523438,1.2497233152389526,0.8050891096786114,0.3698549431502144,-0.463722812145631,0.11919483986043881,6.0,2
34.33624267578125,-29.05951499938965,1.2357373237609863,-0.0,-0.0,-1.0,0.08380038185515506,1.0,2
32.72544479370117,-27.49524688720703,1.4368853569030762,-0.9826736983503924,-0.16746025546302917,0.07943214343462492,0.14651280842482403,3.0,2
34.808475494384766,-28.57142448425293,1.191758394241333,-0.0,-0.0,-1.0,0.10213749671163119,2.0,2
34.222633361816406,-27.782711029052734,1.2680153846740723,0.3355446945649206,-0.47498428107116036,-0.8135107194651138,0.0607807020018436,5.0,2
33.3014030456543,-28.617740631103516,1.8914268016815186,-0.0,-0.0,-1.0,0.058334574407060906,1.0,2
34.730770111083984,-28.414981842041016,0.7336701154708862,-0.0,-0.0,-1.0,0.11503218070178106,2.0,1
34.98013687133789,-28.426128387451172,0.7014696598052979,-0.0,-0.0,-1.0,0.05830497748854166,1.0,1
34.28532791137695,-28.04738998413086,0.8064191341400146,-0.0,-0.0,-1.0,0.1638743688376401,2.0,1
34.83446502685547,-28.064069747924805,0.7355107069015503,-0.0,-0.0,-1.0,0.09865771523009376,1.0,1
34.99662780761719,-28.36856460571289,0.7018141746520996,-0.0,-0.0,-1.0,0.05979555240949216,1.0,1
34.62556457519531,-27.64333724975586,0.7799185514450073,-0.0,-0.0,-1.0,0.22968022756386433,1.0,1
34.977294921875,-27.875,0.7246482372283936,-0.0,-0.0,-1.0,0.07829492847261942,1.0,1
33.086647033691406,-28.717296600341797,0.9189141988754272,-0.0,-0.0,-1.0,0.14777469458687212,1.0,1
32.753013610839844,-28.125797271728516,0.9894788265228271,-0.0,-0.0,-1.0,0.09007340592367462,1.0,1
32.853797912597656,-27.868144989013672,0.9909588098526001,-0.0,-0.0,-1.0,0.10335002494404513,1.0,1
32.76228332519531,-27.546951293945312,1.018282175064087,-0.0,-0.0,-1.0,0.13584008126897906,1.0,2
34.207454681396484,-27.858699798583984,0.8246216773986816,-0.17691782526321662,0.9279682422316831,0.32798631757067837,0.1192546288021112,4.0,1
32.73003387451172,-27.1102294921875,1.0436286926269531,0.345106550258902,0.8983887710913951,0.271659869957439,0.23034063570790875,5.0,2
32.995811462402344,-27.09860610961914,1.011336326599121,-0.6629641932312048,0.7377560542138407,0.12725754580425758,0.1485628851113641,5.0,2
34.66603088378906,-27.191017150878906,0.7922344207763672,-0.0,-0.0,-1.0,0.04078257412974915,2.0,1
35.033626556396484,-27.02891731262207,0.7488746643066406,-0.0,-0.0,-1.0,0.03720006435108911,1.0,1
32.92436218261719,-29.27017593383789,1.4467294216156006,-0.4642160798842739,0.7045173828035112,-0.5368041435240313,0.1024532623510633,3.0,2
33.18798828125,-28.72100067138672,1.4380440711975098,-0.0,-0.0,-1.0,0.23240590092376143,1.0,2
33.107521057128906,-28.425804138183594,1.4534212350845337,-0.0,-0.0,-1.0,0.19404538514846592,1.0,2
33.85869598388672,-28.565383911132812,1.3779807090759277,-0.0,-0.0,-1.0,0.1965010293425742,1.0,2
34.26646423339844,-28.886863708496094,1.3307300806045532,-0.0,-0.0,-1.0,0.05355560059763644,2.0,2
34.22596740722656,-28.33084487915039,1.3470677137374878,-0.0,-0.0,-1.0,0.15421278184398268,2.0,2
32.869056701660156,-27.79339027404785,0.8443489074707031,-0.0,-0.0,-1.0,0.10279817319267107,1.0,1
32.943031311035156,-27.116287231445312,0.878872275352478,-0.0,-0.0,-1.0,0.21643694265548505,1.0,1
33.85548782348633,-27.320430755615234,0.7438294887542725,-0.0,-0.0,-1.0,0.024720875288521165,2.0,1
33.68486404418945,-26.963783264160156,0.7881324291229248,-0.0,-0.0,-1.0,0.0678994638441396,2.0,1
34.37113571166992,-27.057968139648438,0.6870768070220947,-0.0,-0.0,-1.0,0.01940672294519664,2.0,1
33.1584587097168,-29.342060089111328,1.2283791303634644,-0.0,-0.0,-1.0,0.09121171751149162,1.0,2
33.07956314086914,-29.304615020751953,1.2379149198532104,0.40999338310347294,0.09046616268156386,-0.9075909316542567,0.0853336964505718,3.0,2
33.439125061035156,-29.319507598876953,1.2010471820831299,-0.0,-0.0,-1.0,0.11243415840399353,1.0,2
32.8251838684082,-28.651641845703125,1.2914819717407227,-0.0,-0.0,-1.0,0.1474784650401117,1.0,2
33.161354064941406,-28.773178100585938,1.252136468887329,-0.0,-0.0,-1.0,0.19860212511473152,1.0,2
33.705543518066406,-28.653398513793945,1.2003421783447266,-0.0,-0.0,-1.0,0.20793758830267167,1.0,2
34.29037857055664,-28.95770263671875,1.1263744831085205,-0.0,-0.0,-1.0,0.1225597506421635,1.0,2
34.76814270019531,-28.86547088623047,1.07778000831604,-0.0,-0.0,-1.0,0.114670105502731,1.0,2
34.30046463012695,-28.102615356445312,1.156008005142212,-0.0,-0.0,-1.0,0.19131052389328224,1.0,2
33.12388610839844,-27.665294647216797,1.3001255989074707,-0.0,-0.0,-1.0,0.03687094082527878,1.0,2
34.21983337402344,-27.78812026977539,1.1757320165634155,-0.0,-0.0,-1.0,0.05940245306929912,1.0,2
34.715274810791016,-27.652557373046875,1.1239464282989502,-0.0,-0.0,-1.0,0.14136555127911354,1.0,2
32.8023681640625,-29.22156524658203,1.7823872566223145,-0.3927119857472598,-0.49801574545896854,-0.7731478600664895,0.15209400897898465,3.0,2
33.246063232421875,-28.75836753845215,1.7535892724990845,-0.0,-0.0,-1.0,0.04102854502556742,1.0,2
34.22060012817383,-27.530136108398438,1.6832997798919678,-0.0,-0.0,-1.0,0.03948563931064639,1.0,2
33.135738372802734,-28.610107421875,0.8569209575653076,-0.0,-0.0,-1.0,0.14945763617399,1.0,1
33.268943786621094,-28.41439437866211,0.8586585521697998,-0.0,-0.0,-1.0,0.13100180696284805,1.0,1
34.08906936645508,-28.256410598754883,0.7774972915649414,-0.0,-0.0,-1.0,0.10041445347482644,1.0,1
34.43687438964844,-28.40692710876465,0.7245863676071167,-0.0,-0.0,-1.0,0.13642435350247564,1.0,1
34.760223388671875,-28.276744842529297,0.6953508853912354,-0.0,-0.0,-1.0,0.1446539008955704,1.0,1
34.21815872192383,-27.957778930664062,0.7848347425460815,-0.5119498176908851,0.6470100967852592,-0.5650533769691131,0.10605133931429273,3.0,1
34.577056884765625,-27.870864868164062,0.7475359439849854,-0.0,-0.0,-1.0,0.19698256581725182,1.0,1
34.5573844909668,-27.587787628173828,0.7703728675842285,-0.0,-0.0,-1.0,0.15680943707103742,2.0,1
34.91331100463867,-27.690059661865234,0.7183191776275635,-0.0,-0.0,-1.0,0.1304751575508853,1.0,1
34.64325714111328,-27.15381622314453,0.7898677587509155,0.455791395842398,0.02658561832715282,-0.8896895011037287,0.03475782646273527,4.0,1
34.91887664794922,-26.973058700561523,0.7664493322372437,-0.0,-0.0,-1.0,0.03749234176574467,1.0,1
32.86961364746094,-29.26183319091797,1.3250374794006348,-0.0,-0.0,-1.0,0.13231042874296275,2.0,2
33.01378631591797,-29.31036376953125,1.3100426197052002,-0.0,-0.0,-1.0,0.039835195229300985,1.0,2
33.4998893737793,-29.339553833007812,1.2663154602050781,-0.0,-0.0,-1.0,0.1096785705374953,1.0,2
33.050052642822266,-28.821613311767578,1.33432936668396,-0.0,-0.0,-1.0,0.1847411897033378,1.0,2
33.84949493408203,-29.112600326538086,1.2472538948059082,-0.0,-0.0,-1.0,0.10846061400092678,2.0,2
33.71506118774414,-28.52361297607422,1.2904455661773682,-0.0,-0.0,-1.0,0.19852152271062212,2.0,2
33.840728759765625,-28.86863136291504,1.2609081268310547,-0.0,-0.0,-1.0,0.13813005506574022,1.0,2
34.203369140625,-28.860210418701172,1.2276285886764526,0.5434061880071904,0.6826980991913637,-0.4885007883268892,0.1095553558975201,4.0,2
34.549949645996094,-28.26081085205078,1.223731279373169,-0.0,-0.0,-1.0,0.19802312108120884,1.0,2
35.10850143432617,-28.54659652709961,1.1549748182296753,-0.9276119739748916,-0.1386760531679447,-0.34685008002906226,0.16479981385079293,3.0,2
32.714019775390625,-27.75631332397461,0.9742239713668823,-0.0,-0.0,-1.0,0.07329672839619658,1.0,1
34.21467208862305,-27.77638816833496,1.2796602249145508,0.3355446945649206,-0.47498428107116036,-0.8135107194651138,0.058406430244386756,5.0,2
34.710140228271484,-27.702238082885742,1.2334357500076294,-0.0,-0.0,-1.0,0.080959499948981,2.0,2
34.92467498779297,-27.43408966064453,1.2231018543243408,-0.0,-0.0,-1.0,0.05130412990439406,1.0,2
32.95878219604492,-27.1104736328125,0.9987536668777466,-0.494576470203975,0.8691293183297876,-0.0028884494413172813,0.11893207133436198,5.0,1
32.94986343383789,-29.35890007019043,1.8095214366912842,-0.0,-0.0,-1.0,0.1796665977885969,2.0,2
32.85472106933594,-28.037311553955078,1.394482135772705,0.5930203616699129,-0.7919801782205932,0.14523858974309498,0.16708047678509388,5.0,2
32.7237548828125,-27.4396915435791,1.4382497072219849,-0.38774021082138754,0.19882958596547096,-0.900069066603772,0.14768973886134212,6.0,2
33.081138610839844,-28.245851516723633,0.765990138053894,-0.0,-0.0,-1.0,0.18398229690081566,2.0,1
33.89669418334961,-27.738502502441406,0.7174830436706543,-0.0,-0.0,-1.0,0.09461730687686996,1.0,1
33.74588394165039,-27.672386169433594,0.7430475950241089,-0.0,-0.0,-1.0,0.07629948508221433,1.0,1
34.50349426269531,-27.02977752685547,0.7014725208282471,-0.0,-0.0,-1.0,0.034740380744527684,2.0,1
34.60000228881836,-26.9776611328125,0.6925094127655029,-0.0,-0.0,-1.0,0.022842644924012962,2.0,1
33.00975036621094,-29.266159057617188,1.1453578472137451,0.6687696091272177,-0.5253345267536284,-0.5260901490318649,0.08707024519006806,3.0,2
33.17973709106445,-29.307331085205078,1.1266438961029053,-0.0,-0.0,-1.0,0.10127812287014445,1.0,2
33.90940475463867,-29.336673736572266,1.0547215938568115,-0.0,-0.0,-1.0,0.12606204747107405,2.0,2
33.55167770385742,-29.018112182617188,1.112963318824768,-0.0,-0.0,-1.0,0.19688022363575702,1.0,2
34.26286315917969,-28.994152069091797,1.0433530807495117,-0.0,-0.0,-1.0,0.132373522376468,1.0,2
34.773765563964844,-29.061641693115234,0.985027551651001,-0.0,-0.0,-1.0,0.19474752803012346,1.0,1
33.15692138671875,-28.337989807128906,1.201130747795105,-0.0,-0.0,-1.0,0.15713620437806758,1.0,2
34.4501953125,-28.254192352294922,1.0736029148101807,-0.0,-0.0,-1.0,0.17075234791988378,1.0,2
34.51499938964844,-28.517681121826172,1.0491528511047363,-0.0,-0.0,-1.0,0.1302039198151714,1.0,2
35.17698669433594,-28.495296478271484,0.977492094039917,-0.0,-0.0,-1.0,0.15743985010121808,1.0,1
32.90705871582031,-27.859085083007812,0.8262187242507935,-0.0,-0.0,-1.0,0.10897868355681932,1.0,1
34.2817268371582,-27.787456512451172,1.1225316524505615,-0.010109461865898247,-0.8915572775841347,-0.45279511875410927,0.10891719698624798,3.0,2
33.67912292480469,-27.47669219970703,0.7702856063842773,-0.0,-0.0,-1.0,0.10138569879567799,1.0,1
33.83277893066406,-27.335025787353516,0.7641022205352783,-0.0,-0.0,-1.0,0.019899757508788574,2.0,1
34.87384033203125,-27.53196144104004,1.071503758430481,-0.0,-0.0,-1.0,0.08375784399189189,1.0,2
32.82229232788086,-27.087230682373047,0.9150595664978027,0.4704589892407039,0.7953366079913406,0.38224078724207783,0.15106377198228074,4.0,1
33.7703971862793,-27.08679962158203,0.7955373525619507,-0.0,-0.0,-1.0,0.07059823421460411,1.0,1
34.160640716552734,-27.1837158203125,0.7346845865249634,-0.0,-0.0,-1.0,0.028475892345753866,1.0,1
34.35213851928711,-27.081056594848633,0.7178720235824585,-0.0,-0.0,-1.0,0.019406722945196655,2.0,1
34.049232482910156,-26.863208770751953,0.778779149055481,-0.0,-0.0,-1.0,0.030177254304159386,1.0,1
34.44216537475586,-28.79486083984375,1.526379108428955,-0.0,-0.0,-1.0,0.18605850892975082,1.0,2
33.028358459472656,-27.62143325805664,1.2657597064971924,-0.848074039905921,0.033118803895316566,-0.5288417226980054,0.0679519130873579,4.0,2
33.19657516479492,-27.524112701416016,1.2556413412094116,0.03166907293582214,-0.42780238110291074,-0.903317326603484,0.019832451520782342,6.0,2
33.16094970703125,-28.580059051513672,1.6403253078460693,-0.0,-0.0,-1.0,0.08081697206755076,2.0,2
33.15043640136719,-28.295185089111328,1.6534814834594727,-0.0,-0.0,-1.0,0.12968289021173765,1.0,2
34.1171760559082,-28.5720157623291,0.7849650382995605,-0.0,-0.0,-1.0,0.08242588757938785,1.0,1
34.27946472167969,-28.444759368896484,0.7790526151657104,-0.0,-0.0,-1.0,0.11952744767256526,1.0,1
34.620384216308594,-28.35274887084961,0.747556209564209,-0.0,-0.0,-1.0,0.2234893931428735,1.0,1
34.92564010620117,-28.422882080078125,0.7035427093505859,-0.0,-0.0,-1.0,0.06673956864933837,1.0,1
34.41263198852539,-28.05904769897461,0.8015162944793701,0.8435858790567508,0.4861888327856757,-0.22799842878965426,0.1743778539461491,3.0,1
34.77853775024414,-27.99175262451172,0.7629349231719971,-0.0,-0.0,-1.0,0.19698005549727854,2.0,1
35.09998321533203,-27.948993682861328,0.7259924411773682,-0.0,-0.0,-1.0,0.08114499924542398,1.0,1
34.79700469970703,-27.787322998046875,0.7798764705657959,-0.0,-0.0,-1.0,0.21966034905573234,1.0,1
32.937007904052734,-29.271892547607422,1.2907006740570068,-0.0,-0.0,-1.0,0.11834444185245452,2.0,2
32.74476623535156,-28.759296417236328,0.9092984199523926,-0.0,-0.0,-1.0,0.14056552975089556,1.0,1
32.81533432006836,-28.75823211669922,0.9026232957839966,-0.0,-0.0,-1.0,0.14745873393706835,1.0,1
33.840694427490234,-29.18865966796875,1.2196834087371826,-0.0,-0.0,-1.0,0.1669148033663121,1.0,2
34.300048828125,-28.979284286499023,1.1922197341918945,-0.0,-0.0,-1.0,0.17882503970520186,1.0,2
33.0678596496582,-28.441741943359375,0.9121201038360596,-0.0,-0.0,-1.0,0.237899988079217,1.0,1
33.2232666015625,-28.66783332824707,0.8718492984771729,-0.0,-0.0,-1.0,0.1614882338267876,1.0,1
33.840633392333984,-28.692970275878906,1.2561445236206055,-0.0,-0.0,-1.0,0.1455492003647978,2.0,2
34.1818962097168,-28.85653305053711,1.2122597694396973,0.5036872162777513,0.6719299788533153,-0.5429634349351282,0.10955535589752008,3.0,2
34.784217834472656,-28.62221336364746,1.1692273616790771,-0.0,-0.0,-1.0,0.07362347964319585,2.0,2
32.727142333984375,-28.011863708496094,0.9931299686431885,-0.0,-0.0,-1.0,0.07624765284133724,1.0,1
35.113182067871094,-28.541812896728516,1.1405444145202637,-0.0,-0.0,-1.0,0.15070278246489974,2.0,2
34.169464111328125,-27.830718994140625,0.8531394004821777,0.09100172803053777,0.9310420709079488,-0.3533827212738246,0.13609184706891672,3.0,1
32.73145294189453,-27.118684768676758,1.0886266231536865,0.0934762171685287,0.994964267944268,0.03617046223079013,0.24711039594820944,4.0,2
33.261878967285156,-27.311630249023438,1.0106122493743896,-0.0,-0.0,-1.0,0.05840713239614295,1.0,2
32.90070343017578,-27.064159393310547,1.0761477947235107,-0.03357495487029927,0.5848959574007008,-0.8104131300896938,0.15737205897968307,3.0,2
33.036537170410156,-27.06314468383789,1.061358094215393,-0.0,-0.0,-1.0,0.2759706666083611,2.0,2
32.75216293334961,-29.175418853759766,1.313150405883789,-0.0,-0.0,-1.0,0.12229926418365698,1.0,2
33.008811950683594,-28.794015884399414,1.3220646381378174,-0.0,-0.0,-1.0,0.17633972414335555,1.0,2
33.29545593261719,-28.40143394470215,1.3272027969360352,-0.0,-0.0,-1.0,0.2132031075652872,1.0,2
33.729454040527344,-28.530223846435547,1.2782881259918213,-0.0,-0.0,-1.0,0.1889870094227948,2.0,2
32.80005645751953,-28.03441619873047,1.398159146308899,0.32962997231244484,0.06336605671547434,-0.9419813290132819,0.1665603815554801,3.0,2
32.903385162353516,-28.062850952148438,1.387120246887207,-0.0,-0.0,-1.0,0.15940093298850397,2.0,2
34.261390686035156,-27.7862548828125,1.2789952754974365,-0.007428993026284052,-0.4732189714705053,-0.8809135117041923,0.10907570811418411,4.0,2
34.64004898071289,-28.141319274902344,1.2163238525390625,-0.0,-0.0,-1.0,0.1715522109670041,1.0,2
32.72113800048828,-27.46454620361328,1.4483287334442139,-0.9981215431502088,-0.016305213598795467,0.0590552716439754,0.1346796965452085,5.0,2
34.823795318603516,-27.566242218017578,1.234162449836731,-0.0,-0.0,-1.0,0.06608053373857176,2.0,2
32.82502746582031,-29.19684600830078,1.7549550533294678,-0.490711966073114,0.8310776043765304,0.2617475536780157,0.17311701077525318,4.0,2
34.251285552978516,-28.97161102294922,0.8493449687957764,-0.0,-0.0,-1.0,0.11463650791070787,2.0,1
34.543731689453125,-29.092363357543945,0.8057132959365845,-0.0,-0.0,-1.0,0.12966163279651155,1.0,1
35.14600372314453,-29.244945526123047,0.7237167358398438,-0.0,-0.0,-1.0,0.18913825950279914,1.0,1
34.553985595703125,-28.86223030090332,0.8292112350463867,-0.0,-0.0,-1.0,0.17794691197258983,1.0,1
35.168067932128906,-28.850971221923828,0.7618885040283203,-0.0,-0.0,-1.0,0.10095345981920008,1.0,1
33.35370635986328,-27.46210479736328,0.7175748348236084,-0.0,-0.0,-1.0,0.15385026541877594,1.0,1
33.52268600463867,-27.353302001953125,0.7129290103912354,-0.0,-0.0,-1.0,0.10086041592695029,1.0,1
33.72111892700195,-27.06058120727539,0.7297277450561523,-0.0,-0.0,-1.0,0.07221101419386368,1.0,1
34.045936584472656,-27.023462295532227,0.6931629180908203,-0.0,-0.0,-1.0,0.028173348907159213,1.0,1
33.01675033569336,-28.96033477783203,0.96800696849823,-0.0,-0.0,-1.0,0.11530115254675129,1.0,1
33.18373489379883,-28.654266357421875,0.988312840461731,-0.0,-0.0,-1.0,0.21911924574143485,1.0,1
34.14973068237305,-28.810800552368164,0.8773322105407715,-0.0,-0.0,-1.0,0.10129629200063313,1.0,1
34.644287109375,-28.285320281982422,0.8799560070037842,-0.0,-0.0,-1.0,0.12877535680644164,1.0,1
35.19077682495117,-28.27073097229004,0.8180737495422363,-0.0,-0.0,-1.0,0.1517152749586895,1.0,1
32.83698654174805,-27.59865951538086,1.1398098468780518,-0.0,-0.0,-1.0,0.14800034862381273,1.0,2
34.73774337768555,-27.81014060974121,0.9180781841278076,-0.9575500813363238,0.1996355600843841,-0.20795067896641772,0.23393214935101003,3.0,1
35.17497253417969,-27.99130630493164,0.847844123840332,-0.0,-0.0,-1.0,0.10848384684125292,1.0,1
32.816837310791016,-27.167865753173828,1.0060447454452515,-0.0,-0.0,-1.0,0.10530094830981698,1.0,2
33.1440544128418,-27.25934600830078,1.1487709283828735,-0.0,-0.0,-1.0,0.05826858233532233,2.0,2
33.38324737548828,-27.488872528076172,1.099719762802124,-0.0,-0.0,-1.0,0.21413407230170461,2.0,2
34.77439498901367,-27.669424057006836,0.9280174970626831,-0.0,-0.0,-1.0,0.18266133341482135,2.0,1
35.04866409301758,-27.581966400146484,0.9036788940429688,-0.0,-0.0,-1.0,0.14040614401582494,1.0,1
32.91275405883789,-29.249828338623047,1.380670428276062,-0.27992552432146117,-0.9095614521709134,-0.3071476282801058,0.10159443395864404,4.0,2
33.509918212890625,-29.354202270507812,1.3272502422332764,-0.0,-0.0,-1.0,0.11017711756539962,2.0,2
33.55286407470703,-29.34391975402832,1.3247020244598389,-0.0,-0.0,-1.0,0.12077708404564838,2.0,2
33.9654541015625,-29.089736938476562,1.3111579418182373,-0.0,-0.0,-1.0,0.11492507134401204,1.0,2
34.33769989013672,-28.922588348388672,1.291723608970642,-0.0,-0.0,-1.0,0.062323754368772195,1.0,2
33.18110656738281,-28.606746673583984,1.413212776184082,-0.15601180972531556,0.8937996010231803,-0.42045521573294264,0.1405217995250258,4.0,2
33.27840805053711,-28.297149658203125,1.4303654432296753,-0.0,-0.0,-1.0,0.1403878693183894,2.0,2
33.804847717285156,-28.615848541259766,1.3616678714752197,-0.0,-0.0,-1.0,0.17379356137360025,2.0,2
34.20614242553711,-28.791156768798828,1.3134138584136963,0.2228792908384461,-0.8220166858518688,-0.5240356761676264,0.06087447611264666,3.0,2
34.87982940673828,-28.793025970458984,1.251375436782837,-0.0,-0.0,-1.0,0.07138209204907452,1.0,2
34.252479553222656,-28.298799514770508,1.3464834690093994,0.9245737440764971,-0.3445016569594905,-0.16273291036705978,0.1422296447530373,4.0,2
34.62308120727539,-28.256084442138672,1.3149720430374146,-0.0,-0.0,-1.0,0.19543690243152992,1.0,2
34.239036560058594,-27.73712730407715,1.3894025087356567,0.8333601558892864,-0.5508820326125718,-0.04516455159553768,0.048286356934948045,5.0,2
34.74092483520508,-27.652843475341797,1.3466579914093018,-0.3836405680751931,0.731869205490225,-0.5631939102849475,0.079744062830789,5.0,2
32.725746154785156,-26.8951416015625,1.2296993732452393,-0.0,-0.0,-1.0,0.220748813531122,1.0,2
33.26127243041992,-28.547435760498047,1.8270314931869507,-0.0,-0.0,-1.0,0.06566669666104778,2.0,2
32.82789993286133,-28.337587356567383,0.7892180681228638,-0.0,-0.0,-1.0,0.13301304265706682,1.0,1
33.68855285644531,-27.99385643005371,0.7565639019012451,-0.0,-0.0,-1.0,0.06838811120013011,1.0,1
34.06608581542969,-28.08453369140625,0.7023887634277344,-0.0,-0.0,-1.0,0.12476311958385419,1.0,1
33.7608757019043,-27.925369262695312,0.7586121559143066,-0.0,-0.0,-1.0,0.11381259247998764,1.0,1
34.158470153808594,-27.84006118774414,0.7260905504226685,-0.0,-0.0,-1.0,0.18178690377854226,1.0,1
34.54669952392578,-27.83333969116211,0.680870532989502,-0.0,-0.0,-1.0,0.11615580306541777,1.0,1
34.69458770751953,-27.53040885925293,0.7037869691848755,-0.0,-0.0,-1.0,0.14005396195517097,1.0,1
34.97199630737305,-27.49507713317871,0.6723048686981201,-0.0,-0.0,-1.0,0.10968774605461892,1.0,1
32.888946533203125,-29.22757911682129,1.076272964477539,-0.0,-0.0,-1.0,0.15624047502079771,2.0,2
34.438392639160156,-29.282772064208984,0.9359169006347656,-0.0,-0.0,-1.0,0.1304361785912857,1.0,1
33.199546813964844,-28.77869415283203,1.103573203086853,-0.0,-0.0,-1.0,0.2386788001369192,1.0,2
33.980960845947266,-29.14090347290039,0.9948604106903076,-0.0,-0.0,-1.0,0.1982733469034055,1.0,1
34.227813720703125,-28.905078887939453,0.9976199865341187,0.3130178605539973,0.21165491244244689,-0.9258628500016499,0.09136708567339331,3.0,1
33.09496307373047,-28.523963928222656,1.141268014907837,-0.0,-0.0,-1.0,0.18009285828759372,1.0,2
33.762413024902344,-28.584503173828125,1.0767438411712646,-0.0,-0.0,-1.0,0.18369025585859078,2.0,2
33.89261245727539,-28.629680633544922,1.0597363710403442,-0.0,-0.0,-1.0,0.22268477584711546,1.0,2
34.68267059326172,-28.76436424255371,0.9672713279724121,-0.0,-0.0,-1.0,0.16005441134214965,1.0,1
32.773536682128906,-27.85120964050293,1.2442247867584229,-0.0,-0.0,-1.0,0.10230599567406147,1.0,2
34.6490592956543,-28.16942596435547,1.03385591506958,-0.0,-0.0,-1.0,0.19981740988977778,1.0,2
33.047630310058594,-27.630802154541016,1.2469369173049927,-0.848074039905921,0.033118803895316566,-0.5288417226980054,0.04390353707060731,4.0,2
33.39360046386719,-27.5609130859375,1.0366525650024414,-0.0,-0.0,-1.0,0.18460742944497927,1.0,2
34.2321662902832,-27.78481101989746,1.118429183959961,-0.0,-0.0,-1.0,0.09438562113954528,2.0,2
