x,y,z,nx,ny,nz,curvature,density,label
6.243431091308594,25.764097213745117,-1.479593276977539,-0.0,-0.0,-1.0,0.03541430475416035,1.0,0
7.642982482910156,26.91469383239746,-1.4979851245880127,-0.6201288900885947,0.7443934588320976,-0.24762580262459344,0.16469929281386933,4.0,0
6.641587734222412,26.46304702758789,-1.452821969985962,-0.0,-0.0,-1.0,0.11132966854061345,2.0,0
6.485366344451904,26.43709945678711,-1.4561469554901123,-0.0,-0.0,-1.0,0.11459213178064667,1.0,0
6.343654632568359,26.61591148376465,-1.502631425857544,-0.0,-0.0,-1.0,0.17700971160727713,1.0,0
6.0813727378845215,26.9735164642334,-1.5947706699371338,-0.0,-0.0,-1.0,0.006024094938268417,1.0,0
5.477971076965332,26.474369049072266,-1.5263454914093018,-0.0,-0.0,-1.0,0.04327600480219241,1.0,0
5.822272300720215,26.875486373901367,-1.5896861553192139,-0.0,-0.0,-1.0,0.006978610820403134,1.0,0
7.478476524353027,26.404375076293945,-1.3961875438690186,-0.0,-0.0,-1.0,0.15433154929388515,1.0,0
7.133960723876953,26.284648895263672,-1.3879320621490479,-0.0,-0.0,-1.0,0.09322321807043485,2.0,0
6.84724235534668,26.395015716552734,-1.426872968673706,-0.0,-0.0,-1.0,0.05341755189156495,1.0,0
5.674464225769043,26.249147415161133,-1.4655277729034424,-0.0,-0.0,-1.0,0.030096405306374373,2.0,0
7.574020862579346,26.93756866455078,-1.320342779159546,-0.2176207134546495,-0.4631918718421912,-0.8591242721136543,0.08687712736114707,4.0,0
7.296496391296387,26.860095977783203,-1.3170692920684814,-0.0,-0.0,-1.0,0.2127750497794508,2.0,0
5.947094917297363,28.01507568359375,-1.598541021347046,-0.0,-0.0,-1.0,0.11947854625141674,2.0,0
7.054248809814453,26.441425323486328,-1.2485387325286865,-0.0,-0.0,-1.0,0.07385114984285064,1.0,0
6.77609395980835,26.476268768310547,-1.267883062362671,-0.0,-0.0,-1.0,0.1364885705651587,1.0,0
6.5365400314331055,26.507652282714844,-1.285226583480835,-0.5252748830054267,0.7219812428151636,-0.4503658316376895,0.23131640818723903,5.0,0
5.545960426330566,25.775150299072266,-1.2009027004241943,0.7330220967293203,-0.06420158782660776,-0.6771681931596414,0.11050984122996124,3.0,0
5.849660396575928,28.007034301757812,-1.4583079814910889,-0.0903253610332561,0.9516712566181493,-0.2935356000233102,0.07947881054096423,4.0,0
7.414772033691406,26.96320152282715,-1.2031543254852295,-0.7938003799865023,0.5859756075503801,-0.16282980098632865,0.07901145687396004,3.0,0
6.87890625,26.584609985351562,-1.1547749042510986,-0.0,-0.0,-1.0,0.05236313099352742,1.0,0
7.15094518661499,26.90721321105957,-1.2026865482330322,0.319574358295724,0.4962988744912519,-0.8071924533211353,0.1464493505066925,3.0,0
6.658231735229492,26.554370880126953,-1.1585559844970703,0.24589344356821075,0.8944732162845275,-0.3734355095056982,0.08420995108715723,5.0,0
6.370113372802734,26.424592971801758,-1.1477010250091553,-0.0,-0.0,-1.0,0.11859062781600144,2.0,0
5.547328948974609,25.917654037475586,-1.0969181060791016,0.2569527037594825,-0.4783116668275481,-0.8397578564129925,0.09002264474027015,3.0,0
5.909914016723633,27.87150001525879,-1.5705151557922363,0.593729834596834,0.7240487890457666,-0.3510530367209132,0.09910524038049423,3.0,0
5.891318321228027,27.9739933013916,-1.591869831085205,-0.0,-0.0,-1.0,0.12810167029379627,2.0,0
5.402665138244629,27.478801727294922,-1.5243515968322754,-0.0,-0.0,-1.0,0.12385175101094621,1.0,0
5.272009372711182,27.5750789642334,-1.5516448020935059,-0.0,-0.0,-1.0,0.17650440423614183,1.0,0
5.581063270568848,28.026792526245117,-1.620687484741211,-0.0,-0.0,-1.0,0.07992813116388842,2.0,0
7.34386682510376,26.335721969604492,-1.1942720413208008,-0.0,-0.0,-1.0,0.08604167806701585,2.0,0
7.54343318939209,26.94063377380371,-1.3058409690856934,-0.3223841207730864,0.5212667219331155,-0.7901578850321418,0.07036662199183905,3.0,0
7.061273574829102,26.355823516845703,-1.2110862731933594,-0.0,-0.0,-1.0,0.1275268567184816,2.0,0
6.667943954467773,26.421329498291016,-1.2426409721374512,-0.0,-0.0,-1.0,0.14296859040649076,2.0,0
6.463065147399902,26.46900749206543,-1.2629199028015137,-0.5253958768220415,0.2333220041408063,-0.8182420271546285,0.17365902154468804,3.0,0
5.458133697509766,25.720569610595703,-1.1766042709350586,-0.0,-0.0,-1.0,0.19484152423029924,2.0,0
7.654436111450195,26.570438385009766,-1.543867588043213,-0.0,-0.0,-1.0,0.04869098879033301,2.0,0
7.284372329711914,26.1757869720459,-1.4718785285949707,0.16032697644918983,0.44840548684634024,-0.8793337136654988,0.1474150040020369,4.0,0
7.3443145751953125,26.272951126098633,-1.4910812377929688,-0.0,-0.0,-1.0,0.10864107654760535,2.0,0
6.934037208557129,26.267364501953125,-1.51163911819458,-0.0,-0.0,-1.0,0.1153730444096815,1.0,0
6.571257591247559,26.323335647583008,-1.5455684661865234,0.8470705833850273,0.5309919651684931,0.022780686781822053,0.15157898478851312,3.0,0
6.099720001220703,26.34854507446289,-1.5816526412963867,-0.0,-0.0,-1.0,0.0777690448430426,1.0,0
5.737120151519775,26.016706466674805,-1.532365322113037,-0.0,-0.0,-1.0,0.08643887123253857,1.0,0
5.518840789794922,25.990276336669922,-1.5426506996154785,-0.0,-0.0,-1.0,0.10537003878776728,1.0,0
6.085718154907227,27.981172561645508,-1.6592130661010742,-0.0,-0.0,-1.0,0.11876502739814351,1.0,0
5.857268333435059,27.888635635375977,-1.6522092819213867,-0.0,-0.0,-1.0,0.11873007581076352,1.0,0
7.665125846862793,26.91830062866211,-1.3494296073913574,-0.40938584172776643,0.5638354293756871,-0.7172815633860826,0.16409976474124852,4.0,0
7.475811004638672,26.876188278198242,-1.3472633361816406,0.0710539702573847,0.972884640070975,-0.2201063616178136,0.16516277623602385,4.0,0
6.953291416168213,26.376924514770508,-1.2588343620300293,-0.0,-0.0,-1.0,0.14211688708037612,2.0,0
6.661421775817871,26.436307907104492,-1.2865262031555176,0.7822123097207533,-0.5448108848951765,-0.3022002684000437,0.15061251464229575,3.0,0
6.429360389709473,26.499881744384766,-1.312852382659912,0.005025718434569981,0.6986829893464799,-0.7154137422164064,0.13474085168909528,3.0,0
5.665349960327148,27.592317581176758,-1.5987205505371094,-0.0,-0.0,-1.0,0.0668292566711801,1.0,0
5.463415145874023,27.512069702148438,-1.5942230224609375,-0.0,-0.0,-1.0,0.13708157379857705,2.0,0
7.272113800048828,26.35405158996582,-1.239344596862793,-0.0,-0.0,-1.0,0.09280261084605365,2.0,0
7.144481182098389,26.343673706054688,-1.2426414489746094,-0.0,-0.0,-1.0,0.0895702362620779,1.0,0
5.537320613861084,25.786190032958984,-1.2113018035888672,0.7330220967293203,-0.06420158782660776,-0.6771681931596414,0.13397693153157642,3.0,0
7.657398223876953,26.908035278320312,-1.544494867324829,-0.55700046268066,0.780315250221729,-0.28435645736457404,0.1917043742082917,3.0,0
7.304121971130371,26.188053131103516,-1.3824408054351807,-0.5129800713205056,0.5701064100324348,0.6417399221397546,0.19560946761577305,7.0,0
7.378091812133789,26.311416625976562,-1.409489393234253,-0.0,-0.0,-1.0,0.13446080142252093,1.0,0
7.5199198722839355,26.725250244140625,-1.505199670791626,-0.0,-0.0,-1.0,0.11156261820272866,1.0,0
6.960040092468262,26.325977325439453,-1.4343454837799072,-0.0,-0.0,-1.0,0.08514766003789802,1.0,0
6.614681243896484,26.44388198852539,-1.482886552810669,-0.011637565037683581,0.8883818643749847,-0.4589577650826054,0.16995434496280012,5.0,0
6.144016265869141,26.916584014892578,-1.6282408237457275,-0.0,-0.0,-1.0,0.007045596800472268,1.0,0
5.637253761291504,26.450183868408203,-1.5494978427886963,-0.0,-0.0,-1.0,0.023562744328067275,1.0,0
5.816937446594238,26.814979553222656,-1.6255624294281006,-0.0,-0.0,-1.0,0.00744679731700552,2.0,0
5.225183486938477,25.965740203857422,-1.4639675617218018,-0.0,-0.0,-1.0,0.11092523169243816,1.0,0
5.425448417663574,26.43712615966797,-1.562438726425171,-0.0,-0.0,-1.0,0.041234055749479845,1.0,0
6.313664436340332,26.462871551513672,-0.8491790294647217,-0.0,-0.0,-1.0,0.08441709838291873,2.0,0
5.928076267242432,27.881011962890625,-1.6461575031280518,-0.4864108504120319,0.8394495710599617,0.24234046762497222,0.07463829601608181,3.0,0
5.628951549530029,27.96003532409668,-1.6968114376068115,-0.0,-0.0,-1.0,0.11563837453533118,1.0,0
5.426597595214844,27.496767044067383,-1.588742971420288,-0.0,-0.0,-1.0,0.1349448463717154,2.0,0
7.612437725067139,26.987058639526367,-1.2665565013885498,-0.0,-0.0,-1.0,0.16507757249427077,1.0,0
7.1717352867126465,26.89083480834961,-1.2641065120697021,-0.34981817271531584,0.8058606968903058,0.47771935615546085,0.16788500658061337,4.0,0
7.413052082061768,26.945392608642578,-1.2680165767669678,-0.0,-0.0,-1.0,0.12138690896575889,2.0,0
6.748024940490723,26.57059097290039,-1.2076075077056885,-0.0,-0.0,-1.0,0.058280084253713026,1.0,0
6.373801231384277,26.39858627319336,-1.1919734477996826,-0.0,-0.0,-1.0,0.19060760220169604,1.0,0
6.549588680267334,26.547161102294922,-1.217890977859497,-0.0,-0.0,-1.0,0.09743104257978132,1.0,0
5.584355354309082,25.915225982666016,-1.135923147201538,0.05529198532537153,0.6575800324190075,-0.7513529778490242,0.11315360058202006,3.0,0
7.321056365966797,27.361845016479492,-1.1888041496276855,-0.0,-0.0,-1.0,0.03371118947581951,1.0,0
7.176903247833252,27.139148712158203,-1.1324114799499512,-0.0,-0.0,-1.0,0.0718637023945941,1.0,0
7.258549690246582,27.260753631591797,-1.1629695892333984,-0.0,-0.0,-1.0,0.06465422408106347,1.0,0
6.190047264099121,28.08310890197754,-1.4705028533935547,-0.0,-0.0,-1.0,0.10058510664635818,1.0,0
5.8875932693481445,28.00735092163086,-1.4719953536987305,-0.09655505022366931,0.9646329052110532,-0.24527633489676037,0.07947881054096403,3.0,0
5.685319900512695,26.166912078857422,-0.9649980068206787,-0.0,-0.0,-1.0,0.0725793608852163,2.0,0
6.623933792114258,26.793376922607422,-1.1407991647720337,-0.0,-0.0,-1.0,0.1097763237871724,1.0,0
5.457195281982422,25.69390869140625,-1.2483359575271606,-0.0,-0.0,-1.0,0.20084179459004559,2.0,0
5.670143127441406,26.09394073486328,-0.9499554634094238,0.016794295710260206,-0.13381989992638374,-0.9908633538562666,0.06745855522022458,4.0,0
7.672077178955078,27.050830841064453,-1.2122409343719482,0.5060154600106663,-0.8536768350601709,-0.12322424887920058,0.15124018195929168,3.0,0
7.425397872924805,26.888046264648438,-1.2320499420166016,-0.0,-0.0,-1.0,0.15867643399939874,1.0,0
7.369256973266602,26.348979949951172,-1.2325983047485352,0.2707838985520446,0.8401048953541919,0.4699998351987783,0.09200776978323977,3.0,0
6.815847396850586,26.33706283569336,-1.2807724475860596,-0.913268582676897,-0.2600024103615294,0.31359088395794693,0.2276192042356207,3.0,0
7.631990432739258,26.917530059814453,-1.2431707382202148,-0.0,-0.0,-1.0,0.15831517073652934,2.0,0
7.370552062988281,26.86440658569336,-1.2673063278198242,-0.6136849740501606,0.4184167399613171,-0.6695656684337967,0.17826088519593494,3.0,0
7.149547576904297,26.736841201782227,-1.2872450351715088,-0.0,-0.0,-1.0,0.11980648239988387,2.0,0
7.401302337646484,26.30074691772461,-1.2609024047851562,0.915448584489079,0.22557300039010908,0.33327272713491857,0.2029248426555249,4.0,0
7.708538055419922,27.068801879882812,-1.1870161294937134,0.6471325367013876,-0.46569671345608393,-0.603610844020077,0.13145857527745258,3.0,0
7.517986297607422,26.948200225830078,-1.2049988508224487,-0.0,-0.0,-1.0,0.08607729051092765,2.0,0
7.1951751708984375,26.882186889648438,-1.2365528345108032,0.013689104218387472,0.7315998764574551,0.6815968230509403,0.13418435418274963,4.0,0
7.406248092651367,26.386051177978516,-1.2127653360366821,-0.0,-0.0,-1.0,0.13221576408188665,2.0,0
7.058742523193359,26.682716369628906,-1.248935580253601,-0.0,-0.0,-1.0,0.04732880404592694,1.0,0
7.329729080200195,26.265960693359375,-1.2198108434677124,-0.0,-0.0,-1.0,0.12065493528377418,2.0,0
7.248788833618164,27.102336883544922,-1.1354528665542603,-0.0,-0.0,-1.0,0.05351506290607563,1.0,0
6.825250625610352,26.90831756591797,-1.175972819328308,-0.0,-0.0,-1.0,0.09159313863501473,1.0,0
6.9575958251953125,26.655887603759766,-1.1599761247634888,-0.0,-0.0,-1.0,0.052190017467100225,2.0,0
6.657354354858398,26.59415054321289,-1.1898192167282104,-0.8561453077190535,0.14767200740097522,-0.4951850061348923,0.0797104148781022,4.0,0
5.406538009643555,25.729389190673828,-1.3114157915115356,-0.0,-0.0,-1.0,0.16555408359407608,1.0,0
5.687566757202148,26.095726013183594,-0.9680734872817993,-0.142478936482977,-0.9622639181198032,-0.2318359431654306,0.0693169974055203,3.0,0
7.289203643798828,26.832427978515625,-1.3723063468933105,0.08673695968063058,0.9423079502968241,0.32331474855434444,0.19797541197868226,3.0,0
7.261568069458008,26.717323303222656,-1.372727394104004,-0.0,-0.0,-1.0,0.18625310877275034,1.0,0
5.787151336669922,26.33047866821289,-1.5385832786560059,-0.0,-0.0,-1.0,0.010532525128507064,1.0,0
5.850185394287109,26.117599487304688,-1.5269837379455566,-0.0,-0.0,-1.0,0.045691443399581054,1.0,0
7.625314712524414,26.9521484375,-1.3362112045288086,0.42585596130629627,-0.5549528371942071,-0.7146146155166366,0.13618317627998902,6.0,0
7.330926895141602,26.210302352905273,-1.3528823852539062,0.518022068651151,0.17286236514620296,-0.8377181740337517,0.21016955865255932,6.0,0
7.656522750854492,27.421546936035156,-1.5245181322097778,-0.0,-0.0,-1.0,0.06212578587592429,1.0,0
7.705631256103516,26.96609878540039,-1.5068515539169312,-0.0,-0.0,-1.0,0.17312263615527632,1.0,0
5.649684906005859,26.057029724121094,-0.9586492776870728,0.5667356855180983,-0.12220763775796602,-0.8147858344583253,0.06745855522022459,3.0,0
7.2587432861328125,27.934673309326172,-1.4450159072875977,-0.0,-0.0,-1.0,0.05294685191737543,1.0,0
7.608196258544922,26.96445083618164,-1.3747851848602295,-0.0,-0.0,-1.0,0.17283764794476922,2.0,0
7.39918327331543,26.91857147216797,-1.4019172191619873,-0.0,-0.0,-1.0,0.08176179754916729,1.0,0
6.532281875610352,26.471832275390625,-1.51181960105896,-0.0,-0.0,-1.0,0.18499743712314154,2.0,0
7.383989334106445,26.397247314453125,-1.3936705589294434,-0.0,-0.0,-1.0,0.12975309638276036,1.0,0
6.566303253173828,26.32949447631836,-1.5049030780792236,0.11321869361271873,0.9843171049820888,-0.13528253492712627,0.18846015831473628,3.0,0
6.263669967651367,26.18976402282715,-1.5448505878448486,-0.0,-0.0,-1.0,0.16229473259957292,1.0,0
5.272251129150391,26.8018798828125,-1.5021843910217285,-0.0,-0.0,-1.0,0.032489617230147816,2.0,0
7.136919021606445,26.880245208740234,-1.2756891250610352,-0.2171274582537818,0.9516310886105738,-0.2173797094075406,0.18279659997801315,3.0,0
5.497259140014648,26.59109878540039,-1.4667561054229736,-0.0,-0.0,-1.0,0.05301968837142666,2.0,0
6.754049301147461,26.410797119140625,-1.304039478302002,-0.4916971696604854,-0.8386354980227506,-0.23435954173875795,0.19930707898413919,4.0,0
6.428342819213867,26.465576171875,-1.346362829208374,-0.25393836161761446,0.6797067347020084,-0.6881235814152098,0.1396409520366415,3.0,0
5.47906494140625,26.350751876831055,-1.460939884185791,-0.0,-0.0,-1.0,0.03528422260257604,2.0,0
5.236082077026367,26.262836456298828,-1.488783597946167,-0.0,-0.0,-1.0,0.046875462791529855,1.0,0
5.421480178833008,25.75338363647461,-1.4496874809265137,-0.0,-0.0,-1.0,0.2102504502916619,1.0,0
7.469886779785156,26.92289161682129,-1.2373008728027344,-0.0,-0.0,-1.0,0.12902034294376144,2.0,0
7.4415740966796875,26.376066207885742,-1.2182135581970215,-0.0,-0.0,-1.0,0.14905474822148396,2.0,0
7.330045700073242,26.281179428100586,-1.2281808853149414,-0.14316297350520604,-0.474654683155277,-0.8684510894551929,0.11986907011098276,3.0,0
7.014921188354492,26.340652465820312,-1.2692184448242188,-0.0,-0.0,-1.0,0.14370686469422292,1.0,0
5.363615036010742,27.990497589111328,-1.62064528465271,-0.0,-0.0,-1.0,0.053432861867466146,1.0,0
5.253458023071289,27.086467742919922,-1.5818049907684326,-0.0,-0.0,-1.0,0.020100573051615854,2.0,0
5.5446624755859375,26.820575714111328,-1.5312988758087158,-0.0,-0.0,-1.0,0.011593354592138448,1.0,0
5.527565002441406,26.577392578125,-1.5202898979187012,-0.0,-0.0,-1.0,0.044881706541506285,2.0,0
5.593667984008789,26.333057403564453,-1.4992048740386963,-0.0,-0.0,-1.0,0.033880382307204415,1.0,0
5.5046234130859375,26.014202117919922,-1.4941737651824951,-0.0,-0.0,-1.0,0.10979623842689816,1.0,0
5.541706085205078,25.669940948486328,-1.4725556373596191,-0.0,-0.0,-1.0,0.16535444871321622,1.0,0
7.382266998291016,26.939834594726562,-1.315523624420166,-0.0,-0.0,-1.0,0.1097013301041612,1.0,0
7.072668075561523,26.945064544677734,-1.352726936340332,-0.0,-0.0,-1.0,0.1508036268201182,1.0,0
6.449773788452148,26.52808952331543,-1.4037740230560303,-0.5648802141554305,-0.36900950804903326,0.7380666139483113,0.07321921025089254,3.0,0
6.396488189697266,26.475040435791016,-1.4073460102081299,-0.4166825350450835,0.603355781279656,0.6799540176988585,0.18080671904729423,3.0,0
7.4160919189453125,26.39352798461914,-1.2784581184387207,0.5653828550372905,0.7085204586629994,-0.4223043770621554,0.17645043175072703,3.0,0
7.008495330810547,26.33870506286621,-1.3247473239898682,-0.8681620448781369,0.3632034327787115,-0.33819806364136934,0.1251331956025895,3.0,0
6.708316802978516,26.441404342651367,-1.3672409057617188,0.26317808861013525,0.8825566903696999,-0.3896549524376638,0.11709512141724412,3.0,0
7.330278396606445,26.253061294555664,-1.280655860900879,-0.0,-0.0,-1.0,0.12684233543218018,2.0,0
6.350193023681641,26.497982025146484,-0.7040150165557861,-0.0,-0.0,-1.0,0.08538143487888093,2.0,0
7.180883407592773,26.84857177734375,-1.2209244966506958,-0.0,-0.0,-1.0,0.140956559209709,2.0,0
6.447179794311523,26.434635162353516,-1.2625211477279663,-0.5793421141873145,0.370884949202374,-0.7258147623079357,0.16368995912728576,4.0,0
7.557756423950195,26.950117111206055,-1.1922746896743774,-0.0,-0.0,-1.0,0.08100337142821946,2.0,0
7.231078147888184,26.56781768798828,-1.1926909685134888,-0.0,-0.0,-1.0,0.06867305474342711,2.0,0
6.917689323425293,26.38716697692871,-1.2099663019180298,-0.0,-0.0,-1.0,0.12826500373732974,2.0,0
5.666187286376953,25.894336700439453,-1.306007742881775,-0.35267202602820275,-0.9115847718667267,-0.21127149774129503,0.13626929657229014,3.0,0
5.478826522827148,25.68716812133789,-1.3124676942825317,-0.0,-0.0,-1.0,0.20514271339432666,2.0,0
7.2714691162109375,26.79469871520996,-1.2741096019744873,-0.0,-0.0,-1.0,0.17644802706720272,1.0,0
6.5555620193481445,26.354686737060547,-1.326936960220337,-0.0,-0.0,-1.0,0.22971966870676355,1.0,0
7.482851028442383,26.830467224121094,-1.2527368068695068,-0.17936895218252394,-0.3276519959990148,-0.9276157332165107,0.16810379958384988,3.0,0
6.912466049194336,26.288955688476562,-1.2802093029022217,-0.0,-0.0,-1.0,0.19520891122855813,1.0,0
7.664690017700195,26.885238647460938,-1.2363944053649902,-0.0,-0.0,-1.0,0.16243481497529863,2.0,0
7.2214508056640625,26.252105712890625,-1.2413923740386963,-0.0,-0.0,-1.0,0.106780053262089,2.0,0
7.429462432861328,26.291019439697266,-1.2198729515075684,0.6955709665903074,0.20394073422828135,-0.688904352837936,0.14344132437814233,3.0,0
6.999974250793457,26.68012046813965,-1.2467281818389893,-0.0,-0.0,-1.0,0.04693568390432506,1.0,0
6.509082794189453,26.272724151611328,-1.2552564144134521,-0.0,-0.0,-1.0,0.1370552311525053,1.0,0
6.29587459564209,26.276126861572266,-1.2761733531951904,-0.0,-0.0,-1.0,0.22575838283816038,1.0,0
7.643058776855469,26.965120315551758,-1.2167282104492188,-0.0,-0.0,-1.0,0.13599325416383162,1.0,0
7.356687545776367,26.762563705444336,-1.222259759902954,-0.0,-0.0,-1.0,0.1421995692977918,1.0,0
7.021071434020996,26.269800186157227,-1.2062180042266846,-0.0,-0.0,-1.0,0.1598051356189128,2.0,0
6.866711616516113,26.232501983642578,-1.2173864841461182,-0.0,-0.0,-1.0,0.16590268874054107,1.0,0
7.112325668334961,26.2718505859375,-1.1978390216827393,-0.0,-0.0,-1.0,0.1058652463736771,1.0,0
5.682785987854004,27.960407257080078,-1.2249075174331665,-0.0,-0.0,-1.0,0.22024665893857714,1.0,0
5.502192497253418,25.82887840270996,-1.0121554136276245,-0.0,-0.0,-1.0,0.07144211155301707,1.0,0
6.161412239074707,26.251895904541016,-0.9134290218353271,-0.0,-0.0,-1.0,0.07506221770385577,1.0,0
5.554656982421875,25.736278533935547,-1.3760401010513306,-0.0,-0.0,-1.0,0.213895849999004,1.0,0
6.928194999694824,26.794921875,-0.8862475156784058,-0.0,-0.0,-1.0,0.1630258346800071,1.0,0
7.230595588684082,26.91458511352539,-0.9146610498428345,-0.0,-0.0,-1.0,0.17358871859055244,1.0,0
7.130155563354492,26.873958587646484,-0.9050165414810181,-0.0,-0.0,-1.0,0.19485556603363857,1.0,0
7.671226501464844,26.96836280822754,-1.2982800006866455,-0.19954723125465945,-0.9798091519167995,0.012447020474042201,0.16798265293145534,4.0,0
7.654966354370117,27.33678436279297,-1.320366621017456,-0.0,-0.0,-1.0,0.0820194098497723,1.0,0
7.4495849609375,26.918132781982422,-1.3097517490386963,-0.0,-0.0,-1.0,0.14983023083938166,1.0,0
5.645814895629883,26.074363708496094,-0.7281820774078369,-0.0,-0.0,-1.0,0.06540296650327772,1.0,0
7.518957138061523,27.05138397216797,-1.2044934034347534,-0.0,-0.0,-1.0,0.09496364446004411,1.0,0
7.338315963745117,26.96822166442871,-1.2027965784072876,-0.1746392882949406,0.9607324065560803,-0.21562551327892351,0.05603605861328184,3.0,0
7.099681854248047,26.949432373046875,-1.2091039419174194,0.6955789792000043,0.6625513777696771,0.27784088164016224,0.14122301010275312,4.0,0
6.60576057434082,26.568723678588867,-1.190844178199768,0.22869607337439934,0.8352450853021894,-0.5000637494376788,0.10788501682653516,4.0,0
5.624517440795898,25.9987735748291,-1.1736394166946411,-0.0,-0.0,-1.0,0.08168294320849762,1.0,0
5.52241325378418,25.818180084228516,-1.1609982252120972,-0.0,-0.0,-1.0,0.0858277878938972,1.0,0
6.391382217407227,26.434696197509766,-1.0631996393203735,-0.0,-0.0,-1.0,0.11241281925374629,2.0,0
5.6053619384765625,25.95873260498047,-1.0670117139816284,-0.0,-0.0,-1.0,0.05899619504483417,1.0,0
7.655694961547852,26.932090759277344,-1.3335294723510742,-0.45890132092297176,0.04710277684604296,-0.8872377956717937,0.1819893208181091,5.0,0
7.621196746826172,27.10708999633789,-1.3445768356323242,-0.0,-0.0,-1.0,0.1581488475503054,1.0,0
7.275663375854492,26.064634323120117,-1.345149040222168,-0.0,-0.0,-1.0,0.19666848227500322,1.0,0
7.340625762939453,26.254194259643555,-1.344602108001709,-0.88133145658566,0.41956568283646506,0.21730048646648184,0.17829010316555965,5.0,0
7.214973449707031,26.634138107299805,-1.3742451667785645,-0.0,-0.0,-1.0,0.11045331561982084,1.0,0
7.146310806274414,26.01639175415039,-1.3588361740112305,-0.0,-0.0,-1.0,0.12735297448297533,1.0,0
6.438823699951172,26.239187240600586,-1.4522199630737305,-0.0,-0.0,-1.0,0.20522694052043708,1.0,0
7.322971343994141,27.147178649902344,-1.1479166746139526,-0.0,-0.0,-1.0,0.03783545978547382,1.0,0
6.957548141479492,26.66451072692871,-1.1615597009658813,-0.0,-0.0,-1.0,0.04696454929882905,2.0,0
6.655300140380859,26.55481719970703,-1.1877435445785522,-0.49690673009927566,-0.16377240164163714,-0.8522102452109901,0.0911522954429407,6.0,0
5.5985565185546875,25.73858642578125,-1.2623544931411743,-0.0,-0.0,-1.0,0.13667285267690354,2.0,0
5.54218864440918,25.682125091552734,-1.2659600973129272,-0.0,-0.0,-1.0,0.1205845674968473,1.0,0
7.624773025512695,26.917724609375,-1.3092669248580933,-0.3176820524992306,-0.5813292977770836,-0.7490890207885035,0.17104495458714877,3.0,0
7.412982940673828,26.280271530151367,-1.2941099405288696,0.915448584489079,0.22557300039010908,0.33327272713491857,0.1718850613658471,4.0,0
7.200227737426758,26.870861053466797,-1.3531509637832642,-0.0,-0.0,-1.0,0.16598866247749353,1.0,0
7.091209411621094,26.241350173950195,-1.3277133703231812,0.5354686713884931,0.8412702827669216,0.07441514156880774,0.11341040427050732,4.0,0
6.803108215332031,26.350299835205078,-1.3663510084152222,-0.0,-0.0,-1.0,0.19501373183164408,1.0,0
6.424161911010742,26.43346405029297,-1.413718581199646,-0.0,-0.0,-1.0,0.1932443528587622,2.0,0
5.515289306640625,27.89594268798828,-1.6015218496322632,-0.0,-0.0,-1.0,0.04637397979527314,2.0,0
5.638727188110352,25.921165466308594,-1.4738749265670776,-0.0,-0.0,-1.0,0.16413521073955745,1.0,0
5.657005310058594,26.219768524169922,-1.4883297681808472,-0.0,-0.0,-1.0,0.031088195406199327,2.0,0
5.574546813964844,26.584781646728516,-1.5182336568832397,-0.0,-0.0,-1.0,0.03479999244313204,2.0,0
5.278217315673828,27.103809356689453,-1.5813456773757935,-0.0,-0.0,-1.0,0.018918566766273695,2.0,0
5.216636657714844,27.333824157714844,-1.601582407951355,-0.0,-0.0,-1.0,0.15905839464208185,1.0,0
5.455619812011719,25.900257110595703,-1.4936796426773071,-0.0,-0.0,-1.0,0.17305201181854274,1.0,0
6.426826477050781,26.51215362548828,-0.6744787693023682,-0.0,-0.0,-1.0,0.04782920213696718,1.0,0
6.677495956420898,26.71700096130371,-1.1333657503128052,-0.0,-0.0,-1.0,0.07748588861724713,1.0,0
5.508283615112305,25.72769546508789,-1.2544199228286743,-0.0,-0.0,-1.0,0.20775591068926036,1.0,0
7.33792781829834,26.079723358154297,-1.5230591297149658,-0.0,-0.0,-1.0,0.25477491976684935,1.0,0
7.42672061920166,26.32563018798828,-1.5217492580413818,-0.0,-0.0,-1.0,0.1481578641808009,1.0,0
7.102248191833496,25.857982635498047,-1.5484538078308105,-0.0,-0.0,-1.0,0.05006171202580198,2.0,0
7.099154472351074,25.930063247680664,-1.552316665649414,-0.0,-0.0,-1.0,0.05376981379192468,2.0,0
5.528142929077148,25.916217803955078,-1.1019706726074219,0.2569527037594825,-0.4783116668275481,-0.8397578564129925,0.08263511941173227,3.0,0
7.309148788452148,27.882991790771484,-1.4627408981323242,-0.0,-0.0,-1.0,0.06463950349015744,1.0,0
7.684700965881348,27.38420867919922,-1.3813159465789795,-0.0,-0.0,-1.0,0.09893348758903522,1.0,0
7.28387451171875,27.786563873291016,-1.4617371559143066,-0.0,-0.0,-1.0,0.07116261744881636,1.0,0
7.508038520812988,26.916105270385742,-1.3859038352966309,-0.0,-0.0,-1.0,0.11748508763820133,2.0,0
7.282235145568848,26.84857177734375,-1.4174883365631104,-0.0,-0.0,-1.0,0.13442678678883901,2.0,0
7.345293998718262,26.269824981689453,-1.3823537826538086,-0.0,-0.0,-1.0,0.1730403062880922,2.0,0
7.365320205688477,26.58329200744629,-1.3928301334381104,-0.0,-0.0,-1.0,0.09071015796066753,1.0,0
7.26737117767334,26.17963409423828,-1.3906974792480469,-0.2870372275438179,0.9267422233109553,0.24240148831355388,0.300147066159717,4.0,0
6.62185001373291,26.425819396972656,-1.5018372535705566,-0.0,-0.0,-1.0,0.1939247294291568,2.0,0
6.371569633483887,26.249958038330078,-1.5341238975524902,-0.0,-0.0,-1.0,0.16476053555941783,1.0,0
6.4833831787109375,25.688289642333984,-1.495020866394043,-0.0,-0.0,-1.0,0.009098489239150872,1.0,0
5.622705459594727,26.098237991333008,-0.9888980388641357,-0.0,-0.0,-1.0,0.06680203069942443,2.0,0
5.607906341552734,26.032756805419922,-0.9895100593566895,-0.0,-0.0,-1.0,0.05570263686340117,1.0,0
7.58779239654541,27.565338134765625,-1.5216646194458008,-0.0,-0.0,-1.0,0.09003531287068528,1.0,0
7.529940605163574,26.91069221496582,-1.4814538955688477,-0.0,-0.0,-1.0,0.08093314191397599,1.0,0
7.389158248901367,26.562808990478516,-1.4788362979888916,-0.0,-0.0,-1.0,0.15416742248828513,1.0,0
7.32186222076416,26.174726486206055,-1.4628849029541016,0.21853446910356292,0.469178548756876,-0.85563670748748,0.22548157467869157,3.0,0
7.168283462524414,26.247509002685547,-1.492323398590088,-0.0,-0.0,-1.0,0.09247270692506596,1.0,0
6.889008522033691,26.295299530029297,-1.5401091575622559,-0.0,-0.0,-1.0,0.1569340253451559,2.0,0
6.836596488952637,26.00829315185547,-1.5300743579864502,-0.0,-0.0,-1.0,0.022577003736943456,2.0,0
6.312555313110352,26.454456329345703,-1.0334153175354004,-0.0,-0.0,-1.0,0.05901449182097451,1.0,0
5.558748245239258,25.946903228759766,-1.110083818435669,-0.569774795275435,0.19165552981139772,-0.799140063168872,0.07975926751751446,4.0,0
7.642351150512695,27.04214859008789,-1.54447340965271,-0.0,-0.0,-1.0,0.16237543658524986,1.0,0
7.427194595336914,26.901792526245117,-1.582918643951416,-0.0,-0.0,-1.0,0.11954082884725899,1.0,0
7.476058006286621,26.599746704101562,-1.5629308223724365,-0.0,-0.0,-1.0,0.08471663523416742,1.0,0
7.348367691040039,26.235729217529297,-1.5782923698425293,-0.0,-0.0,-1.0,0.19902112798680655,2.0,0
7.392525672912598,25.88047981262207,-1.5597431659698486,-0.0,-0.0,-1.0,0.08495676221334163,1.0,0
7.00868034362793,27.129257202148438,-1.1079154014587402,-0.0,-0.0,-1.0,0.10207887529067651,1.0,0
6.6409807205200195,26.574474334716797,-1.165283203125,0.005927566275544068,-0.4957926362100688,-0.8684207078587656,0.08514051904381205,7.0,0
6.357914924621582,26.540157318115234,-0.6436796188354492,-0.0,-0.0,-1.0,0.08538143487888093,1.0,0
7.698281288146973,26.83792495727539,-1.60671067237854,-0.0,-0.0,-1.0,0.08231110213624285,2.0,0
7.6727705001831055,26.6419620513916,-1.6037633419036865,-0.06206923561696937,-0.779218268181283,-0.6236716287618725,0.03815936645813714,3.0,0
7.108676910400391,26.917238235473633,-1.213257074356079,0.531826236594871,0.8043575274652304,0.26489587025727146,0.14122301010275318,5.0,0
7.521999359130859,26.207796096801758,-1.6200218200683594,-0.0,-0.0,-1.0,0.16877701627034375,1.0,0
7.6917266845703125,25.80231475830078,-1.5676863193511963,-0.0,-0.0,-1.0,0.10673674094278741,1.0,0
6.519076347351074,26.47701644897461,-1.31852388381958,-0.8570540315877244,-0.06671590165613496,0.5108888092387979,0.1887226680849767,3.0,0
5.432755470275879,26.76816177368164,-1.5353407859802246,-0.0,-0.0,-1.0,0.03780313478892069,1.0,0
5.576117515563965,26.25353240966797,-1.5019547939300537,-0.0,-0.0,-1.0,0.035419484192379704,2.0,0
5.470351219177246,26.527463912963867,-1.5253205299377441,-0.0,-0.0,-1.0,0.04850963727065199,1.0,0
5.554149627685547,25.934181213378906,-1.5045053958892822,-0.0,-0.0,-1.0,0.18676123178049528,1.0,0
7.419248580932617,27.100143432617188,-1.159090518951416,-0.0,-0.0,-1.0,0.04087549729078642,2.0,0
7.276675224304199,26.99601173400879,-1.1832983493804932,0.3156168491361548,0.7793670822163675,-0.541269762409569,0.06423323898715201,4.0,0
7.0772600173950195,26.4698486328125,-1.2101287841796875,-0.5240231056267067,-0.2167007551600849,-0.8236750375496341,0.07262298795783007,3.0,0
6.855806350708008,26.39484405517578,-1.251673936843872,-0.08635421930832697,-0.42643532526716627,-0.9003865071023307,0.14735691825260708,5.0,0
5.612281799316406,26.152589797973633,-0.9398882389068604,-0.0,-0.0,-1.0,0.06680203069942439,2.0,0
5.516046524047852,27.850833892822266,-1.6414754390716553,-0.0,-0.0,-1.0,0.04134319329205114,1.0,0
7.696126937866211,26.56661033630371,-1.6216793060302734,-0.0,-0.0,-1.0,0.04469391596878995,1.0,0
5.547422409057617,26.897506713867188,-1.5862796306610107,-0.0,-0.0,-1.0,0.00830890018860418,1.0,0
7.610068321228027,26.31039047241211,-1.6210200786590576,-0.0,-0.0,-1.0,0.07828774705491559,1.0,0
6.3591108322143555,26.513673782348633,-1.407632827758789,-0.0,-0.0,-1.0,0.19483416975950507,2.0,0
5.566010475158691,26.65314483642578,-1.5716595649719238,-0.0,-0.0,-1.0,0.029418616776029017,1.0,0
7.654811859130859,25.863147735595703,-1.5788259506225586,-0.0,-0.0,-1.0,0.11630848411194851,1.0,0
5.687714576721191,26.17645263671875,-1.5274977684020996,-0.0,-0.0,-1.0,0.05613990636456993,1.0,0
5.668099403381348,25.905879974365234,-1.5213985443115234,-0.0,-0.0,-1.0,0.15080794195250624,1.0,0
7.654299736022949,27.27515983581543,-1.203691005706787,-0.0,-0.0,-1.0,0.0710712942761848,1.0,0
7.636763572692871,27.143875122070312,-1.1982965469360352,-0.0,-0.0,-1.0,0.11012123480748882,1.0,0
7.388401031494141,27.00408935546875,-1.2359046936035156,-0.0,-0.0,-1.0,0.05919817901517028,1.0,0
7.108094215393066,26.929115295410156,-1.2843711376190186,-0.0,-0.0,-1.0,0.15617756837504845,1.0,0
7.249053001403809,26.550609588623047,-1.235896348953247,-0.0,-0.0,-1.0,0.08753279957735634,2.0,0
7.033265113830566,26.92402458190918,-1.2983381748199463,-0.0,-0.0,-1.0,0.12386350330543354,1.0,0
7.185320854187012,26.397357940673828,-1.2400288581848145,-0.4174107752899741,-0.3632988844995235,-0.832935870996816,0.0867870178250034,6.0,0
6.859714508056641,26.394397735595703,-1.3033411502838135,-0.7974223451283909,0.48053105169107097,-0.3649760428447471,0.16425787954926885,3.0,0
6.47491455078125,26.52631378173828,-1.385420322418213,-0.04470499418612121,0.383377515791638,-0.9225091565292188,0.08279348323735077,4.0,0
5.536980628967285,26.053634643554688,-1.0316147804260254,-0.0,-0.0,-1.0,0.055702636863401135,1.0,0
7.510412216186523,27.871721267700195,-1.5719424486160278,-0.0,-0.0,-1.0,0.09814089902282948,1.0,0
7.455757141113281,27.829092025756836,-1.5776268243789673,-0.0,-0.0,-1.0,0.09814089902282944,2.0,0
5.831112861633301,28.111473083496094,-1.392901062965393,-0.0,-0.0,-1.0,0.0730922867430571,1.0,0
7.69399356842041,27.438579559326172,-1.489829182624817,-0.0,-0.0,-1.0,0.06543671832905881,1.0,0
7.427278518676758,27.796581268310547,-1.5795103311538696,-0.0,-0.0,-1.0,0.09814089902282946,2.0,0
7.708216667175293,27.196725845336914,-1.4615737199783325,-0.0,-0.0,-1.0,0.02958561475820004,1.0,0
7.589820861816406,26.957242965698242,-1.460243821144104,0.4711574393479855,-0.331908337737219,-0.817219384674376,0.10906114664408885,3.0,0
7.385425567626953,26.84568214416504,-1.4901202917099,-0.0,-0.0,-1.0,0.16398399178421372,2.0,0
7.389348983764648,26.40692901611328,-1.4482768774032593,-0.0,-0.0,-1.0,0.11826423398508798,1.0,0
6.899992942810059,26.310714721679688,-1.5414496660232544,-0.0,-0.0,-1.0,0.15693402534515596,2.0,0
6.760337829589844,26.041500091552734,-1.5491164922714233,-0.0,-0.0,-1.0,0.024075959563657493,2.0,0
6.68522834777832,25.901033401489258,-1.5542126893997192,-0.0,-0.0,-1.0,0.02031288315103195,1.0,0
6.704825401306152,25.783714294433594,-1.5411092042922974,-0.0,-0.0,-1.0,0.012333788114525988,1.0,0
6.746447563171387,26.720727920532227,-1.1339236497879028,-0.0,-0.0,-1.0,0.0642175010289158,1.0,0
6.581787109375,26.634122848510742,-1.1575230360031128,-0.0,-0.0,-1.0,0.11426474023049474,1.0,0
6.3507490158081055,26.47740936279297,-1.1891964673995972,-0.0,-0.0,-1.0,0.1340211292789479,1.0,0
5.38270378112793,25.83253288269043,-1.335166335105896,-0.0,-0.0,-1.0,0.15529195849246483,1.0,0
5.250083923339844,25.64166259765625,-1.3521732091903687,-0.0,-0.0,-1.0,0.20204741805849474,1.0,0
6.351190567016602,26.50680160522461,-0.7146352529525757,-0.9279332199526219,-0.23479158241257456,-0.2895044941560625,0.08538143487888093,4.0,0
5.645833969116211,27.99237823486328,-1.6620944738388062,-0.0,-0.0,-1.0,0.10545492276160896,1.0,0
5.894792556762695,27.86697006225586,-1.6054328680038452,-0.22406950719589977,0.9741313962620528,-0.029340735531510058,0.09910524038049424,3.0,0
5.34025764465332,27.304426193237305,-1.6266800165176392,-0.0,-0.0,-1.0,0.07695713114707643,1.0,0
5.327129364013672,27.071165084838867,-1.6010323762893677,-0.0,-0.0,-1.0,0.017119395513747734,1.0,0
7.119391441345215,26.87569808959961,-1.2780879735946655,-0.0,-0.0,-1.0,0.18279659997801315,2.0,0
5.441903114318848,26.636333465576172,-1.5305551290512085,-0.0,-0.0,-1.0,0.0537913919524582,1.0,0
5.258330345153809,26.387535095214844,-1.5349184274673462,-0.0,-0.0,-1.0,0.047351502440249854,1.0,0
7.514130592346191,26.598432540893555,-1.6101759672164917,-0.0,-0.0,-1.0,0.07597225566701331,1.0,0
6.612190246582031,26.473005294799805,-1.3101762533187866,-0.2614350349196861,0.7183581107538124,-0.6446808103478467,0.19266861983820183,4.0,0
6.397915840148926,26.456222534179688,-1.3443735837936401,0.06897585110111669,-0.05955010206073553,-0.995839403372568,0.17687234963710793,4.0,0
5.3646345138549805,26.398330688476562,-1.5172315835952759,-0.0,-0.0,-1.0,0.05404519423969136,1.0,0
7.412753105163574,26.36477279663086,-1.5929511785507202,-0.0,-0.0,-1.0,0.11148306607678045,2.0,0
7.2589216232299805,26.139755249023438,-1.5885802507400513,-0.0,-0.0,-1.0,0.1583711149280177,2.0,0
7.143162727355957,25.75316619873047,-1.5552293062210083,-0.0,-0.0,-1.0,0.0485948991433239,1.0,0
7.7030229568481445,27.100181579589844,-1.2171388864517212,-0.0,-0.0,-1.0,0.13145857527745258,2.0,0
7.411738395690918,26.948455810546875,-1.241430640220642,-0.898772700687383,0.4282726302170674,-0.09375599557395535,0.09004176575981941,3.0,0
7.110809326171875,26.436113357543945,-1.2225974798202515,-0.4262537642540119,-0.10232530023868668,-0.8987976754477884,0.07815256938384106,4.0,0
6.850111961364746,26.40953826904297,-1.262426733970642,-0.9097407514304562,-0.41265475046810324,-0.045692692007103484,0.1545625848798246,5.0,0
5.663097381591797,26.152118682861328,-0.9691978693008423,-0.44376908757292627,0.7878584465597117,-0.42702232388858835,0.06748551080705179,3.0,0
6.361567497253418,26.488372802734375,-0.7994081974029541,-0.9760651305593787,-0.008840611580456527,0.21729865276385424,0.04847888253597153,5.0,0
5.221256256103516,27.47996711730957,-1.5934966802597046,-0.0,-0.0,-1.0,0.1717656958997117,1.0,0
5.456269264221191,27.454315185546875,-1.5678514242172241,-0.0,-0.0,-1.0,0.07520423529496342,1.0,0
5.519195556640625,27.4853515625,-1.5682216882705688,-0.0,-0.0,-1.0,0.07682485938668031,1.0,0
5.532232284545898,25.816991806030273,-1.261489748954773,-0.0,-0.0,-1.0,0.18220095780435874,1.0,0
5.473907470703125,25.65424346923828,-1.2386685609817505,-0.0,-0.0,-1.0,0.20084179459004564,2.0,0
6.56889009475708,26.452177047729492,-1.2830179929733276,-0.0,-0.0,-1.0,0.19325064294485278,2.0,0
7.229122638702393,26.846235275268555,-1.3087526559829712,-0.0,-0.0,-1.0,0.16803377577903397,1.0,0
7.166636943817139,26.706317901611328,-1.285483717918396,-0.0,-0.0,-1.0,0.1207653091560201,2.0,0
6.883810520172119,26.377349853515625,-1.2428611516952515,0.5268768789857643,0.49555088642343736,-0.6905288360055399,0.1404849628075898,3.0,0
6.91495943069458,25.768186569213867,-1.5534287691116333,-0.0,-0.0,-1.0,0.02448264409397863,2.0,0
7.57072639465332,26.896448135375977,-1.2953661680221558,0.1398167779603559,-0.5221982310258645,-0.8412848959266072,0.14848912371652911,3.0,0
7.564662933349609,26.353851318359375,-1.621343731880188,-0.0,-0.0,-1.0,0.06943987062582342,1.0,0
7.285068035125732,26.104093551635742,-1.5908325910568237,-0.0,-0.0,-1.0,0.17884332789483406,2.0,0
7.0814619064331055,25.917572021484375,-1.5690377950668335,0.6760309000108822,0.02815076125858684,-0.7363353562549053,0.03705694902458124,3.0,0
7.1755595207214355,26.3897762298584,-1.2224830389022827,0.22729914119088768,0.96187688833835,0.15207876937435588,0.08678701782500345,4.0,0
7.072121620178223,26.356128692626953,-1.2238885164260864,-0.0,-0.0,-1.0,0.12465076387490287,2.0,0
7.248717784881592,26.393203735351562,-1.2176262140274048,0.6359007335398231,0.6979802781206235,-0.3293232279056117,0.09596917074490767,3.0,0
5.253728866577148,27.290199279785156,-1.6158446073532104,-0.0,-0.0,-1.0,0.07695713114707645,1.0,0
5.611856460571289,27.416919708251953,-1.606636643409729,-0.0,-0.0,-1.0,0.06734673418378934,1.0,0
5.492249488830566,27.374561309814453,-1.6094483137130737,-0.0,-0.0,-1.0,0.07042508177665509,1.0,0
7.505444526672363,25.820701599121094,-1.614683985710144,-0.0,-0.0,-1.0,0.0762570428925892,1.0,0
5.545690536499023,25.82353973388672,-1.3383647203445435,0.0697736735875206,0.31233377825450054,-0.9474065892927758,0.2002126770472165,3.0,0
6.597596645355225,26.379268646240234,-1.340053677558899,-0.0,-0.0,-1.0,0.14627568960767143,2.0,0
7.330372333526611,26.82680892944336,-1.3669739961624146,-0.0,-0.0,-1.0,0.13480139655138149,2.0,0
6.983808517456055,26.284954071044922,-1.2923885583877563,-0.0,-0.0,-1.0,0.16614342632658455,2.0,0
7.408660888671875,26.455123901367188,-1.2923046350479126,-0.0,-0.0,-1.0,0.14833953528602278,1.0,0
7.403027534484863,26.239166259765625,-1.2526949644088745,-0.0,-0.0,-1.0,0.12914863124706408,2.0,0
7.464596748352051,26.87275505065918,-1.264143943786621,-0.0,-0.0,-1.0,0.15587560170642079,2.0,0
7.147982597351074,26.488672256469727,-1.254406452178955,-0.0,-0.0,-1.0,0.1284731331364146,1.0,0
7.179501533508301,26.908273696899414,-1.2917394638061523,-0.0,-0.0,-1.0,0.15438001670818768,2.0,0
6.58149528503418,26.53898048400879,-1.3080081939697266,-0.5971427708273196,0.30725302741647004,-0.7409561987000887,0.1281410013595291,3.0,0
7.66310453414917,26.96590805053711,-1.2633264064788818,-0.0,-0.0,-1.0,0.192135493198835,2.0,0
7.364455223083496,26.850997924804688,-1.2700974941253662,-0.6136849740501606,0.4184167399613171,-0.6695656684337967,0.1695873448461167,3.0,0
6.722409248352051,26.453502655029297,-1.2695233821868896,-0.0,-0.0,-1.0,0.13597199109568592,1.0,0
7.3399739265441895,26.97850799560547,-1.1583080291748047,-0.0,-0.0,-1.0,0.0534750660699386,2.0,0
7.097536087036133,26.927215576171875,-1.1701102256774902,0.6955789792000043,0.6625513777696771,0.27784088164016224,0.13100720052673057,4.0,0
6.6128435134887695,26.56634521484375,-1.166656494140625,0.31109200644619156,0.8968022477601325,-0.31459099150747566,0.08936316817609889,6.0,0
5.664315223693848,28.044687271118164,-1.652923345565796,-0.0,-0.0,-1.0,0.11582792298417777,2.0,0
7.641479015350342,26.887365341186523,-1.3717939853668213,-0.679059795233754,0.6933641586816062,-0.24108906643155917,0.14867122359675983,3.0,0
7.391185283660889,26.335615158081055,-1.3238227367401123,-0.0,-0.0,-1.0,0.15896063673428965,1.0,0
7.460263252258301,26.85907554626465,-1.3811585903167725,-0.3027374054984526,0.89943258066963,-0.31523181334065037,0.1045321076568949,3.0,0
7.166411876678467,26.255449295043945,-1.3304121494293213,-0.7029860240280628,0.6003914584299751,0.38123581503518783,0.12284064845994377,3.0,0
6.697094917297363,26.43645668029785,-1.3860266208648682,-0.0,-0.0,-1.0,0.10654096808140277,2.0,0
5.962072372436523,27.890966415405273,-1.6124041080474854,-0.4864108504120319,0.8394495710599617,0.24234046762497222,0.0978777865159176,3.0,0
5.677973747253418,27.4984073638916,-1.5875747203826904,-0.0,-0.0,-1.0,0.06543670925373103,1.0,0
7.440028190612793,27.00094223022461,-1.1904613971710205,-0.0,-0.0,-1.0,0.06317676746922139,2.0,0
7.216274261474609,26.93032455444336,-1.196803331375122,-0.0,-0.0,-1.0,0.09577520341200804,1.0,0
6.646339416503906,26.549240112304688,-1.1901795864105225,0.005927566275544068,-0.4957926362100688,-0.8684207078587656,0.09115229544294082,7.0,0
5.608841896057129,25.949539184570312,-1.193040132522583,-0.0,-0.0,-1.0,0.12637350051431478,1.0,0
5.492804527282715,25.917171478271484,-1.1977121829986572,-0.0,-0.0,-1.0,0.13847777358608632,1.0,0
7.510765552520752,26.87356948852539,-1.312490463256836,0.7039221385103822,0.13412267098541475,-0.6974989118577237,0.13068869656783336,3.0,0
7.280742168426514,26.82093620300293,-1.321887731552124,-0.0,-0.0,-1.0,0.17012429984938673,2.0,0
6.855338096618652,26.462162017822266,-1.3061916828155518,-0.0,-0.0,-1.0,0.12651413585073712,2.0,0
6.655675888061523,26.479585647583008,-1.3233733177185059,-0.03334718732241532,-0.8462020662670429,-0.5318176643766837,0.08874370976677472,3.0,0
6.54475212097168,26.51708984375,-1.33662748336792,0.06180195657652865,-0.9967415159331493,-0.05183501305681693,0.1259020956832052,4.0,0
6.401966571807861,26.515514373779297,-0.7840728759765625,-0.0,-0.0,-1.0,0.04782920213696693,2.0,0
7.398475646972656,26.42423439025879,-1.2505252361297607,-0.0,-0.0,-1.0,0.17385430672332122,2.0,0
7.509552478790283,26.897424697875977,-1.3091275691986084,-0.30012593238163493,0.11817446509713468,-0.9465512244517252,0.14445512166696234,3.0,0
7.224078178405762,26.39617919921875,-1.258897304534912,0.07833999945026743,0.995494504840304,0.053418492293309326,0.12957996048193487,4.0,0
6.953352451324463,26.408634185791016,-1.2800569534301758,-0.49004526932368314,-0.4841878024046897,-0.7248570935129184,0.11693232384248735,3.0,0
6.676031112670898,26.469741821289062,-1.3089866638183594,0.23800390326495355,-0.6111303250149733,-0.7548999058668241,0.09962607810998325,3.0,0
5.976741790771484,27.954364776611328,-1.5681843757629395,-0.0,-0.0,-1.0,0.13297142253840183,2.0,0
5.487677097320557,27.53496551513672,-1.5483965873718262,-0.0,-0.0,-1.0,0.13623112759251566,2.0,0
6.809967041015625,26.021404266357422,-1.5755934715270996,-0.0,-0.0,-1.0,0.02513774250685659,2.0,0
7.676603317260742,26.627912521362305,-1.5865912437438965,-0.06206923561696937,-0.779218268181283,-0.6236716287618725,0.04745902915124195,3.0,0
7.1471052169799805,26.248821258544922,-1.5427837371826172,-0.0,-0.0,-1.0,0.11323369240627285,1.0,0
6.864357948303223,26.22492790222168,-1.5509986877441406,-0.0,-0.0,-1.0,0.0746464448332948,1.0,0
6.519257545471191,26.322927474975586,-1.5834736824035645,-0.0,-0.0,-1.0,0.1483067620130086,1.0,0
6.053221225738525,26.14836311340332,-1.5760650634765625,-0.0,-0.0,-1.0,0.05861097772166384,1.0,0
5.837215900421143,25.975500106811523,-1.5575108528137207,-0.0,-0.0,-1.0,0.06686902078558155,1.0,0
7.403076171875,27.044702529907227,-1.165651798248291,-0.0,-0.0,-1.0,0.04987987979769068,1.0,0
7.241973400115967,27.013668060302734,-1.1703212261199951,-0.2521385016665796,0.7264606167473999,-0.6392817440630695,0.05927787164110143,4.0,0
6.711407661437988,26.667545318603516,-1.1494638919830322,-0.0,-0.0,-1.0,0.07699723780907997,1.0,0
6.488483428955078,26.54986572265625,-1.145444631576538,-0.0,-0.0,-1.0,0.10138428574297075,2.0,0
5.962584495544434,27.98031234741211,-1.5749237537384033,0.5651331832387063,-0.1433331638484081,-0.8124531305519673,0.14127146914750066,4.0,0
5.453915119171143,27.57576560974121,-1.5348408222198486,-0.48878299734908903,0.21094789628065444,-0.8465176705522497,0.1270986935113041,3.0,0
5.602855205535889,28.095272064208984,-1.6138708591461182,-0.0,-0.0,-1.0,0.08992027412810813,2.0,0
7.629873275756836,26.973726272583008,-1.3220016956329346,0.10163470713381416,0.8816686026125454,-0.46079372985432987,0.18554280053620445,4.0,0
7.297466278076172,26.427757263183594,-1.2449204921722412,0.8817648264430874,0.46031064231638796,-0.10298011175982627,0.09856924445352086,3.0,0
6.913482666015625,26.42321014404297,-1.2628390789031982,-0.0,-0.0,-1.0,0.11040644092113143,2.0,0
6.554930210113525,26.515037536621094,-1.296527624130249,0.5311780331793365,-0.8444207107423246,-0.06930772206009211,0.14024682722728385,6.0,0
5.483752250671387,25.83890151977539,-1.241530179977417,-0.0,-0.0,-1.0,0.16911239573547696,1.0,0
7.626107692718506,26.730613708496094,-1.544560194015503,-0.0,-0.0,-1.0,0.07884327180608956,1.0,0
7.3355207443237305,26.230470657348633,-1.4723217487335205,-0.3730801617243429,-0.3090839726650281,-0.8748018580051955,0.1582841710989078,3.0,0
6.963321685791016,26.334300994873047,-1.5209205150604248,-0.0,-0.0,-1.0,0.10113032637646686,1.0,0
6.716754913330078,26.342918395996094,-1.5422804355621338,-0.0,-0.0,-1.0,0.1915335528225907,1.0,0
6.488749027252197,26.40011978149414,-1.5717427730560303,-0.0,-0.0,-1.0,0.17767781315935002,1.0,0
6.005373001098633,26.18703269958496,-1.5728986263275146,-0.0,-0.0,-1.0,0.017112070356776365,1.0,0
6.252488136291504,26.485578536987305,-1.607532262802124,-0.0,-0.0,-1.0,0.13057708592718537,2.0,0
5.764939308166504,25.901399612426758,-1.5407664775848389,-0.0,-0.0,-1.0,0.11702070850799592,1.0,0
6.066746711730957,27.995309829711914,-1.602977991104126,-0.0,-0.0,-1.0,0.1059945824379512,1.0,0
5.8029680252075195,27.986696243286133,-1.618126630783081,-0.0,-0.0,-1.0,0.06019771179266255,2.0,0
5.488924503326416,27.559757232666016,-1.559044599533081,-0.6292366137636086,-0.27977443865251733,-0.7251120929732005,0.13623112759251566,3.0,0
5.476378440856934,27.905916213989258,-1.6243774890899658,-0.0,-0.0,-1.0,0.05603303217594257,2.0,0
7.545723915100098,26.92487907409668,-1.317168951034546,0.10135139128575724,-0.33134643569192135,-0.938049804135527,0.08253065889774118,5.0,0
7.144639015197754,26.402563095092773,-1.2404193878173828,-0.2849876428221831,-0.3946197860092231,-0.8735314922363651,0.09263252562877589,5.0,0
6.836023330688477,26.43729019165039,-1.26456880569458,-0.4248526248404067,-0.421341616025215,-0.8012312336469898,0.17386216286677797,4.0,0
6.470767974853516,26.512371063232422,-1.3003642559051514,-0.0,-0.0,-1.0,0.14250421628028997,2.0,0
5.523789405822754,25.78030014038086,-1.2253906726837158,0.7330220967293203,-0.06420158782660776,-0.6771681931596414,0.13239244579063747,3.0,0
5.457776069641113,25.75042724609375,-1.2244431972503662,-0.0,-0.0,-1.0,0.21475856150038983,1.0,0
5.957191467285156,27.746503829956055,-1.711716890335083,-0.0,-0.0,-1.0,0.14783684380986056,1.0,0
5.5827412605285645,27.477710723876953,-1.6837823390960693,-0.0,-0.0,-1.0,0.12986654646255524,1.0,0
5.2885942459106445,27.366525650024414,-1.6832115650177002,-0.0,-0.0,-1.0,0.08117148434756584,1.0,0
7.624520778656006,26.922914505004883,-1.4466967582702637,-0.2649102816127354,0.8087838368072066,-0.5250630895571264,0.10812230639256026,3.0,0
7.3052873611450195,26.291275024414062,-1.3344392776489258,-0.0,-0.0,-1.0,0.12728841391506754,1.0,0
7.466367721557617,26.857200622558594,-1.4412157535552979,-0.0,-0.0,-1.0,0.12015527213326795,2.0,0
7.094620227813721,26.298002243041992,-1.347386360168457,-0.0,-0.0,-1.0,0.11936232760027796,2.0,0
