x,y,z,nx,ny,nz,curvature,density,label
14.704874992370605,16.651458740234375,-0.8891096115112305,-0.0,-0.0,-1.0,0.08576960332913969,1.0,0
14.495150566101074,16.397478103637695,-0.9318497180938721,-0.0,-0.0,-1.0,0.0450071667874602,1.0,0
14.309273719787598,16.252885818481445,-0.9675283432006836,-0.20991503768205405,-0.018934669446197722,-0.9775362679961831,0.061160190932179524,4.0,0
14.362105369567871,15.834675788879395,-0.9745407104492188,-0.0,-0.0,-1.0,0.07964095664131697,2.0,0
14.321661949157715,15.879305839538574,-0.9794387817382812,-0.0,-0.0,-1.0,0.09224340904803636,1.0,0
13.25562858581543,15.893655776977539,-1.1548762321472168,-0.0,-0.0,-1.0,0.06739324386671446,1.0,0
14.1364107131958,16.190532684326172,-0.5117710828781128,0.37440265927626903,0.20254256785788669,-0.9048752162217679,0.09035749879514221,7.0,0
13.269912719726562,16.363258361816406,-0.6183017492294312,-0.9775455555453922,-0.205045127244816,0.048592001673195065,0.2077449075849174,6.0,0
12.886934280395508,17.8507080078125,-0.10140585899353027,-0.0,-0.0,-1.0,0.1613001883495411,1.0,0
14.17384147644043,16.322528839111328,-0.02185070514678955,0.5391518664343953,0.7069953755655431,-0.45768198986768577,0.1523197744914804,7.0,0
13.042903900146484,18.137510299682617,-0.7546719312667847,-0.9328191904019879,0.15380258821235956,-0.3258728615226485,0.15731917318749028,4.0,0
14.970813751220703,17.763792037963867,-0.8971818685531616,-0.0,-0.0,-1.0,0.041432933500381325,2.0,0
12.885283470153809,17.81011390686035,-0.7912009954452515,-0.0,-0.0,-1.0,0.12161178234638836,2.0,0
15.118888854980469,17.270275115966797,-0.889241099357605,-0.0,-0.0,-1.0,0.034625849670854594,2.0,0
15.009109497070312,17.428640365600586,-0.9030450582504272,-0.0,-0.0,-1.0,0.02693143089381171,2.0,0
13.476693153381348,17.426841735839844,-0.7172122001647949,-0.14809544146310274,-0.05247437218830732,-0.9875799615632609,0.1289491594652623,3.0,0
12.946266174316406,17.548795700073242,-0.7927476167678833,-0.0,-0.0,-1.0,0.23451380487561319,2.0,0
15.100154876708984,16.94468879699707,-0.908197283744812,-0.001915544376541699,-0.6573939808676604,-0.7535446135489998,0.05634659967002645,3.0,0
15.191672325134277,16.545377731323242,-0.9122720956802368,-0.0,-0.0,-1.0,0.02924849249419502,1.0,0
15.11962890625,16.206918716430664,-0.9459773302078247,-0.0,-0.0,-1.0,0.03500274099380741,2.0,0
13.191612243652344,16.219375610351562,-0.8230291604995728,-0.2524349331634504,-0.9282899609695748,0.27304642990134387,0.20903620470244338,3.0,0
15.062077522277832,15.71644401550293,-0.9894601106643677,-0.0,-0.0,-1.0,0.04687877515713672,2.0,0
14.104874610900879,16.387928009033203,-0.673898458480835,-0.0,-0.0,-1.0,0.22621308042397684,1.0,0
13.261993408203125,16.436866760253906,-0.3224111795425415,0.6044066230051055,0.3648188475946679,-0.7082371371985958,0.14783056992722596,4.0,0
14.10628890991211,16.194080352783203,-0.6849863529205322,-0.03536486417282176,-0.9981028948075031,0.050397795179159544,0.20261899300790798,6.0,0
14.088963508605957,16.241788864135742,-0.23654448986053467,-0.0,-0.0,-1.0,0.1686457166456307,2.0,0
13.206343650817871,15.85159683227539,-1.1528289318084717,-0.0,-0.0,-1.0,0.07119154301433069,1.0,0
13.111196517944336,15.911731719970703,-1.1667823791503906,-0.0,-0.0,-1.0,0.08651822561495497,1.0,0
13.274005889892578,15.749427795410156,-1.1472220420837402,-0.0,-0.0,-1.0,0.06890703533162212,2.0,0
14.351009368896484,17.80937957763672,-0.8268575668334961,-0.0,-0.0,-1.0,0.0889509242069545,2.0,0
12.871902465820312,17.533735275268555,-0.6617529392242432,-0.0,-0.0,-1.0,0.1935803488478459,2.0,0
14.344494819641113,17.39830207824707,-0.8451786041259766,-0.4537803847043835,-0.6987268424116482,-0.5530498731136185,0.04173053749081327,3.0,0
14.35106372833252,16.987794876098633,-0.863940954208374,-0.0,-0.0,-1.0,0.026300141126141773,1.0,0
14.308479309082031,16.686782836914062,-0.8884921073913574,0.6164691513542866,-0.38603698658994523,-0.6862515795341241,0.12466587115898566,4.0,0
14.060408592224121,16.506488800048828,-0.946613073348999,-0.0,-0.0,-1.0,0.15081840565237992,1.0,0
14.183585166931152,16.191152572631836,-0.9430291652679443,-0.0,-0.0,-1.0,0.22671284113943188,2.0,0
13.291892051696777,15.816535949707031,-1.138988971710205,-0.0,-0.0,-1.0,0.05994517158890945,1.0,0
13.23508358001709,16.3511905670166,-0.668671727180481,-0.5225850668246986,0.8434912381565222,-0.12420700095003763,0.2136997447193993,4.0,0
14.102246284484863,16.235454559326172,-0.5412505865097046,0.8786020301729233,-0.3835968712048254,-0.28445019419555007,0.11648458385271329,3.0,0
13.119072914123535,16.086790084838867,-0.703258752822876,-0.04086467910659143,-0.04277642145435436,-0.9982485941733527,0.1350941971380527,5.0,0
12.95158576965332,17.818056106567383,-0.18544459342956543,0.522558359103263,0.7642426647901085,-0.37797607152545876,0.1730609712276059,5.0,0
14.178216934204102,16.558259963989258,-0.10321784019470215,0.6094623302783662,0.3861691724070735,-0.6924081442719316,0.12404101740938613,5.0,0
14.147248268127441,16.278608322143555,-0.1234368085861206,0.415061920132661,0.8732428282658508,0.2552852626730467,0.2145004622633909,7.0,0
13.422207832336426,15.960182189941406,-1.1581854820251465,-0.0,-0.0,-1.0,0.08261262930222833,1.0,0
14.130370140075684,16.045021057128906,-1.0011091232299805,-0.0,-0.0,-1.0,0.19269265244903855,2.0,0
13.473856925964355,15.731800079345703,-1.1592860221862793,-0.0,-0.0,-1.0,0.061444032715691786,1.0,0
13.026206970214844,18.060611724853516,-0.7595274448394775,-0.7104516832160487,-0.0690606347086435,0.7003492232801592,0.1579521993448753,5.0,0
14.5551176071167,18.04831314086914,-0.8560624122619629,-0.0,-0.0,-1.0,0.1183328950024645,1.0,0
12.99487018585205,17.658382415771484,-0.7718157768249512,-0.1655205599544804,0.505340334063995,-0.8468967416399976,0.16214247772433388,5.0,0
14.583721160888672,17.63860511779785,-0.853461503982544,-0.0,-0.0,-1.0,0.01778076542083495,1.0,0
13.35710334777832,17.26726722717285,-0.7159230709075928,-0.3444915061699497,-0.5471249183107257,-0.7628760881953508,0.20990228430801994,3.0,0
14.5468168258667,17.259645462036133,-0.8679468631744385,-0.0,-0.0,-1.0,0.02871664086693675,1.0,0
14.518339157104492,17.05012321472168,-0.8790249824523926,-0.0,-0.0,-1.0,0.011269669999715909,2.0,0
14.522171020507812,16.852100372314453,-0.8840892314910889,-0.0,-0.0,-1.0,0.028898415393952416,2.0,0
13.3088960647583,16.35295867919922,-0.7554783821105957,-0.0,-0.0,-1.0,0.2275837420571845,2.0,0
12.752988815307617,16.471559524536133,-0.85052490234375,-0.0,-0.0,-1.0,0.1973066901468086,2.0,0
14.341387748718262,16.450647354125977,-0.9373946189880371,-0.0,-0.0,-1.0,0.07873741173452418,2.0,0
14.225447654724121,16.288782119750977,-0.780386209487915,-0.0,-0.0,-1.0,0.20261357712089376,1.0,0
13.253336906433105,16.169212341308594,-0.773510217666626,-0.0,-0.0,-1.0,0.23550259374512708,2.0,0
14.177767753601074,16.081035614013672,-0.9891130924224854,-0.0,-0.0,-1.0,0.20994054177215551,1.0,0
12.909944534301758,18.04458236694336,-0.35906803607940674,-0.0,-0.0,-1.0,0.24272875044859366,2.0,0
13.343511581420898,16.417314529418945,-0.344122052192688,0.6297302974596912,0.5666583165246368,0.531354970593852,0.11950298360628946,6.0,0
14.177125930786133,16.361087799072266,-0.22664117813110352,-0.5145339319418645,0.28355466062341117,-0.8092290079570721,0.13271612646564804,3.0,0
12.976449966430664,16.864673614501953,-1.0052356719970703,-0.0,-0.0,-1.0,0.05259727201540144,1.0,0
12.83586597442627,16.692230224609375,-1.037851095199585,-0.0,-0.0,-1.0,0.0929639933559031,2.0,0
14.473572731018066,15.6962251663208,-1.0374228954315186,-0.0,-0.0,-1.0,0.06509565066442119,2.0,0
12.950098037719727,17.802627563476562,-0.6242769956588745,-0.0,-0.0,-1.0,0.16025802491605562,1.0,0
14.893216133117676,18.074520111083984,-0.9257056713104248,-0.0,-0.0,-1.0,0.0723839810275165,2.0,0
14.093235969543457,17.83143424987793,-0.7665829658508301,-0.0,-0.0,-1.0,0.136742585160064,2.0,0
14.052796363830566,17.62472915649414,-0.7724003791809082,-0.0,-0.0,-1.0,0.03824872826857108,2.0,0
14.946375846862793,17.782930374145508,-0.9036989212036133,0.0016748856362314689,-0.3204293148095022,-0.9472709480232246,0.03844869002203794,3.0,0
14.903834342956543,17.589092254638672,-0.9099977016448975,-0.0,-0.0,-1.0,0.04209703278167485,2.0,0
14.027998924255371,17.403854370117188,-0.7761244773864746,0.7724983723348977,-0.4063321075366149,-0.48799639663094546,0.049507674236888344,3.0,0
13.604893684387207,17.160490036010742,-0.867089033126831,-0.0,-0.0,-1.0,0.09409401897491247,2.0,0
13.221442222595215,16.9956111907959,-0.9509718418121338,-0.0,-0.0,-1.0,0.1255636027220597,2.0,0
14.909358024597168,17.252939224243164,-0.9038925170898438,-0.0,-0.0,-1.0,0.04500030483989134,2.0,0
14.891837120056152,16.853967666625977,-0.9069085121154785,-0.7461207821621044,0.20083582116457324,-0.6347981973532698,0.07306242048485267,4.0,0
14.816792488098145,16.636524200439453,-0.9271848201751709,0.4840060935718174,-0.08132379572000263,-0.8712775342191722,0.04986294503898655,3.0,0
14.141959190368652,16.402273178100586,-0.7577781677246094,-0.0,-0.0,-1.0,0.1944296569699347,2.0,0
13.15934944152832,16.191120147705078,-0.788506031036377,-0.0,-0.0,-1.0,0.1306636784753208,1.0,0
14.85576057434082,16.5736083984375,-0.9179220199584961,-0.0,-0.0,-1.0,0.04046890589415593,1.0,0
14.735194206237793,16.3389949798584,-0.9524803161621094,-0.8387635010313335,0.012772309466494892,-0.5443460824223427,0.01693746008279641,3.0,0
14.094649314880371,16.236957550048828,-0.7715427875518799,0.43771850613320745,-0.8141223493146038,-0.3815852588019923,0.1503184509447925,3.0,0
14.69605541229248,16.017789840698242,-0.9699199199676514,-0.0,-0.0,-1.0,0.028182401366548652,1.0,0
14.545110702514648,15.791015625,-1.015763759613037,-0.0,-0.0,-1.0,0.05019510269278978,1.0,0
14.147506713867188,16.47625732421875,-0.4160163402557373,-0.0,-0.0,-1.0,0.099793896196443,1.0,0
13.269641876220703,16.37690544128418,-0.5775415897369385,0.4269758804440761,0.8152839691781139,-0.39115680630686456,0.1378305755384544,4.0,0
13.180885314941406,16.09464454650879,-0.6003286838531494,-0.20815880321739788,-0.5951873816818642,-0.7761584202530994,0.2557822116591592,3.0,0
14.130311965942383,16.217967987060547,-0.4245283603668213,0.8373013331999446,0.4884969529980825,0.2455548906725035,0.12089024494996509,6.0,0
14.205418586730957,16.563720703125,-0.07094991207122803,0.7069648425883522,0.30341222694214487,-0.6388597122107753,0.14423681202915095,6.0,0
14.165729522705078,16.30917739868164,-0.08187747001647949,0.6997197205163455,-0.29074982851703485,-0.6525770835218184,0.15939548471865916,4.0,0
13.034585952758789,17.974824905395508,-0.7324458360671997,-0.0,-0.0,-1.0,0.12419383338403553,2.0,0
12.790204048156738,17.710641860961914,-0.7733801603317261,-0.0,-0.0,-1.0,0.17266516691556466,2.0,0
12.960631370544434,17.590816497802734,-0.7354294061660767,-0.0,-0.0,-1.0,0.16878298980521594,2.0,0
13.353242874145508,16.263198852539062,-0.6439827680587769,-0.0,-0.0,-1.0,0.18190246715311478,2.0,0
13.21204662322998,16.082298278808594,-0.6758102178573608,0.42490659785940965,0.48448845564820325,-0.764673341655874,0.21452362830727897,3.0,0
12.890525817871094,17.864604949951172,-0.3990708589553833,-0.0,-0.0,-1.0,0.28994838968087167,1.0,0
13.325614929199219,16.464515686035156,-0.31364476680755615,-0.4735112631045658,0.7423282749906247,-0.4740630927023978,0.1478305699272259,6.0,0
14.226278305053711,16.433225631713867,-0.460452675819397,-0.0,-0.0,-1.0,0.17350189434260108,2.0,0
14.18128776550293,16.206298828125,-0.47122955322265625,0.7634587747723787,-0.02270825680515729,-0.6454572288664289,0.2091026966170152,9.0,0
13.066901206970215,17.883665084838867,-0.021715879440307617,-0.09993182483528416,0.8479285202138659,-0.5206062379505392,0.18445270702175595,5.0,0
14.25316047668457,16.51232147216797,-0.1534024477005005,-0.0,-0.0,-1.0,0.1647930484820706,1.0,0
14.191217422485352,16.258256912231445,-0.16597998142242432,0.7605741576939823,-0.6344097252732984,-0.13802626969801088,0.19838284777678636,4.0,0
12.854780197143555,17.79500389099121,-0.7885117530822754,-0.3697102089321759,0.623791807400337,-0.6886204632680819,0.16319529920912898,3.0,0
12.964484214782715,17.65667724609375,-0.7603232860565186,-0.15425579399058287,0.5579286461003519,-0.8154267446441548,0.20519053147615424,5.0,0
13.036036491394043,17.72478675842285,-0.41000258922576904,-0.0,-0.0,-1.0,0.17519828874807417,1.0,0
13.346370697021484,16.199851989746094,-0.6587250232696533,0.8162538393072639,-0.2523278046266786,-0.5196733097133541,0.18089388363623624,4.0,0
13.225982666015625,16.008100509643555,-0.6883796453475952,-0.0,-0.0,-1.0,0.12480572877088006,1.0,0
14.22469711303711,16.380281448364258,-0.4591634273529053,0.6932474321318424,0.7128992405785884,0.10574814714726322,0.21612439477521161,3.0,0
14.210470199584961,16.163360595703125,-0.46267521381378174,0.970431399475223,-0.0004756003804415421,0.24137662007087224,0.15633174105240186,4.0,0
14.202186584472656,16.13766098022461,-0.46469545364379883,0.970431399475223,-0.0004756003804415421,0.24137662007087224,0.14344248472240123,4.0,0
13.038639068603516,17.780807495117188,-0.0775686502456665,-0.0,-0.0,-1.0,0.13829187290650877,1.0,0
13.366476058959961,16.39539909362793,-0.3392033576965332,0.42392057973815844,0.5970636207922294,0.6810333140169698,0.09118637580592873,3.0,0
14.21926498413086,16.343074798583984,-0.17768192291259766,-0.0,-0.0,-1.0,0.17731698197101367,1.0,0
12.952109336853027,17.930469512939453,-0.5933327674865723,-0.9285298354102118,0.2641696644857438,-0.26085768748222554,0.2511349803573336,3.0,0
12.712574005126953,17.71711540222168,-0.6221046447753906,-0.0,-0.0,-1.0,0.1715180906129849,1.0,0
12.7835054397583,18.010906219482422,-0.294661283493042,-0.0,-0.0,-1.0,0.1459196583525694,1.0,0
13.052084922790527,18.08016586303711,-0.25789642333984375,-0.0,-0.0,-1.0,0.12236684501457666,1.0,0
12.879392623901367,17.609445571899414,-0.5824489593505859,-0.0,-0.0,-1.0,0.22100907569362765,1.0,0
13.23269271850586,16.27735137939453,-0.4382784366607666,-0.5774948632865836,0.6306242720353976,-0.5184715135833736,0.11719189624083962,3.0,0
13.110754013061523,15.940133094787598,-0.45203375816345215,-0.0,-0.0,-1.0,0.18373115334131077,1.0,0
14.209590911865234,16.47621726989746,-0.11776375770568848,-0.0,-0.0,-1.0,0.11505524099649457,1.0,0
14.197092056274414,16.2398738861084,0.023688197135925293,-0.0,-0.0,-1.0,0.2142021702386049,2.0,1
14.1051664352417,16.13900375366211,-0.25578927993774414,-0.0,-0.0,-1.0,0.10050856922777916,1.0,0
13.020111083984375,18.0566349029541,-0.7261155843734741,-0.9138712478282286,0.2220661804407294,-0.3398910912297376,0.1676081531590691,4.0,0
12.873797416687012,17.887107849121094,-0.7272590398788452,-0.0,-0.0,-1.0,0.22525611809071794,2.0,0
13.173373222351074,18.053333282470703,-0.5358479022979736,-0.0,-0.0,-1.0,0.1186781799293155,1.0,0
12.90445327758789,17.499088287353516,-0.6695727109909058,0.7370879146950694,0.6633216040091456,0.12925113409641031,0.23334410839445952,3.0,0
12.907224655151367,17.356889724731445,-0.6507883071899414,-0.0,-0.0,-1.0,0.2129956924439456,1.0,0
13.23930835723877,16.26287841796875,-0.46325087547302246,-0.5774948632865836,0.6306242720353976,-0.5184715135833736,0.17375469823815765,3.0,0
13.153130531311035,15.902202606201172,-0.44461965560913086,-0.0,-0.0,-1.0,0.1339334402614479,1.0,0
12.98408317565918,17.72650718688965,-0.03726303577423096,-0.0,-0.0,-1.0,0.13829187290650874,1.0,0
14.168079376220703,16.351884841918945,-0.2996448278427124,0.32476345530628287,0.9387305643947671,-0.1153846851562466,0.11126232918603533,3.0,0
14.143956184387207,16.165830612182617,-0.151619553565979,-0.0,-0.0,-1.0,0.14833677356940717,1.0,0
12.983762741088867,18.06097412109375,-0.39250683784484863,-0.0,-0.0,-1.0,0.1899556089390124,1.0,0
12.897895812988281,17.68859100341797,-0.18801438808441162,-0.0,-0.0,-1.0,0.13563185866254618,2.0,0
14.145598411560059,16.43603515625,-0.038697123527526855,-0.0,-0.0,-1.0,0.11864438470399749,1.0,0
14.119939804077148,16.183189392089844,-0.010331153869628906,-0.0,-0.0,-1.0,0.09218588271374249,1.0,0
13.102490425109863,17.892351150512695,-0.9766391515731812,-0.0,-0.0,-1.0,0.2145935928586446,1.0,0
12.877279281616211,17.58057403564453,-0.9175142049789429,-0.5866976673620228,0.23710230396589338,-0.7743179867251094,0.14544572300415567,3.0,0
13.136241912841797,17.748104095458984,-0.9373856782913208,-0.0,-0.0,-1.0,0.11679722292729466,1.0,0
13.028197288513184,17.853944778442383,-0.6281274557113647,-0.0,-0.0,-1.0,0.21939860546923534,1.0,0
13.158506393432617,17.829988479614258,-0.6151854991912842,-0.0,-0.0,-1.0,0.19121986580520178,1.0,0
13.361112594604492,16.365962982177734,-0.5799742937088013,-0.2149838727669294,0.2694504126855576,-0.9387110362373053,0.23384706375626219,5.0,0
13.255313873291016,16.152008056640625,-0.5417717695236206,0.7986879914416128,-0.5497427684406184,-0.24470468094053116,0.16127335787443572,3.0,0
14.210502624511719,17.341991424560547,-0.7645479440689087,-0.0,-0.0,-1.0,0.0545911172937957,1.0,0
14.054616928100586,17.283010482788086,-0.7597306966781616,0.775139086475635,-0.5563437152716766,-0.2994011808517558,0.06257646863921999,4.0,0
14.662906646728516,17.63821029663086,-0.8183501958847046,-0.0,-0.0,-1.0,0.015454227342241271,2.0,0
14.43317985534668,17.48866081237793,-0.7903174161911011,-0.0,-0.0,-1.0,0.018237446002342412,1.0,0
15.151570320129395,17.963743209838867,-0.8891493082046509,-0.0,-0.0,-1.0,0.09084473221802045,1.0,0
14.920620918273926,17.758953094482422,-0.8398410081863403,-0.0,-0.0,-1.0,0.03554492189160684,1.0,0
12.994218826293945,17.782699584960938,-0.2748657464981079,-0.0,-0.0,-1.0,0.14623303118799685,1.0,0
14.200389862060547,16.533935546875,-0.2628922462463379,-0.0,-0.0,-1.0,0.09593851052709716,1.0,0
14.186298370361328,16.22553062438965,-0.33140575885772705,0.8908410258768689,0.12233616043117654,0.4375341477708974,0.12538870114377534,6.0,0
12.91319465637207,17.44271469116211,-0.8487861156463623,-0.0,-0.0,-1.0,0.18792143378560255,2.0,0
12.973750114440918,17.757295608520508,-0.5613834857940674,-0.0,-0.0,-1.0,0.09964460656104437,1.0,0
13.422954559326172,17.30072593688965,-0.7550461292266846,-0.0,-0.0,-1.0,0.16461652578483088,1.0,0
13.314476013183594,16.35888671875,-0.5826501846313477,0.0674135921797874,0.49738695874009725,-0.8649055560375908,0.15792543806730147,5.0,0
13.276612281799316,16.189605712890625,-0.5567214488983154,-0.0,-0.0,-1.0,0.1591317104668511,2.0,0
13.608715057373047,17.663000106811523,-0.809140682220459,-0.0,-0.0,-1.0,0.103709589572214,1.0,0
13.584169387817383,17.445655822753906,-0.765601396560669,-0.0,-0.0,-1.0,0.1583129106311435,1.0,0
14.199554443359375,16.406824111938477,-0.4732738733291626,0.46046419674027794,-0.03535066917073865,-0.8869740997963308,0.2025976088602029,3.0,0
13.001514434814453,17.73740005493164,-0.21694016456604004,-0.0,-0.0,-1.0,0.10498994454237294,1.0,0
13.295340538024902,16.43657875061035,-0.2977721691131592,-0.2793424377848097,0.878300742041204,-0.388014959740356,0.1478305699272259,7.0,0
14.167720794677734,16.203548431396484,-0.2996385097503662,-0.23787090467072422,-0.7280665258971993,-0.642912565267715,0.15427224124888814,3.0,0
14.209774017333984,16.15913200378418,-0.5012049674987793,0.970431399475223,-0.0004756003804415421,0.24137662007087224,0.23030937306882168,4.0,0
12.952571868896484,17.381139755249023,-0.8322536945343018,0.825391147224143,-0.5641399112350793,0.021808590868963893,0.22434957929706423,3.0,0
13.239152908325195,16.315805435180664,-0.762592077255249,-0.936177760649882,0.18125771095543458,-0.3011923682362627,0.21704179758318934,3.0,0
14.04483413696289,17.26677131652832,-0.7616837024688721,0.8003846350118501,-0.43220548383085494,-0.41543092781289637,0.0617853235303465,3.0,0
14.071596145629883,17.05196762084961,-0.7489206790924072,-0.0,-0.0,-1.0,0.1021682410660522,1.0,0
14.30362319946289,18.122541427612305,-0.7930397987365723,-0.20028317218373812,0.3871499240693938,-0.9000008817957248,0.11326802429430713,3.0,0
14.330461502075195,17.769535064697266,-0.7720019817352295,-0.01765876971881409,-0.14102107640123235,-0.9898490914592263,0.08539249981080085,3.0,0
14.18328857421875,17.459766387939453,-0.7637615203857422,-0.0,-0.0,-1.0,0.04225319296801804,2.0,0
12.735740661621094,16.253122329711914,-1.0317217111587524,-0.0,-0.0,-1.0,0.1065071842909466,1.0,0
13.348609924316406,16.229110717773438,-0.9884356260299683,-0.0,-0.0,-1.0,0.1652731542272406,2.0,0
13.396524429321289,16.047775268554688,-0.976969838142395,-0.0,-0.0,-1.0,0.17802310138640506,1.0,0
14.201576232910156,16.083425521850586,-0.9233909845352173,-0.0,-0.0,-1.0,0.12451683285218074,2.0,0
14.499732971191406,16.143938064575195,-0.9059497117996216,-0.0,-0.0,-1.0,0.038565948291338165,1.0,0
14.961688995361328,16.318208694458008,-0.8831073045730591,-0.0,-0.0,-1.0,0.02774889222520468,1.0,0
15.049356460571289,16.375629425048828,-0.8800352811813354,-0.0,-0.0,-1.0,0.03719552148438767,1.0,0
14.996955871582031,16.14744758605957,-0.8724998235702515,-0.0,-0.0,-1.0,0.02647108372780368,1.0,0
15.204919815063477,16.448331832885742,-0.8732374906539917,-0.0,-0.0,-1.0,0.03360531496142016,1.0,0
14.162567138671875,16.22527503967285,-0.1699540615081787,0.6208046022809772,-0.7796550076608468,0.08209576612787342,0.1945301627072104,4.0,0
13.112934112548828,18.09712028503418,-0.7222632169723511,-0.4181057274841715,-0.4262031377473806,-0.8022085053271492,0.16818619070856,4.0,0
14.22205924987793,16.14986228942871,-0.5571593046188354,0.3194097077044398,-0.23087817047831144,-0.9190607754771998,0.20860429580140902,5.0,0
12.79318618774414,16.09127426147461,-1.0801000595092773,-0.0,-0.0,-1.0,0.09748243902258495,1.0,0
13.456417083740234,16.121746063232422,-1.0443081855773926,-0.0,-0.0,-1.0,0.11797518319059673,1.0,0
13.37858772277832,15.987668991088867,-1.040727138519287,-0.0,-0.0,-1.0,0.13728595383578607,2.0,0
14.375696182250977,15.870112419128418,-0.9776368141174316,-0.46468866458008046,0.10136401287107602,-0.8796532168448278,0.08745747777791794,3.0,0
14.837636947631836,15.70136547088623,-0.9416599273681641,-0.0,-0.0,-1.0,0.03652438706896144,1.0,0
15.187606811523438,15.941174507141113,-0.9371871948242188,-0.0,-0.0,-1.0,0.026877300974257518,1.0,0
15.064538955688477,15.79292106628418,-0.9347212314605713,-0.0,-0.0,-1.0,0.03965257119402915,1.0,0
12.953401565551758,17.923789978027344,-0.7083655595779419,-0.0,-0.0,-1.0,0.17856339635265425,1.0,0
13.255123138427734,16.113981246948242,-0.6132427453994751,0.5675145145492961,-0.03976037479122816,-0.822402813937512,0.18210805516191284,4.0,0
13.309013366699219,16.275815963745117,-0.5044971704483032,-0.0,-0.0,-1.0,0.15358999447489108,1.0,0
12.995443344116211,16.592302322387695,-1.0264917612075806,-0.0,-0.0,-1.0,0.10485988557816683,1.0,0
13.33135986328125,16.331880569458008,-0.9951900243759155,-0.0,-0.0,-1.0,0.21284358287423635,2.0,0
13.251367568969727,16.05471420288086,-0.9840751886367798,-0.0,-0.0,-1.0,0.19541460373262318,1.0,0
14.809600830078125,16.366539001464844,-0.9236170053482056,-0.0,-0.0,-1.0,0.02121730665814016,2.0,0
14.556940078735352,16.30431365966797,-0.9324747323989868,-0.0,-0.0,-1.0,0.03126130459249716,1.0,0
14.212251663208008,16.107812881469727,-0.9385138750076294,0.6470952532070195,-0.5858302787868348,-0.48792480745857025,0.15407174529929182,3.0,0
15.043487548828125,16.43689727783203,-0.9162873029708862,-0.0,-0.0,-1.0,0.029985467545613504,1.0,0
13.604032516479492,16.404232025146484,-1.0552035570144653,-0.0,-0.0,-1.0,0.09296902008006624,1.0,0
13.353689193725586,16.48582649230957,-1.0712310075759888,-0.0,-0.0,-1.0,0.1278517243229646,2.0,0
14.04664421081543,16.14822006225586,-1.0189858675003052,-0.6467452122695677,0.6018302338875675,-0.46853068201050424,0.14561347196330574,3.0,0
14.325227737426758,16.103994369506836,-1.004604697227478,-0.0,-0.0,-1.0,0.10419461247357706,2.0,0
15.040380477905273,15.914119720458984,-0.9625533819198608,-0.0,-0.0,-1.0,0.037765919578123135,1.0,0
14.805402755737305,15.865507125854492,-0.9682718515396118,-0.0,-0.0,-1.0,0.0489633520650691,2.0,0
14.24649429321289,16.70201301574707,-0.005868792533874512,0.3111262777975247,-0.3403807232403436,-0.8873226034032036,0.1939529878806116,3.0,0
14.361703872680664,16.351940155029297,-0.438464879989624,-0.0,-0.0,-1.0,0.09417852464186148,1.0,0
13.48331069946289,16.59033966064453,-0.5018080472946167,-0.0,-0.0,-1.0,0.09101929826100355,1.0,0
14.23788833618164,16.564895629882812,-0.524844765663147,-0.0,-0.0,-1.0,0.10529979569415514,1.0,0
13.336259841918945,16.181285858154297,-0.5592068433761597,-0.0,-0.0,-1.0,0.13484735851549895,1.0,0
14.250837326049805,16.26726531982422,-0.5137821435928345,-0.0,-0.0,-1.0,0.16410159784098682,2.0,0
13.11387825012207,17.626323699951172,-0.7587248086929321,-0.0,-0.0,-1.0,0.21752019016259783,1.0,0
14.246406555175781,18.076461791992188,-0.7373021841049194,-0.0,-0.0,-1.0,0.08024651076614857,1.0,0
13.379951477050781,16.419723510742188,-0.6862621307373047,-0.0,-0.0,-1.0,0.13409488506266937,1.0,0
12.914918899536133,17.47981834411621,-0.8963626623153687,-0.0,-0.0,-1.0,0.1853163768203498,1.0,0
13.790306091308594,17.081260681152344,-0.8902608156204224,-0.01594701006239155,-0.007203163922768598,-0.9998468919287452,0.04584024940656236,4.0,0
14.201702117919922,16.822420120239258,-0.877027153968811,-0.0,-0.0,-1.0,0.08974999888412726,1.0,0
13.276617050170898,16.3499755859375,-0.7528918981552124,0.041590366270637884,0.9698472796595325,-0.24013849247981586,0.1612624047340291,4.0,0
14.63070297241211,16.844316482543945,-0.9064704179763794,-0.18297959231845512,0.4159537987884877,-0.8907866782055051,0.029405451000114328,3.0,0
14.337430953979492,16.815921783447266,-0.8843156099319458,-0.0,-0.0,-1.0,0.07885156944626474,2.0,0
14.203554153442383,16.346654891967773,-0.8071776628494263,-0.0,-0.0,-1.0,0.16519694561162676,1.0,0
15.016586303710938,16.832178115844727,-0.9285145998001099,-0.0,-0.0,-1.0,0.04028363502972422,2.0,0
14.216217041015625,16.1763858795166,-0.7829653024673462,-0.4629718668567687,-0.45531209816300583,0.760491909073042,0.16683658644620697,4.0,0
14.951068878173828,17.967445373535156,-0.8268158435821533,-0.0,-0.0,-1.0,0.029457158238791005,1.0,0
14.976739883422852,17.670852661132812,-0.8202164173126221,-0.0,-0.0,-1.0,0.032269862974669945,1.0,0
14.96860122680664,17.4288387298584,-0.8178186416625977,-0.0,-0.0,-1.0,0.07269733491439444,2.0,0
14.968072891235352,17.100019454956055,-0.8136019706726074,-0.0,-0.0,-1.0,0.06328899159685375,1.0,0
14.877683639526367,16.806982040405273,-0.8190820217132568,-0.0,-0.0,-1.0,0.06521802341654924,2.0,0
14.32197380065918,16.534799575805664,-0.8728189468383789,-0.0,-0.0,-1.0,0.11641561099135138,2.0,0
14.733919143676758,16.664234161376953,-0.8320193290710449,-0.0,-0.0,-1.0,0.06871149780053924,1.0,0
14.465618133544922,16.46355438232422,-0.8572299480438232,-0.0,-0.0,-1.0,0.0933921823403536,2.0,0
14.256170272827148,16.13768768310547,-0.8753082752227783,-0.0,-0.0,-1.0,0.16596211838340805,2.0,0
14.567636489868164,16.514286041259766,-0.9932190179824829,-0.0,-0.0,-1.0,0.07554940079242586,1.0,0
14.38216781616211,16.356475830078125,-0.9599987268447876,0.0689250381857361,-0.7383866092164331,-0.6708461481151643,0.0446746746878665,3.0,0
15.186349868774414,16.231857299804688,-0.9878028631210327,-0.0,-0.0,-1.0,0.03599240360921183,2.0,0
15.121465682983398,17.26752281188965,-1.2383850812911987,-0.0,-0.0,-1.0,0.17881631482961222,1.0,0
14.913755416870117,17.130615234375,-1.2187162637710571,-0.0,-0.0,-1.0,0.2180817259137931,1.0,0
15.122077941894531,17.51647186279297,-0.6766527891159058,-0.0,-0.0,-1.0,0.09748780916893095,1.0,0
12.866077423095703,17.77412223815918,-0.38195323944091797,-0.0,-0.0,-1.0,0.13392205123991255,2.0,0
12.76211929321289,17.733718872070312,-0.38361871242523193,-0.0,-0.0,-1.0,0.193165406755563,1.0,0
14.172294616699219,16.22784423828125,-0.39284002780914307,0.7431825865596073,-0.47554833049332973,-0.47067337761931966,0.14627240032220676,10.0,0
13.195472717285156,16.081151962280273,-0.4411658048629761,-0.0,-0.0,-1.0,0.1506951494432426,2.0,0
15.109946250915527,17.842668533325195,-0.8703562021255493,-0.0,-0.0,-1.0,0.043527501965443804,2.0,0
15.006473541259766,17.24230194091797,-0.8461242914199829,-0.0,-0.0,-1.0,0.037489130495856865,1.0,0
15.029498100280762,17.540746688842773,-0.860019326210022,-0.0,-0.0,-1.0,0.11649958890684842,2.0,0
14.891860961914062,16.972978591918945,-0.8399602174758911,-0.0,-0.0,-1.0,0.06890769269042321,1.0,0
14.599261283874512,16.768056869506836,-0.8492299318313599,-0.0,-0.0,-1.0,0.06293043075403097,1.0,0
14.311532974243164,16.565088272094727,-0.8585258722305298,-0.0,-0.0,-1.0,0.1436065080254343,2.0,0
14.159110069274902,16.666059494018555,-0.8740295171737671,-0.0,-0.0,-1.0,0.1368739272631546,2.0,0
14.173065185546875,16.183801651000977,-0.8488482236862183,-0.13101342646016018,-0.13662899701692074,-0.9819205666760009,0.16014778989847364,4.0,0
14.272114753723145,16.48952865600586,0.06137847900390625,-0.0,-0.0,-1.0,0.08874113670102453,1.0,1
13.114567756652832,18.124256134033203,-0.7351847887039185,-0.6500361944252305,-0.3452577243302357,-0.6769416885725613,0.17792831946388607,4.0,0
12.962924003601074,17.676158905029297,-0.6976404190063477,-0.0,-0.0,-1.0,0.2550733440328074,2.0,0
14.183928489685059,16.16132354736328,-0.5662692785263062,0.1612222590637127,-0.4862714390147479,-0.85880583997835,0.1631935521491904,4.0,0
13.373490333557129,16.380504608154297,-0.5870281457901001,-0.5865213727315955,0.6982920981023375,0.41034232666991627,0.2341221214371371,3.0,0
13.166129112243652,16.060375213623047,-0.5606558322906494,0.15372950016807926,-0.8979508904351757,-0.4123729369693743,0.14545270458532122,3.0,0
14.788467407226562,16.19646644592285,-0.9553158283233643,-0.0,-0.0,-1.0,0.016038651437342767,1.0,0
14.432707786560059,16.350791931152344,-0.9662430286407471,-0.0,-0.0,-1.0,0.045706378776918986,2.0,0
14.306941032409668,16.162212371826172,-0.9385206699371338,0.31112764447276514,0.40039211168659816,-0.8619082002997626,0.0855558164112201,4.0,0
12.713956832885742,16.332853317260742,-0.9220306873321533,-0.0,-0.0,-1.0,0.15371398836031278,1.0,0
14.257421493530273,16.378307342529297,-0.1258084774017334,-0.0,-0.0,-1.0,0.09495036584590312,1.0,0
14.461929321289062,16.139318466186523,-0.9797847270965576,-0.0,-0.0,-1.0,0.050448719518681025,1.0,0
15.176102638244629,15.872692108154297,-0.9635460376739502,-0.0,-0.0,-1.0,0.031565931272469976,1.0,0
14.94830322265625,15.929098129272461,-0.9647080898284912,-0.0,-0.0,-1.0,0.04796552328700244,1.0,0
14.628969192504883,16.105886459350586,-0.9798908233642578,-0.0,-0.0,-1.0,0.02921443198254351,2.0,0
12.987218856811523,18.013938903808594,-0.301379919052124,-0.0,-0.0,-1.0,0.2530346422036148,2.0,0
14.983637809753418,16.741683959960938,-0.955095648765564,-0.0,-0.0,-1.0,0.04230797758721651,1.0,0
14.636592864990234,16.61769676208496,-0.9666258096694946,-0.0,-0.0,-1.0,0.09258062144806327,1.0,0
14.281245231628418,16.220462799072266,-0.9569939374923706,0.7132322170517302,-0.5868887163096931,-0.38322505036575333,0.15055583538427145,5.0,0
14.315064430236816,16.578256607055664,-0.9836682081222534,-0.0,-0.0,-1.0,0.10370200087506892,1.0,0
14.167848587036133,16.31610679626465,-0.17545056343078613,-0.0,-0.0,-1.0,0.19200203902816107,2.0,0
14.167710304260254,16.211044311523438,-0.4505276679992676,0.7498073829420121,-0.2575883822309898,0.6094564084700991,0.12001300596630973,6.0,0
14.877723693847656,17.0932674407959,-0.867174506187439,-0.0,-0.0,-1.0,0.05692600366490981,1.0,0
14.917327880859375,17.415334701538086,-0.8881293535232544,-0.0,-0.0,-1.0,0.02386854824252404,1.0,0
15.066363334655762,17.78103256225586,-0.9047137498855591,-0.0,-0.0,-1.0,0.037520337641623665,2.0,0
15.074496269226074,18.095413208007812,-0.9275742769241333,-0.0,-0.0,-1.0,0.0803291635115567,1.0,0
14.654253005981445,16.9080753326416,-0.8696430921554565,-0.0,-0.0,-1.0,0.03283904785512791,2.0,0
14.322128295898438,16.689706802368164,-0.8777989149093628,0.6164691513542866,-0.38603698658994523,-0.6862515795341241,0.12167714338233286,4.0,0
14.340548515319824,16.75808334350586,-0.8814407587051392,0.7712011416860146,-0.14403095524932183,-0.6200837709472449,0.10233203440732436,3.0,0
14.127906799316406,16.172725677490234,-0.8547254800796509,-0.0,-0.0,-1.0,0.22222091828051327,2.0,0
14.15617847442627,16.421104431152344,-0.870514988899231,-0.09784816265329284,-0.9362825493446755,-0.33734363023186004,0.20245231898193106,3.0,0
13.399229049682617,16.82636260986328,-0.9555078744888306,-0.0,-0.0,-1.0,0.04477506444922038,2.0,0
13.213909149169922,16.865495681762695,-0.972065806388855,-0.0,-0.0,-1.0,0.04420468410585258,2.0,0
14.167649269104004,16.577959060668945,-0.15132081508636475,-0.0,-0.0,-1.0,0.08797561682106195,2.0,0
14.12206745147705,16.289518356323242,-0.14074420928955078,0.415061920132661,0.8732428282658508,0.2552852626730467,0.1956826784484946,7.0,0
14.173081398010254,18.056961059570312,-0.7216150760650635,0.5955660522735473,0.6765328872659802,-0.43313315484601145,0.10873377222367706,3.0,0
14.128846168518066,16.213186264038086,-0.6133812665939331,0.29081976527781866,-0.8971294599109221,-0.3325396161116621,0.19015711012625977,9.0,0
14.077067375183105,17.70528221130371,-0.7071690559387207,-0.922722250757406,-0.24231449884188805,-0.2997788044678798,0.08830941497624507,3.0,0
14.100799560546875,17.911548614501953,-0.7180227041244507,0.163539359321901,-0.3427989691263833,-0.9250641841074981,0.0978228382186805,4.0,0
13.592720985412598,17.502010345458984,-0.7309799194335938,0.33459036983854523,-0.8515828327646234,-0.4035541640869099,0.16905891064426676,3.0,0
13.270517349243164,16.34596824645996,-0.6868149042129517,-0.7294963970468548,-0.5570722019036136,-0.39686971232624635,0.1732723578553284,6.0,0
13.038013458251953,17.596569061279297,-0.7784370183944702,-0.0,-0.0,-1.0,0.18739359564779834,1.0,0
13.097576141357422,17.690444946289062,-0.7795373201370239,-0.6459308961890159,0.2573715317313109,-0.7187024224272057,0.10207741157459914,4.0,0
12.904305458068848,17.51803970336914,-0.783910870552063,0.09639980233008617,0.5829530165073888,-0.8067669171797119,0.21625831131001078,3.0,0
14.181002616882324,16.342626571655273,0.06956207752227783,0.18400590864427535,0.8077542466930808,-0.5600668732689773,0.27777348201092433,5.0,1
14.211549758911133,16.686304092407227,0.059819698333740234,0.099730185155811,0.4632541510985937,-0.88059609450571,0.2079220433546754,3.0,1
14.134682655334473,18.078702926635742,-0.7404543161392212,0.5955660522735473,0.6765328872659802,-0.43313315484601145,0.10311712248928522,3.0,0
14.140844345092773,16.207801818847656,-0.6265299320220947,0.22914521949646371,-0.9510523004804555,0.2073450991288454,0.18165953066364804,7.0,0
14.01190185546875,17.84677505493164,-0.7363903522491455,-0.0,-0.0,-1.0,0.07814465834075429,1.0,0
13.567801475524902,17.502485275268555,-0.7526431083679199,0.33459036983854523,-0.8515828327646234,-0.4035541640869099,0.1301562689544098,3.0,0
13.683700561523438,17.753028869628906,-0.7580604553222656,-0.0,-0.0,-1.0,0.03249553914458579,2.0,0
13.289286613464355,16.24566078186035,-0.7018122673034668,-0.0,-0.0,-1.0,0.2629377014785035,2.0,0
13.272342681884766,16.364871978759766,-0.7102411985397339,-0.9954754821569749,-0.019199801738605356,-0.09305875583488471,0.1334782705240244,3.0,0
13.055977821350098,17.721424102783203,-0.8090705871582031,-0.0,-0.0,-1.0,0.16736633942911402,2.0,0
13.224637031555176,18.12118911743164,-0.8188958168029785,-0.0,-0.0,-1.0,0.0852023384505311,2.0,0
13.145061492919922,16.115488052368164,-0.706723690032959,0.03874005630654259,-0.054481768451289846,-0.9977629703210007,0.20753444258642403,7.0,0
12.731966972351074,17.602176666259766,-0.8295156955718994,-0.0,-0.0,-1.0,0.17457156225574336,1.0,0
14.191844940185547,16.332168579101562,0.022800803184509277,-0.19276149296784253,0.964993341821519,-0.17785065945603168,0.2777734820109244,7.0,1
14.198355674743652,16.610200881958008,0.013843536376953125,-0.0,-0.0,-1.0,0.17893435650874018,2.0,1
13.478599548339844,16.6085262298584,-0.9839270114898682,-0.0,-0.0,-1.0,0.061877850146690026,2.0,0
13.292867660522461,16.552196502685547,-0.9969484806060791,-0.0,-0.0,-1.0,0.18825675481081475,2.0,0
13.127510070800781,16.641117095947266,-1.0193955898284912,-0.0,-0.0,-1.0,0.11115803492461458,1.0,0
15.091179847717285,17.1570987701416,-0.8822782039642334,-0.0,-0.0,-1.0,0.034732413471582894,2.0,0
15.164522171020508,17.6115665435791,-0.9141387939453125,-0.0,-0.0,-1.0,0.09894098097447299,2.0,0
14.83857536315918,16.83807945251465,-0.8781681060791016,-0.0,-0.0,-1.0,0.05463945098678276,1.0,0
14.985452651977539,16.9950008392334,-0.8780667781829834,-0.0,-0.0,-1.0,0.07230165721232289,2.0,0
14.511269569396973,16.652936935424805,-0.8924710750579834,-0.0,-0.0,-1.0,0.09245474035903405,1.0,0
14.173086166381836,16.249887466430664,-0.8910889625549316,-0.0,-0.0,-1.0,0.2103003641056071,1.0,0
14.21070671081543,16.568815231323242,-0.9130551815032959,-0.0,-0.0,-1.0,0.1945528485423492,2.0,0
13.260129928588867,16.284605026245117,-0.9792544841766357,-0.21408420335759643,-0.9711706650669265,0.10485939722412593,0.2576199660330944,3.0,0
14.20118236541748,16.485713958740234,-0.2825901508331299,-0.0,-0.0,-1.0,0.08558726449739473,2.0,0
14.278276443481445,17.870546340942383,-0.5183751583099365,-0.0,-0.0,-1.0,0.16524167935813716,1.0,0
14.151058197021484,16.1949520111084,-0.4954373836517334,0.6978737861878739,-0.29138849021863317,-0.654266708858022,0.10920387396255199,7.0,0
13.884207725524902,17.93613052368164,-0.5676947832107544,-0.0,-0.0,-1.0,0.0674105677416721,1.0,0
13.558443069458008,17.461591720581055,-0.5965557098388672,-0.0,-0.0,-1.0,0.1649147156014036,1.0,0
13.59454345703125,17.513900756835938,-0.5932402610778809,-0.0,-0.0,-1.0,0.10590722393638785,1.0,0
13.233430862426758,18.120193481445312,-0.6518354415893555,-0.0,-0.0,-1.0,0.1409889629436043,1.0,0
13.218523025512695,16.099123001098633,-0.6138570308685303,0.033585077234210184,-0.642317945128359,-0.7657020960878027,0.23013402632497607,4.0,0
13.283245086669922,16.324251174926758,-0.6091372966766357,-0.9770695204070948,-0.002151146193941888,0.2129096636169952,0.25355929275201583,4.0,0
13.039013862609863,17.58846092224121,-0.6643452644348145,-0.0,-0.0,-1.0,0.2335276163543677,1.0,0
13.032280921936035,17.909221649169922,-0.6720175743103027,-0.0,-0.0,-1.0,0.2376575173578273,1.0,0
14.170034408569336,16.28485679626465,0.09366965293884277,-0.0,-0.0,-1.0,0.24485259076059748,1.0,1
14.1987886428833,16.502174377441406,0.09739446640014648,-0.0,-0.0,-1.0,0.0853994686319437,1.0,1
14.88365650177002,15.95097541809082,-0.9474648237228394,-0.5434221701097471,-0.16791441127392473,-0.8224944349475831,0.029312181477622108,5.0,0
15.035036087036133,16.09190559387207,-0.9419597387313843,-0.0,-0.0,-1.0,0.022385592861219595,2.0,0
14.69711685180664,15.9041748046875,-0.9658700227737427,-0.0,-0.0,-1.0,0.03391981582823387,1.0,0
14.459898948669434,15.941118240356445,-0.9980040788650513,-0.0,-0.0,-1.0,0.06116636564167056,1.0,0
14.121271133422852,15.994565963745117,-1.0441228151321411,-0.0,-0.0,-1.0,0.16359122805002105,1.0,0
13.731937408447266,16.04354476928711,-1.0963155031204224,-0.0,-0.0,-1.0,0.08750827180537886,1.0,0
13.423315048217773,16.055086135864258,-1.1355069875717163,-0.0,-0.0,-1.0,0.09845912272229002,2.0,0
14.148567199707031,16.18534278869629,-0.4997156858444214,0.6978737861878739,-0.29138849021863317,-0.654266708858022,0.10599076469523303,7.0,0
13.183503150939941,16.07495880126953,-0.5859349966049194,-0.502889614755996,-0.5527465859208229,-0.6645097795544022,0.14701414967005683,3.0,0
13.289972305297852,16.347288131713867,-0.5927349328994751,0.4202809029226235,0.28329583223603283,-0.8620367939225316,0.2110103611679898,7.0,0
12.945732116699219,17.866121292114258,-0.7233937978744507,0.43578948895491443,0.6759586524504589,-0.5942789088414414,0.1603936413541156,3.0,0
13.050973892211914,18.128429412841797,-0.7306135892868042,-0.8608968370432287,0.3079387566275084,0.4050066149282859,0.15731917318749028,3.0,0
14.243332862854004,16.622913360595703,0.04248249530792236,0.11877493199117536,0.11653693400544045,-0.9860586486325766,0.20792204335467546,3.0,1
14.214866638183594,16.34372901916504,0.05188882350921631,-0.3366373541737873,0.927519198213031,-0.16242976550228827,0.24266812895070336,5.0,1
12.961376190185547,17.777910232543945,-0.0938422679901123,-0.0,-0.0,-1.0,0.1401399571539197,1.0,0
15.063737869262695,16.144594192504883,-0.9379864931106567,-0.0,-0.0,-1.0,0.03224361258721882,1.0,0
15.20311450958252,16.32028579711914,-0.9501601457595825,-0.0,-0.0,-1.0,0.03569705526328843,1.0,0
14.70028018951416,16.073333740234375,-0.9606636762619019,-0.0,-0.0,-1.0,0.029689020099384462,2.0,0
14.273821830749512,16.14540672302246,-1.0093024969100952,-0.0,-0.0,-1.0,0.18609665958295996,1.0,0
13.780416488647461,16.258716583251953,-1.0700808763504028,-0.0,-0.0,-1.0,0.06480477020639296,2.0,0
13.49148941040039,15.644886016845703,-1.016527771949768,-0.0,-0.0,-1.0,0.14155396738749731,1.0,0
13.376313209533691,16.10715103149414,-1.087926983833313,-0.0,-0.0,-1.0,0.1292667186816216,1.0,0
13.515776634216309,16.270755767822266,-1.0964020490646362,-0.0,-0.0,-1.0,0.07689569493906591,2.0,0
13.1948823928833,16.079063415527344,-1.1015006303787231,-0.0,-0.0,-1.0,0.25198688157855165,1.0,0
12.937013626098633,16.21202850341797,-1.1435223817825317,-0.0,-0.0,-1.0,0.11384366894262042,1.0,0
14.15678596496582,16.210723876953125,-0.5009646415710449,0.44900298119915116,0.02462755745082003,-0.8931908006066125,0.14153780593964166,10.0,0
14.245384216308594,17.938552856445312,-0.6930423974990845,-0.0,-0.0,-1.0,0.12151247961351792,2.0,0
13.325900077819824,16.358997344970703,-0.5721628665924072,-0.20577105122667924,0.9598764555119594,-0.1905136862035504,0.1612058517027367,4.0,0
12.975179672241211,17.70013999938965,-0.744402289390564,-0.33834560769882527,0.31773059950202376,-0.8857592877813911,0.20133284090681663,5.0,0
12.983414649963379,18.06175422668457,-0.7849427461624146,-0.0,-0.0,-1.0,0.11966597953550201,2.0,0
14.251327514648438,16.474239349365234,0.0026863813400268555,-0.0,-0.0,-1.0,0.10909128699047689,1.0,1
14.869813919067383,17.806339263916016,-0.8587814569473267,-0.0,-0.0,-1.0,0.03572294587478198,2.0,0
14.524045944213867,17.436429977416992,-0.8363078832626343,-0.0,-0.0,-1.0,0.02601834361901655,1.0,0
14.6983060836792,17.618167877197266,-0.8468397855758667,-0.0,-0.0,-1.0,0.015730273401789896,2.0,0
14.145950317382812,16.25067138671875,-0.7152284383773804,0.9296440237702008,0.22802220794819475,0.28942678132954514,0.20414395487498263,5.0,0
14.17138671875,16.419363021850586,-0.7342201471328735,-0.1579633011486602,-0.7826745754591954,0.6020532405194627,0.21645365643634912,4.0,0
14.205131530761719,16.996559143066406,-0.8043931722640991,-0.0,-0.0,-1.0,0.05247808007001611,2.0,0
14.320169448852539,17.279476165771484,-0.8316527605056763,-0.0,-0.0,-1.0,0.036518897062644974,1.0,0
13.746752738952637,17.061363220214844,-0.8486443758010864,-0.0,-0.0,-1.0,0.0455133135702533,1.0,0
13.32014274597168,16.218097686767578,-0.7785924673080444,-0.0,-0.0,-1.0,0.1883902204134137,2.0,0
13.484724998474121,17.107532501220703,-0.8752514123916626,-0.0,-0.0,-1.0,0.13873028540289936,1.0,0
13.180758476257324,16.128355026245117,-0.7792404890060425,-0.0,-0.0,-1.0,0.17777477220878352,2.0,0
13.25341796875,16.33090591430664,-0.7978438138961792,-0.936177760649882,0.18125771095543458,-0.3011923682362627,0.2640319095180967,3.0,0
13.142353057861328,17.143972396850586,-0.9071875810623169,-0.0,-0.0,-1.0,0.15804705752457346,2.0,0
12.786300659179688,16.442913055419922,-0.8500972986221313,-0.0,-0.0,-1.0,0.19529526488624582,2.0,0
13.040901184082031,17.796588897705078,-0.43522584438323975,0.34833043653429985,0.6396249541273598,-0.6852341388470053,0.24523758419010044,4.0,0
14.156436920166016,16.246959686279297,-0.2174544334411621,0.5307173795486521,0.07780637142303776,-0.8439699234042599,0.19859203087474386,3.0,0
13.286968231201172,16.46985626220703,-0.2864614725112915,0.32194896943634055,0.8797129530837063,-0.3499342527613187,0.0751860502874105,8.0,0
14.985072135925293,18.05270004272461,-0.9036273956298828,0.23897966403485327,-0.260301007318459,-0.9354849575310037,0.08973790004474072,4.0,0
14.726032257080078,17.545732498168945,-0.860593318939209,-0.0,-0.0,-1.0,0.013304117417260055,1.0,0
14.931207656860352,17.876209259033203,-0.884955644607544,-0.0,-0.0,-1.0,0.03624793529704184,2.0,0
14.17380428314209,16.329925537109375,-0.7614588737487793,0.9242504174893212,-0.2730365711619319,-0.26685613460992513,0.18210791559910547,3.0,0
14.256032943725586,16.88799285888672,-0.8219621181488037,0.7519964966486806,-0.5625871338771385,0.34350689341557256,0.05664967094989592,3.0,0
14.391437530517578,17.11449432373047,-0.8372373580932617,0.05539804091142243,-0.9003350823765411,-0.4316570357415756,0.01206825025154298,3.0,0
14.518638610839844,17.3470458984375,-0.8545358180999756,-0.0,-0.0,-1.0,0.03032045147559686,2.0,0
14.130424499511719,16.169565200805664,-0.7464978694915771,-0.0,-0.0,-1.0,0.15975624544660572,2.0,0
13.958979606628418,16.872188568115234,-0.8497183322906494,-0.0,-0.0,-1.0,0.09260212459034241,1.0,0
13.484800338745117,17.00676727294922,-0.9141476154327393,-0.0,-0.0,-1.0,0.14373909292447093,2.0,0
13.219422340393066,16.08977699279785,-0.8322460651397705,-0.0,-0.0,-1.0,0.16039845647005688,1.0,0
13.307957649230957,16.26290512084961,-0.8431241512298584,0.3175651872096479,0.07937308076506017,-0.9449086018882275,0.21778461756374132,3.0,0
13.218612670898438,16.95195960998535,-0.9345932006835938,-0.0,-0.0,-1.0,0.08875926192127151,2.0,0
12.793638229370117,16.936086654663086,-0.9764702320098877,-0.0,-0.0,-1.0,0.07593539083956091,1.0,0
13.334086418151855,16.45305633544922,-0.36402273178100586,0.6405190810243623,0.5464776633653433,0.53953449406545,0.12533317365700217,5.0,0
12.85549545288086,17.922821044921875,-0.5474330186843872,0.28680125274405227,0.24520207038123437,-0.9260782829249362,0.1592063051448614,3.0,0
14.130315780639648,16.25425148010254,-0.28520405292510986,0.022854164896789975,0.3872137044900556,-0.9217066964072456,0.2116624722759702,3.0,0
13.03891372680664,17.911808013916016,0.00026428699493408203,0.11346700683288864,0.6720430648583323,-0.7317672835924031,0.23393923440325678,4.0,1
15.09699535369873,15.745335578918457,-0.9783052206039429,-0.0,-0.0,-1.0,0.041750704345792616,2.0,0
14.581426620483398,17.56498908996582,-0.8323172330856323,-0.0,-0.0,-1.0,0.017930216267907074,1.0,0
14.672608375549316,17.790485382080078,-0.849465012550354,-0.0,-0.0,-1.0,0.015804010295296458,2.0,0
14.225912094116211,17.10214614868164,-0.8183926343917847,-0.0,-0.0,-1.0,0.036815771106187924,2.0,0
14.401168823242188,17.383785247802734,-0.831192135810852,-0.0,-0.0,-1.0,0.05423077303012877,2.0,0
13.837189674377441,16.96034812927246,-0.847511887550354,-0.0,-0.0,-1.0,0.06973671734181172,2.0,0
13.331472396850586,16.282516479492188,-0.8335739374160767,0.39807829328466754,-0.03083720412027511,-0.9168329942021123,0.21754977587201307,3.0,0
13.414421081542969,17.05782699584961,-0.9083820581436157,-0.0,-0.0,-1.0,0.1703899676033536,1.0,0
13.148160934448242,17.023513793945312,-0.9361928701400757,-0.0,-0.0,-1.0,0.05823461347827613,2.0,0
14.17144775390625,16.294692993164062,-0.7335721254348755,0.984978353589013,0.06175564664951072,0.16125719539908379,0.1875912299374972,3.0,0
14.243582725524902,16.985929489135742,-0.8028775453567505,-0.0,-0.0,-1.0,0.047935825083975855,2.0,0
14.14516830444336,16.258516311645508,-0.28304409980773926,-0.0,-0.0,-1.0,0.1793313663981774,2.0,0
14.172874450683594,16.498435974121094,-0.3026312589645386,-0.0,-0.0,-1.0,0.0687041660396767,2.0,0
13.018017768859863,17.890636444091797,-0.024312496185302734,0.0230636176958699,0.8694826890981494,-0.4934246881717914,0.1844527070217559,6.0,0
14.833104133605957,16.4337158203125,-0.9246923923492432,-0.0,-0.0,-1.0,0.03436641474164129,2.0,0
15.069271087646484,16.653820037841797,-0.9111638069152832,-0.7975943373081623,-0.4562894317341689,-0.3945164477961126,0.04375037232902097,3.0,0
15.20166301727295,16.882282257080078,-0.9151971340179443,-0.0,-0.0,-1.0,0.03878689139852664,2.0,0
14.660639762878418,16.27116584777832,-0.9351210594177246,-0.7724180615860868,-0.5320816933888004,-0.3467843850234596,0.015319290046744247,3.0,0
14.340928077697754,16.19921112060547,-0.9782092571258545,0.47910813966857546,0.4017375714498017,-0.7804244448945279,0.07950766503888569,3.0,0
13.029208183288574,17.565372467041016,-0.8282268047332764,-0.0,-0.0,-1.0,0.12822206528638536,1.0,0
