x,y,z,nx,ny,nz,curvature,density,label
43.616294860839844,25.45796775817871,-2.409494400024414,-0.0,-0.0,-1.0,0.17986464167016086,1.0,0
43.68531799316406,25.216156005859375,-2.4256296157836914,-0.0,-0.0,-1.0,0.2213148988654975,1.0,0
43.89698791503906,25.622467041015625,-2.4482321739196777,-0.0,-0.0,-1.0,0.15319945633239884,2.0,0
44.34572982788086,25.07699966430664,-2.201972007751465,-0.0,-0.0,-1.0,0.1572952827482145,2.0,0
44.44110107421875,24.88345718383789,-2.2205400466918945,-0.0,-0.0,-1.0,0.22548011985874428,1.0,0
44.37546920776367,24.488445281982422,-2.22119140625,-0.0,-0.0,-1.0,0.20106785612794237,1.0,0
44.5585823059082,24.68355369567871,-2.2425246238708496,-0.0,-0.0,-1.0,0.1699837415236481,1.0,0
44.653541564941406,24.53961181640625,-2.2598981857299805,-0.0,-0.0,-1.0,0.09791993932194175,2.0,0
44.692501068115234,24.179542541503906,-2.2749671936035156,-0.0,-0.0,-1.0,0.06649600445850602,1.0,0
44.878517150878906,25.54257583618164,-2.2678236961364746,-0.0,-0.0,-1.0,0.04032868082997276,1.0,0
45.03959655761719,25.03778076171875,-2.3030691146850586,-0.0,-0.0,-1.0,0.12347978280584661,2.0,0
43.71726989746094,23.621658325195312,-2.150463104248047,-0.0,-0.0,-1.0,0.19894139156413534,2.0,0
43.91266632080078,24.483356475830078,-2.15472412109375,-0.0,-0.0,-1.0,0.24278053006571315,2.0,0
44.15758514404297,24.566490173339844,-2.268887519836426,-0.0,-0.0,-1.0,0.15908325570722007,1.0,0
44.07120895385742,24.254791259765625,-2.255436897277832,-0.0,-0.0,-1.0,0.23734443518004592,1.0,0
44.42870330810547,24.73642921447754,-2.3104305267333984,-0.0,-0.0,-1.0,0.15579350449752755,1.0,0
44.73722457885742,25.23617172241211,-2.358896255493164,-0.0,-0.0,-1.0,0.031310610984423635,1.0,0
44.62892150878906,24.922937393188477,-2.341362476348877,-0.0,-0.0,-1.0,0.1395004268534477,1.0,0
43.708404541015625,23.702709197998047,-1.9544193744659424,-0.0,-0.0,-1.0,0.2171911672742016,2.0,0
44.78468322753906,24.854394912719727,-2.291085958480835,-0.0,-0.0,-1.0,0.12953348392907635,1.0,0
44.87738800048828,25.33083152770996,-2.3431332111358643,-0.0,-0.0,-1.0,0.02709793344327557,1.0,0
44.87424087524414,25.0206241607666,-2.3180501461029053,-0.0,-0.0,-1.0,0.056383511654584016,1.0,0
44.96101379394531,25.604583740234375,-2.3780319690704346,-0.0,-0.0,-1.0,0.04000799378532868,2.0,0
42.78187561035156,24.042844772338867,-1.9166600704193115,-0.0,-0.0,-1.0,0.09782146777134162,1.0,0
43.43793487548828,23.31292724609375,-1.963503122329712,0.0031858373376462477,0.28280537143996076,-0.9591720243653711,0.15867439930818503,3.0,0
42.94886779785156,24.173702239990234,-1.9527652263641357,-0.0,-0.0,-1.0,0.11353852111381793,1.0,0
43.73857879638672,23.704120635986328,-2.0397531986236572,-0.0,-0.0,-1.0,0.21519700420305105,1.0,0
43.428863525390625,24.10186195373535,-2.0218570232391357,-0.0,-0.0,-1.0,0.09074482217412681,2.0,0
44.281578063964844,23.91542625427246,-2.1403963565826416,-0.0,-0.0,-1.0,0.12122939871299311,1.0,0
43.797428131103516,24.94364356994629,-2.144965410232544,-0.0,-0.0,-1.0,0.19304394828685192,1.0,0
44.686439514160156,24.197856903076172,-2.2249867916107178,-0.0,-0.0,-1.0,0.07108693251221083,1.0,0
43.77406311035156,24.437694549560547,-1.9443082809448242,-0.0,-0.0,-1.0,0.2681635847023912,2.0,0
43.89710998535156,24.61473846435547,-1.9804887771606445,-0.0,-0.0,-1.0,0.1691680758112995,2.0,0
43.85997009277344,25.115509033203125,-2.025717258453369,-0.0,-0.0,-1.0,0.19211582897471371,1.0,0
44.09351348876953,25.005271911621094,-2.0493063926696777,-0.0,-0.0,-1.0,0.1490144891148741,1.0,0
44.99173355102539,24.425321578979492,-2.125556468963623,-0.0,-0.0,-1.0,0.07986331999224991,1.0,0
44.31702423095703,25.17411994934082,-2.099825859069824,-0.0,-0.0,-1.0,0.2625666785743885,2.0,0
44.62054443359375,25.082618713378906,-2.1358141899108887,-0.0,-0.0,-1.0,0.14159093211001914,1.0,0
42.82447814941406,24.126325607299805,-2.0117344856262207,-0.0,-0.0,-1.0,0.13260861560288875,2.0,0
43.76263427734375,23.727876663208008,-2.1154823303222656,-0.0,-0.0,-1.0,0.21872798673665664,1.0,0
44.055091857910156,24.129043579101562,-2.208709239959717,-0.0,-0.0,-1.0,0.14780261827696392,1.0,0
44.349002838134766,23.94924545288086,-2.235072612762451,-0.0,-0.0,-1.0,0.07888808814186504,1.0,0
43.819580078125,24.362773895263672,-2.1983871459960938,-0.0,-0.0,-1.0,0.19082198206898401,1.0,0
44.368568420410156,24.407888412475586,-2.291377544403076,-0.0,-0.0,-1.0,0.2071389400106466,1.0,0
44.235870361328125,24.686824798583984,-2.3030457496643066,-0.0,-0.0,-1.0,0.1841258834750593,1.0,0
44.412208557128906,24.931283950805664,-2.3601908683776855,-0.0,-0.0,-1.0,0.1663208585856163,1.0,0
44.3709716796875,25.618764877319336,-2.436767101287842,-0.0,-0.0,-1.0,0.10095560126751234,1.0,0
44.6600341796875,25.48843002319336,-2.4665780067443848,-0.0,-0.0,-1.0,0.1344286934297799,1.0,0
43.25157165527344,23.854352951049805,-2.3271713256835938,-0.0,-0.0,-1.0,0.13483032032080539,1.0,0
43.460960388183594,23.835437774658203,-2.362391948699951,-0.0,-0.0,-1.0,0.061068835682826214,1.0,0
43.884681701660156,23.884550094604492,-2.444448947906494,-0.0,-0.0,-1.0,0.05142877473079287,1.0,0
43.2115478515625,23.46746063232422,-2.272830009460449,-0.0,-0.0,-1.0,0.03997880862525396,1.0,0
43.31976318359375,23.333829879760742,-2.276270866394043,-0.0,-0.0,-1.0,0.14023971844357405,1.0,0
44.22336196899414,24.695587158203125,-2.429750680923462,-0.0,-0.0,-1.0,0.07401121442870826,1.0,0
44.03636169433594,24.92458152770996,-2.4218132495880127,-0.0,-0.0,-1.0,0.16824772683078318,2.0,0
43.973846435546875,25.503528594970703,-2.478276491165161,-0.0,-0.0,-1.0,0.1325432342549218,2.0,0
43.85942077636719,25.630020141601562,-2.4727280139923096,-0.0,-0.0,-1.0,0.16291331254392635,2.0,0
43.436126708984375,23.308029174804688,-2.1322414875030518,-0.0,-0.0,-1.0,0.17031452204407538,1.0,0
42.832916259765625,23.9436092376709,-2.090325117111206,-0.0,-0.0,-1.0,0.13533507691171773,2.0,0
43.56617736816406,23.837371826171875,-2.2134220600128174,-0.0,-0.0,-1.0,0.10698278548163975,1.0,0
43.861785888671875,23.650083541870117,-2.2476418018341064,-0.0,-0.0,-1.0,0.25147967693808476,1.0,0
43.96769714355469,24.26511001586914,-2.3345015048980713,-0.0,-0.0,-1.0,0.2522824822415855,1.0,0
43.142391204833984,24.37793731689453,-2.1960365772247314,-0.0,-0.0,-1.0,0.211218589528706,1.0,0
43.97779846191406,24.43638801574707,-2.3555185794830322,-0.0,-0.0,-1.0,0.18066761346192048,2.0,0
43.501190185546875,23.323379516601562,-2.1253042221069336,-0.0,-0.0,-1.0,0.21382545946206727,1.0,0
43.772003173828125,23.766704559326172,-2.2273430824279785,-0.0,-0.0,-1.0,0.11883430857406904,1.0,0
44.08454895019531,23.59781265258789,-2.267472267150879,-0.0,-0.0,-1.0,0.0323477539814129,1.0,0
44.94076156616211,23.55804443359375,-2.4264516830444336,-0.0,-0.0,-1.0,0.03105706007353278,1.0,0
42.95197296142578,23.969865798950195,-2.095770835876465,-0.0,-0.0,-1.0,0.1514155398413086,1.0,0
43.50988006591797,23.94424819946289,-2.1981711387634277,-0.0,-0.0,-1.0,0.14671943901297038,2.0,0
44.07136917114258,24.27099609375,-2.342637538909912,-0.0,-0.0,-1.0,0.19599725514824487,1.0,0
43.20942687988281,24.380651473999023,-2.1932897567749023,-0.0,-0.0,-1.0,0.1952734552980281,2.0,0
44.041221618652344,24.499727249145508,-2.3640213012695312,-0.0,-0.0,-1.0,0.25694441312450195,1.0,0
44.077789306640625,24.971031188964844,-2.4277124404907227,-0.0,-0.0,-1.0,0.1480313125218789,1.0,0
43.90545654296875,25.479244232177734,-2.458502769470215,-0.0,-0.0,-1.0,0.1459191216984112,1.0,0
43.90977478027344,24.438671112060547,-2.055821180343628,-0.7883397303911082,-0.4787545707094876,0.38641238400399275,0.2378131760218772,4.0,0
44.717647552490234,24.4863338470459,-2.210045576095581,-0.0,-0.0,-1.0,0.07551469253281712,2.0,0
44.97039031982422,24.38335418701172,-2.244056463241577,-0.0,-0.0,-1.0,0.07807357076782954,2.0,0
44.35662078857422,25.06689453125,-2.2166426181793213,-0.0,-0.0,-1.0,0.14392440801894657,2.0,0
44.9760856628418,25.588851928710938,-2.396223783493042,-0.0,-0.0,-1.0,0.04103013152605011,2.0,0
42.7464599609375,24.223194122314453,-1.815983533859253,-0.0,-0.0,-1.0,0.14021030410443283,1.0,0
43.33854293823242,24.016803741455078,-1.8986427783966064,-0.0,-0.0,-1.0,0.16357265726180917,1.0,0
42.73601150512695,23.24679946899414,-2.259004831314087,0.6027336996251323,-0.6729804333745006,-0.4287300125151847,0.04507518461385996,4.0,0
44.94260787963867,24.490806579589844,-2.165504217147827,-0.0,-0.0,-1.0,0.07222116309446035,1.0,0
45.10328674316406,24.362464904785156,-2.1797935962677,-0.0,-0.0,-1.0,0.0778362158041601,1.0,0
45.11414337158203,24.680442810058594,-2.221482038497925,-0.0,-0.0,-1.0,0.1778397635772033,1.0,0
44.41783142089844,25.044815063476562,-2.1381728649139404,-0.0,-0.0,-1.0,0.20316112396043376,1.0,0
45.02649688720703,25.161069869995117,-2.2663605213165283,-0.0,-0.0,-1.0,0.06478657277394045,1.0,0
45.10574722290039,25.521793365478516,-2.3280279636383057,-0.17172870143944288,-0.8690153490533413,-0.4640275597543992,0.03725643922493509,4.0,0
43.382354736328125,23.281187057495117,-1.7223737239837646,-0.4280789426893338,0.07887703754153098,-0.9002926367435502,0.1394622542994831,3.0,0
43.309478759765625,24.105239868164062,-1.810835599899292,0.4886798355331876,0.21661619589079906,-0.8451446278720913,0.22323933734589976,7.0,0
43.987213134765625,24.51020622253418,-1.9890620708465576,-0.0,-0.0,-1.0,0.2509485579631366,1.0,0
44.08140563964844,24.814556121826172,-2.045783758163452,-0.0,-0.0,-1.0,0.14284744535597357,1.0,0
43.149959564208984,23.363819122314453,-2.1873629093170166,-0.0,-0.0,-1.0,0.08147710681640984,1.0,0
43.34093475341797,23.57732582092285,-2.261545419692993,-0.0,-0.0,-1.0,0.0430019218129026,1.0,0
43.75556564331055,23.51338768005371,-2.344752550125122,-0.0,-0.0,-1.0,0.12421523624149805,1.0,0
43.54718017578125,23.979022979736328,-2.3675811290740967,-0.0,-0.0,-1.0,0.06182856026030201,1.0,0
43.65972137451172,23.853836059570312,-2.3737094402313232,-0.0,-0.0,-1.0,0.07507644974641917,1.0,0
42.777225494384766,25.325958251953125,-2.413564920425415,-0.0,-0.0,-1.0,0.11434380154601913,1.0,0
45.052860260009766,25.62132453918457,-2.210005044937134,-0.0,-0.0,-1.0,0.03694272750311206,1.0,0
43.999061584472656,24.48737335205078,-1.855531930923462,-0.3493307531947034,0.4031007668503961,-0.8458592061549277,0.1966568867895995,5.0,0
43.863250732421875,24.68975830078125,-1.8581702709197998,-0.0,-0.0,-1.0,0.15579969313145303,2.0,0
44.366207122802734,25.08449935913086,-2.0069425106048584,-0.0,-0.0,-1.0,0.19823561068586384,2.0,0
42.71267318725586,23.577489852905273,-2.2780752182006836,-0.0,-0.0,-1.0,0.04409905812007411,1.0,0
43.04915237426758,23.411054611206055,-2.3275976181030273,-0.0,-0.0,-1.0,0.05597044609315446,2.0,0
44.99567413330078,24.340587615966797,-2.261601448059082,-0.0,-0.0,-1.0,0.08521597787159803,1.0,0
44.81550979614258,24.56539535522461,-2.2613935470581055,-0.0,-0.0,-1.0,0.052402998093148856,1.0,0
44.724334716796875,25.061609268188477,-2.3249855041503906,-0.0,-0.0,-1.0,0.09579528279194471,1.0,0
44.702178955078125,25.516036987304688,-2.3975276947021484,-0.0,-0.0,-1.0,0.05733460397497401,2.0,0
43.30418014526367,23.956684112548828,-1.8577337265014648,-0.0,-0.0,-1.0,0.21101288451270298,2.0,0
43.026248931884766,24.273475646972656,-1.8547687530517578,-0.0,-0.0,-1.0,0.20095244739859414,2.0,0
43.64219284057617,24.189319610595703,-1.9638285636901855,-0.0,-0.0,-1.0,0.0752153104058419,1.0,0
43.9034423828125,24.42591094970703,-2.055241107940674,0.5522037108015438,-0.30923490670421944,-0.7742382283590998,0.23547956062319533,3.0,0
44.40196990966797,24.43326759338379,-2.1565423011779785,-0.0,-0.0,-1.0,0.14124116768746967,2.0,0
44.79698181152344,24.36497688293457,-2.2252755165100098,-0.0,-0.0,-1.0,0.048424291269020085,1.0,0
43.85771179199219,24.71420669555664,-2.0943870544433594,-0.0,-0.0,-1.0,0.14171505029736914,1.0,0
44.07360076904297,24.902828216552734,-2.1688694953918457,-0.0,-0.0,-1.0,0.1543430638466565,2.0,0
44.88215637207031,23.291725158691406,-2.4436469078063965,-0.0,-0.0,-1.0,0.016092248343031548,1.0,0
44.33130645751953,23.508380889892578,-2.364626884460449,-0.0,-0.0,-1.0,0.0129709221360519,2.0,0
43.75682067871094,23.978900909423828,-2.3209457397460938,-0.0,-0.0,-1.0,0.05302696519506961,2.0,0
43.83597946166992,24.250181198120117,-2.3773603439331055,-0.0,-0.0,-1.0,0.18326773858634185,1.0,0
42.84552764892578,25.5006103515625,-2.3909859657287598,-0.0,-0.0,-1.0,0.1080545484346363,1.0,0
43.54545593261719,23.64719581604004,-2.2302560806274414,0.8316686473695956,-0.1970381296382944,-0.5191370112514331,0.15638028739270565,3.0,0
43.700408935546875,23.596202850341797,-2.253063678741455,-0.0,-0.0,-1.0,0.1922122660725836,1.0,0
42.76632308959961,23.87327003479004,-2.1132774353027344,-0.0,-0.0,-1.0,0.10191873031126851,1.0,0
43.454769134521484,23.968652725219727,-2.2609009742736816,-0.006958932829767029,-0.8443137093909274,-0.5358040065064874,0.19370306637251752,3.0,0
44.33977508544922,25.096637725830078,-1.9614135026931763,-0.0,-0.0,-1.0,0.2522069287382031,2.0,0
43.94100570678711,24.4960880279541,-1.8151825666427612,-0.43180866256461864,-0.8609666346521943,0.26884518398109764,0.13612687095909023,4.0,0
43.91937255859375,24.72274398803711,-1.8427740335464478,-0.0,-0.0,-1.0,0.1768330285668796,1.0,0
43.43244552612305,23.233203887939453,-1.9734280109405518,0.9567744448828085,0.15134558603960993,-0.24834889813631286,0.13281828230295575,5.0,0
43.16063690185547,23.86935043334961,-2.006204128265381,-0.0,-0.0,-1.0,0.09175915606578779,1.0,0
43.742977142333984,23.665517807006836,-2.0846264362335205,-0.0,-0.0,-1.0,0.20866496442471325,2.0,0
43.888004302978516,23.648487091064453,-2.1087629795074463,-0.0,-0.0,-1.0,0.1542976906485349,1.0,0
44.12400817871094,24.089153289794922,-2.2079877853393555,-0.0,-0.0,-1.0,0.1672402783787821,1.0,0
44.3671875,24.090656280517578,-2.252079963684082,-0.0,-0.0,-1.0,0.07284314172921413,1.0,0
43.973140716552734,24.55660629272461,-2.2424468994140625,-0.0,-0.0,-1.0,0.14535835303574487,1.0,0
44.44231414794922,24.459789276123047,-2.313506841659546,-0.0,-0.0,-1.0,0.1972514895347172,2.0,0
43.877960205078125,24.931468963623047,-2.2762649059295654,-0.0,-0.0,-1.0,0.17725459264567553,1.0,0
44.54157257080078,24.989891052246094,-2.4015324115753174,-0.0,-0.0,-1.0,0.18332657346313602,2.0,0
44.448482513427734,25.491357803344727,-2.4534833431243896,-0.0,-0.0,-1.0,0.12094166604493951,1.0,0
43.05949401855469,23.872905731201172,-1.9885890483856201,-0.0,-0.0,-1.0,0.06403674192351282,2.0,0
42.91362380981445,23.970977783203125,-1.9757022857666016,-0.0,-0.0,-1.0,0.10903319877722381,1.0,0
44.23776626586914,24.115081787109375,-2.2149405479431152,-0.0,-0.0,-1.0,0.10952908797572421,1.0,0
44.6112174987793,23.863155364990234,-2.245680332183838,-0.0,-0.0,-1.0,0.09939275365329377,1.0,0
45.11547088623047,24.016376495361328,-2.3607282638549805,-0.0,-0.0,-1.0,0.12392896395260547,1.0,0
43.935462951660156,24.494434356689453,-2.218329429626465,-0.0,-0.0,-1.0,0.22064728264213815,2.0,0
44.44879913330078,24.494308471679688,-2.310426712036133,-0.0,-0.0,-1.0,0.14699058338199278,2.0,0
44.57390213012695,25.001686096191406,-2.4108099937438965,-0.0,-0.0,-1.0,0.09274684802972975,2.0,0
44.363407135009766,25.56418800354004,-2.462338924407959,-0.0,-0.0,-1.0,0.1009556012675123,1.0,0
44.609107971191406,25.431201934814453,-2.4843451976776123,-0.0,-0.0,-1.0,0.1248841595799368,1.0,0
43.462406158447266,23.333599090576172,-1.957326889038086,-0.0,-0.0,-1.0,0.16552822794791408,2.0,0
43.759254455566406,23.64867401123047,-2.058201789855957,-0.0,-0.0,-1.0,0.2163366386246323,2.0,0
42.77103805541992,24.149179458618164,-1.9575352668762207,-0.0,-0.0,-1.0,0.11893047950474178,1.0,0
43.26717758178711,23.978065490722656,-2.019075393676758,-0.0,-0.0,-1.0,0.07479368034028802,1.0,0
44.94027328491211,23.287151336669922,-2.4659292697906494,-0.0,-0.0,-1.0,0.016092248343031537,1.0,0
44.710662841796875,23.476118087768555,-2.4491045475006104,-0.0,-0.0,-1.0,0.023668575587626688,1.0,0
44.88127899169922,23.517597198486328,-2.491408586502075,-0.0,-0.0,-1.0,0.017720782502052855,1.0,0
42.81344223022461,23.864025115966797,-2.1321051120758057,-0.0,-0.0,-1.0,0.10791420583252115,1.0,0
43.54419708251953,23.681434631347656,-2.2452681064605713,-0.0,-0.0,-1.0,0.09989621651992044,2.0,0
43.608238220214844,23.724651336669922,-2.265782594680786,-0.0,-0.0,-1.0,0.11065024659764075,1.0,0
42.8367919921875,23.937068939208984,-2.150031328201294,-0.5647045745928587,0.29891077994037946,-0.7692600919515667,0.11917725193494673,3.0,0
43.462982177734375,24.124160766601562,-2.3077847957611084,-0.0,-0.0,-1.0,0.17560738386437127,1.0,0
43.82026672363281,24.066041946411133,-2.368631601333618,-0.0,-0.0,-1.0,0.0753654722895218,1.0,0
43.721275329589844,24.26546287536621,-2.384470224380493,-0.0,-0.0,-1.0,0.1328893775972215,1.0,0
45.179283142089844,24.922836303710938,-2.220125675201416,-0.0,-0.0,-1.0,0.20189135989942864,2.0,0
45.20536804199219,25.038999557495117,-2.242713689804077,-0.0,-0.0,-1.0,0.16774428673772587,1.0,0
43.3642578125,23.254655838012695,-1.6520178318023682,-0.0,-0.0,-1.0,0.14635952538889796,2.0,0
43.3344612121582,24.130817413330078,-1.7834577560424805,-0.5526078677567181,0.7978097116331937,-0.24108962756023797,0.22323933734589982,3.0,0
43.907203674316406,24.452850341796875,-1.9310312271118164,-0.24588286974699738,-0.9692317425802688,0.01146488289502743,0.18342358619478388,3.0,0
44.489524841308594,24.6246337890625,-2.0563323497772217,-0.0,-0.0,-1.0,0.2664244243573458,1.0,0
43.82101058959961,24.841297149658203,-1.9789161682128906,-0.0,-0.0,-1.0,0.15103991743583328,1.0,0
43.85654067993164,25.315322875976562,-2.0623385906219482,-0.0,-0.0,-1.0,0.25655687921219594,1.0,0
42.72603225708008,23.255401611328125,-2.287191390991211,0.4471664638406089,-0.7989505128417786,-0.4021445407389542,0.04507518461385993,3.0,0
43.43840789794922,23.20269775390625,-1.9853177070617676,0.8889412512882082,0.30642186609587674,-0.3404248694447503,0.08690962284966007,3.0,0
43.50177764892578,23.324892044067383,-2.0199408531188965,-0.0,-0.0,-1.0,0.2136791053283719,1.0,0
42.84040069580078,23.65416717529297,-2.164016008377075,-0.0,-0.0,-1.0,0.06786845325423074,1.0,0
43.689876556396484,23.537569046020508,-2.096677541732788,-0.0,-0.0,-1.0,0.16212845435613585,1.0,0
44.56034851074219,23.734560012817383,-2.314850330352783,-0.0,-0.0,-1.0,0.08040298551902711,1.0,0
42.75166320800781,24.147666931152344,-2.0150554180145264,-0.0,-0.0,-1.0,0.13260861560288878,2.0,0
44.01227569580078,23.955585479736328,-2.2378532886505127,-0.0,-0.0,-1.0,0.11150592337526213,1.0,0
44.57803726196289,23.88979721069336,-2.3453004360198975,-0.0,-0.0,-1.0,0.0978427478622375,1.0,0
44.77401351928711,23.813962936401367,-2.3739237785339355,-0.0,-0.0,-1.0,0.06991336739840648,1.0,0
45.181304931640625,23.90093421936035,-2.4757659435272217,-0.0,-0.0,-1.0,0.1257473037452497,1.0,0
43.41761016845703,24.488155364990234,-2.212745428085327,-0.0,-0.0,-1.0,0.16154679305797806,1.0,0
43.548614501953125,24.384410858154297,-2.219909429550171,-0.0,-0.0,-1.0,0.17949370954779847,1.0,0
44.122833251953125,24.38585090637207,-2.337779998779297,-0.0,-0.0,-1.0,0.1695361157466793,2.0,0
44.29558563232422,24.301921844482422,-2.35841965675354,-0.0,-0.0,-1.0,0.08772590872326087,1.0,0
44.08911895751953,24.811655044555664,-2.408740758895874,-0.0,-0.0,-1.0,0.1762761801323901,2.0,0
42.83380126953125,25.347633361816406,-2.2632064819335938,-0.0,-0.0,-1.0,0.08603867262710352,1.0,0
43.873046875,25.196529388427734,-2.4370973110198975,-0.0,-0.0,-1.0,0.15042466916660585,2.0,0
43.91944122314453,25.427377700805664,-2.490199565887451,-0.0,-0.0,-1.0,0.14591912169841126,1.0,0
43.88338088989258,24.567094802856445,-1.8247501850128174,0.08786647245882556,-0.9258939730896402,0.36742323499463536,0.17123540959365197,5.0,0
44.05168151855469,24.48788833618164,-1.8415744304656982,0.04186607462759165,-0.0873870640566403,-0.9952942945836862,0.16602288120706052,3.0,0
43.98540115356445,24.794164657592773,-1.8791453838348389,-0.0,-0.0,-1.0,0.18876534652034052,1.0,0
44.62574005126953,24.674144744873047,-1.9723103046417236,-0.0,-0.0,-1.0,0.1847573753394173,2.0,0
44.993534088134766,24.814998626708984,-2.05967378616333,-0.0,-0.0,-1.0,0.1802312267078678,1.0,0
43.897796630859375,25.315868377685547,-1.9496092796325684,0.00918623235782874,0.27272558170279904,-0.9620480082719041,0.20058412401073036,5.0,0
44.265769958496094,25.07919692993164,-1.9739973545074463,-0.0,-0.0,-1.0,0.2559214657040888,1.0,0
45.159847259521484,24.99957275390625,-2.118140459060669,-0.0,-0.0,-1.0,0.12665894885206957,1.0,0
45.10396957397461,23.238300323486328,-2.4889326095581055,-0.0,-0.0,-1.0,0.033968454832881946,1.0,0
44.382530212402344,23.439807891845703,-2.3627853393554688,-0.0,-0.0,-1.0,0.016186899337513903,1.0,0
44.760189056396484,23.479949951171875,-2.4569129943847656,-0.0,-0.0,-1.0,0.023418621858507883,1.0,0
43.695770263671875,23.934158325195312,-2.3128867149353027,-0.0,-0.0,-1.0,0.0890819102953105,1.0,0
43.83851623535156,24.19894790649414,-2.400642156600952,-0.0,-0.0,-1.0,0.13900342061231458,1.0,0
43.69343566894531,24.421871185302734,-2.418076992034912,-0.0,-0.0,-1.0,0.15195070088700893,1.0,0
43.98192596435547,24.20674705505371,-2.4333748817443848,-0.0,-0.0,-1.0,0.1042195492045624,1.0,0
43.27326965332031,25.01720428466797,-2.46402645111084,-0.0,-0.0,-1.0,0.16228707883411145,1.0,0
43.53155517578125,24.745849609375,-2.4557321071624756,-0.0,-0.0,-1.0,0.20891808380788549,1.0,0
43.510826110839844,25.061721801757812,-2.5227768421173096,-0.0,-0.0,-1.0,0.06351795307658763,1.0,0
43.689048767089844,23.667171478271484,-2.254709482192993,-0.0,-0.0,-1.0,0.23543947675564827,1.0,0
42.8673095703125,24.043607711791992,-2.160005569458008,-0.0,-0.0,-1.0,0.12862677485333673,1.0,0
43.303714752197266,24.080425262451172,-2.26017689704895,-0.0,-0.0,-1.0,0.1779022533526686,1.0,0
43.469093322753906,23.976119995117188,-2.2728538513183594,-0.0,-0.0,-1.0,0.1518812405003681,2.0,0
42.7967529296875,24.292320251464844,-2.2011568546295166,-0.0,-0.0,-1.0,0.14185917231887893,1.0,0
43.1177864074707,24.280593872070312,-2.265226364135742,-0.0,-0.0,-1.0,0.1039459225775225,1.0,0
43.79990768432617,24.35268783569336,-1.9597129821777344,-0.0,-0.0,-1.0,0.26704309270004983,1.0,0
43.99461364746094,24.371044158935547,-1.999560832977295,-0.0,-0.0,-1.0,0.22300166496854293,1.0,0
45.12382888793945,24.24322509765625,-2.1912295818328857,-0.0,-0.0,-1.0,0.06306690638050201,1.0,0
43.226322174072266,25.04866600036621,-1.996567726135254,-0.0,-0.0,-1.0,0.07933041430342067,2.0,0
43.87703323364258,24.70977020263672,-2.0432379245758057,-0.0,-0.0,-1.0,0.1955482459029436,1.0,0
44.91154479980469,24.79694938659668,-2.2530524730682373,-0.0,-0.0,-1.0,0.11918884148215039,2.0,0
45.04890441894531,24.724369049072266,-2.2655088901519775,-0.0,-0.0,-1.0,0.2044684692761192,1.0,0
43.88414764404297,25.270076751708984,-2.155264377593994,-0.0,-0.0,-1.0,0.14421607439891276,2.0,0
44.96383285522461,25.027172088623047,-2.306460380554199,-0.0,-0.0,-1.0,0.11753061479220274,1.0,0
43.62348937988281,25.466650009155273,-2.14853572845459,-0.0,-0.0,-1.0,0.1429823880143954,1.0,0
43.33442687988281,23.268104553222656,-1.666560173034668,0.11216699082448715,-0.604227341810119,-0.7888776112797579,0.11929722346111793,3.0,0
43.43811798095703,23.211875915527344,-1.6761195659637451,-0.20428022520840555,-0.06109406861018374,-0.9770041475702431,0.11509363281425068,4.0,0
43.33711242675781,24.066072463989258,-1.8185195922851562,-0.810559306192578,-0.10714622808856414,-0.575771913999806,0.22323933734589976,4.0,0
42.97671127319336,23.481849670410156,-2.334641933441162,-0.0,-0.0,-1.0,0.06169093787337474,1.0,0
45.12380599975586,23.56501007080078,-2.439080238342285,-0.0,-0.0,-1.0,0.014759703803833147,1.0,0
45.04512023925781,23.830881118774414,-2.4766435623168945,-0.0,-0.0,-1.0,0.0867142114291518,1.0,0
43.996028900146484,24.804264068603516,-2.4611496925354004,-0.0,-0.0,-1.0,0.14642664056906374,1.0,0
43.57325744628906,25.22140884399414,-2.472194194793701,-0.0,-0.0,-1.0,0.16945140352297566,2.0,0
42.75868225097656,23.472713470458984,-2.279482364654541,-0.0,-0.0,-1.0,0.04479924980558891,1.0,0
45.15873336791992,23.312793731689453,-2.395076274871826,-0.0,-0.0,-1.0,0.03158024091120251,2.0,0
42.96996307373047,23.845643997192383,-2.019094467163086,-0.0,-0.0,-1.0,0.09838211823590243,1.0,0
43.64519500732422,23.595813751220703,-2.1081666946411133,-0.0,-0.0,-1.0,0.19227646796201756,1.0,0
44.290470123291016,23.73460578918457,-2.283440589904785,-0.0,-0.0,-1.0,0.051184430074529254,2.0,0
44.673912048339844,23.758525848388672,-2.375692367553711,-0.0,-0.0,-1.0,0.06457221905054039,1.0,0
42.80482482910156,23.995849609375,-2.0198616981506348,-0.0,-0.0,-1.0,0.1532809055293546,2.0,0
43.121219635009766,24.218975067138672,-2.1388845443725586,-0.0,-0.0,-1.0,0.2176125423044116,1.0,0
43.46268844604492,24.065719604492188,-2.1754350662231445,-0.0,-0.0,-1.0,0.16680061367389706,1.0,0
43.92716979980469,24.03900718688965,-2.2702383995056152,-0.0,-0.0,-1.0,0.099115175709911,1.0,0
44.411739349365234,24.00037384033203,-2.3691091537475586,-0.0,-0.0,-1.0,0.07987122157211066,1.0,0
44.556358337402344,23.933940887451172,-2.3870625495910645,-0.0,-0.0,-1.0,0.07121911544023858,2.0,0
43.083160400390625,24.377765655517578,-2.168672561645508,-0.0,-0.0,-1.0,0.2319224230698255,1.0,0
43.74113845825195,24.566619873046875,-2.3514065742492676,-0.0,-0.0,-1.0,0.13578646046193318,1.0,0
43.940460205078125,24.358253479003906,-2.34591007232666,-0.0,-0.0,-1.0,0.22108999522123554,1.0,0
45.1569709777832,24.406238555908203,-2.1515674591064453,-0.0,-0.0,-1.0,0.0698878241669974,1.0,0
43.561012268066406,24.67987060546875,-2.34004545211792,-0.0,-0.0,-1.0,0.18539962433712653,1.0,0
43.76126480102539,24.768028259277344,-2.40291690826416,-0.0,-0.0,-1.0,0.18012157577292306,1.0,0
44.4714469909668,24.692737579345703,-2.0750656127929688,-0.0,-0.0,-1.0,0.16747984441410838,2.0,0
44.657676696777344,24.807106018066406,-2.1336469650268555,-0.0,-0.0,-1.0,0.14877052831046778,2.0,0
45.03969192504883,24.8868408203125,-2.2230453491210938,-0.0,-0.0,-1.0,0.2507911699967864,1.0,0
42.927093505859375,25.464336395263672,-2.4027962684631348,-0.0,-0.0,-1.0,0.10138349880940886,1.0,0
43.573028564453125,25.313880920410156,-2.263685703277588,-0.0,-0.0,-1.0,0.1905508412485746,1.0,0
43.80384826660156,25.312908172607422,-2.0795068740844727,-0.0,-0.0,-1.0,0.25203534583961956,1.0,0
45.02307891845703,25.08522605895996,-2.2594399452209473,-0.0,-0.0,-1.0,0.09149537534795461,2.0,0
43.297752380371094,24.106426239013672,-1.7343639135360718,-0.0,-0.0,-1.0,0.22323933734589976,1.0,0
43.35468673706055,23.965164184570312,-1.7159377336502075,-0.0,-0.0,-1.0,0.19706652109541226,1.0,0
43.89662170410156,24.264995574951172,-1.879280686378479,-0.0,-0.0,-1.0,0.23007433372683142,1.0,0
43.88466262817383,24.458740234375,-1.9165335893630981,-0.7879707302034182,-0.6032585209776388,0.1232123581892805,0.1687875540245064,5.0,0
43.82332229614258,24.955066680908203,-2.0077219009399414,-0.0,-0.0,-1.0,0.14893471405970654,2.0,0
44.385589599609375,24.671173095703125,-2.0543651580810547,-0.0,-0.0,-1.0,0.1670868515334603,1.0,0
44.498207092285156,24.014623641967773,-2.3263862133026123,-0.0,-0.0,-1.0,0.07335099679646236,1.0,0
44.763343811035156,24.10106658935547,-2.404435634613037,-0.0,-0.0,-1.0,0.09814512034876566,1.0,0
42.87141036987305,24.614242553710938,-2.182196617126465,-0.0,-0.0,-1.0,0.14996386991225644,1.0,0
43.20620346069336,24.390945434570312,-2.1775741577148438,-0.0,-0.0,-1.0,0.2008383845396772,2.0,0
43.472713470458984,24.539997100830078,-2.269529342651367,-0.0,-0.0,-1.0,0.14154105119641008,1.0,0
44.08291244506836,24.439857482910156,-2.3582675457000732,-0.0,-0.0,-1.0,0.24518202388960003,1.0,0
44.29298400878906,24.604076385498047,-2.4447431564331055,-0.0,-0.0,-1.0,0.1034509690346761,1.0,0
45.038902282714844,24.2177734375,-2.4928407669067383,-0.0,-0.0,-1.0,0.15630207328781778,1.0,0
43.74885940551758,24.939979553222656,-2.435023307800293,-0.0,-0.0,-1.0,0.15100794929287273,1.0,0
44.04914855957031,24.89167022705078,-2.4778361320495605,-0.0,-0.0,-1.0,0.1577223324787291,1.0,0
44.22447967529297,24.646831512451172,-2.4431209564208984,-0.0,-0.0,-1.0,0.08006058567232334,1.0,0
43.34888458251953,25.30459976196289,-2.4686169624328613,-0.0,-0.0,-1.0,0.09430494334829034,1.0,0
43.55158233642578,25.231830596923828,-2.483272075653076,-0.0,-0.0,-1.0,0.1490648368171241,2.0,0
43.8546142578125,25.134056091308594,-2.510115385055542,-0.0,-0.0,-1.0,0.07786587226862586,1.0,0
45.0028190612793,25.02347183227539,-2.2405965328216553,-0.0,-0.0,-1.0,0.11352404045235409,1.0,0
45.1370735168457,25.04053497314453,-2.2683424949645996,-0.0,-0.0,-1.0,0.18177504208700676,1.0,0
42.97743225097656,23.824920654296875,-1.9734692573547363,-0.0,-0.0,-1.0,0.09227447239747504,1.0,0
42.86301040649414,24.06913185119629,-2.0221705436706543,-0.0,-0.0,-1.0,0.1528747837946399,2.0,0
43.193729400634766,23.94312286376953,-2.0479397773742676,-0.0,-0.0,-1.0,0.11974377258959755,1.0,0
43.76823425292969,24.466644287109375,-1.8916401863098145,-0.0,-0.0,-1.0,0.1867187295838499,1.0,0
43.98265838623047,24.451526641845703,-1.9239718914031982,0.5299758808972921,-0.17827548124209908,-0.8290617699876389,0.23710755638473774,3.0,0
45.18199157714844,24.48922348022461,-2.14422345161438,-0.0,-0.0,-1.0,0.08655335187992887,1.0,0
43.80085372924805,24.95711898803711,-2.0210928916931152,-0.0,-0.0,-1.0,0.17389388038434966,2.0,0
44.523189544677734,24.723831176757812,-2.083822727203369,-0.0,-0.0,-1.0,0.21830308282678423,1.0,0
44.880958557128906,24.955991744995117,-2.2028331756591797,-0.0,-0.0,-1.0,0.0969490414283894,1.0,0
43.75819778442383,25.373361587524414,-2.1213488578796387,-0.0,-0.0,-1.0,0.1818464892036991,1.0,0
44.122982025146484,24.448883056640625,-2.0584208965301514,-0.0,-0.0,-1.0,0.1781064050302792,1.0,0
44.646453857421875,24.538127899169922,-2.176600694656372,-0.0,-0.0,-1.0,0.10828030758260736,1.0,0
45.025062561035156,24.460792541503906,-2.225490093231201,-0.0,-0.0,-1.0,0.06399473622646594,2.0,0
43.632469177246094,25.025604248046875,-2.1424918174743652,-0.0,-0.0,-1.0,0.2074500078476603,1.0,0
43.69007873535156,24.879776000976562,-2.109138250350952,-0.0,-0.0,-1.0,0.23581191517806452,1.0,0
44.71532440185547,24.89505958557129,-2.288029432296753,-0.0,-0.0,-1.0,0.1152150868839559,1.0,0
45.00645446777344,24.806747436523438,-2.3164358139038086,-0.0,-0.0,-1.0,0.1672162909388053,1.0,0
44.76862335205078,25.17922592163086,-2.3769640922546387,-0.0,-0.0,-1.0,0.031356976006081214,1.0,0
43.56767654418945,25.621915817260742,-2.308776378631592,-0.0,-0.0,-1.0,0.19217678945244804,1.0,0
44.57422637939453,25.56123924255371,-2.4519708156585693,-0.0,-0.0,-1.0,0.1433137506279109,1.0,0
43.174354553222656,24.225208282470703,-1.8352742195129395,-0.0,-0.0,-1.0,0.08686981580058324,1.0,0
43.33763885498047,24.102256774902344,-1.826098918914795,-0.4834407160752587,-0.17272230773873978,-0.8581678614642041,0.2062407265263454,3.0,0
43.02419662475586,24.394216537475586,-1.861039400100708,-0.0,-0.0,-1.0,0.15909916453326275,1.0,0
43.89872360229492,24.46713638305664,-2.0250027179718018,-0.0,-0.0,-1.0,0.2086313929767313,2.0,0
44.074371337890625,24.57775115966797,-1.8854179382324219,-0.0,-0.0,-1.0,0.20878705693023888,1.0,0
44.45719528198242,25.085609436035156,-1.8746516704559326,-0.0,-0.0,-1.0,0.2417733231619236,1.0,0
44.443538665771484,25.262901306152344,-1.9176042079925537,-0.0,-0.0,-1.0,0.21645371273309594,1.0,0
44.578033447265625,24.931690216064453,-2.2304980754852295,-0.0,-0.0,-1.0,0.22057375427912523,1.0,0
44.91844177246094,24.83926773071289,-2.2662620544433594,-0.0,-0.0,-1.0,0.1252365529409232,2.0,0
43.84972381591797,25.296371459960938,-2.214484930038452,-0.0,-0.0,-1.0,0.13565075876818014,1.0,0
44.830345153808594,25.156352996826172,-2.341620445251465,-0.0,-0.0,-1.0,0.02153512608546612,2.0,0
42.90597152709961,24.177268981933594,-1.7241475582122803,-0.0,-0.0,-1.0,0.09722039017634766,1.0,0
43.35831832885742,24.073577880859375,-1.7651402950286865,-0.0,-0.0,-1.0,0.22323933734589976,1.0,0
43.661216735839844,24.26380729675293,-1.872959852218628,-0.0,-0.0,-1.0,0.1344047904251654,1.0,0
43.78993225097656,24.480194091796875,-1.959298849105835,-0.0,-0.0,-1.0,0.16629911621144727,2.0,0
43.9797477722168,24.452285766601562,-1.983823299407959,-0.6948371347611076,-0.5094448767275335,-0.5076093712029383,0.17433266189835125,3.0,0
45.13847732543945,24.325439453125,-2.162632703781128,-0.0,-0.0,-1.0,0.06971797882497834,1.0,0
43.38013458251953,24.95123291015625,-2.034815549850464,-0.0,-0.0,-1.0,0.17342070941013496,1.0,0
43.58382797241211,24.960948944091797,-2.069960117340088,-0.0,-0.0,-1.0,0.23481226239218933,1.0,0
44.46649169921875,24.696250915527344,-2.1416568756103516,-0.0,-0.0,-1.0,0.29043524624397005,1.0,0
43.428314208984375,25.357755661010742,-2.1670000553131104,-0.0,-0.0,-1.0,0.16489659518818547,1.0,0
44.82679748535156,25.292299270629883,-2.3148016929626465,-0.0,-0.0,-1.0,0.01872226272650503,1.0,0
43.75527572631836,24.524032592773438,-1.9012339115142822,-0.0,-0.0,-1.0,0.20374840653980708,1.0,0
43.99845886230469,24.425567626953125,-1.9082894325256348,-0.2508961360989343,-0.6078452872120876,-0.7533758927020959,0.25775292699134805,3.0,0
44.439937591552734,24.680591583251953,-2.0599277019500732,-0.0,-0.0,-1.0,0.22695521934807344,2.0,0
44.475502014160156,24.809911727905273,-2.1060521602630615,-0.0,-0.0,-1.0,0.17885313294931693,1.0,0
44.878089904785156,25.009613037109375,-2.235950469970703,-0.0,-0.0,-1.0,0.09169449609811292,1.0,0
45.156131744384766,24.921688079833984,-2.257976770401001,-0.0,-0.0,-1.0,0.18107951717206006,2.0,0
44.915435791015625,25.150146484375,-2.285578489303589,-0.0,-0.0,-1.0,0.0550161034931315,1.0,0
45.02725601196289,25.059764862060547,-2.2771546840667725,-0.7365888928321266,0.300668984727259,-0.6058341064841269,0.09505363257612265,3.0,0
43.910892486572266,23.377601623535156,-2.3140788078308105,-0.0,-0.0,-1.0,0.13120489116735537,1.0,0
44.810787200927734,24.20358657836914,-2.46783447265625,-0.0,-0.0,-1.0,0.09810177209673816,1.0,0
43.050621032714844,25.448726654052734,-2.435063362121582,-0.0,-0.0,-1.0,0.08797905798942138,1.0,0
42.8812255859375,25.164249420166016,-2.394946575164795,-0.0,-0.0,-1.0,0.11559372471914248,2.0,0
43.742374420166016,25.24188995361328,-2.310030698776245,-0.0,-0.0,-1.0,0.244786374221835,1.0,0
43.81716537475586,24.805173873901367,-2.2065162658691406,-0.0,-0.0,-1.0,0.25156570230106,1.0,0
43.51546859741211,24.434062957763672,-2.1622517108917236,-0.0,-0.0,-1.0,0.18786431650402766,1.0,0
44.275543212890625,24.900503158569336,-2.1762547492980957,-0.0,-0.0,-1.0,0.22802241527495914,1.0,0
44.000911712646484,24.485010147094727,-2.115992784500122,-0.0,-0.0,-1.0,0.19072054525098617,1.0,0
43.80980682373047,24.38207244873047,-2.1160333156585693,-0.0,-0.0,-1.0,0.19617453213494926,1.0,0
44.80580520629883,25.580270767211914,-2.273308038711548,-0.0,-0.0,-1.0,0.03666342460648696,1.0,0
44.43941116333008,24.77362060546875,-2.130568265914917,-0.0,-0.0,-1.0,0.21339665118314635,1.0,0
44.27140426635742,24.594879150390625,-2.109449625015259,-0.0,-0.0,-1.0,0.23008220396389817,1.0,0
44.95286560058594,24.97391128540039,-2.122144937515259,-0.0,-0.0,-1.0,0.0916793864428155,1.0,0
44.90799331665039,24.898880004882812,-2.1097617149353027,-0.0,-0.0,-1.0,0.1277704188457813,1.0,0
44.690216064453125,23.90119743347168,-2.406310558319092,-0.0,-0.0,-1.0,0.0840946688610298,1.0,0
44.20332336425781,23.33493423461914,-2.3304150104522705,-0.0,-0.0,-1.0,0.02164762355620782,1.0,0
43.601558685302734,23.57132339477539,-1.969069480895996,-0.0,-0.0,-1.0,0.11563976090356747,1.0,0
43.29462814331055,23.23120880126953,-1.9381840229034424,-0.0,-0.0,-1.0,0.13406766367927053,1.0,0
43.05118942260742,23.323795318603516,-2.295461893081665,-0.0,-0.0,-1.0,0.04864109030084172,1.0,0
44.045936584472656,23.906417846679688,-2.296808958053589,-0.0,-0.0,-1.0,0.12073503831056448,1.0,0
43.82579803466797,23.7142333984375,-2.2796192169189453,-0.0,-0.0,-1.0,0.18895439416173496,1.0,0
43.51272964477539,23.439380645751953,-2.257538080215454,-0.0,-0.0,-1.0,0.12149778463771045,1.0,0
43.33799362182617,23.246002197265625,-2.237422227859497,-0.0,-0.0,-1.0,0.13527418326098375,1.0,0
45.13690948486328,24.671356201171875,-2.3591818809509277,-0.0,-0.0,-1.0,0.12575286527936785,1.0,0
44.91539764404297,24.32791519165039,-2.2978291511535645,-0.0,-0.0,-1.0,0.10180260591769902,1.0,0
44.56184387207031,24.058170318603516,-2.2715883255004883,-0.0,-0.0,-1.0,0.07127683909277649,1.0,0
44.29248046875,23.927757263183594,-2.2718708515167236,-0.0,-0.0,-1.0,0.12049896953832925,1.0,0
45.0432243347168,24.356273651123047,-2.2911834716796875,-0.0,-0.0,-1.0,0.08359455762717394,1.0,0
44.81511688232422,24.073015213012695,-2.2465388774871826,-0.0,-0.0,-1.0,0.11041358097344993,1.0,0
42.90254211425781,24.923845291137695,-2.116631507873535,-0.0,-0.0,-1.0,0.07475542047579911,1.0,0
44.45817947387695,24.986454010009766,-1.9696812629699707,-0.0,-0.0,-1.0,0.15044257147702209,1.0,0
44.32356643676758,24.97246551513672,-1.9793927669525146,-0.0,-0.0,-1.0,0.2662584151367704,2.0,0
44.01811218261719,24.475502014160156,-1.906463623046875,-0.0,-0.0,-1.0,0.271443928950048,2.0,0
43.85924530029297,24.30404281616211,-1.8877925872802734,-0.0,-0.0,-1.0,0.23995391376021785,1.0,0
44.54767608642578,24.966840744018555,-1.957287311553955,-0.0,-0.0,-1.0,0.11701193708239117,1.0,0
44.39634704589844,24.738422393798828,-1.9236180782318115,-0.0,-0.0,-1.0,0.16538270286328777,1.0,0
43.40631103515625,23.280765533447266,-1.7338016033172607,-0.0,-0.0,-1.0,0.14019092601499925,2.0,0
43.33119583129883,23.231487274169922,-1.7330970764160156,-0.0,-0.0,-1.0,0.12292094323406277,1.0,0
43.24193572998047,23.980098724365234,-2.3552842140197754,-0.0,-0.0,-1.0,0.12353956267754963,1.0,0
42.89967727661133,23.687137603759766,-2.3354101181030273,-0.0,-0.0,-1.0,0.08032823805266981,1.0,0
43.87724304199219,23.792137145996094,-2.2342872619628906,-0.0,-0.0,-1.0,0.11979218935531316,1.0,0
43.508785247802734,23.583467483520508,-2.2325668334960938,-0.0,-0.0,-1.0,0.17468649738207448,2.0,0
42.9615478515625,23.495779037475586,-2.285189151763916,-0.0,-0.0,-1.0,0.06169093787337477,2.0,0
42.834136962890625,23.332698822021484,-2.267070770263672,-0.0,-0.0,-1.0,0.05943239982724447,1.0,0
45.2010383605957,24.690418243408203,-2.3036999702453613,-0.0,-0.0,-1.0,0.1411748803351446,1.0,0
44.95988464355469,24.294475555419922,-2.2322158813476562,-0.0,-0.0,-1.0,0.07974257525978665,1.0,0
44.604183197021484,24.11779022216797,-2.227043628692627,-0.0,-0.0,-1.0,0.06642740771280936,2.0,0
44.24907302856445,23.938308715820312,-2.2243094444274902,-0.0,-0.0,-1.0,0.1230307256450203,1.0,0
43.91469192504883,23.721546173095703,-2.2134904861450195,-0.0,-0.0,-1.0,0.16595141880726375,1.0,0
43.713401794433594,23.54347038269043,-2.1977057456970215,-0.0,-0.0,-1.0,0.2618195996162185,1.0,0
43.35932540893555,23.305227279663086,-2.18991756439209,-0.0,-0.0,-1.0,0.14858480776461486,1.0,0
44.39906311035156,24.939556121826172,-1.8994117975234985,-0.0,-0.0,-1.0,0.1706335371628561,2.0,0
43.91819381713867,24.446048736572266,-1.8456717729568481,-0.0,-0.0,-1.0,0.16234804558279697,2.0,0
43.511260986328125,24.118919372558594,-1.8228856325149536,-0.0,-0.0,-1.0,0.2121934562207796,1.0,0
43.288658142089844,24.11151123046875,-1.84520423412323,0.8213510874269444,-0.17253749392493536,-0.543703231894642,0.22937986442262806,4.0,0
44.131378173828125,24.438203811645508,-1.8234304189682007,-0.7835613797520091,-0.5523175089362038,-0.28456446279118286,0.207422454874639,3.0,0
44.07832336425781,24.325332641601562,-1.8060909509658813,-0.0,-0.0,-1.0,0.11470838595266439,1.0,0
42.92306900024414,25.201841354370117,-2.4412736892700195,-0.0,-0.0,-1.0,0.11434380154601913,1.0,0
45.183921813964844,24.151695251464844,-2.5005273818969727,-0.0,-0.0,-1.0,0.13524677907527932,1.0,0
44.95486068725586,24.06182861328125,-2.4998903274536133,-0.0,-0.0,-1.0,0.13339143218673688,1.0,0
43.333282470703125,25.214496612548828,-2.4006028175354004,-0.0,-0.0,-1.0,0.143053545127339,1.0,0
43.10837936401367,25.144929885864258,-2.409168243408203,-0.0,-0.0,-1.0,0.13756005624720588,1.0,0
42.76593017578125,24.871318817138672,-2.3874902725219727,-0.0,-0.0,-1.0,0.07522187815443025,1.0,0
45.121177673339844,25.517417907714844,-2.3056163787841797,-0.1382103488134841,-0.9856152181761058,-0.09726531334716748,0.03725643922493528,3.0,0
43.968994140625,25.161348342895508,-2.3256144523620605,-0.0,-0.0,-1.0,0.20573336485143973,1.0,0
44.58723449707031,24.78587532043457,-2.1844606399536133,-0.0,-0.0,-1.0,0.1943464706425116,1.0,0
44.0336799621582,24.56625747680664,-2.187324047088623,-0.0,-0.0,-1.0,0.10906797858227478,1.0,0
43.935302734375,24.475204467773438,-2.176980972290039,-0.5964469679915991,-0.7269089153968313,-0.3403739753421678,0.24934129777427125,3.0,0
43.025001525878906,24.253244400024414,-2.2260799407958984,-0.0,-0.0,-1.0,0.15510646774310494,1.0,0
45.14728927612305,24.814762115478516,-2.142988681793213,-0.0,-0.0,-1.0,0.17928024504224552,1.0,0
44.51166534423828,24.592041015625,-2.1476821899414062,-0.0,-0.0,-1.0,0.13799361061921125,1.0,0
44.15057373046875,24.426620483398438,-2.1449742317199707,-0.0,-0.0,-1.0,0.2657987074826257,2.0,0
43.974693298339844,24.32832145690918,-2.140749931335449,-0.0,-0.0,-1.0,0.23176862267983406,2.0,0
44.54421615600586,23.51919174194336,-2.4038920402526855,-0.0,-0.0,-1.0,0.016707611045642223,1.0,0
43.8320198059082,23.607431411743164,-1.9978092908859253,-0.0,-0.0,-1.0,0.16941830136967057,1.0,0
43.45133590698242,23.201454162597656,-1.9526785612106323,0.8889412512882082,0.30642186609587674,-0.3404248694447503,0.13537355658952777,3.0,0
45.001712799072266,24.086002349853516,-2.493983507156372,-0.0,-0.0,-1.0,0.13969930733953181,1.0,0
45.07501220703125,25.524478912353516,-2.311568021774292,-0.41312744417514274,-0.6871777545189913,-0.5975888624828539,0.03727872125067298,6.0,0
43.82524108886719,25.57648468017578,-2.4299328327178955,-0.0,-0.0,-1.0,0.16742448380679878,2.0,0
43.293880462646484,25.17867088317871,-2.3931050300598145,-0.0,-0.0,-1.0,0.1381980785690574,1.0,0
42.7940788269043,24.950420379638672,-2.396129846572876,-0.0,-0.0,-1.0,0.08201879832789218,1.0,0
45.08138656616211,24.877567291259766,-2.1618804931640625,-0.0,-0.0,-1.0,0.23177525408357572,1.0,0
44.68950271606445,24.867794036865234,-2.191898822784424,-0.0,-0.0,-1.0,0.1611855878881933,1.0,0
44.52952575683594,24.787765502929688,-2.1875033378601074,-0.0,-0.0,-1.0,0.2715583073508739,2.0,0
43.843109130859375,24.542789459228516,-2.196300983428955,-0.0,-0.0,-1.0,0.2535981888381628,2.0,0
44.51432800292969,24.452266693115234,-2.1126365661621094,-0.0,-0.0,-1.0,0.19048462714869763,1.0,0
43.98548889160156,24.45867156982422,-2.1635541915893555,-0.0,-0.0,-1.0,0.21987872444254655,2.0,0
43.84761428833008,24.328060150146484,-2.1479625701904297,-0.0,-0.0,-1.0,0.23687640236450955,1.0,0
43.17753601074219,24.3099365234375,-2.213982582092285,-0.0,-0.0,-1.0,0.14193379264513806,1.0,0
42.8520622253418,24.1677303314209,-2.2193610668182373,-0.0,-0.0,-1.0,0.15604401512463437,1.0,0
42.88195037841797,23.88333511352539,-2.1545193195343018,-0.0,-0.0,-1.0,0.10624306875144753,1.0,0
43.772064208984375,23.586383819580078,-1.9913277626037598,-0.0,-0.0,-1.0,0.1598268933400197,1.0,0
43.389278411865234,23.191587448120117,-1.9468927383422852,-0.0,-0.0,-1.0,0.13281828230295575,1.0,0
45.130455017089844,24.221370697021484,-2.479300022125244,-0.0,-0.0,-1.0,0.1281500727583889,1.0,0
45.06406784057617,25.552814483642578,-2.296865940093994,-0.0,-0.0,-1.0,0.03648992606355341,2.0,0
43.97161865234375,25.247167587280273,-2.293351650238037,-0.0,-0.0,-1.0,0.186346813384797,1.0,0
43.1057014465332,25.49074363708496,-2.415851593017578,-0.0,-0.0,-1.0,0.09779783035573014,1.0,0
42.96925354003906,25.397245407104492,-2.40579891204834,-0.0,-0.0,-1.0,0.11215752574278677,1.0,0
45.112876892089844,24.852529525756836,-2.1277990341186523,-0.0,-0.0,-1.0,0.2087530342002497,1.0,0
44.66045379638672,24.73828125,-2.1278624534606934,-0.0,-0.0,-1.0,0.20769414787766752,1.0,0
44.44845199584961,24.840423583984375,-2.165675163269043,-0.0,-0.0,-1.0,0.22562134420422178,1.0,0
43.52968978881836,24.82262420654297,-2.2283883094787598,-0.0,-0.0,-1.0,0.18420168547835802,1.0,0
42.903594970703125,25.146223068237305,-2.354221820831299,-0.0,-0.0,-1.0,0.11559372471914241,2.0,0
43.98960876464844,24.426918029785156,-2.101658344268799,-0.033869755955680425,-0.9732077473648241,-0.2274192606192073,0.26520572458150016,3.0,0
43.50040817260742,24.616090774536133,-2.183318614959717,-0.0,-0.0,-1.0,0.2534234308819056,1.0,0
44.956756591796875,23.95610809326172,-2.419229030609131,-0.0,-0.0,-1.0,0.13586151454535972,2.0,0
43.192962646484375,24.317359924316406,-2.140977382659912,-0.0,-0.0,-1.0,0.2051290832755644,1.0,0
42.80072021484375,24.108753204345703,-2.1293468475341797,-0.0,-0.0,-1.0,0.13166110575633067,1.0,0
44.57512283325195,23.716964721679688,-2.3839974403381348,-0.0,-0.0,-1.0,0.06366533131273303,1.0,0
44.480445861816406,23.710113525390625,-2.3899292945861816,-0.0,-0.0,-1.0,0.0461243151898579,1.0,0
43.69322204589844,23.217857360839844,-2.3316593170166016,-0.0,-0.0,-1.0,0.11464484452890632,1.0,0
43.60686111450195,23.247652053833008,-2.3481850624084473,-0.0,-0.0,-1.0,0.1542670517710612,1.0,0
43.44535827636719,23.963115692138672,-2.0387372970581055,-0.0,-0.0,-1.0,0.11461530670590248,1.0,0
43.489707946777344,23.306541442871094,-1.8859843015670776,-0.0,-0.0,-1.0,0.1224799195032937,1.0,0
44.5062255859375,25.010887145996094,-2.0482993125915527,-0.0,-0.0,-1.0,0.16942512276495314,1.0,0
42.729469299316406,24.515941619873047,-2.096285343170166,-0.0,-0.0,-1.0,0.15300067382829777,1.0,0
44.265769958496094,24.615825653076172,-1.975409984588623,-0.0,-0.0,-1.0,0.10542574848452309,1.0,0
43.962833404541016,24.59358024597168,-1.9949369430541992,-0.0,-0.0,-1.0,0.23353560919777636,2.0,0
43.96155548095703,24.380489349365234,-1.9463162422180176,-0.5887651740853366,0.7966845594141864,0.1365623761337185,0.15971273623039978,3.0,0
43.94919204711914,24.480361938476562,-1.97017502784729,-0.0,-0.0,-1.0,0.1880648836516443,2.0,0
42.81760787963867,24.152698516845703,-2.0064306259155273,-0.0,-0.0,-1.0,0.16564666347882073,2.0,0
42.753318786621094,24.12686538696289,-2.007587432861328,-0.0,-0.0,-1.0,0.13260861560288878,2.0,0
43.4647331237793,23.30062484741211,-1.7485787868499756,-0.0,-0.0,-1.0,0.14114346652199405,1.0,0
43.37922668457031,24.65628433227539,-2.447842836380005,-0.0,-0.0,-1.0,0.08410150861289444,1.0,0
45.10844039916992,24.795246124267578,-2.311431646347046,-0.0,-0.0,-1.0,0.21087160677633476,1.0,0
44.82375717163086,24.45970916748047,-2.2477591037750244,-0.0,-0.0,-1.0,0.059171067362495486,1.0,0
44.512847900390625,24.254119873046875,-2.2230865955352783,-0.0,-0.0,-1.0,0.0829396665191554,1.0,0
44.26530456542969,24.174583435058594,-2.2269325256347656,-0.0,-0.0,-1.0,0.11007914394260757,1.0,0
44.0324592590332,24.184139251708984,-2.2538561820983887,-0.0,-0.0,-1.0,0.1920998940835819,1.0,0
43.77610778808594,23.94314956665039,-2.220013380050659,-0.0,-0.0,-1.0,0.08927593313287543,1.0,0
43.4731330871582,24.220346450805664,-2.3256895542144775,-0.0,-0.0,-1.0,0.09217976960308871,1.0,0
43.41153335571289,23.73501205444336,-2.2098002433776855,-0.0,-0.0,-1.0,0.09714159579122121,1.0,0
43.204345703125,24.01724624633789,-2.306460380554199,-0.0,-0.0,-1.0,0.13565122074630226,1.0,0
42.832950592041016,24.023815155029297,-2.3552160263061523,-0.0,-0.0,-1.0,0.14862919132611063,1.0,0
43.173622131347656,23.49252700805664,-2.178115129470825,-0.0,-0.0,-1.0,0.17827489059055346,1.0,0
42.76161193847656,23.747089385986328,-2.295572519302368,-0.0,-0.0,-1.0,0.07753034628096755,1.0,0
42.743202209472656,23.93792724609375,-2.3455309867858887,-0.0,-0.0,-1.0,0.07823360428071201,1.0,0
42.74223709106445,23.411930084228516,-2.214887857437134,-0.0,-0.0,-1.0,0.04479924980558894,1.0,0
44.2631950378418,24.784337997436523,-1.8873322010040283,-0.0,-0.0,-1.0,0.12843065083297073,2.0,0
44.31574630737305,25.05295181274414,-1.9429700374603271,-0.0,-0.0,-1.0,0.23990327552879923,1.0,0
44.01837921142578,24.620590209960938,-1.873216152191162,-0.0,-0.0,-1.0,0.1945003053281513,1.0,0
44.08012390136719,24.751304626464844,-1.8967883586883545,-0.0,-0.0,-1.0,0.2039235201330621,1.0,0
43.80854034423828,24.503108978271484,-1.867314338684082,-0.0,-0.0,-1.0,0.14671325190454823,2.0,0
43.36717987060547,23.342802047729492,-1.6585884094238281,-0.0,-0.0,-1.0,0.10627840769346938,2.0,0
43.258052825927734,23.32477569580078,-1.6669776439666748,-0.0,-0.0,-1.0,0.09701357326994564,2.0,0
