x,y,z,nx,ny,nz,curvature,density
49.093284606933594,-16.206310272216797,-0.2857236862182617,-0.0,-0.0,-1.0,0.08386630155058525,1.0
49.015357971191406,-15.3333740234375,-0.25936222076416016,0.918540216952618,0.12318682959683061,-0.3756446124390964,0.15225502752195394,5.0
47.909297943115234,-15.322732925415039,-0.3426309823989868,-0.0,-0.0,-1.0,0.023161308778115612,1.0
49.28274154663086,-16.039772033691406,-0.3169306516647339,-0.17723014177537583,-0.7061579650501355,-0.6855147009674788,0.20820771542031075,3.0
49.22831344604492,-16.051504135131836,-0.32213330268859863,-0.0,-0.0,-1.0,0.1800306095574276,1.0
48.731719970703125,-15.638312339782715,-0.19579863548278809,-0.0,-0.0,-1.0,0.11930916849346526,1.0
50.11534118652344,-16.0999755859375,-0.4358375072479248,-0.0,-0.0,-1.0,0.030471311549435474,2.0
47.823936462402344,-15.033609390258789,-0.41290390491485596,-0.0,-0.0,-1.0,0.01065703295904645,1.0
49.99390411376953,-15.839353561401367,-0.4184284210205078,-0.0,-0.0,-1.0,0.06419080783103065,1.0
50.18161392211914,-14.752025604248047,-0.3634343147277832,-0.1744092235017701,0.9334063566551163,-0.31358251882611654,0.12396668656233703,3.0
50.0192985534668,-15.931890487670898,-0.4051903486251831,-0.0,-0.0,-1.0,0.04579336969801309,2.0
48.93760681152344,-15.38361644744873,-0.29971444606781006,-0.0,-0.0,-1.0,0.09006680446294886,2.0
49.06440353393555,-14.395831108093262,-0.5183382034301758,-0.0,-0.0,-1.0,0.04621456733883828,1.0
49.301490783691406,-15.89042854309082,-0.32283878326416016,-0.0,-0.0,-1.0,0.207122688649013,1.0
49.434329986572266,-14.438447952270508,-0.478348970413208,-0.0,-0.0,-1.0,0.18083045105178497,2.0
49.207122802734375,-16.11660385131836,-0.3708610534667969,0.09118494846916954,0.20023715124423586,-0.9754949453658218,0.12190971234947025,3.0
50.03580856323242,-16.809776306152344,-0.31960201263427734,-0.0,-0.0,-1.0,0.032444435976762796,1.0
49.764583587646484,-16.615581512451172,-0.33799123764038086,-0.0,-0.0,-1.0,0.02034290200232198,1.0
49.38038635253906,-15.607105255126953,-0.3591957092285156,-0.0,-0.0,-1.0,0.04970914592234769,1.0
49.517982482910156,-15.68836498260498,-0.3363795280456543,-0.0,-0.0,-1.0,0.053066162583187686,1.0
49.78147888183594,-16.835908889770508,-0.3711237907409668,-0.0,-0.0,-1.0,0.020359348063986524,2.0
49.97890090942383,-16.41015625,-0.41422128677368164,-0.0,-0.0,-1.0,0.03285415397430592,2.0
49.83724594116211,-16.18430519104004,-0.40462636947631836,-0.0,-0.0,-1.0,0.03776465312135287,1.0
49.22963333129883,-16.270483016967773,-0.32032346725463867,-0.0,-0.0,-1.0,0.08999177958259712,1.0
49.27183151245117,-14.81597900390625,-0.38829946517944336,-0.0,-0.0,-1.0,0.10432443662830729,1.0
48.774112701416016,-15.350568771362305,-0.43424510955810547,-0.0,-0.0,-1.0,0.09067181499155583,2.0
49.31364440917969,-15.986879348754883,-0.26762866973876953,-0.0,-0.0,-1.0,0.20712268864901298,1.0
50.20758819580078,-14.770151138305664,-0.5555768013000488,-0.0,-0.0,-1.0,0.10352918525821851,1.0
48.921844482421875,-14.389254570007324,-0.6393013000488281,-0.0,-0.0,-1.0,0.021571395918337705,1.0
49.39213943481445,-16.067079544067383,-0.4207289218902588,-0.0,-0.0,-1.0,0.19319936505557214,2.0
50.05417251586914,-16.391990661621094,-0.4495718479156494,-0.0,-0.0,-1.0,0.044008781902800456,1.0
50.05662536621094,-15.909034729003906,-0.449815034866333,-0.0,-0.0,-1.0,0.045793369698013085,1.0
48.74420166015625,-15.741964340209961,-0.4168424606323242,-0.0,-0.0,-1.0,0.07419394193578599,1.0
48.86954879760742,-15.292619705200195,-0.42299532890319824,-0.0,-0.0,-1.0,0.12265070598804668,1.0
48.94353103637695,-15.694879531860352,-0.43142104148864746,-0.0,-0.0,-1.0,0.09127803130194881,1.0
49.43912124633789,-15.115373611450195,-0.4644486904144287,-0.0,-0.0,-1.0,0.14951620533471638,1.0
48.7760009765625,-15.497526168823242,-0.4537954330444336,-0.0,-0.0,-1.0,0.11376342261398426,2.0
48.937469482421875,-15.293577194213867,-0.4664592742919922,-0.0,-0.0,-1.0,0.15094279161185012,2.0
49.318973541259766,-15.341230392456055,-0.49864983558654785,-0.0,-0.0,-1.0,0.18024936287131646,1.0
48.899837493896484,-16.196691513061523,-0.39803624153137207,-0.0,-0.0,-1.0,0.0286025230594537,2.0
49.51454162597656,-16.40549659729004,-0.4587564468383789,-0.0,-0.0,-1.0,0.02276397323786706,1.0
49.72769546508789,-16.150697708129883,-0.4843142032623291,-0.0,-0.0,-1.0,0.02979087525800678,1.0
49.91865539550781,-16.115392684936523,-0.504624605178833,-0.0,-0.0,-1.0,0.03232294070458695,1.0
49.794010162353516,-16.746505737304688,-0.3495776653289795,-0.0,-0.0,-1.0,0.02113760502786756,1.0
49.91650390625,-16.515892028808594,-0.3664591312408447,0.5486657115441025,-0.48698452811988613,-0.6795675141938845,0.048553629195470134,3.0
50.020301818847656,-14.850517272949219,-0.40756678581237793,-0.0,-0.0,-1.0,0.1404315437033592,1.0
49.38335418701172,-15.988370895385742,-0.29276227951049805,-0.0,-0.0,-1.0,0.21278927190886757,1.0
48.993507385253906,-15.32276725769043,-0.25992345809936523,0.8899266631843638,-0.00805977135136605,-0.45603242674102457,0.12232039073180112,6.0
49.92036437988281,-16.340747833251953,-0.38747310638427734,-0.0,-0.0,-1.0,0.028909629843822626,2.0
49.27739715576172,-16.028514862060547,-0.3271450996398926,-0.0,-0.0,-1.0,0.20820771542031075,2.0
50.204097747802734,-14.759096145629883,-0.3969855308532715,-0.0,-0.0,-1.0,0.12396668656233704,2.0
50.09759521484375,-16.35714340209961,-0.36905717849731445,-0.0,-0.0,-1.0,0.042830499245087535,2.0
49.32286071777344,-16.065269470214844,-0.2942929267883301,-0.8791881246721492,0.3151787053464921,0.3573382503057546,0.21636340177972674,4.0
48.339935302734375,-15.587196350097656,-0.41602277755737305,-0.0,-0.0,-1.0,0.06472737204635577,1.0
48.66252899169922,-15.482122421264648,-0.4423222541809082,-0.0,-0.0,-1.0,0.09997144036990725,1.0
49.05774688720703,-15.370616912841797,-0.4755127429962158,-0.0,-0.0,-1.0,0.20354273670994627,1.0
47.793052673339844,-15.068328857421875,-0.3506965637207031,-0.0,-0.0,-1.0,0.024412792082223488,1.0
49.43110275268555,-15.20965576171875,-0.505746603012085,-0.0,-0.0,-1.0,0.1624507058260336,1.0
49.91242980957031,-15.095224380493164,-0.5480308532714844,-0.0,-0.0,-1.0,0.06309655716346677,1.0
50.05323791503906,-14.949100494384766,-0.5574676990509033,-0.0,-0.0,-1.0,0.12531664676212775,1.0
47.963539123535156,-15.073930740356445,-0.4374645948410034,-0.0,-0.0,-1.0,0.010448599440181033,1.0
48.82994842529297,-15.114513397216797,-0.5121703147888184,-0.0,-0.0,-1.0,0.05915573828585328,1.0
48.12701416015625,-14.992345809936523,-0.45055603981018066,-0.0,-0.0,-1.0,0.007934157473297928,2.0
48.627647399902344,-15.008235931396484,-0.49367427825927734,-0.0,-0.0,-1.0,0.0066827661482840185,2.0
48.87664794921875,-14.954923629760742,-0.5147209167480469,-0.0,-0.0,-1.0,0.03397332340011293,2.0
49.27074432373047,-14.882232666015625,-0.5484508275985718,-0.0,-0.0,-1.0,0.07787368656091855,1.0
49.56199264526367,-14.494529724121094,-0.570765495300293,0.005753467419058636,0.630093940525721,-0.7764976005921892,0.1472759936358933,3.0
49.84174728393555,-16.450284957885742,-0.4302096366882324,-0.0,-0.0,-1.0,0.027956939250811923,2.0
49.99329376220703,-16.187299728393555,-0.43924057483673096,-0.0,-0.0,-1.0,0.03616396972543839,1.0
49.16193389892578,-16.108800888061523,-0.37348341941833496,-0.0,-0.0,-1.0,0.12190971234947023,2.0
49.409305572509766,-16.032564163208008,-0.3918027877807617,-0.0,-0.0,-1.0,0.18424197266671904,2.0
48.91865539550781,-15.370031356811523,-0.3461766242980957,-0.0,-0.0,-1.0,0.08999368387039557,2.0
50.17166519165039,-14.815208435058594,-0.43933987617492676,-0.0,-0.0,-1.0,0.126632903046931,1.0
47.972103118896484,-14.915948867797852,-0.46949076652526855,-0.0,-0.0,-1.0,0.009418608476132717,2.0
48.407493591308594,-14.851884841918945,-0.5056033134460449,-0.0,-0.0,-1.0,0.003181526319290552,1.0
48.623313903808594,-14.745168685913086,-0.5223759412765503,-0.0,-0.0,-1.0,0.00365653339686114,2.0
48.855655670166016,-14.671323776245117,-0.5413031578063965,-0.0,-0.0,-1.0,0.020838446576256144,1.0
49.042457580566406,-14.507308959960938,-0.5548990964889526,-0.0,-0.0,-1.0,0.04063664646221385,1.0
48.52003479003906,-16.811504364013672,-0.23581242561340332,-0.0,-0.0,-1.0,0.05340918024963746,2.0
49.97698211669922,-16.71756362915039,-0.3392326831817627,-0.0,-0.0,-1.0,0.033242003356545625,1.0
50.151798248291016,-16.494991302490234,-0.3486628532409668,-0.0,-0.0,-1.0,0.0392264846780704,1.0
49.86805725097656,-16.774038314819336,-0.36219096183776855,-0.0,-0.0,-1.0,0.02426686396007851,1.0
49.902339935302734,-16.538862228393555,-0.36143410205841064,-0.0,-0.0,-1.0,0.03240394198277146,2.0
50.03450012207031,-16.375524520874023,-0.3698080778121948,-0.0,-0.0,-1.0,0.04276610155827188,1.0
48.99911880493164,-15.347158432006836,-0.2700122594833374,0.8899266631843638,-0.00805977135136605,-0.45603242674102457,0.15225502752195394,6.0
50.14167404174805,-14.715373992919922,-0.3547109365463257,-0.0,-0.0,-1.0,0.10858496023346542,1.0
48.041404724121094,-16.145347595214844,-0.3942002058029175,-0.0,-0.0,-1.0,0.019814092757423983,1.0
47.8038215637207,-15.34868049621582,-0.34187543392181396,-0.0,-0.0,-1.0,0.02195231579857683,1.0
48.28213119506836,-15.78631591796875,-0.3784233331680298,-0.0,-0.0,-1.0,0.05436269111901151,1.0
48.43073272705078,-15.955047607421875,-0.3918815851211548,-0.0,-0.0,-1.0,0.035617026311837954,1.0
48.62331771850586,-16.19403839111328,-0.4106348752975464,-0.0,-0.0,-1.0,0.01943260448747177,1.0
48.90309524536133,-15.927799224853516,-0.40170204639434814,-0.0,-0.0,-1.0,0.044631553297354805,1.0
49.09796142578125,-16.282615661621094,-0.42767393589019775,-0.0,-0.0,-1.0,0.045220759009803754,1.0
48.93878173828125,-15.383674621582031,-0.3703242540359497,-0.0,-0.0,-1.0,0.08999368387039557,2.0
49.37373352050781,-15.95777702331543,-0.41554439067840576,-0.0,-0.0,-1.0,0.1982841560153729,1.0
49.669395446777344,-16.23202133178711,-0.43972933292388916,-0.0,-0.0,-1.0,0.022966762863713346,1.0
49.88773727416992,-16.124643325805664,-0.43934714794158936,-0.0,-0.0,-1.0,0.032576224757501895,1.0
50.102352142333984,-15.895835876464844,-0.4317716360092163,-0.0,-0.0,-1.0,0.0657518269161537,1.0
47.809844970703125,-16.42949676513672,-0.32200944423675537,-0.0,-0.0,-1.0,0.013956037183479023,2.0
48.05535888671875,-16.57978057861328,-0.3332918882369995,-0.0,-0.0,-1.0,0.021336426985827897,2.0
48.31108474731445,-16.605690002441406,-0.337649941444397,-0.0,-0.0,-1.0,0.030690013862337984,2.0
48.29165267944336,-15.733349800109863,-0.28719985485076904,-0.0,-0.0,-1.0,0.05762799811723494,1.0
48.623531341552734,-16.669673919677734,-0.34500372409820557,-0.0,-0.0,-1.0,0.05106510931505795,2.0
49.438323974609375,-15.989840507507324,-0.3161081075668335,-0.0,-0.0,-1.0,0.199061650539298,1.0
50.03814697265625,-16.52570343017578,-0.3554093837738037,-0.0,-0.0,-1.0,0.04164360510277217,1.0
49.41347885131836,-14.508635520935059,-0.585350513458252,-0.0,-0.0,-1.0,0.13255388077998842,1.0
49.898983001708984,-14.52759075164795,-0.5843586921691895,-0.0,-0.0,-1.0,0.048481875491576475,2.0
50.17351150512695,-14.714571952819824,-0.5968059301376343,-0.0,-0.0,-1.0,0.11060918937474692,2.0
48.199974060058594,-15.67872428894043,-0.297582745552063,-0.0,-0.0,-1.0,0.05066019363167075,1.0
47.847923278808594,-16.35710334777832,-0.3383835554122925,-0.0,-0.0,-1.0,0.013217608555068315,1.0
49.13130187988281,-16.06325340270996,-0.32257115840911865,-0.0,-0.0,-1.0,0.1257608282783945,1.0
48.47325897216797,-16.57073974609375,-0.3519049882888794,-0.0,-0.0,-1.0,0.03611016582386268,1.0
48.193599700927734,-16.55309295654297,-0.3504866361618042,-0.0,-0.0,-1.0,0.014786710807633609,1.0
49.32498550415039,-16.045400619506836,-0.3220541477203369,-0.18079100948424978,-0.5060313626155158,-0.8433545345459111,0.22328988059515315,5.0
48.753841400146484,-16.74772071838379,-0.3631439208984375,-0.0,-0.0,-1.0,0.037387687651272844,1.0
49.946224212646484,-16.502483367919922,-0.35207247734069824,0.5142243064941813,-0.7952909269887388,-0.3210696249413371,0.045322533610172785,3.0
50.1429328918457,-16.40104866027832,-0.3468008041381836,-0.0,-0.0,-1.0,0.03561485522298387,1.0
49.41009521484375,-14.387761116027832,-0.18336069583892822,-0.0,-0.0,-1.0,0.21689837088893638,1.0
50.15021514892578,-15.549283027648926,-0.3085712194442749,-0.0,-0.0,-1.0,0.0539260899704402,1.0
49.657344818115234,-15.355191230773926,-0.25713956356048584,-0.0,-0.0,-1.0,0.09399864068237275,1.0
49.36965560913086,-15.180548667907715,-0.22367095947265625,-0.0,-0.0,-1.0,0.17318727292071096,1.0
50.00473403930664,-15.602078437805176,-0.2994706630706787,-0.0,-0.0,-1.0,0.07527944716067782,1.0
49.7386474609375,-15.617825508117676,-0.2783339023590088,-0.0,-0.0,-1.0,0.05719714240710423,1.0
49.24098205566406,-15.401204109191895,-0.2251375913619995,-0.0,-0.0,-1.0,0.11318812987255134,1.0
48.95735168457031,-15.359284400939941,-0.19923639297485352,-0.0,-0.0,-1.0,0.12095720351097344,1.0
48.445125579833984,-15.58142375946045,-0.16872680187225342,-0.0,-0.0,-1.0,0.07556030768281939,1.0
48.069976806640625,-15.455460548400879,-0.13038647174835205,-0.0,-0.0,-1.0,0.03576985063647987,1.0
48.07023620605469,-15.819079399108887,-0.1504272222518921,-0.0,-0.0,-1.0,0.04149952218095956,1.0
50.03471755981445,-15.788214683532715,-0.5036798715591431,-0.0,-0.0,-1.0,0.06359658071201661,1.0
49.48249435424805,-15.246691703796387,-0.4803483486175537,-0.0,-0.0,-1.0,0.14356948122864518,1.0
49.88994216918945,-15.825106620788574,-0.5096248388290405,-0.0,-0.0,-1.0,0.07180128612452082,2.0
50.207237243652344,-16.051626205444336,-0.4307173490524292,-0.0,-0.0,-1.0,0.03567915512120373,1.0
48.97015380859375,-15.215741157531738,-0.5030837059020996,-0.0,-0.0,-1.0,0.1495756112643484,1.0
49.3512077331543,-15.445435523986816,-0.5112324953079224,-0.0,-0.0,-1.0,0.10321469804880448,1.0
49.101661682128906,-15.305254936218262,-0.5065720081329346,-0.0,-0.0,-1.0,0.09762148096914568,2.0
47.752750396728516,-15.354074478149414,-0.25253796577453613,-0.0,-0.0,-1.0,0.019436703325713626,2.0
48.58800506591797,-16.687602996826172,-0.31591570377349854,-0.0,-0.0,-1.0,0.053055036248508214,2.0
48.3247184753418,-16.550336837768555,-0.31200993061065674,-0.0,-0.0,-1.0,0.03081064282556886,1.0
47.76580810546875,-16.41895294189453,-0.312904953956604,-0.0,-0.0,-1.0,0.013217608555068318,2.0
49.138816833496094,-15.230464935302734,-0.20169496536254883,-0.0,-0.0,-1.0,0.08000226875903821,1.0
48.362388610839844,-14.999906539916992,-0.5418927669525146,-0.0,-0.0,-1.0,0.0037332266158940815,1.0
50.14585876464844,-14.942094802856445,-0.5810482501983643,0.9439336335658359,-0.18432778663296823,-0.27388421367101307,0.1063981764855368,3.0
49.0788459777832,-15.216699600219727,-0.5670890808105469,-0.0,-0.0,-1.0,0.08920048191618074,1.0
50.10932159423828,-16.276851654052734,-0.37379682064056396,-0.0,-0.0,-1.0,0.044882205240416924,2.0
50.11229705810547,-16.511760711669922,-0.25282609462738037,-0.0,-0.0,-1.0,0.04019595182333007,1.0
49.328426361083984,-16.055892944335938,-0.2316349744796753,-0.0,-0.0,-1.0,0.16035531675195458,2.0
47.766841888427734,-14.835089683532715,-0.4730567932128906,-0.0,-0.0,-1.0,0.009926580612518783,1.0
48.0482177734375,-14.824091911315918,-0.49017977714538574,-0.0,-0.0,-1.0,0.008358862977419617,1.0
48.34205627441406,-14.829588890075684,-0.5087332725524902,-0.0,-0.0,-1.0,0.003248666713510421,1.0
48.49184036254883,-14.771462440490723,-0.5163419246673584,-0.0,-0.0,-1.0,0.002746239207966082,2.0
48.74432373046875,-14.688355445861816,-0.5298058986663818,-0.0,-0.0,-1.0,0.016025510762731093,1.0
49.255332946777344,-14.673508644104004,-0.5623428821563721,-0.0,-0.0,-1.0,0.09253052492969956,1.0
49.625328063964844,-14.44943904876709,-0.5797989368438721,-0.0,-0.0,-1.0,0.08663852714141485,1.0
47.95050048828125,-14.863061904907227,-0.46718358993530273,-0.0,-0.0,-1.0,0.009184027262527041,2.0
48.30131912231445,-14.781410217285156,-0.48739099502563477,-0.0,-0.0,-1.0,0.0028550544314357427,1.0
48.645896911621094,-14.771150588989258,-0.5097659826278687,-0.0,-0.0,-1.0,0.0041943140928467045,2.0
49.170528411865234,-14.771774291992188,-0.5448720455169678,-0.0,-0.0,-1.0,0.06853900590933332,1.0
48.729148864746094,-14.616903305053711,-0.5104660987854004,-0.0,-0.0,-1.0,0.013725318612500656,2.0
49.50913619995117,-14.545372009277344,-0.5610364675521851,-0.0,-0.0,-1.0,0.1615638913906662,1.0
50.15056610107422,-14.791872024536133,0.14137709140777588,-0.0,-0.0,-1.0,0.14421119444192246,1.0
48.40696334838867,-15.619085311889648,-0.4110848903656006,-0.0,-0.0,-1.0,0.06522273230576894,1.0
48.696266174316406,-15.664342880249023,-0.4285217523574829,-0.0,-0.0,-1.0,0.064959463471602,1.0
48.01288604736328,-15.272632598876953,-0.3759111166000366,-0.0,-0.0,-1.0,0.023161308778115546,1.0
48.838783264160156,-15.400871276855469,-0.42573654651641846,-0.0,-0.0,-1.0,0.08377438943090502,1.0
49.20912170410156,-15.559957504272461,-0.4525409936904907,-0.0,-0.0,-1.0,0.1095621328620288,1.0
49.79303741455078,-15.688497543334961,-0.4904371500015259,-0.0,-0.0,-1.0,0.055961320618992144,1.0
50.00959014892578,-15.661619186401367,-0.5017886161804199,-0.0,-0.0,-1.0,0.07117271537697714,1.0
49.360870361328125,-15.220142364501953,-0.44766271114349365,-0.0,-0.0,-1.0,0.17032604712426308,2.0
49.34352111816406,-14.49514389038086,-0.418481707572937,-0.0,-0.0,-1.0,0.2238761869198428,1.0
47.710304260253906,-14.996156692504883,-0.3485696315765381,-0.0,-0.0,-1.0,0.024412792082223477,2.0
48.60042190551758,-16.84235954284668,-0.3593486547470093,-0.0,-0.0,-1.0,0.054256644009435966,1.0
48.34130096435547,-16.6358642578125,-0.3418004512786865,-0.0,-0.0,-1.0,0.030492557109724067,2.0
48.67118453979492,-16.63801383972168,-0.3511265516281128,-0.0,-0.0,-1.0,0.047735979283667726,1.0
49.971107482910156,-16.687408447265625,-0.3914443254470825,-0.0,-0.0,-1.0,0.023954951907553586,1.0
49.35302734375,-16.027446746826172,-0.3406078815460205,-0.0,-0.0,-1.0,0.22328988059515312,2.0
50.101898193359375,-16.38806915283203,-0.3807772397994995,-0.5641616492453257,0.22280101432894545,-0.7950354341378671,0.0425586651154622,3.0
48.990882873535156,-15.30905532836914,-0.2945290803909302,0.875925662619493,0.0025198984416711957,-0.4824395129717771,0.1340469769590576,5.0
48.3100471496582,-16.4976806640625,-0.3782554864883423,-0.0,-0.0,-1.0,0.026905421278520865,1.0
48.46638107299805,-16.497875213623047,-0.38252902030944824,-0.0,-0.0,-1.0,0.0343385614493485,1.0
48.631229400634766,-16.51540756225586,-0.38800346851348877,-0.0,-0.0,-1.0,0.03661535535924427,1.0
48.97416687011719,-16.70650863647461,-0.40779566764831543,-0.0,-0.0,-1.0,0.021684057373484864,1.0
48.276405334472656,-15.495190620422363,-0.32342052459716797,-0.0,-0.0,-1.0,0.05193275037899376,1.0
48.90353012084961,-16.213825225830078,-0.3794642686843872,-0.0,-0.0,-1.0,0.02860252305945369,2.0
49.2967414855957,-16.830142974853516,-0.4235084056854248,-0.0,-0.0,-1.0,0.014726872877258181,1.0
49.40571975708008,-16.83188247680664,-0.4267103672027588,-0.0,-0.0,-1.0,0.007948551983216857,1.0
49.27025604248047,-15.986987113952637,-0.37791645526885986,-0.0,-0.0,-1.0,0.1741826101693961,2.0
49.84831237792969,-16.5113525390625,-0.42257702350616455,-0.0,-0.0,-1.0,0.028132537875506614,1.0
48.944217681884766,-15.311230659484863,-0.3325839042663574,-0.0,-0.0,-1.0,0.10406098848404025,2.0
50.04875183105469,-16.25918197631836,-0.41526496410369873,-0.0,-0.0,-1.0,0.041872270438260716,1.0
48.00896072387695,-14.45166015625,-0.5099308490753174,-0.0,-0.0,-1.0,0.007012970945614266,1.0
48.28312683105469,-14.542003631591797,-0.5341260433197021,-0.0,-0.0,-1.0,0.0025729885201113663,1.0
48.614654541015625,-14.409805297851562,-0.5513153076171875,-0.0,-0.0,-1.0,0.004170116832255418,1.0
48.552391052246094,-14.954593658447266,-0.5066572427749634,-0.0,-0.0,-1.0,0.0033282709325696443,1.0
48.62112045288086,-14.974454879760742,-0.5127725601196289,-0.0,-0.0,-1.0,0.006178796047721167,2.0
48.847293853759766,-14.973186492919922,-0.529754638671875,-0.0,-0.0,-1.0,0.0318026534656171,2.0
49.44239044189453,-14.798662185668945,-0.5666836500167847,-0.0,-0.0,-1.0,0.0679611200737097,1.0
49.28651428222656,-14.935417175292969,-0.5613034963607788,-0.0,-0.0,-1.0,0.07998778574816014,1.0
49.7451171875,-14.363872528076172,-0.5694228410720825,-0.0,-0.0,-1.0,0.0646881313913119,1.0
49.66792297363281,-14.634445190429688,-0.5762509107589722,-0.0,-0.0,-1.0,0.07645690180096934,2.0
50.04833221435547,-14.399698257446289,-0.5947418212890625,-0.0,-0.0,-1.0,0.07839820948408065,1.0
47.738380432128906,-14.958412170410156,-0.44637584686279297,-0.0,-0.0,-1.0,0.01025823824307952,1.0
48.169410705566406,-14.949806213378906,-0.47782015800476074,-0.0,-0.0,-1.0,0.00540552153686931,2.0
49.30372619628906,-14.391115188598633,-0.5365892648696899,-0.0,-0.0,-1.0,0.1563552310346387,1.0
48.0338134765625,-15.115657806396484,-0.4310532808303833,-0.0,-0.0,-1.0,0.009309459031502178,1.0
48.27548599243164,-15.255876541137695,-0.45447540283203125,-0.0,-0.0,-1.0,0.030148031173307235,1.0
48.48340606689453,-15.408084869384766,-0.4763745069503784,-0.0,-0.0,-1.0,0.04721360725435347,1.0
48.84387969970703,-15.336816787719727,-0.49649012088775635,-0.0,-0.0,-1.0,0.1441758516111689,1.0
49.320926666259766,-15.222723007202148,-0.5225018262863159,-0.0,-0.0,-1.0,0.08591861122360782,1.0
49.11573028564453,-15.343544006347656,-0.5150644779205322,-0.0,-0.0,-1.0,0.11378064444462592,2.0
49.36463165283203,-14.523931503295898,-0.48869121074676514,-0.0,-0.0,-1.0,0.19136738543175782,1.0
49.421199798583984,-15.160140991210938,-0.5260027647018433,-0.0,-0.0,-1.0,0.12444733941947593,1.0
49.669036865234375,-15.283319473266602,-0.5493706464767456,-0.0,-0.0,-1.0,0.07268313891237307,1.0
50.02144241333008,-15.098114013671875,-0.563888430595398,-0.0,-0.0,-1.0,0.08076096866803728,1.0
49.84363555908203,-15.188161849975586,-0.5563347339630127,-0.0,-0.0,-1.0,0.05066360051049147,1.0
48.14948654174805,-14.971250534057617,-0.4434152841567993,0.6917556266157073,-0.7205023321161036,-0.04848239330691468,0.00720788877952897,3.0
48.07256317138672,-14.998172760009766,-0.43912971019744873,-0.0,-0.0,-1.0,0.009936072648277398,1.0
48.50547790527344,-15.03707504272461,-0.47499752044677734,-0.0,-0.0,-1.0,0.004213375765353306,1.0
48.941444396972656,-15.144136428833008,-0.5156515836715698,-0.0,-0.0,-1.0,0.11461723219138853,1.0
49.421993255615234,-14.680418014526367,-0.5276525020599365,-0.0,-0.0,-1.0,0.09892341449977705,1.0
49.3443717956543,-14.956600189208984,-0.5371447801589966,0.6656111514337391,-0.42955014141212344,-0.6102855652068766,0.08267890221261172,3.0
49.757564544677734,-14.694892883300781,-0.5561363697052002,-0.0,-0.0,-1.0,0.03854710844048122,1.0
49.99362564086914,-14.460548400878906,-0.562734842300415,-0.0,-0.0,-1.0,0.07894114016715048,1.0
48.20845031738281,-16.70606803894043,-0.24163568019866943,-0.0,-0.0,-1.0,0.020842914412065833,1.0
49.0156364440918,-15.341139793395996,-0.23597419261932373,0.7722756791572243,0.42037465782181876,-0.47631441553183895,0.1522550275219539,4.0
48.922916412353516,-16.27228546142578,-0.27350449562072754,-0.0,-0.0,-1.0,0.027916619774426128,1.0
49.3232421875,-16.122318267822266,-0.2966001033782959,-0.7541392941805423,-0.33455425731740385,-0.5651082850955859,0.16601064041537367,3.0
49.964744567871094,-16.48611831665039,-0.36294662952423096,-0.2682176694218111,-0.45546822508160967,-0.8488863161524871,0.045360636672378246,4.0
49.93626403808594,-16.652996063232422,-0.36864662170410156,-0.0,-0.0,-1.0,0.0212292711320081,2.0
50.19715881347656,-16.342771530151367,-0.37418556213378906,-0.0,-0.0,-1.0,0.03437560884118105,1.0
48.39384078979492,-16.27656364440918,-0.34805095195770264,-0.0,-0.0,-1.0,0.012994594774520474,1.0
48.80348587036133,-16.3214054107666,-0.3753046989440918,-0.0,-0.0,-1.0,0.02779808830365966,1.0
49.19964599609375,-15.903938293457031,-0.3721277713775635,-0.0,-0.0,-1.0,0.1759731713587358,1.0
49.0727653503418,-16.255460739135742,-0.3872556686401367,-0.0,-0.0,-1.0,0.05592625668584292,1.0
49.45603942871094,-15.992711067199707,-0.3938790559768677,-0.0,-0.0,-1.0,0.17982339586101523,1.0
49.656158447265625,-16.178625106811523,-0.41843247413635254,-0.0,-0.0,-1.0,0.024576251624462163,1.0
49.95591735839844,-15.936915397644043,-0.4221585988998413,-0.0,-0.0,-1.0,0.04519727025532316,2.0
49.779502868652344,-16.12757682800293,-0.4229753017425537,-0.0,-0.0,-1.0,0.03482526269618009,1.0
50.18122100830078,-14.644997596740723,-0.3568960428237915,-0.0,-0.0,-1.0,0.10995325580325595,1.0
50.187339782714844,-14.867227554321289,-0.3708515167236328,-0.0,-0.0,-1.0,0.11850574020005186,1.0
47.71638107299805,-15.459423065185547,-0.2536938190460205,-0.0,-0.0,-1.0,0.026260003989440693,1.0
48.831138610839844,-15.500521659851074,-0.3230903148651123,-0.0,-0.0,-1.0,0.08607212174339128,1.0
48.95149230957031,-15.334319114685059,-0.31979215145111084,0.40792633584891447,-0.3407602468506043,-0.8470410608035442,0.10639940444524636,3.0
47.86619567871094,-16.75922966003418,-0.32740604877471924,-0.0,-0.0,-1.0,0.019923846511925726,1.0
48.41730880737305,-16.630008697509766,-0.3506046533584595,-0.0,-0.0,-1.0,0.04718899577440081,1.0
48.63804626464844,-16.43436622619629,-0.35060298442840576,-0.0,-0.0,-1.0,0.031857381179502896,2.0
48.57040023803711,-16.567113876342773,-0.3554772138595581,-0.0,-0.0,-1.0,0.04818968429184511,1.0
49.21137237548828,-16.077106475830078,-0.3623563051223755,-0.0,-0.0,-1.0,0.16080239711945155,2.0
49.137245178222656,-16.62041473388672,-0.39353227615356445,-0.0,-0.0,-1.0,0.013687871488844929,1.0
49.00100326538086,-16.650676727294922,-0.3871746063232422,-0.0,-0.0,-1.0,0.020945475939518596,1.0
49.409568786621094,-16.677162170410156,-0.4142063856124878,-0.0,-0.0,-1.0,0.012696440913046994,1.0
49.332374572753906,-16.74140739440918,-0.41363799571990967,-0.0,-0.0,-1.0,0.012839362704136836,1.0
49.95341873168945,-16.16561508178711,-0.4158073663711548,-0.0,-0.0,-1.0,0.038528009597824944,1.0
49.79759979248047,-16.431875228881836,-0.4227907657623291,-0.0,-0.0,-1.0,0.018924547907914584,2.0
48.982818603515625,-15.345669746398926,-0.3001394271850586,0.7989750383510287,-0.05231960507978732,-0.5990839231829435,0.10163605252371616,5.0
50.1971435546875,-14.742315292358398,-0.3431680202484131,0.5545176432013488,0.5005937920318615,-0.6647676577253009,0.12396668656233698,3.0
50.195194244384766,-14.991473197937012,-0.35828542709350586,-0.0,-0.0,-1.0,0.1063981764855368,1.0
48.17582702636719,-14.819751739501953,-0.48906683921813965,-0.0,-0.0,-1.0,0.004473282426085171,1.0
47.94892883300781,-14.895524978637695,-0.47746121883392334,0.4979349033928533,0.23974795133045684,-0.8334157136843525,0.00941860847613275,3.0
48.70264434814453,-14.6544189453125,-0.5179189443588257,-0.0,-0.0,-1.0,0.005087273638898693,2.0
48.48195266723633,-14.798245429992676,-0.5113798379898071,-0.0,-0.0,-1.0,0.0027799677106436185,2.0
49.01628112792969,-14.681097030639648,-0.5451782941818237,-0.0,-0.0,-1.0,0.04005439668976376,1.0
49.60017776489258,-14.50641918182373,-0.5801303386688232,0.005753467419058636,0.630093940525721,-0.7764976005921892,0.10077491695377505,3.0
49.32830047607422,-14.65188980102539,-0.568366289138794,-0.0,-0.0,-1.0,0.09307415148011555,1.0
49.91598892211914,-16.547443389892578,-0.4451179504394531,-0.0,-0.0,-1.0,0.03240394198277151,1.0
49.36289596557617,-15.12576675415039,-0.32104218006134033,-0.0,-0.0,-1.0,0.185511548274917,1.0
49.65351867675781,-15.748308181762695,-0.3785736560821533,-0.0,-0.0,-1.0,0.031137956233988538,2.0
50.18095016479492,-15.999015808105469,-0.43077874183654785,-0.0,-0.0,-1.0,0.03853760612687893,1.0
49.891754150390625,-16.33868408203125,-0.43075549602508545,-0.0,-0.0,-1.0,0.03345935190411014,1.0
48.98371505737305,-15.139246940612793,-0.40058720111846924,-0.0,-0.0,-1.0,0.14585089793816397,1.0
47.73200607299805,-15.201018333435059,-0.29217731952667236,-0.0,-0.0,-1.0,0.025375844121777597,1.0
49.33317184448242,-15.20543098449707,-0.43504416942596436,-0.470741084082965,-0.8822587679643097,-0.004722087090809836,0.16936166338696024,3.0
48.97770690917969,-16.06903839111328,-0.21188926696777344,-0.0,-0.0,-1.0,0.06078767160827746,1.0
48.020484924316406,-16.008996963500977,-0.3129088878631592,-0.0,-0.0,-1.0,0.021124392471741985,1.0
47.81689453125,-16.166915893554688,-0.31457746028900146,-0.0,-0.0,-1.0,0.01661763596109636,1.0
48.570926666259766,-16.38926887512207,-0.37096190452575684,-0.0,-0.0,-1.0,0.02139580366103573,1.0
48.23805618286133,-16.463808059692383,-0.35930538177490234,-0.0,-0.0,-1.0,0.02322425657988091,1.0
49.1033935546875,-15.296784400939941,-0.27325403690338135,-0.0,-0.0,-1.0,0.17143552653658994,1.0
49.78050994873047,-15.364248275756836,-0.4762917757034302,-0.0,-0.0,-1.0,0.050008496707970994,1.0
50.126441955566406,-16.06285858154297,-0.4337679147720337,-0.0,-0.0,-1.0,0.037660158567803415,2.0
50.07294464111328,-15.806109428405762,-0.437618613243103,-0.0,-0.0,-1.0,0.07034788755256571,1.0
49.444732666015625,-14.444500923156738,-0.3472703695297241,-0.0,-0.0,-1.0,0.2427139361009419,2.0
49.363670349121094,-15.272533416748047,-0.40770018100738525,-0.0,-0.0,-1.0,0.2055378344854142,1.0
50.02210998535156,-15.968620300292969,-0.4539686441421509,-0.0,-0.0,-1.0,0.04532216435298009,1.0
50.10279846191406,-15.725702285766602,-0.45004022121429443,-0.0,-0.0,-1.0,0.090643560362339,1.0
50.09013748168945,-16.839447021484375,-0.3026021718978882,-0.0,-0.0,-1.0,0.03041304789907899,2.0
47.74029541015625,-15.36512279510498,-0.26589643955230713,-0.0,-0.0,-1.0,0.019436703325713667,2.0
47.9261474609375,-16.093116760253906,-0.2649296522140503,-0.0,-0.0,-1.0,0.018807112154020665,1.0
48.14360046386719,-16.648420333862305,-0.27251899242401123,-0.0,-0.0,-1.0,0.02474546992089657,1.0
48.77249526977539,-16.467954635620117,-0.34586870670318604,-0.0,-0.0,-1.0,0.03218189572567739,2.0
49.50205993652344,-14.419631004333496,-0.48574578762054443,-0.0,-0.0,-1.0,0.16070215959751682,1.0
48.988365173339844,-15.422231674194336,-0.21197879314422607,-0.0,-0.0,-1.0,0.10642777887962845,2.0
49.341697692871094,-16.075956344604492,-0.2531207799911499,-0.7328838406968377,-0.6603135554453784,0.16391242948762388,0.21636340177972682,3.0
50.0257568359375,-16.599529266357422,-0.3188365697860718,-0.0,-0.0,-1.0,0.034296596228721665,1.0
50.00018310546875,-16.846315383911133,-0.32167112827301025,-0.0,-0.0,-1.0,0.03784942154228476,1.0
50.183876037597656,-14.66484260559082,-0.29688751697540283,-0.0,-0.0,-1.0,0.10995325580325599,1.0
49.57627868652344,-16.809890747070312,-0.38433146476745605,-0.0,-0.0,-1.0,0.010079146453213958,1.0
47.718360900878906,-15.018487930297852,-0.33451759815216064,-0.0,-0.0,-1.0,0.024412792082223474,2.0
47.956207275390625,-15.319524765014648,-0.3662983179092407,-0.0,-0.0,-1.0,0.023161308778115647,1.0
48.757728576660156,-15.360244750976562,-0.4392036199569702,0.4310519100258308,-0.29244798732538313,-0.8536207738641418,0.0811758639425942,3.0
49.51435089111328,-15.029878616333008,-0.49533092975616455,-0.0,-0.0,-1.0,0.15890955752645541,1.0
49.48689651489258,-15.109447479248047,-0.4955989122390747,-0.0,-0.0,-1.0,0.14951620533471632,1.0
50.149986267089844,-14.967033386230469,-0.5500389337539673,0.9439336335658359,-0.18432778663296823,-0.27388421367101307,0.1063981764855368,3.0
50.141475677490234,-15.056825637817383,-0.5523165464401245,-0.0,-0.0,-1.0,0.09666896239230699,2.0
48.58251190185547,-16.613550186157227,-0.2120509147644043,-0.0,-0.0,-1.0,0.047180585619699456,1.0
48.62101364135742,-16.74398422241211,-0.20673847198486328,-0.0,-0.0,-1.0,0.05305503624850825,1.0
50.00800323486328,-16.486312866210938,-0.37941598892211914,-0.0,-0.0,-1.0,0.046565435601299644,2.0
50.1574592590332,-16.855134963989258,-0.3689117431640625,-0.0,-0.0,-1.0,0.028316884856162267,1.0
49.790557861328125,-16.016788482666016,-0.39043760299682617,-0.0,-0.0,-1.0,0.03539761134732452,1.0
49.98553466796875,-16.248714447021484,-0.3946201801300049,-0.0,-0.0,-1.0,0.041532559789475884,2.0
48.55906677246094,-16.780643463134766,-0.20515823364257812,-0.0,-0.0,-1.0,0.05382632381141743,1.0
49.96665573120117,-16.44435691833496,-0.38880395889282227,-0.9880061789998698,0.10512872561818806,-0.11310058049352767,0.04436719579595792,4.0
49.982521057128906,-16.622089385986328,-0.38010382652282715,-0.0,-0.0,-1.0,0.03193278760359911,1.0
49.35016632080078,-16.11490249633789,-0.33692073822021484,-0.0,-0.0,-1.0,0.2045226929233418,2.0
49.976531982421875,-16.221263885498047,-0.40332746505737305,-0.0,-0.0,-1.0,0.03999450786921083,2.0
48.99479675292969,-15.275392532348633,-0.3479607105255127,-0.0,-0.0,-1.0,0.17161748432543555,1.0
49.44587707519531,-14.447959899902344,-0.45427751541137695,-0.0,-0.0,-1.0,0.180830451051785,2.0
48.2630615234375,-16.570005416870117,-0.31106019020080566,-0.0,-0.0,-1.0,0.026882892273373843,1.0
48.47712707519531,-16.2777099609375,-0.36259961128234863,-0.0,-0.0,-1.0,0.01413880197664801,1.0
47.71039962768555,-14.884081840515137,-0.3640577793121338,-0.0,-0.0,-1.0,0.009681967841272489,1.0
48.645484924316406,-14.503822326660156,-0.5267374515533447,-0.0,-0.0,-1.0,0.004436275500590316,1.0
48.62464904785156,-16.846723556518555,-0.2608306407928467,-0.0,-0.0,-1.0,0.05476923073123045,2.0
49.591041564941406,-16.416576385498047,-0.432262659072876,-0.0,-0.0,-1.0,0.0245842231205442,1.0
49.24732971191406,-16.081071853637695,-0.4078400135040283,-0.0,-0.0,-1.0,0.21174638226034553,1.0
49.43804168701172,-16.210866928100586,-0.42554640769958496,-0.0,-0.0,-1.0,0.05514659560846867,1.0
49.57975769042969,-14.890495300292969,-0.5511808395385742,-0.0,-0.0,-1.0,0.054893292372627134,1.0
49.50037384033203,-14.430802345275879,-0.5787193775177002,-0.0,-0.0,-1.0,0.16070215959751688,1.0
49.59007263183594,-14.51191234588623,-0.584662675857544,0.005753467419058636,0.630093940525721,-0.7764976005921892,0.12982086701563275,3.0
48.4260139465332,-16.649524688720703,-0.2463362216949463,-0.0,-0.0,-1.0,0.046609929232202474,1.0
49.480018615722656,-16.42609214782715,-0.4045436382293701,-0.0,-0.0,-1.0,0.023657422103376635,1.0
49.543853759765625,-16.624197006225586,-0.39843058586120605,-0.0,-0.0,-1.0,0.011122865167640356,1.0
49.478050231933594,-16.32201385498047,-0.4126429557800293,-0.0,-0.0,-1.0,0.03481684313212915,1.0
49.379886627197266,-14.930554389953613,-0.5167427062988281,-0.0,-0.0,-1.0,0.07807911015357051,2.0
49.356136322021484,-14.41211986541748,-0.5605130195617676,-0.0,-0.0,-1.0,0.12407108402847176,1.0
49.36928176879883,-14.583649635314941,-0.5466430187225342,-0.0,-0.0,-1.0,0.15334369716078153,2.0
48.50284194946289,-16.84147834777832,-0.22382879257202148,-0.0,-0.0,-1.0,0.05083438898487492,2.0
49.30564498901367,-16.148597717285156,-0.40076613426208496,-0.0,-0.0,-1.0,0.1856217250900578,1.0
49.89531707763672,-16.650978088378906,-0.34929609298706055,-0.0,-0.0,-1.0,0.027878397604148543,2.0
49.31566619873047,-16.086212158203125,-0.3078653812408447,-0.9980397537074137,0.04309363700464931,0.04538268909348853,0.19967515410839873,4.0
49.4360466003418,-16.203266143798828,-0.3162705898284912,-0.0,-0.0,-1.0,0.07863650227035017,1.0
49.89059066772461,-16.32626724243164,-0.37583065032958984,-0.0,-0.0,-1.0,0.026913927993286103,2.0
48.289833068847656,-15.571856498718262,-0.1959078311920166,-0.0,-0.0,-1.0,0.059599048154314285,1.0
49.316932678222656,-15.956430435180664,-0.3194007873535156,-0.0,-0.0,-1.0,0.20712268864901287,1.0
50.03746795654297,-15.709988594055176,-0.45209169387817383,-0.0,-0.0,-1.0,0.08383545279035429,1.0
48.95588302612305,-15.41950798034668,-0.3121175765991211,-0.7818661730963283,-0.19330318935731602,-0.5927218271263441,0.09443234901694539,3.0
49.152305603027344,-15.296993255615234,-0.3535478115081787,-0.0,-0.0,-1.0,0.10938955822934968,1.0
49.432464599609375,-15.163595199584961,-0.40888428688049316,-0.0,-0.0,-1.0,0.17079684500468503,1.0
49.89308547973633,-14.993682861328125,-0.495358943939209,-0.0,-0.0,-1.0,0.0740719326147017,1.0
49.87964630126953,-14.573262214660645,-0.5333008766174316,-0.0,-0.0,-1.0,0.05543827365664739,1.0
50.08264923095703,-14.774051666259766,-0.5451226234436035,-0.0,-0.0,-1.0,0.12714808515529427,1.0
48.339290618896484,-16.768550872802734,-0.2649083137512207,-0.0,-0.0,-1.0,0.0431550260809905,1.0
48.475425720214844,-16.829105377197266,-0.2871978282928467,-0.0,-0.0,-1.0,0.05083438898487492,1.0
47.88572692871094,-16.32655906677246,-0.2013535499572754,-0.0,-0.0,-1.0,0.022006205568026606,1.0
48.74375915527344,-16.501665115356445,-0.3486146926879883,-0.0,-0.0,-1.0,0.042839247158527896,2.0
48.86186981201172,-16.522724151611328,-0.36899757385253906,-0.0,-0.0,-1.0,0.032516584582303255,1.0
48.78279113769531,-16.033052444458008,-0.3758244514465332,-0.0,-0.0,-1.0,0.028103090957041908,1.0
49.33702850341797,-14.98149299621582,-0.5276329517364502,-0.0,-0.0,-1.0,0.1118174858769556,2.0
49.18292236328125,-14.44800090789795,-0.5303337574005127,-0.0,-0.0,-1.0,0.08374911047575072,1.0
49.360557556152344,-14.603937149047852,-0.5528583526611328,-0.0,-0.0,-1.0,0.15334369716078153,2.0
49.181182861328125,-16.75817108154297,-0.3701047897338867,-0.0,-0.0,-1.0,0.0145978199531776,1.0
49.26655578613281,-16.38920783996582,-0.38300347328186035,-0.0,-0.0,-1.0,0.03449407519350829,1.0
49.26984786987305,-16.6304874420166,-0.38529133796691895,-0.0,-0.0,-1.0,0.01879567225546342,1.0
49.27555847167969,-16.019386291503906,-0.3832433223724365,-0.0,-0.0,-1.0,0.17418261016939607,2.0
49.85407257080078,-15.745059967041016,-0.489337682723999,-0.0,-0.0,-1.0,0.06322409804529766,1.0
49.508392333984375,-15.418474197387695,-0.4268825054168701,-0.0,-0.0,-1.0,0.09416253588479556,1.0
50.014801025390625,-15.546489715576172,-0.5190670490264893,-0.0,-0.0,-1.0,0.04757318446217929,1.0
49.36006164550781,-14.541403770446777,-0.408489465713501,-0.0,-0.0,-1.0,0.2655235468145291,1.0
49.367156982421875,-14.600616455078125,-0.4089200496673584,-0.0,-0.0,-1.0,0.17454400361106778,1.0
49.941707611083984,-15.154449462890625,-0.5075197219848633,-0.0,-0.0,-1.0,0.0745965334057454,1.0
50.11037826538086,-15.07823371887207,-0.5388448238372803,-0.0,-0.0,-1.0,0.08675567670008674,2.0
50.18855667114258,-14.543193817138672,-0.5583887100219727,-0.0,-0.0,-1.0,0.12253179775571361,1.0
48.40453338623047,-16.77788734436035,-0.22684812545776367,-0.0,-0.0,-1.0,0.049816387973737476,2.0
49.13709259033203,-16.817136764526367,-0.3625655174255371,-0.0,-0.0,-1.0,0.016695978354272695,1.0
48.24168395996094,-15.694823265075684,-0.194105863571167,-0.0,-0.0,-1.0,0.058189091572993554,1.0
48.976661682128906,-15.449987411499023,-0.3295867443084717,-0.0,-0.0,-1.0,0.09443234901694536,2.0
47.79952621459961,-16.771034240722656,-0.27083659172058105,-0.0,-0.0,-1.0,0.019546111716369774,1.0
47.989715576171875,-16.59405517578125,-0.31566286087036133,-0.0,-0.0,-1.0,0.019535645763583888,1.0
48.07859420776367,-16.11865234375,-0.3557271957397461,-0.0,-0.0,-1.0,0.020229814716924265,1.0
48.209442138671875,-16.04550552368164,-0.38469791412353516,-0.0,-0.0,-1.0,0.024496895748343177,1.0
47.74469757080078,-15.081644058227539,-0.35243988037109375,-0.0,-0.0,-1.0,0.024412792082223456,1.0
48.10835266113281,-15.16130256652832,-0.41638922691345215,-0.0,-0.0,-1.0,0.01985646588350941,1.0
48.59225845336914,-14.512109756469727,-0.5512051582336426,-0.0,-0.0,-1.0,0.004170116832255416,1.0
48.660186767578125,-16.452577590942383,-0.36199951171875,-0.0,-0.0,-1.0,0.03203625785448338,2.0
48.31617736816406,-16.21895980834961,-0.34290432929992676,-0.0,-0.0,-1.0,0.008503007849464185,1.0
48.23680877685547,-15.956783294677734,-0.35588836669921875,-0.0,-0.0,-1.0,0.029588084675997925,1.0
47.711463928222656,-16.604068756103516,-0.24470281600952148,-0.0,-0.0,-1.0,0.018215124970391613,1.0
50.186553955078125,-14.708487510681152,-0.32652783393859863,-0.0,-0.0,-1.0,0.10858496023346542,2.0
48.35291290283203,-16.7373046875,-0.3618943691253662,-0.0,-0.0,-1.0,0.04380015561894592,1.0
48.04249572753906,-16.56049346923828,-0.3331582546234131,-0.0,-0.0,-1.0,0.02086775314115976,2.0
50.05855178833008,-16.675180435180664,-0.3016667366027832,-0.0,-0.0,-1.0,0.028235814325476546,1.0
49.03541564941406,-15.469151496887207,-0.20407915115356445,-0.0,-0.0,-1.0,0.22257506607272198,1.0
50.11222839355469,-16.599191665649414,-0.33243346214294434,-0.0,-0.0,-1.0,0.032649099283867444,1.0
49.03219223022461,-15.42471694946289,-0.22752666473388672,-0.0,-0.0,-1.0,0.14134541496572198,2.0
49.982444763183594,-16.78001594543457,-0.32860302925109863,-0.0,-0.0,-1.0,0.03244443597676277,1.0
49.27476501464844,-14.534152030944824,-0.5492262840270996,-0.0,-0.0,-1.0,0.11698966374548297,1.0
49.021949768066406,-14.839546203613281,-0.5196011066436768,-0.0,-0.0,-1.0,0.03718676935299376,1.0
50.145790100097656,-14.956391334533691,-0.5716631412506104,0.9439336335658359,-0.18432778663296823,-0.27388421367101307,0.10639817648553704,3.0
50.175540924072266,-14.692619323730469,-0.5754866600036621,-0.0,-0.0,-1.0,0.10789720345120127,2.0
49.950923919677734,-14.42423152923584,-0.5490655899047852,-0.0,-0.0,-1.0,0.07807646186249804,1.0
49.98008346557617,-14.847253799438477,-0.5517873764038086,-0.0,-0.0,-1.0,0.10718562172911683,1.0
49.45489501953125,-14.532095909118652,-0.48911046981811523,-0.0,-0.0,-1.0,0.1901412176172528,1.0
49.53497314453125,-15.160252571105957,-0.49826598167419434,-0.0,-0.0,-1.0,0.1373233568842994,1.0
49.326454162597656,-15.25594425201416,-0.473299503326416,-0.0,-0.0,-1.0,0.1895422006085892,1.0
47.88526916503906,-16.71042251586914,-0.30810022354125977,-0.0,-0.0,-1.0,0.019546111716369774,1.0
47.83702850341797,-16.606645584106445,-0.30135393142700195,-0.0,-0.0,-1.0,0.020819350933279634,1.0
49.96839141845703,-15.88318920135498,-0.42581844329833984,-0.0,-0.0,-1.0,0.04470499515215465,1.0
48.42815017700195,-16.759387969970703,-0.2624244689941406,-0.0,-0.0,-1.0,0.04981638797373747,2.0
49.980247497558594,-15.934032440185547,-0.3968205451965332,-0.06548742753847003,0.9965743242058179,-0.05050755555469872,0.045178229060006986,3.0
49.25279998779297,-15.947067260742188,-0.31761646270751953,-0.0,-0.0,-1.0,0.1494297685037148,2.0
50.202545166015625,-15.9719877243042,-0.3472561836242676,-0.0,-0.0,-1.0,0.03574672772360114,1.0
49.240875244140625,-16.03290557861328,-0.26073575019836426,-0.0,-0.0,-1.0,0.14728284485099336,1.0
48.643096923828125,-16.841581344604492,-0.21622061729431152,-0.0,-0.0,-1.0,0.05290386898475219,2.0
49.419883728027344,-15.87095832824707,-0.28116416931152344,-0.0,-0.0,-1.0,0.08501767249460267,1.0
50.10068130493164,-16.30632972717285,-0.33594441413879395,-0.0,-0.0,-1.0,0.040385016216812106,2.0
50.108482360839844,-16.815881729125977,-0.33563780784606934,-0.0,-0.0,-1.0,0.030413047899079008,2.0
49.411033630371094,-16.04523468017578,-0.32135939598083496,-0.0,-0.0,-1.0,0.1883119461904425,1.0
50.07879638671875,-16.43212127685547,-0.37672924995422363,-0.0,-0.0,-1.0,0.04465482996249575,2.0
50.15538024902344,-15.750774383544922,-0.35030698776245117,-0.0,-0.0,-1.0,0.09064356036233899,1.0
49.99217224121094,-16.03830337524414,-0.34161972999572754,-0.0,-0.0,-1.0,0.04116287767505643,1.0
50.06707000732422,-15.105494499206543,-0.5436334609985352,-0.0,-0.0,-1.0,0.08867257302162337,1.0
49.861656188964844,-15.807229042053223,-0.4861330986022949,-0.0,-0.0,-1.0,0.07112900948431292,2.0
49.601776123046875,-16.608848571777344,-0.41757774353027344,-0.0,-0.0,-1.0,0.012075572306372396,1.0
49.814186096191406,-16.77567481994629,-0.3960452079772949,-0.0,-0.0,-1.0,0.021451545079620934,1.0
49.47111511230469,-15.657354354858398,-0.35011911392211914,-0.0,-0.0,-1.0,0.051518490901711976,1.0
49.099239349365234,-14.969046592712402,-0.573552131652832,-0.0,-0.0,-1.0,0.05427168103848498,1.0
49.47366714477539,-14.69417667388916,-0.5708017349243164,-0.0,-0.0,-1.0,0.08842053210097767,1.0
49.89601516723633,-14.539820671081543,-0.5904998779296875,-0.0,-0.0,-1.0,0.04848187549157647,2.0
47.71586608886719,-15.523401260375977,-0.3254246711730957,-0.0,-0.0,-1.0,0.030367170321971143,1.0
48.46896743774414,-15.633447647094727,-0.44528722763061523,-0.0,-0.0,-1.0,0.05590860335734045,1.0
48.77839279174805,-15.524908065795898,-0.48481321334838867,-0.0,-0.0,-1.0,0.09482493356290013,2.0
49.28118133544922,-15.056772232055664,-0.5320229530334473,-0.0,-0.0,-1.0,0.08498712553469573,1.0
49.204864501953125,-15.198307037353516,-0.5289840698242188,-0.0,-0.0,-1.0,0.08628985390140373,1.0
49.43745422363281,-14.859626770019531,-0.5441503524780273,-0.0,-0.0,-1.0,0.06607851071833672,1.0
49.66693878173828,-14.606908798217773,-0.564643383026123,-0.0,-0.0,-1.0,0.08507645086607875,2.0
49.795570373535156,-16.810564041137695,-0.3450770378112793,-0.0,-0.0,-1.0,0.023121982201351716,2.0
49.969688415527344,-16.435546875,-0.37024736404418945,-0.0,-0.0,-1.0,0.04496132476561927,2.0
48.79077911376953,-16.779903411865234,-0.23950672149658203,-0.0,-0.0,-1.0,0.026872389486927124,1.0
49.028472900390625,-16.348522186279297,-0.2861905097961426,-0.0,-0.0,-1.0,0.02546539357202127,1.0
49.24114227294922,-15.905696868896484,-0.3298616409301758,-0.0,-0.0,-1.0,0.14942976850371484,2.0
49.621620178222656,-14.634265899658203,-0.42101478576660156,-0.0,-0.0,-1.0,0.12467076564742645,1.0
49.72161102294922,-14.496334075927734,-0.4418020248413086,-0.0,-0.0,-1.0,0.06892044575157164,1.0
49.16668701171875,-14.819860458374023,-0.336820125579834,-0.0,-0.0,-1.0,0.08647690049512499,1.0
49.30232238769531,-15.055967330932617,-0.35587024688720703,-0.0,-0.0,-1.0,0.15170301354706772,1.0
49.421470642089844,-14.733774185180664,-0.38352394104003906,-0.0,-0.0,-1.0,0.11788889930664183,1.0
49.64210891723633,-15.030181884765625,-0.3056349754333496,-0.0,-0.0,-1.0,0.09377316796721359,1.0
50.02661895751953,-16.13520050048828,-0.32695484161376953,-0.0,-0.0,-1.0,0.03568147977169328,1.0
49.663814544677734,-16.682388305664062,-0.31247568130493164,-0.0,-0.0,-1.0,0.013431227423097297,1.0
49.60673522949219,-16.227237701416016,-0.3244819641113281,-0.0,-0.0,-1.0,0.031206528212715662,1.0
49.625789642333984,-15.717004776000977,-0.3527860641479492,-0.0,-0.0,-1.0,0.04307863000962375,2.0
49.81122589111328,-15.334227561950684,-0.40317296981811523,-0.0,-0.0,-1.0,0.053559823385772184,1.0
49.88081741333008,-15.095185279846191,-0.4274630546569824,-0.0,-0.0,-1.0,0.0750168876075159,1.0
49.97786331176758,-14.858428001403809,-0.45656776428222656,-0.0,-0.0,-1.0,0.12649873186969904,1.0
50.17790985107422,-14.550164222717285,-0.5072445869445801,-0.0,-0.0,-1.0,0.12253179775571361,1.0
48.74842834472656,-15.40701675415039,-0.42787599563598633,-0.0,-0.0,-1.0,0.0951406674824751,2.0
48.961936950683594,-15.27833080291748,-0.43107128143310547,-0.0,-0.0,-1.0,0.14316834463110448,2.0
49.296268463134766,-15.185648918151855,-0.45218992233276367,-0.0,-0.0,-1.0,0.1723764608237555,2.0
49.467464447021484,-14.462267875671387,-0.36450958251953125,-0.0,-0.0,-1.0,0.23491053300161846,2.0
50.1551513671875,-14.468574523925781,-0.4954719543457031,-0.0,-0.0,-1.0,0.12534345283554357,1.0
