x,y,z,nx,ny,nz,curvature,density
14.188626289367676,-1.5939865112304688,-0.042543888092041016,-0.0,-0.0,-1.0,0.10994639268981377,1.0
14.141651153564453,-0.24973583221435547,0.24274015426635742,0.9686083014067733,0.011233881486990865,0.24833799216515634,0.2088348788438768,3.0
14.51266098022461,-0.45024871826171875,0.29491376876831055,-0.0,-0.0,-1.0,0.12651470257659264,2.0
13.1551513671875,0.2270340919494629,0.2431778907775879,-0.0,-0.0,-1.0,0.13933892251519148,1.0
14.294214248657227,-0.0876474380493164,0.19278860092163086,-0.0,-0.0,-1.0,0.21028334011705047,2.0
14.8640775680542,-1.6503126621246338,0.08362245559692383,0.5123099256918322,-0.42279236205539145,-0.7475193366229745,0.14743355590471469,7.0
13.260527610778809,-0.04086160659790039,0.29840946197509766,-0.0,-0.0,-1.0,0.15011262255953273,1.0
13.156421661376953,-1.8142783641815186,0.21478557586669922,-0.0,-0.0,-1.0,0.04616527907683391,1.0
14.811720848083496,-1.8411616086959839,0.054205894470214844,-0.0,-0.0,-1.0,0.12074867928132577,1.0
14.825018882751465,-1.7383580207824707,0.36188554763793945,-0.04716883386327076,-0.9023457040202801,-0.4284242424841569,0.11371394196297056,3.0
14.633931159973145,-0.3957013487815857,0.26775169372558594,-0.0,-0.0,-1.0,0.1436266886547064,1.0
14.655977249145508,-0.9236425161361694,0.2696666717529297,0.7819109582559132,-0.4759360888186945,-0.4026165579298539,0.16037651850390067,3.0
13.096638679504395,0.0918937623500824,0.17061948776245117,-0.0,-0.0,-1.0,0.2561352527320453,2.0
13.108381271362305,-1.348724365234375,0.30068910121917725,-0.0,-0.0,-1.0,0.2086430792984591,1.0
13.488492965698242,-1.4637504816055298,0.28229010105133057,-0.0,-0.0,-1.0,0.24785564843792882,2.0
13.014347076416016,-0.16149920225143433,0.21642887592315674,-0.0,-0.0,-1.0,0.18138629906909312,2.0
14.377206802368164,-0.28388065099716187,0.12912720441818237,-0.0,-0.0,-1.0,0.17022455615070567,1.0
13.08244800567627,0.035388197749853134,0.19594264030456543,-0.7135379555731481,-0.6541632203835744,-0.25086663200569964,0.20476778046783778,10.0
13.199316024780273,0.09731395542621613,0.6426903605461121,-0.3555855952546776,-0.5634874729732283,-0.745681401303279,0.15414739038585348,5.0
13.07645034790039,0.3230244815349579,0.6290779709815979,-0.0,-0.0,-1.0,0.11315090396621734,1.0
12.935989379882812,-0.08942103385925293,-0.005193233489990234,-0.0,-0.0,-1.0,0.09525669747313614,1.0
13.067206382751465,0.17751087248325348,-0.025963544845581055,-0.0,-0.0,-1.0,0.08816735601002158,1.0
13.297163009643555,0.386100709438324,-0.06367230415344238,-0.0,-0.0,-1.0,0.04791414700732604,1.0
13.312531471252441,-1.4601285457611084,0.3952829837799072,-0.0,-0.0,-1.0,0.19738505973803608,2.0
14.56084156036377,-0.8443109393119812,0.24398386478424072,-0.7480184109122154,0.4059102394084372,-0.5250765034542576,0.10946108781205154,3.0
13.108396530151367,-0.05139961838722229,0.43372082710266113,-0.0,-0.0,-1.0,0.2614094633143675,2.0
13.2269926071167,-0.19085296988487244,0.41816210746765137,-0.0,-0.0,-1.0,0.24595579229420625,1.0
14.125133514404297,-0.27373993396759033,0.30321598052978516,0.14083251151726342,-0.27463443620724426,-0.9511793364812279,0.19865633066594987,5.0
12.8887357711792,-0.001167789101600647,0.07334041595458984,-0.0,-0.0,-1.0,0.10899796855983174,2.0
13.044035911560059,-0.14329427480697632,0.038805484771728516,-0.0,-0.0,-1.0,0.24041026328006304,1.0
13.156224250793457,0.19462744891643524,0.006247282028198242,-0.0,-0.0,-1.0,0.10092406734347341,2.0
13.238229751586914,0.6240682601928711,-0.02321934700012207,-0.0,-0.0,-1.0,0.07622541017153368,1.0
13.245152473449707,-1.3768465518951416,0.4908020496368408,-0.0,-0.0,-1.0,0.11845488058409485,1.0
13.471090316772461,-1.4793376922607422,0.44590067863464355,-0.0,-0.0,-1.0,0.13343750507989974,1.0
14.483892440795898,-1.4218465089797974,0.2440812587738037,0.475583001756787,0.25875037193225847,-0.840755049622018,0.16976150850415864,5.0
14.599405288696289,-0.9077397584915161,0.2183394432067871,0.11766534261701975,-0.647907316198186,-0.7525762265469745,0.1547713300226309,3.0
14.376672744750977,-0.7419966459274292,0.2613992691040039,0.02329662694176882,-0.7764332612129213,-0.6297687337867792,0.20148422925982853,3.0
14.099940299987793,-0.21736037731170654,0.3102562427520752,-0.0,-0.0,-1.0,0.18467752037246785,1.0
14.437585830688477,-0.2792317271232605,0.24358010292053223,-0.16955606348113358,-0.9797196583462255,0.10677140247621035,0.2131890710230561,5.0
13.122163772583008,0.046331390738487244,0.5016880035400391,-0.0,-0.0,-1.0,0.14469763978794778,2.0
12.964200973510742,-1.3618953227996826,0.2467818260192871,-0.0,-0.0,-1.0,0.15607618498171374,1.0
13.320859909057617,-1.4522545337677002,0.14173245429992676,-0.0,-0.0,-1.0,0.16933916015104092,1.0
13.758986473083496,-1.602043867111206,0.012722969055175781,-0.0,-0.0,-1.0,0.04236061730018139,1.0
14.095878601074219,-1.4307770729064941,-0.08740472793579102,-0.0,-0.0,-1.0,0.06493917778334207,1.0
12.824040412902832,-1.2127203941345215,0.28746700286865234,-0.18730024030045853,-0.7185523065790431,-0.6697769798174069,0.11787114395649576,3.0
13.93126392364502,-1.1457339525222778,-0.040679216384887695,-0.0,-0.0,-1.0,0.10648387725734619,1.0
13.977948188781738,-1.2246302366256714,-0.053844451904296875,-0.0,-0.0,-1.0,0.08924679853255364,1.0
13.823878288269043,-0.5247138738632202,-0.01714324951171875,-0.0,-0.0,-1.0,0.08304959759681399,1.0
13.71004581451416,-0.2653127908706665,0.011453390121459961,-0.0,-0.0,-1.0,0.03866102809365455,1.0
13.048614501953125,0.0674690455198288,0.19995927810668945,-0.299248703591337,-0.6024020024091827,-0.7399743515097744,0.24623872835488375,4.0
13.780268669128418,0.24368992447853088,-0.022285938262939453,-0.0,-0.0,-1.0,0.017720321458761536,2.0
13.734942436218262,0.47210514545440674,-0.01593804359436035,-0.0,-0.0,-1.0,0.02755972672298042,1.0
14.856725692749023,-1.6832575798034668,0.2250041961669922,-0.6862660211117166,-0.35229171568346473,0.6363407069552394,0.12980215063476566,3.0
13.352152824401855,-1.3512778282165527,0.6107792854309082,-0.6478921056566112,-0.6807124718162425,-0.3418572072396071,0.2226732533906342,3.0
14.514813423156738,-0.7474873065948486,0.30210256576538086,0.8462467699656274,-0.4690201062074873,0.25275787682258277,0.1499604706537185,8.0
14.0287504196167,-0.19683189690113068,0.41695427894592285,-0.0,-0.0,-1.0,0.1047289724828651,1.0
15.105308532714844,-1.3717639446258545,-0.05101275444030762,-0.0,-0.0,-1.0,0.03560001093282932,1.0
15.087236404418945,-1.2963823080062866,-0.04496502876281738,-0.0,-0.0,-1.0,0.04286290281585505,1.0
13.579231262207031,-1.4271026849746704,0.4068608283996582,0.5412244248760616,-0.6881839387739971,0.48319663526465495,0.16222555432357813,3.0
14.823434829711914,-1.571731448173523,0.03146028518676758,-0.0,-0.0,-1.0,0.10007793954125307,2.0
14.996326446533203,-1.547573447227478,-0.020144224166870117,-0.3388371984405956,-0.7768128305473705,-0.5308023919029667,0.067306081732171,3.0
13.602089881896973,-1.2824645042419434,0.40191078186035156,-0.0,-0.0,-1.0,0.15853566328295737,1.0
14.662421226501465,-1.020361304283142,0.08438968658447266,-0.26061432026563525,0.8376096992901981,-0.48009391552847713,0.05608844781184739,4.0
15.007917404174805,-1.193708062171936,-0.0204160213470459,-0.0,-0.0,-1.0,0.041220955175109805,1.0
14.586644172668457,-0.7368031144142151,0.10711193084716797,0.7520687500810016,-0.535166085661865,-0.38469449685296647,0.16219328040732617,3.0
13.869973182678223,-0.1533665806055069,0.31871557235717773,0.02044092815144998,0.5387786017019591,-0.842199374735216,0.13499360308267688,3.0
14.313647270202637,-0.36673903465270996,0.1871025562286377,-0.0,-0.0,-1.0,0.14983874454360946,1.0
14.613218307495117,-0.37720704078674316,0.09666132926940918,-0.0,-0.0,-1.0,0.07820179275556005,1.0
14.411731719970703,-0.0794285237789154,0.15363740921020508,0.3194223757171891,0.1666504995295528,-0.9328434793135112,0.19855638600151698,4.0
15.071313858032227,0.09786698967218399,-0.04924321174621582,-0.0,-0.0,-1.0,0.024642264225091956,2.0
13.346693992614746,-1.4359612464904785,0.4766404628753662,0.7487844820702065,-0.6128184290253176,0.2525378634141711,0.15018378074459315,4.0
13.104549407958984,0.027815714478492737,0.5472626686096191,-0.0,-0.0,-1.0,0.1965156654863475,1.0
13.799327850341797,-0.6396751403808594,0.28505659103393555,-0.0,-0.0,-1.0,0.1883410712999409,2.0
13.862725257873535,0.19923019409179688,0.018739700317382812,-0.0,-0.0,-1.0,0.022011610229198623,2.0
14.042457580566406,0.09223556518554688,0.0038657188415527344,-0.0,-0.0,-1.0,0.03389494394600078,1.0
13.039344787597656,0.5822601318359375,0.07794475555419922,-0.0,-0.0,-1.0,0.1789796041484481,2.0
13.321150779724121,0.5885543823242188,0.06756448745727539,-0.0,-0.0,-1.0,0.056347836899823936,1.0
13.548458099365234,-1.3101425170898438,0.34724950790405273,-0.0,-0.0,-1.0,0.1626068971694492,1.0
13.264135360717773,0.11377716064453125,0.44043684005737305,-0.0,-0.0,-1.0,0.16598426007989356,2.0
14.68543529510498,-0.6089096069335938,0.34965944290161133,-0.0,-0.0,-1.0,0.1871789000442851,1.0
12.974493980407715,-1.3014488220214844,0.1711881160736084,-0.0,-0.0,-1.0,0.21739861659921594,2.0
13.449726104736328,-1.5660667419433594,0.14621496200561523,-0.0,-0.0,-1.0,0.19849938666081535,2.0
13.189615249633789,0.0466766357421875,0.25591444969177246,-0.05853943920736201,-0.614611729514308,-0.7866546612082833,0.2406095872126508,4.0
14.822132110595703,-1.6654701232910156,0.11437582969665527,-0.8411881279213909,-0.27804000075356067,-0.46378474686546756,0.13300396073984957,5.0
13.993576049804688,-0.4370841979980469,0.21048593521118164,-0.7569396378447322,0.08164178837361445,-0.6483648687665331,0.21986834138280198,3.0
14.99950122833252,-1.6247406005859375,0.11341047286987305,0.09545129249860104,0.30817725774701693,-0.946528303099213,0.1920312439862812,9.0
14.384500503540039,-0.179443359375,0.21993017196655273,-0.0,-0.0,-1.0,0.21481639409916703,1.0
13.151275634765625,0.09541511535644531,0.606336236000061,-0.8517655924852767,-0.49935747723655804,0.1585480538705715,0.2446525648570407,4.0
13.332419395446777,-1.708465576171875,0.14772677421569824,-0.5663671979967831,-0.6766105755732844,-0.4705595882092526,0.06199637448768621,4.0
13.499600410461426,-1.6220054626464844,0.14276909828186035,-0.32518851987947317,0.3375396570849591,-0.8833568964091274,0.11882041545619132,4.0
14.064062118530273,-1.6624908447265625,0.10262560844421387,-0.1598322424468246,0.9570754395104655,0.2417855606943242,0.22407475191496726,5.0
14.069459915161133,-1.8308258056640625,0.09068679809570312,-0.0,-0.0,-1.0,0.09617988898705278,2.0
14.904622077941895,-1.5562210083007812,0.05267453193664551,-0.7714867709095427,-0.26015426728379853,-0.5806271777359348,0.16550730613256945,7.0
15.075139999389648,-1.6500892639160156,0.034392356872558594,-0.6322201257011817,-0.25822295146397606,-0.7304920396524628,0.10251756171971692,3.0
12.954869270324707,-1.2386703491210938,0.2043285369873047,0.7397798245805964,-0.13624835583938247,-0.6589098547408191,0.16759405061114935,4.0
13.13591194152832,0.0001621246337890625,0.2777833938598633,-0.840107583355927,0.07476192188098835,0.5372428719159753,0.1722570889889114,11.0
14.586577415466309,-0.30123329162597656,0.16071295738220215,0.3111267432332039,0.9491487235146439,-0.04813367112139216,0.17752475628543832,6.0
14.717390060424805,-0.9511318206787109,0.10712575912475586,0.9028507333472489,-0.05536557049435805,-0.42637449137837613,0.051817965797933865,11.0
12.877806663513184,-1.2003726959228516,0.23778963088989258,-0.0,-0.0,-1.0,0.09108076808456869,1.0
13.183923721313477,-1.4031352996826172,0.20326948165893555,-0.0,-0.0,-1.0,0.19544234797360577,2.0
13.101015090942383,0.010776519775390625,0.3127110004425049,0.025959604868898447,0.9708199230695069,0.2384004527813806,0.24630773682671928,7.0
13.441757202148438,-1.5769519805908203,0.17374229431152344,-0.9531375588970317,-0.05469418350581251,-0.2975522476985169,0.18862150293322105,3.0
13.941411018371582,-0.5109920501708984,0.2193906307220459,-0.0,-0.0,-1.0,0.2566468161194355,2.0
14.02025032043457,-1.655569076538086,0.12973690032958984,0.5416269081708226,0.4489319486607516,-0.7107041563245394,0.14500216498255875,5.0
14.35608959197998,-0.12315177917480469,0.22012543678283691,0.2074680583395003,-0.932170483317783,-0.2966735492084332,0.186445737101793,6.0
14.456331253051758,-0.2751121520996094,0.20210504531860352,-0.0,-0.0,-1.0,0.20808560355760328,2.0
14.60828685760498,-0.828460693359375,0.15090370178222656,-0.5476567068275326,-0.33330251537386435,-0.7674513435471183,0.16395791227341067,4.0
14.873249053955078,-1.6590690612792969,0.07136273384094238,0.5123099256918322,-0.42279236205539145,-0.7475193366229745,0.10333370373333109,7.0
13.562915802001953,-1.4420089721679688,0.40390563011169434,-0.026711986217442096,-0.8270053896725317,0.5615590398568105,0.17397077746021516,4.0
14.119545936584473,-0.11689186096191406,0.4627974033355713,0.8483337206300008,-0.4608150538744706,0.2607285649190152,0.12410482694249604,3.0
14.895180702209473,-1.6203632354736328,0.3058812618255615,-0.9131543443517759,-0.23955727193336843,-0.3297900193385489,0.06549855478953844,3.0
12.962530136108398,0.07216072082519531,0.08369159698486328,-0.0,-0.0,-1.0,0.10603570041408317,2.0
13.059192657470703,0.4456291198730469,0.112030029296875,-0.0,-0.0,-1.0,0.16871126664060465,2.0
13.310888290405273,0.14442825317382812,0.07169389724731445,0.3202871519472059,-0.9386855933065503,-0.12761464342416512,0.12777958416775306,3.0
13.829977035522461,0.2167987823486328,0.049927473068237305,-0.0,-0.0,-1.0,0.017225239091823174,2.0
14.49287223815918,0.5351943969726562,0.04114127159118652,-0.0,-0.0,-1.0,0.08994883753021284,2.0
14.714766502380371,0.31700897216796875,0.008739471435546875,-0.0,-0.0,-1.0,0.014827012376128436,1.0
14.899138450622559,0.2517852783203125,-0.007895946502685547,-0.0,-0.0,-1.0,0.016173762374678328,2.0
14.878084182739258,-1.6923065185546875,0.1748030185699463,-0.5980521588478932,0.6227539438426,-0.5044909718972798,0.16898029451882743,8.0
13.46453857421875,-1.425455093383789,0.2801041603088379,-0.8014578271873024,-0.5977241257086309,-0.019779301960911353,0.2505411412652483,4.0
14.46403694152832,-0.2907218933105469,0.31360340118408203,0.44372381779325937,0.16442637894129866,-0.8809501344748332,0.26477010170881915,7.0
14.532546997070312,-0.7746715545654297,0.27025556564331055,0.04645746322654875,0.8334898608020237,-0.550578201576104,0.14899962285199073,5.0
14.621233940124512,-0.8680000305175781,0.25733160972595215,-0.9207567204719137,-0.371802707011845,-0.1181939455491309,0.16773764663626956,6.0
12.984992027282715,0.6340141296386719,0.06390166282653809,-0.0,-0.0,-1.0,0.15520342348014707,1.0
13.268227577209473,0.5124549865722656,0.04013323783874512,-0.0,-0.0,-1.0,0.06524242813239105,1.0
13.368427276611328,-1.327291488647461,0.7720768451690674,-0.0,-0.0,-1.0,0.15847979990191358,2.0
12.722091674804688,-1.285909652709961,0.11185026168823242,-0.0,-0.0,-1.0,0.1762508909119252,1.0
13.136955261230469,-1.1726188659667969,0.10365915298461914,-0.0,-0.0,-1.0,0.06622452840036669,1.0
13.118592262268066,0.015638351440429688,0.21965384483337402,-0.20053266463582664,-0.9546212699060035,-0.22019282789660594,0.24553838075380513,14.0
13.350578308105469,-0.5295143127441406,0.15589666366577148,-0.8230579884690946,0.557836735508046,-0.10674138904349285,0.08325871711463306,4.0
13.471871376037598,-1.2911052703857422,0.07605957984924316,-0.09840742918352012,0.1094922241161729,-0.9891043578609815,0.12239568302932773,3.0
13.82387924194336,-0.41110992431640625,0.14422106742858887,0.5741185135807914,-0.7404467090669905,0.3494661691718461,0.1964329513395929,3.0
13.894386291503906,-1.4283638000488281,0.04163026809692383,-0.0,-0.0,-1.0,0.06968331804934885,2.0
14.214120864868164,-0.21719932556152344,0.14318370819091797,-0.37070995391990574,-0.6610507723313168,-0.6523695321402364,0.16832367281327426,5.0
14.44979476928711,-0.11182975769042969,0.14102816581726074,0.11731708845733081,-0.7344832157679795,-0.668409385415123,0.21218048318203808,5.0
14.81857681274414,-0.46882057189941406,0.08619379997253418,-0.6912841307211111,0.6128481037216305,0.3828099428932845,0.06939965431116989,4.0
15.053600311279297,-0.7765483856201172,0.042999982833862305,-0.0,-0.0,-1.0,0.06946153595511417,1.0
13.548256874084473,-1.549722671508789,0.3314847946166992,0.3200285163959551,-0.6507152834603555,0.6885865004227959,0.18903925874733218,4.0
14.547410011291504,-0.7817478179931641,0.3554039001464844,-0.6647193794522632,-0.2414377922350617,-0.7070049073813117,0.18061069157943804,8.0
14.619811058044434,-0.8936653137207031,0.34163546562194824,0.28170761584446125,0.7641544159315771,-0.5802661870103235,0.1768787779570577,4.0
14.887703895568848,-1.6885089874267578,0.2555055618286133,0.3848138238006013,-0.7612756029553993,-0.5218982442553842,0.06908437750994667,3.0
12.712396621704102,-0.639251708984375,0.10031390190124512,-0.0,-0.0,-1.0,0.027814981632874308,1.0
13.092988014221191,-0.056453704833984375,0.14621901512145996,-0.752609363463814,0.47335470987909206,-0.45772750044308397,0.20619566753033478,9.0
13.29439640045166,-0.4669780731201172,0.08962512016296387,-0.698620968640126,-0.5609365675203921,-0.4441609048473009,0.05251503765057014,3.0
13.730936050415039,-0.16704750061035156,0.09979128837585449,0.7307171457456834,0.3336126379872279,-0.5956131804187047,0.09858817326832246,3.0
13.517423629760742,-0.5461959838867188,0.06877589225769043,-0.7104921271130213,0.2161661534354703,-0.6696813655906269,0.055330602927252906,4.0
13.850852966308594,-0.13750648498535156,0.09647822380065918,-0.20254450642699035,-0.9160266380269442,-0.34622380238987116,0.07409796297128529,3.0
13.999021530151367,-0.14032936096191406,0.0878288745880127,-0.08833413367869927,0.24409152302233267,-0.9657206683176416,0.15709897883933432,3.0
14.3847017288208,0.5252208709716797,0.14089155197143555,-0.0,-0.0,-1.0,0.10020024934198302,2.0
14.484506607055664,0.1352825164794922,0.09090781211853027,-0.7174911423706752,-0.6089060113841063,-0.3382897129974874,0.13048460801921036,3.0
14.630621910095215,0.06062126159667969,0.07376551628112793,-0.6739330798201084,-0.5325830188856285,-0.5120249329074259,0.09733927530034413,3.0
14.774927139282227,0.0053730010986328125,0.05877876281738281,-0.0,-0.0,-1.0,0.030564406825563738,2.0
14.993843078613281,-0.05268669128417969,0.03874993324279785,-0.0,-0.0,-1.0,0.03545216877111557,1.0
13.411009788513184,-1.3120975494384766,0.8042534589767456,-0.0,-0.0,-1.0,0.16524137588762203,1.0
13.06973648071289,-0.04577445983886719,0.18633556365966797,-0.6073894790668649,0.3693821933712974,-0.7033027910787015,0.22548055038290193,9.0
13.121841430664062,-0.7496261596679688,0.10403847694396973,-0.46651314724390125,-0.31074030847861106,-0.8281340133910743,0.02896578380657577,3.0
13.14668083190918,-0.03204154968261719,0.18486404418945312,0.18671815312034487,-0.9819437815781956,0.030376654115302795,0.2605610752794704,8.0
13.411054611206055,-0.6315593719482422,0.10560321807861328,-0.846416234113524,0.23909151997936462,-0.4758306460317973,0.08935578512940356,3.0
13.469537734985352,-0.9503154754638672,0.0667276382446289,0.6817377521811316,-0.20360062783804855,-0.7026951128298604,0.015936019683175085,3.0
13.802534103393555,-0.3105945587158203,0.12568306922912598,-0.4265161112351211,0.31230987064199384,-0.8488501349216193,0.12572202870278343,3.0
13.9306001663208,-0.688690185546875,0.07663846015930176,-0.0,-0.0,-1.0,0.20754566894991058,1.0
14.26455020904541,-0.15683555603027344,0.12258076667785645,-0.14390626630362524,-0.9862554470648704,-0.08118608041667719,0.17932564034138304,4.0
14.561209678649902,-0.12862396240234375,0.11182856559753418,-0.9570831262834864,0.288418383753768,-0.028402909996906714,0.08129694078521572,4.0
14.791704177856445,-0.3099498748779297,0.0797433853149414,-0.0,-0.0,-1.0,0.021735969518060113,2.0
15.065300941467285,-0.5118789672851562,0.04262495040893555,-0.0,-0.0,-1.0,0.04748075309231655,2.0
13.196552276611328,0.03193855285644531,0.9254286289215088,-0.0,-0.0,-1.0,0.19118101881576977,1.0
12.75658130645752,-1.3622760772705078,0.18399739265441895,-0.0,-0.0,-1.0,0.1151840370695306,1.0
13.192319869995117,-1.2438945770263672,0.17347049713134766,-0.0,-0.0,-1.0,0.1566962242907558,1.0
13.47545051574707,-1.3180294036865234,0.1480240821838379,0.13213553876994386,-0.986113088076214,0.1006040601505255,0.14617018203429324,3.0
13.716282844543457,-1.6303024291992188,0.0962514877319336,-0.6776352205659304,0.6065788486052269,-0.41577951882376335,0.07188214564291716,3.0
13.928845405578613,-1.6838207244873047,0.07652115821838379,-0.4491189660917403,0.549102809290597,0.7048249847485973,0.15938408577413954,3.0
14.312734603881836,-0.6279220581054688,0.17795872688293457,-0.0,-0.0,-1.0,0.1474664664958105,1.0
14.234864234924316,-1.6187763214111328,0.06452155113220215,-0.0,-0.0,-1.0,0.08889901327542436,1.0
14.859155654907227,-0.7994575500488281,0.1205437183380127,-0.0,-0.0,-1.0,0.03187186428202379,1.0
14.954852104187012,-1.205801010131836,0.06496310234069824,0.05357320374705526,0.3484171024613684,-0.9358073704308493,0.0510335437972343,3.0
15.156549453735352,-1.3388538360595703,0.03447318077087402,-0.0,-0.0,-1.0,0.08358201794349142,1.0
13.194220542907715,0.0056552886962890625,0.32091784477233887,-0.19858208495345717,0.722365215619867,-0.6623848207786778,0.244546003284996,6.0
14.304357528686523,-0.21900558471679688,0.22739005088806152,0.9340615012201553,-0.0945442974926547,0.34436969632935227,0.14458856720451976,3.0
14.535871505737305,-0.03850364685058594,0.23381924629211426,-0.0,-0.0,-1.0,0.14821342967658876,1.0
14.681047439575195,-0.2676658630371094,0.19660329818725586,-0.0,-0.0,-1.0,0.13632718904430252,2.0
12.718574523925781,-1.119232177734375,0.22621822357177734,-0.0,-0.0,-1.0,0.27875830789004374,1.0
12.765710830688477,-1.5583763122558594,0.17449069023132324,0.20162620326255756,-0.4930627378198031,-0.8463072791436722,0.1283180471407126,4.0
13.231350898742676,-1.2756080627441406,0.18804383277893066,-0.0,-0.0,-1.0,0.14151633560003352,2.0
13.398520469665527,-1.7350921630859375,0.1282501220703125,-0.0,-0.0,-1.0,0.05757900836125763,2.0
13.370983123779297,-1.314432144165039,0.1777181625366211,-0.0,-0.0,-1.0,0.17419434317223498,1.0
13.624407768249512,-1.5323066711425781,0.14156866073608398,-0.0,-0.0,-1.0,0.19114239306409722,1.0
15.036893844604492,-1.6079082489013672,0.06195068359375,-0.9951935969940122,0.016122010019652615,0.09659081371976279,0.11974210623077927,7.0
12.816535949707031,0.5726432800292969,0.41430628299713135,-0.0,-0.0,-1.0,0.1565086925187367,1.0
13.30953598022461,0.06564903259277344,0.33814048767089844,-0.0,-0.0,-1.0,0.2170148012049496,1.0
14.306878089904785,-0.29082679748535156,0.2530527114868164,0.4838499578989998,0.44778567011447645,-0.7519156946634808,0.2522346283917114,3.0
14.728550910949707,-0.6819534301757812,0.1864457130432129,-0.0,-0.0,-1.0,0.20340929882897343,1.0
13.568593978881836,-1.412343978881836,0.4397953748703003,0.5412244248760616,-0.6881839387739971,0.48319663526465495,0.2021557846586477,3.0
15.10982608795166,-1.6527690887451172,0.35033905506134033,-0.0,-0.0,-1.0,0.12189916167049067,1.0
14.608673095703125,-0.3743247985839844,0.505499005317688,-0.0,-0.0,-1.0,0.1455078974696337,1.0
14.738277435302734,-0.8182754516601562,0.4540163278579712,-0.0,-0.0,-1.0,0.11452950712463927,1.0
12.745824813842773,0.1833019256591797,0.07877707481384277,-0.0,-0.0,-1.0,0.06280973687094499,2.0
12.878042221069336,0.182098388671875,0.07678008079528809,-0.0,-0.0,-1.0,0.0796816833026959,2.0
13.093709945678711,0.05841255187988281,0.05736136436462402,-0.0,-0.0,-1.0,0.1658627580025506,1.0
13.436068534851074,0.0051517486572265625,0.04410219192504883,-0.0,-0.0,-1.0,0.055942473785937766,1.0
13.67138385772705,0.00580596923828125,0.03914761543273926,-0.0,-0.0,-1.0,0.02399114702933622,1.0
14.009029388427734,0.05202674865722656,0.03706669807434082,-0.0,-0.0,-1.0,0.05746767618188342,1.0
15.04503059387207,-0.18227386474609375,-0.026369094848632812,0.3253638574264837,-0.9455713352660597,-0.00576282948899952,0.05610355675286154,4.0
14.362438201904297,0.15043067932128906,0.04033160209655762,-0.0,-0.0,-1.0,0.05729070542631546,1.0
14.635478019714355,0.06063270568847656,0.020070791244506836,-0.0,-0.0,-1.0,0.03924521254324018,2.0
14.264928817749023,0.5883312225341797,0.10102725028991699,-0.0,-0.0,-1.0,0.12788604099592457,2.0
14.959571838378906,-0.10299110412597656,-0.012666463851928711,-0.0,-0.0,-1.0,0.04019099338910007,2.0
13.148283004760742,-1.320901870727539,0.5940585136413574,-0.0,-0.0,-1.0,0.0762145544119609,2.0
13.34023380279541,-1.4172115325927734,0.3733255863189697,-0.0,-0.0,-1.0,0.26870935898879866,2.0
13.050398826599121,0.03782463073730469,0.530601978302002,-0.0,-0.0,-1.0,0.18900778473363974,1.0
14.389998435974121,-0.6670646667480469,0.4381582736968994,-0.2708612040986338,0.25895250539047326,-0.9271341909703446,0.07767266111763538,4.0
14.557853698730469,-1.0569267272949219,0.39230799674987793,-0.0,-0.0,-1.0,0.161674907484557,1.0
12.951255798339844,-1.5305957794189453,0.3433847427368164,-0.0,-0.0,-1.0,0.16914861500777165,1.0
14.681220054626465,0.6342258453369141,-0.03582143783569336,-0.0,-0.0,-1.0,0.05160697105739169,1.0
13.173412322998047,0.03577613830566406,0.5115957260131836,-0.0,-0.0,-1.0,0.13254650698239162,2.0
14.033121109008789,-0.16994476318359375,0.49067914485931396,-0.0,-0.0,-1.0,0.10123429901413884,1.0
12.761682510375977,-1.1433353424072266,0.2947216033935547,-0.0,-0.0,-1.0,0.13341122235574407,2.0
12.916034698486328,-1.4612560272216797,0.26885509490966797,-0.0,-0.0,-1.0,0.20083083178255612,1.0
13.45104694366455,-1.4152641296386719,0.2908210754394531,-0.5734078535750391,-0.8173941145367742,0.055410242546930694,0.2269312991275371,3.0
14.838859558105469,-1.6857738494873047,0.29593372344970703,-0.0,-0.0,-1.0,0.12361156963329649,2.0
14.628704071044922,-0.8873939514160156,0.37577366828918457,0.5417003826189315,0.6079062156152034,-0.5805262513331378,0.18636342414291887,4.0
13.110564231872559,0.017711639404296875,0.42154884338378906,0.054401871499277166,0.8569834968242546,-0.5124643622226323,0.22275864419489907,5.0
14.483354568481445,-1.8168296813964844,0.057506561279296875,-0.0,-0.0,-1.0,0.09214522885187065,2.0
13.92497444152832,-1.5081787109375,0.06482982635498047,-0.0,-0.0,-1.0,0.06894534680361068,2.0
14.756357192993164,-1.588113784790039,0.09398269653320312,-0.0,-0.0,-1.0,0.08685394733800873,1.0
14.934945106506348,-1.5902442932128906,0.101043701171875,0.4018526432894197,0.677659902484026,-0.6158664706303201,0.161030218037904,10.0
13.363523483276367,-0.9175090789794922,0.09717941284179688,0.5605209705502974,0.5682285217979807,-0.6024388670965996,0.02262918521445583,3.0
14.62779426574707,-1.092987060546875,0.14215898513793945,-0.0,-0.0,-1.0,0.1473947651887623,1.0
13.06956958770752,-0.6129074096679688,0.1113595962524414,-0.0,-0.0,-1.0,0.032441872884172,1.0
13.45716381072998,-0.5514984130859375,0.13993024826049805,-0.0,-0.0,-1.0,0.10050378469592643,2.0
13.866617202758789,-0.40253257751464844,0.17800283432006836,-0.0,-0.0,-1.0,0.17448232923496576,1.0
14.453306198120117,-0.6636772155761719,0.18018674850463867,-0.0,-0.0,-1.0,0.1784063794538179,1.0
14.560445785522461,-0.7460155487060547,0.17640066146850586,-0.10867409315163422,0.861541931965091,-0.49591878462458777,0.23557855303376118,6.0
12.798155784606934,-0.05022621154785156,0.15097427368164062,-0.0,-0.0,-1.0,0.17540155157076967,1.0
13.109692573547363,-0.028873443603515625,0.17258906364440918,-0.30250462372074943,0.3678208821121721,-0.879317207445522,0.2595482562668432,13.0
14.075756072998047,-0.17751312255859375,0.21255731582641602,-0.0,-0.0,-1.0,0.20622623173556132,1.0
14.332382202148438,-0.14069366455078125,0.22962665557861328,0.4292248543119146,-0.8024543391432511,-0.4145275117903312,0.20186401246583754,4.0
14.319109916687012,-0.015392303466796875,0.2421882152557373,-0.0,-0.0,-1.0,0.20236886345585028,1.0
14.57555866241455,0.4577655792236328,0.04235196113586426,-0.6894632309754416,-0.6441067170229888,-0.3313110173519319,0.05821259231869413,4.0
14.85954475402832,0.2776966094970703,0.03619194030761719,-0.0,-0.0,-1.0,0.01684943931096288,2.0
13.069345474243164,0.14743423461914062,0.6005831956863403,-0.0,-0.0,-1.0,0.19613975290717844,1.0
15.149700164794922,-0.47945213317871094,0.014742374420166016,-0.0,-0.0,-1.0,0.03188654380538163,2.0
14.701066017150879,0.012966156005859375,0.04638934135437012,-0.0,-0.0,-1.0,0.03522716629119526,2.0
14.987004280090332,-0.21812820434570312,0.03580284118652344,-0.49080103331757846,-0.14787290496717245,-0.8586314399502073,0.04410467094795333,4.0
13.797697067260742,0.46138572692871094,0.041797637939453125,-0.17442770958872772,-0.18733669151060425,-0.9666850253011531,0.023047739345207412,3.0
14.394944190979004,0.194244384765625,0.04913187026977539,-0.0,-0.0,-1.0,0.042169717514022445,1.0
14.509530067443848,0.1293163299560547,0.04857349395751953,-0.7174911423706752,-0.6089060113841063,-0.3382897129974874,0.1184879028352339,3.0
13.285035133361816,0.6374092102050781,0.026705026626586914,-0.0,-0.0,-1.0,0.08592944949954903,1.0
14.51416301727295,0.5264186859130859,0.09142923355102539,-0.0,-0.0,-1.0,0.07798894666470016,1.0
13.245903015136719,0.09313774108886719,0.6660500764846802,-0.6220222341892633,-0.7294014343280133,0.28471369439216254,0.1984575801164845,5.0
14.791089057922363,0.3337974548339844,0.04097604751586914,-0.0,-0.0,-1.0,0.03035570131177982,1.0
15.08740520477295,0.6242580413818359,0.09003114700317383,-0.0,-0.0,-1.0,0.15510515699651678,2.0
14.849091529846191,0.2683734893798828,0.006105661392211914,-0.0,-0.0,-1.0,0.016849439310962864,2.0
14.962362289428711,0.13624191284179688,0.0009882450103759766,0.19344564304309037,-0.7486155340634916,-0.6341557894922024,0.018807925529596436,4.0
14.577119827270508,0.5302276611328125,0.012183666229248047,-0.0,-0.0,-1.0,0.05477424056806581,2.0
15.118739128112793,-0.2253246307373047,0.04562783241271973,-0.0,-0.0,-1.0,0.0538035910734483,1.0
14.799165725708008,0.17127418518066406,0.057329416275024414,-0.0,-0.0,-1.0,0.013729110982974824,1.0
14.903375625610352,0.017335891723632812,0.05167984962463379,-0.0,-0.0,-1.0,0.022781983824475563,1.0
14.585962295532227,0.5736007690429688,0.07545328140258789,-0.0,-0.0,-1.0,0.1151712791542126,1.0
13.223671913146973,0.10924148559570312,0.6892008781433105,-0.2771060661255993,-0.9594271459841492,0.05207475074453034,0.2231578834465518,6.0
14.168126106262207,-0.19946861267089844,0.5105321407318115,-0.0,-0.0,-1.0,0.12267024487562249,2.0
13.530303001403809,-1.6173038482666016,0.1257493495941162,-0.32518851987947317,0.3375396570849591,-0.8833568964091274,0.12014360423990636,4.0
14.110127449035645,-1.6173534393310547,0.15983045101165771,-0.0,-0.0,-1.0,0.1491619311853875,1.0
13.476283073425293,-1.4900703430175781,0.12678182125091553,0.15872229868078963,0.03246598544169183,-0.9867893350106627,0.21310669337246702,3.0
13.351703643798828,-1.007598876953125,0.13489842414855957,-0.0,-0.0,-1.0,0.08544518682587174,1.0
13.381632804870605,-0.5055294036865234,0.15249502658843994,-0.5836477518930794,0.696471166090554,-0.4174724140762097,0.06870203903319672,3.0
14.636131286621094,-0.8580665588378906,0.21698784828186035,-0.9569956238918897,-0.2464268681794587,-0.15307898121896515,0.15962614680590112,4.0
14.542719841003418,-0.6776218414306641,0.2177518606185913,0.8557632330199609,-0.2832210911745301,0.4329608556499449,0.24000157638900557,3.0
14.004719734191895,-0.2784709930419922,0.19847381114959717,-0.0,-0.0,-1.0,0.18980911337650724,1.0
14.433669090270996,-0.030330657958984375,0.23280274868011475,0.2936272205059515,-0.8000636434830887,-0.523145507248714,0.18069672712083945,4.0
14.485151290893555,-0.19827842712402344,0.2304384708404541,0.5151951194689608,-0.03536989323333358,-0.8563427815588951,0.2261872509710981,6.0
15.186517715454102,-1.5085296630859375,-0.011168956756591797,-0.0,-0.0,-1.0,0.15305126769810815,2.0
15.135061264038086,-0.4712200164794922,0.02915823459625244,-0.0,-0.0,-1.0,0.03479418533672866,2.0
15.085111618041992,-0.2917518615722656,0.034148216247558594,-0.4519141041991667,-0.3709210516975004,-0.8112898469927287,0.04552902560953127,3.0
13.243675231933594,0.11731815338134766,0.6068205237388611,-0.0,-0.0,-1.0,0.1879247208023378,2.0
13.141925811767578,0.11806011199951172,0.3729422092437744,-0.7519936732836351,0.658866611263423,-0.02000759614843462,0.21367305012107335,4.0
13.472469329833984,-1.3041458129882812,0.3871645927429199,-0.0,-0.0,-1.0,0.17706892280475067,1.0
13.093467712402344,-0.37496471405029297,0.2094111442565918,-0.0,-0.0,-1.0,0.10793286158714473,1.0
12.997661590576172,-0.5495786666870117,0.19180583953857422,-0.0,-0.0,-1.0,0.038344200163633324,1.0
13.077014923095703,-1.5977392196655273,0.08392179012298584,-0.0,-0.0,-1.0,0.08109755393938205,1.0
14.395851135253906,-0.4419136047363281,0.20079350471496582,-0.0,-0.0,-1.0,0.11478136109084515,1.0
14.674785614013672,-1.1942977905273438,0.1224287748336792,-0.0,-0.0,-1.0,0.10009810179802436,1.0
14.91176986694336,0.5901470184326172,0.016396760940551758,-0.0,-0.0,-1.0,0.15097111076732245,1.0
14.702831268310547,0.26271820068359375,-7.05718994140625e-05,-0.7165861870799874,-0.6680593242345177,-0.20050180994067068,0.0137470511770814,3.0
14.76910400390625,0.41394805908203125,0.006700754165649414,-0.0,-0.0,-1.0,0.03139030859069662,1.0
13.443634033203125,-1.4894065856933594,0.7367420792579651,-0.0,-0.0,-1.0,0.17424861590110932,1.0
13.154060363769531,-0.1254863739013672,0.21821773052215576,0.3296322230853136,0.16735895550805643,-0.9291574557173216,0.22080889445277524,3.0
14.598379135131836,-0.9212255477905273,0.46915119886398315,-0.0,-0.0,-1.0,0.13593409884128502,1.0
13.582048416137695,-1.6575584411621094,0.43607378005981445,-0.0,-0.0,-1.0,0.11568457983388608,1.0
14.466171264648438,-0.3368558883666992,0.3798515200614929,0.5969079153424717,-0.8008405645244229,-0.04853175057329866,0.1805382655213374,3.0
13.09065055847168,-0.06502914428710938,0.36031049489974976,-0.38388761430952234,0.6597148644486863,-0.6460701178704946,0.1671824086605263,4.0
13.03616714477539,-0.09211158752441406,0.3585436940193176,-0.0,-0.0,-1.0,0.21139503486529523,2.0
14.422399520874023,-0.8433465957641602,0.36582374572753906,-0.0,-0.0,-1.0,0.1897180222866467,1.0
13.320110321044922,-1.5030174255371094,0.32713913917541504,0.6931773447048817,0.4750562329512711,-0.542057879125502,0.19450872109307138,3.0
13.154157638549805,0.11211299896240234,0.6996527314186096,0.03907265935802688,-0.13048843726133905,-0.9906796127062395,0.22743980332211888,4.0
14.503673553466797,-0.1981067657470703,0.20942234992980957,0.5391299757836027,0.39536717749166095,-0.7436556085809137,0.19149705694104213,7.0
14.58657455444336,-0.7434492111206055,0.19068801403045654,0.2176487951210639,-0.9592614708470911,-0.18012893307468505,0.2502397668694779,5.0
13.189741134643555,-0.0654306411743164,0.1853564977645874,-0.8849760306837663,-0.16519294676502505,0.4353489582556651,0.26411178664944135,3.0
13.11240005493164,0.014945030212402344,0.18662536144256592,-0.5246372887682512,-0.5684057344804401,0.6337749097618575,0.19637632695222582,12.0
14.670207977294922,-0.8089351654052734,0.19003498554229736,-0.0,-0.0,-1.0,0.15007348143979785,2.0
14.05306625366211,-0.6845760345458984,0.18123388290405273,-0.0,-0.0,-1.0,0.19618441683755947,1.0
14.793083190917969,-1.833505630493164,0.15364909172058105,-0.0,-0.0,-1.0,0.16045131976164204,1.0
14.068828582763672,-1.7776823043823242,0.140144944190979,0.871898593682292,0.36698798509800235,0.3242108282099012,0.12160800105445403,4.0
13.323015213012695,-1.520315170288086,0.13370025157928467,-0.0,-0.0,-1.0,0.09188389670366244,1.0
13.164920806884766,-1.3033695220947266,0.13844740390777588,0.27583899462801575,-0.8057278659880601,-0.5241330508686999,0.17123919714302538,6.0
13.49384880065918,-1.859694480895996,0.1245490312576294,-0.0,-0.0,-1.0,0.050040098706442424,2.0
13.207765579223633,0.053946495056152344,0.6077682375907898,0.608681603702659,-0.4395360920198192,-0.6605412395345988,0.19299904357150463,3.0
13.126047134399414,0.12363815307617188,0.6076847314834595,0.09613595904881227,-0.390883140037863,-0.9154060564645099,0.23046881107653927,4.0
15.163810729980469,0.08312797546386719,-0.0062482357025146484,-0.0,-0.0,-1.0,0.020408267636588803,1.0
15.045694351196289,0.22751617431640625,-0.00620722770690918,-0.0,-0.0,-1.0,0.013734942727183728,1.0
15.00990104675293,0.12628936767578125,0.0104600191116333,-0.18921363062014546,-0.978769896383929,-0.0787889073419344,0.018738208893445372,3.0
15.097169876098633,0.02394390106201172,0.009334564208984375,-0.0,-0.0,-1.0,0.02827798598190497,1.0
14.506885528564453,-0.31488513946533203,0.314211368560791,-0.15576205370155177,-0.4314463613246501,-0.8885900179083682,0.19198668298824234,4.0
14.21236801147461,-0.18925762176513672,0.31284213066101074,-0.0,-0.0,-1.0,0.16094080521756002,1.0
14.613908767700195,-0.737762451171875,0.30138373374938965,0.26965227007792064,0.5261869855661774,-0.8064830497056983,0.2627455143256616,4.0
14.165313720703125,-0.4531383514404297,0.3026682138442993,-0.0,-0.0,-1.0,0.08002111443294542,2.0
13.158145904541016,-0.036881446838378906,0.29725879430770874,-0.8790159732167065,-0.47296125666106703,-0.060320548136355276,0.20684633438536076,12.0
14.927522659301758,-1.7330188751220703,0.271952748298645,-0.0,-0.0,-1.0,0.12452485970950977,1.0
13.436534881591797,-1.4837207794189453,0.25216400623321533,0.8361470196576101,-0.059864412104285794,-0.5452287718757187,0.22727756908016492,3.0
13.204607009887695,-1.4251823425292969,0.24970877170562744,-0.0,-0.0,-1.0,0.21213970845998092,2.0
12.817182540893555,-1.8394451141357422,0.2275606393814087,-0.0,-0.0,-1.0,0.12531814620375534,1.0
14.438838958740234,-0.0768890380859375,0.20275962352752686,-0.38581348921254643,0.5189672909399949,-0.7627718548006622,0.17486631660831398,5.0
14.597814559936523,-0.28712940216064453,0.19905555248260498,0.9059349295152476,0.2352614902357714,-0.35204251830744426,0.157297159108642,3.0
14.632318496704102,-0.7740535736083984,0.18145453929901123,-0.8525151594001549,-0.2939344474720683,-0.43222730545653704,0.27197935142564345,3.0
14.959009170532227,-1.7295970916748047,0.1533801555633545,0.5929113040044566,-0.4151283668497699,-0.690017843697087,0.2033979865662623,3.0
13.137657165527344,-1.2920150756835938,0.12194585800170898,0.4157703580577768,-0.362409840285026,-0.8341427437945431,0.12616458516512996,5.0
12.725393295288086,-1.0203094482421875,0.12112724781036377,-0.0,-0.0,-1.0,0.14809393301182813,1.0
14.060417175292969,-1.737112045288086,0.12950921058654785,0.9492296235850435,0.28053856883677647,-0.14234195833839683,0.14230253621511776,4.0
13.451850891113281,-1.7647895812988281,0.11234855651855469,-0.5166741038217698,0.8259792001395352,-0.22540237659976917,0.05399615153238626,3.0
13.207635879516602,-1.5996322631835938,0.11214804649353027,-0.0,-0.0,-1.0,0.10316925988757464,1.0
14.365118026733398,-0.012705802917480469,0.4711458683013916,-0.0,-0.0,-1.0,0.19403369559851352,1.0
13.133363723754883,0.10571861267089844,0.4443640112876892,-0.0,-0.0,-1.0,0.1528541681948966,2.0
13.418310165405273,-1.4869194030761719,0.41231513023376465,-0.0,-0.0,-1.0,0.1552699258420448,2.0
14.667930603027344,-0.12375259399414062,0.10450232028961182,0.4577072783137722,0.802181191194299,-0.3834180275791613,0.0463498644469587,3.0
14.89065933227539,-0.5302944183349609,0.09517991542816162,0.1737987220760213,-0.4940550366637058,-0.8518824008934367,0.06746564147599302,3.0
14.746410369873047,-0.29447364807128906,0.1001356840133667,0.3407234272197865,-0.2748593621489068,-0.8990883589407102,0.09513364641684012,3.0
13.394264221191406,0.0496978759765625,0.07153546810150146,-0.9511246953225606,0.17365019597764725,-0.25535744239103547,0.059597671117323614,3.0
14.85036849975586,-0.9831371307373047,0.07571375370025635,-0.46788883775828194,0.8836403794731879,0.01611568384168046,0.04063710818941557,4.0
14.870328903198242,-1.1443042755126953,0.06983017921447754,-0.0,-0.0,-1.0,0.054001237003919796,1.0
15.06606674194336,-1.6833763122558594,0.05401170253753662,-0.6836805488249399,0.7297526539297046,0.006478521511998316,0.09342996034306393,4.0
14.586874008178711,-1.8096389770507812,0.03419458866119385,-0.0,-0.0,-1.0,0.10090701954571556,2.0
14.51004409790039,-1.6308765411376953,0.03906130790710449,-0.0,-0.0,-1.0,0.08876734554609168,1.0
13.13140869140625,-0.2631072998046875,0.3053167462348938,-0.0,-0.0,-1.0,0.1825270690794041,1.0
14.634893417358398,-0.7922744750976562,0.354638934135437,0.7283509513970134,-0.327647535835266,-0.6017906478669668,0.17540896723207278,3.0
12.781482696533203,-1.1916255950927734,0.2767370939254761,-0.18730024030045853,-0.7185523065790431,-0.6697769798174069,0.1664586837688883,3.0
14.191713333129883,-0.1484527587890625,0.12686574459075928,0.9846922224320018,0.1275001207531338,-0.11884841727958174,0.18605726806483316,3.0
13.87632942199707,-0.2502765655517578,0.11257576942443848,0.4228226295643641,-0.19132236254036947,-0.8857859659761199,0.11633812709288668,4.0
13.694120407104492,-0.20427703857421875,0.10825026035308838,-0.0,-0.0,-1.0,0.07105674085650329,1.0
13.310884475708008,-0.125396728515625,0.09842038154602051,-0.0,-0.0,-1.0,0.11809650281123775,1.0
14.7924222946167,-1.0528068542480469,0.11221516132354736,-0.2457968476858619,0.9062044463545352,0.34406018525101584,0.06422857733408953,3.0
14.738557815551758,-0.9236106872558594,0.11540007591247559,0.9657224828607708,-0.2521489739010872,0.06165209694614555,0.044564773214646865,8.0
13.30799674987793,-0.4802818298339844,0.08503460884094238,-0.698620968640126,-0.5609365675203921,-0.4441609048473009,0.05581236924526179,3.0
13.187475204467773,-0.41858863830566406,0.08332633972167969,-0.0,-0.0,-1.0,0.06869068816594306,1.0
14.763845443725586,-1.2102928161621094,0.10525894165039062,-0.0,-0.0,-1.0,0.0585544431297946,1.0
14.943839073181152,-1.63201904296875,0.0948876142501831,-0.2913645152659384,0.357206382563796,-0.8874177818251852,0.2049056876655654,10.0
14.388445854187012,-0.05692291259765625,0.13682794570922852,0.3194223757171891,0.1666504995295528,-0.9328434793135112,0.12882714251494523,4.0
13.203463554382324,-1.4811630249023438,0.2427825927734375,-0.0,-0.0,-1.0,0.17962725982775063,1.0
13.064875602722168,-1.391946792602539,0.24279165267944336,0.9699053936893822,0.20324503051720416,-0.13407082032383036,0.24357818102441967,3.0
14.131937026977539,-0.29196929931640625,0.3088764548301697,0.35760749075785353,-0.1843054319282408,-0.9155044458196891,0.20200840895891556,6.0
14.17458724975586,-0.48238372802734375,0.30283141136169434,-0.0,-0.0,-1.0,0.09442583983441082,2.0
13.152505874633789,-0.059474945068359375,0.28877079486846924,0.8498253641186618,-0.4289945689364495,0.30620338065346975,0.17935320583355507,8.0
14.440606117248535,0.46871376037597656,0.1517341136932373,-0.0,-0.0,-1.0,0.10336436192706011,1.0
13.0888032913208,0.5672340393066406,0.1512686014175415,-0.0,-0.0,-1.0,0.18092363655552038,2.0
13.365403175354004,0.09017562866210938,0.12205612659454346,-0.0,-0.0,-1.0,0.07005594016232462,1.0
12.89926815032959,0.05161857604980469,0.11716020107269287,-0.8993370413047079,-0.18994873215937028,-0.39384307190598405,0.1074971353594388,3.0
14.893583297729492,-0.44699859619140625,0.09422969818115234,-0.0,-0.0,-1.0,0.061489008707044324,2.0
14.083721160888672,-0.1927814483642578,0.10725188255310059,-0.3924815048956291,0.10304977469629029,-0.9139688245503271,0.13917838629155127,5.0
13.814534187316895,-0.18137359619140625,0.10673487186431885,0.7518457718104231,0.017991007284084138,-0.6590935131433876,0.12028590609078527,8.0
13.250017166137695,-0.3637409210205078,0.09221827983856201,-0.5455783788423577,-0.7910361918622406,0.2767778453992103,0.0709851529800409,3.0
15.01025104522705,-0.6003303527832031,0.08469688892364502,-0.0,-0.0,-1.0,0.04282606312349364,2.0
13.387716293334961,-0.49921607971191406,0.08415019512176514,0.6189056569177569,0.08796574124044614,-0.7805240651019151,0.06979628317325469,5.0
14.427417755126953,0.5748062133789062,0.0731438398361206,0.32067575659881536,-0.6998851152478038,-0.6382224413042412,0.08575142510233348,4.0
13.775754928588867,0.5543498992919922,0.06723892688751221,-0.0,-0.0,-1.0,0.023047739345207475,1.0
13.148137092590332,0.4770011901855469,0.057346463203430176,-0.0,-0.0,-1.0,0.08964523635736103,1.0
12.758061408996582,0.326629638671875,0.04405200481414795,-0.0,-0.0,-1.0,0.08608644279758003,1.0
14.5747652053833,0.4257965087890625,0.06374180316925049,0.6122930898721333,-0.45010138561149204,-0.6500045498036539,0.07541019892435509,3.0
13.170472145080566,0.03515625,0.43955981731414795,-0.0,-0.0,-1.0,0.19005228285784756,1.0
13.004799842834473,-1.3685302734375,0.3646082878112793,-0.0,-0.0,-1.0,0.20335368347540866,1.0
13.125971794128418,-1.460763931274414,0.35902106761932373,-0.0,-0.0,-1.0,0.16497759514165908,2.0
12.862648010253906,0.44718456268310547,-0.0003650188446044922,-0.0,-0.0,-1.0,0.12577289277098316,2.0
14.537473678588867,0.6362457275390625,0.03953897953033447,-0.0,-0.0,-1.0,0.06825419051497018,2.0
14.964317321777344,0.2162647247314453,0.01496577262878418,-0.0,-0.0,-1.0,0.013410927655354293,2.0
14.675030708312988,0.28761863708496094,0.01632094383239746,-0.0,-0.0,-1.0,0.01500768890375978,2.0
13.055577278137207,0.19058513641357422,0.36230385303497314,-0.0,-0.0,-1.0,0.20533420867382504,1.0
13.176161766052246,0.1428050994873047,0.35548269748687744,-0.3544310644560871,0.7860055487612778,0.5065312407591539,0.2406278405485522,6.0
14.325071334838867,0.06436634063720703,0.3167603611946106,-0.0,-0.0,-1.0,0.15820928421211644,2.0
14.048718452453613,-0.26035118103027344,0.29983776807785034,-0.0,-0.0,-1.0,0.19092649568794873,1.0
13.793502807617188,-0.41205787658691406,0.29562264680862427,-0.0,-0.0,-1.0,0.1345121819380073,1.0
12.880338668823242,-1.1501073837280273,0.2650853395462036,-0.0,-0.0,-1.0,0.12733607118343276,2.0
14.544897079467773,-0.5987882614135742,0.25848138332366943,-0.0,-0.0,-1.0,0.1285017052567313,2.0
13.233847618103027,-1.2925405502319336,0.24403738975524902,-0.0,-0.0,-1.0,0.09257026207808709,1.0
13.032946586608887,-1.2419252395629883,0.25373899936676025,0.11168666141238477,0.4634020521879748,-0.8790816956862023,0.19146317341174876,4.0
14.473599433898926,-1.3182954788208008,0.20440447330474854,-0.0,-0.0,-1.0,0.12428061947562281,1.0
12.751991271972656,0.6303272247314453,-0.007306575775146484,-0.0,-0.0,-1.0,0.15977812185258303,1.0
14.544546127319336,0.6107997894287109,-0.02534627914428711,-0.0,-0.0,-1.0,0.06876393333077337,1.0
12.80363655090332,-1.1631698608398438,0.46574342250823975,-0.0,-0.0,-1.0,0.09860384296742815,1.0
13.089415550231934,-1.4387493133544922,0.44023799896240234,-0.0,-0.0,-1.0,0.1617030847502086,1.0
14.322821617126465,-0.5260066986083984,0.46628689765930176,-0.0,-0.0,-1.0,0.12105720554012332,1.0
13.109506607055664,0.15958213806152344,0.3754239082336426,-0.0,-0.0,-1.0,0.20179860656529142,1.0
13.17181396484375,0.038524627685546875,0.36425715684890747,-0.6913345545549271,-0.699153264965206,0.1823218192286182,0.2738875065805596,7.0
13.836209297180176,-0.1291799545288086,0.3333689570426941,-0.2245238104235244,0.5976138204056991,-0.7697056451741833,0.12796575568511626,5.0
14.388639450073242,-0.0009975433349609375,0.3282858729362488,0.24211703118051361,0.15886452624282946,-0.9571527597588464,0.15700759986077956,3.0
13.38880443572998,-1.3711738586425781,0.24566030502319336,-0.0,-0.0,-1.0,0.19374084933565514,2.0
13.190506935119629,-1.4120550155639648,0.2477947473526001,0.6772350738603167,0.7342663555435469,0.046963537454171034,0.23208819567052558,3.0
12.780734062194824,-1.7582101821899414,0.2311307191848755,-0.0,-0.0,-1.0,0.1375961322625907,2.0
14.639508247375488,-0.6337852478027344,0.269398033618927,-0.0,-0.0,-1.0,0.20614445146566582,1.0
14.193914413452148,-0.6601600646972656,0.2803959846496582,0.6392595846238325,0.03539406035834746,-0.7681760501069494,0.16971576205240632,3.0
13.542115211486816,-1.4740781784057617,0.23305094242095947,-0.0,-0.0,-1.0,0.29489013592484487,1.0
14.678442001342773,-0.82965087890625,0.2521892786026001,-0.0,-0.0,-1.0,0.12151797025978592,1.0
14.996227264404297,-1.690382957458496,0.17136991024017334,0.5034910172670266,-0.18765775689709877,-0.8433749829155262,0.21406912410981774,3.0
14.898613929748535,-1.6261377334594727,0.17981243133544922,-0.4443676793364623,-0.17691954206645014,-0.8782009116347609,0.0992267619857252,8.0
