x,y,z,nx,ny,nz,curvature,density,label
25.76708984375,-25.557605743408203,1.060356855392456,0.24234323082511172,0.6498509432042938,-0.7203912201642497,0.1491115716611654,6.0,2
25.813243865966797,-25.814512252807617,1.0528037548065186,-0.0,-0.0,-1.0,0.20957976985344587,2.0,2
26.024538040161133,-26.119342803955078,1.0670562982559204,0.9871725154595686,-0.15073299923537364,0.05263067226187183,0.18313861866098033,3.0,2
26.22342872619629,-25.84296226501465,1.1156960725784302,-0.0,-0.0,-1.0,0.16681657227642485,1.0,2
26.26019287109375,-26.154064178466797,1.1011708974838257,-0.0,-0.0,-1.0,0.16063117896536547,2.0,2
26.32894515991211,-26.600971221923828,1.0804460048675537,-0.0,-0.0,-1.0,0.08389233462750777,1.0,2
26.696495056152344,-25.073646545410156,1.2364445924758911,-0.0,-0.0,-1.0,0.10959597950339606,1.0,2
26.67397689819336,-25.250408172607422,1.222672462463379,-0.0,-0.0,-1.0,0.1636739948928667,2.0,2
26.695844650268555,-26.229185104370117,1.1624281406402588,-0.0,-0.0,-1.0,0.10769028530249251,1.0,2
27.001956939697266,-24.8149471282959,1.2998363971710205,0.4924225871455616,0.52174323148996,-0.6966376361231755,0.22930995917207486,3.0,2
27.24429702758789,-26.393863677978516,1.2316571474075317,-0.0,-0.0,-1.0,0.12602666823514622,2.0,2
27.562973022460938,-26.351062774658203,1.2814267873764038,-0.0,-0.0,-1.0,0.20353230067567396,1.0,2
25.91868782043457,-25.868268966674805,1.5786573886871338,-0.0,-0.0,-1.0,0.14496218025919264,1.0,2
26.082599639892578,-26.043455123901367,1.5910296440124512,-0.0,-0.0,-1.0,0.13198856883285437,1.0,2
26.107120513916016,-25.67198944091797,1.4421688318252563,-0.0,-0.0,-1.0,0.14033149258450556,2.0,2
26.320789337158203,-26.11306381225586,1.4490119218826294,-0.0,-0.0,-1.0,0.06507330964884513,2.0,2
25.404783248901367,-24.50434112548828,0.7669332027435303,0.5939179957392249,0.5779065788719735,-0.5597190370476899,0.12315566732449143,3.0,1
25.52569580078125,-24.878965377807617,0.774276852607727,-0.0,-0.0,-1.0,0.04169072677010719,1.0,1
25.679058074951172,-25.307497024536133,0.7818825244903564,-0.0,-0.0,-1.0,0.15616003597115558,1.0,1
25.284198760986328,-26.444217681884766,1.0013387203216553,-0.0,-0.0,-1.0,0.13892409115257695,2.0,2
25.917701721191406,-25.51580047607422,0.8157497644424438,-0.05957739119863464,0.1643762845178438,-0.9845968573716216,0.09450529901969307,3.0,1
25.976411819458008,-25.68255615234375,0.816203236579895,-0.0,-0.0,-1.0,0.12702667300977188,1.0,1
26.25163459777832,-25.882728576660156,0.8546751737594604,-0.0,-0.0,-1.0,0.10399833476639388,2.0,1
26.402950286865234,-26.10675811767578,0.8663173913955688,-0.0,-0.0,-1.0,0.12596001432529338,1.0,1
26.58354377746582,-24.379417419433594,0.7097554206848145,-0.0,-0.0,-1.0,0.13816656582842166,1.0,1
26.51736831665039,-25.613561630249023,0.9241656064987183,-0.0,-0.0,-1.0,0.1472464419443832,2.0,1
26.632728576660156,-26.18802833557129,0.9023021459579468,-0.0,-0.0,-1.0,0.13584462878876888,2.0,1
26.68608856201172,-26.413724899291992,0.8934273719787598,-0.0,-0.0,-1.0,0.14692601528378046,1.0,1
26.888614654541016,-25.564191818237305,0.9979003667831421,-0.0,-0.0,-1.0,0.21499800308502676,2.0,1
27.112411499023438,-26.344545364379883,0.9761579036712646,-0.8563704456014138,0.3997995385742565,-0.32678737560720966,0.06364672163269905,3.0,1
26.942073822021484,-26.393112182617188,0.9413731098175049,-0.0,-0.0,-1.0,0.20497844449606742,2.0,1
27.63735580444336,-25.456790924072266,0.8635576963424683,-0.0,-0.0,-1.0,0.07184025976629466,1.0,1
27.64232635498047,-25.6200008392334,0.8485332727432251,-0.0,-0.0,-1.0,0.07684394181217818,2.0,1
27.428104400634766,-26.311534881591797,1.0352797508239746,-0.0,-0.0,-1.0,0.2146602667275214,1.0,2
27.44706153869629,-26.593915939331055,1.0121958255767822,-0.0,-0.0,-1.0,0.127180345365597,1.0,2
27.515918731689453,-26.849411010742188,0.9992654323577881,-0.0,-0.0,-1.0,0.15902597635803353,1.0,1
25.420028686523438,-25.299583435058594,1.0787711143493652,-0.0,-0.0,-1.0,0.22969790569598092,1.0,2
25.4128360748291,-26.232295989990234,1.0331140756607056,-0.0,-0.0,-1.0,0.22450528665975664,2.0,2
25.737167358398438,-25.48107147216797,1.122393250465393,-0.0,-0.0,-1.0,0.17913989356917934,2.0,2
25.819854736328125,-25.707555770874023,1.124688982963562,0.4577265592756508,-0.01532773166700282,-0.8889608864149304,0.14177985946255536,6.0,2
25.99175262451172,-26.088275909423828,1.1319619417190552,-0.0,-0.0,-1.0,0.2532207299168211,2.0,2
26.254650115966797,-25.84950065612793,1.1863821744918823,-0.0,-0.0,-1.0,0.15679401237585083,1.0,2
26.20660972595215,-26.077682495117188,1.1660938262939453,0.6647500095503192,-0.45631430476598706,-0.5915105071499441,0.1234851404970569,5.0,2
26.707067489624023,-24.442228317260742,1.0316237211227417,-0.0,-0.0,-1.0,0.09707827957787377,1.0,2
26.77530288696289,-24.881757736206055,1.3176255226135254,-0.0,-0.0,-1.0,0.10612581629295914,2.0,2
27.630794525146484,-24.570463180541992,1.206507682800293,-0.0,-0.0,-1.0,0.23617205030999616,2.0,2
27.535951614379883,-25.020687103271484,1.1590760946273804,-0.0,-0.0,-1.0,0.11760221544591348,1.0,2
27.497480392456055,-25.602352142333984,1.1084650754928589,-0.0,-0.0,-1.0,0.15746578288176877,1.0,2
27.565410614013672,-26.23133087158203,1.2149195671081543,-0.0,-0.0,-1.0,0.13986894774802708,1.0,2
27.704357147216797,-26.27052116394043,1.0877373218536377,-0.0,-0.0,-1.0,0.17722879279664108,1.0,2
25.817407608032227,-25.723546981811523,1.460386037826538,-0.0,-0.0,-1.0,0.24351659586947375,2.0,2
26.027812957763672,-25.9481201171875,1.8098551034927368,-0.0,-0.0,-1.0,0.1359488894025887,2.0,2
26.06174087524414,-25.764156341552734,1.8167710304260254,-0.0,-0.0,-1.0,0.17071774214697205,1.0,2
26.18470573425293,-26.052051544189453,1.65803861618042,-0.0,-0.0,-1.0,0.07341538990066572,1.0,2
26.871519088745117,-26.209075927734375,1.5727618932724,-0.08850098095597343,0.9130191505851366,0.39820046086691796,0.056145257956105074,3.0,2
25.381404876708984,-24.47319984436035,0.7742795944213867,-0.0,-0.0,-1.0,0.12315566732449133,2.0,1
25.441308975219727,-24.792200088500977,0.776648998260498,-0.0,-0.0,-1.0,0.09938983713979774,1.0,1
25.663528442382812,-25.01457977294922,0.8139441013336182,-0.0,-0.0,-1.0,0.07157768442032733,1.0,1
25.72397804260254,-25.348873138427734,0.8112245798110962,-0.0,-0.0,-1.0,0.11531068801306216,1.0,1
26.090511322021484,-25.07789421081543,0.8984054327011108,-0.0,-0.0,-1.0,0.1912601912472343,2.0,1
25.93728256225586,-25.59307098388672,0.8420875072479248,-0.0,-0.0,-1.0,0.10913109219607013,2.0,1
25.934749603271484,-25.724517822265625,0.8343361616134644,-0.0,-0.0,-1.0,0.196158453329416,2.0,1
26.26380729675293,-26.061859130859375,0.878669023513794,-0.0,-0.0,-1.0,0.0923521538963529,1.0,1
26.370662689208984,-26.201732635498047,0.8900023698806763,-0.0,-0.0,-1.0,0.1526423347270137,1.0,1
26.629135131835938,-25.599742889404297,0.9787876605987549,0.7527161837085001,-0.5047101026497224,-0.42271273823557526,0.10829298163611627,3.0,1
26.70770263671875,-26.208227157592773,0.9541101455688477,0.6545784017048009,-0.6775111431655333,-0.3354187933138523,0.1831251550229219,3.0,1
26.618160247802734,-26.464778900146484,0.9182955026626587,-0.0,-0.0,-1.0,0.19515187211373058,1.0,1
27.025596618652344,-26.42930793762207,0.997443437576294,-0.0,-0.0,-1.0,0.11528630700427724,1.0,1
27.588756561279297,-25.437877655029297,0.9039199352264404,-0.0,-0.0,-1.0,0.0789929396679654,1.0,1
27.597824096679688,-25.71647071838379,0.881732702255249,-0.0,-0.0,-1.0,0.0891745106940585,1.0,1
27.296356201171875,-26.619516372680664,1.0317765474319458,-0.0,-0.0,-1.0,0.18813186005779997,2.0,2
25.231937408447266,-24.946884155273438,1.0678926706314087,-0.0,-0.0,-1.0,0.05851201472226051,2.0,2
25.333740234375,-25.20041847229004,1.0783371925354004,-0.0,-0.0,-1.0,0.24180087564014854,1.0,2
25.6851806640625,-25.498401641845703,1.1280657052993774,-0.2648135426275499,0.07044011331433149,-0.9617234415762731,0.17987310806246726,4.0,2
25.655086517333984,-25.633983612060547,1.1179081201553345,0.9828517474152082,0.14045526993621346,-0.11947702603436729,0.21484727405397588,5.0,2
25.51715850830078,-26.141559600830078,1.074389934539795,-0.0,-0.0,-1.0,0.11601873770248128,1.0,2
25.331911087036133,-26.32093048095703,1.0360820293426514,-0.0,-0.0,-1.0,0.2670438059629106,2.0,2
25.797096252441406,-25.519651412963867,1.1460504531860352,0.5717058890185343,-0.214811228510508,-0.7918386910017301,0.2282737248960386,3.0,2
25.83365249633789,-25.765766143798828,1.1424386501312256,0.6207760910706885,0.06382912050454516,-0.7813852366986545,0.14788603787925322,6.0,2
25.91946029663086,-26.114843368530273,1.1414377689361572,-0.0,-0.0,-1.0,0.1884828009889184,1.0,2
25.668498992919922,-26.75947380065918,1.0690031051635742,-0.0,-0.0,-1.0,0.056951204888747144,1.0,2
26.062070846557617,-26.09467887878418,1.1655943393707275,-0.03074959465860463,0.1144941658287793,-0.9929479082104478,0.1584899714052546,3.0,2
26.786815643310547,-24.93758773803711,1.3330624103546143,-0.631422269932507,-0.687751370366848,-0.3581954349120076,0.11251619394196324,4.0,2
26.845521926879883,-25.105274200439453,1.049409031867981,-0.0,-0.0,-1.0,0.08458615456084578,1.0,2
26.85850715637207,-25.5643367767334,1.025970220565796,-0.0,-0.0,-1.0,0.18298716945585883,2.0,2
26.543394088745117,-26.722042083740234,1.2089903354644775,-0.0,-0.0,-1.0,0.07884391467436494,1.0,2
27.657142639160156,-24.53250503540039,1.2412004470825195,0.8523416829494875,-0.2068153395242724,-0.4803551507419228,0.19822560116379806,6.0,2
27.37649154663086,-25.449745178222656,1.134233832359314,-0.0,-0.0,-1.0,0.1498538761886218,1.0,2
27.344791412353516,-25.868431091308594,1.0996307134628296,-0.0,-0.0,-1.0,0.21240368070952667,2.0,2
27.387008666992188,-25.939109802246094,1.1024836301803589,-0.0,-0.0,-1.0,0.2160826467985165,1.0,2
27.406782150268555,-26.260059356689453,1.0815303325653076,-0.0,-0.0,-1.0,0.2049361456775643,1.0,2
27.43335723876953,-26.467411041259766,1.0694833993911743,-0.0,-0.0,-1.0,0.19008808233593982,1.0,2
25.709716796875,-25.542844772338867,1.458095669746399,-0.0,-0.0,-1.0,0.18422226234425212,1.0,2
25.8320255279541,-25.734495162963867,1.4698011875152588,0.557992474576502,0.8246630157849675,0.09260296276272399,0.22257941509717882,3.0,2
26.17998504638672,-26.12227439880371,1.504578709602356,-0.0,-0.0,-1.0,0.11708307219238827,1.0,2
26.875892639160156,-26.216615676879883,1.5910215377807617,-0.08850098095597343,0.9130191505851366,0.39820046086691796,0.05614525795610496,3.0,2
26.045917510986328,-25.89771842956543,1.8126583099365234,-0.0,-0.0,-1.0,0.1462505418867119,2.0,2
26.17794418334961,-26.00542640686035,1.8243756294250488,-0.5216516174835271,0.8505648492428804,-0.0664757640742554,0.06917816281944116,4.0,2
25.516481399536133,-24.433563232421875,0.73122239112854,-0.0,-0.0,-1.0,0.08377595667462644,2.0,1
25.678184509277344,-24.59122085571289,0.7638282775878906,-0.0,-0.0,-1.0,0.04662838293178945,1.0,1
25.692337036132812,-24.90628433227539,0.7580451965332031,-0.0,-0.0,-1.0,0.03459471506720647,1.0,1
25.450286865234375,-25.297658920288086,1.0169284343719482,-0.0,-0.0,-1.0,0.22218782983558485,1.0,2
26.46683120727539,-24.36756134033203,0.9455916881561279,-0.0,-0.0,-1.0,0.1426813324134153,1.0,1
25.751022338867188,-25.20036506652832,0.9191474914550781,-0.0,-0.0,-1.0,0.13714924115045993,1.0,1
25.837238311767578,-25.509408950805664,0.925021767616272,-0.6688304296712948,0.30928053747079554,-0.6760261869835276,0.12809364244897237,3.0,1
25.687744140625,-26.00141143798828,1.0350770950317383,-0.0,-0.0,-1.0,0.1962924244724166,2.0,2
25.43218994140625,-26.24917984008789,0.9787701368331909,-0.0,-0.0,-1.0,0.14598556933549733,2.0,1
25.988643646240234,-25.664901733398438,0.9486712217330933,-0.0,-0.0,-1.0,0.15822262970523357,2.0,1
25.88888931274414,-25.99773406982422,1.0707988739013672,-0.0,-0.0,-1.0,0.1626243917206013,2.0,2
25.78598403930664,-26.3758544921875,1.0347988605499268,-0.0,-0.0,-1.0,0.10852615067230126,2.0,2
26.43670654296875,-26.002363204956055,0.8642250299453735,-0.0,-0.0,-1.0,0.06573977030688587,1.0,1
26.306303024291992,-26.141510009765625,0.9852776527404785,-0.0,-0.0,-1.0,0.1924524371399784,2.0,1
27.343971252441406,-24.949018478393555,1.1167231798171997,-0.0,-0.0,-1.0,0.16416566449008368,1.0,2
26.739330291748047,-26.191944122314453,0.9134492874145508,-0.0,-0.0,-1.0,0.13219159547198733,1.0,1
26.65791893005371,-26.3575439453125,0.8845429420471191,-0.0,-0.0,-1.0,0.11402562455900747,1.0,1
27.48065757751465,-25.581439971923828,0.9770488739013672,-0.0,-0.0,-1.0,0.18176078583258165,1.0,1
27.3934268951416,-26.07313346862793,1.0546308755874634,-0.0,-0.0,-1.0,0.17068734170394093,2.0,2
27.107891082763672,-26.3551082611084,0.9750810861587524,-0.8563704456014138,0.3997995385742565,-0.32678737560720966,0.06518138492737192,3.0,1
26.9578800201416,-26.425357818603516,0.9395793676376343,-0.6857449276626978,-0.6987107197766307,-0.2038558908987034,0.16908897080437232,4.0,1
27.496734619140625,-26.425174713134766,1.0456039905548096,-0.0,-0.0,-1.0,0.1824247151755424,1.0,2
27.37726593017578,-26.747867584228516,0.9934366941452026,-0.0,-0.0,-1.0,0.1305194169490404,1.0,1
25.591625213623047,-25.85487937927246,1.3485426902770996,-0.0,-0.0,-1.0,0.17032762227367268,1.0,2
26.138389587402344,-25.68335723876953,1.433005690574646,-0.0,-0.0,-1.0,0.18365659962812908,2.0,2
27.023420333862305,-24.807825088500977,1.320341944694519,0.4924225871455616,0.52174323148996,-0.6966376361231755,0.22872234949366105,3.0,2
26.77166175842285,-25.039823532104492,1.2670313119888306,-0.0,-0.0,-1.0,0.09674481589500929,1.0,2
26.262880325317383,-26.11901092529297,1.4376373291015625,-0.0,-0.0,-1.0,0.07141799719465981,1.0,2
26.81034278869629,-26.229717254638672,1.3646864891052246,-0.0,-0.0,-1.0,0.05173555403717401,1.0,2
27.685169219970703,-25.10580062866211,1.1810245513916016,-0.0,-0.0,-1.0,0.12681962625692972,1.0,2
27.431156158447266,-26.44137954711914,1.310605525970459,-0.0,-0.0,-1.0,0.10401811570509704,2.0,2
25.984880447387695,-25.954608917236328,1.7129580974578857,-0.6875861651830114,0.6272703447237317,-0.3657282872284989,0.1303693037639403,4.0,2
25.242053985595703,-24.964548110961914,0.8418862819671631,-0.0,-0.0,-1.0,0.16045198953757103,2.0,1
25.84847068786621,-24.409624099731445,0.6958736181259155,-0.0,-0.0,-1.0,0.047128923467030515,1.0,1
25.845001220703125,-24.480417251586914,0.692013144493103,-0.0,-0.0,-1.0,0.03049571059293654,1.0,1
25.25263786315918,-24.822725296020508,1.0069782733917236,-0.0,-0.0,-1.0,0.111555076839192,2.0,2
25.48670196533203,-25.05585289001465,0.8881886005401611,-0.6247702175882109,-0.7359744478665875,-0.26077535792756795,0.06817666168788952,3.0,1
25.32648277282715,-25.16434669494629,1.0078849792480469,-0.0,-0.0,-1.0,0.23454332417527415,1.0,2
26.170106887817383,-25.07115936279297,1.0273100137710571,-0.0,-0.0,-1.0,0.14905232753994524,2.0,2
25.64783477783203,-25.541128158569336,1.0494049787521362,-0.0,-0.0,-1.0,0.20418521139893042,2.0,2
26.71778678894043,-25.133052825927734,1.1347393989562988,-0.0,-0.0,-1.0,0.1930643778234557,2.0,2
25.84787368774414,-25.78789520263672,1.0707348585128784,-0.0757626453134935,0.6451570109547626,-0.7602844551817549,0.20753334365769394,4.0,2
25.654258728027344,-25.986282348632812,1.180596947669983,-0.0,-0.0,-1.0,0.2528435526689521,1.0,2
25.420795440673828,-26.31302833557129,1.123407006263733,-0.0,-0.0,-1.0,0.17651120841108098,1.0,2
26.701900482177734,-25.313879013061523,1.1202337741851807,-0.0,-0.0,-1.0,0.18638021766203972,1.0,2
26.15671730041504,-26.1014461517334,1.106708288192749,0.4732943568926067,0.12416024927824222,-0.8721104770800417,0.18115648121738231,3.0,2
26.21056365966797,-26.368804931640625,0.9449963569641113,-0.0,-0.0,-1.0,0.13412936853915533,1.0,1
27.123580932617188,-25.679397583007812,0.9119930267333984,-0.0,-0.0,-1.0,0.06278507156224637,2.0,1
26.495025634765625,-26.356754302978516,0.9997724294662476,0.603188189142888,0.020679315217295838,-0.797330781044271,0.2568359382089035,3.0,1
27.424423217773438,-25.981386184692383,1.0765095949172974,-0.0,-0.0,-1.0,0.20564423137268129,1.0,2
27.160287857055664,-26.417041778564453,1.1179753541946411,-0.0,-0.0,-1.0,0.19657765582808887,2.0,2
26.88176918029785,-26.501991271972656,1.0585064888000488,-0.0,-0.0,-1.0,0.18137806284220434,1.0,2
27.703073501586914,-26.326431274414062,1.0985053777694702,-0.0,-0.0,-1.0,0.22417735067919756,2.0,2
27.36306381225586,-26.499441146850586,1.146567463874817,0.3504428997688158,-0.9221533142643371,-0.16377740684515182,0.19005965986353232,3.0,2
27.11493492126465,-26.852415084838867,1.0651123523712158,-0.0,-0.0,-1.0,0.142342830120845,1.0,2
25.45702362060547,-25.337604522705078,1.4881058931350708,-0.0,-0.0,-1.0,0.1419878242249173,1.0,2
25.747343063354492,-25.62339973449707,1.5172667503356934,-0.0,-0.0,-1.0,0.16737203824409017,1.0,2
26.904966354370117,-24.798168182373047,1.4476096630096436,-0.0,-0.0,-1.0,0.09876098907298182,1.0,2
25.61200714111328,-25.920963287353516,1.487684726715088,-0.0,-0.0,-1.0,0.21845464028070483,1.0,2
27.580646514892578,-24.53040313720703,1.3433347940444946,-0.0,-0.0,-1.0,0.2866811385014454,1.0,2
27.332382202148438,-24.806825637817383,1.2778775691986084,-0.0,-0.0,-1.0,0.09567783119216515,1.0,2
27.104801177978516,-25.00931739807129,1.4718056917190552,-0.0,-0.0,-1.0,0.13384374614859873,1.0,2
26.22495460510254,-26.048521041870117,1.4170008897781372,-0.0,-0.0,-1.0,0.08766910484656903,1.0,2
27.543935775756836,-25.192842483520508,1.2952773571014404,-0.0,-0.0,-1.0,0.11065094687222116,2.0,2
27.385494232177734,-25.62798309326172,1.2312097549438477,-0.0,-0.0,-1.0,0.1464592579580123,1.0,2
26.90563201904297,-26.207260131835938,1.6396613121032715,-0.0,-0.0,-1.0,0.039036273713212916,1.0,2
27.55691146850586,-26.250154495239258,1.4634456634521484,-0.0,-0.0,-1.0,0.11482218118752506,1.0,2
27.477388381958008,-26.32798957824707,1.445129632949829,-0.0,-0.0,-1.0,0.10526480923534583,1.0,2
26.07140350341797,-25.885435104370117,1.8411918878555298,-0.0,-0.0,-1.0,0.14537638988593993,2.0,2
26.20191192626953,-26.002321243286133,1.8503170013427734,-0.4510060593480638,0.8343985073469267,0.31681645375288237,0.06741031089197208,3.0,2
25.48491668701172,-24.63745880126953,0.7479780912399292,-0.0,-0.0,-1.0,0.10777892455916399,1.0,1
25.52150535583496,-24.823680877685547,0.7464146614074707,-0.0,-0.0,-1.0,0.05184413212418703,1.0,1
25.647451400756836,-24.978591918945312,0.7667653560638428,-0.0,-0.0,-1.0,0.056423942718470246,2.0,1
25.634559631347656,-25.022912979125977,0.7606524229049683,-0.0,-0.0,-1.0,0.06330160604945467,2.0,1
25.923748016357422,-25.15896987915039,0.8195630311965942,-0.0,-0.0,-1.0,0.09554750606455882,2.0,1
25.854312896728516,-25.46194839477539,0.7794791460037231,-0.0,-0.0,-1.0,0.0954091127980155,1.0,1
26.042688369750977,-25.65425682067871,0.8064295053482056,-0.0,-0.0,-1.0,0.08880496547892501,2.0,1
25.573017120361328,-25.293636322021484,1.0166360139846802,-0.0,-0.0,-1.0,0.16003346217856815,1.0,2
25.29340362548828,-25.300134658813477,0.9603172540664673,-0.7759462195697353,0.233486767710383,-0.585996069645176,0.2391568250955488,3.0,1
25.750511169433594,-25.590105056762695,1.0315065383911133,-0.08517743822602641,0.8647155694549481,-0.49498665432459493,0.1752092106844549,5.0,2
25.473373413085938,-25.51408576965332,0.9823343753814697,-0.0,-0.0,-1.0,0.1800625651099642,2.0,1
27.136194229125977,-24.877531051635742,1.1247775554656982,-0.0,-0.0,-1.0,0.13285066824525568,1.0,2
25.920866012573242,-25.788949966430664,1.0495339632034302,-0.3684399063786212,0.4302247265140586,-0.8241108663787999,0.2618740568478213,4.0,2
25.68491554260254,-26.0498104095459,0.982635498046875,-0.0,-0.0,-1.0,0.17942632450448825,1.0,1
25.34955596923828,-26.330923080444336,1.0480115413665771,-0.0,-0.0,-1.0,0.18910759096806506,2.0,2
26.74270248413086,-25.699398040771484,0.9608931541442871,-0.0,-0.0,-1.0,0.13845811844588674,1.0,1
26.40842628479004,-25.92976951599121,0.8623340129852295,-0.0,-0.0,-1.0,0.08926175818592608,1.0,1
26.28646469116211,-26.121217727661133,0.954826831817627,-0.0,-0.0,-1.0,0.19098599113046194,2.0,1
25.616701126098633,-26.61344337463379,0.91886305809021,-0.0,-0.0,-1.0,0.051626729244327915,1.0,1
27.38405990600586,-26.04587173461914,1.063261866569519,-0.0,-0.0,-1.0,0.18727107099550364,2.0,2
26.704360961914062,-26.249832153320312,1.0239651203155518,-0.0,-0.0,-1.0,0.19868375299135924,1.0,2
26.455341339111328,-26.44333839416504,0.9565331935882568,0.3458027973955487,-0.9383060858476912,-0.0014541576938170973,0.24466885665579088,3.0,1
26.167102813720703,-26.753620147705078,1.006008505821228,-0.0,-0.0,-1.0,0.05692808141719889,1.0,2
25.821081161499023,-26.790470123291016,0.9391648769378662,-0.0,-0.0,-1.0,0.045017082330342385,1.0,1
27.390302658081055,-26.35366439819336,1.0252001285552979,-0.0,-0.0,-1.0,0.17090056724326771,1.0,2
27.009443283081055,-26.477237701416016,1.0591151714324951,-0.0,-0.0,-1.0,0.12431715636794684,1.0,2
27.5611572265625,-26.631975173950195,1.021987795829773,-0.0,-0.0,-1.0,0.11180555260689799,1.0,2
27.38916778564453,-26.795351028442383,0.9637062549591064,-0.0,-0.0,-1.0,0.11333052574241334,1.0,1
27.10664176940918,-24.715496063232422,1.359133243560791,-0.0,-0.0,-1.0,0.15277519896863545,1.0,2
26.75362777709961,-24.96283721923828,1.273109793663025,-0.0,-0.0,-1.0,0.14337899633884407,2.0,2
25.87133026123047,-25.64337921142578,1.606076955795288,-0.0,-0.0,-1.0,0.14880546524075666,2.0,2
27.70711898803711,-24.56383514404297,1.282011866569519,-0.0,-0.0,-1.0,0.21120217236625272,2.0,2
26.898073196411133,-25.069047927856445,1.4106796979904175,-0.0,-0.0,-1.0,0.14966699098995018,1.0,2
25.947954177856445,-25.802871704101562,1.3323322534561157,-0.0,-0.0,-1.0,0.21024379828438583,1.0,2
25.71161460876465,-25.89691734313965,1.2881799936294556,-0.0,-0.0,-1.0,0.23610713978377199,1.0,2
27.581050872802734,-25.221637725830078,1.1972441673278809,-0.0,-0.0,-1.0,0.12248201257343623,2.0,2
26.151460647583008,-26.066621780395508,1.4824836254119873,-0.0,-0.0,-1.0,0.13342662427054852,1.0,2
26.763790130615234,-26.237747192382812,1.426853060722351,-0.0,-0.0,-1.0,0.049114480528053145,1.0,2
27.590984344482422,-26.264066696166992,1.315201759338379,-0.0,-0.0,-1.0,0.13187057357753537,1.0,2
27.416839599609375,-26.437044143676758,1.2646156549453735,-0.25788324606493673,-0.9520611493375658,0.16454725558648686,0.18676100932531817,4.0,2
27.259075164794922,-26.54681396484375,1.224199652671814,-0.0,-0.0,-1.0,0.15714407318519247,1.0,2
26.04064178466797,-25.692853927612305,1.6251407861709595,-0.0,-0.0,-1.0,0.14192285786153927,1.0,2
26.178247451782227,-26.03342056274414,1.8916265964508057,-0.0,-0.0,-1.0,0.07844589708658388,2.0,2
25.331157684326172,-24.371788024902344,0.7280246019363403,-0.0,-0.0,-1.0,0.11069791547096107,1.0,1
25.482032775878906,-24.72723388671875,0.7569988965988159,-0.0,-0.0,-1.0,0.06149871676268685,1.0,1
26.065929412841797,-25.09783363342285,0.8897135257720947,-0.5190976040511744,0.6072578077728054,-0.6014778735475617,0.19900331365201418,4.0,1
25.631752014160156,-25.09210777282715,0.7799268960952759,-0.0,-0.0,-1.0,0.06265375618367605,1.0,1
25.38222312927246,-25.306072235107422,0.9831104278564453,-0.0,-0.0,-1.0,0.24628906543481346,2.0,1
26.120983123779297,-25.229251861572266,0.896192193031311,-0.0,-0.0,-1.0,0.18228406547929324,1.0,1
25.811595916748047,-25.550161361694336,0.9317470788955688,0.4645548497461002,-0.7736020276083061,-0.4309625209431742,0.17117961423289588,5.0,1
25.598194122314453,-25.473369598388672,0.8878949880599976,-0.0,-0.0,-1.0,0.2104820364897199,1.0,1
26.648639678955078,-25.481327056884766,1.0102851390838623,-0.0,-0.0,-1.0,0.12529160903034386,1.0,2
26.468273162841797,-25.75040626525879,0.9452160596847534,-0.0,-0.0,-1.0,0.25387314566151736,1.0,1
25.94833755493164,-25.799781799316406,0.94703209400177,-0.0,-0.0,-1.0,0.1890347180168875,1.0,1
25.687267303466797,-25.894418716430664,1.0167765617370605,-0.0,-0.0,-1.0,0.2537363345028659,2.0,2
25.280912399291992,-26.272441864013672,0.9072011709213257,-0.0,-0.0,-1.0,0.20318229560983675,1.0,1
26.54249382019043,-25.967775344848633,0.9445030689239502,-0.0,-0.0,-1.0,0.08348500500116555,2.0,1
26.214061737060547,-26.12738609313965,0.9822061061859131,-0.0,-0.0,-1.0,0.2056641104362203,2.0,1
25.962263107299805,-26.211181640625,1.05222749710083,-0.0,-0.0,-1.0,0.2402160015309672,1.0,2
25.413047790527344,-26.551687240600586,0.9138175249099731,-0.0,-0.0,-1.0,0.0898005120206212,1.0,1
27.436817169189453,-26.267562866210938,1.121616244316101,-0.27007902302038334,0.32835968227089435,-0.9051172522846488,0.1788953892122295,3.0,2
27.25312042236328,-26.302597045898438,1.0760873556137085,-0.0,-0.0,-1.0,0.20696724687861834,1.0,2
26.724327087402344,-26.43877410888672,0.9402159452438354,-0.0,-0.0,-1.0,0.1681757565933488,2.0,1
26.450115203857422,-26.383899688720703,0.8826797008514404,-0.0,-0.0,-1.0,0.19551317898457946,1.0,1
25.899667739868164,-26.717538833618164,0.9986648559570312,-0.0,-0.0,-1.0,0.04429958449485939,2.0,1
25.64274024963379,-26.858688354492188,0.9352600574493408,-0.0,-0.0,-1.0,0.056860508957724855,1.0,1
27.45026397705078,-26.393217086791992,1.1098026037216187,-0.0,-0.0,-1.0,0.2647455671692503,2.0,2
27.269466400146484,-26.594985961914062,1.045001745223999,-0.7186505337245503,-0.5856271510827588,-0.37494299605688125,0.20905289695177587,3.0,2
26.697952270507812,-24.841951370239258,1.288372278213501,-0.0,-0.0,-1.0,0.10621709422723527,1.0,2
27.642812728881836,-24.52529525756836,1.31765615940094,-0.0,-0.0,-1.0,0.2515811355319135,1.0,2
27.468997955322266,-24.86495590209961,1.2552050352096558,-0.0,-0.0,-1.0,0.14506574413375278,1.0,2
26.959749221801758,-24.9196720123291,1.2358146905899048,-0.0,-0.0,-1.0,0.14164761175152876,1.0,2
26.747961044311523,-24.990158081054688,1.292716145515442,-0.0,-0.0,-1.0,0.12317613093192394,2.0,2
25.677440643310547,-25.675230026245117,1.2946621179580688,0.2592747296775727,0.9482503809334075,-0.1832971074792755,0.18474090497790902,3.0,2
27.55010414123535,-25.186777114868164,1.2531628608703613,-0.4147411907819869,-0.8901075694343956,-0.18893983038081744,0.11065094687222116,3.0,2
25.990005493164062,-25.75841522216797,1.3461308479309082,-0.0,-0.0,-1.0,0.17226053494788868,1.0,2
25.750408172607422,-25.958385467529297,1.2938110828399658,-0.9111290069778059,0.2313759823219242,-0.34104118145497075,0.22608026484880808,3.0,2
25.276180267333984,-26.273439407348633,1.1941452026367188,0.43996333573819535,0.873421482475418,-0.20872751892494568,0.1644747724778873,3.0,2
26.16561508178711,-26.084842681884766,1.3589982986450195,-0.0,-0.0,-1.0,0.08571348798873643,1.0,2
25.942777633666992,-26.08919334411621,1.3202792406082153,-0.0,-0.0,-1.0,0.13889060797686364,1.0,2
25.393983840942383,-26.297258377075195,1.2133207321166992,-0.0,-0.0,-1.0,0.16472874718211286,1.0,2
27.53166961669922,-26.022830963134766,1.170669674873352,-0.0,-0.0,-1.0,0.16016186801710952,1.0,2
26.76336669921875,-26.232831954956055,1.3318040370941162,-0.0,-0.0,-1.0,0.049630563312203106,1.0,2
27.607717514038086,-26.437103271484375,1.2482516765594482,-0.0,-0.0,-1.0,0.19494477415530023,1.0,2
27.204511642456055,-26.604944229125977,1.2641452550888062,-0.0,-0.0,-1.0,0.2679938451779257,1.0,2
25.827707290649414,-25.668855667114258,1.5797780752182007,-0.7662330510221723,0.3134524166767628,-0.5609228948801699,0.1443298090029242,3.0,2
25.663909912109375,-25.864580154418945,1.5494029521942139,-0.0,-0.0,-1.0,0.25617848153618833,2.0,2
26.087749481201172,-26.042200088500977,1.7264361381530762,-0.0,-0.0,-1.0,0.12796120953340048,2.0,2
25.57382583618164,-25.536611557006836,0.909112811088562,0.8888183037535746,-0.16026163352403833,-0.4293229923179345,0.23082887262860777,3.0,1
25.25631332397461,-25.384136199951172,0.8470746278762817,-0.0,-0.0,-1.0,0.14678986320309564,1.0,1
25.728078842163086,-25.74739646911621,0.9208971261978149,-0.0,-0.0,-1.0,0.2028325190486632,1.0,1
25.603832244873047,-25.953815460205078,0.8636029958724976,-0.0,-0.0,-1.0,0.18476387006910416,2.0,1
26.12147331237793,-26.10848045349121,0.9656727313995361,-0.0,-0.0,-1.0,0.2579199786928161,2.0,1
25.94445037841797,-26.072555541992188,0.9286630153656006,-0.0,-0.0,-1.0,0.17534702622735013,1.0,1
25.63827896118164,-25.976369857788086,0.8688869476318359,-0.0,-0.0,-1.0,0.10414298295196324,2.0,1
26.259933471679688,-26.406652450561523,0.9516102075576782,-0.0,-0.0,-1.0,0.17504777363446297,1.0,1
26.126495361328125,-26.36716651916504,0.927058219909668,-0.0,-0.0,-1.0,0.12074116454800998,1.0,1
25.485424041748047,-26.799102783203125,0.9690585136413574,-0.0,-0.0,-1.0,0.056387614344644725,1.0,1
25.212947845458984,-26.769344329833984,0.9189834594726562,-0.0,-0.0,-1.0,0.08491943424080277,1.0,1
27.013416290283203,-24.73712921142578,1.3585021495819092,-0.0,-0.0,-1.0,0.21594071950470772,2.0,2
26.795656204223633,-25.084989547729492,1.2657777070999146,-0.0,-0.0,-1.0,0.0915425400009916,1.0,2
26.60838508605957,-25.175060272216797,1.2085942029953003,-0.742719476089539,0.4248506167578424,-0.5175613328657406,0.20522031956738968,4.0,2
25.610523223876953,-25.50693130493164,1.1563059091567993,-0.0,-0.0,-1.0,0.19678574670170418,1.0,2
25.318960189819336,-25.409818649291992,1.103523850440979,-0.0,-0.0,-1.0,0.15244730752771848,1.0,2
25.732027053833008,-25.806066513061523,1.2635579109191895,-0.0,-0.0,-1.0,0.18612477457054907,1.0,2
25.49703025817871,-25.74001121520996,1.2268061637878418,-0.0,-0.0,-1.0,0.20914490927963786,2.0,2
26.351886749267578,-26.11302947998047,1.019214391708374,-0.0,-0.0,-1.0,0.22302920343038476,1.0,2
25.894458770751953,-26.083934783935547,1.261817216873169,-0.0,-0.0,-1.0,0.14561078307261724,1.0,2
25.53152847290039,-26.126689910888672,1.1874425411224365,-0.0,-0.0,-1.0,0.2280278711619969,1.0,2
25.212669372558594,-26.303386688232422,1.1096467971801758,-0.0,-0.0,-1.0,0.13376512922999165,2.0,2
27.257003784179688,-26.254701614379883,1.2024133205413818,-0.3739499822231622,0.38373691767224866,-0.8443384326268104,0.13770502545744814,3.0,2
26.619836807250977,-26.311872482299805,1.1549572944641113,-0.0,-0.0,-1.0,0.17483167919581716,2.0,2
26.52815055847168,-26.480453491210938,1.0006647109985352,-0.7177327402613545,0.2892759971903058,-0.6333870151861984,0.18239834767831634,3.0,2
25.627178192138672,-26.51487159729004,1.036974549293518,-0.0,-0.0,-1.0,0.0729596910886806,1.0,2
27.54965591430664,-26.51561737060547,1.2167950868606567,-0.0,-0.0,-1.0,0.146352670274064,1.0,2
27.21393585205078,-26.558055877685547,1.1377766132354736,0.7841491605594332,0.3452216399636249,-0.5156860607916035,0.2520242343459273,8.0,2
26.90599822998047,-26.587181091308594,1.0655003786087036,-0.0,-0.0,-1.0,0.227575032653845,2.0,2
26.612634658813477,-26.536956787109375,1.009996771812439,-0.0,-0.0,-1.0,0.13301184191795717,2.0,2
27.689958572387695,-24.88858413696289,1.510907769203186,-0.0,-0.0,-1.0,0.08306743805678365,1.0,2
26.961612701416016,-25.063343048095703,1.4912593364715576,-0.0,-0.0,-1.0,0.1382710451769142,2.0,2
26.015987396240234,-25.68705940246582,1.4410730600357056,0.06074648190425911,0.9317414965633275,-0.35800509565952604,0.11816096217306095,3.0,2
25.83490753173828,-25.74169158935547,1.5165220499038696,-0.5552814218933342,0.8161339611444872,0.1599621829268583,0.24259014598128434,3.0,2
25.99968910217285,-26.093650817871094,1.5058513879776,-0.0,-0.0,-1.0,0.11149254414985395,1.0,2
26.69847869873047,-26.258838653564453,1.4911669492721558,-0.8502342167365518,-0.4813575491958734,-0.21306498192458756,0.04779660573639118,4.0,2
27.415237426757812,-26.32693862915039,1.411963701248169,-0.0,-0.0,-1.0,0.1175287031611816,2.0,2
27.364259719848633,-26.39362907409668,1.3916734457015991,-0.0,-0.0,-1.0,0.0875940247948836,2.0,2
25.947282791137695,-25.861194610595703,1.84975004196167,-0.0,-0.0,-1.0,0.2281494847348578,2.0,2
26.084583282470703,-26.032262802124023,1.8505065441131592,0.3189012844751282,0.9456876002297667,0.06306293310477777,0.10402544706408037,3.0,2
25.950416564941406,-25.929828643798828,1.8446016311645508,-0.0,-0.0,-1.0,0.2573218368245008,2.0,2
25.48992156982422,-25.771333694458008,1.3104459047317505,-0.0,-0.0,-1.0,0.13513466519332348,1.0,2
25.877975463867188,-25.93338966369629,1.3830642700195312,-0.0,-0.0,-1.0,0.25849570183650733,1.0,2
25.528654098510742,-25.961193084716797,1.3972067832946777,-0.7900584783196843,-0.4849173095624019,-0.3750504015755031,0.21235430118521026,3.0,2
26.321813583374023,-26.10380744934082,1.4639254808425903,-0.0,-0.0,-1.0,0.0758475064947971,2.0,2
26.044879913330078,-26.124862670898438,1.3967963457107544,-0.0,-0.0,-1.0,0.11196777245114538,1.0,2
25.655580520629883,-25.628541946411133,1.5580488443374634,-0.0,-0.0,-1.0,0.16740596212875627,1.0,2
25.918174743652344,-25.840974807739258,1.680882453918457,-0.0,-0.0,-1.0,0.2000923298572461,1.0,2
26.694196701049805,-26.26340675354004,1.5231164693832397,-0.7896138027627103,0.5564495231569883,-0.258600020620595,0.04779660573639126,4.0,2
25.24918556213379,-26.421689987182617,1.5979838371276855,-0.0,-0.0,-1.0,0.10961311099802155,1.0,2
26.134803771972656,-26.01976776123047,1.9641271829605103,-0.0,-0.0,-1.0,0.07602491530751553,2.0,2
27.70538902282715,-25.090288162231445,1.367579460144043,-0.0,-0.0,-1.0,0.21634991560578393,1.0,2
26.243743896484375,-25.635295867919922,1.1350631713867188,-0.0,-0.0,-1.0,0.10832279262866941,1.0,2
25.76869010925293,-25.59850311279297,1.2020726203918457,-0.0,-0.0,-1.0,0.11868663579143912,2.0,2
25.842500686645508,-25.767467498779297,1.1599010229110718,0.4703439406565979,0.060012991998556676,-0.8804402411742683,0.16795429914244578,7.0,2
27.13030242919922,-26.52338409423828,1.0455836057662964,-0.0,-0.0,-1.0,0.19339216198218503,1.0,2
27.628145217895508,-26.302417755126953,1.0048713684082031,-0.20063360182380016,-0.4882550432201195,-0.8493251265500911,0.1465930933825865,3.0,2
25.550159454345703,-25.650386810302734,1.0240468978881836,-0.0,-0.0,-1.0,0.2497260294371308,1.0,2
25.779937744140625,-25.57616424560547,1.0066291093826294,0.22991507110169876,-0.9448009322871298,-0.23343148551485357,0.13457305681831738,4.0,2
27.215373992919922,-26.521047592163086,1.1552314758300781,0.5778707932558178,0.4625876942317918,-0.6723674378248893,0.2732044730906552,7.0,2
27.494396209716797,-26.328466415405273,1.129974365234375,-0.0,-0.0,-1.0,0.22247792657994225,2.0,2
25.782032012939453,-25.770505905151367,1.2937771081924438,-0.0,-0.0,-1.0,0.22903384552829742,2.0,2
27.595088958740234,-24.460248947143555,1.1301910877227783,0.03733687999231454,-0.9574156868587556,0.2862885955626198,0.2526606285694187,6.0,2
27.47067642211914,-24.873659133911133,1.1397961378097534,-0.017052826181887634,-0.3716304419709371,-0.9282241193374026,0.18248861739248592,5.0,2
25.242725372314453,-24.801048278808594,0.8281924724578857,-0.0,-0.0,-1.0,0.11503306904112885,1.0,1
25.67312240600586,-25.682540893554688,1.250732660293579,-0.0928071962698517,0.8514357111420479,-0.5161821908130536,0.24330742295073143,4.0,2
25.854450225830078,-25.78762435913086,1.23870050907135,-0.0,-0.0,-1.0,0.2329658948096218,2.0,2
27.237022399902344,-26.562652587890625,1.1465188264846802,-0.27228853685942656,0.573922721356284,-0.7723157790735277,0.2607535868797199,8.0,2
27.59255027770996,-24.44683837890625,1.1602977514266968,0.07668423323319888,-0.9686541942974547,-0.2362807233850979,0.2548457390924475,5.0,2
25.769981384277344,-25.62759780883789,1.1861484050750732,-0.0,-0.0,-1.0,0.19595514009704543,2.0,2
25.922199249267578,-25.635780334472656,1.1762866973876953,-0.0,-0.0,-1.0,0.19168138008969962,1.0,2
26.697757720947266,-25.218544006347656,1.133397102355957,-0.0,-0.0,-1.0,0.23771806329478012,1.0,2
27.304933547973633,-26.48560333251953,1.07367742061615,-0.0,-0.0,-1.0,0.20217265766740058,1.0,2
27.594196319580078,-24.476482391357422,1.0876346826553345,-0.0,-0.0,-1.0,0.2621277516597891,2.0,2
25.891986846923828,-25.8109130859375,1.2654213905334473,-0.0,-0.0,-1.0,0.2722575613245551,1.0,2
27.622488021850586,-24.499900817871094,1.204294204711914,-0.0,-0.0,-1.0,0.11766781732149645,2.0,2
27.392131805419922,-26.461181640625,1.1612945795059204,-0.5292035202205007,0.1095066038986913,-0.8413987983642508,0.16128896421523706,4.0,2
27.680206298828125,-26.431415557861328,1.1456620693206787,-0.0,-0.0,-1.0,0.1213822315513102,1.0,2
25.265045166015625,-24.91176986694336,0.9161059856414795,-0.0,-0.0,-1.0,0.13974672975382885,2.0,1
27.06307029724121,-24.895915985107422,0.9055922031402588,-0.0,-0.0,-1.0,0.19224224712980023,1.0,1
26.877744674682617,-25.549911499023438,0.8673250675201416,-0.0,-0.0,-1.0,0.11624982800982019,1.0,1
26.75443458557129,-25.591075897216797,0.8657553195953369,-0.0,-0.0,-1.0,0.1864871368341903,2.0,1
27.689605712890625,-24.376571655273438,0.930422306060791,-0.0,-0.0,-1.0,0.11315277663761351,1.0,1
27.332517623901367,-25.275470733642578,0.8800649642944336,-0.0,-0.0,-1.0,0.07876216843872157,1.0,1
26.970172882080078,-24.7639217376709,0.8032317161560059,-0.0,-0.0,-1.0,0.05562395956192909,1.0,1
25.223312377929688,-25.03189468383789,0.8647544384002686,-0.0,-0.0,-1.0,0.12807471446029733,2.0,1
27.338605880737305,-26.405582427978516,1.1520097255706787,-0.0,-0.0,-1.0,0.24055013640993864,2.0,2
25.927003860473633,-25.901023864746094,1.4690022468566895,-0.0,-0.0,-1.0,0.23796074031505277,1.0,2
26.413785934448242,-26.485265731811523,1.0940337181091309,-0.0,-0.0,-1.0,0.17611237197299562,1.0,2
26.47551155090332,-26.727054595947266,1.0663628578186035,-0.0,-0.0,-1.0,0.11798601781795416,1.0,2
26.187036514282227,-26.81544303894043,1.0976271629333496,-0.7793593239275026,-0.2521187632259824,-0.5736158762069503,0.07181667411879239,3.0,2
26.757326126098633,-25.602745056152344,0.8467421531677246,-0.0,-0.0,-1.0,0.18648713683419033,2.0,1
26.995779037475586,-25.109683990478516,0.8304915428161621,-0.0,-0.0,-1.0,0.17027726845394503,2.0,1
25.925081253051758,-26.43472671508789,0.9402070045471191,-0.0,-0.0,-1.0,0.06821550523101873,1.0,1
26.053142547607422,-26.070987701416016,0.9358148574829102,-0.0,-0.0,-1.0,0.1903324419533146,1.0,1
26.120798110961914,-25.23482894897461,0.9605932235717773,-0.0,-0.0,-1.0,0.10248245214319189,1.0,1
25.477766036987305,-26.229270935058594,1.0017471313476562,0.5497078521380571,0.4402823438399438,-0.7099103711036837,0.16714485887018565,3.0,2
25.663448333740234,-25.962726593017578,0.9924578666687012,-0.0,-0.0,-1.0,0.1732039521209368,1.0,1
25.89008331298828,-25.607418060302734,0.9805436134338379,-0.0,-0.0,-1.0,0.08633277782942612,1.0,1
25.805009841918945,-25.243328094482422,1.0090250968933105,-0.0,-0.0,-1.0,0.13770934803141488,1.0,2
25.24260902404785,-26.312885284423828,1.0345230102539062,-0.0,-0.0,-1.0,0.13199438220781476,1.0,2
26.912567138671875,-26.2275390625,0.8543643951416016,-0.0,-0.0,-1.0,0.05779886636493215,1.0,1
27.499269485473633,-25.480079650878906,0.8321704864501953,-0.0,-0.0,-1.0,0.08149296514806866,1.0,1
27.677907943725586,-25.168170928955078,0.831235408782959,-0.0,-0.0,-1.0,0.08046128931939388,1.0,1
26.300228118896484,-26.542346954345703,0.9098773002624512,-0.0,-0.0,-1.0,0.1175131365952377,1.0,1
26.80506706237793,-25.809627532958984,0.8972692489624023,0.7670891313870121,-0.5839813954690481,-0.26559366380609034,0.0811044100839336,3.0,1
27.198389053344727,-25.501689910888672,0.8688874244689941,-0.0,-0.0,-1.0,0.11793735112961747,1.0,1
25.930906295776367,-25.343299865722656,1.0407843589782715,-0.0,-0.0,-1.0,0.08747543555935243,1.0,2
25.973974227905273,-24.8614501953125,0.8148174285888672,-0.0,-0.0,-1.0,0.08786031310945991,1.0,1
25.648380279541016,-24.93109130859375,0.8387413024902344,-0.0,-0.0,-1.0,0.05814040184116448,1.0,1
25.219465255737305,-24.57571029663086,0.9159836769104004,-0.0,-0.0,-1.0,0.10524630904587846,1.0,1
27.521291732788086,-25.89510726928711,1.0144009590148926,-0.0,-0.0,-1.0,0.1303321658642987,1.0,2
25.757474899291992,-26.558849334716797,1.04547119140625,-0.0,-0.0,-1.0,0.0502364527936262,1.0,2
27.657875061035156,-24.84041976928711,1.1292638778686523,-0.0,-0.0,-1.0,0.22446670610352792,1.0,2
25.67502784729004,-25.676742553710938,1.15407133102417,0.9014162128059297,0.3268085508936461,-0.28398060207241294,0.2304142311383,4.0,2
25.875457763671875,-25.551116943359375,1.1564631462097168,-0.0,-0.0,-1.0,0.18450197342748348,2.0,2
26.003589630126953,-25.81939697265625,1.3720498085021973,-0.0,-0.0,-1.0,0.1512303101114263,1.0,2
25.597938537597656,-26.627349853515625,1.0049405097961426,-0.0,-0.0,-1.0,0.06251678669099255,1.0,2
26.880672454833984,-26.461864471435547,1.02290678024292,-0.0,-0.0,-1.0,0.1811658095709857,1.0,2
27.11060905456543,-26.405597686767578,1.0300045013427734,-0.0,-0.0,-1.0,0.08617325166982506,1.0,2
25.387859344482422,-26.238162994384766,1.068049430847168,-0.0,-0.0,-1.0,0.25696320716193255,2.0,2
26.414175033569336,-26.25802230834961,1.0585284233093262,-0.0,-0.0,-1.0,0.2392220587931716,1.0,2
26.623992919921875,-26.321170806884766,1.0470423698425293,-0.0,-0.0,-1.0,0.24598629784316534,1.0,2
27.312936782836914,-26.302295684814453,1.0446457862854004,-0.685838252751773,0.13180304554606598,-0.7157191126742227,0.21913905722940463,3.0,2
27.422555923461914,-26.191558837890625,1.061150074005127,-0.0,-0.0,-1.0,0.18551442405989366,1.0,2
25.493057250976562,-25.83651351928711,1.13132905960083,-0.0,-0.0,-1.0,0.17061502239246315,1.0,2
25.605674743652344,-25.589187622070312,1.1699018478393555,0.159254862868458,0.35622267604915503,-0.9207297615050398,0.1567192584976788,3.0,2
25.830623626708984,-25.54106903076172,1.1760673522949219,-0.32522445787548115,-0.9029239332662843,-0.2809936346868772,0.14134289778981776,3.0,2
27.698984146118164,-26.303436279296875,1.0373997688293457,-0.0,-0.0,-1.0,0.2540523898617346,2.0,2
25.71355628967285,-26.829151153564453,0.9831771850585938,-0.0,-0.0,-1.0,0.05242167765917117,2.0,1
25.31161880493164,-26.10345458984375,1.1166510581970215,-0.0,-0.0,-1.0,0.22341170256807139,2.0,2
25.546998977661133,-25.74103546142578,1.1770129203796387,0.946123131169496,0.1454189331895006,0.28931704847114725,0.1936428206361338,3.0,2
25.9560546875,-25.946792602539062,1.134401798248291,-0.0,-0.0,-1.0,0.21256364019983795,1.0,2
26.499670028686523,-26.484058380126953,1.0312914848327637,-0.7042932199503907,-0.20642378874558676,-0.6792350695980208,0.21335841858743185,3.0,2
26.764490127563477,-26.54263687133789,1.016242504119873,-0.0,-0.0,-1.0,0.14195206090242019,2.0,2
27.09113311767578,-26.45318603515625,1.0251622200012207,-0.0,-0.0,-1.0,0.13601953081953755,2.0,2
27.489011764526367,-26.21923828125,1.056673526763916,-0.8467570442497501,-0.1348404872606994,-0.514607181264238,0.15554672784162946,3.0,2
27.4782772064209,-25.16683006286621,0.8341422080993652,-0.0,-0.0,-1.0,0.08834460635333191,2.0,1
25.329195022583008,-25.252086639404297,0.9380679130554199,-0.0,-0.0,-1.0,0.2625721837214589,1.0,1
25.55076789855957,-25.39278793334961,0.9026670455932617,-0.0,-0.0,-1.0,0.1834968767813762,1.0,1
25.800430297851562,-25.564420700073242,0.8603963851928711,-0.0,-0.0,-1.0,0.16248180225971132,2.0,1
25.94767189025879,-25.32232093811035,0.89453125,-0.0,-0.0,-1.0,0.21025924784921832,1.0,1
26.121318817138672,-25.455652236938477,0.8624234199523926,-0.0,-0.0,-1.0,0.12332072717950483,2.0,1
26.533676147460938,-25.326459884643555,0.862208366394043,-0.0,-0.0,-1.0,0.19572855328217206,2.0,1
26.8060245513916,-25.059635162353516,0.8919062614440918,-0.0,-0.0,-1.0,0.24556740673326835,1.0,1
26.996274948120117,-24.897855758666992,0.9079875946044922,-0.0,-0.0,-1.0,0.1939996731215475,1.0,1
27.39352798461914,-24.384153366088867,0.9689545631408691,-0.0,-0.0,-1.0,0.10591661917976923,1.0,1
25.84100341796875,-26.02536392211914,1.8291382789611816,-0.0,-0.0,-1.0,0.13490134628306297,1.0,2
25.542903900146484,-26.67701530456543,1.0061540603637695,-0.0,-0.0,-1.0,0.0684550272663628,1.0,2
25.71479034423828,-26.704727172851562,0.9848670959472656,-0.0,-0.0,-1.0,0.05700742957213282,2.0,1
26.434600830078125,-26.25425148010254,0.9706864356994629,-0.0,-0.0,-1.0,0.21687021706124646,1.0,1
26.38980484008789,-25.665882110595703,1.0539560317993164,-0.0,-0.0,-1.0,0.20607135462663223,1.0,2
26.726490020751953,-26.455978393554688,0.9122872352600098,-0.0,-0.0,-1.0,0.13716485056099945,2.0,1
27.050518035888672,-25.95884132385254,0.9424653053283691,-0.0,-0.0,-1.0,0.053163811699293684,2.0,1
27.183563232421875,-25.624019622802734,0.9711837768554688,-0.0,-0.0,-1.0,0.13834017452413008,1.0,1
27.361026763916016,-25.76026153564453,0.9332790374755859,-0.0,-0.0,-1.0,0.12274639831402474,1.0,1
27.42748260498047,-24.842700958251953,1.043199062347412,-0.0,-0.0,-1.0,0.17418450746147224,1.0,2
27.618637084960938,-24.6092472076416,1.0500311851501465,-0.0,-0.0,-1.0,0.16672957314615067,2.0,2
25.400653839111328,-25.804067611694336,1.140596866607666,-0.0,-0.0,-1.0,0.23643926528957265,1.0,2
25.589439392089844,-25.659013748168945,1.1405978202819824,0.991752541653172,0.0020242648633942545,0.12815146692970805,0.21933590521124025,4.0,2
26.882186889648438,-25.017372131347656,1.0839252471923828,-0.0,-0.0,-1.0,0.12886124742398716,1.0,2
27.383548736572266,-24.4932861328125,1.0924906730651855,-0.0,-0.0,-1.0,0.17876146118614067,1.0,2
27.65876007080078,-24.37472152709961,1.0744976997375488,-0.0,-0.0,-1.0,0.15905980153995963,2.0,2
26.802257537841797,-26.38020133972168,1.017763614654541,-0.0,-0.0,-1.0,0.09843455187621579,1.0,2
26.757354736328125,-26.716115951538086,0.9928092956542969,-0.0,-0.0,-1.0,0.10659304295329453,1.0,1
27.04184341430664,-26.285293579101562,0.9896774291992188,-0.0,-0.0,-1.0,0.053383534633643835,1.0,1
27.014358520507812,-26.640748977661133,0.9606075286865234,-0.0,-0.0,-1.0,0.18152994543620798,2.0,1
27.401691436767578,-26.240859985351562,0.9376554489135742,-0.0,-0.0,-1.0,0.1247929409651771,1.0,1
25.53028106689453,-26.334569931030273,1.2138500213623047,-0.0,-0.0,-1.0,0.1556750548360634,1.0,2
26.723743438720703,-24.982040405273438,1.1587581634521484,-0.0,-0.0,-1.0,0.07852171147767595,1.0,2
26.455081939697266,-25.377023696899414,1.164994239807129,-0.0,-0.0,-1.0,0.11637819241635587,1.0,2
26.936019897460938,-24.685941696166992,1.1512699127197266,-0.5144360947102818,-0.2624503032366882,-0.8163794110523642,0.1945218415968086,3.0,2
27.452499389648438,-24.912704467773438,1.0481557846069336,-0.0,-0.0,-1.0,0.17008281046218146,1.0,2
27.05713653564453,-26.37291145324707,1.0193886756896973,-0.0,-0.0,-1.0,0.08170394324062757,1.0,2
26.89390754699707,-26.648151397705078,1.0270109176635742,-0.0,-0.0,-1.0,0.2034359068434124,1.0,2
27.48374366760254,-25.753402709960938,0.9896554946899414,-0.0,-0.0,-1.0,0.13074766485867625,1.0,1
27.479320526123047,-25.93043327331543,0.9779682159423828,-0.5872468002329987,0.028152102493985493,-0.8089182002781694,0.1303321658642987,3.0,1
27.459718704223633,-26.26691436767578,0.9573373794555664,-0.0,-0.0,-1.0,0.1511775067088668,1.0,1
26.51801872253418,-25.21665382385254,1.1967339515686035,-0.0,-0.0,-1.0,0.12421246765580643,1.0,2
27.068073272705078,-24.424392700195312,1.154587745666504,-0.0,-0.0,-1.0,0.07999926462920233,1.0,2
26.91040802001953,-24.679636001586914,1.165381908416748,-0.5144360947102818,-0.2624503032366882,-0.8163794110523642,0.15159377576681812,3.0,2
25.908222198486328,-26.228618621826172,0.8347001075744629,-0.0,-0.0,-1.0,0.1294876927553056,1.0,1
25.512012481689453,-26.683801651000977,0.898956298828125,-0.0,-0.0,-1.0,0.05683478165243837,1.0,1
26.044055938720703,-26.019180297851562,0.8141331672668457,-0.0,-0.0,-1.0,0.09499439743120097,1.0,1
25.327878952026367,-24.714019775390625,1.0201029777526855,-0.0,-0.0,-1.0,0.11937129419545627,1.0,2
25.26073455810547,-24.811742782592773,1.0308666229248047,-0.0,-0.0,-1.0,0.11155507683919202,2.0,2
26.29450798034668,-25.058713912963867,0.7963047027587891,-0.0,-0.0,-1.0,0.15561165161227072,1.0,1
26.45834732055664,-24.883779525756836,0.7663168907165527,-0.0,-0.0,-1.0,0.09715295933858165,1.0,1
25.752384185791016,-26.386249542236328,0.9251971244812012,-0.0,-0.0,-1.0,0.06515154783794493,1.0,1
25.75760269165039,-26.72350311279297,0.9353313446044922,-0.0,-0.0,-1.0,0.052817952300600005,1.0,1
25.70742416381836,-26.857746124267578,0.9507699012756348,-0.0,-0.0,-1.0,0.04926512203708562,2.0,1
25.281005859375,-24.561325073242188,0.9679827690124512,-0.0,-0.0,-1.0,0.10850473347463267,2.0,1
25.955459594726562,-25.358675003051758,0.8474903106689453,-0.0,-0.0,-1.0,0.1930200156978946,1.0,1
25.887981414794922,-25.64314842224121,0.8713264465332031,-0.0,-0.0,-1.0,0.1879346210813075,2.0,1
25.859054565429688,-26.045612335205078,0.8907566070556641,-0.9871380052727452,0.1471024569337838,0.06260531694824624,0.2037886154939646,3.0,1
25.90106201171875,-25.15558624267578,0.8527493476867676,-0.0,-0.0,-1.0,0.0940482470377086,2.0,1
26.307537078857422,-24.454208374023438,0.7427244186401367,-0.0,-0.0,-1.0,0.11075699939363298,1.0,1
