x,y,z,nx,ny,nz,curvature,density,label
29.00128173828125,5.6666646003723145,-0.8464919328689575,0.978014568619392,0.05389653060857347,-0.2014514024686439,0.2082387633575421,3.0,0
28.86865997314453,6.632236480712891,-0.8365789651870728,-0.0,-0.0,-1.0,0.24746436472047753,2.0,0
29.184160232543945,6.198704242706299,-0.817121148109436,-0.0,-0.0,-1.0,0.15175555220838383,1.0,0
29.094621658325195,5.913752555847168,-0.8319793939590454,-0.0,-0.0,-1.0,0.1470239598096045,2.0,0
29.218324661254883,6.618439674377441,-0.804784893989563,-0.07386529923508134,0.8894666683208283,0.45099109028356327,0.24571309177640135,4.0,0
29.272430419921875,6.349900245666504,-0.8056498765945435,-0.0,-0.0,-1.0,0.21036242487298268,1.0,0
29.572484970092773,7.647125720977783,-0.7528704404830933,0.7146425130880637,0.3911983620503263,-0.5798706062703286,0.23601368859732885,5.0,0
29.717626571655273,7.843837261199951,-0.7362366914749146,0.5535090832788352,0.208172397066698,-0.8064068128601891,0.22509584651773773,3.0,0
29.266141891479492,7.937312126159668,-1.0824347734451294,-0.0,-0.0,-1.0,0.0700655188447218,1.0,0
29.60283660888672,7.857744216918945,-1.0504416227340698,-0.18561666968874357,-0.9778052961390629,0.09717641059464774,0.19850124862935872,4.0,0
29.9290771484375,6.549027919769287,-1.0665847063064575,-0.0,-0.0,-1.0,0.08734407423436487,2.0,0
29.866348266601562,6.448897838592529,-1.0770717859268188,-0.0,-0.0,-1.0,0.06324962676190948,1.0,0
30.013307571411133,7.0549397468566895,-1.0377665758132935,-0.0,-0.0,-1.0,0.12256015241502326,1.0,0
30.024581909179688,7.916807174682617,-0.24215245246887207,0.0,0.0,1.0,0.08862987717975337,1.0,0
28.999906539916992,6.317361354827881,-0.5738959312438965,-0.061107646785817725,-0.989007818808879,0.1346454226448228,0.20248346378012283,5.0,0
28.97395133972168,6.017327308654785,-0.5790102481842041,0.26975402928651815,-0.9150955013155814,0.29972151600389446,0.288785497908723,4.0,0
28.994796752929688,5.6444854736328125,-0.5813590288162231,-0.0,-0.0,-1.0,0.14857528391016922,2.0,0
29.153406143188477,5.861594200134277,-0.565697193145752,-0.0,-0.0,-1.0,0.13158111258405525,1.0,0
29.549894332885742,7.664961338043213,-0.5178918838500977,-0.1784766063024823,-0.20197218385872817,-0.9629918680602058,0.11550364781245108,8.0,0
29.194822311401367,6.328418254852295,-0.5574816465377808,-0.0,-0.0,-1.0,0.2716796783226426,2.0,0
29.244892120361328,5.972625732421875,-0.5568604469299316,-0.0,-0.0,-1.0,0.13993813337561375,1.0,0
28.982128143310547,5.676962852478027,-0.5741099119186401,-0.0,-0.0,-1.0,0.19801482061289769,2.0,0
29.548730850219727,7.682193279266357,-0.5135694742202759,0.005968941035578076,-0.36397506701270443,-0.9313895652926393,0.08749732392161892,8.0,0
28.965463638305664,6.339756965637207,-0.5700453519821167,-0.6756084368260161,-0.4437782074615352,-0.5887394522806614,0.23905354961765088,5.0,0
28.993465423583984,6.099939346313477,-0.5694702863693237,-0.13669120520702313,-0.01932103560918897,-0.9904252682570452,0.22569849046391674,4.0,0
29.15250015258789,6.304014682769775,-0.5544055700302124,-0.2498707228829158,0.31806176748879245,-0.9145497984844096,0.147248673070387,3.0,0
29.134679794311523,5.93349027633667,-0.5588986873626709,-0.0,-0.0,-1.0,0.21959062869669865,1.0,0
29.447376251220703,8.063694953918457,-1.1260440349578857,-0.0,-0.0,-1.0,0.22862377445347912,2.0,0
29.785367965698242,7.973204612731934,-1.0897185802459717,-0.0,-0.0,-1.0,0.08953711861111555,1.0,0
30.185352325439453,6.769636631011963,-1.0736668109893799,-0.0,-0.0,-1.0,0.11494705575568617,1.0,0
29.941940307617188,7.935455799102783,-0.32364559173583984,0.0,0.0,1.0,0.11584276997127241,2.0,0
29.56484603881836,7.713070869445801,-0.3562518358230591,-0.0,-0.0,-1.0,0.15229886769172632,1.0,0
29.26944923400879,6.231940746307373,-0.4048192501068115,-0.0,-0.0,-1.0,0.10913467455035239,1.0,0
29.845396041870117,7.92088508605957,-0.4034625291824341,-0.0,-0.0,-1.0,0.09686612565573505,2.0,0
28.986888885498047,6.209113597869873,-0.5177450180053711,0.9117840821790062,0.40594473345835086,-0.06211812024213181,0.18801068623521278,11.0,0
28.99444007873535,6.02857780456543,-0.5225229263305664,-0.2104365276381329,-0.612828979536732,-0.7616804511575529,0.196309178044624,6.0,0
29.843704223632812,7.95485782623291,-0.5078591108322144,-0.0,-0.0,-1.0,0.1345650495122672,1.0,0
28.96332550048828,6.400954246520996,-0.5988291501998901,0.5194194127784244,0.3127228598359301,-0.7952407727002896,0.2261126913299705,3.0,0
29.066505432128906,6.1562180519104,-0.5922293663024902,0.7719792356467043,0.498813973964601,-0.39399578564747667,0.21642708039449793,6.0,0
29.00486183166504,6.025830268859863,-0.5992201566696167,0.5042792126907141,-0.8633700830764438,0.01716319599049102,0.26293921231933487,5.0,0
28.96677017211914,5.823325157165527,-0.6050208806991577,-0.0,-0.0,-1.0,0.190509035781321,2.0,0
29.02316665649414,6.652616500854492,-0.6738013029098511,-0.34761671913461645,0.8019450299121759,0.48584646296669176,0.23891387069018308,9.0,0
28.863378524780273,6.500893592834473,-0.6907148361206055,-0.0,-0.0,-1.0,0.22485067204162879,1.0,0
29.0391788482666,6.054404258728027,-0.6789300441741943,0.8136847350511254,0.46369855475249017,-0.3505721070838798,0.1532545212934309,3.0,0
28.961925506591797,6.251487731933594,-0.6839907169342041,0.6566863207676532,-0.7247423398053139,0.20859438393725185,0.22595181299057493,5.0,0
28.90264892578125,5.755484104156494,-0.6958272457122803,-0.0,-0.0,-1.0,0.23795919484117053,2.0,0
29.02878761291504,8.090896606445312,-1.0578538179397583,-0.0,-0.0,-1.0,0.06390048400716483,1.0,0
29.21533966064453,6.632528305053711,-1.0478767156600952,-0.0,-0.0,-1.0,0.12304462048437256,1.0,0
29.549619674682617,5.651561737060547,-1.0271018743515015,-0.0,-0.0,-1.0,0.1110355676462687,1.0,0
29.565921783447266,7.984618186950684,-0.9946039915084839,-0.4940362532783846,-0.1818207613131374,-0.8502172611763223,0.22727891156096788,3.0,0
29.693126678466797,7.143895149230957,-0.9878638982772827,0.8871470801347429,-0.1903362578707744,-0.4204071445017915,0.15179234066353772,3.0,0
29.56159782409668,7.247776031494141,-1.0021294355392456,-0.0,-0.0,-1.0,0.19090257367539476,1.0,0
29.98007583618164,6.252388000488281,-0.9650338888168335,-0.0,-0.0,-1.0,0.06418310621213132,1.0,0
29.87995719909668,6.542226314544678,-0.9715620279312134,-0.0,-0.0,-1.0,0.13958714505264955,1.0,0
29.842533111572266,8.069870948791504,-0.2880549430847168,0.0,0.0,1.0,0.11617684507358352,1.0,0
29.362529754638672,7.7809247970581055,-0.3289644718170166,-0.0,-0.0,-1.0,0.09158066933671997,2.0,0
29.26744842529297,5.638253211975098,-0.34831249713897705,-0.0,-0.0,-1.0,0.13811752216022768,1.0,0
28.32559585571289,7.729976177215576,-1.1055467128753662,-0.0,-0.0,-1.0,0.0676178719915369,1.0,0
28.29589080810547,7.927800178527832,-1.0867602825164795,-0.0,-0.0,-1.0,0.09060775959191499,1.0,0
29.719621658325195,6.792304039001465,-1.0708568096160889,-0.0,-0.0,-1.0,0.07634525932180872,1.0,0
30.169723510742188,7.92893648147583,-0.8890705108642578,-0.0,-0.0,-1.0,0.10796299495822448,1.0,0
29.5748291015625,7.741917610168457,-0.9728143215179443,0.9754479971673374,-0.10103435326056165,-0.1956866481992319,0.2429726279150097,7.0,0
29.710886001586914,6.923008441925049,-1.0556371212005615,-0.0,-0.0,-1.0,0.20725150897398892,1.0,0
29.285114288330078,7.497340202331543,-0.3581439256668091,-0.0,-0.0,-1.0,0.12538371020380307,1.0,0
29.131044387817383,6.167026519775391,-0.518623948097229,-0.0,-0.0,-1.0,0.13216251263224713,1.0,0
28.78984832763672,5.926568031311035,-0.5700435638427734,0.2499270225599009,-0.12995679211190023,-0.9595038903403822,0.23684033092695445,3.0,0
28.03064727783203,7.718210220336914,-0.7939696311950684,-0.0,-0.0,-1.0,0.2215051861588273,1.0,0
28.002723693847656,7.926307678222656,-0.7875430583953857,-0.0,-0.0,-1.0,0.12378139275257342,2.0,0
28.006921768188477,7.606312274932861,-0.801260232925415,-0.0,-0.0,-1.0,0.1913743817009119,1.0,0
29.149621963500977,6.228146553039551,-0.7578930854797363,-0.0,-0.0,-1.0,0.2321739316628161,2.0,0
28.938426971435547,6.455759048461914,-0.7663683891296387,-0.7114474460657706,0.18356505530004397,-0.6783409186826224,0.1629332331104783,4.0,0
29.074851989746094,5.823558807373047,-0.7862651348114014,-0.0,-0.0,-1.0,0.20540007917558983,2.0,0
27.86753273010254,6.3439860343933105,-0.8744919300079346,-0.0,-0.0,-1.0,0.21485625243718318,1.0,0
27.89019012451172,6.276019096374512,-0.8757202625274658,-0.0,-0.0,-1.0,0.24634409614666042,1.0,0
29.57421875,8.031532287597656,-0.8662405014038086,-0.3534481589460581,0.5634298518613965,-0.7467403839147089,0.23817088976617742,3.0,0
29.558549880981445,6.960899829864502,-0.8899924755096436,-0.0,-0.0,-1.0,0.16678075961160033,2.0,0
29.36629867553711,7.0794782638549805,-0.909679651260376,0.13331141165546267,0.5740478289702504,-0.8078967493293744,0.1449146474098851,4.0,0
28.33758544921875,8.118535995483398,-1.010094404220581,-0.0,-0.0,-1.0,0.058999471155837466,1.0,0
29.258195877075195,6.534234046936035,-0.9348878860473633,-0.2177095010692915,0.17726137907909142,-0.959781733849493,0.24306353536676636,4.0,0
28.320173263549805,7.872644424438477,-1.0163145065307617,-0.0,-0.0,-1.0,0.1535697534935048,2.0,0
29.156118392944336,5.998074531555176,-0.9602985382080078,-0.7857811395373037,-0.4678196634380278,-0.40458962325816894,0.18230196325419346,4.0,0
29.085634231567383,6.241424560546875,-0.9621167182922363,-0.0,-0.0,-1.0,0.20589993387191893,1.0,0
29.09872055053711,5.890887260437012,-0.9697349071502686,-0.0,-0.0,-1.0,0.10571628101315957,1.0,0
29.341257095336914,7.759840488433838,-0.24013328552246094,0.5027217078284989,-0.5047219237517623,-0.70180243955284,0.2125878447608876,3.0,0
29.194843292236328,6.217853546142578,-0.2728317975997925,0.80418516945762,-0.5476471027519861,0.23101702117327802,0.08478297454445907,3.0,0
29.008081436157227,6.369507789611816,-0.2858198881149292,-0.2048583232941369,0.9680086228741855,0.14488745086562008,0.1725130098477753,5.0,0
28.229997634887695,7.888671875,-0.965843677520752,-0.0,-0.0,-1.0,0.12382512364728374,1.0,0
29.27804946899414,6.427220344543457,-0.9042365550994873,-0.0,-0.0,-1.0,0.22656401417447322,2.0,0
28.299345016479492,7.565556049346924,-0.9696903228759766,-0.0,-0.0,-1.0,0.12369260826218999,1.0,0
29.198650360107422,5.992698669433594,-0.9325406551361084,0.29820069525987625,0.20484855692679543,-0.9322625242234807,0.19444332411597096,3.0,0
29.147071838378906,6.177088260650635,-0.9300847053527832,-0.0,-0.0,-1.0,0.2260190651135452,2.0,0
29.055246353149414,5.8010759353637695,-0.9574151039123535,-0.0,-0.0,-1.0,0.15307261273754288,1.0,0
29.555084228515625,7.952436447143555,-0.8108861446380615,-0.0,-0.0,-1.0,0.23459113721108854,2.0,0
29.439044952392578,6.815090656280518,-0.8693361282348633,-0.0,-0.0,-1.0,0.1684006593815497,1.0,0
29.39219856262207,6.733609676361084,-0.8781051635742188,-0.0,-0.0,-1.0,0.1923381172578667,2.0,0
29.321908950805664,7.632699489593506,-0.2171921730041504,0.5811510149828527,-0.12709195233670895,-0.8038103840058575,0.11161081737391527,4.0,0
29.095186233520508,6.197822093963623,-0.2798633575439453,-0.0,-0.0,-1.0,0.1815180260700678,1.0,0
28.782838821411133,7.360797882080078,-1.0476044416427612,-0.0,-0.0,-1.0,0.039063664496111775,2.0,0
28.4526424407959,7.648253917694092,-1.0570622682571411,-0.0,-0.0,-1.0,0.11855659665978373,1.0,0
28.354618072509766,7.8156962394714355,-1.0526429414749146,-0.0,-0.0,-1.0,0.09827256215238343,1.0,0
29.626680374145508,7.926470756530762,-0.9017716646194458,-0.0,-0.0,-1.0,0.22127594608833975,2.0,0
29.496868133544922,7.706826210021973,-0.9365378618240356,-0.0,-0.0,-1.0,0.18229986070824195,2.0,0
28.884008407592773,7.324683666229248,-1.0399760007858276,-0.0,-0.0,-1.0,0.04599909883349928,2.0,0
29.846506118774414,6.766113758087158,-0.9913202524185181,-0.9627764964000145,-0.19282100582258793,-0.18942406841074255,0.20930842257885304,4.0,0
29.618837356567383,6.86623477935791,-1.0054806470870972,-0.0,-0.0,-1.0,0.10728240954688754,1.0,0
29.883804321289062,5.985759735107422,-1.0702577829360962,-0.0,-0.0,-1.0,0.04759347827307641,1.0,0
29.687021255493164,6.225392818450928,-1.0651837587356567,-0.0,-0.0,-1.0,0.05722558592869527,1.0,0
29.490808486938477,6.437882900238037,-1.0632892847061157,-0.0,-0.0,-1.0,0.02795885803973816,1.0,0
29.496850967407227,6.051690578460693,-1.1036204099655151,-0.0,-0.0,-1.0,0.10661800448311701,1.0,0
30.022701263427734,8.013824462890625,-0.2684124708175659,0.0,0.0,1.0,0.08857556624335498,2.0,0
29.034311294555664,6.297224998474121,-0.4916102886199951,-0.25619548625617716,-0.5186806920102172,-0.815680214641598,0.19086559303294567,9.0,0
29.005281448364258,5.88622522354126,-0.5317020416259766,0.3956864385222991,-0.8161438456523858,0.4211193008795412,0.1512424614624919,3.0,0
29.01473617553711,6.156057834625244,-0.5059846639633179,0.5492499022386532,0.5675833420501388,0.6133300047429812,0.25480277293388975,4.0,0
29.537700653076172,8.012540817260742,-0.762650728225708,-0.0,-0.0,-1.0,0.24963462088463761,2.0,0
29.57705307006836,7.85149621963501,-0.766791582107544,-0.8871916246340653,0.38152033430890137,0.259486523133654,0.17472458734820193,3.0,0
28.120038986206055,8.130119323730469,-0.9241330623626709,-0.0,-0.0,-1.0,0.09639467919551228,1.0,0
28.367265701293945,7.545168399810791,-0.9258651733398438,-0.0,-0.0,-1.0,0.13401895476235537,2.0,0
28.049772262573242,7.794078826904297,-0.9499900341033936,0.44455251670395796,-0.703976095826596,-0.5538869166146828,0.12747007185510317,3.0,0
29.162948608398438,6.667604923248291,-0.8830544948577881,-0.8256665158030732,0.4600134758502195,-0.3265921106178365,0.24073095212633425,4.0,0
28.130043029785156,7.078481674194336,-0.9795496463775635,-0.0,-0.0,-1.0,0.03370462097399165,2.0,0
29.106277465820312,6.098277568817139,-0.9243252277374268,0.5002297931539852,0.7608613608310295,-0.4133523238539672,0.1761020731198918,3.0,0
29.045303344726562,5.741629600524902,-0.9537341594696045,-0.0,-0.0,-1.0,0.17239075395464387,1.0,0
29.299617767333984,7.6663498878479,-0.2335665225982666,0.6799646255036816,0.49539541707550977,-0.5405843956351496,0.20135818213361126,7.0,0
28.995704650878906,6.306575775146484,-0.3210151195526123,-0.5589025976487882,0.6912621111257936,-0.4580224667670217,0.1837142679318997,3.0,0
29.656795501708984,7.910365104675293,-0.6836016178131104,0.9433368770682453,0.21499518906019838,-0.2527698657753717,0.19256036310483032,4.0,0
28.030536651611328,8.0404634475708,-0.8678032159805298,-0.0,-0.0,-1.0,0.14230625521011478,2.0,0
30.01818084716797,6.89256477355957,-0.7103911638259888,0.6568185753266508,0.2700782242206533,-0.7040220961785844,0.18778331786761082,7.0,0
28.229949951171875,7.617759704589844,-0.8705393075942993,-0.0,-0.0,-1.0,0.25154707550918376,1.0,0
29.952655792236328,6.777585506439209,-0.7260674238204956,-0.0,-0.0,-1.0,0.20022215130206317,2.0,0
29.19158172607422,6.666727542877197,-0.8216050863265991,-0.0,-0.0,-1.0,0.23437188760881295,2.0,0
29.107837677001953,6.319892883300781,-0.855721116065979,-0.0,-0.0,-1.0,0.1723829931681634,1.0,0
28.010093688964844,6.939423561096191,-0.9404584169387817,-0.0,-0.0,-1.0,0.10646647146088017,1.0,0
29.111858367919922,5.94097900390625,-0.8825725317001343,-0.9095371283037891,0.32101721761813157,-0.26398893580907895,0.16896356767614462,4.0,0
29.022693634033203,6.0735955238342285,-0.8831616640090942,-0.0,-0.0,-1.0,0.14986916531182276,2.0,0
28.965843200683594,5.742254734039307,-0.9137579202651978,-0.0,-0.0,-1.0,0.20175206058002756,1.0,0
29.269359588623047,7.701592922210693,-0.1988769769668579,-0.2824239942352761,0.9230236743990828,-0.26127377208401226,0.15502383080638268,5.0,0
29.155536651611328,6.152180194854736,-0.292804479598999,-0.0,-0.0,-1.0,0.13467690997900414,2.0,0
29.604034423828125,7.847696304321289,-0.954818606376648,-0.019623626908571536,-0.9990751871326944,-0.03825811969667178,0.15013259875002383,4.0,0
29.506790161132812,7.964745044708252,-0.9619451761245728,-0.4734352156180298,-0.6634252442689269,-0.5794187103290888,0.1717548363007877,3.0,0
29.031864166259766,7.863693714141846,-1.0388294458389282,-0.0,-0.0,-1.0,0.041511589377756765,2.0,0
28.652639389038086,8.026960372924805,-1.0856562852859497,-0.0,-0.0,-1.0,0.07400151929832763,1.0,0
29.12567138671875,7.3018693923950195,-1.0604640245437622,-0.0,-0.0,-1.0,0.09696763396054905,1.0,0
29.03268814086914,7.457277297973633,-1.064107060432434,-0.0,-0.0,-1.0,0.03640096649985174,1.0,0
29.850383758544922,6.729133129119873,-0.9941707849502563,-0.9627764964000145,-0.19282100582258793,-0.18942406841074255,0.15502540703633555,4.0,0
29.660202026367188,6.273887634277344,-1.054691195487976,-0.0,-0.0,-1.0,0.03250745789200126,1.0,0
30.008358001708984,5.9217705726623535,-1.0319234132766724,-0.0,-0.0,-1.0,0.10902547724354852,1.0,0
29.63863754272461,7.596024513244629,-0.46215200424194336,-0.10560636986105784,0.9214997885045345,-0.3737451463642945,0.1685856734933849,4.0,0
29.352527618408203,7.687169551849365,-0.4905475378036499,-0.0,-0.0,-1.0,0.18358470527768794,1.0,0
29.105331420898438,6.727762222290039,-0.5678834915161133,-0.0,-0.0,-1.0,0.1370699235612448,1.0,0
28.98175811767578,6.363640785217285,-0.6014629602432251,-0.6631453393099629,-0.1554695838944228,-0.73216628400601,0.2192946675470417,6.0,0
28.727611541748047,6.595846176147461,-0.6177250146865845,-0.0,-0.0,-1.0,0.1412918280722442,2.0,0
28.897233963012695,6.210306167602539,-0.619430422782898,0.8270782515222078,0.4185037783025992,-0.3752281351463623,0.22850895511325936,3.0,0
28.5373477935791,6.351144313812256,-0.6523194313049316,-0.0,-0.0,-1.0,0.25298020810786653,1.0,0
27.795581817626953,6.388247489929199,-0.7346302270889282,-0.0,-0.0,-1.0,0.18760675522906545,2.0,0
28.84974479675293,5.744383335113525,-0.6507852077484131,0.9601220829558736,-0.10732297192052827,0.2581615105290098,0.24309462410537874,4.0,0
29.620494842529297,7.83219051361084,-0.8044008016586304,-0.9328959521688431,-0.12535787728102632,-0.33762485843104356,0.2668015158565911,4.0,0
28.50066375732422,7.604054927825928,-0.9816762208938599,-0.0,-0.0,-1.0,0.0927818684086327,1.0,0
28.334293365478516,7.792818546295166,-0.9929088354110718,-0.0,-0.0,-1.0,0.18907362625991989,1.0,0
30.076091766357422,6.831346035003662,-0.8170062303543091,0.09749798404854562,-0.8197383502847844,-0.5643785787739024,0.14955162263014582,7.0,0
29.390888214111328,7.117708206176758,-0.8901528120040894,-0.0,-0.0,-1.0,0.13948053258438362,2.0,0
28.833908081054688,7.210777282714844,-0.9621480703353882,-0.0,-0.0,-1.0,0.046140665433375416,1.0,0
28.580469131469727,7.418790340423584,-0.9832342863082886,-0.0,-0.0,-1.0,0.07919355981569451,1.0,0
29.47386360168457,6.835309982299805,-0.900436282157898,-0.0,-0.0,-1.0,0.13729718401678337,2.0,0
28.617321014404297,6.754650592803955,-1.0270403623580933,-0.0,-0.0,-1.0,0.18950845136177027,1.0,0
28.638134002685547,7.053229331970215,-1.00163733959198,-0.0,-0.0,-1.0,0.037662404182940486,1.0,0
29.726192474365234,5.739538192749023,-0.9566200971603394,-0.0,-0.0,-1.0,0.07397425621195414,2.0,0
29.46658706665039,5.84883975982666,-0.9823185205459595,-0.0,-0.0,-1.0,0.20731253021334528,1.0,0
29.283103942871094,6.6192851066589355,-0.4438720941543579,0.8432669558924609,0.36067681935368306,0.3985135795437506,0.14517852943652693,4.0,0
29.006072998046875,6.193140029907227,-0.5003687143325806,0.1680252131816124,0.4034434914476029,-0.8994447603626593,0.24331993087227627,7.0,0
28.65567398071289,6.313472747802734,-0.5308598279953003,-0.0,-0.0,-1.0,0.20382586529016025,2.0,0
29.17310905456543,6.0849385261535645,-0.48923754692077637,-0.0,-0.0,-1.0,0.1584562700264603,1.0,0
28.581226348876953,6.212303161621094,-0.5451685190200806,-0.0,-0.0,-1.0,0.15864135421591588,2.0,0
29.82073974609375,7.923590183258057,-0.3076537847518921,0.7882335449234261,-0.5110079336369097,-0.34286844476793854,0.1416940244624426,14.0,0
28.590757369995117,8.014192581176758,-1.0386162996292114,0.6536964033761463,-0.7044914712169076,-0.2763562541281236,0.09467392915556369,4.0,0
28.917274475097656,7.667120456695557,-1.0266820192337036,-0.0,-0.0,-1.0,0.07691331259166323,1.0,0
28.75048065185547,7.872467041015625,-1.0295802354812622,0.022583986940664436,-0.3488597214719614,-0.9369028008648331,0.08531872310262566,3.0,0
29.712905883789062,7.039126396179199,-0.9828740358352661,-0.48671769400389947,-0.6469203639593242,-0.5870263444158723,0.18519807071250152,4.0,0
29.324947357177734,7.095448970794678,-1.0309795141220093,0.020022750207190857,-0.31457229639787115,-0.9490223178688212,0.15909859241021698,3.0,0
29.03812026977539,7.180868625640869,-1.0621200799942017,-0.0,-0.0,-1.0,0.061944223444123536,2.0,0
29.688297271728516,6.425800800323486,-1.0591398477554321,-0.0,-0.0,-1.0,0.045380338153442376,2.0,0
30.13829231262207,6.022933483123779,-1.0487910509109497,-0.0,-0.0,-1.0,0.11837527117513937,1.0,0
29.78089141845703,6.235691070556641,-1.0698555707931519,-0.0,-0.0,-1.0,0.033489360785445704,2.0,0
29.623661041259766,7.802814960479736,-0.9096611738204956,-0.187267664145761,0.3939525584546431,-0.8998512119525268,0.1960257808344536,4.0,0
27.93073844909668,7.56419563293457,-0.6814132928848267,0.022838607267446093,0.7535753506562611,-0.6569646785797366,0.17233996230589105,3.0,0
28.890628814697266,6.711205005645752,-0.6497706174850464,-0.0,-0.0,-1.0,0.10998940496340136,2.0,0
29.027942657470703,6.273678302764893,-0.6771360635757446,0.8134242900387761,-0.3037613308258196,0.4960544105940801,0.215872700647164,3.0,0
28.763097763061523,6.445640563964844,-0.6893323659896851,-0.0,-0.0,-1.0,0.2498436586907806,2.0,0
28.40129852294922,6.591263771057129,-0.7154198884963989,-0.0,-0.0,-1.0,0.09424571685973375,1.0,0
29.023618698120117,5.963178634643555,-0.7084890604019165,0.9176584183819425,0.15014927800928624,0.36791061616382054,0.22070604795323429,4.0,0
29.680585861206055,7.859993934631348,-0.4544581174850464,-0.0,-0.0,-1.0,0.12702159073114244,2.0,0
28.92292022705078,6.399119853973389,-0.18972015380859375,0.03585851356391722,0.6949506042430248,-0.7181628120887639,0.16777015989284277,3.0,0
28.881511688232422,6.429309368133545,-0.19068551063537598,0.9247927485759176,0.3477681925471525,0.1543232206567979,0.20111105947573435,5.0,0
28.89958953857422,6.089420795440674,-0.21582114696502686,-0.0,-0.0,-1.0,0.1479994493886577,1.0,0
29.285715103149414,6.12703800201416,-0.1825028657913208,0.7002257400244419,-0.7031425173611823,-0.12359010189413322,0.1277936707449539,11.0,0
29.615493774414062,7.849926471710205,-1.0048421621322632,0.8997709107333837,-0.3957153011560481,-0.18390679331932144,0.17395924435624033,4.0,0
29.214508056640625,7.889382362365723,-1.0614792108535767,-0.0,-0.0,-1.0,0.06673086168510059,1.0,0
28.901691436767578,8.072942733764648,-1.0875071287155151,-0.5510748973364622,-0.769716349944107,-0.3222626229557633,0.07974209557498146,3.0,0
29.449331283569336,7.3364949226379395,-1.0968295335769653,-0.37754379394464205,-0.9245207681526574,-0.05217310522008613,0.06992836162894787,3.0,0
29.17745590209961,7.6807026863098145,-1.0937350988388062,-0.0,-0.0,-1.0,0.06202604910137937,1.0,0
27.712505340576172,8.091904640197754,-0.7989517450332642,-0.0,-0.0,-1.0,0.09564417424865151,2.0,0
30.189273834228516,6.689514636993408,-1.077139973640442,-0.0,-0.0,-1.0,0.21267829435063626,1.0,0
29.525787353515625,7.2519683837890625,-1.0966185331344604,-0.0,-0.0,-1.0,0.10685225666679289,2.0,0
29.273454666137695,7.343432426452637,-1.1224089860916138,-0.0,-0.0,-1.0,0.03387128378944387,1.0,0
30.145713806152344,6.505688190460205,-1.109573245048523,-0.0,-0.0,-1.0,0.08972019711805453,1.0,0
29.93752670288086,6.696562767028809,-1.1121951341629028,-0.0,-0.0,-1.0,0.07604221944148176,1.0,0
28.751449584960938,6.731211185455322,-0.8125041723251343,0.7524468755224257,-0.5562436848344299,-0.35272746221176887,0.19876906848972264,4.0,0
27.799091339111328,7.105251312255859,-0.8885136842727661,0.7491984462253414,0.09685878627099721,-0.6552252007482947,0.23962511869740377,3.0,0
29.104358673095703,6.256875038146973,-0.8247781991958618,-0.0,-0.0,-1.0,0.140324867283495,2.0,0
28.89377212524414,6.3812642097473145,-0.8351715803146362,-0.0,-0.0,-1.0,0.2321949819391852,2.0,0
28.632965087890625,6.703629016876221,-0.8298486471176147,-0.0,-0.0,-1.0,0.17313518377813938,1.0,0
27.895809173583984,6.596815586090088,-0.931108832359314,-0.7068643127707323,-0.19303242068123438,-0.6805007919885937,0.06661060483770254,3.0,0
27.764869689941406,6.799480438232422,-0.9252849817276001,-0.0,-0.0,-1.0,0.04269018339210884,1.0,0
29.027877807617188,5.950085639953613,-0.8696445226669312,-0.99552082334406,0.005239003803951647,-0.09439726228819842,0.17291109863978327,4.0,0
28.1950626373291,6.277487277984619,-0.9301851987838745,0.08134275155849485,0.012835270975148912,-0.9966035383179649,0.23254463066314143,3.0,0
28.021163940429688,6.420672416687012,-0.9352000951766968,-0.0,-0.0,-1.0,0.13590229165689227,2.0,0
28.78915786743164,5.646834373474121,-0.932984471321106,-0.0,-0.0,-1.0,0.13232766032634846,1.0,0
29.573577880859375,8.107221603393555,-0.5619211196899414,-0.0,-0.0,-1.0,0.1489159407631647,2.0,0
29.69442367553711,7.89542818069458,-0.5697237253189087,-0.464177637953906,-0.4659602301699743,-0.7532729812780206,0.2020962803854756,5.0,0
29.624446868896484,7.62680196762085,-0.6075917482376099,-0.580386718240308,-0.5768134721821563,-0.5748369121754532,0.1883939256830042,4.0,0
28.369171142578125,7.613875865936279,-0.7639743089675903,-0.0,-0.0,-1.0,0.19299352168768444,1.0,0
29.038869857788086,6.71505880355835,-0.7799192667007446,-0.0,-0.0,-1.0,0.21569364525899462,2.0,0
28.74878692626953,6.840737342834473,-0.8006104230880737,-0.0,-0.0,-1.0,0.23409104282399573,2.0,0
30.18203353881836,6.172147750854492,-0.7113007307052612,-0.0,-0.0,-1.0,0.06366510301681554,1.0,0
29.00048828125,6.518368244171143,-0.8068448305130005,0.5447435234192427,-0.8343115234146996,-0.08472765540384113,0.2296078722522888,7.0,0
29.556087493896484,5.805543899536133,-0.8263777494430542,-0.0,-0.0,-1.0,0.22184007012157397,2.0,0
29.310001373291016,7.683838844299316,-0.21170270442962646,0.35204645670690843,-0.09785540902674657,-0.9308531630951892,0.14716800048662518,12.0,0
29.13607406616211,6.218219757080078,-0.3617180585861206,-0.04922428607213978,0.8998443013683992,0.4334249680804111,0.1742397205704512,4.0,0
28.968170166015625,6.2558135986328125,-0.37311768531799316,-0.0,-0.0,-1.0,0.16615735988363067,1.0,0
29.5770263671875,7.803715229034424,-0.9016247987747192,-0.6492549527038424,-0.2617331139905775,-0.714117485733494,0.15114646610060317,5.0,0
28.613025665283203,8.007176399230957,-1.0330322980880737,0.6536964033761463,-0.7044914712169076,-0.2763562541281236,0.09024242433147775,4.0,0
28.932872772216797,7.726930141448975,-1.0144482851028442,-0.0,-0.0,-1.0,0.059242808008523384,1.0,0
29.598411560058594,6.9865546226501465,-1.0045768022537231,-0.0,-0.0,-1.0,0.13262420071709285,2.0,0
29.269786834716797,7.130319595336914,-1.036291480064392,-0.0,-0.0,-1.0,0.12119593044580894,2.0,0
29.038955688476562,7.160042762756348,-1.0686153173446655,-0.0,-0.0,-1.0,0.07394517196485932,2.0,0
29.917011260986328,6.303919792175293,-1.0500601530075073,-0.0,-0.0,-1.0,0.05511497968765764,2.0,0
27.953022003173828,6.145627975463867,-0.8889497518539429,-0.0,-0.0,-1.0,0.15698732640748153,1.0,0
29.701324462890625,7.66985559463501,-0.50178062915802,-0.0,-0.0,-1.0,0.12228673676318501,2.0,0
29.532991409301758,7.832825183868408,-0.5066026449203491,-0.0,-0.0,-1.0,0.14070630158383582,1.0,0
29.547618865966797,7.5967020988464355,-0.5293893814086914,0.698675799070836,-0.585386308888215,-0.4113088829079187,0.11483149648615922,3.0,0
28.77056884765625,7.404616832733154,-0.6508469581604004,-0.0,-0.0,-1.0,0.17805721435416227,1.0,0
29.005924224853516,6.759284019470215,-0.6883271932601929,0.4306312896007247,0.6756801581627503,0.5983418891252541,0.20190165920475672,4.0,0
28.82455062866211,6.6885833740234375,-0.7190924882888794,-0.7454266621259917,-0.20907921683957706,0.6329494233171016,0.1735097785907749,3.0,0
27.908145904541016,7.0920281410217285,-0.796812891960144,-0.0,-0.0,-1.0,0.1407889723322913,1.0,0
30.1395263671875,6.129242897033691,-0.619519829750061,0.2766488585906414,0.6511302262943558,-0.7067494870506494,0.15217996700100989,4.0,0
28.98031234741211,6.365024566650391,-0.7345947027206421,0.07477243204809883,0.9318097726442836,-0.3551614154299718,0.23369584511692557,3.0,0
28.638832092285156,6.591123104095459,-0.7533191442489624,-0.0,-0.0,-1.0,0.11303303744358442,1.0,0
28.406024932861328,6.514186859130859,-0.7914389371871948,-0.0,-0.0,-1.0,0.20989917937531233,1.0,0
29.43328857421875,5.7758893966674805,-0.7451647520065308,-0.0,-0.0,-1.0,0.12587414772285038,2.0,0
28.956083297729492,5.988245964050293,-0.779387354850769,-0.26614469413881525,0.9120733598063374,0.3119121480695101,0.22892836891423402,5.0,0
29.246734619140625,7.714223861694336,-0.15204012393951416,0.2464372916912947,0.5994294495490855,-0.7615464505052466,0.09178569267498528,4.0,0
28.988323211669922,6.317422866821289,-0.2956371307373047,-0.5606619881664694,0.6924426513020651,-0.45407192126687135,0.2582050230094393,4.0,0
28.731826782226562,6.149501800537109,-0.33550238609313965,-0.0,-0.0,-1.0,0.09929250872842714,1.0,0
29.56372833251953,7.861412525177002,-1.0478570461273193,-0.33986469685025256,-0.9285523681259961,0.14927319746857046,0.1377875615797502,5.0,0
29.146055221557617,7.885043621063232,-1.1158726215362549,-0.0,-0.0,-1.0,0.03760029809574886,1.0,0
28.911357879638672,8.08282470703125,-1.1276397705078125,-0.5510748973364622,-0.769716349944107,-0.3222626229557633,0.07553244045291936,3.0,0
29.850767135620117,7.28698205947876,-1.0910980701446533,-0.0,-0.0,-1.0,0.15558879225755817,1.0,0
29.556724548339844,7.37930965423584,-1.124269723892212,-0.0,-0.0,-1.0,0.06841597173429272,1.0,0
30.15218734741211,8.098042488098145,-0.9121217727661133,-0.0,-0.0,-1.0,0.09892991019383213,1.0,0
29.602201461791992,7.755635738372803,-0.6783385276794434,0.45456969695195343,0.6053930968356446,-0.6533495151270537,0.22499903207515098,5.0,0
29.387489318847656,7.787409782409668,-0.7047066688537598,-0.5259015154301356,0.07382192388613,-0.8473357773763821,0.23405859204591964,8.0,0
28.83251190185547,7.604477405548096,-0.8080477714538574,0.6292028323132388,-0.6445180804097607,0.43439640863376777,0.17045723492694015,3.0,0
28.18014144897461,7.529533863067627,-0.9132125377655029,-0.0,-0.0,-1.0,0.20100783831464958,1.0,0
27.917240142822266,7.774443626403809,-0.9231867790222168,-0.0,-0.0,-1.0,0.09973226169278018,2.0,0
29.985937118530273,6.906641006469727,-0.7405853271484375,0.31627534959297415,-0.07185393842611525,-0.9459423422030002,0.2295345018325104,7.0,0
29.304550170898438,7.087377071380615,-0.8081717491149902,-0.0,-0.0,-1.0,0.11783157106768002,1.0,0
28.152015686035156,7.281412601470947,-0.9480173587799072,-0.0,-0.0,-1.0,0.02705118885359407,1.0,0
27.836894989013672,7.504473686218262,-0.9675483703613281,-0.0,-0.0,-1.0,0.1210202102485654,2.0,0
29.209583282470703,6.535701751708984,-0.8958160877227783,-0.8125130908777818,-0.5697348517821869,0.12338831312957764,0.16023268992666015,3.0,0
28.97829246520996,6.697853088378906,-0.9054231643676758,-0.0,-0.0,-1.0,0.19481111182053473,2.0,0
28.49429702758789,6.765083312988281,-0.9644997119903564,-0.0,-0.0,-1.0,0.09979265823685256,1.0,0
28.27178955078125,6.986697673797607,-0.9675195217132568,-0.0,-0.0,-1.0,0.027167944450499887,2.0,0
29.085113525390625,6.054557800292969,-0.9787507057189941,-0.0,-0.0,-1.0,0.1482635090546887,1.0,0
28.625362396240234,6.543903350830078,-0.9748809337615967,-0.0,-0.0,-1.0,0.13164516758977687,1.0,0
29.69645881652832,5.640820503234863,-0.9584653377532959,-0.0,-0.0,-1.0,0.07525725620395772,2.0,0
29.542617797851562,5.685547828674316,-0.9714655876159668,-0.0,-0.0,-1.0,0.1630981789468762,1.0,0
29.227638244628906,5.770702362060547,-0.999805212020874,-0.0,-0.0,-1.0,0.20330642657356432,1.0,0
29.944412231445312,8.00788688659668,-0.2378932237625122,0.20979663400075188,-0.11562606967139256,0.9708841251016008,0.09893599348391757,7.0,0
29.87563133239746,7.991944313049316,-0.24747967720031738,-0.22686294476239122,-0.9516164589426652,0.20726630059698348,0.1107146861657044,6.0,0
29.398609161376953,7.702446460723877,-0.33309507369995117,-0.9338360416664938,-0.27710905065675473,-0.22618757996133818,0.11445254825717041,13.0,0
29.239858627319336,6.581236839294434,-0.4722909927368164,0.09910567806921389,0.9813402218009908,0.16477085194300456,0.1404708774781605,4.0,0
29.06546401977539,6.245368957519531,-0.5288376808166504,0.8636541651259172,0.19575438589580324,-0.46452309249725354,0.21375768366737125,9.0,0
28.72479820251465,6.205179214477539,-0.5709500312805176,-0.0,-0.0,-1.0,0.17336147753008194,2.0,0
28.529006958007812,6.308383941650391,-0.5814996957778931,-0.0,-0.0,-1.0,0.16777379369264014,1.0,0
29.03140640258789,5.875409126281738,-0.574124813079834,0.707859026014138,-0.590788954885587,0.3871743923292341,0.22771845775626937,4.0,0
28.58548355102539,6.094080924987793,-0.5985853672027588,-0.0,-0.0,-1.0,0.12110881676568791,1.0,0
28.469989776611328,6.097851753234863,-0.6110591888427734,0.8773241695358966,-0.013327148765497154,0.4797131316254865,0.1825798454669454,5.0,0
28.93586540222168,7.960456848144531,-1.0357065200805664,-0.0,-0.0,-1.0,0.07321834229131877,2.0,0
28.650196075439453,8.10429859161377,-1.057877540588379,-0.0,-0.0,-1.0,0.07674169610415545,1.0,0
29.620769500732422,7.175930023193359,-1.0671412944793701,-0.0,-0.0,-1.0,0.18571003094159175,2.0,0
29.397403717041016,7.2899603843688965,-1.079564094543457,-0.0,-0.0,-1.0,0.06435852698254026,1.0,0
29.037220001220703,7.653312683105469,-1.0712218284606934,-0.0,-0.0,-1.0,0.01149776125073044,1.0,0
29.526039123535156,7.129467487335205,-1.089263916015625,-0.0,-0.0,-1.0,0.1757880777517438,2.0,0
29.622499465942383,7.857362270355225,-0.9461007118225098,0.33049390972395687,-0.943770189981036,0.008461922862569488,0.21724182356110108,4.0,0
29.422161102294922,7.82216215133667,-0.7990636825561523,-0.0,-0.0,-1.0,0.21400856276569546,1.0,0
28.980653762817383,8.004100799560547,-1.0211308002471924,-0.0,-0.0,-1.0,0.07006509234347227,1.0,0
29.893131256103516,7.173295497894287,-1.0285065174102783,-0.0,-0.0,-1.0,0.18980191235908223,1.0,0
28.80397605895996,7.4946699142456055,-0.746126651763916,-0.0,-0.0,-1.0,0.13551266517021326,1.0,0
28.072650909423828,7.944108486175537,-0.7824923992156982,-0.0,-0.0,-1.0,0.13712004972907602,1.0,0
29.28644561767578,6.61777400970459,-0.8155832290649414,-0.0,-0.0,-1.0,0.2552889689420682,2.0,0
29.03748321533203,6.611361503601074,-0.8469009399414062,-0.570705692872162,0.21932594652730003,-0.7913224003547542,0.19630202986610884,5.0,0
28.659984588623047,6.769191741943359,-0.8703505992889404,-0.0,-0.0,-1.0,0.14588254321260224,1.0,0
28.12712287902832,6.844525337219238,-0.9281816482543945,-0.0,-0.0,-1.0,0.1071409008837158,2.0,0
27.9041690826416,7.097708702087402,-0.9219484329223633,-0.22127875791838095,0.33034931601282336,-0.9175538353164668,0.2266038619176738,5.0,0
29.073951721191406,6.123558044433594,-0.9169111251831055,-0.0,-0.0,-1.0,0.16638594398987544,2.0,0
28.583297729492188,6.428336143493652,-0.930574893951416,-0.0,-0.0,-1.0,0.18522060629886605,1.0,0
28.240854263305664,6.5350799560546875,-0.9581813812255859,-0.0,-0.0,-1.0,0.11189704565714298,1.0,0
29.093441009521484,6.017871856689453,-0.9309346675872803,-0.0,-0.0,-1.0,0.13994288726459828,2.0,0
29.000507354736328,5.966224670410156,-0.9499270915985107,-0.0,-0.0,-1.0,0.13471520120564034,1.0,0
29.6793155670166,7.9216718673706055,-0.5710175037384033,0.9661957363921907,0.21680490312801787,-0.13950423992554287,0.18914540636527252,4.0,0
29.57969856262207,8.116799354553223,-0.5552765130996704,-0.0,-0.0,-1.0,0.14891594076316475,2.0,0
29.630632400512695,7.662965297698975,-0.6154787540435791,0.2825317120245275,-0.6193957557970509,-0.7324784839168247,0.19771343767756216,4.0,0
29.40340232849121,7.736701488494873,-0.4516470432281494,-0.15208029456511113,0.7069979936854935,-0.6906702693251503,0.24202985810683983,8.0,0
28.9873046875,6.527347564697266,-0.4610624313354492,-0.0,-0.0,-1.0,0.1511832968053373,1.0,0
29.201602935791016,6.3503217697143555,-0.4621388912200928,0.7002198179309636,0.1261310747551527,0.7026970603025452,0.15519381951533665,3.0,0
28.989072799682617,6.249564170837402,-0.4954795837402344,0.5026224910310492,-0.3117587020622104,-0.806335626893807,0.15432086951874405,20.0,0
28.585037231445312,6.213770866394043,-0.5398892164230347,-0.0,-0.0,-1.0,0.16384153442979396,2.0,0
27.777515411376953,6.540217399597168,-0.5839755535125732,-0.0,-0.0,-1.0,0.10388084480773728,1.0,0
29.163265228271484,8.016962051391602,-1.1535148620605469,-0.0,-0.0,-1.0,0.03193525312273496,1.0,0
29.02165412902832,8.045156478881836,-1.1695232391357422,-0.0,-0.0,-1.0,0.06390048400716482,1.0,0
28.056734085083008,8.017136573791504,-0.9523999691009521,-0.0,-0.0,-1.0,0.12671816709824504,1.0,0
28.64730453491211,7.4383745193481445,-0.9713060855865479,-0.0,-0.0,-1.0,0.04216067226919334,1.0,0
28.373397827148438,7.589779376983643,-0.981156587600708,-0.0,-0.0,-1.0,0.15197888556548214,2.0,0
28.16342544555664,7.764318943023682,-0.9797706604003906,-0.0,-0.0,-1.0,0.12831787936213584,1.0,0
28.6257381439209,7.379062652587891,-0.9845671653747559,-0.0,-0.0,-1.0,0.09501341130923738,2.0,0
27.81262969970703,7.381806373596191,-0.6977130174636841,-0.0,-0.0,-1.0,0.10999266704908005,1.0,0
28.04043197631836,8.106474876403809,-0.841254472732544,-0.0,-0.0,-1.0,0.11601148649683021,2.0,0
27.91122055053711,7.837253570556641,-0.9070804119110107,0.30350262407106954,-0.3036595361770393,-0.9031484060057461,0.10133383552528011,3.0,0
27.931968688964844,7.1262359619140625,-0.9668850898742676,0.5064888973033783,0.8070287755886771,0.30360097542703685,0.2008654029445632,4.0,0
27.73320198059082,6.646258354187012,-0.9530582427978516,-0.0,-0.0,-1.0,0.05662912353663467,2.0,0
27.76400375366211,6.515766620635986,-0.9702820777893066,-0.6597218540163591,0.25694827524204183,-0.7062185633239599,0.06233415417608501,4.0,0
28.906143188476562,6.6013031005859375,-0.8588418960571289,-0.0,-0.0,-1.0,0.18054428082663823,2.0,0
28.677288055419922,6.355746746063232,-0.8244485855102539,0.11692414137527642,0.9447792704756528,0.3061386536247051,0.23717219825820707,3.0,0
28.736818313598633,5.9281229972839355,-0.8610081672668457,-0.0,-0.0,-1.0,0.14022540710793627,1.0,0
28.98680877685547,6.465172290802002,-0.8825974464416504,-0.13710324067771518,-0.5535236075278112,-0.8214708255958127,0.21266339912262625,4.0,0
28.91292953491211,5.760496616363525,-0.9068589210510254,-0.0,-0.0,-1.0,0.20808985723221157,1.0,0
28.901519775390625,5.679654121398926,-0.9094619750976562,-0.0,-0.0,-1.0,0.2142521101705348,2.0,0
27.949283599853516,6.443615913391113,-0.6700196266174316,0.8142964093750452,0.2325744271532249,-0.5318181019044557,0.18716031515062634,4.0,0
27.94777488708496,6.052945137023926,-0.6936652660369873,-0.14666464474003066,-0.9816262282727364,0.12206322112054155,0.17277654573522608,4.0,0
28.426868438720703,6.291265487670898,-0.7764894962310791,0.09717071576876357,0.9139730421891381,-0.3939684380106084,0.1524949253367213,5.0,0
28.825292587280273,6.084724426269531,-0.49137139320373535,-0.0,-0.0,-1.0,0.21497455063498952,1.0,0
29.025283813476562,6.309619426727295,-0.5175162553787231,0.3739176392078414,-0.8704478183123813,-0.3201658861972181,0.13501319105704473,5.0,0
29.010177612304688,6.02434778213501,-0.5257878303527832,-0.2104365276381329,-0.612828979536732,-0.7616804511575529,0.1631929319151272,6.0,0
27.766387939453125,6.6902875900268555,-0.9246349334716797,0.403213247960873,-0.6005178629286918,-0.6905051578173766,0.04961161704858322,7.0,0
27.79552459716797,8.136995315551758,-0.8352880477905273,0.48408099778958485,-0.08428726538973125,-0.870954214911531,0.07857333474378808,3.0,0
28.147701263427734,7.554156303405762,-0.9542200565338135,-0.0,-0.0,-1.0,0.12389065123283413,2.0,0
28.00399398803711,7.245297431945801,-0.9399838447570801,-0.0,-0.0,-1.0,0.13308976471895767,1.0,0
27.931297302246094,7.0565104484558105,-0.9356672763824463,-0.0,-0.0,-1.0,0.18396085585000452,2.0,0
28.286815643310547,5.968184947967529,-0.7356007099151611,-0.0,-0.0,-1.0,0.20924365174678836,1.0,0
28.367143630981445,7.620277404785156,-1.003380298614502,-0.0,-0.0,-1.0,0.13351345133954,2.0,0
28.27353286743164,7.371822834014893,-0.9960043430328369,-0.0,-0.0,-1.0,0.06114644252416906,1.0,0
28.647018432617188,6.252455234527588,-0.7890892028808594,0.9786703334410997,-0.1407924765513482,0.14960567164658212,0.2553828725742676,8.0,0
28.807437896728516,5.842403888702393,-0.8468809127807617,-0.0,-0.0,-1.0,0.2240558579169466,2.0,0
28.86459732055664,6.644758224487305,-0.8102822303771973,-0.0,-0.0,-1.0,0.14880966902820517,2.0,0
28.83570098876953,6.331655979156494,-0.8222975730895996,-0.0,-0.0,-1.0,0.22980924082907778,1.0,0
28.93966293334961,5.802035331726074,-0.8757727146148682,-0.0,-0.0,-1.0,0.1892379584301765,2.0,0
29.25863265991211,6.739314079284668,-0.885939359664917,-0.24106700139764592,0.04565586900145617,-0.969433980456054,0.246915021269234,3.0,0
29.582765579223633,7.905802249908447,-0.9034337997436523,-0.19561790087633657,-0.25751502413545024,-0.9462661619234065,0.190033111820858,4.0,0
29.558013916015625,7.713797569274902,-0.90500807762146,-0.4397862355718547,-0.5729510460091354,-0.6916033298637119,0.17589551358748978,4.0,0
29.69829559326172,7.105215072631836,-0.9594442844390869,0.3856613549992622,-0.43338286445664886,-0.8145210936835726,0.15275478279934782,8.0,0
29.536182403564453,6.881690979003906,-0.9360506534576416,0.09289544192604396,-0.24802168917831996,-0.9642902460185407,0.15882521214987422,3.0,0
30.15526008605957,7.418498516082764,-1.0422730445861816,-0.0,-0.0,-1.0,0.1587962616396432,2.0,0
27.987201690673828,6.071103572845459,-0.6696727275848389,0.0394149454791428,-0.8268587654441818,0.5610267766167669,0.1362271662292503,3.0,0
27.883769989013672,6.971237659454346,-0.5925962924957275,-0.0,-0.0,-1.0,0.1754768765334345,2.0,0
28.024925231933594,6.005039215087891,-0.6815834045410156,-0.0,-0.0,-1.0,0.12453548327357752,1.0,0
28.889039993286133,7.5093793869018555,-0.7727258205413818,-0.0,-0.0,-1.0,0.10236806537852088,2.0,0
28.98446273803711,6.234943389892578,-0.4772125482559204,0.49971505696886914,-0.23129129677390792,-0.8347389998527945,0.19916069915751497,18.0,0
29.047801971435547,5.956942558288574,-0.5000013113021851,-0.0,-0.0,-1.0,0.14819710027150532,2.0,0
29.261829376220703,6.607280254364014,-0.5095984935760498,0.8705954457792344,0.03177682347803252,-0.4909723039827221,0.16142573932469176,3.0,0
29.23172378540039,6.3698039054870605,-0.5136847496032715,-0.0,-0.0,-1.0,0.17991107079490662,2.0,0
29.581012725830078,7.87347412109375,-0.5264960527420044,-0.0,-0.0,-1.0,0.12867033726424357,2.0,0
29.590051651000977,7.68651008605957,-0.532604455947876,-0.427097194359939,0.19275755660317773,-0.8834209138017057,0.1299221077785235,3.0,0
29.31777572631836,6.1299004554748535,-0.14958405494689941,0.6465209142598801,-0.7351958275255656,-0.2037100945303566,0.12836075428058735,7.0,0
27.86493682861328,7.190045356750488,-0.970719575881958,-0.0,-0.0,-1.0,0.18824015205689357,2.0,0
27.87253761291504,7.939533710479736,-0.9345877170562744,0.7328229976324588,-0.610378018296,-0.30068110835572065,0.10368395748696776,3.0,0
28.03732681274414,7.600986480712891,-0.9923961162567139,-0.7590070445478497,-0.11603400584128078,-0.640659360202568,0.16080848027605407,4.0,0
28.01043128967285,7.289622783660889,-1.001603126525879,-0.0,-0.0,-1.0,0.06411364966768937,1.0,0
28.833337783813477,5.678523063659668,-0.9217565059661865,-0.0,-0.0,-1.0,0.15446310953018166,2.0,0
29.013301849365234,6.609580039978027,-0.9126756191253662,-0.7566544419226965,-0.11895910850094173,-0.6429018478922844,0.21916824050516964,3.0,0
28.923175811767578,6.372663497924805,-0.9040818214416504,-0.0,-0.0,-1.0,0.2353691925402642,2.0,0
29.285823822021484,6.77046537399292,-0.9655683040618896,-0.0,-0.0,-1.0,0.1815587417181555,1.0,0
29.312816619873047,7.225600242614746,-0.9553375244140625,-0.0,-0.0,-1.0,0.15257698987962004,1.0,0
29.49413299560547,6.990365505218506,-1.0034456253051758,0.4454227471455887,-0.6844814048198484,-0.5771341116076261,0.1483547848288739,4.0,0
29.60873031616211,7.866961479187012,-1.0056500434875488,-0.8966874540386115,-0.40209578348844943,0.18512317702158024,0.2268259427774235,4.0,0
30.013591766357422,7.429089069366455,-1.1067912578582764,-0.0,-0.0,-1.0,0.04669145792237582,1.0,0
30.030494689941406,7.258796215057373,-1.1148624420166016,-0.0,-0.0,-1.0,0.13083740554613238,1.0,0
30.196277618408203,7.850029468536377,-1.1396725177764893,-0.0,-0.0,-1.0,0.14546838094727013,1.0,0
30.055835723876953,7.5165910720825195,-1.114330768585205,-0.30442275547971004,-0.8069709205689871,-0.5060876597015403,0.1205540223054494,3.0,0
27.861709594726562,6.393803596496582,-0.6770334243774414,-0.0,-0.0,-1.0,0.16457468307758477,2.0,0
27.828346252441406,5.896632194519043,-0.7001775503158569,-0.0,-0.0,-1.0,0.17791425202636185,2.0,0
27.919361114501953,6.972648620605469,-0.65949547290802,0.5714671208878924,-0.24040518848163603,-0.7846213577868065,0.18877838070219727,4.0,0
28.07583236694336,6.405503749847412,-0.7215373516082764,-0.0,-0.0,-1.0,0.1218311862217004,1.0,0
28.076871871948242,6.009832382202148,-0.7443854808807373,-0.0,-0.0,-1.0,0.1542224899587323,1.0,0
27.758962631225586,8.11245346069336,-0.8981173038482666,-0.0,-0.0,-1.0,0.09974674889476882,1.0,0
28.09263038635254,7.549543380737305,-0.6738280057907104,-0.0,-0.0,-1.0,0.12998271631073977,1.0,0
28.29793930053711,7.506247043609619,-0.720736026763916,-0.6877542443533888,-0.7258521941270762,0.011519186377894437,0.11276193759780441,3.0,0
28.57034683227539,6.361337184906006,-0.8290205001831055,-0.0,-0.0,-1.0,0.21630055508928941,2.0,0
28.74306869506836,6.170578956604004,-0.6868237257003784,0.6427907873731787,0.002345882047185174,-0.7660381847568628,0.18261738877354988,8.0,0
28.79059600830078,5.91477108001709,-0.5205714702606201,-0.0,-0.0,-1.0,0.21217516872963604,2.0,0
28.484905242919922,7.658479690551758,-0.7574319839477539,-0.5598789505774715,-0.06843753657130919,-0.8257432193414126,0.2205715896074762,3.0,0
28.79473876953125,6.733634948730469,-0.8598883152008057,-0.0,-0.0,-1.0,0.1632595356609628,2.0,0
28.914947509765625,6.307470321655273,-0.7148981094360352,-0.5495359833464999,-0.14446529780661138,-0.8228851564690194,0.2548265544451542,4.0,0
29.000415802001953,5.869287967681885,-0.5599552392959595,0.37537464629022527,-0.8149663874313999,0.4415015994076368,0.2766274088800344,4.0,0
28.962120056152344,6.949321269989014,-0.8875017166137695,-0.0,-0.0,-1.0,0.20673982852465217,1.0,0
29.267608642578125,6.544763565063477,-0.5869154930114746,-0.0,-0.0,-1.0,0.24100866008531005,2.0,0
29.48468017578125,7.755374431610107,-0.6047871112823486,0.16793699953626018,-0.962889159591143,-0.21128566096311538,0.16185976803444574,5.0,0
29.667476654052734,8.112113952636719,-0.6373409032821655,-0.0,-0.0,-1.0,0.21847031054603175,2.0,0
29.747703552246094,7.869376182556152,-0.6544969081878662,-0.13830993881910794,-0.907868669099433,0.39578383050786564,0.22126427460383735,6.0,0
30.13321876525879,6.946594715118408,-0.7397210597991943,0.553848372474159,0.13354616627535448,-0.8218378196340689,0.2630598539330652,3.0,0
29.8244571685791,8.10188102722168,-0.6678081750869751,-0.0,-0.0,-1.0,0.17035752677741187,2.0,0
28.86527442932129,6.032703876495361,-0.15514254570007324,-0.0,-0.0,-1.0,0.11914060234696983,1.0,0
29.03966522216797,6.141435623168945,-0.1792358160018921,-0.0,-0.0,-1.0,0.1493471707184079,1.0,0
29.29925537109375,6.175642490386963,-0.21767091751098633,-0.3202105688200289,-0.5928824131536135,-0.7388881077599649,0.129682551341259,3.0,0
29.389240264892578,7.731695175170898,-0.2195974588394165,-0.7294102164320763,-0.1500161555563063,-0.6674248191643891,0.18895723272871617,6.0,0
29.869369506835938,7.988243579864502,-0.29627275466918945,0.08050524702853026,-0.8978502335841844,0.4328785779565679,0.1367963660271604,8.0,0
27.786483764648438,6.523852348327637,-0.9594992399215698,-0.0,-0.0,-1.0,0.07475318657738442,2.0,0
27.95596694946289,7.21891450881958,-0.9718035459518433,-0.0,-0.0,-1.0,0.1089996254183716,2.0,0
28.721282958984375,6.175333023071289,-0.8446923494338989,0.26050137200546924,-0.9165263357410867,0.3035103146126757,0.17073334076484933,4.0,0
28.839332580566406,5.701552867889404,-0.8870826959609985,-0.0,-0.0,-1.0,0.1967873686888105,2.0,0
27.819255828857422,7.999335289001465,-0.9107683897018433,0.7454871317621853,-0.6096517977352895,-0.26939491809445815,0.09688755482691112,4.0,0
