x,y,z,nx,ny,nz,curvature,density
55.23175811767578,15.131073951721191,-2.3519091606140137,-0.0,-0.0,-1.0,0.06714647157690515,1.0
56.98064422607422,15.146389961242676,-2.205322742462158,-0.0,-0.0,-1.0,0.11424087612458227,1.0
56.734169006347656,15.353949546813965,-2.2396092414855957,-0.0,-0.0,-1.0,0.15679772508718093,1.0
56.01173400878906,13.950469017028809,-2.037680149078369,-0.0,-0.0,-1.0,0.03038484234667551,2.0
57.20433044433594,15.495920181274414,-2.188004493713379,-0.0,-0.0,-1.0,0.05687467176752119,1.0
56.13182830810547,15.252822875976562,-2.3356621265411377,-0.0,-0.0,-1.0,0.03008745529572555,1.0
55.80607986450195,15.104093551635742,-2.428025245666504,-0.0,-0.0,-1.0,0.08997107801772668,1.0
55.636653900146484,14.069267272949219,-2.0497047901153564,-0.0,-0.0,-1.0,0.05760292593036531,1.0
55.28049087524414,15.440648078918457,-2.454789161682129,-0.0,-0.0,-1.0,0.04331814838167636,1.0
56.554283142089844,15.136747360229492,-2.2620320320129395,-0.0,-0.0,-1.0,0.054438344420357054,2.0
56.528228759765625,15.595414161682129,-2.279571533203125,-0.0,-0.0,-1.0,0.15916489634619238,2.0
55.86281967163086,14.10906982421875,-2.0473380088806152,-0.0,-0.0,-1.0,0.06701160463690638,2.0
55.93981170654297,15.346588134765625,-2.438105344772339,-0.0,-0.0,-1.0,0.05281607909621479,2.0
55.28388977050781,13.960115432739258,-2.1967408657073975,-0.0,-0.0,-1.0,0.10684219429411661,1.0
56.576255798339844,13.305764198303223,-2.0440304279327393,-0.0,-0.0,-1.0,0.0675207490231817,2.0
56.68801498413086,14.118350982666016,-2.0952765941619873,-0.0,-0.0,-1.0,0.044782922339864875,1.0
56.97073745727539,14.666696548461914,-2.1881895065307617,-0.0,-0.0,-1.0,0.03993905018543564,2.0
56.87932205200195,15.112615585327148,-2.1849868297576904,-0.0,-0.0,-1.0,0.10140883684233995,2.0
55.23927307128906,14.097627639770508,-2.2463197708129883,0.2980426602293295,0.4198837380608059,-0.8572445504029229,0.13359847362597266,4.0
56.58026885986328,14.374095916748047,-2.2187488079071045,-0.0,-0.0,-1.0,0.030090801954421428,1.0
56.662254333496094,14.89698314666748,-2.2604219913482666,-0.0,-0.0,-1.0,0.04039852348978646,2.0
56.9221305847168,15.226360321044922,-2.3502719402313232,-0.0,-0.0,-1.0,0.1427948913025016,2.0
55.95779800415039,13.726363182067871,-2.02309513092041,-0.8221000114025495,0.4922320677178072,-0.28611040310023694,0.05754700142317463,3.0
56.64629364013672,13.145866394042969,-2.2391767501831055,-0.0,-0.0,-1.0,0.04847523968781451,1.0
56.9158821105957,14.550455093383789,-2.3338441848754883,-0.0,-0.0,-1.0,0.028787745426636036,1.0
57.073646545410156,15.272388458251953,-2.407217025756836,-0.0,-0.0,-1.0,0.12598951175227807,1.0
55.84733581542969,13.680086135864258,-1.984296202659607,-0.0,-0.0,-1.0,0.08811679896574687,2.0
56.02996826171875,13.989404678344727,-2.042689323425293,-0.0,-0.0,-1.0,0.04880482919415517,2.0
57.44103240966797,15.562825202941895,-2.0784354209899902,-0.0,-0.0,-1.0,0.1433327179083601,2.0
55.51435089111328,13.549747467041016,-2.04536509513855,-0.0,-0.0,-1.0,0.19796750509995029,2.0
55.57575988769531,14.124411582946777,-2.075460910797119,-0.0,-0.0,-1.0,0.10482471903804175,2.0
55.50086212158203,14.29823112487793,-2.1591432094573975,-0.0,-0.0,-1.0,0.06712587629158913,2.0
55.48755645751953,14.220558166503906,-2.1436047554016113,-0.781785356238485,-0.10713048080395735,-0.6142757661293323,0.1015934800241018,3.0
56.928497314453125,15.095956802368164,-2.1787571907043457,-0.0,-0.0,-1.0,0.10814676602935634,2.0
55.231868743896484,14.093660354614258,-2.308565855026245,-0.0,-0.0,-1.0,0.12060453231272344,1.0
55.24930191040039,15.356682777404785,-2.3829333782196045,-0.0,-0.0,-1.0,0.03925932925348751,2.0
55.37261199951172,13.903772354125977,-2.2733864784240723,0.4586937402854521,0.31939920705804725,-0.8292069700344017,0.15448137808480028,3.0
55.50178909301758,13.919954299926758,-2.2713541984558105,-0.0,-0.0,-1.0,0.1032195486085936,1.0
55.23554229736328,13.958741188049316,-2.271923780441284,-0.6855194032644664,0.7277276388969226,0.02180897369066924,0.10110100635625448,3.0
55.45758819580078,14.288818359375,-2.172184467315674,-0.0,-0.0,-1.0,0.09003634553662053,2.0
55.614715576171875,15.37975788116455,-2.3297762870788574,-0.0,-0.0,-1.0,0.12597283676257937,1.0
57.02832794189453,15.180874824523926,-2.289703845977783,-0.0,-0.0,-1.0,0.11686177935033239,1.0
55.55872344970703,13.73486614227295,-2.1494827270507812,-0.11436319494798516,0.8875584093460905,0.44627472440227506,0.08866217343803622,3.0
55.67521667480469,13.752907752990723,-2.0382583141326904,-0.0,-0.0,-1.0,0.09008277609512431,1.0
55.48952102661133,13.193567276000977,-2.153714656829834,-0.0,-0.0,-1.0,0.17378472162730688,1.0
56.018646240234375,15.083441734313965,-2.4299097061157227,-0.0,-0.0,-1.0,0.058297354751280714,1.0
56.38044357299805,15.339136123657227,-2.460970878601074,-0.0,-0.0,-1.0,0.04774127639856061,1.0
56.377689361572266,15.507713317871094,-2.4389562606811523,-0.0,-0.0,-1.0,0.11934403531408949,1.0
56.71139907836914,15.215923309326172,-2.5007503032684326,-0.0,-0.0,-1.0,0.1313974029390049,1.0
56.705894470214844,15.4610595703125,-2.486088514328003,-0.0,-0.0,-1.0,0.15503633441156445,1.0
55.46434020996094,13.83751106262207,-2.4430558681488037,-0.0,-0.0,-1.0,0.12035469444725695,1.0
55.33289337158203,13.993571281433105,-2.418891191482544,-0.0,-0.0,-1.0,0.1554898943676439,1.0
56.719547271728516,15.316584587097168,-2.2838687896728516,0.7128445342271914,-0.021643433880111553,-0.7009880396927582,0.18755023771032764,3.0
56.9150390625,15.473793029785156,-2.299805164337158,-0.0,-0.0,-1.0,0.22935496296247412,1.0
55.45354080200195,13.60324478149414,-2.1986589431762695,-0.0,-0.0,-1.0,0.07683089480157906,1.0
55.49413299560547,13.996856689453125,-2.193249225616455,-0.0,-0.0,-1.0,0.0577853668671822,1.0
56.98497772216797,15.565631866455078,-2.1875381469726562,-0.0,-0.0,-1.0,0.11878721281601617,1.0
56.850868225097656,14.745746612548828,-2.2094473838806152,-0.0,-0.0,-1.0,0.03623273037428106,2.0
56.9161262512207,14.99085807800293,-2.2050113677978516,-0.0,-0.0,-1.0,0.06133312102748362,1.0
56.889503479003906,15.408193588256836,-2.1852588653564453,0.9739880542181759,0.20676846867535487,-0.09270421027084118,0.14543134138827848,3.0
55.49337387084961,13.451196670532227,-2.1441311836242676,-0.0,-0.0,-1.0,0.1554479133160809,2.0
55.51221466064453,13.771381378173828,-2.131117820739746,-0.0,-0.0,-1.0,0.07341914278063764,1.0
55.524620056152344,14.257463455200195,-2.1103458404541016,-0.0,-0.0,-1.0,0.09417503126669816,1.0
56.321128845214844,15.492032051086426,-2.350097417831421,-0.0,-0.0,-1.0,0.09412062320472846,1.0
55.90192413330078,15.135927200317383,-2.3210155963897705,-0.0,-0.0,-1.0,0.08348923681323886,1.0
55.55751037597656,14.864765167236328,-2.2967312335968018,-0.0,-0.0,-1.0,0.15081621792504077,1.0
56.75431823730469,15.233733177185059,-2.322251081466675,-0.0,-0.0,-1.0,0.19816021327507416,2.0
56.4233512878418,15.03483772277832,-2.2972590923309326,-0.0,-0.0,-1.0,0.032484431631847055,1.0
55.22736740112305,13.427021980285645,-2.2393367290496826,-0.8666490815775653,-0.4448040935011578,-0.22598382199922182,0.18511006289449658,3.0
55.371665954589844,13.271097183227539,-2.0885744094848633,-0.0,-0.0,-1.0,0.220698249110125,1.0
55.467594146728516,13.607772827148438,-2.0956907272338867,-0.0,-0.0,-1.0,0.17037152459979185,1.0
56.4080696105957,14.531303405761719,-2.1810412406921387,-0.0,-0.0,-1.0,0.02436606908895876,1.0
56.77129364013672,14.860538482666016,-2.2145309448242188,-0.0,-0.0,-1.0,0.046462826739373575,1.0
56.8038444519043,15.130809783935547,-2.2165322303771973,-0.0,-0.0,-1.0,0.10100637615210066,1.0
56.97667694091797,15.347591400146484,-2.23236083984375,-0.0,-0.0,-1.0,0.1836309927163203,1.0
55.333438873291016,13.531782150268555,-2.1287288665771484,-0.0,-0.0,-1.0,0.15979728350988406,1.0
55.6807861328125,13.654226303100586,-2.1694211959838867,-0.0,-0.0,-1.0,0.14032079827450153,1.0
55.66630554199219,14.029809951782227,-2.174345016479492,-0.0,-0.0,-1.0,0.10049992815656247,1.0
55.63074493408203,14.594474792480469,-2.180555820465088,-0.0,-0.0,-1.0,0.04639343959027867,1.0
56.43741989135742,14.430233001708984,-2.267826557159424,-0.0,-0.0,-1.0,0.0308110804565186,1.0
55.92200469970703,15.001413345336914,-2.2208948135375977,-0.0,-0.0,-1.0,0.07964535330172248,1.0
56.42368698120117,14.97944450378418,-2.2768173217773438,-0.0,-0.0,-1.0,0.03107981258884699,1.0
56.50489807128906,15.130010604858398,-2.2889204025268555,-0.0,-0.0,-1.0,0.06135398963325099,2.0
56.69049072265625,15.330890655517578,-2.3138585090637207,0.7128445342271914,-0.021643433880111553,-0.7009880396927582,0.22373009680662986,3.0
57.101627349853516,15.444988250732422,-2.3625473976135254,-0.0,-0.0,-1.0,0.13725313792185895,1.0
55.55030822753906,14.975677490234375,-2.5036163330078125,-0.0,-0.0,-1.0,0.08272285732056059,1.0
55.71226501464844,15.247180938720703,-2.5141172409057617,-0.0,-0.0,-1.0,0.07932546508115941,1.0
56.410125732421875,15.514139175415039,-2.582381248474121,-0.0,-0.0,-1.0,0.0989084285577844,1.0
55.39155578613281,14.867143630981445,-2.4893903732299805,-0.0,-0.0,-1.0,0.07396569876683137,1.0
55.220489501953125,15.527129173278809,-2.4066615104675293,-0.0,-0.0,-1.0,0.043318148381676344,2.0
55.234832763671875,14.13995361328125,-2.223679780960083,0.2587821425112585,0.47656256795321345,-0.8401904079094937,0.12845700340631477,3.0
55.378997802734375,14.579971313476562,-2.233278512954712,-0.0,-0.0,-1.0,0.06644933125232165,2.0
55.304473876953125,14.278461456298828,-2.2292673587799072,-0.0,-0.0,-1.0,0.11284877908027997,1.0
56.28761291503906,15.059863090515137,-2.324660062789917,-0.0,-0.0,-1.0,0.031028771628760433,1.0
56.43562316894531,15.182312965393066,-2.3390800952911377,-0.0,-0.0,-1.0,0.03373496529945463,1.0
56.82222366333008,15.390273094177246,-2.3781845569610596,-0.0,-0.0,-1.0,0.2170445903000888,1.0
55.415367126464844,13.296954154968262,-2.3549306392669678,-0.0,-0.0,-1.0,0.15221275454024963,1.0
55.2449951171875,14.936070442199707,-2.3345115184783936,-0.0,-0.0,-1.0,0.09395674032786566,1.0
55.241966247558594,14.310707092285156,-2.3339650630950928,-0.0,-0.0,-1.0,0.08412230960725699,1.0
55.57460403442383,15.14216136932373,-2.3735549449920654,-0.0,-0.0,-1.0,0.11113584243222897,1.0
55.98154830932617,15.32845687866211,-2.4218342304229736,-0.0,-0.0,-1.0,0.04304658931434816,2.0
56.19399642944336,15.577911376953125,-2.447312593460083,-0.0,-0.0,-1.0,0.04963546732091165,2.0
55.40100860595703,15.00383472442627,-2.2703075408935547,-0.0,-0.0,-1.0,0.1340975163909458,2.0
55.788692474365234,15.195487976074219,-2.3099827766418457,-0.0,-0.0,-1.0,0.11297963246529374,1.0
55.69407272338867,15.069788932800293,-2.301626682281494,-0.0,-0.0,-1.0,0.09766590635820023,1.0
56.11334228515625,15.332719802856445,-2.343677520751953,-0.0,-0.0,-1.0,0.031738887542894174,2.0
56.40402603149414,15.559754371643066,-2.3722028732299805,-0.0,-0.0,-1.0,0.11927376865680686,2.0
55.26377868652344,14.669893264770508,-2.2663862705230713,-0.0,-0.0,-1.0,0.09304398395028708,2.0
55.2542724609375,14.30174732208252,-2.268226385116577,-0.0,-0.0,-1.0,0.10021952865152124,1.0
55.27226638793945,13.916101455688477,-2.273529291152954,-0.0,-0.0,-1.0,0.07790367725960537,1.0
55.30741882324219,13.465619087219238,-2.2815372943878174,-0.0,-0.0,-1.0,0.13863038798267666,2.0
55.3910026550293,13.27927303314209,-2.292806386947632,-0.0,-0.0,-1.0,0.22069824911012506,1.0
55.36274719238281,15.015743255615234,-2.2751524448394775,-0.0,-0.0,-1.0,0.13065978497143668,2.0
55.837093353271484,15.112631797790527,-2.3289506435394287,-0.0,-0.0,-1.0,0.09260658953807628,1.0
56.13538360595703,15.333442687988281,-2.361741304397583,-0.0,-0.0,-1.0,0.03209563147903984,2.0
56.36894226074219,15.586145401000977,-2.3869659900665283,-0.0,-0.0,-1.0,0.11108702555084807,2.0
55.97834014892578,14.085269927978516,-2.029662847518921,-0.0,-0.0,-1.0,0.045291512043059756,1.0
55.80966567993164,13.909965515136719,-2.0083043575286865,-0.0,-0.0,-1.0,0.058264533755798695,2.0
55.410362243652344,13.714679718017578,-2.2244930267333984,-0.0,-0.0,-1.0,0.043103530897839366,1.0
55.424957275390625,13.368589401245117,-2.214993953704834,-0.0,-0.0,-1.0,0.2018659389414477,1.0
55.75017547607422,14.207329750061035,-2.2835702896118164,-0.0,-0.0,-1.0,0.1324321948500202,1.0
55.88478088378906,14.326506614685059,-2.304507255554199,-0.0,-0.0,-1.0,0.10250145542683853,1.0
56.30180358886719,14.542964935302734,-2.3642921447753906,-0.0,-0.0,-1.0,0.01797382797548459,1.0
56.441009521484375,15.28574275970459,-2.4075822830200195,-0.0,-0.0,-1.0,0.0698670544142978,1.0
56.520652770996094,14.863258361816406,-2.4028334617614746,-0.0,-0.0,-1.0,0.015000645303169973,1.0
56.762245178222656,15.4620361328125,-2.4542312622070312,-0.0,-0.0,-1.0,0.17056734195466156,1.0
56.833900451660156,15.037553787231445,-2.4482927322387695,-0.0,-0.0,-1.0,0.12722389517525967,1.0
55.78163146972656,13.649478912353516,-1.994786024093628,-0.0,-0.0,-1.0,0.1386528756018314,1.0
55.80650329589844,13.848979949951172,-2.006941556930542,-0.809726784366954,-0.524849311056012,-0.2624418704452127,0.06862016353661313,3.0
56.14990997314453,14.008893966674805,-2.055718183517456,-0.0,-0.0,-1.0,0.05800384621337142,1.0
56.86140441894531,14.826807022094727,-2.179917573928833,-0.0,-0.0,-1.0,0.03644499677987689,1.0
56.89409637451172,15.375410079956055,-2.2101247310638428,-0.0,-0.0,-1.0,0.18463278859473403,2.0
56.82282257080078,15.17509651184082,-2.191879987716675,-0.0,-0.0,-1.0,0.12582544791055497,1.0
57.205108642578125,15.62612533569336,-2.2598302364349365,-0.0,-0.0,-1.0,0.04941212837699319,1.0
56.87776565551758,14.721773147583008,-2.1861021518707275,-0.0,-0.0,-1.0,0.039721083349132644,2.0
56.81715393066406,15.27038860321045,-2.2074148654937744,-0.0,-0.0,-1.0,0.14061379985893474,1.0
56.87875747680664,14.925739288330078,-2.1968462467193604,-0.0,-0.0,-1.0,0.054369401702909194,1.0
57.07517623901367,15.523052215576172,-2.252268075942993,-0.0,-0.0,-1.0,0.12903416318961838,2.0
55.72565841674805,13.636493682861328,-1.9901692867279053,-0.0,-0.0,-1.0,0.17452431887102104,1.0
55.78395080566406,13.885215759277344,-2.0098259449005127,0.08458260391232013,-0.02664424065893333,-0.9960601726578171,0.07614882947765181,3.0
56.568878173828125,13.296239852905273,-2.026895046234131,-0.0,-0.0,-1.0,0.06820501878657483,2.0
55.858367919921875,13.865809440612793,-1.9748530387878418,-0.0,-0.0,-1.0,0.05225299053974856,1.0
55.92137908935547,14.107121467590332,-2.000213146209717,-0.0,-0.0,-1.0,0.019186808359078964,1.0
56.88383483886719,14.538864135742188,-2.1563100814819336,-0.0,-0.0,-1.0,0.02432724956416825,1.0
56.95832061767578,14.78743839263916,-2.1841702461242676,-0.0,-0.0,-1.0,0.04253958130377356,1.0
56.974510192871094,15.22957992553711,-2.218967914581299,-0.0,-0.0,-1.0,0.13243235214865537,1.0
57.00230407714844,15.038384437561035,-2.208373546600342,-0.0,-0.0,-1.0,0.0711275028050173,1.0
56.87232208251953,15.609185218811035,-2.2341437339782715,-0.0,-0.0,-1.0,0.17169148078876967,1.0
55.2457275390625,13.29083251953125,-2.239344358444214,-0.0,-0.0,-1.0,0.21266804723902585,2.0
55.26663589477539,13.663414001464844,-2.261615514755249,-0.0,-0.0,-1.0,0.07872734812053163,2.0
55.210758209228516,13.9352445602417,-2.2669179439544678,-0.6855194032644664,0.7277276388969226,0.02180897369066924,0.10110100635625449,3.0
55.38606643676758,14.886602401733398,-2.3466694355010986,-0.0,-0.0,-1.0,0.12378311490458874,2.0
55.74988555908203,15.187285423278809,-2.42165207862854,-0.7064056479267969,-0.665061235823643,-0.24224907261298506,0.09751510193657761,3.0
55.69868087768555,15.592903137207031,-2.437307119369507,-0.0,-0.0,-1.0,0.10367333609223335,2.0
55.24410629272461,13.966585159301758,-2.264472246170044,-0.6855194032644664,0.7277276388969226,0.02180897369066924,0.09483262467405318,3.0
55.37611389160156,14.884172439575195,-2.3355815410614014,-0.0,-0.0,-1.0,0.12378311490458871,2.0
55.760009765625,15.174040794372559,-2.414813280105591,-0.7064056479267969,-0.665061235823643,-0.24224907261298506,0.09284401739587143,3.0
55.44098663330078,15.602673530578613,-2.387477159500122,-0.0,-0.0,-1.0,0.08194597920525405,1.0
55.780845642089844,15.520995140075684,-2.438352346420288,-0.0,-0.0,-1.0,0.10071972454179741,2.0
56.268226623535156,14.386219024658203,-2.309474229812622,-0.0,-0.0,-1.0,0.041905135549168755,1.0
56.314117431640625,15.35072135925293,-2.376690149307251,-0.0,-0.0,-1.0,0.056839513723228915,2.0
56.48093795776367,15.559806823730469,-2.417842149734497,-0.0,-0.0,-1.0,0.12601062050748432,2.0
55.230491638183594,13.314401626586914,-2.076310873031616,-0.0,-0.0,-1.0,0.20448911743948536,1.0
55.963462829589844,13.231192588806152,-2.192899465560913,-0.0,-0.0,-1.0,0.09245649156937694,1.0
55.5750732421875,13.684183120727539,-2.1538851261138916,-0.0,-0.0,-1.0,0.10289631858066584,1.0
55.751190185546875,13.456380844116211,-2.1702187061309814,-0.0,-0.0,-1.0,0.1398211076496628,2.0
55.54082489013672,14.035841941833496,-2.1683576107025146,-0.0,-0.0,-1.0,0.04775681951143079,2.0
55.560916900634766,14.284523963928223,-2.186220407485962,-0.0,-0.0,-1.0,0.10270260037581608,2.0
55.82267761230469,14.571093559265137,-2.246724843978882,-0.0,-0.0,-1.0,0.06061522605379377,2.0
55.59049987792969,14.887236595153809,-2.2275278568267822,-0.0,-0.0,-1.0,0.10687355086247614,1.0
56.160884857177734,14.751310348510742,-2.313767194747925,-0.0,-0.0,-1.0,0.03506778251562925,1.0
56.0807991027832,15.172924041748047,-2.326702356338501,-0.0,-0.0,-1.0,0.04672124579593781,1.0
56.1992073059082,14.973348617553711,-2.333833932876587,-0.0,-0.0,-1.0,0.03765697765883032,1.0
56.560646057128906,13.225570678710938,-2.1111035346984863,-0.0,-0.0,-1.0,0.06419882774636519,1.0
56.02988815307617,13.86457347869873,-2.065502643585205,-0.9148826415776886,-0.3724860605441311,-0.15570448561343325,0.03918173735477884,3.0
56.79828643798828,14.082889556884766,-2.1861319541931152,-0.0,-0.0,-1.0,0.041810667543478265,1.0
56.93962860107422,14.706875801086426,-2.2383852005004883,-0.0,-0.0,-1.0,0.03972108334913277,1.0
57.14246368408203,14.691882133483887,-2.2666215896606445,-0.0,-0.0,-1.0,0.03254127173692366,1.0
56.86982727050781,15.096231460571289,-2.249176502227783,-0.0,-0.0,-1.0,0.18227342458953213,1.0
56.91096496582031,15.332925796508789,-2.2680349349975586,-0.0,-0.0,-1.0,0.20226345585476108,1.0
57.159263610839844,15.568428993225098,-2.316826343536377,-0.0,-0.0,-1.0,0.10990029055599339,1.0
55.328468322753906,13.214893341064453,-2.206557273864746,-0.0,-0.0,-1.0,0.22069824911012503,2.0
55.22284698486328,13.720968246459961,-2.2159526348114014,-0.8394851503356934,-0.4402686546665355,-0.31847793343334974,0.08333592363021171,3.0
55.36393737792969,13.787450790405273,-2.2419848442077637,-0.0,-0.0,-1.0,0.049469856099896174,2.0
55.21460723876953,14.128032684326172,-2.236670970916748,0.2587821425112585,0.47656256795321345,-0.8401904079094937,0.120769582621136,3.0
55.45482635498047,14.842879295349121,-2.315964937210083,-0.800867125497421,0.5408154798184192,-0.25715844160025314,0.12603022216531434,3.0
55.8175048828125,15.029476165771484,-2.385242223739624,-0.0,-0.0,-1.0,0.10344842841349108,2.0
55.826622009277344,15.276649475097656,-2.4017696380615234,-0.0,-0.0,-1.0,0.07508437989158713,1.0
55.787906646728516,15.558446884155273,-2.4130795001983643,-0.0,-0.0,-1.0,0.10367333609223332,2.0
55.21598815917969,15.22909164428711,-2.354717493057251,-0.0,-0.0,-1.0,0.04888972387946558,2.0
57.095481872558594,15.060674667358398,-2.218708038330078,-0.0,-0.0,-1.0,0.10019152843211784,1.0
57.22608184814453,15.559134483337402,-2.2689552307128906,-0.0,-0.0,-1.0,0.05718925746102599,1.0
56.53251647949219,13.256098747253418,-2.034416913986206,-0.0,-0.0,-1.0,0.06375905498597124,1.0
57.049468994140625,15.259888648986816,-2.222926139831543,-0.0,-0.0,-1.0,0.13528520272089012,1.0
57.07597732543945,15.496953010559082,-2.241197109222412,-0.0,-0.0,-1.0,0.12903416318961836,2.0
56.54841613769531,13.143852233886719,-2.0882930755615234,-0.0,-0.0,-1.0,0.06419882774636518,1.0
55.94364929199219,13.708175659179688,-2.013731002807617,-0.0,-0.0,-1.0,0.055920172022324494,2.0
56.019683837890625,13.876977920532227,-2.035219192504883,-0.9148826415776886,-0.3724860605441311,-0.15570448561343325,0.039181737354778826,3.0
56.418880462646484,14.087688446044922,-2.1139774322509766,-0.0,-0.0,-1.0,0.03921524170851539,1.0
56.59260559082031,14.2542724609375,-2.1523842811584473,-0.0,-0.0,-1.0,0.035158065322393975,1.0
56.863258361816406,14.474552154541016,-2.2104997634887695,-0.0,-0.0,-1.0,0.029654346876844786,1.0
57.30263900756836,14.409711837768555,-2.2815122604370117,-0.0,-0.0,-1.0,0.018501197333504655,1.0
56.97681427001953,14.842202186584473,-2.2506308555603027,-0.0,-0.0,-1.0,0.041457435120228245,1.0
57.08945083618164,14.883563041687012,-2.272160053253174,-0.0,-0.0,-1.0,0.03861989417568075,1.0
56.918800354003906,15.171399116516113,-2.260085105895996,-0.0,-0.0,-1.0,0.122424893963054,1.0
57.09920120239258,15.109923362731934,-2.287108898162842,-0.0,-0.0,-1.0,0.09875170446304524,1.0
56.905723571777344,15.5385103225708,-2.280125141143799,-0.0,-0.0,-1.0,0.21675206045256037,1.0
57.43922424316406,15.269451141357422,-2.214137315750122,-0.0,-0.0,-1.0,0.048266946098595734,2.0
57.69300079345703,15.254100799560547,-2.2573835849761963,-0.0,-0.0,-1.0,0.04401599238786026,1.0
57.371971130371094,15.630732536315918,-2.2262439727783203,-0.0,-0.0,-1.0,0.049934803910359496,1.0
57.6591682434082,15.407905578613281,-2.261481523513794,-0.0,-0.0,-1.0,0.049036736504291946,1.0
56.63248062133789,13.222810745239258,-1.9589674472808838,-0.0,-0.0,-1.0,0.06820501878657483,1.0
56.19891357421875,14.377721786499023,-2.304287910461426,-0.0,-0.0,-1.0,0.049873630735421864,1.0
56.26879119873047,14.982579231262207,-2.348740577697754,-0.0,-0.0,-1.0,0.03036895646206598,1.0
56.416534423828125,15.399121284484863,-2.401905059814453,-0.0,-0.0,-1.0,0.0716024306793036,1.0
56.553890228271484,15.585711479187012,-2.4408183097839355,-0.0,-0.0,-1.0,0.1229186199482942,1.0
55.389076232910156,13.377585411071777,-2.099716901779175,-0.0,-0.0,-1.0,0.17017534224692132,1.0
55.79334259033203,13.371017456054688,-2.1807730197906494,-0.0,-0.0,-1.0,0.10412164148035018,1.0
55.57904815673828,13.738472938537598,-2.1514475345611572,-0.0,-0.0,-1.0,0.09188119745192469,2.0
55.75088882446289,13.499971389770508,-2.176924467086792,-0.0,-0.0,-1.0,0.14212289548470652,2.0
55.566532135009766,14.082743644714355,-2.1630759239196777,-0.0,-0.0,-1.0,0.04091839756037225,1.0
56.08369064331055,14.226938247680664,-2.27400803565979,-0.0,-0.0,-1.0,0.05756611566851609,1.0
55.86383056640625,14.316024780273438,-2.233543872833252,-0.0,-0.0,-1.0,0.11249447042450567,1.0
56.17270278930664,14.906885147094727,-2.3252835273742676,-0.0,-0.0,-1.0,0.03569880097684486,1.0
56.187129974365234,15.207677841186523,-2.344423294067383,-0.0,-0.0,-1.0,0.03066125933220302,1.0
55.304344177246094,13.317337036132812,-2.241939067840576,-0.0,-0.0,-1.0,0.1974107533620702,2.0
55.23625183105469,13.712641716003418,-2.239776134490967,-0.8394851503356934,-0.4402686546665355,-0.31847793343334974,0.08333592363021179,3.0
55.24933624267578,14.062742233276367,-2.255690574645996,-0.0,-0.0,-1.0,0.1250597944873333,2.0
55.24835205078125,14.619651794433594,-2.27902889251709,-0.0,-0.0,-1.0,0.08056838541422738,2.0
55.47405242919922,14.859415054321289,-2.3410651683807373,-0.800867125497421,0.5408154798184192,-0.25715844160025314,0.13225119075569883,3.0
55.78632736206055,15.01617431640625,-2.419074058532715,-0.0,-0.0,-1.0,0.11735263532743076,2.0
55.772010803222656,15.313396453857422,-2.4315104484558105,-0.0,-0.0,-1.0,0.06910747499989543,1.0
55.76865768432617,15.601799964904785,-2.4468414783477783,-0.0,-0.0,-1.0,0.10367333609223331,1.0
55.536651611328125,13.383861541748047,-2.1954755783081055,-0.0,-0.0,-1.0,0.13287028246252144,1.0
55.36265182495117,13.748852729797363,-2.1686556339263916,-0.0,-0.0,-1.0,0.08862886371658976,1.0
55.52064514160156,13.62228775024414,-2.2005691528320312,-0.0,-0.0,-1.0,0.10018094306216435,1.0
55.533973693847656,14.050731658935547,-2.22086238861084,-0.0,-0.0,-1.0,0.05253194118000236,1.0
55.37763214111328,14.349392890930176,-2.1977410316467285,-0.0,-0.0,-1.0,0.11986967423546398,1.0
55.47667694091797,14.372235298156738,-2.2219059467315674,-0.0,-0.0,-1.0,0.052195541650639915,1.0
55.9567756652832,14.558935165405273,-2.342824697494507,-0.0,-0.0,-1.0,0.049013765073222124,1.0
55.373329162597656,14.947467803955078,-2.226696491241455,-0.0,-0.0,-1.0,0.13398117311303942,1.0
55.64251708984375,14.813786506652832,-2.282496213912964,-0.0,-0.0,-1.0,0.0885802273039949,2.0
56.00676727294922,14.953412055969238,-2.375070571899414,-0.0,-0.0,-1.0,0.04946605556678298,1.0
55.814517974853516,15.250967025756836,-2.3468527793884277,-0.0,-0.0,-1.0,0.08107527776175222,1.0
56.00738525390625,15.233865737915039,-2.391082525253296,-0.0,-0.0,-1.0,0.0668056069031667,1.0
56.1917724609375,15.599260330200195,-2.4562478065490723,-0.0,-0.0,-1.0,0.045529489456432704,2.0
57.48976516723633,15.543502807617188,-2.115231990814209,-0.7368879027103666,-0.21603547945490903,-0.6405660703282722,0.1433327179083601,3.0
55.567752838134766,13.504079818725586,-2.0150864124298096,-0.0,-0.0,-1.0,0.2228685636846719,1.0
55.8597526550293,13.179295539855957,-2.0745368003845215,-0.0,-0.0,-1.0,0.09508717411376647,1.0
56.721038818359375,13.140785217285156,-2.274855375289917,-0.0,-0.0,-1.0,0.05004488584697916,2.0
55.725196838378906,13.739351272583008,-2.059277296066284,-0.0,-0.0,-1.0,0.10971462129974865,1.0
55.66249084472656,14.013029098510742,-2.053762912750244,-0.0,-0.0,-1.0,0.08810533548417908,1.0
55.810523986816406,14.129793167114258,-2.0929787158966064,-0.0,-0.0,-1.0,0.09527055451896155,1.0
56.32923889160156,14.269015312194824,-2.220653533935547,-0.0,-0.0,-1.0,0.04972671730931045,1.0
56.39432144165039,14.342577934265137,-2.2390048503875732,-0.0,-0.0,-1.0,0.04030901773710256,1.0
56.56092834472656,14.542261123657227,-2.286907434463501,-0.0,-0.0,-1.0,0.027131495305263913,1.0
56.41007995605469,14.804092407226562,-2.263068437576294,-0.0,-0.0,-1.0,0.0188590695289945,1.0
56.547515869140625,14.983538627624512,-2.3043038845062256,-0.0,-0.0,-1.0,0.041088316864859656,1.0
56.6986083984375,15.290879249572754,-2.3559489250183105,-0.0,-0.0,-1.0,0.1927420016246409,1.0
56.94085693359375,13.217656135559082,-2.2866430282592773,-0.0,-0.0,-1.0,0.04924020104133452,1.0
56.615989685058594,14.047322273254395,-2.2314629554748535,-0.0,-0.0,-1.0,0.037826808323151474,2.0
56.72339630126953,14.214142799377441,-2.2641382217407227,-0.0,-0.0,-1.0,0.04273759562848215,1.0
56.643470764160156,14.589439392089844,-2.2592716217041016,-0.0,-0.0,-1.0,0.03252362296361464,1.0
56.61811447143555,14.949771881103516,-2.2689762115478516,-0.0,-0.0,-1.0,0.04436648639238154,1.0
56.720035552978516,15.175870895385742,-2.3052501678466797,-0.0,-0.0,-1.0,0.15922864072574555,1.0
56.66154098510742,15.512231826782227,-2.308243751525879,-0.0,-0.0,-1.0,0.202670347120639,2.0
56.965606689453125,15.31725025177002,-2.3736791610717773,-0.0,-0.0,-1.0,0.2400495425365036,1.0
55.707550048828125,13.543522834777832,-1.9919542074203491,-0.0,-0.0,-1.0,0.2006439670630133,1.0
55.815059661865234,13.845856666564941,-2.027094841003418,-0.0,-0.0,-1.0,0.0680261811423105,2.0
55.8521842956543,14.061162948608398,-2.0430827140808105,-0.0,-0.0,-1.0,0.04707637668032093,2.0
55.80851745605469,14.562381744384766,-2.0508222579956055,-0.0,-0.0,-1.0,0.07061202919482505,1.0
55.347042083740234,13.408744812011719,-2.205441474914551,-0.0,-0.0,-1.0,0.21081982150572348,1.0
57.47978210449219,13.3931884765625,-2.274233102798462,-0.0,-0.0,-1.0,0.02886622473823154,1.0
55.423770904541016,13.80401611328125,-2.234064817428589,-0.0,-0.0,-1.0,0.042165083059110896,2.0
57.39805221557617,13.748194694519043,-2.263640880584717,-0.0,-0.0,-1.0,0.01615774563023876,1.0
55.414405822753906,14.178943634033203,-2.240133285522461,-0.0,-0.0,-1.0,0.12141215565181429,2.0
57.490570068359375,14.221696853637695,-2.3031227588653564,-0.0,-0.0,-1.0,0.014528929857032968,1.0
55.40558624267578,14.606915473937988,-2.250800609588623,-0.0,-0.0,-1.0,0.061258446371790544,2.0
57.45997619628906,14.403345108032227,-2.3022611141204834,-0.0,-0.0,-1.0,0.015485849558014363,1.0
55.50355529785156,14.916714668273926,-2.290917158126831,-0.0,-0.0,-1.0,0.1527030604101269,1.0
55.90478515625,15.09705924987793,-2.416165351867676,-0.0,-0.0,-1.0,0.09151457409937656,1.0
55.65853500366211,15.543709754943848,-2.3655078411102295,-0.0,-0.0,-1.0,0.11556871091915061,2.0
55.8621826171875,15.324824333190918,-2.414316415786743,-0.0,-0.0,-1.0,0.06866327568856917,1.0
56.58108139038086,13.227760314941406,-2.0435333251953125,-0.0,-0.0,-1.0,0.06820501878657481,1.0
56.75145721435547,14.131614685058594,-2.111891508102417,-0.0,-0.0,-1.0,0.04348161585764428,2.0
56.95377731323242,14.126052856445312,-2.163095712661743,-0.0,-0.0,-1.0,0.03127064104126569,1.0
57.01374435424805,14.660055160522461,-2.1989285945892334,-0.0,-0.0,-1.0,0.03974472924909971,2.0
56.91268539428711,15.060896873474121,-2.191042900085449,-0.0,-0.0,-1.0,0.08564604571005394,2.0
56.984859466552734,14.94804573059082,-2.20430064201355,-0.0,-0.0,-1.0,0.04760513791609932,1.0
57.06809997558594,15.37033748626709,-2.246338367462158,-0.0,-0.0,-1.0,0.18171849053082098,1.0
55.49809646606445,13.150821685791016,-2.327178955078125,-0.0,-0.0,-1.0,0.11069157799485828,1.0
55.24494934082031,13.634119033813477,-2.24442982673645,-0.0,-0.0,-1.0,0.07677608249303823,2.0
55.346893310546875,13.46463680267334,-2.2773489952087402,-0.0,-0.0,-1.0,0.12071154959022148,2.0
56.99991226196289,13.377562522888184,-2.3178741931915283,-0.0,-0.0,-1.0,0.038049664691132655,1.0
55.37253952026367,13.86767292022705,-2.2873315811157227,0.4586937402854521,0.31939920705804725,-0.8292069700344017,0.15186497736286433,3.0
56.128868103027344,13.904119491577148,-2.0755481719970703,-0.0,-0.0,-1.0,0.021520271905325117,1.0
57.01176452636719,13.932291030883789,-2.331281900405884,-0.0,-0.0,-1.0,0.019534186620001587,1.0
55.238983154296875,14.374631881713867,-2.250839948654175,-0.0,-0.0,-1.0,0.11280734616755018,1.0
55.39667892456055,14.262224197387695,-2.3005013465881348,-0.0,-0.0,-1.0,0.112821525635472,1.0
56.45819091796875,14.101957321166992,-2.174997329711914,-0.0,-0.0,-1.0,0.03680579987137481,1.0
56.69377136230469,14.311383247375488,-2.2494356632232666,-0.0,-0.0,-1.0,0.03737480949728243,2.0
56.99631118774414,14.072315216064453,-2.3301756381988525,-0.0,-0.0,-1.0,0.02300322790605856,1.0
55.24680709838867,14.638306617736816,-2.260549545288086,-0.824284954753596,0.36253016093760343,-0.43488641709924414,0.07950854826619948,3.0
55.464385986328125,14.846541404724121,-2.3380348682403564,-0.800867125497421,0.5408154798184192,-0.25715844160025314,0.1257631972425695,3.0
56.75239944458008,14.66276741027832,-2.2781918048858643,-0.0,-0.0,-1.0,0.034253373532468996,1.0
55.278594970703125,14.969538688659668,-2.2808127403259277,-0.0,-0.0,-1.0,0.10947410909053816,1.0
55.61177062988281,15.072023391723633,-2.394486665725708,-0.0,-0.0,-1.0,0.11007181170762319,1.0
55.75914001464844,15.186906814575195,-2.447598934173584,-0.7064056479267969,-0.665061235823643,-0.24224907261298506,0.09340105572348535,3.0
56.824668884277344,15.054925918579102,-2.3143362998962402,-0.0,-0.0,-1.0,0.14744151813575015,1.0
55.703311920166016,15.5891752243042,-2.447232723236084,-0.0,-0.0,-1.0,0.10367333609223335,2.0
55.76787185668945,15.415599822998047,-2.4603846073150635,-0.0,-0.0,-1.0,0.056646934969205365,1.0
56.750946044921875,15.418705940246582,-2.3093068599700928,-0.0,-0.0,-1.0,0.1992641125217923,1.0
56.952362060546875,15.582098007202148,-2.376461982727051,-0.0,-0.0,-1.0,0.16120204908378571,1.0
55.98291778564453,13.763772010803223,-2.030914306640625,-0.0,-0.0,-1.0,0.04297920524818178,2.0
57.50345230102539,15.533204078674316,-2.040208578109741,-0.0,-0.0,-1.0,0.1433327179083601,2.0
56.732059478759766,13.164789199829102,-2.265939235687256,-0.0,-0.0,-1.0,0.050044885846979165,2.0
56.775001525878906,13.25814437866211,-2.2787299156188965,-0.0,-0.0,-1.0,0.04960900206068599,1.0
55.87797546386719,13.711551666259766,-1.993911623954773,-0.0,-0.0,-1.0,0.09316434428589881,2.0
56.6655387878418,13.39215087890625,-2.2435221672058105,-0.0,-0.0,-1.0,0.06006531109264679,1.0
56.02885055541992,13.857223510742188,-2.041822910308838,-0.9148826415776886,-0.3724860605441311,-0.15570448561343325,0.03918173735477883,3.0
56.60809326171875,14.006832122802734,-2.2267990112304688,-0.0,-0.0,-1.0,0.05011251447723547,2.0
56.67338562011719,14.300829887390137,-2.2514243125915527,-0.0,-0.0,-1.0,0.03774009590488043,2.0
56.68032455444336,14.69643783569336,-2.2618799209594727,-0.0,-0.0,-1.0,0.03668232866555659,1.0
56.68768310546875,15.066034317016602,-2.2751922607421875,-0.0,-0.0,-1.0,0.11137725905480013,1.0
56.953094482421875,15.241819381713867,-2.367093563079834,-0.0,-0.0,-1.0,0.14255674097221768,2.0
56.67994689941406,15.528388977050781,-2.290897846221924,-0.0,-0.0,-1.0,0.19590890982706827,2.0
56.93149948120117,15.450532913208008,-2.368959426879883,-0.0,-0.0,-1.0,0.1915232438861325,1.0
57.46994400024414,15.520483016967773,-2.0846667289733887,-0.0,-0.0,-1.0,0.1433327179083601,2.0
57.46767044067383,15.57876968383789,-2.1017088890075684,-0.623117663260632,-0.0925849830389268,-0.7766288680240332,0.1433327179083601,3.0
56.78912353515625,15.538201332092285,-2.388181447982788,-0.0,-0.0,-1.0,0.15863606178754044,1.0
55.47880172729492,15.531015396118164,-2.2104640007019043,-0.0,-0.0,-1.0,0.07835344015295309,1.0
55.293880462646484,14.131407737731934,-2.1059818267822266,-0.0,-0.0,-1.0,0.08973810393602931,1.0
55.21163558959961,13.743504524230957,-2.0741043090820312,-0.0,-0.0,-1.0,0.12660698339941379,1.0
56.085716247558594,13.433425903320312,-2.132120132446289,-0.0,-0.0,-1.0,0.04715903566800561,1.0
56.47150421142578,13.327136039733887,-2.1596498489379883,-0.0,-0.0,-1.0,0.06436989629724967,1.0
55.77937316894531,13.939391136169434,-2.0399367809295654,-0.0,-0.0,-1.0,0.08007716607947732,2.0
55.718048095703125,14.23516845703125,-2.053645372390747,-0.0,-0.0,-1.0,0.10625494237136002,2.0
55.75636291503906,14.118467330932617,-2.049475908279419,-0.0,-0.0,-1.0,0.0850923178546486,1.0
56.891441345214844,15.128206253051758,-2.216599702835083,-0.0,-0.0,-1.0,0.11419838032865265,2.0
56.90869903564453,15.503257751464844,-2.2430474758148193,-0.0,-0.0,-1.0,0.2353741237144196,1.0
57.62203598022461,15.538341522216797,-2.1034648418426514,-0.0,-0.0,-1.0,0.1433327179083601,1.0
57.69744110107422,15.541337966918945,-2.063358783721924,-0.0,-0.0,-1.0,0.1433327179083601,2.0
55.65717315673828,13.903789520263672,-2.0839104652404785,-0.0,-0.0,-1.0,0.09076146894252618,2.0
55.58080291748047,14.143587112426758,-2.0909078121185303,-0.0,-0.0,-1.0,0.06838819281729556,2.0
56.73640441894531,14.57701301574707,-2.2478792667388916,-0.0,-0.0,-1.0,0.023297077767259748,2.0
56.85570526123047,14.926872253417969,-2.284367561340332,-0.0,-0.0,-1.0,0.0931128760692691,1.0
56.70801544189453,15.353023529052734,-2.2967207431793213,0.7128445342271914,-0.021643433880111553,-0.7009880396927582,0.1869688497990651,3.0
56.750152587890625,15.251947402954102,-2.2945191860198975,-0.0,-0.0,-1.0,0.20814373448690732,2.0
57.33386993408203,13.602497100830078,-2.2541275024414062,-0.0,-0.0,-1.0,0.027369464060029363,1.0
57.44775390625,13.516816139221191,-2.2631664276123047,-0.0,-0.0,-1.0,0.027845767191991604,1.0
56.64739990234375,14.899771690368652,-2.2419705390930176,-0.0,-0.0,-1.0,0.03889289398499006,2.0
56.81285858154297,14.728490829467773,-2.2519583702087402,-0.0,-0.0,-1.0,0.027071442736112932,1.0
56.63662338256836,15.18755054473877,-2.256552219390869,-0.0,-0.0,-1.0,0.12612974393033835,1.0
56.91576385498047,15.05006217956543,-2.2814226150512695,-0.0,-0.0,-1.0,0.15274332639076527,1.0
56.568336486816406,15.574508666992188,-2.270293712615967,-0.0,-0.0,-1.0,0.15400484595847608,2.0
56.82914733886719,15.477302551269531,-2.2950782775878906,-0.0,-0.0,-1.0,0.20270305328708108,1.0
55.375144958496094,13.433487892150879,-2.0163159370422363,-0.0,-0.0,-1.0,0.17237149944362004,1.0
55.63700485229492,13.80126953125,-2.065767288208008,-0.0,-0.0,-1.0,0.09786304185193065,1.0
55.819915771484375,13.590051651000977,-2.0763068199157715,-0.0,-0.0,-1.0,0.15396196264416862,1.0
55.67741012573242,14.141340255737305,-2.0882320404052734,-0.0,-0.0,-1.0,0.09047069169381851,1.0
55.780975341796875,14.349750518798828,-2.11135196685791,-0.0,-0.0,-1.0,0.09450318041076511,1.0
57.66171646118164,15.532320022583008,-2.041592836380005,-0.0,-0.0,-1.0,0.14333271790836008,2.0
55.52201843261719,13.144086837768555,-2.089219331741333,-0.0,-0.0,-1.0,0.11342366542745151,1.0
55.510475158691406,13.631950378417969,-2.117570161819458,-0.0,-0.0,-1.0,0.121920544411582,1.0
55.712738037109375,13.421449661254883,-2.132270574569702,-0.0,-0.0,-1.0,0.14980643308782177,1.0
55.517608642578125,13.884942054748535,-2.1345930099487305,-0.6533993308800244,0.589985982090108,-0.4743267390130004,0.05842257160723927,3.0
55.53809356689453,14.250516891479492,-2.1610970497131348,0.2938641742673922,-0.6876789311145641,-0.6638836756415045,0.11904796883169044,3.0
55.882423400878906,14.587718963623047,-2.23037052154541,-0.0,-0.0,-1.0,0.05480550257362726,1.0
56.29561233520508,14.800613403320312,-2.3008975982666016,-0.0,-0.0,-1.0,0.022822414278472165,1.0
56.33913040161133,14.94072151184082,-2.316352367401123,-0.0,-0.0,-1.0,0.027044265729741838,1.0
56.319786071777344,15.352757453918457,-2.342372417449951,-0.0,-0.0,-1.0,0.05551423251585754,2.0
56.878501892089844,13.251471519470215,-2.2768912315368652,-0.0,-0.0,-1.0,0.04713864256976434,1.0
55.83383560180664,14.54153823852539,-2.214625358581543,-0.0,-0.0,-1.0,0.06053329970082975,2.0
56.354774475097656,14.819531440734863,-2.307429075241089,-0.0,-0.0,-1.0,0.02470097213218298,1.0
56.19050598144531,15.368448257446289,-2.3241186141967773,-0.0,-0.0,-1.0,0.030103464951616577,1.0
56.38964080810547,14.995731353759766,-2.3248724937438965,-0.0,-0.0,-1.0,0.03107981258884699,1.0
56.392913818359375,15.632991790771484,-2.3720593452453613,-0.0,-0.0,-1.0,0.11088720003749371,1.0
56.79777908325195,15.435856819152832,-2.4139604568481445,-0.0,-0.0,-1.0,0.17959098341747481,1.0
55.24452209472656,13.38758373260498,-2.0537195205688477,-0.0,-0.0,-1.0,0.18277032835097543,1.0
55.83706283569336,13.27676773071289,-2.1306681632995605,-0.0,-0.0,-1.0,0.09703632347549568,1.0
55.54529571533203,13.717228889465332,-2.1178464889526367,-0.0,-0.0,-1.0,0.0941561385816962,2.0
55.72940444946289,13.551337242126465,-2.1330111026763916,-0.0,-0.0,-1.0,0.1448598196725633,1.0
55.54535675048828,14.036373138427734,-2.1392035484313965,-0.0,-0.0,-1.0,0.11194183574716476,2.0
55.698463439941406,14.390141487121582,-2.1850271224975586,-0.0,-0.0,-1.0,0.09983140924769614,1.0
57.43372344970703,15.30811882019043,-2.2093491554260254,-0.0,-0.0,-1.0,0.056184730011816786,2.0
56.537017822265625,13.245633125305176,-1.9753209352493286,-0.0,-0.0,-1.0,0.06375905498597124,1.0
56.752464294433594,14.141883850097656,-2.1145691871643066,-0.0,-0.0,-1.0,0.04348161585764428,2.0
57.01727294921875,14.5809326171875,-2.1726956367492676,-0.0,-0.0,-1.0,0.037923852800852725,1.0
57.08149719238281,14.52125358581543,-2.180734634399414,-0.0,-0.0,-1.0,0.029217576651256814,1.0
56.95442199707031,14.911382675170898,-2.1754417419433594,-0.0,-0.0,-1.0,0.04084848818279809,1.0
57.43101501464844,14.804738998413086,-2.2470951080322266,-0.0,-0.0,-1.0,0.013810580875271367,1.0
57.06416320800781,15.325862884521484,-2.2098498344421387,-0.0,-0.0,-1.0,0.17818068170675572,1.0
57.27071762084961,15.620077133178711,-2.2551403045654297,-0.0,-0.0,-1.0,0.04200448018989265,1.0
56.051910400390625,13.757976531982422,-1.9892255067825317,-0.0,-0.0,-1.0,0.04201247160646183,1.0
56.16691207885742,13.856439590454102,-2.0109620094299316,-0.0,-0.0,-1.0,0.021520271905325093,1.0
55.22292709350586,13.382070541381836,-2.2734599113464355,-0.0,-0.0,-1.0,0.21346039076840934,2.0
55.29066467285156,15.478336334228516,-2.3979902267456055,-0.0,-0.0,-1.0,0.043318148381676344,1.0
55.46882629394531,15.178211212158203,-2.4116854667663574,-0.0,-0.0,-1.0,0.05220072199208533,1.0
57.56073760986328,15.444499969482422,-2.0344793796539307,-0.0,-0.0,-1.0,0.14333271790836008,1.0
57.160301208496094,14.980703353881836,-2.2478349208831787,-0.0,-0.0,-1.0,0.04070817739436796,1.0
55.42284393310547,14.907636642456055,-2.118040084838867,-0.0,-0.0,-1.0,0.06097202336427342,1.0
57.1340446472168,15.38963508605957,-1.7542754411697388,-0.0,-0.0,-1.0,0.0964463858737849,1.0
56.90068817138672,15.366989135742188,-2.1596508026123047,-0.0,-0.0,-1.0,0.156404296629532,2.0
56.587703704833984,15.56254768371582,-2.1744613647460938,-0.0,-0.0,-1.0,0.0748026073323383,1.0
56.719581604003906,15.083921432495117,-2.1192126274108887,-0.0,-0.0,-1.0,0.08543131290057887,1.0
56.65650177001953,15.320955276489258,-2.146544933319092,-0.0,-0.0,-1.0,0.0877182853813314,1.0
55.743988037109375,15.455947875976562,-2.1365180015563965,-0.0,-0.0,-1.0,0.09829934840941693,1.0
55.70037078857422,13.662925720214844,-1.9134114980697632,-0.0,-0.0,-1.0,0.11863757609140776,1.0
55.63219451904297,13.953760147094727,-1.946750283241272,-0.0,-0.0,-1.0,0.10075641528035482,1.0
55.69565963745117,13.453807830810547,-1.8878825902938843,-0.0,-0.0,-1.0,0.15528090413909326,1.0
55.3179817199707,14.527338981628418,-2.033207654953003,-0.0,-0.0,-1.0,0.07257126431648782,1.0
55.416988372802734,13.98165225982666,-1.9836528301239014,-0.0,-0.0,-1.0,0.1123523790652673,1.0
55.545265197753906,13.528523445129395,-1.9480254650115967,-0.0,-0.0,-1.0,0.19925732943174732,1.0
55.33155059814453,13.648991584777832,-1.947399377822876,-0.0,-0.0,-1.0,0.12351759078446516,1.0
55.610504150390625,15.41769027709961,-2.4441275596618652,-0.0,-0.0,-1.0,0.04872681868202755,1.0
55.593482971191406,13.26457405090332,-2.2270545959472656,-0.0,-0.0,-1.0,0.08658171914739118,1.0
55.395606994628906,13.408226013183594,-2.2262344360351562,-0.0,-0.0,-1.0,0.2084940062932247,1.0
55.33599090576172,13.691938400268555,-2.249685287475586,-0.0,-0.0,-1.0,0.10126309046658909,1.0
57.5367317199707,15.525415420532227,-2.0609052181243896,-0.0,-0.0,-1.0,0.1433327179083601,2.0
56.85551452636719,15.342752456665039,-2.366894245147705,-0.0,-0.0,-1.0,0.217787553599999,2.0
57.557613372802734,15.591794967651367,-2.143857955932617,-0.0,-0.0,-1.0,0.1433327179083601,1.0
55.237552642822266,13.392292022705078,-2.210038185119629,-0.8666490815775653,-0.4448040935011578,-0.22598382199922182,0.21346039076840934,3.0
55.38642120361328,13.796770095825195,-2.2511634826660156,-0.28818779220149915,0.9279719113250006,0.23625394857621113,0.1246905896987338,3.0
55.375831604003906,14.974813461303711,-2.326655864715576,-0.0,-0.0,-1.0,0.13441538668200428,1.0
55.743446350097656,15.261465072631836,-2.385462760925293,-0.0,-0.0,-1.0,0.0908706253846435,1.0
55.6630859375,15.522197723388672,-2.394784450531006,-0.0,-0.0,-1.0,0.11556871091915061,2.0
55.478675842285156,15.47501277923584,-2.3966307640075684,-0.0,-0.0,-1.0,0.04977102304706752,1.0
55.294254302978516,15.23377513885498,-2.3600432872772217,-0.0,-0.0,-1.0,0.023748907298778557,1.0
55.286468505859375,15.339472770690918,-2.366330623626709,-0.0,-0.0,-1.0,0.03925932925348751,2.0
55.31120681762695,13.232921600341797,-2.237581491470337,-0.0,-0.0,-1.0,0.22069824911012503,2.0
55.24851989746094,13.385848045349121,-2.2394139766693115,-0.9149907579425409,-0.2761482136678771,0.2941667502757156,0.21346039076840934,4.0
55.225189208984375,13.746936798095703,-2.258025884628296,-0.8394851503356934,-0.4402686546665355,-0.31847793343334974,0.07757438597495385,3.0
55.2226448059082,15.543684959411621,-2.373304605484009,-0.0,-0.0,-1.0,0.043318148381676365,2.0
55.87114715576172,14.988761901855469,-2.344191551208496,-0.0,-0.0,-1.0,0.08999513038905738,1.0
55.704833984375,15.241291999816895,-2.3300347328186035,-0.0,-0.0,-1.0,0.09555989835290578,1.0
55.57433319091797,15.497036933898926,-2.320411443710327,-0.0,-0.0,-1.0,0.0961314326923568,1.0
55.361900329589844,14.8524169921875,-2.2830123901367188,-0.0,-0.0,-1.0,0.11386327992502987,1.0
55.27781677246094,13.284396171569824,-2.252753496170044,-0.2543787935562709,0.4804076891713247,-0.8393449121630062,0.19741075336207015,3.0
56.960872650146484,15.378405570983887,-2.307032585144043,-0.0,-0.0,-1.0,0.24097834953716585,2.0
56.621849060058594,15.612266540527344,-2.2664566040039062,-0.0,-0.0,-1.0,0.1508461781800481,2.0
56.51871871948242,15.102253913879395,-2.265824317932129,0.47884498712775697,-0.40826638174847873,-0.7771911218205106,0.06174842707854735,3.0
55.42478942871094,13.91100025177002,-2.178739547729492,-0.0,-0.0,-1.0,0.12120490160783072,1.0
55.44062805175781,14.183574676513672,-2.1730990409851074,-0.0,-0.0,-1.0,0.10852874510284603,1.0
55.28798294067383,13.364803314208984,-2.1799211502075195,-0.0,-0.0,-1.0,0.2130885682169357,1.0
55.2421989440918,13.587841033935547,-2.1684765815734863,-0.0,-0.0,-1.0,0.149040668169762,1.0
55.252498626708984,14.021588325500488,-2.2891924381256104,-0.0,-0.0,-1.0,0.12507539112603647,1.0
55.26640319824219,14.52678394317627,-2.3234710693359375,-0.0,-0.0,-1.0,0.07150825788039837,1.0
55.46087646484375,14.235684394836426,-2.3212127685546875,-0.0,-0.0,-1.0,0.0921171339328719,1.0
55.3626594543457,13.876975059509277,-2.2892138957977295,0.4586937402854521,0.31939920705804725,-0.8292069700344017,0.14786268977799225,3.0
56.15241241455078,13.43204116821289,-2.32814359664917,-0.0,-0.0,-1.0,0.04316549706596984,1.0
56.178836822509766,13.284148216247559,-2.3206844329833984,-0.0,-0.0,-1.0,0.048825124965714124,1.0
55.931175231933594,13.877533912658691,-1.9632128477096558,-0.0,-0.0,-1.0,0.03918173735477882,1.0
57.579864501953125,13.142486572265625,-2.0623345375061035,-0.0,-0.0,-1.0,0.031872836308023685,1.0
55.488807678222656,13.718235969543457,-2.1409473419189453,-0.0,-0.0,-1.0,0.07849631085902287,1.0
55.50276565551758,14.18731689453125,-2.1571640968322754,-0.0,-0.0,-1.0,0.10009867540839011,2.0
55.7830924987793,14.613202095031738,-2.1952667236328125,-0.0,-0.0,-1.0,0.05973344058238638,1.0
55.624507904052734,15.007902145385742,-2.194241523742676,-0.0,-0.0,-1.0,0.07238009552789346,1.0
56.52223205566406,15.219042778015137,-2.279214382171631,-0.0,-0.0,-1.0,0.05536738896889721,1.0
56.61882781982422,15.574800491333008,-2.2992162704467773,-0.0,-0.0,-1.0,0.12502306052778128,2.0
56.99030303955078,15.398815155029297,-2.325791835784912,-0.0,-0.0,-1.0,0.2213105600587211,2.0
55.546913146972656,13.576193809509277,-2.028179168701172,-0.0,-0.0,-1.0,0.15722904594653905,2.0
55.74751281738281,13.917786598205566,-2.056258201599121,-0.0,-0.0,-1.0,0.0863740844813358,2.0
55.683441162109375,14.241194725036621,-2.060751438140869,-0.0,-0.0,-1.0,0.08242778974673202,2.0
57.00679016113281,14.839744567871094,-2.1947875022888184,-0.0,-0.0,-1.0,0.031227823762717648,1.0
56.969642639160156,15.429410934448242,-2.2101845741271973,-0.0,-0.0,-1.0,0.2103406886446634,1.0
55.4336051940918,13.965963363647461,-2.2413463592529297,-0.0,-0.0,-1.0,0.07619112355900438,2.0
55.99644470214844,13.357419967651367,-2.291562557220459,-0.0,-0.0,-1.0,0.05975351436610627,1.0
55.43742752075195,14.501052856445312,-2.2499566078186035,-0.0,-0.0,-1.0,0.07651891880905004,1.0
55.49432373046875,14.274272918701172,-2.2522802352905273,-0.0,-0.0,-1.0,0.13199342140457374,1.0
55.81326675415039,14.879556655883789,-2.2951231002807617,-0.0,-0.0,-1.0,0.05850192367357051,1.0
56.41861343383789,15.252063751220703,-2.364151954650879,-0.0,-0.0,-1.0,0.025399145160681768,1.0
55.46144104003906,15.578139305114746,-2.3224668502807617,-0.0,-0.0,-1.0,0.08194597920525405,1.0
57.33308410644531,14.88062858581543,-2.3235185146331787,-0.0,-0.0,-1.0,0.030972892017668986,1.0
55.75969696044922,13.708944320678711,-2.0940587520599365,-0.0,-0.0,-1.0,0.09599560045153385,1.0
55.90654754638672,13.673885345458984,-2.1016409397125244,-0.0,-0.0,-1.0,0.11158137354805603,1.0
56.75513458251953,14.57124137878418,-2.2506887912750244,-0.0,-0.0,-1.0,0.02329707776725974,2.0
56.887638092041016,14.520944595336914,-2.2558271884918213,-0.0,-0.0,-1.0,0.026537659625561868,1.0
55.681968688964844,13.852161407470703,-2.1591014862060547,-0.0,-0.0,-1.0,0.08201571701653394,1.0
55.647396087646484,13.877779960632324,-2.1990745067596436,-0.0,-0.0,-1.0,0.0691403885789922,1.0
55.61928176879883,13.588210105895996,-2.1469922065734863,-0.0,-0.0,-1.0,0.12539839853072893,1.0
55.53739929199219,13.889275550842285,-2.1564650535583496,-0.6533993308800244,0.589985982090108,-0.4743267390130004,0.0606555154892919,3.0
55.649269104003906,13.89636516571045,-2.0435922145843506,-0.0,-0.0,-1.0,0.09048941810031468,2.0
