x,y,z,nx,ny,nz,curvature,density,label
50.122154235839844,9.811445236206055,-1.9377708435058594,-0.0,-0.0,-1.0,0.03770186223695131,2.0,0
50.073951721191406,10.063874244689941,-1.9297871589660645,-0.0,-0.0,-1.0,0.04898901383446581,1.0,0
48.65492248535156,8.331987380981445,-1.6577789783477783,-0.0,-0.0,-1.0,0.14880829616255767,1.0,0
48.68290710449219,8.453353881835938,-1.6618423461914062,-0.0,-0.0,-1.0,0.18494243849386913,2.0,0
49.141719818115234,9.131138801574707,-1.7454912662506104,-0.2411537398594735,0.20729872577989686,-0.9480886625426024,0.22430736324707695,3.0,0
49.15871047973633,9.387280464172363,-1.7482919692993164,-0.7230956051983288,-0.3714523413787795,-0.5823709331921411,0.1900860681241121,3.0,0
49.37242126464844,9.524354934692383,-1.7898430824279785,-0.0,-0.0,-1.0,0.19024443033113914,2.0,0
49.290016174316406,9.814935684204102,-1.7742180824279785,-0.0,-0.0,-1.0,0.20413501012409396,1.0,0
49.55858612060547,9.749019622802734,-1.8267123699188232,-0.0,-0.0,-1.0,0.09602258160907802,1.0,0
49.5632209777832,10.353082656860352,-1.8308889865875244,0.7143456731625893,0.09148881224575835,-0.6937867514357331,0.22333477703314095,9.0,0
49.61554718017578,10.43065357208252,-1.841902256011963,-0.0,-0.0,-1.0,0.20897628478750618,2.0,0
48.214874267578125,8.157063484191895,-1.7793824672698975,-0.0,-0.0,-1.0,0.11705348385378082,1.0,0
48.55794906616211,8.283126831054688,-1.8460302352905273,-0.3223354810891129,-0.10600043241178274,-0.940671965118322,0.15491076064836484,3.0,0
48.77696990966797,8.615564346313477,-1.8819894790649414,-0.0,-0.0,-1.0,0.11486836057267812,1.0,0
48.92646789550781,8.793900489807129,-1.9087190628051758,-0.0,-0.0,-1.0,0.062423462183220424,1.0,0
48.460304260253906,9.160409927368164,-1.8018221855163574,-0.0,-0.0,-1.0,0.05895306375109693,1.0,0
48.857479095458984,9.206299781799316,-1.8848652839660645,-0.0,-0.0,-1.0,0.1260831013526261,1.0,0
48.902339935302734,8.995620727539062,-1.8989872932434082,-0.0,-0.0,-1.0,0.12695193500272892,2.0,0
48.36371994018555,9.32898235321045,-1.777623176574707,0.6357910988059813,-0.770432077645273,-0.046947762611986944,0.0927532381667699,3.0,0
49.038414001464844,9.377477645874023,-1.9201478958129883,-0.0,-0.0,-1.0,0.1770540290223235,1.0,0
49.174102783203125,9.80062484741211,-1.9426116943359375,-0.0,-0.0,-1.0,0.2027972822113062,1.0,0
49.138526916503906,10.210468292236328,-1.930260419845581,-0.0,-0.0,-1.0,0.02531567123964635,1.0,0
49.122615814208984,10.427471160888672,-1.9249804019927979,-0.0,-0.0,-1.0,0.030961678734394826,2.0,0
48.599769592285156,8.162556648254395,-1.771067500114441,-0.0,-0.0,-1.0,0.13437835156198877,2.0,0
48.8926887512207,8.33002758026123,-1.8280740976333618,-0.0,-0.0,-1.0,0.10932447701388966,1.0,0
49.111480712890625,8.515841484069824,-1.8694287538528442,-0.0,-0.0,-1.0,0.044361211777857554,1.0,0
49.235023498535156,8.696063995361328,-1.8911324739456177,-0.0,-0.0,-1.0,0.08259771258867661,1.0,0
49.14271545410156,9.129295349121094,-1.8596857786178589,-0.1724380443472027,0.9469005625711263,0.27137510103949625,0.15703607748143955,4.0,0
49.2251091003418,8.948297500610352,-1.8822520971298218,-0.0,-0.0,-1.0,0.1674606828369937,1.0,0
49.15849304199219,9.444557189941406,-1.8561586141586304,0.24548502843380093,0.5669084712169469,-0.7863535375881003,0.26324230374285,3.0,0
49.26424789428711,9.532018661499023,-1.8778620958328247,-0.0,-0.0,-1.0,0.12590961833917602,2.0,0
49.214996337890625,9.674905776977539,-1.8642092943191528,-0.2681350241792357,0.0824003378326566,-0.9598509223486036,0.23128859053540377,4.0,0
49.365970611572266,9.864773750305176,-1.8949657678604126,-0.0,-0.0,-1.0,0.1740479906872022,2.0,0
49.536094665527344,10.366771697998047,-1.9272211790084839,0.5140728877463933,0.3565181404611256,-0.7801435006498647,0.23458252911289917,3.0,0
49.67794418334961,10.132410049438477,-1.9617999792099,-0.0,-0.0,-1.0,0.07219370228261694,2.0,0
49.876548767089844,8.211194038391113,-1.851618766784668,-0.0,-0.0,-1.0,0.102296044719899,2.0,0
47.71965789794922,9.143131256103516,-1.8313865661621094,-0.0,-0.0,-1.0,0.07209716642275882,2.0,0
49.16673278808594,9.117103576660156,-1.6591267585754395,-0.0,-0.0,-1.0,0.27870962234445157,2.0,0
47.90964126586914,9.449796676635742,-1.856593370437622,-0.0,-0.0,-1.0,0.05222647597010174,1.0,0
48.09978103637695,9.654163360595703,-1.8903520107269287,-0.0,-0.0,-1.0,0.028047904720384712,1.0,0
49.18959426879883,9.417129516601562,-1.6521058082580566,0.19482588923913732,-0.360084830199757,-0.9123495974363072,0.1677845152015993,3.0,0
49.36870193481445,9.512353897094727,-1.687744379043579,-0.0,-0.0,-1.0,0.10803837053473908,2.0,0
48.221954345703125,9.868818283081055,-1.9083642959594727,0.5117812522933561,0.27599139890589663,-0.8135777144999797,0.024100154827351665,3.0,0
48.26848602294922,10.227056503295898,-1.9009709358215332,-0.0,-0.0,-1.0,0.09751498993056862,1.0,0
48.12350845336914,10.529452323913574,-1.8494658470153809,-0.0,-0.0,-1.0,0.08294158324904242,1.0,0
48.67550277709961,8.220128059387207,-1.8492205142974854,-0.0,-0.0,-1.0,0.13810402428002416,1.0,0
48.850975036621094,8.409601211547852,-1.8720595836639404,-0.0,-0.0,-1.0,0.13742847749192288,1.0,0
49.0557861328125,8.585654258728027,-1.9038753509521484,-0.0,-0.0,-1.0,0.07352815631082095,2.0,0
49.16195297241211,8.770508766174316,-1.9134995937347412,-0.0,-0.0,-1.0,0.0813914584832443,2.0,0
49.78424072265625,9.997125625610352,-1.9794824123382568,-0.0,-0.0,-1.0,0.10556052731574654,1.0,0
49.85938262939453,10.132024765014648,-1.9905693531036377,-0.0,-0.0,-1.0,0.08578025222953864,2.0,0
48.504112243652344,8.202716827392578,-1.8124706745147705,-0.0,-0.0,-1.0,0.12950211882201287,1.0,0
49.106475830078125,9.181734085083008,-1.8689098358154297,-0.0,-0.0,-1.0,0.1267248445027177,2.0,0
49.1388053894043,9.032877922058105,-1.8876228332519531,-0.0,-0.0,-1.0,0.20959486807121888,2.0,0
49.103755950927734,9.463775634765625,-1.8478572368621826,-0.8586841986202639,0.49637825342298914,0.12755421031317932,0.23253372155110336,3.0,0
49.280540466308594,9.563848495483398,-1.8833622932434082,-0.0,-0.0,-1.0,0.10068851793281866,2.0,0
49.32686233520508,9.812383651733398,-1.8784513473510742,0.5715204369396762,-0.04497999215957477,-0.819354130071733,0.16843616272239098,4.0,0
49.610042572021484,9.945795059204102,-1.939511775970459,-0.0,-0.0,-1.0,0.07520250490211282,2.0,0
49.55986404418945,10.385917663574219,-1.9028089046478271,0.366877610281421,0.8399889622474346,-0.3997741392044659,0.22150306036085862,4.0,0
49.6385383605957,10.345820426940918,-1.924483299255371,-0.0,-0.0,-1.0,0.12695737268781768,2.0,0
50.090728759765625,8.190132141113281,-1.1010708808898926,-0.0,-0.0,-1.0,0.03982791359759663,1.0,0
48.386539459228516,8.156646728515625,-1.7940876483917236,-0.0,-0.0,-1.0,0.10462402424401908,2.0,0
48.715606689453125,8.335161209106445,-1.8540356159210205,-0.0,-0.0,-1.0,0.16092346191712983,1.0,0
49.046875,8.689329147338867,-1.900097370147705,-0.0,-0.0,-1.0,0.0854752298419194,1.0,0
49.10125732421875,9.132484436035156,-1.8735945224761963,0.32142930673924053,0.055857895207355145,-0.94528466416849,0.1842469995355434,3.0,0
49.16595458984375,9.521854400634766,-1.8575074672698975,-0.6856389379939477,-0.5274093884699765,-0.501735571451992,0.24712126138479387,3.0,0
49.219051361083984,9.772403717041016,-1.8514628410339355,-0.8451106766815598,-0.2036401012996952,-0.49428600354600977,0.21675541536512066,3.0,0
49.586151123046875,9.926167488098145,-1.9362096786499023,-0.0,-0.0,-1.0,0.07697783860797501,2.0,0
49.669063568115234,10.226150512695312,-1.9378130435943604,-0.0,-0.0,-1.0,0.10318929954260794,1.0,0
50.08561706542969,8.368633270263672,-1.6802456378936768,-0.34406870204118906,0.5237993843219896,-0.7792630706376351,0.1977312562184797,3.0,0
49.22636795043945,9.211307525634766,-1.4345228672027588,-0.0,-0.0,-1.0,0.1351940250132185,1.0,0
49.477516174316406,9.217697143554688,-1.4901223182678223,-0.0,-0.0,-1.0,0.17727032570238277,1.0,0
49.43355941772461,8.247360229492188,-1.835561752319336,0.04744341500527081,0.7487095767087703,-0.661198224526663,0.025890818755470512,3.0,0
49.60901641845703,8.377617835998535,-1.8658416271209717,-0.0,-0.0,-1.0,0.00896130190950547,1.0,0
50.18151092529297,9.138535499572754,-1.9433400630950928,-0.0,-0.0,-1.0,0.028651721083456445,1.0,0
50.20302200317383,9.436885833740234,-1.9254512786865234,-0.0,-0.0,-1.0,0.014285019774707872,1.0,0
49.106529235839844,9.1282958984375,-1.668140172958374,-0.6264375912965676,0.7781149772160609,0.04596766736091315,0.17039545985538865,7.0,0
49.12528610229492,9.424155235290527,-1.6459131240844727,-0.24288651346295875,0.8359215573611618,0.4921801413270321,0.1924947693580777,5.0,0
49.32966613769531,9.512979507446289,-1.6907682418823242,-0.0,-0.0,-1.0,0.15237923913963763,2.0,0
50.055030822753906,8.153656959533691,-1.0496411323547363,0.02038289323101723,0.031578497107912086,-0.999293418463235,0.03982791359759663,4.0,0
49.20827102661133,9.294527053833008,-1.4679508209228516,-0.0,-0.0,-1.0,0.16531039455897117,1.0,0
49.4112434387207,9.393296241760254,-1.5081214904785156,-0.0,-0.0,-1.0,0.09531785626922412,2.0,0
50.09322738647461,8.402198791503906,-1.6610440015792847,-0.0,-0.0,-1.0,0.20822959701257573,2.0,0
49.21982955932617,9.682406425476074,-1.814211130142212,-0.91858660432551,-0.3819088526828244,-0.10170682669426746,0.21656820952891287,3.0,0
47.82710266113281,8.154787063598633,-1.638250708580017,0.29327264545043386,0.7319159293616652,-0.6150530284269429,0.04337149148947202,4.0,0
48.02516555786133,9.206466674804688,-1.9131379127502441,-0.0,-0.0,-1.0,0.06347526045200633,1.0,0
48.303955078125,8.821340560913086,-1.9554095268249512,-0.0,-0.0,-1.0,0.043736835375668665,1.0,0
48.1570930480957,8.58829116821289,-1.9465765953063965,-0.0,-0.0,-1.0,0.03552073558535487,1.0,0
47.889915466308594,8.423089981079102,-1.9225363731384277,-0.0,-0.0,-1.0,0.07208637881291333,1.0,0
48.41436767578125,8.707533836364746,-1.9709768295288086,-0.0,-0.0,-1.0,0.05022023562615455,1.0,0
49.137420654296875,9.755682945251465,-1.5653892755508423,-0.0,-0.0,-1.0,0.12327858456209796,1.0,0
49.14949035644531,9.498719215393066,-1.555496335029602,-0.7700018043423343,-0.23159283675367948,-0.5945266850814462,0.13073942050827814,3.0,0
49.916358947753906,9.153825759887695,-1.7820913791656494,-0.0,-0.0,-1.0,0.060145327793955386,1.0,0
50.07910919189453,8.906671524047852,-1.7769014835357666,-0.0,-0.0,-1.0,0.08265901814748548,1.0,0
48.75285339355469,8.638134002685547,-1.5992631912231445,-0.0,-0.0,-1.0,0.14349017881701923,1.0,0
49.144683837890625,9.360343933105469,-1.7136950492858887,-0.3272239457338708,0.8083276217279497,0.48941898746369955,0.16660416101672681,5.0,0
49.167991638183594,9.624724388122559,-1.7422773838043213,-0.0,-0.0,-1.0,0.13278996739529825,1.0,0
48.074241638183594,10.471084594726562,-1.6872711181640625,-0.0,-0.0,-1.0,0.11411643942132337,1.0,0
49.197174072265625,9.920235633850098,-1.774817705154419,-0.0,-0.0,-1.0,0.24762764285054698,1.0,0
49.08391189575195,9.151407241821289,-1.5247761011123657,-0.0,-0.0,-1.0,0.11774816458209657,2.0,0
49.08160400390625,9.427519798278809,-1.539070963859558,0.5875988852546079,-0.08051682583051771,-0.8051363802522649,0.18155189374373853,4.0,0
49.066497802734375,9.092303276062012,-1.5859380960464478,-0.9333013450428017,-0.06024998616200567,-0.35400358544621446,0.15043142315798616,4.0,0
49.077510833740234,9.30428409576416,-1.5997897386550903,-0.5289226325364407,0.791986050370834,0.30495728358038726,0.1736640492548943,3.0,0
50.165313720703125,8.371329307556152,-1.7344377040863037,-0.0,-0.0,-1.0,0.13164016671318216,1.0,0
49.094512939453125,9.048528671264648,-1.6396484375,-0.0,-0.0,-1.0,0.16984862218269023,2.0,0
49.116424560546875,9.324910163879395,-1.6606240272521973,0.0550237372958957,0.9789881035688016,0.19635346038395524,0.22904929674730257,5.0,0
49.59021759033203,10.386907577514648,-1.7949814796447754,0.7496734084788137,0.6557406685081445,-0.08940892731852476,0.20889719625217754,3.0,0
49.162899017333984,9.24709415435791,-1.4635533094406128,-0.292130327848322,0.815901939589125,0.49896282078521254,0.2086781261433476,5.0,0
49.14143371582031,9.39748764038086,-1.472108244895935,-0.18524671551818603,-0.8976965710441877,0.39978059073100586,0.18019350954095958,4.0,0
48.30744934082031,8.260972023010254,-1.667015790939331,-0.0,-0.0,-1.0,0.18277875448746192,1.0,0
48.61234664916992,8.309548377990723,-1.7140841484069824,-0.0,-0.0,-1.0,0.13114072977125846,1.0,0
48.63720703125,8.54416275024414,-1.7280054092407227,-0.102744266919307,-0.9939067038743155,0.0399134013698189,0.16750807081117075,3.0,0
49.44914627075195,8.401564598083496,-1.8416051864624023,-0.0,-0.0,-1.0,0.031515911954201,1.0,0
49.16645812988281,9.008264541625977,-1.8274109363555908,-0.0,-0.0,-1.0,0.1909282601087366,1.0,0
49.58500671386719,8.82266902923584,-1.8806419372558594,-0.0,-0.0,-1.0,0.08736801648160022,2.0,0
49.102569580078125,9.30903148651123,-1.8324215412139893,-0.0,-0.0,-1.0,0.1982273592341908,2.0,0
49.18126678466797,9.676324844360352,-1.862415075302124,-0.03766455924031811,0.30708762660580186,-0.9509356290321906,0.1967888046274455,3.0,0
49.28551483154297,9.901796340942383,-1.889463186264038,-0.0,-0.0,-1.0,0.23157464605523087,2.0,0
49.49855041503906,10.018953323364258,-1.9271562099456787,-0.0,-0.0,-1.0,0.08363412642052093,2.0,0
49.1923828125,10.519394874572754,-1.9091622829437256,-0.0,-0.0,-1.0,0.04438993971667314,2.0,0
49.4688720703125,10.315910339355469,-1.9387693405151367,-0.0,-0.0,-1.0,0.20676293931055925,1.0,0
48.55760192871094,8.382396697998047,-1.6937414407730103,-0.0,-0.0,-1.0,0.16742059794155736,1.0,0
49.36355972290039,8.255148887634277,-1.8133429288864136,-0.0,-0.0,-1.0,0.0237232605972854,1.0,0
48.59923553466797,8.549003601074219,-1.705206036567688,-0.3515635486810052,-0.6820991876098553,-0.6412049356491218,0.16508743411959642,4.0,0
48.66835403442383,8.714534759521484,-1.7209922075271606,-0.0,-0.0,-1.0,0.13859152328439256,2.0,0
49.09973907470703,9.110960006713867,-1.8003398180007935,-0.16129285809011595,0.9452249770398135,0.2837857584679081,0.1657013981126767,5.0,0
49.49864959716797,9.025355339050293,-1.8585678339004517,-0.0,-0.0,-1.0,0.1454949374453604,2.0,0
49.72539520263672,8.835744857788086,-1.8869725465774536,-0.0,-0.0,-1.0,0.06343240238613657,1.0,0
49.10261917114258,9.391093254089355,-1.8107503652572632,-0.4817153926366803,0.8241672154761526,-0.297823238568072,0.25658641329881365,3.0,0
49.204254150390625,9.811165809631348,-1.8421326875686646,-0.7809606938709199,-0.05411799823340774,-0.6222311764094276,0.21211967005778626,4.0,0
49.42656707763672,9.633142471313477,-1.8694037199020386,-0.0,-0.0,-1.0,0.12943347255475365,1.0,0
49.56846618652344,10.022377967834473,-1.906361699104309,-0.0,-0.0,-1.0,0.07722894236023733,2.0,0
49.851158142089844,10.118057250976562,-1.953640103340149,-0.0,-0.0,-1.0,0.08578025222953863,2.0,0
49.46979904174805,10.487021446228027,-1.9105995893478394,-0.0,-0.0,-1.0,0.18244353575098027,1.0,0
48.40226364135742,8.26141357421875,-1.6663967370986938,-0.0,-0.0,-1.0,0.16530052204517562,1.0,0
48.053977966308594,8.43881893157959,-1.8578299283981323,-0.0,-0.0,-1.0,0.0434737883513071,1.0,0
48.128684997558594,8.196724891662598,-1.8621770143508911,-0.0,-0.0,-1.0,0.0860875311969275,2.0,0
47.9846305847168,8.649365425109863,-1.8535746335983276,-0.0,-0.0,-1.0,0.020317521851978958,1.0,0
47.894432067871094,9.638967514038086,-1.881045937538147,-0.0,-0.0,-1.0,0.0335132169656864,1.0,0
47.91780090332031,9.700727462768555,-1.888222336769104,-0.0,-0.0,-1.0,0.03872963566918519,1.0,0
47.909061431884766,10.039961814880371,-1.9038270711898804,-0.0,-0.0,-1.0,0.023338665728705545,1.0,0
47.95513916015625,9.824644088745117,-1.9010032415390015,-0.0,-0.0,-1.0,0.03909799741871581,1.0,0
47.755401611328125,9.48647403717041,-1.8489545583724976,-0.0,-0.0,-1.0,0.04333043585983312,1.0,0
48.356712341308594,8.18740177154541,-1.8114478588104248,-0.2937642525413813,-0.35955903061409056,-0.8856748090764799,0.1173521688921798,4.0,0
48.50377655029297,8.244495391845703,-1.8403520584106445,-0.0,-0.0,-1.0,0.14824397922108287,2.0,0
48.42643356323242,8.607141494750977,-1.839064359664917,-0.0,-0.0,-1.0,0.07624250043361544,1.0,0
48.103904724121094,9.037939071655273,-1.7964985370635986,0.8006218142605204,0.5744042702699054,-0.17048297517902097,0.08149233634896146,3.0,0
48.35542678833008,8.790365219116211,-1.8329288959503174,-0.0,-0.0,-1.0,0.06691520634234348,1.0,0
48.190433502197266,9.375703811645508,-1.826955795288086,-0.0,-0.0,-1.0,0.0637790057136037,2.0,0
48.27271270751953,9.976393699645996,-1.8704428672790527,-0.0,-0.0,-1.0,0.05827618421130827,1.0,0
48.32091522216797,9.76991081237793,-1.8692493438720703,-0.0,-0.0,-1.0,0.020911321296458858,1.0,0
48.17924499511719,10.217626571655273,-1.8656337261199951,-0.0,-0.0,-1.0,0.09841010375358614,1.0,0
49.181297302246094,9.121987342834473,-1.6053991317749023,-0.0,-0.0,-1.0,0.25181381129914715,2.0,0
49.17926025390625,9.351329803466797,-1.6138386726379395,-0.0,-0.0,-1.0,0.16509062703880628,1.0,0
48.24748992919922,8.55880069732666,-1.8643264770507812,-0.0,-0.0,-1.0,0.04575136757936573,1.0,0
48.34144592285156,8.335029602050781,-1.8780746459960938,-0.0,-0.0,-1.0,0.13490651821404415,1.0,0
47.94696807861328,9.051525115966797,-1.8160581588745117,-0.0,-0.0,-1.0,0.07379198707136132,2.0,0
48.135704040527344,8.832406044006348,-1.8490781784057617,-0.0,-0.0,-1.0,0.03907190010952106,1.0,0
48.07203674316406,9.25367546081543,-1.8507699966430664,-0.0,-0.0,-1.0,0.04915659902305444,1.0,0
48.19465255737305,9.684988021850586,-1.895479679107666,-0.0,-0.0,-1.0,0.026689797991265335,2.0,0
48.09459686279297,10.270685195922852,-1.9025909900665283,-0.0,-0.0,-1.0,0.053708860480291394,1.0,0
48.17559051513672,10.066707611083984,-1.909574031829834,-0.0,-0.0,-1.0,0.05824083936089067,1.0,0
48.003787994384766,10.365402221679688,-1.8881278038024902,-0.0,-0.0,-1.0,0.054175153002459155,2.0,0
50.152099609375,8.399750709533691,-1.6667976379394531,-0.0,-0.0,-1.0,0.13832568349421248,2.0,0
49.11236572265625,9.24557876586914,-1.511033535003662,0.04931861134369703,0.9710224337891858,0.23384419525242722,0.17389120351590692,6.0,0
49.115360260009766,9.437103271484375,-1.5193915367126465,0.5052167748211092,-0.2176036373781808,-0.835107578362897,0.13549435494435857,6.0,0
47.81022262573242,10.586122512817383,-1.8588480949401855,0.6236513496714197,-0.3629067875717008,-0.6923565971285355,0.08316881349863392,3.0,0
50.03844451904297,8.197074890136719,-1.0487022399902344,0.04413674428251309,0.05134453969912648,-0.9977052099930244,0.03982791359759666,4.0,0
49.192909240722656,8.216484069824219,-1.8207186460494995,-0.0,-0.0,-1.0,0.04253165897068214,2.0,0
49.50522232055664,8.786578178405762,-1.895349383354187,-0.0,-0.0,-1.0,0.024973608618343725,1.0,0
49.17096710205078,9.133578300476074,-1.8312689065933228,-0.2897792666515757,0.9459661691012795,0.1455197015346194,0.2148681949631475,3.0,0
49.46192932128906,8.9178466796875,-1.8886357545852661,0.6770439384172184,-0.14965601051053842,-0.720565461266755,0.0342478398407549,3.0,0
49.151695251464844,9.475956916809082,-1.8356436491012573,-0.34450384135762746,0.4600684285013781,-0.8183239849754561,0.22753460024192704,3.0,0
49.322227478027344,9.85023307800293,-1.8831278085708618,0.08905856482733003,-0.3429567863688815,-0.9351198932299677,0.19478372004491978,5.0,0
49.442169189453125,10.366662979125977,-1.927010416984558,-0.0,-0.0,-1.0,0.19453334505320968,1.0,0
49.629093170166016,10.170281410217285,-1.9594529867172241,-0.0,-0.0,-1.0,0.10570436999222518,1.0,0
49.30491638183594,10.606242179870605,-1.9074887037277222,-0.0,-0.0,-1.0,0.0736779757804423,1.0,0
48.473655700683594,8.382628440856934,-1.669840931892395,-0.0,-0.0,-1.0,0.19625151908646507,1.0,0
48.650516510009766,8.389034271240234,-1.7073959112167358,-0.0,-0.0,-1.0,0.15639056734300746,1.0,0
48.630794525146484,8.637129783630371,-1.706619143486023,-0.0,-0.0,-1.0,0.18713356221509936,1.0,0
48.588951110839844,8.337764739990234,-1.851463794708252,-0.3801059894419191,-0.21221927336086419,-0.900267969442747,0.17989178274421064,3.0,0
50.09568405151367,8.199767112731934,-1.6861867904663086,-0.0,-0.0,-1.0,0.21960959267960242,1.0,0
48.68614196777344,8.736268043518066,-1.8842432498931885,-0.0,-0.0,-1.0,0.20963470282875546,1.0,0
48.40210723876953,9.264754295349121,-1.8306314945220947,-0.0,-0.0,-1.0,0.09127256802655166,1.0,0
48.60783767700195,9.044587135314941,-1.873828649520874,-0.0,-0.0,-1.0,0.0237854746925328,1.0,0
48.52494430541992,9.72232437133789,-1.87886381149292,-0.0,-0.0,-1.0,0.03176964271037162,1.0,0
48.62797927856445,9.525660514831543,-1.89603853225708,-0.0,-0.0,-1.0,0.0218673261475858,1.0,0
48.54731750488281,9.950766563415527,-1.8949360847473145,-0.0,-0.0,-1.0,0.04638457770262517,1.0,0
48.046478271484375,10.629633903503418,-1.808683156967163,-0.0,-0.0,-1.0,0.07524612493628556,1.0,0
48.443580627441406,10.351250648498535,-1.8900213241577148,-0.0,-0.0,-1.0,0.051521848357376825,2.0,0
48.334739685058594,10.613804817199707,-1.878307580947876,-0.0,-0.0,-1.0,0.06584464310581407,1.0,0
49.1375846862793,9.160783767700195,-1.512636423110962,-0.0,-0.0,-1.0,0.12927763101714904,2.0,0
49.134490966796875,9.351211547851562,-1.518723726272583,-0.5532942881497915,-0.6854087379289273,-0.4733711996641644,0.19553090152391844,3.0,0
48.08040237426758,8.487493515014648,-1.8794482946395874,-0.0,-0.0,-1.0,0.03160412774856649,1.0,0
47.93732833862305,9.032238960266113,-1.8320130109786987,-0.0,-0.0,-1.0,0.07379198707136136,2.0,0
47.99762725830078,8.77322006225586,-1.8514772653579712,-0.0,-0.0,-1.0,0.030977206125274635,2.0,0
49.796539306640625,8.209907531738281,-1.8625489473342896,-0.0,-0.0,-1.0,0.07802561127347751,1.0,0
49.9669189453125,8.397292137145996,-1.899126410484314,-0.0,-0.0,-1.0,0.10487781388718127,1.0,0
48.043182373046875,9.370828628540039,-1.859535813331604,-0.0,-0.0,-1.0,0.06374067712082575,1.0,0
49.1030387878418,9.11054801940918,-1.6858514547348022,-0.9877230434412841,0.09311735374002911,-0.1254286565643651,0.10930370021609466,7.0,0
49.92223358154297,8.657363891601562,-1.884572148323059,-0.0,-0.0,-1.0,0.04967023174977745,1.0,0
49.991336822509766,8.442703247070312,-1.9041146039962769,-0.0,-0.0,-1.0,0.0803690902285536,1.0,0
48.22162628173828,9.756630897521973,-1.910007357597351,-0.0,-0.0,-1.0,0.02683686895579772,1.0,0
49.1197509765625,9.336264610290527,-1.6890586614608765,-0.24912379020725964,0.9156649652185733,0.315428293949731,0.23395105019212845,6.0,0
50.01480484008789,8.909074783325195,-1.903598666191101,-0.0,-0.0,-1.0,0.039805027386972246,1.0,0
48.093257904052734,10.356598854064941,-1.8838392496109009,-0.0,-0.0,-1.0,0.04372854723421469,1.0,0
48.18009948730469,10.140106201171875,-1.9034560918807983,-0.0,-0.0,-1.0,0.08926169251868539,2.0,0
50.12950134277344,9.613412857055664,-1.9287136793136597,-0.0,-0.0,-1.0,0.02636571512556015,1.0,0
49.645355224609375,10.333852767944336,-1.8208216428756714,-0.0,-0.0,-1.0,0.19148566563048228,2.0,0
49.0513916015625,8.558279991149902,-1.8852932453155518,-0.0,-0.0,-1.0,0.07936870697840832,2.0,0
49.103431701660156,9.020341873168945,-1.895961046218872,-0.0,-0.0,-1.0,0.20594901720979789,2.0,0
49.11717987060547,8.78857707977295,-1.9006292819976807,-0.0,-0.0,-1.0,0.1016461289890673,2.0,0
49.111324310302734,9.334957122802734,-1.8988251686096191,-0.0,-0.0,-1.0,0.18716614484839217,1.0,0
49.26768112182617,9.894915580749512,-1.9464404582977295,-0.0,-0.0,-1.0,0.16866669712187854,1.0,0
49.24769592285156,9.701212882995605,-1.9382281303405762,-0.0,-0.0,-1.0,0.2073707299366514,2.0,0
49.08327865600586,10.452012062072754,-1.9113476276397705,-0.0,-0.0,-1.0,0.03197786217699206,2.0,0
49.21084213256836,10.144769668579102,-1.9367399215698242,-0.0,-0.0,-1.0,0.058166821290248756,1.0,0
49.057838439941406,10.604613304138184,-1.909517526626587,-0.0,-0.0,-1.0,0.034107389023571195,1.0,0
48.45887756347656,8.221595764160156,-1.7342970371246338,-0.0,-0.0,-1.0,0.18445578995058384,1.0,0
48.664031982421875,8.151946067810059,-1.7899036407470703,-0.0,-0.0,-1.0,0.1702604162738524,1.0,0
48.93266677856445,8.424908638000488,-1.8557860851287842,-0.0,-0.0,-1.0,0.11762611848684132,1.0,0
50.04897689819336,8.358451843261719,-1.6709115505218506,0.15360489493185417,-0.908680819944936,-0.3882070371814153,0.2082295970125759,3.0,0
49.142547607421875,9.261634826660156,-1.4602160453796387,-0.6339614210970154,-0.35554114787738367,-0.6867921146363614,0.209502305802443,6.0,0
48.76506042480469,8.283674240112305,-1.8466925621032715,-0.0,-0.0,-1.0,0.1729180406203705,1.0,0
48.99401092529297,8.661958694458008,-1.9065666198730469,-0.0,-0.0,-1.0,0.07885695165082614,2.0,0
49.03339385986328,9.127023696899414,-1.9182488918304443,0.07406500301958475,0.9831837868533239,0.16692518263121953,0.0859998298026098,3.0,0
49.072235107421875,10.006099700927734,-1.9437339305877686,-0.0,-0.0,-1.0,0.12030619030088523,1.0,0
49.11103057861328,9.723722457885742,-1.947852611541748,-0.0,-0.0,-1.0,0.2008092053138103,2.0,0
49.11073684692383,9.416244506835938,-1.942237377166748,-0.0,-0.0,-1.0,0.10681467460448693,2.0,0
48.837913513183594,10.564823150634766,-1.8991029262542725,-0.0,-0.0,-1.0,0.026332914510236085,1.0,0
49.03981018066406,10.208065032958984,-1.9409735202789307,-0.0,-0.0,-1.0,0.022378162258386285,1.0,0
49.12801742553711,9.228520393371582,-1.5093252658843994,-0.7547059074759658,-0.6506815763245773,-0.08385987987495434,0.16287023548954477,4.0,0
49.39708709716797,9.03313159942627,-1.5720465183258057,-0.0,-0.0,-1.0,0.16377095225794772,1.0,0
49.1187858581543,9.410001754760742,-1.5087237358093262,0.8275472909591958,-0.11194036134686833,-0.5501225651867306,0.19467345283247153,3.0,0
49.665897369384766,8.761383056640625,-1.8973478078842163,-0.0,-0.0,-1.0,0.03217059407645033,1.0,0
49.62257766723633,8.583937644958496,-1.8841789960861206,-0.0,-0.0,-1.0,0.03287699839094718,2.0,0
49.77880859375,8.993460655212402,-1.930282473564148,-0.0,-0.0,-1.0,0.06638642505588424,1.0,0
48.78871536254883,8.429800033569336,-1.6630522012710571,-0.0,-0.0,-1.0,0.11327284191070659,1.0,0
49.20517349243164,9.110565185546875,-1.7813774347305298,-0.0,-0.0,-1.0,0.2416608534402476,2.0,0
49.44477081298828,8.246236801147461,-1.8360294103622437,0.04744341500527081,0.7487095767087703,-0.661198224526663,0.02937669816248575,3.0,0
49.19753646850586,9.19096565246582,-1.781058430671692,-0.0,-0.0,-1.0,0.183642292928566,1.0,0
49.6014518737793,8.62258529663086,-1.8789089918136597,-0.0,-0.0,-1.0,0.03416180934085952,2.0,0
49.57518768310547,8.456965446472168,-1.8709107637405396,-0.0,-0.0,-1.0,0.028820904644429664,1.0,0
47.77346420288086,8.476268768310547,-1.892130732536316,-0.0,-0.0,-1.0,0.06448217921348064,1.0,0
47.781742095947266,8.34239673614502,-1.8815821409225464,-0.0,-0.0,-1.0,0.07073853401223477,1.0,0
47.87065887451172,8.264280319213867,-1.9003411531448364,-0.0,-0.0,-1.0,0.060198656196622645,1.0,0
47.84027099609375,8.933614730834961,-1.8280143737792969,-0.0,-0.0,-1.0,0.050589907015391185,1.0,0
48.0810661315918,8.802974700927734,-1.8482518196105957,-0.0,-0.0,-1.0,0.03412934565064875,1.0,0
49.52119064331055,10.291427612304688,-1.8254196643829346,-0.0,-0.0,-1.0,0.15433949265386293,2.0,0
49.61914825439453,10.211542129516602,-1.8288605213165283,-0.0,-0.0,-1.0,0.12955240809058838,1.0,0
47.75182342529297,8.2159423828125,-1.688297986984253,-0.0,-0.0,-1.0,0.055659122088745086,1.0,0
48.93454360961914,9.48256778717041,-1.5738062858581543,-0.0,-0.0,-1.0,0.20982893810772876,1.0,0
48.994056701660156,9.187217712402344,-1.5483534336090088,-0.0,-0.0,-1.0,0.14546829756871646,1.0,0
49.92453384399414,8.140484809875488,-1.5502941608428955,-0.0,-0.0,-1.0,0.19545517534455567,1.0,0
47.760982513427734,9.931350708007812,-2.017517328262329,-0.0,-0.0,-1.0,0.023514461842163017,1.0,0
47.814781188964844,9.649568557739258,-1.9932806491851807,-0.0,-0.0,-1.0,0.030383496719027406,1.0,0
47.753387451171875,9.700851440429688,-1.99287748336792,-0.0,-0.0,-1.0,0.033743108798514526,1.0,0
47.73037338256836,9.349563598632812,-1.9545443058013916,-0.0,-0.0,-1.0,0.06800743406114387,1.0,0
47.88466262817383,8.99380111694336,-1.932875394821167,-0.0,-0.0,-1.0,0.07136169421999378,1.0,0
47.77425003051758,9.177797317504883,-1.9410877227783203,-0.0,-0.0,-1.0,0.07075985381860946,1.0,0
47.916988372802734,8.572126388549805,-1.8936119079589844,-0.0,-0.0,-1.0,0.02112095892750852,1.0,0
48.15895080566406,8.173828125,-1.8777484893798828,-0.0,-0.0,-1.0,0.10433551387524599,2.0,0
49.71078872680664,9.93931770324707,-1.8277074098587036,-0.0,-0.0,-1.0,0.07619584423636286,1.0,0
49.475669860839844,10.013647079467773,-1.819428563117981,-0.0,-0.0,-1.0,0.0647342049736861,1.0,0
49.20635986328125,10.051736831665039,-1.8050748109817505,-0.0,-0.0,-1.0,0.09842002745390172,2.0,0
48.700138092041016,10.318849563598633,-1.800500512123108,-0.0,-0.0,-1.0,0.04284725948555017,2.0,0
48.7440185546875,10.535566329956055,-1.827752709388733,-0.0,-0.0,-1.0,0.030864157620532757,1.0,0
48.7307014465332,10.082178115844727,-1.7761400938034058,-0.0,-0.0,-1.0,0.1018998412129742,1.0,0
49.8671760559082,8.335121154785156,-1.6691807508468628,-0.0,-0.0,-1.0,0.12379818437891438,1.0,0
49.746002197265625,8.604467391967773,-1.6881688833236694,-0.0,-0.0,-1.0,0.11088502732788581,1.0,0
49.73267364501953,9.925010681152344,-1.9753319025039673,-0.0,-0.0,-1.0,0.0761958442363629,1.0,0
49.563255310058594,10.276970863342285,-1.9972695112228394,-0.0,-0.0,-1.0,0.19954796099049157,1.0,0
49.273441314697266,10.435940742492676,-1.9892646074295044,-0.0,-0.0,-1.0,0.04301692720105104,1.0,0
50.126670837402344,8.813122749328613,-1.8995033502578735,-0.0,-0.0,-1.0,0.03995569108683532,1.0,0
49.955665588378906,8.950167655944824,-1.8972009420394897,-0.0,-0.0,-1.0,0.09280445933479418,1.0,0
49.261573791503906,9.685066223144531,-1.9093397855758667,0.580850608034545,-0.5591573481230127,-0.5915704786295032,0.18033373073636177,3.0,0
49.33424377441406,9.843171119689941,-1.9320720434188843,-0.08961299990935415,0.9743011293420913,-0.20665628374180028,0.15618044485897403,3.0,0
49.059288024902344,10.341458320617676,-1.9610449075698853,-0.0,-0.0,-1.0,0.031299918797396235,1.0,0
48.6511116027832,10.481038093566895,-1.9418140649795532,-0.0,-0.0,-1.0,0.03273662278079013,1.0,0
49.45704650878906,9.009769439697266,-1.8579610586166382,-0.0,-0.0,-1.0,0.11149056946262825,2.0,0
49.16033935546875,9.304323196411133,-1.8613075017929077,-0.0,-0.0,-1.0,0.17115936465748086,1.0,0
48.49486541748047,10.56848430633545,-1.9384087324142456,-0.0,-0.0,-1.0,0.0495889210170116,1.0,0
48.148681640625,10.578208923339844,-1.911134123802185,-0.0,-0.0,-1.0,0.07984023462699281,1.0,0
49.21698760986328,8.995992660522461,-1.8350549936294556,-0.0,-0.0,-1.0,0.2453858605529881,1.0,0
49.337947845458984,9.234146118164062,-1.4707446098327637,-0.0,-0.0,-1.0,0.11500523410290996,1.0,0
49.07275390625,9.327533721923828,-1.4609181880950928,-0.0,-0.0,-1.0,0.09603738223710158,2.0,0
49.05976104736328,9.56572151184082,-1.4827978610992432,-0.0,-0.0,-1.0,0.1719470388896567,1.0,0
49.32599639892578,9.03723430633545,-1.656531810760498,-0.0,-0.0,-1.0,0.1671378513883297,1.0,0
49.027183532714844,9.36627197265625,-1.6526939868927002,-0.364709377859812,0.8450301406001949,0.39103852902025393,0.13288642717663482,3.0,0
49.04322814941406,9.083840370178223,-1.633476972579956,-0.9051045064373917,-0.40598897912031445,-0.12632806995901671,0.13639999055223087,4.0,0
50.09124755859375,8.14791488647461,-1.3250521421432495,-0.0,-0.0,-1.0,0.03982791359759663,1.0,0
50.01262664794922,8.358983993530273,-1.7597272396087646,-0.0,-0.0,-1.0,0.15163714890778382,1.0,0
50.021339416503906,8.729493141174316,-1.7838819026947021,-0.0,-0.0,-1.0,0.05996411755426198,2.0,0
50.12001419067383,8.863415718078613,-1.802971363067627,-0.0,-0.0,-1.0,0.07761624079170623,2.0,0
49.692909240722656,10.270947456359863,-1.8546416759490967,-0.0,-0.0,-1.0,0.12027128341153448,2.0,0
49.43750762939453,9.030513763427734,-1.7415425777435303,-0.0,-0.0,-1.0,0.1960718104597096,1.0,0
49.574462890625,10.308597564697266,-1.845238208770752,0.6166101113472454,0.31934990442174027,-0.7195884998595815,0.18940403207732046,6.0,0
49.11859893798828,8.975621223449707,-1.704263687133789,-0.0,-0.0,-1.0,0.2109940273245847,2.0,0
49.1117057800293,9.293274879455566,-1.7251992225646973,-0.6555753154805452,0.7001367148758217,-0.2828950091738559,0.1568194780788744,4.0,0
49.37390899658203,8.758278846740723,-1.8803876638412476,-0.0,-0.0,-1.0,0.03709446132566006,1.0,0
49.212440490722656,8.87462329864502,-1.8734036684036255,-0.0,-0.0,-1.0,0.14173681351592288,1.0,0
49.042510986328125,9.119382858276367,-1.877289891242981,-0.3271482288868339,0.9080208437664963,0.2616719007111536,0.16055838049543433,4.0,0
48.841041564941406,8.214427947998047,-1.7759164571762085,-0.0,-0.0,-1.0,0.1631983433358745,1.0,0
48.43146514892578,9.697893142700195,-1.8668771982192993,-0.0,-0.0,-1.0,0.032373232489564856,1.0,0
48.39677429199219,9.944710731506348,-1.8870607614517212,-0.0,-0.0,-1.0,0.05257932275325702,1.0,0
48.223114013671875,9.384533882141113,-1.8154710531234741,0.2989360582091678,-0.9463035369946329,-0.1230725354163659,0.06603673095976537,3.0,0
48.02470397949219,10.258916854858398,-1.8797355890274048,-0.0,-0.0,-1.0,0.03633987278461913,1.0,0
48.159149169921875,9.01795768737793,-1.7745932340621948,-0.0,-0.0,-1.0,0.05901254786057771,1.0,0
50.08878707885742,8.162168502807617,-1.0487569570541382,0.017993419291206122,0.032447235527419245,-0.9993114698475342,0.03982791359759663,3.0,0
50.15668487548828,8.820959091186523,-1.8087266683578491,-0.0,-0.0,-1.0,0.056204511604547855,2.0,0
49.953155517578125,8.933591842651367,-1.7943280935287476,-0.0,-0.0,-1.0,0.0928044593347942,1.0,0
49.54602813720703,10.400938987731934,-1.8588234186172485,0.20615426143835905,0.9437067334572211,-0.2586851787758742,0.20844658447498812,6.0,0
49.125160217285156,9.351616859436035,-1.734793782234192,-0.9663012911639293,0.11225904591108407,0.23164568052535855,0.1780660203244857,5.0,0
49.135196685791016,9.01228141784668,-1.7114289999008179,-0.19383552413219793,0.5138835528920127,0.8356742688700414,0.26243942871217424,4.0,0
49.106903076171875,9.175750732421875,-1.7200924158096313,0.06918067406585418,-0.40387623665469863,-0.9121940691549317,0.13582641865473744,6.0,0
49.15327453613281,9.148988723754883,-1.4808387756347656,-0.5655159982235838,0.7156229986381589,0.4099699739899415,0.0944356052178073,4.0,0
49.176353454589844,9.405497550964355,-1.5002129077911377,-0.0,-0.0,-1.0,0.17471652852377542,2.0,0
49.57649230957031,8.68179702758789,-1.8681776523590088,-0.0,-0.0,-1.0,0.03434142915260802,1.0,0
49.482276916503906,8.912837982177734,-1.8684768676757812,-0.0,-0.0,-1.0,0.08691464906346556,2.0,0
49.301116943359375,9.847381591796875,-1.8978564739227295,-0.7822947457513251,-0.5260167066308242,-0.3336485502967622,0.21926907977921026,5.0,0
49.39707565307617,10.213428497314453,-1.9310007095336914,-0.0,-0.0,-1.0,0.07186846785009199,1.0,0
49.29435729980469,8.206415176391602,-1.8102967739105225,-0.0,-0.0,-1.0,0.03084804915596755,1.0,0
49.26880645751953,8.987342834472656,-1.8463821411132812,-0.0,-0.0,-1.0,0.17968059243148835,1.0,0
49.191993713378906,9.644706726074219,-1.8730504512786865,-0.03766455924031811,0.30708762660580186,-0.9509356290321906,0.23623270036406138,3.0,0
49.083492279052734,10.295158386230469,-1.8984229564666748,-0.0,-0.0,-1.0,0.04232660053799349,1.0,0
48.88751220703125,10.448770523071289,-1.884545087814331,-0.0,-0.0,-1.0,0.026270311730947234,2.0,0
48.58943176269531,10.574832916259766,-1.8570330142974854,-0.0,-0.0,-1.0,0.028157660160936057,1.0,0
48.302276611328125,9.279289245605469,-1.7448890209197998,0.1646012771125118,-0.7662484945503998,-0.621103585702237,0.09594792519024513,4.0,0
47.84036636352539,8.1430082321167,-1.6287710666656494,0.583729981333522,0.003865676067417798,-0.8119386463526097,0.04337149148947197,3.0,0
50.05980682373047,8.199779510498047,-1.0480575561523438,0.0278155370953214,0.05220319129811203,-0.9982490284064349,0.03982791359759663,5.0,0
47.73540496826172,9.818957328796387,-1.8493354320526123,-0.0,-0.0,-1.0,0.030711517260771544,1.0,0
47.78688049316406,10.228958129882812,-1.8479514122009277,-0.0,-0.0,-1.0,0.024210894505277906,2.0,0
47.724910736083984,10.62936019897461,-1.8313066959381104,-0.0,-0.0,-1.0,0.07369191632704622,1.0,0
48.27967834472656,8.392297744750977,-1.8972572088241577,-0.0,-0.0,-1.0,0.03235292642117045,1.0,0
48.162353515625,8.651179313659668,-1.8956471681594849,-0.0,-0.0,-1.0,0.03935832996116094,1.0,0
47.8961181640625,9.981030464172363,-1.9423609972000122,-0.0,-0.0,-1.0,0.02809759649978167,1.0,0
47.82695770263672,10.203123092651367,-1.948388695716858,-0.0,-0.0,-1.0,0.03406450785118914,1.0,0
47.962158203125,8.774548530578613,-1.8757778406143188,-0.0,-0.0,-1.0,0.03135938802256726,2.0,0
47.713783264160156,9.513345718383789,-1.8874098062515259,-0.0,-0.0,-1.0,0.043420135754620295,1.0,0
50.144020080566406,10.377168655395508,-2.010244369506836,-0.0,-0.0,-1.0,0.0638949080006979,1.0,0
49.979549407958984,8.507059097290039,-1.8603659868240356,-0.0,-0.0,-1.0,0.11555690479497595,1.0,0
50.002925872802734,8.829818725585938,-1.8848868608474731,-0.0,-0.0,-1.0,0.030159797613822533,1.0,0
49.48133850097656,10.530075073242188,-1.9405125379562378,-0.0,-0.0,-1.0,0.1558441629068297,1.0,0
49.13827133178711,9.251649856567383,-1.806775689125061,-0.3245905206962064,0.7576724174745886,-0.5661921066849822,0.1836767359170097,3.0,0
49.135440826416016,9.715362548828125,-1.8388196229934692,-0.0,-0.0,-1.0,0.23065465417192854,2.0,0
49.089202880859375,9.18436050415039,-1.5341981649398804,-0.9400089700273566,0.1600697833741773,-0.3012653327527947,0.12201453137036657,4.0,0
50.064849853515625,8.427186965942383,-1.7487010955810547,-0.0,-0.0,-1.0,0.16309508609413392,2.0,0
50.17457962036133,8.816471099853516,-1.7814981937408447,-0.0,-0.0,-1.0,0.052725116365673154,2.0,0
49.58132553100586,10.396856307983398,-1.7965736389160156,0.7496734084788137,0.6557406685081445,-0.08940892731852476,0.2023311814165539,3.0,0
49.05146789550781,9.024188041687012,-1.6561572551727295,-0.0,-0.0,-1.0,0.11083541053296979,2.0,0
49.06455993652344,9.276947975158691,-1.6711218357086182,-0.0,-0.0,-1.0,0.12683753833786515,2.0,0
49.91868209838867,8.37745475769043,-1.772963285446167,-0.0,-0.0,-1.0,0.1655767388549826,1.0,0
50.029510498046875,8.712331771850586,-1.7873494625091553,-0.0,-0.0,-1.0,0.05996411755426205,2.0,0
49.089691162109375,9.138994216918945,-1.6743524074554443,-0.618890865571681,-0.7531197917914494,-0.223124798540949,0.12060519355262361,6.0,0
49.08648681640625,9.420767784118652,-1.6760141849517822,-0.8171658684129913,0.4932750724074931,0.2981939745236715,0.18558566406426588,6.0,0
49.126983642578125,9.156984329223633,-1.575460433959961,-0.0,-0.0,-1.0,0.1761306463634301,2.0,0
49.5016975402832,10.015896797180176,-1.902488112449646,-0.0,-0.0,-1.0,0.07480476825756464,2.0,0
49.31195068359375,10.439722061157227,-1.8682361841201782,-0.0,-0.0,-1.0,0.09414831753537184,1.0,0
49.229042053222656,9.708808898925781,-1.8776761293411255,-0.0,-0.0,-1.0,0.21160348557024544,2.0,0
49.29751205444336,9.938901901245117,-1.8795820474624634,-0.8938458262198724,0.36013319565189306,-0.2671024528881548,0.1991700958761203,3.0,0
49.182106018066406,10.2803373336792,-1.856258749961853,-0.0,-0.0,-1.0,0.04417499654897066,1.0,0
49.10024642944336,9.46322250366211,-1.8693305253982544,-0.8586841986202639,0.49637825342298914,0.12755421031317932,0.23874752183033604,3.0,0
48.27024459838867,9.150686264038086,-1.7781916856765747,-0.0,-0.0,-1.0,0.0717126611258711,1.0,0
48.21685028076172,9.285558700561523,-1.7671972513198853,-0.0,-0.0,-1.0,0.08750481331630812,2.0,0
48.2667121887207,8.167274475097656,-1.8139210939407349,-0.0,-0.0,-1.0,0.12290638446212815,2.0,0
48.304954528808594,8.457489013671875,-1.8072596788406372,-0.0,-0.0,-1.0,0.07430886807152334,2.0,0
48.10765075683594,8.970296859741211,-1.7646480798721313,-0.0,-0.0,-1.0,0.0454842389369088,1.0,0
49.57632064819336,10.353799819946289,-1.8342970609664917,0.7143456731625893,0.09148881224575835,-0.6937867514357331,0.24194063123999734,9.0,0
49.504554748535156,10.453048706054688,-1.8242486715316772,0.5695979998574486,0.5076782568157899,-0.6463906760735918,0.11936653197151659,3.0,0
49.21249008178711,9.8761568069458,-1.801249384880066,-0.0,-0.0,-1.0,0.17593885430683726,1.0,0
49.601200103759766,8.732428550720215,-1.8731549978256226,-0.0,-0.0,-1.0,0.035235050081958055,1.0,0
49.31678009033203,8.938741683959961,-1.8351658582687378,-0.0,-0.0,-1.0,0.1363257124989538,1.0,0
49.056644439697266,9.40948486328125,-1.793655276298523,-0.26801154728966253,0.563769496631943,0.7812386096364966,0.21523322219833285,3.0,0
47.826786041259766,10.588465690612793,-1.7606089115142822,-0.0,-0.0,-1.0,0.08316881349863392,1.0,0
47.78894805908203,10.414359092712402,-1.7633144855499268,-0.0,-0.0,-1.0,0.06364410225082871,1.0,0
48.27085494995117,9.320269584655762,-1.8396902084350586,0.1757126047902614,-0.14690923231938144,-0.973418079746391,0.09507006873153982,3.0,0
48.19044876098633,9.087985038757324,-1.8406758308410645,-0.0,-0.0,-1.0,0.07959976983026068,2.0,0
48.463985443115234,8.227352142333984,-1.8476202487945557,-0.0,-0.0,-1.0,0.14206401141103317,2.0,0
48.07499694824219,9.074111938476562,-1.8103787899017334,-0.0,-0.0,-1.0,0.09191242433609517,2.0,0
48.58403396606445,8.444519996643066,-1.8582024574279785,-0.0,-0.0,-1.0,0.2093210161121346,2.0,0
48.278953552246094,9.400739669799805,-1.8288896083831787,-0.0,-0.0,-1.0,0.0749703166254498,2.0,0
48.99615478515625,8.693939208984375,-1.8956844806671143,-0.0,-0.0,-1.0,0.10754413506380683,2.0,0
49.028873443603516,9.123958587646484,-1.8981897830963135,-0.3271482288868339,0.9080208437664963,0.2616719007111536,0.12799156048764998,4.0,0
49.21961975097656,9.833168983459473,-1.915555477142334,-0.0,-0.0,-1.0,0.2123871332262234,2.0,0
49.14407730102539,9.595710754394531,-1.908583402633667,-0.0,-0.0,-1.0,0.13568412900178145,1.0,0
49.12095642089844,9.28310775756836,-1.4498964548110962,-0.9955740927889769,0.01885330234383848,-0.09206942357882579,0.22128442789323005,5.0,0
49.14579772949219,9.505910873413086,-1.458670973777771,-0.0,-0.0,-1.0,0.14530290416118535,1.0,0
50.10713195800781,8.230417251586914,-1.0659544467926025,-0.0,-0.0,-1.0,0.03982791359759665,1.0,0
48.36600875854492,9.329545974731445,-1.755876064300537,0.6831333088838458,-0.7212244600190868,-0.11473517579009995,0.09275323816677002,4.0,0
49.506385803222656,8.423980712890625,-1.854334831237793,-0.0,-0.0,-1.0,0.03425354361400283,1.0,0
49.119239807128906,9.222280502319336,-1.8351669311523438,-0.882308377611597,0.13621581934169932,0.45052988508806013,0.19055994439417367,3.0,0
49.13453674316406,9.122820854187012,-1.8338842391967773,-0.47545505426433465,0.8762961672979096,0.07776579295225385,0.19794493725677034,5.0,0
49.581729888916016,8.817303657531738,-1.8738975524902344,-0.0,-0.0,-1.0,0.0880580756154054,2.0,0
49.694602966308594,8.569396018981934,-1.8790943622589111,-0.0,-0.0,-1.0,0.04041225314085255,1.0,0
49.1566162109375,9.525322914123535,-1.8483922481536865,-0.6856389379939477,-0.5274093884699765,-0.501735571451992,0.23557052853905178,3.0,0
49.71857452392578,8.915990829467773,-1.89176607131958,-0.0,-0.0,-1.0,0.0762333415415505,1.0,0
49.228782653808594,9.821125984191895,-1.8653674125671387,-0.330937441853734,0.8119631180390148,-0.4808287684027101,0.21270167859834188,4.0,0
49.5404167175293,10.433552742004395,-1.9187774658203125,-0.0,-0.0,-1.0,0.18896332523930637,2.0,0
49.590126037597656,10.183107376098633,-1.9162731170654297,-0.0,-0.0,-1.0,0.12256416540006598,1.0,0
49.49755096435547,10.583145141601562,-1.918900489807129,-0.0,-0.0,-1.0,0.15774952854729402,1.0,0
50.06346130371094,10.19490909576416,-1.9684638977050781,-0.0,-0.0,-1.0,0.050454232897127714,1.0,0
47.757102966308594,8.169002532958984,-1.6289771795272827,-0.0,-0.0,-1.0,0.05576273102050015,1.0,0
48.5093879699707,8.524633407592773,-1.7241755723953247,-0.0,-0.0,-1.0,0.1733884046741485,1.0,0
49.00119400024414,9.381874084472656,-1.806937575340271,-0.0,-0.0,-1.0,0.1410933053537482,1.0,0
49.125221252441406,9.192858695983887,-1.814557433128357,-0.37154020292460854,0.6754251679432476,0.6369919309689693,0.16692761648403298,4.0,0
49.690433502197266,8.719701766967773,-1.8624287843704224,-0.0,-0.0,-1.0,0.08537030098205751,1.0,0
49.000972747802734,9.571670532226562,-1.8132599592208862,-0.0,-0.0,-1.0,0.17227589308658814,1.0,0
49.74003601074219,9.007733345031738,-1.8772541284561157,-0.0,-0.0,-1.0,0.07976726492596972,1.0,0
49.18944549560547,9.915337562561035,-1.845988392829895,-0.0,-0.0,-1.0,0.16930278012455852,1.0,0
49.64527130126953,10.329082489013672,-1.9112530946731567,-0.0,-0.0,-1.0,0.165974659910929,2.0,0
50.05097198486328,10.358291625976562,-1.9575811624526978,-0.0,-0.0,-1.0,0.07841877646088243,1.0,0
50.08110809326172,8.144694328308105,-0.8897613286972046,-0.0,-0.0,-1.0,0.03982791359759663,1.0,0
50.130741119384766,8.37568187713623,-1.6404815912246704,-0.0,-0.0,-1.0,0.19762545725996064,2.0,0
50.056800842285156,8.283403396606445,-1.6326674222946167,-0.0,-0.0,-1.0,0.22460621209091736,1.0,0
49.10151672363281,9.691134452819824,-1.5352669954299927,-0.0,-0.0,-1.0,0.10555061743122653,1.0,0
49.096221923828125,9.462347030639648,-1.533722996711731,0.5386579302973433,-0.18861772864527968,-0.8211400529559362,0.14833318375749285,6.0,0
49.44395446777344,8.947195053100586,-1.9116203784942627,-0.0,-0.0,-1.0,0.05225505936442203,2.0,0
49.431514739990234,8.85466194152832,-1.9108383655548096,-0.0,-0.0,-1.0,0.04232835277392835,1.0,0
49.313621520996094,9.850040435791016,-1.8907434940338135,-0.7822947457513251,-0.5260167066308242,-0.3336485502967622,0.2158621892621068,5.0,0
49.59000778198242,9.23598575592041,-1.9273529052734375,-0.0,-0.0,-1.0,0.05477020071160038,1.0,0
47.81752014160156,8.250489234924316,-1.719754934310913,-0.0,-0.0,-1.0,0.05842448018686394,1.0,0
48.23312759399414,8.41313362121582,-1.7687747478485107,-0.0,-0.0,-1.0,0.07487134167576948,1.0,0
48.416893005371094,9.47268295288086,-1.783432960510254,-0.0,-0.0,-1.0,0.049129585615880635,1.0,0
49.082603454589844,9.686100006103516,-1.8633313179016113,-0.0,-0.0,-1.0,0.20151280802702193,1.0,0
49.066707611083984,9.365490913391113,-1.8629567623138428,-0.0,-0.0,-1.0,0.20158867802940938,2.0,0
49.286949157714844,9.070378303527832,-1.891603946685791,-0.0,-0.0,-1.0,0.11325646892553061,1.0,0
49.31218719482422,8.749414443969727,-1.8971834182739258,-0.0,-0.0,-1.0,0.09173765646577767,1.0,0
49.135284423828125,9.919790267944336,-1.8688883781433105,-0.0,-0.0,-1.0,0.15649390549211475,2.0,0
47.73918151855469,9.19078254699707,-1.6878337860107422,-0.0,-0.0,-1.0,0.06990972192026791,1.0,0
48.80735778808594,9.731191635131836,-1.5114569664001465,-0.0,-0.0,-1.0,0.11384946765162915,1.0,0
48.874664306640625,9.425882339477539,-1.4945058822631836,-0.0,-0.0,-1.0,0.16618442539767414,1.0,0
49.08698272705078,9.229230880737305,-1.477386474609375,-0.7297443153998213,0.6457181902227163,0.22476933277728553,0.13232000092691212,4.0,0
49.09587478637695,9.363037109375,-1.4907102584838867,-0.0,-0.0,-1.0,0.10843472206507408,2.0,0
50.024620056152344,8.26181411743164,-1.2944490909576416,-0.0,-0.0,-1.0,0.043123256360954695,1.0,0
49.054595947265625,9.297998428344727,-1.3543386459350586,-0.0,-0.0,-1.0,0.12849535816189378,1.0,0
48.99528503417969,9.620725631713867,-1.3863780498504639,-0.0,-0.0,-1.0,0.17112323186302428,1.0,0
48.98896789550781,9.079385757446289,-1.5273923873901367,-0.0,-0.0,-1.0,0.15856497317222995,1.0,0
49.02269744873047,9.327312469482422,-1.5577116012573242,-0.0,-0.0,-1.0,0.09479454652081266,2.0,0
49.0185546875,9.523754119873047,-1.5799555778503418,-0.0,-0.0,-1.0,0.20772917343923483,1.0,0
49.12013244628906,9.099109649658203,-1.6183624267578125,0.01598585393089586,0.6927917024943214,0.7209605463748485,0.21850876189533538,3.0,0
49.53239440917969,10.449020385742188,-1.8028802871704102,0.5695979998574486,0.5076782568157899,-0.6463906760735918,0.14471917962971792,3.0,0
48.37818908691406,10.19088363647461,-1.9116270542144775,-0.0,-0.0,-1.0,0.07767968691574346,1.0,0
48.00792694091797,10.314529418945312,-1.9029161930084229,-0.0,-0.0,-1.0,0.04618938911863237,1.0,0
49.267478942871094,9.25143051147461,-1.4184010028839111,-0.0,-0.0,-1.0,0.10209319546802068,1.0,0
49.57988739013672,9.081731796264648,-1.484891414642334,-0.0,-0.0,-1.0,0.1456034611344161,1.0,0
49.23622131347656,9.36219596862793,-1.5073366165161133,-0.0,-0.0,-1.0,0.12210929616828098,1.0,0
49.29193115234375,9.081315994262695,-1.4761085510253906,-0.0,-0.0,-1.0,0.10095670588011584,1.0,0
50.09101867675781,10.086681365966797,-1.7625739574432373,-0.0,-0.0,-1.0,0.056982337223964,1.0,0
