x,y,z,nx,ny,nz,curvature,density,label
54.3684196472168,-8.846733093261719,-0.9856202602386475,-0.0,-0.0,-1.0,0.020399268625198957,2.0,0
54.113136291503906,-8.645599365234375,-0.9729278087615967,-0.0,-0.0,-1.0,0.03748739804536256,1.0,0
53.88841247558594,-8.322919845581055,-1.0347728729248047,-0.0,-0.0,-1.0,0.13191406491511287,2.0,0
53.29981994628906,-7.223073959350586,-1.0561331510543823,-0.0,-0.0,-1.0,0.12502760757790846,1.0,0
53.7387580871582,-7.452613830566406,-1.0785315036773682,-0.0,-0.0,-1.0,0.12720237146706712,1.0,0
54.335567474365234,-7.259946823120117,-1.135301113128662,-0.0,-0.0,-1.0,0.006804295256615321,1.0,0
53.9098014831543,-8.337127685546875,-1.0059499740600586,-0.0,-0.0,-1.0,0.13191406491511293,2.0,0
54.01976013183594,-8.303482055664062,-0.9102319478988647,0.7002296350226368,-0.7135405684669959,-0.02320162468150069,0.22232714014294253,4.0,0
53.62940979003906,-7.733465194702148,-1.02110755443573,-0.0,-0.0,-1.0,0.03478229330497913,1.0,0
53.11222457885742,-7.698575973510742,-1.0359828472137451,-0.0,-0.0,-1.0,0.08018042993661818,2.0,0
53.665958404541016,-7.695751190185547,-1.0488533973693848,-0.0,-0.0,-1.0,0.030397743445770196,1.0,0
52.733795166015625,-8.361266136169434,-0.8439953327178955,-0.0,-0.0,-1.0,0.0316063560555773,1.0,0
53.197566986083984,-7.625399589538574,-1.0656145811080933,-0.0,-0.0,-1.0,0.08585356304057049,1.0,0
53.728729248046875,-7.2564592361450195,-1.025062918663025,-0.0,-0.0,-1.0,0.17017432736906252,2.0,0
53.979034423828125,-8.363139152526855,-0.9357906579971313,-0.0,-0.0,-1.0,0.17867784441975054,2.0,0
53.15770721435547,-8.771024703979492,-1.0053240060806274,-0.0,-0.0,-1.0,0.0074232963610558625,1.0,0
54.05447006225586,-8.345052719116211,-1.036924958229065,-0.0,-0.0,-1.0,0.16310958922934113,2.0,0
54.1458625793457,-9.323526382446289,-0.889336347579956,-0.0,-0.0,-1.0,0.030118076637508946,2.0,0
53.955284118652344,-8.305428504943848,-1.0003328323364258,-0.997605836609834,0.002171123196918034,-0.06912221774550513,0.1540724629526184,4.0,0
53.55278778076172,-9.223409652709961,-0.9575214385986328,-0.0,-0.0,-1.0,0.052652702373625404,1.0,0
54.076942443847656,-8.264362335205078,-0.9792473316192627,-0.0,-0.0,-1.0,0.17672182266546985,1.0,0
53.961578369140625,-8.332091331481934,-1.0007562637329102,-0.8117662287059404,-0.5442772815262266,0.2116549804444854,0.14003811766802862,4.0,0
53.99732971191406,-8.371437072753906,-0.9626595973968506,-0.2180703253836411,-0.9472404528393376,-0.23490606141987835,0.17317473570018396,4.0,0
53.904624938964844,-9.142227172851562,-0.94926917552948,-0.0,-0.0,-1.0,0.018486696825895925,1.0,0
53.965538024902344,-9.107421875,-0.8825864791870117,-0.0,-0.0,-1.0,0.021495358611855732,1.0,0
54.0195198059082,-9.120158195495605,-0.868572473526001,-0.0,-0.0,-1.0,0.03273993861487171,1.0,0
53.93218231201172,-9.238092422485352,-0.8951501846313477,-0.0,-0.0,-1.0,0.018057910844636475,1.0,0
54.568214416503906,-8.418890953063965,-1.1237177848815918,-0.0,-0.0,-1.0,0.022779361359664168,1.0,0
53.2816276550293,-7.523835182189941,-1.3567285537719727,-0.0,-0.0,-1.0,0.11266923315808829,1.0,0
53.35579299926758,-7.266928672790527,-1.3655920028686523,-0.0,-0.0,-1.0,0.10752452640275267,1.0,0
53.079227447509766,-7.769199371337891,-1.3338823318481445,-0.0,-0.0,-1.0,0.07791140155112196,1.0,0
53.29010772705078,-9.209003448486328,-0.9909086227416992,-0.0,-0.0,-1.0,0.02776301384328796,1.0,0
53.36613845825195,-8.805315971374512,-1.0339598655700684,-0.0,-0.0,-1.0,0.010733866692022169,1.0,0
53.31142807006836,-8.474150657653809,-1.053563117980957,-0.0,-0.0,-1.0,0.025616708930678786,1.0,0
53.32379913330078,-8.064407348632812,-1.0889692306518555,-0.0,-0.0,-1.0,0.028754690263630797,2.0,0
53.093841552734375,-7.6069183349609375,-1.095564842224121,-0.0,-0.0,-1.0,0.0724774465337574,1.0,0
53.305419921875,-7.158626079559326,-1.1621208190917969,-0.0,-0.0,-1.0,0.15035936115382786,1.0,0
53.11126708984375,-7.285599708557129,-1.1248526573181152,-0.0,-0.0,-1.0,0.07876858823882861,1.0,0
53.429813385009766,-9.264839172363281,-0.9349498748779297,-0.0,-0.0,-1.0,0.04466163748308312,1.0,0
53.57236099243164,-9.132438659667969,-0.9523782730102539,-0.0,-0.0,-1.0,0.051271686493906475,1.0,0
53.95023727416992,-8.803003311157227,-0.9988670349121094,-0.0,-0.0,-1.0,0.013356877017494162,1.0,0
54.02695083618164,-8.48468017578125,-1.0091266632080078,-0.0,-0.0,-1.0,0.12390086885594292,1.0,0
53.152061462402344,-9.362380981445312,-0.9012656211853027,-0.0,-0.0,-1.0,0.03733683024014374,1.0,0
54.19265365600586,-8.654303550720215,-1.0600430965423584,-0.0,-0.0,-1.0,0.04163776334611153,1.0,0
53.80011749267578,-8.7695951461792,-1.0459787845611572,-0.0,-0.0,-1.0,0.015135078017799961,2.0,0
53.579559326171875,-7.228758811950684,-0.922553300857544,-0.0,-0.0,-1.0,0.19452885103726694,1.0,0
53.20726013183594,-8.880873680114746,-1.0203568935394287,-0.0,-0.0,-1.0,0.009140756938985558,1.0,0
53.551937103271484,-9.119410514831543,-0.805729866027832,-0.0,-0.0,-1.0,0.025665950310740246,1.0,0
53.28622055053711,-7.500469207763672,-1.0237326622009277,-0.0,-0.0,-1.0,0.09082461182252022,1.0,0
54.221031188964844,-9.095882415771484,-0.8138947486877441,-0.0,-0.0,-1.0,0.030914095194919094,1.0,0
52.73877716064453,-8.523332595825195,-1.066004753112793,-0.0,-0.0,-1.0,0.03300027046668489,1.0,0
52.86805725097656,-8.373136520385742,-1.0723292827606201,-0.0,-0.0,-1.0,0.03695149643949159,1.0,0
53.19374084472656,-8.420743942260742,-1.0961332321166992,-0.0,-0.0,-1.0,0.0335199321659163,1.0,0
53.510345458984375,-8.175954818725586,-1.113952875137329,-0.0,-0.0,-1.0,0.02391336712710354,1.0,0
53.41295623779297,-8.359308242797852,-1.1104466915130615,-0.0,-0.0,-1.0,0.02110610032823548,1.0,0
53.41107177734375,-9.337291717529297,-0.9227151870727539,-0.0,-0.0,-1.0,0.0287978605941808,2.0,0
53.77779006958008,-9.178672790527344,-0.9471850395202637,-0.0,-0.0,-1.0,0.048337142638478964,2.0,0
54.129581451416016,-9.003036499023438,-0.9703714847564697,0.12477053356750283,-0.8959233721491021,-0.42632572663429746,0.028140513030562413,3.0,0
53.68274688720703,-7.109397888183594,-0.844902753829956,-0.0,-0.0,-1.0,0.160095046409471,1.0,0
54.15361785888672,-9.286413192749023,-0.8896853923797607,-0.817125097852409,0.12411150943618046,-0.5629413003903367,0.03011807663750893,4.0,0
53.29701232910156,-9.291900634765625,-0.980083703994751,-0.0,-0.0,-1.0,0.029991703001578794,1.0,0
53.534767150878906,-8.981513977050781,-1.012436866760254,-0.0,-0.0,-1.0,0.03965571848939349,1.0,0
53.70623779296875,-8.525165557861328,-1.0406849384307861,-0.0,-0.0,-1.0,0.021355977755182724,1.0,0
53.76054382324219,-8.764532089233398,-1.0417029857635498,-0.0,-0.0,-1.0,0.015899446271536288,2.0,0
54.124359130859375,-8.545173645019531,-1.086371660232544,-0.0,-0.0,-1.0,0.07562440215089598,1.0,0
53.67333984375,-7.145723342895508,-1.0664539337158203,-0.0,-0.0,-1.0,0.1422576905995218,2.0,0
54.428489685058594,-8.475996017456055,-1.1214139461517334,-0.0,-0.0,-1.0,0.03509042414271801,1.0,0
54.689292907714844,-7.491485595703125,-1.171673059463501,-0.0,-0.0,-1.0,0.019059817121441155,1.0,0
54.666465759277344,-7.669078826904297,-1.1652181148529053,-0.0,-0.0,-1.0,0.02134093354417193,1.0,0
54.74535369873047,-6.9638214111328125,-1.1897132396697998,-0.0,-0.0,-1.0,0.01831731325932218,1.0,0
54.66801452636719,-7.201709747314453,-1.1757562160491943,-0.0,-0.0,-1.0,0.017548761853218364,1.0,0
53.76607131958008,-9.314783096313477,-0.9322793483734131,-0.0,-0.0,-1.0,0.04474741853758741,1.0,0
54.00315475463867,-9.300586700439453,-0.9589602947235107,-0.0,-0.0,-1.0,0.02977414603209955,1.0,0
53.81643295288086,-8.568355560302734,-0.956263542175293,-0.0,-0.0,-1.0,0.03940286541688206,1.0,0
54.11863708496094,-9.092403411865234,-0.9769270420074463,-0.0,-0.0,-1.0,0.035093667379982055,2.0,0
53.921722412109375,-8.45366096496582,-0.9708728790283203,-0.0,-0.0,-1.0,0.09200455243448952,1.0,0
54.822147369384766,-7.572172164916992,-1.0943603515625,-0.0,-0.0,-1.0,0.019045511452734806,2.0,0
53.44009780883789,-9.312955856323242,-0.9180209636688232,-0.0,-0.0,-1.0,0.029858589364783847,2.0,0
53.814918518066406,-8.99432373046875,-0.9565558433532715,-0.0,-0.0,-1.0,0.028139613873450826,2.0,0
54.07490539550781,-8.871078491210938,-0.9833927154541016,-0.0,-0.0,-1.0,0.022435750289331608,2.0,0
54.154014587402344,-8.78217887878418,-0.9917263984680176,-0.0,-0.0,-1.0,0.025489118524641908,1.0,0
53.4907112121582,-9.234350204467773,-0.9125912189483643,-0.0,-0.0,-1.0,0.05072937275770729,2.0,0
53.69271469116211,-9.033647537231445,-0.9318995475769043,0.8772860102298945,-0.30838888579221285,-0.3677846535334927,0.041676520943937104,3.0,0
53.87567138671875,-8.899971008300781,-0.9498641490936279,-0.0,-0.0,-1.0,0.012634952661198877,2.0,0
54.06787109375,-8.857528686523438,-0.9694983959197998,-0.0,-0.0,-1.0,0.018942572691643456,2.0,0
54.51850128173828,-8.613636016845703,-1.015082597732544,-0.0,-0.0,-1.0,0.030192236443793968,2.0,0
54.02801513671875,-8.367729187011719,-0.9624650478363037,-0.0,-0.0,-1.0,0.2421580330701055,2.0,0
54.06383514404297,-9.291183471679688,-0.9046144485473633,-0.0,-0.0,-1.0,0.02977414603209955,1.0,0
54.06370162963867,-8.274892807006836,-0.8746716976165771,0.773209817097648,0.04738458993726677,-0.6323774817150739,0.19828899922314827,3.0,0
52.819068908691406,-8.342288970947266,-1.0152759552001953,-0.0,-0.0,-1.0,0.03580600071537681,2.0,0
53.44001770019531,-8.041048049926758,-1.0592503547668457,-0.0,-0.0,-1.0,0.026706449645943445,1.0,0
53.52726364135742,-7.900285720825195,-1.0614643096923828,-0.0,-0.0,-1.0,0.019881490249150254,1.0,0
53.703189849853516,-7.816165924072266,-1.0744736194610596,-0.0,-0.0,-1.0,0.015395833057969658,1.0,0
54.09233856201172,-7.885419845581055,-1.1142170429229736,-0.0,-0.0,-1.0,0.031032452222198387,1.0,0
54.595733642578125,-7.749666213989258,-1.1572024822235107,-0.0,-0.0,-1.0,0.022051024153945997,1.0,0
53.52770233154297,-7.260677337646484,-1.0349173545837402,-0.0,-0.0,-1.0,0.16873029635557382,1.0,0
54.744140625,-7.523359298706055,-1.1627833843231201,-0.0,-0.0,-1.0,0.018843714064401364,1.0,0
54.8386116027832,-7.317146301269531,-1.1640517711639404,-0.0,-0.0,-1.0,0.018407987854936265,1.0,0
53.834293365478516,-7.028924942016602,-1.0547804832458496,-0.5271088880926089,-0.848924646412391,-0.038511878782659624,0.1380249823415276,3.0,0
55.005027770996094,-7.094327926635742,-1.1720616817474365,-0.0,-0.0,-1.0,0.01752449875569138,1.0,0
52.74237823486328,-8.963687896728516,-0.9503471851348877,-0.0,-0.0,-1.0,0.05170708476287824,2.0,0
53.093505859375,-8.88447380065918,-0.9802219867706299,-0.0,-0.0,-1.0,0.01211869244183427,2.0,0
53.30986404418945,-8.778369903564453,-0.9965610504150391,-0.0,-0.0,-1.0,0.011220566778113927,2.0,0
53.58002853393555,-8.657188415527344,-1.0178020000457764,-0.0,-0.0,-1.0,0.015029665706949503,1.0,0
53.801025390625,-8.558429718017578,-1.0354316234588623,-0.0,-0.0,-1.0,0.035943986858897076,1.0,0
53.9433479309082,-8.419883728027344,-1.044020414352417,-0.0,-0.0,-1.0,0.14846390038863366,2.0,0
54.36274337768555,-8.35740852355957,-1.0833995342254639,-0.0,-0.0,-1.0,0.04559220958231455,1.0,0
53.24535369873047,-8.235984802246094,-1.0219178199768066,-0.0,-0.0,-1.0,0.03934076425312027,2.0,0
53.458126068115234,-8.131065368652344,-1.0376067161560059,-0.0,-0.0,-1.0,0.0264374175449535,1.0,0
54.22357177734375,-8.069669723510742,-1.1102614402770996,-0.0,-0.0,-1.0,0.0486805395770159,1.0,0
53.643123626708984,-7.972469329833984,-1.0482947826385498,-0.0,-0.0,-1.0,0.020358072027187216,1.0,0
53.90827560424805,-7.952827453613281,-1.0735840797424316,-0.0,-0.0,-1.0,0.017725304225543744,1.0,0
54.486785888671875,-7.950679779052734,-1.1314005851745605,-0.0,-0.0,-1.0,0.01532429296781805,1.0,0
54.687896728515625,-7.828651428222656,-1.146456241607666,-0.0,-0.0,-1.0,0.021599361084716072,1.0,0
53.509437561035156,-7.344058990478516,-1.006227970123291,-0.0,-0.0,-1.0,0.20131631662457108,1.0,0
54.848453521728516,-7.436288833618164,-1.145787239074707,-0.0,-0.0,-1.0,0.017676058160731326,1.0,0
53.809120178222656,-7.01481819152832,-1.0211949348449707,-0.5271088880926089,-0.848924646412391,-0.038511878782659624,0.13802498234152757,3.0,0
53.075016021728516,-7.693450927734375,-1.0558639764785767,-0.0,-0.0,-1.0,0.07835539827474394,2.0,0
53.217647552490234,-7.472686767578125,-1.0597819089889526,-0.0,-0.0,-1.0,0.10649863376641111,1.0,0
54.335750579833984,-6.876079559326172,-1.1515718698501587,-0.0,-0.0,-1.0,0.0023903296006106464,1.0,0
53.375022888183594,-7.23414421081543,-1.0646833181381226,-0.0,-0.0,-1.0,0.14654585112257312,2.0,0
53.56602096557617,-7.043893814086914,-1.0757604837417603,-0.0,-0.0,-1.0,0.12919904371883348,1.0,0
53.84819793701172,-6.910039901733398,-1.0998047590255737,-0.0,-0.0,-1.0,0.10835101270872499,2.0,0
52.95798110961914,-8.045158386230469,-1.0247209072113037,-0.0,-0.0,-1.0,0.058549861936459266,1.0,0
53.05079650878906,-7.911764144897461,-1.027632713317871,-0.0,-0.0,-1.0,0.054442207218512007,1.0,0
53.19401550292969,-7.668670654296875,-1.0304193496704102,-0.0,-0.0,-1.0,0.08790855962703882,1.0,0
53.46748352050781,-7.386171340942383,-1.0455591678619385,-0.0,-0.0,-1.0,0.15324305575684855,2.0,0
53.737159729003906,-7.240873336791992,-1.0677461624145508,-0.0,-0.0,-1.0,0.15656828338330747,2.0,0
53.84691619873047,-6.945262908935547,-1.0651919841766357,-0.0,-0.0,-1.0,0.13738757401032367,2.0,0
54.318267822265625,-7.080574035644531,-1.1246156692504883,-0.0,-0.0,-1.0,0.004970967897151632,1.0,0
54.615684509277344,-6.897190093994141,-1.149475336074829,-0.0,-0.0,-1.0,0.008795946394811087,1.0,0
52.780738830566406,-8.970865249633789,-0.9265842437744141,-0.0,-0.0,-1.0,0.0517070847628782,2.0,0
53.0994987487793,-8.914955139160156,-0.9549102783203125,-0.0,-0.0,-1.0,0.013932361009922819,2.0,0
53.47756576538086,-8.735113143920898,-0.9830284118652344,-0.0,-0.0,-1.0,0.01141924816300612,1.0,0
53.73522186279297,-8.640527725219727,-1.0040926933288574,-0.0,-0.0,-1.0,0.02097949391075104,1.0,0
53.897518157958984,-8.475971221923828,-1.01204252243042,-0.0,-0.0,-1.0,0.058404920732271166,2.0,0
54.31810760498047,-8.373287200927734,-1.0503885746002197,-0.15064063326918933,-0.13193000288771736,-0.9797458210915242,0.0442519910792331,3.0,0
54.899906158447266,-7.440855026245117,-1.0646612644195557,-0.0,-0.0,-1.0,0.017676058160731322,1.0,0
53.77877426147461,-9.220130920410156,-0.9268308877944946,0.003505222398330863,-0.3545969984965488,-0.9350126641244904,0.04784968013738223,4.0,0
54.086265563964844,-9.108509063720703,-0.9481819868087769,-0.4107979656825734,-0.5159376522725881,-0.7517003195147051,0.03509366737998214,3.0,0
54.04632568359375,-8.293140411376953,-0.8972846269607544,0.6924460305524485,-0.6614514375418667,-0.2880980571714345,0.22232714014294258,6.0,0
53.592796325683594,-7.251012802124023,-0.795204758644104,-0.2568852674427097,-0.9647239966125104,-0.05759834833458752,0.210282377762444,3.0,0
52.95362854003906,-9.02047348022461,-0.9291163682937622,-0.0,-0.0,-1.0,0.04394088926518153,1.0,0
53.44133377075195,-9.043825149536133,-0.9525660276412964,-0.0,-0.0,-1.0,0.04078782413612812,2.0,0
53.87046813964844,-8.93568229675293,-0.9621709585189819,-0.0,-0.0,-1.0,0.029013020695827053,2.0,0
54.210899353027344,-8.74818229675293,-0.9610263109207153,-0.0,-0.0,-1.0,0.02468140930125506,2.0,0
54.43606185913086,-8.888134002685547,-0.9852403402328491,-0.0,-0.0,-1.0,0.019470384234005798,1.0,0
52.919189453125,-8.123828887939453,-1.0350993871688843,-0.0,-0.0,-1.0,0.03918715083613543,1.0,0
53.326995849609375,-8.05548095703125,-1.0432180166244507,-0.0,-0.0,-1.0,0.02914555659405103,2.0,0
53.707374572753906,-7.951017379760742,-1.0473214387893677,-0.0,-0.0,-1.0,0.019411373517054017,1.0,0
53.899635314941406,-8.060361862182617,-1.0668286085128784,-0.0,-0.0,-1.0,0.04868434748251539,1.0,0
54.1711311340332,-8.10593032836914,-1.0832856893539429,-0.0,-0.0,-1.0,0.07792187165375564,1.0,0
54.524208068847656,-8.143562316894531,-1.1028927564620972,-0.0,-0.0,-1.0,0.011255823805388511,1.0,0
52.89424133300781,-8.601462364196777,-0.9615788459777832,-0.0,-0.0,-1.0,0.03546882292922761,1.0,0
53.08689880371094,-8.704129219055176,-0.9748122692108154,-0.0,-0.0,-1.0,0.017320337487676234,1.0,0
53.60700607299805,-7.192801475524902,-0.8194057941436768,-0.0,-0.0,-1.0,0.20113754052191266,2.0,0
53.43918228149414,-8.685015678405762,-0.9772953987121582,-0.0,-0.0,-1.0,0.01353437908046468,1.0,0
53.27420425415039,-8.709685325622559,-0.977731466293335,-0.0,-0.0,-1.0,0.010409389155118501,1.0,0
54.038997650146484,-8.298436164855957,-0.9451518058776855,0.2440967891062862,-0.9511912293988362,-0.18881737913320315,0.2223271401429425,6.0,0
53.833587646484375,-8.640311241149902,-0.9784059524536133,-0.0,-0.0,-1.0,0.027180944323093495,2.0,0
54.27680206298828,-8.648442268371582,-0.9869217872619629,-0.0,-0.0,-1.0,0.03873554622032028,1.0,0
52.83537292480469,-8.939045906066895,-0.933605432510376,-0.0,-0.0,-1.0,0.03939570236157691,1.0,0
53.212730407714844,-9.008896827697754,-0.9453029632568359,-0.0,-0.0,-1.0,0.009352830410480014,2.0,0
54.11149215698242,-8.216191291809082,-0.8747713565826416,-0.0,-0.0,-1.0,0.14794334301326534,2.0,0
53.698883056640625,-8.994063377380371,-0.9503774642944336,0.8772860102298945,-0.30838888579221285,-0.3677846535334927,0.04182961002639416,3.0,0
53.480194091796875,-9.048138618469238,-0.9529461860656738,-0.0,-0.0,-1.0,0.03976580987858789,2.0,0
54.03920364379883,-8.984854698181152,-0.9548542499542236,-0.0,-0.0,-1.0,0.028060390946238703,1.0,0
53.63691711425781,-7.167941093444824,-0.7556464672088623,-0.0,-0.0,-1.0,0.2054153049054208,1.0,0
53.004878997802734,-7.833599090576172,-1.0498380661010742,-0.0,-0.0,-1.0,0.051704156837646585,1.0,0
52.78544235229492,-7.863943099975586,-1.048877477645874,-0.0,-0.0,-1.0,0.04910838425987159,1.0,0
53.53571701049805,-7.756319046020508,-1.052809715270996,-0.0,-0.0,-1.0,0.01713695662114634,1.0,0
53.33751678466797,-7.802146911621094,-1.0535063743591309,-0.0,-0.0,-1.0,0.017997337457775094,1.0,0
53.93402862548828,-7.853128433227539,-1.0746686458587646,-0.0,-0.0,-1.0,0.0197287365739879,1.0,0
54.458824157714844,-8.001819610595703,-1.1072254180908203,-0.0,-0.0,-1.0,0.015324292967818056,1.0,0
54.276214599609375,-7.99407958984375,-1.100940227508545,-0.0,-0.0,-1.0,0.025993332067566148,1.0,0
52.916259765625,-6.923805236816406,-1.1072865724563599,-0.0,-0.0,-1.0,0.08036320527255483,1.0,0
53.50643539428711,-6.903423309326172,-1.1186681985855103,-0.0,-0.0,-1.0,0.08718884979964796,1.0,0
53.19111633300781,-6.981201171875,-1.121038556098938,-0.0,-0.0,-1.0,0.0937748812984602,1.0,0
53.73687744140625,-6.8930511474609375,-1.1234177350997925,-0.0,-0.0,-1.0,0.14791751401208758,1.0,0
54.68819808959961,-6.9306182861328125,-1.1569076776504517,-0.0,-0.0,-1.0,0.016084062232136414,1.0,0
54.386383056640625,-6.957765579223633,-1.1506718397140503,-0.0,-0.0,-1.0,0.005164243951421491,1.0,0
54.921142578125,-6.919668197631836,-1.1633306741714478,-0.0,-0.0,-1.0,0.018317313259322177,2.0,0
54.4897575378418,-8.598127365112305,-1.0236072540283203,-0.0,-0.0,-1.0,0.03019223644379397,2.0,0
54.10093688964844,-8.329214096069336,-0.9942605495452881,-0.0,-0.0,-1.0,0.221136257182788,1.0,0
53.68910217285156,-7.205829620361328,-0.8732914924621582,-0.0,-0.0,-1.0,0.21977754632665436,1.0,0
53.6783561706543,-7.510619163513184,-1.053501009941101,-0.0,-0.0,-1.0,0.08697911994376585,1.0,0
53.457069396972656,-7.4264631271362305,-1.0434986352920532,-0.0,-0.0,-1.0,0.10794371942518191,2.0,0
54.703102111816406,-8.003790855407715,-1.112575650215149,-0.0,-0.0,-1.0,0.017893244424503435,1.0,0
54.42868423461914,-7.9253644943237305,-1.1025785207748413,-0.0,-0.0,-1.0,0.021086830741449687,1.0,0
54.12675476074219,-7.78464412689209,-1.0856510400772095,-0.0,-0.0,-1.0,0.017529555758806745,1.0,0
53.27032470703125,-7.592207908630371,-1.0619312524795532,-0.0,-0.0,-1.0,0.07910158918236072,1.0,0
53.343666076660156,-7.466303825378418,-1.047794222831726,-0.0,-0.0,-1.0,0.08480650775215201,1.0,0
53.160972595214844,-9.019368171691895,-0.9293121099472046,-0.0,-0.0,-1.0,0.014206866223692598,1.0,0
52.87885665893555,-8.96804141998291,-0.9225407838821411,-0.0,-0.0,-1.0,0.04053240963152703,1.0,0
54.1419677734375,-8.232335090637207,-0.9084764719009399,-0.0,-0.0,-1.0,0.1479433430132653,2.0,0
54.08504867553711,-8.194043159484863,-0.9610023498535156,-0.0,-0.0,-1.0,0.1479433430132654,1.0,0
53.43311309814453,-8.304572105407715,-0.9680546522140503,-0.0,-0.0,-1.0,0.025598204361992595,1.0,0
53.98493957519531,-8.350367546081543,-0.9975594282150269,-0.5711155781595302,-0.7765557724644883,-0.26606038531804693,0.1400381176680287,3.0,0
54.42646789550781,-8.374005317687988,-1.0209325551986694,-0.0,-0.0,-1.0,0.04092649948865269,1.0,0
53.08876037597656,-8.393586158752441,-0.9560960531234741,-0.0,-0.0,-1.0,0.04516458721470185,1.0,0
53.35099792480469,-8.251757621765137,-0.9612835645675659,-0.0,-0.0,-1.0,0.0297325237885847,1.0,0
53.564117431640625,-9.360852241516113,-0.9051781892776489,-0.0,-0.0,-1.0,0.04895834629911955,2.0,0
53.81660461425781,-9.22668170928955,-0.9263502359390259,-0.030654566380352972,-0.2480720038399541,-0.9682564631701988,0.028815877942336542,3.0,0
54.055992126464844,-9.08686351776123,-0.946494460105896,-0.0,-0.0,-1.0,0.03365167280394957,2.0,0
54.22047424316406,-8.946871757507324,-0.9602288007736206,-0.0,-0.0,-1.0,0.02805612027730956,1.0,0
53.97466278076172,-8.490941047668457,-0.9360257387161255,-0.0,-0.0,-1.0,0.12129093639293723,1.0,0
52.91151428222656,-9.070759773254395,-0.9214127063751221,-0.0,-0.0,-1.0,0.04394088926518152,1.0,0
53.04576873779297,-9.055594444274902,-0.9335334300994873,-0.0,-0.0,-1.0,0.046155957994679905,1.0,0
53.18998718261719,-8.978926658630371,-0.9459466934204102,-0.0,-0.0,-1.0,0.015353007510410103,2.0,0
53.4940185546875,-8.844279289245605,-0.972618579864502,-0.0,-0.0,-1.0,0.011231643316273434,2.0,0
53.71581268310547,-8.703572273254395,-0.9918186664581299,-0.0,-0.0,-1.0,0.017544259966892174,2.0,0
53.931854248046875,-8.55472469329834,-1.0106375217437744,-0.0,-0.0,-1.0,0.05896973956562145,2.0,0
54.315635681152344,-8.407488822937012,-1.045403003692627,-0.15064063326918933,-0.13193000288771736,-0.9797458210915242,0.04431508780956283,3.0,0
54.01409149169922,-8.2974214553833,-1.0161476135253906,-0.0,-0.0,-1.0,0.22004585524090584,2.0,0
54.52568054199219,-8.377947807312012,-1.064988374710083,-0.0,-0.0,-1.0,0.022779361359664168,2.0,0
53.57215881347656,-9.361930847167969,-0.9033828973770142,-0.0,-0.0,-1.0,0.04895834629911952,2.0,0
53.794151306152344,-9.257284164428711,-0.9177988767623901,-0.030654566380352972,-0.2480720038399541,-0.9682564631701988,0.04643179326278985,3.0,0
54.15182876586914,-9.143041610717773,-0.9431105852127075,-0.0,-0.0,-1.0,0.03471770865486081,1.0,0
54.32920455932617,-9.055566787719727,-0.954800009727478,-0.0,-0.0,-1.0,0.02501567001671343,1.0,0
54.023162841796875,-8.322093963623047,-0.9063612222671509,0.7002296350226368,-0.7135405684669959,-0.02320162468150069,0.2174629396683679,4.0,0
53.57107925415039,-7.242818832397461,-0.8355900049209595,-0.0,-0.0,-1.0,0.20266716204527574,2.0,0
52.927757263183594,-8.708566665649414,-0.9861799478530884,-0.0,-0.0,-1.0,0.023681262432887908,1.0,0
53.20444869995117,-8.695487976074219,-1.003334879875183,-0.0,-0.0,-1.0,0.01326981052867133,1.0,0
53.440269470214844,-8.633956909179688,-1.0147677659988403,-0.0,-0.0,-1.0,0.016476614702863702,1.0,0
53.78734588623047,-8.623653411865234,-1.0371054410934448,-0.0,-0.0,-1.0,0.03228866873220743,1.0,0
53.932830810546875,-8.464609146118164,-1.0364736318588257,-0.5677754889377149,-0.005385982222011669,-0.823165831018904,0.12447208382958401,3.0,0
54.41240692138672,-8.456609725952148,-1.0684055089950562,-0.0,-0.0,-1.0,0.03509042414271801,1.0,0
52.91372299194336,-8.857651710510254,-0.9701540470123291,-0.0,-0.0,-1.0,0.025647668840544865,1.0,0
53.3244743347168,-8.776005744934082,-0.9910368919372559,-0.0,-0.0,-1.0,0.011220566778113927,2.0,0
53.57001876831055,-8.73812198638916,-1.0045204162597656,-0.0,-0.0,-1.0,0.013834996193139448,2.0,0
53.892940521240234,-8.648270606994629,-1.019723653793335,-0.0,-0.0,-1.0,0.040262669496405036,1.0,0
54.11467742919922,-8.468182563781738,-1.022235631942749,-0.0,-0.0,-1.0,0.11479353194520457,1.0,0
54.45965576171875,-8.519173622131348,-1.049088954925537,-0.0,-0.0,-1.0,0.039333906012782256,1.0,0
53.59645080566406,-7.254852771759033,-0.7471872568130493,-0.0,-0.0,-1.0,0.210282377762444,2.0,0
54.041160583496094,-8.349035263061523,-0.8302046060562134,-0.0,-0.0,-1.0,0.19002689023631844,1.0,0
52.744747161865234,-7.1709418296813965,-1.0528010129928589,-0.0,-0.0,-1.0,0.056799642051984685,1.0,0
52.87820816040039,-7.194539546966553,-1.069034218788147,-0.0,-0.0,-1.0,0.07652284138428643,1.0,0
52.80439376831055,-9.325008392333984,-0.8810141086578369,-0.0,-0.0,-1.0,0.040858741990397664,1.0,0
53.14579391479492,-9.181936264038086,-0.9133274555206299,-0.0,-0.0,-1.0,0.03873221861379569,1.0,0
53.653446197509766,-9.129791259765625,-0.965087890625,-0.0,-0.0,-1.0,0.04606257224920883,1.0,0
54.014564514160156,-8.301959991455078,-0.973397970199585,-0.07759502615284171,-0.9968712939723944,0.015054407000746893,0.2278634300564319,4.0,0
53.975677490234375,-8.91297721862793,-0.993217945098877,-0.0,-0.0,-1.0,0.016486179330270398,1.0,0
53.78934860229492,-9.02052116394043,-0.9761323928833008,-0.0,-0.0,-1.0,0.026244843454484006,2.0,0
54.224246978759766,-8.71721076965332,-1.0142123699188232,-0.0,-0.0,-1.0,0.02456166439516815,1.0,0
53.58324432373047,-7.181053638458252,-0.8802897930145264,-0.0,-0.0,-1.0,0.20113754052191274,2.0,0
52.89047622680664,-9.182662963867188,-0.9143974781036377,-0.0,-0.0,-1.0,0.044487548380595765,1.0,0
53.281288146972656,-9.016339302062988,-0.9525365829467773,-0.0,-0.0,-1.0,0.011638652221144264,1.0,0
53.68415451049805,-8.776288032531738,-0.9890058040618896,-0.0,-0.0,-1.0,0.017332493063024826,1.0,0
53.4920539855957,-8.902785301208496,-0.9721035957336426,-0.0,-0.0,-1.0,0.022864472323977036,1.0,0
54.14226531982422,-8.37567138671875,-1.025256633758545,-0.0,-0.0,-1.0,0.11884355050752118,1.0,0
53.97325134277344,-8.559294700622559,-1.0134813785552979,-0.0,-0.0,-1.0,0.10265699031337115,2.0,0
54.5279655456543,-8.354575157165527,-1.0721089839935303,-0.0,-0.0,-1.0,0.022779361359664175,2.0,0
54.35751724243164,-8.398494720458984,-1.053053617477417,-0.15064063326918933,-0.13193000288771736,-0.9797458210915242,0.03641194914243649,3.0,0
53.23554229736328,-9.258186340332031,-0.9193246364593506,-0.0,-0.0,-1.0,0.026994223718983905,1.0,0
53.68667984008789,-9.017986297607422,-0.9594266414642334,0.5297203198548273,-0.4449233897265207,-0.7221077205010082,0.041676520943937104,4.0,0
53.485137939453125,-9.173027038574219,-0.9439966678619385,-0.0,-0.0,-1.0,0.0507507523724396,2.0,0
54.10921096801758,-8.572675704956055,-0.9866809844970703,-0.0,-0.0,-1.0,0.08136381554549807,1.0,0
54.02809143066406,-8.80420970916748,-0.988969087600708,-0.0,-0.0,-1.0,0.020832133548092054,1.0,0
54.33983612060547,-8.494004249572754,-1.0108845233917236,-0.0,-0.0,-1.0,0.03994205362622086,2.0,0
53.52827072143555,-7.2701640129089355,-0.8511216640472412,-0.0,-0.0,-1.0,0.19601358461122245,1.0,0
54.040740966796875,-8.542085647583008,-0.9400352239608765,-0.0,-0.0,-1.0,0.1005978006070618,1.0,0
54.36789321899414,-8.843902587890625,-0.9917062520980835,-0.0,-0.0,-1.0,0.020399268625198957,2.0,0
54.09153366088867,-9.010527610778809,-0.9657641649246216,-0.0,-0.0,-1.0,0.028470848460308316,2.0,0
54.47804260253906,-8.495545387268066,-0.9724576473236084,-0.0,-0.0,-1.0,0.03779454437866175,1.0,0
54.124046325683594,-8.077646255493164,-0.964275598526001,-0.0,-0.0,-1.0,0.08585447038956884,1.0,0
54.16407775878906,-9.240653991699219,-0.89723801612854,-0.8159376899942717,0.09231314137695068,-0.5707223230047437,0.031855468245755345,3.0,0
54.15544128417969,-9.002520561218262,-0.9108526706695557,-0.0,-0.0,-1.0,0.027684867440408923,2.0,0
54.56779098510742,-7.790105819702148,-1.1330673694610596,-0.0,-0.0,-1.0,0.02191465531757292,1.0,0
53.588340759277344,-7.827499866485596,-1.0562248229980469,-0.0,-0.0,-1.0,0.01777039986471039,1.0,0
53.199127197265625,-8.108787536621094,-1.0339324474334717,-0.0,-0.0,-1.0,0.035834315580268825,1.0,0
53.351341247558594,-7.8602752685546875,-1.038475751876831,-0.0,-0.0,-1.0,0.02107347349697078,1.0,0
52.96753692626953,-8.184379577636719,-1.0180528163909912,-0.0,-0.0,-1.0,0.043557151424708715,1.0,0
54.072296142578125,-8.30352783203125,-0.8663088083267212,0.773209817097648,0.04738458993726677,-0.6323774817150739,0.2174629396683679,3.0,0
54.06682586669922,-8.532440185546875,-0.9933243989944458,-0.0,-0.0,-1.0,0.11985206372995404,1.0,0
53.960853576660156,-8.280502319335938,-0.979977011680603,0.6896094768171939,-0.5307877383577914,-0.4926491107197262,0.1709915307662475,5.0,0
53.74229431152344,-8.67962646484375,-0.9729152917861938,-0.0,-0.0,-1.0,0.0196698802620293,2.0,0
53.490779876708984,-8.797224044799805,-0.9573768377304077,-0.0,-0.0,-1.0,0.0103678476122553,2.0,0
53.83995819091797,-7.277097225189209,-1.1061866283416748,-0.0,-0.0,-1.0,0.11776307786818425,1.0,0
53.923057556152344,-7.084254741668701,-1.0898892879486084,-0.0,-0.0,-1.0,0.11103142358877041,1.0,0
53.37798309326172,-7.248246669769287,-1.0843462944030762,-0.0,-0.0,-1.0,0.13711130834712748,2.0,0
52.960514068603516,-9.159603118896484,-0.6524025201797485,-0.0,-0.0,-1.0,0.040858741990397664,1.0,0
53.62714385986328,-7.193770408630371,-0.8605878353118896,-0.2380163753436707,-0.9667363377499203,-0.09364325038214066,0.20149434607000508,3.0,0
54.285064697265625,-9.357135772705078,-0.812165379524231,-0.0,-0.0,-1.0,0.02895191289391239,1.0,0
53.388328552246094,-8.592789649963379,-1.0221893787384033,-0.0,-0.0,-1.0,0.019529334215174842,1.0,0
53.61768341064453,-9.308116912841797,-0.8918156623840332,-0.0,-0.0,-1.0,0.0490045923080194,1.0,0
53.772796630859375,-9.095945358276367,-0.9234240055084229,-0.0,-0.0,-1.0,0.048758499739920746,1.0,0
53.676326751708984,-7.172460556030273,-1.057706594467163,-0.0,-0.0,-1.0,0.19070443657912223,2.0,0
54.757713317871094,-7.35562801361084,-1.1555836200714111,-0.0,-0.0,-1.0,0.018407987854936265,1.0,0
53.8406982421875,-6.897393226623535,-1.0324153900146484,-0.0,-0.0,-1.0,0.1373875740103237,1.0,0
54.024131774902344,-9.228368759155273,-0.8768601417541504,-0.0,-0.0,-1.0,0.029774146032099564,1.0,0
54.158409118652344,-8.943146705627441,-0.9206242561340332,-0.0,-0.0,-1.0,0.031494734948493364,1.0,0
54.234718322753906,-8.723255157470703,-0.9514904022216797,-0.0,-0.0,-1.0,0.023393679745017732,2.0,0
53.955039978027344,-8.298815727233887,-0.9643933773040771,0.668173961256567,0.39566012861945143,-0.6300766779682827,0.17099153076624746,5.0,0
54.396522521972656,-8.469208717346191,-0.9953880310058594,-0.0,-0.0,-1.0,0.03996051074982141,1.0,0
54.63193893432617,-8.281908988952637,-1.0406193733215332,-0.0,-0.0,-1.0,0.019809070320348687,1.0,0
54.70513916015625,-7.755497932434082,-1.1033120155334473,-0.0,-0.0,-1.0,0.021985888752404294,2.0,0
53.452659606933594,-7.043539047241211,-1.0426197052001953,-0.0,-0.0,-1.0,0.13902790180479813,1.0,0
54.14154815673828,-9.2579927444458,-0.8678328990936279,-0.8159376899942717,0.09231314137695068,-0.5707223230047437,0.030803602827329996,3.0,0
54.29508972167969,-8.782563209533691,-0.9356796741485596,-0.0,-0.0,-1.0,0.01710212965682191,2.0,0
53.99211120605469,-8.294909477233887,-0.9540872573852539,0.15426938169030846,-0.48059480051040937,-0.8632668159933229,0.1681726503066888,6.0,0
54.602500915527344,-8.37774658203125,-1.0137367248535156,-0.0,-0.0,-1.0,0.02113554055618777,1.0,0
54.72894287109375,-7.694303512573242,-1.1021432876586914,-0.0,-0.0,-1.0,0.02151397947010134,1.0,0
53.419864654541016,-7.124077796936035,-1.0200777053833008,-0.0,-0.0,-1.0,0.158157467664582,1.0,0
53.50468063354492,-6.986883163452148,-1.0449318885803223,-0.0,-0.0,-1.0,0.10880778809361882,2.0,0
54.162635803222656,-9.011518478393555,-0.9428727626800537,-0.3762020758781896,-0.910556166625292,0.17134604029738792,0.02768486744040892,3.0,0
54.00979232788086,-8.448440551757812,-0.9638011455535889,-0.0,-0.0,-1.0,0.10906633228954907,1.0,0
54.29096603393555,-8.783489227294922,-0.9769208431243896,-0.0,-0.0,-1.0,0.01710212965682191,2.0,0
54.545135498046875,-8.537893295288086,-1.0294239521026611,-0.0,-0.0,-1.0,0.0296924703732777,1.0,0
54.81168746948242,-7.568231582641602,-1.1387112140655518,-0.0,-0.0,-1.0,0.019045511452734806,2.0,0
53.798828125,-7.007173538208008,-1.0488409996032715,-0.5271088880926089,-0.848924646412391,-0.038511878782659624,0.1373875740103237,3.0,0
54.63565444946289,-7.070502281188965,-1.1543548107147217,-0.0,-0.0,-1.0,0.017548761853218343,1.0,0
53.53053665161133,-7.483415603637695,-1.0427513122558594,-0.0,-0.0,-1.0,0.09263477934863261,1.0,0
53.36029815673828,-7.57724666595459,-1.0678598880767822,-0.0,-0.0,-1.0,0.07403094666559235,1.0,0
53.82493591308594,-9.053934097290039,-0.9403040409088135,-0.0,-0.0,-1.0,0.030045316148093863,1.0,0
53.529197692871094,-9.25840950012207,-0.9011614322662354,-0.0,-0.0,-1.0,0.030498265178242997,2.0,0
53.99198532104492,-8.257001876831055,-0.9791312217712402,0.4012221806350758,-0.5039832559959223,-0.7648670730539937,0.1282895504032056,3.0,0
53.450130462646484,-9.352784156799316,-0.9910850524902344,-0.0,-0.0,-1.0,0.04246281761922001,1.0,0
53.86420822143555,-8.273237228393555,-1.0467286109924316,-0.0,-0.0,-1.0,0.10845034967651647,1.0,0
53.5407600402832,-8.833030700683594,-1.0133023262023926,-0.0,-0.0,-1.0,0.023056749485490132,1.0,0
54.02970886230469,-8.485208511352539,-1.0692496299743652,-0.0,-0.0,-1.0,0.1221947590829339,1.0,0
54.400699615478516,-8.587629318237305,-1.031569480895996,-0.0,-0.0,-1.0,0.03225329247437551,1.0,0
53.98234176635742,-9.035970687866211,-0.9742584228515625,-0.0,-0.0,-1.0,0.01827565860893639,1.0,0
54.07760238647461,-8.146097183227539,-1.0854525566101074,-0.0,-0.0,-1.0,0.11723907538486426,1.0,0
54.35676956176758,-8.048606872558594,-1.0982251167297363,-0.0,-0.0,-1.0,0.023997233167905085,1.0,0
52.810787200927734,-8.356142044067383,-0.9924178123474121,-0.0,-0.0,-1.0,0.034022376259728565,2.0,0
53.28047180175781,-8.240354537963867,-1.0209946632385254,-0.0,-0.0,-1.0,0.034852648252375065,2.0,0
53.51522445678711,-8.129556655883789,-1.0272088050842285,-0.0,-0.0,-1.0,0.024563151205119316,1.0,0
52.76002502441406,-8.570731163024902,-0.9488425254821777,-0.0,-0.0,-1.0,0.03141830285780576,1.0,0
53.14482879638672,-8.541661262512207,-0.9871029853820801,-0.0,-0.0,-1.0,0.033695082983213595,1.0,0
54.04962158203125,-8.3036470413208,-1.0534882545471191,-0.0,-0.0,-1.0,0.21776879226362106,2.0,0
54.35287857055664,-8.465828895568848,-1.0286273956298828,-0.0,-0.0,-1.0,0.0390072579743317,2.0,0
52.85652542114258,-9.025643348693848,-0.9121055603027344,-0.0,-0.0,-1.0,0.04100829642109538,1.0,0
53.191307067871094,-8.874999046325684,-0.9347352981567383,-0.0,-0.0,-1.0,0.006581771204241578,1.0,0
53.55529022216797,-8.733170509338379,-0.9622459411621094,-0.0,-0.0,-1.0,0.015859175895730226,2.0,0
53.79045104980469,-8.63386058807373,-0.9792537689208984,-0.0,-0.0,-1.0,0.02835502929326122,2.0,0
53.86668395996094,-8.472765922546387,-0.9694337844848633,-0.0,-0.0,-1.0,0.05476124121401539,1.0,0
53.54813003540039,-7.413437843322754,-0.8056297302246094,-0.0,-0.0,-1.0,0.16270736387849738,1.0,0
53.411277770996094,-9.205379486083984,-0.9440922737121582,-0.0,-0.0,-1.0,0.030859470491494224,1.0,0
53.651206970214844,-9.020224571228027,-0.9698872566223145,-0.0,-0.0,-1.0,0.042202411672217825,2.0,0
53.88023376464844,-8.737019538879395,-0.9887070655822754,-0.0,-0.0,-1.0,0.025081722087537665,1.0,0
54.504119873046875,-8.584973335266113,-1.076493740081787,-0.0,-0.0,-1.0,0.03213747238777699,1.0,0
53.493709564208984,-9.143754959106445,-0.959043025970459,-0.0,-0.0,-1.0,0.050944601318558366,2.0,0
53.76737594604492,-8.877622604370117,-0.9987387657165527,-0.0,-0.0,-1.0,0.02758705933717092,1.0,0
54.123775482177734,-8.633291244506836,-1.0532317161560059,-0.0,-0.0,-1.0,0.055751885259663445,1.0,0
54.36336135864258,-8.527342796325684,-1.0913386344909668,-0.0,-0.0,-1.0,0.03994205362622087,1.0,0
54.652225494384766,-8.087364196777344,-1.1321959495544434,-0.0,-0.0,-1.0,0.016025865892830154,1.0,0
54.80776596069336,-7.508950233459473,-1.1498913764953613,-0.0,-0.0,-1.0,0.01804070802948152,1.0,0
54.691856384277344,-7.740983963012695,-1.1334834098815918,-0.0,-0.0,-1.0,0.021985888752404294,2.0,0
54.92100143432617,-6.925595283508301,-1.1622939109802246,-0.0,-0.0,-1.0,0.018317313259322177,2.0,0
54.88041305541992,-7.1775617599487305,-1.1581263542175293,-0.0,-0.0,-1.0,0.017524498755691377,1.0,0
52.73825454711914,-8.722411155700684,-0.914360523223877,-0.0,-0.0,-1.0,0.03172249933738509,1.0,0
52.80877685546875,-9.085615158081055,-0.9165539741516113,-0.0,-0.0,-1.0,0.04100829642109542,1.0,0
52.76222229003906,-7.874550819396973,-0.9451603889465332,-0.0,-0.0,-1.0,0.04766223294899118,1.0,0
52.96112823486328,-7.407003402709961,-0.9969487190246582,-0.0,-0.0,-1.0,0.05498173526565935,1.0,0
52.83060073852539,-7.633991241455078,-0.9655404090881348,-0.0,-0.0,-1.0,0.06072136942205954,1.0,0
53.220176696777344,-7.125282287597656,-1.0538029670715332,-0.0,-0.0,-1.0,0.11575272728959221,1.0,0
52.89005661010742,-8.40134334564209,-0.8828892707824707,-0.0,-0.0,-1.0,0.03946168406214328,1.0,0
53.33168411254883,-8.0256986618042,-0.9473972320556641,-0.0,-0.0,-1.0,0.02750028887435265,1.0,0
53.17545700073242,-8.230270385742188,-0.9237322807312012,-0.0,-0.0,-1.0,0.04634388016742263,1.0,0
53.541751861572266,-7.8348388671875,-0.9780998229980469,-0.0,-0.0,-1.0,0.01909236650168398,1.0,0
53.731449127197266,-7.641066551208496,-1.0059866905212402,-0.0,-0.0,-1.0,0.028922300198475453,1.0,0
54.14722442626953,-7.152532577514648,-1.0674386024475098,-0.0,-0.0,-1.0,0.03158097593286115,1.0,0
54.87183380126953,-6.877756595611572,-1.168165683746338,-0.0,-0.0,-1.0,0.01831731325932218,1.0,0
52.927459716796875,-8.508474349975586,-0.8444042205810547,-0.0,-0.0,-1.0,0.03759632111411085,1.0,0
52.92808532714844,-9.115370750427246,-0.8053193092346191,-0.0,-0.0,-1.0,0.04448754838059581,1.0,0
53.0209846496582,-8.3103666305542,-0.8700623512268066,-0.0,-0.0,-1.0,0.04340690258550951,1.0,0
53.40376281738281,-7.729959487915039,-0.9599747657775879,-0.0,-0.0,-1.0,0.016867143889039437,1.0,0
53.34444808959961,-7.92226505279541,-0.9396204948425293,-0.0,-0.0,-1.0,0.024616167146869098,1.0,0
53.51907730102539,-7.012910842895508,-1.0206708908081055,-0.0,-0.0,-1.0,0.12461069336482279,2.0,0
53.320762634277344,-7.040393352508545,-0.9727115631103516,-0.0,-0.0,-1.0,0.14210644617389356,1.0,0
53.68915557861328,-9.089676856994629,-1.0869884490966797,-0.0,-0.0,-1.0,0.025200244495976434,1.0,0
54.055171966552734,-8.44604206085205,-1.172210693359375,-0.0,-0.0,-1.0,0.1205834997613266,1.0,0
54.69353485107422,-7.724142074584961,-1.2955117225646973,-0.0,-0.0,-1.0,0.021340933544171922,1.0,0
54.71405792236328,-7.537420749664307,-1.310534954071045,-0.0,-0.0,-1.0,0.01884371406440136,1.0,0
53.593231201171875,-7.113647937774658,-1.207273006439209,-0.0,-0.0,-1.0,0.12775865304862638,1.0,0
