x,y,z,nx,ny,nz,curvature,density
44.70183181762695,11.744366645812988,-1.8419506549835205,-0.0,-0.0,-1.0,0.07909971954699362,1.0
43.725257873535156,12.456796646118164,-1.7777049541473389,-0.0,-0.0,-1.0,0.03676062516432743,2.0
44.3083381652832,11.971729278564453,-1.9393730163574219,-0.0,-0.0,-1.0,0.014669655256929339,2.0
44.36833190917969,12.764018058776855,-1.953639268875122,-0.0,-0.0,-1.0,0.031056440265612384,1.0
43.71119689941406,12.576993942260742,-1.8023664951324463,-0.0,-0.0,-1.0,0.06908746960444834,1.0
43.907737731933594,12.324491500854492,-1.8209302425384521,-0.0,-0.0,-1.0,0.05755193273155073,1.0
43.75266647338867,12.636515617370605,-1.817373275756836,-0.0,-0.0,-1.0,0.08595950617400173,2.0
45.18997573852539,13.101469039916992,-1.9866050481796265,-0.0,-0.0,-1.0,0.004698647502291093,1.0
44.27588653564453,13.188130378723145,-2.004138469696045,-0.0,-0.0,-1.0,0.015557937348403075,1.0
43.77606964111328,13.418426513671875,-1.9226475954055786,-0.0,-0.0,-1.0,0.042084517537440844,2.0
44.937278747558594,13.56790542602539,-2.025303602218628,-0.0,-0.0,-1.0,0.00572135774887123,1.0
43.99821472167969,12.449352264404297,-1.7161684036254883,-0.0,-0.0,-1.0,0.04468539246512011,2.0
43.89929962158203,12.54323673248291,-1.7391345500946045,-0.0,-0.0,-1.0,0.06553741898352189,1.0
45.58830261230469,13.107027053833008,-2.0174245834350586,-0.0,-0.0,-1.0,0.013743618702952692,2.0
44.06149673461914,12.383180618286133,-1.790683627128601,-0.0,-0.0,-1.0,0.054688907511969434,1.0
44.922977447509766,11.66158390045166,-2.01198410987854,-0.0,-0.0,-1.0,0.04002548083508388,1.0
44.77912521362305,11.82540512084961,-1.7479857206344604,-0.0,-0.0,-1.0,0.07340907136361913,1.0
43.96808624267578,12.391572952270508,-1.729941725730896,-0.0,-0.0,-1.0,0.059310834949678336,1.0
43.78846740722656,12.425934791564941,-1.7471058368682861,-0.7700087609890676,-0.5955920779532082,-0.22881561284025334,0.0520569455318196,3.0
44.574974060058594,13.514074325561523,-1.949231505393982,-0.0,-0.0,-1.0,0.009350406602948119,1.0
44.563385009765625,13.098580360412598,-1.9508403539657593,-0.0,-0.0,-1.0,0.04381343409272011,1.0
44.756431579589844,13.300023078918457,-1.9827131032943726,-0.0,-0.0,-1.0,0.0083678496173838,1.0
43.808685302734375,12.748247146606445,-1.8413652181625366,-0.0,-0.0,-1.0,0.12234829349017089,1.0
45.589385986328125,13.131271362304688,-1.9587186574935913,-0.0,-0.0,-1.0,0.013142934511430088,1.0
43.834556579589844,12.604305267333984,-1.7831679582595825,-0.0,-0.0,-1.0,0.09242337755761147,2.0
43.93307876586914,12.371988296508789,-1.7700355052947998,-0.0,-0.0,-1.0,0.06438301392841701,2.0
44.330230712890625,13.09051513671875,-1.938155174255371,-0.0,-0.0,-1.0,0.02348876128612585,1.0
43.938316345214844,12.458642959594727,-1.7534518241882324,-0.1438028756250424,-0.9395019890307627,0.31089667989415615,0.048443337680015554,3.0
44.6480827331543,12.839011192321777,-2.0214366912841797,-0.0,-0.0,-1.0,0.02651623794724949,1.0
43.836978912353516,12.56169319152832,-1.728501319885254,-0.0,-0.0,-1.0,0.04714129520224762,2.0
43.737667083740234,12.078252792358398,-1.9276323318481445,-0.0,-0.0,-1.0,0.0680235477412783,2.0
43.952945709228516,11.930301666259766,-1.9423589706420898,-0.0,-0.0,-1.0,0.07007205963761413,1.0
44.45360565185547,11.716588020324707,-1.9903607368469238,-0.0,-0.0,-1.0,0.03726193960396571,1.0
43.8546028137207,12.830817222595215,-2.0223445892333984,-0.0,-0.0,-1.0,0.07349395064194462,1.0
43.75649642944336,13.392671585083008,-2.0687999725341797,-0.0,-0.0,-1.0,0.019916200701484157,1.0
45.213077545166016,11.802717208862305,-2.0129518508911133,-0.0,-0.0,-1.0,0.015044160595911758,1.0
45.1412239074707,11.920262336730957,-2.017937660217285,-0.0,-0.0,-1.0,0.013483116208857312,1.0
44.66743469238281,12.135380744934082,-1.9814519882202148,-0.0,-0.0,-1.0,0.04126169741184355,1.0
44.07343292236328,12.158674240112305,-1.9050946235656738,-0.0,-0.0,-1.0,0.0594656390005824,2.0
44.01620864868164,12.866860389709473,-1.9868955612182617,-0.0,-0.0,-1.0,0.07009581520107598,1.0
44.17362976074219,13.216850280761719,-2.0523681640625,-0.0,-0.0,-1.0,0.017682251498157716,2.0
43.92127227783203,13.56801986694336,-2.063876152038574,-0.0,-0.0,-1.0,0.02131561533985102,1.0
45.676246643066406,11.750513076782227,-1.9825143814086914,-0.0,-0.0,-1.0,0.00958392932068044,1.0
45.67700958251953,12.030986785888672,-2.0026912689208984,-0.0,-0.0,-1.0,0.006036352916681936,1.0
45.54219055175781,12.348812103271484,-2.0050277709960938,-0.0,-0.0,-1.0,0.0072505435737306575,2.0
45.446937561035156,12.67032241821289,-2.0141196250915527,-0.0,-0.0,-1.0,0.01175297723062966,1.0
45.32693099975586,13.07266616821289,-2.026083469390869,-0.0,-0.0,-1.0,0.008393355519152844,1.0
45.274662017822266,13.340105056762695,-2.0386757850646973,-0.0,-0.0,-1.0,0.00864879796234513,1.0
43.893856048583984,12.359512329101562,-1.7515382766723633,-0.34076418291831256,-0.2657362415088364,-0.901811522208922,0.06426910841171789,3.0
45.15520095825195,13.578678131103516,-2.085263252258301,-0.0,-0.0,-1.0,0.006629732176776802,1.0
44.82813262939453,13.205890655517578,-2.032343864440918,-0.0,-0.0,-1.0,0.02954489052022851,2.0
45.0162239074707,13.453869819641113,-2.063436508178711,-0.0,-0.0,-1.0,0.008280336124769435,1.0
43.90260314941406,12.093360900878906,-1.860600233078003,-0.24889796110193982,-0.08675035614573519,-0.964636812830552,0.07611758349857241,3.0
44.233978271484375,12.132509231567383,-1.8911840915679932,-0.0,-0.0,-1.0,0.038691812205418966,2.0
44.460777282714844,12.238821029663086,-1.9085214138031006,-0.0,-0.0,-1.0,0.032975532617265046,1.0
45.092063903808594,12.515256881713867,-1.958162546157837,-0.0,-0.0,-1.0,0.007522966283033068,1.0
45.47065734863281,13.032194137573242,-1.9728953838348389,-0.0,-0.0,-1.0,0.01349760430310371,1.0
44.609130859375,13.025346755981445,-2.1980953216552734,-0.0,-0.0,-1.0,0.03656329950000387,1.0
43.952781677246094,12.576007843017578,-1.7128217220306396,-0.0,-0.0,-1.0,0.09683034980246642,1.0
44.73029327392578,11.689988136291504,-1.8321435451507568,-0.0,-0.0,-1.0,0.07909971954699362,1.0
45.408843994140625,11.640521049499512,-1.9302680492401123,-0.0,-0.0,-1.0,0.015356829316537904,2.0
45.54789352416992,11.81921100616455,-1.9488627910614014,-0.0,-0.0,-1.0,0.010872608909248668,2.0
43.946197509765625,13.47120189666748,-1.99989914894104,-0.0,-0.0,-1.0,0.02257585029511036,1.0
45.579322814941406,11.851369857788086,-1.9686696529388428,-0.0,-0.0,-1.0,0.00958392932068044,2.0
44.23312759399414,11.731189727783203,-1.9172077178955078,0.8125404049020809,0.5827730593883893,-0.012395630385729897,0.009933069914359318,3.0
43.727996826171875,12.440936088562012,-1.8579659461975098,-0.0,-0.0,-1.0,0.08650683218797263,1.0
43.963600158691406,12.091445922851562,-1.8844695091247559,-0.12255148785608048,0.6506230224035031,-0.7494470064939825,0.057176910084075834,3.0
43.72425079345703,12.75950813293457,-1.8738279342651367,-0.0,-0.0,-1.0,0.11648985527258933,2.0
44.06100082397461,13.073932647705078,-1.953958511352539,-0.0,-0.0,-1.0,0.0469967567285379,2.0
44.160064697265625,13.575654029846191,-2.0006041526794434,-0.0,-0.0,-1.0,0.01361454466386051,1.0
44.63483428955078,11.921629905700684,-1.9725396633148193,-0.0,-0.0,-1.0,0.07130020747815316,1.0
43.7912712097168,12.439691543579102,-1.792349100112915,0.3365178623080074,-0.9065517772824376,-0.25479325629557537,0.053687943453705665,3.0
43.84722900390625,12.667715072631836,-1.810361623764038,0.6852829577632814,-0.6641348120303507,0.29885150032854013,0.10516908005812416,4.0
44.68611145019531,12.796895980834961,-2.0047214031219482,-0.0,-0.0,-1.0,0.02225364380987046,1.0
44.745628356933594,12.655574798583984,-2.0144002437591553,-0.0,-0.0,-1.0,0.016710992170646338,1.0
44.68110656738281,13.204110145568848,-2.015563726425171,-0.0,-0.0,-1.0,0.03802518515619699,1.0
44.68938446044922,13.588790893554688,-2.030198335647583,-0.0,-0.0,-1.0,0.007840248931213553,1.0
45.034324645996094,11.665729522705078,-1.9315903186798096,-0.0,-0.0,-1.0,0.03484530688130387,1.0
45.14460754394531,11.956847190856934,-1.9619381427764893,-0.0,-0.0,-1.0,0.01338535115287797,1.0
45.22919845581055,12.326025009155273,-1.988891363143921,-0.0,-0.0,-1.0,0.007177536776635881,1.0
45.265167236328125,12.705371856689453,-2.006267786026001,-0.0,-0.0,-1.0,0.008715750013033537,2.0
45.26631164550781,13.125188827514648,-2.018120527267456,-0.0,-0.0,-1.0,0.009560121883925347,1.0
45.281341552734375,13.538359642028809,-2.0347087383270264,-0.0,-0.0,-1.0,0.008130805276834154,1.0
43.767189025878906,11.97136116027832,-1.9251350164413452,-0.0,-0.0,-1.0,0.07816038058143825,2.0
43.864166259765625,12.828361511230469,-1.9497121572494507,-0.0,-0.0,-1.0,0.07281010268390348,1.0
44.029052734375,13.0076322555542,-1.9918912649154663,-0.0,-0.0,-1.0,0.04588386977555084,1.0
44.17616271972656,13.19618034362793,-2.0305347442626953,-0.0,-0.0,-1.0,0.01859703114941761,2.0
44.09398651123047,13.538372993469238,-2.015594482421875,-0.0,-0.0,-1.0,0.020582178087066395,2.0
44.1402587890625,13.53091049194336,-2.027054786682129,-0.0,-0.0,-1.0,0.020582178087066395,2.0
43.986289978027344,12.1776123046875,-1.8654658794403076,-0.0,-0.0,-1.0,0.08882879250413454,1.0
44.26689910888672,11.945404052734375,-1.9301121234893799,-0.0,-0.0,-1.0,0.014550925882824712,2.0
43.80133819580078,12.339696884155273,-1.8230018615722656,-0.0,-0.0,-1.0,0.07168347337935743,1.0
43.87531280517578,12.264687538146973,-1.839991807937622,-0.45087597349475506,-0.7388521554245819,-0.5008076965758478,0.039425187067444606,3.0
43.976375579833984,12.737716674804688,-1.8635106086730957,-0.0,-0.0,-1.0,0.08457630244165955,2.0
44.420040130615234,12.873403549194336,-1.9663019180297852,-0.0,-0.0,-1.0,0.03409396489592577,1.0
44.572845458984375,13.138647079467773,-2.0039234161376953,-0.0,-0.0,-1.0,0.04247313012877464,1.0
44.672203063964844,13.330099105834961,-2.029242992401123,-0.0,-0.0,-1.0,0.03411042790750329,1.0
44.57767868041992,13.614301681518555,-2.0117006301879883,-0.0,-0.0,-1.0,0.00615572782890642,2.0
43.773590087890625,12.492865562438965,-1.8166053295135498,0.12681117681340967,-0.9502904827631644,-0.2843711022677063,0.08125494395229337,4.0
43.81272888183594,12.64686393737793,-1.825711727142334,-0.0,-0.0,-1.0,0.10293557945555207,2.0
43.84986877441406,12.688541412353516,-1.8343286514282227,-0.0,-0.0,-1.0,0.1082997356992115,2.0
45.6401252746582,11.970479965209961,-1.9791340827941895,-0.0,-0.0,-1.0,0.008171596850806017,1.0
45.674686431884766,12.368088722229004,-1.9931693077087402,-0.0,-0.0,-1.0,0.008607235196533147,1.0
45.65515899658203,12.748197555541992,-1.9961607456207275,-0.0,-0.0,-1.0,0.009622617143015348,2.0
45.66908264160156,13.144546508789062,-2.0092406272888184,0.5369543374844967,-0.8431705723597774,0.02726582775325509,0.013226902335364625,4.0
44.86777114868164,11.806747436523438,-1.9621782302856445,-0.0,-0.0,-1.0,0.06525071034921649,1.0
44.935935974121094,12.027074813842773,-1.9781732559204102,-0.0,-0.0,-1.0,0.048737758951252846,1.0
44.96943283081055,12.428635597229004,-1.9858684539794922,-0.0,-0.0,-1.0,0.00513376306894477,1.0
45.07245635986328,12.80858039855957,-2.014369010925293,-0.0,-0.0,-1.0,0.005328710559485933,1.0
45.08295822143555,13.234893798828125,-2.0218379497528076,-0.0,-0.0,-1.0,0.004758157886886675,2.0
45.17250442504883,13.614428520202637,-2.0523104667663574,-0.0,-0.0,-1.0,0.006343159283371112,1.0
45.3471794128418,11.942975997924805,-1.948538064956665,-0.0,-0.0,-1.0,0.015781367845947317,1.0
45.44385528564453,12.287099838256836,-1.9703967571258545,-0.0,-0.0,-1.0,0.0074029524907203645,1.0
45.48246383666992,12.413240432739258,-1.979740858078003,-0.0,-0.0,-1.0,0.009835842625971277,2.0
43.7341194152832,12.794563293457031,-1.91890549659729,-0.0,-0.0,-1.0,0.0928206519062913,1.0
43.88294219970703,12.988401412963867,-1.960771083831787,-0.0,-0.0,-1.0,0.10069862850340201,1.0
45.49787902832031,12.732871055603027,-1.9827611446380615,-0.0,-0.0,-1.0,0.012095238635690548,1.0
43.78209686279297,13.337323188781738,-1.925419807434082,-0.0,-0.0,-1.0,0.04099355784880004,1.0
43.92736053466797,13.128183364868164,-1.972578525543213,-0.0,-0.0,-1.0,0.059589692324339444,1.0
45.539146423339844,13.133563995361328,-1.9949390888214111,-0.0,-0.0,-1.0,0.013945936819031068,1.0
43.786827087402344,13.415281295776367,-1.9262678623199463,-0.0,-0.0,-1.0,0.04208451753744084,2.0
43.97665786743164,13.57999038696289,-1.9847159385681152,-0.0,-0.0,-1.0,0.021315615339851015,1.0
45.63369369506836,13.519756317138672,-2.0245630741119385,-0.0,-0.0,-1.0,0.010903000894067354,2.0
45.350341796875,11.750314712524414,-1.9714727401733398,-0.0,-0.0,-1.0,0.015359905835286604,1.0
45.44469451904297,11.958616256713867,-1.9917352199554443,-0.0,-0.0,-1.0,0.011634326748155201,2.0
45.551246643066406,12.338024139404297,-2.0123140811920166,-0.0,-0.0,-1.0,0.0074163105521438425,2.0
45.59755325317383,12.736333847045898,-2.018460988998413,-0.0,-0.0,-1.0,0.011126638364856879,1.0
45.66840744018555,13.14393138885498,-2.0353763103485107,-0.0,-0.0,-1.0,0.013226902335364625,2.0
44.779579162597656,11.91664981842041,-1.9733670949935913,-0.0,-0.0,-1.0,0.07377352522831203,1.0
44.068477630615234,12.177568435668945,-1.8882800340652466,-0.0,-0.0,-1.0,0.056524695132027084,2.0
44.499107360839844,12.151698112487793,-1.948626160621643,-0.0,-0.0,-1.0,0.030660124643645304,1.0
44.710792541503906,12.058417320251465,-1.9728869199752808,-0.0,-0.0,-1.0,0.047936833544738634,1.0
44.13633728027344,13.628662109375,-2.002817153930664,-0.0,-0.0,-1.0,0.01581559872391374,1.0
44.34565734863281,13.437514305114746,-2.0183238983154297,-0.0,-0.0,-1.0,0.010579050917851374,1.0
44.04780197143555,12.006622314453125,-1.875944972038269,-0.0,-0.0,-1.0,0.040184493518993,2.0
44.447654724121094,11.784391403198242,-1.9200793504714966,-0.0,-0.0,-1.0,0.052122621333437064,1.0
43.89955139160156,12.123218536376953,-1.8624979257583618,-0.24889796110193982,-0.08675035614573519,-0.964636812830552,0.08065692950487999,3.0
43.981056213378906,13.01895523071289,-1.9510377645492554,-0.0,-0.0,-1.0,0.06719352329111826,1.0
44.09650802612305,13.13021183013916,-1.9786404371261597,-0.0,-0.0,-1.0,0.0309705958016729,2.0
43.89890670776367,13.557672500610352,-1.9873405694961548,0.5470119455275018,-0.8371221153210436,-0.0021202572106270657,0.02257585029511036,3.0
44.07072830200195,13.345468521118164,-1.994027018547058,-0.0,-0.0,-1.0,0.021164147763714666,2.0
44.18972396850586,12.021158218383789,-1.886601448059082,-0.0,-0.0,-1.0,0.028238336276420067,1.0
44.52001953125,11.812685012817383,-1.922358751296997,-0.0,-0.0,-1.0,0.061236905563695015,1.0
43.74164962768555,12.344093322753906,-1.8427176475524902,-0.0,-0.0,-1.0,0.07286642131893893,2.0
43.970455169677734,12.121251106262207,-1.859715461730957,-0.12255148785608048,0.6506230224035031,-0.7494470064939825,0.08186360439826543,3.0
43.72813415527344,12.725444793701172,-1.8761398792266846,-0.0,-0.0,-1.0,0.13149744666557212,2.0
44.066810607910156,13.104959487915039,-1.9677190780639648,0.010176232984535592,-0.40699210974937877,-0.9133749870036919,0.04542408656414666,3.0
43.909996032714844,13.564921379089355,-1.988379716873169,0.5470119455275018,-0.8371221153210436,-0.0021202572106270657,0.02257585029511036,3.0
44.084205627441406,13.337115287780762,-1.9934496879577637,-0.0,-0.0,-1.0,0.020774445284826637,2.0
44.619667053222656,11.666924476623535,-1.902420997619629,-0.0,-0.0,-1.0,0.06462306175222678,1.0
44.83927917480469,11.898746490478516,-1.9590165615081787,-0.0,-0.0,-1.0,0.06169468292127604,1.0
43.81923294067383,12.394074440002441,-1.8102433681488037,-0.4068905348629916,-0.9133416203655953,0.01572186842768131,0.07694230203299354,3.0
44.100860595703125,12.300227165222168,-1.8542025089263916,-0.0,-0.0,-1.0,0.04957542157871573,1.0
44.5885009765625,12.221736907958984,-1.9370615482330322,-0.0,-0.0,-1.0,0.025116722668851343,1.0
44.86312484741211,12.057153701782227,-1.9748904705047607,-0.0,-0.0,-1.0,0.04445011121615275,1.0
43.799156188964844,12.57605266571045,-1.8209922313690186,-0.0,-0.0,-1.0,0.08578298307518478,1.0
44.063133239746094,12.810895919799805,-1.8877882957458496,-0.0,-0.0,-1.0,0.06029936547968288,1.0
44.35748291015625,13.040504455566406,-1.9599978923797607,-0.0,-0.0,-1.0,0.04377582376725584,1.0
44.485740661621094,13.030067443847656,-1.9823558330535889,-0.0,-0.0,-1.0,0.04406990291671741,2.0
44.42569351196289,13.566734313964844,-2.0173466205596924,-0.0,-0.0,-1.0,0.007246314109506157,1.0
44.53083801269531,13.349466323852539,-2.017461061477661,-0.0,-0.0,-1.0,0.014306243011381796,1.0
45.40679931640625,11.684432029724121,-1.9360891580581665,-0.0,-0.0,-1.0,0.015184521823609118,2.0
45.46314239501953,11.863211631774902,-1.9571470022201538,-0.0,-0.0,-1.0,0.01087260890924867,1.0
45.467384338378906,12.362147331237793,-1.9885739088058472,-0.0,-0.0,-1.0,0.008000081536256046,1.0
45.51411437988281,12.163162231445312,-1.9848705530166626,-0.0,-0.0,-1.0,0.00646592495893661,1.0
45.42964553833008,12.621628761291504,-1.9984408617019653,-0.0,-0.0,-1.0,0.012984172234037689,2.0
45.353233337402344,12.997854232788086,-2.0097784996032715,-0.0,-0.0,-1.0,0.008965061094950813,2.0
45.22677230834961,13.46628475189209,-2.020143508911133,-0.0,-0.0,-1.0,0.007831671508689837,1.0
45.29692077636719,13.44388484954834,-2.03141450881958,-0.0,-0.0,-1.0,0.009189003866852383,1.0
44.46991729736328,11.961122512817383,-1.9368363618850708,-0.0,-0.0,-1.0,0.03458673454853878,1.0
44.57638168334961,11.936666488647461,-1.9574564695358276,-0.0,-0.0,-1.0,0.06332573489152972,1.0
44.20942306518555,13.321199417114258,-2.0032992362976074,-0.0,-0.0,-1.0,0.013940370818664156,1.0
43.90452194213867,12.24726676940918,-1.8405874967575073,-0.0,-0.0,-1.0,0.06914907930836282,2.0
44.272762298583984,12.114300727844238,-1.9074045419692993,-0.0,-0.0,-1.0,0.020914092194232577,2.0
43.727012634277344,12.49303913116455,-1.8245164155960083,0.12681117681340967,-0.9502904827631644,-0.2843711022677063,0.08125494395229342,4.0
44.04661560058594,12.90277099609375,-1.9290755987167358,-0.0,-0.0,-1.0,0.06347872714792477,2.0
43.9394416809082,13.514410018920898,-1.966326355934143,-0.0,-0.0,-1.0,0.022575850295110382,1.0
43.891868591308594,13.55300521850586,-1.9603856801986694,0.5470119455275018,-0.8371221153210436,-0.0021202572106270657,0.02257585029511036,3.0
45.183963775634766,11.758904457092285,-1.9169528484344482,-0.0,-0.0,-1.0,0.014662505317359449,1.0
45.31663513183594,11.853057861328125,-1.9532084465026855,-0.0,-0.0,-1.0,0.013512260693088174,1.0
44.007083892822266,12.497699737548828,-1.7224414348602295,-0.0,-0.0,-1.0,0.044186777289000584,2.0
45.234840393066406,12.140082359313965,-1.9583942890167236,-0.0,-0.0,-1.0,0.009298886675574021,2.0
44.00356674194336,12.591605186462402,-1.7302453517913818,-0.0,-0.0,-1.0,0.09459524068526597,1.0
45.184078216552734,12.506985664367676,-1.978348970413208,-0.0,-0.0,-1.0,0.007281026483206431,1.0
44.95252990722656,13.112046241760254,-1.9835922718048096,-0.0,-0.0,-1.0,0.004906663007543861,1.0
45.07150650024414,12.987466812133789,-1.9973676204681396,-0.0,-0.0,-1.0,0.0048554734994357045,1.0
44.862937927246094,13.401291847229004,-1.992711067199707,-0.0,-0.0,-1.0,0.007583777386460024,1.0
45.05231475830078,11.921463012695312,-1.9611937999725342,-0.0,-0.0,-1.0,0.03287241641010816,1.0
44.9031982421875,12.410984992980957,-1.968489408493042,-0.0,-0.0,-1.0,0.005104162301971109,1.0
45.00758743286133,12.207521438598633,-1.9751133918762207,-0.0,-0.0,-1.0,0.008066254820753968,1.0
44.95417022705078,12.603837013244629,-1.9991180896759033,-0.0,-0.0,-1.0,0.007350692145276764,1.0
44.771453857421875,13.107465744018555,-2.0066394805908203,-0.0,-0.0,-1.0,0.03201579364914815,1.0
44.558074951171875,13.598381042480469,-2.0105538368225098,-0.0,-0.0,-1.0,0.006155727828906423,2.0
44.70262908935547,13.389263153076172,-2.020867109298706,-0.0,-0.0,-1.0,0.009291791463353408,1.0
43.95922088623047,12.50479507446289,-1.749742031097412,-0.0,-0.0,-1.0,0.05869778716741758,1.0
44.011722564697266,12.655117988586426,-1.7774710655212402,-0.0,-0.0,-1.0,0.07625114096050066,1.0
44.062355041503906,11.74378490447998,-1.9348948001861572,-0.0,-0.0,-1.0,0.03134217749232599,1.0
43.77842712402344,12.236369132995605,-1.9063739776611328,-0.0,-0.0,-1.0,0.06859595641994633,1.0
43.90519714355469,12.019128799438477,-1.9182724952697754,-0.0,-0.0,-1.0,0.055412183551924774,1.0
43.76168441772461,12.971833229064941,-1.99074387550354,-0.0,-0.0,-1.0,0.10511318872365619,1.0
45.66941833496094,12.776269912719727,-2.0290515422821045,0.6613914069293034,-0.6874352131772503,-0.2999903907194775,0.010016399768559161,3.0
45.52265167236328,13.213359832763672,-2.040229082107544,-0.0,-0.0,-1.0,0.013247182154516422,1.0
45.594520568847656,13.006041526794434,-2.034855604171753,-0.0,-0.0,-1.0,0.013753154897520383,1.0
45.42964553833008,13.622016906738281,-2.064929246902466,-0.0,-0.0,-1.0,0.008382862516042639,1.0
45.41131591796875,11.969865798950195,-1.9816862344741821,-0.0,-0.0,-1.0,0.012356874943436786,2.0
45.36756896972656,12.439434051513672,-2.0130581855773926,-0.0,-0.0,-1.0,0.008494089800513555,1.0
45.412235260009766,12.230146408081055,-2.0053610801696777,-0.0,-0.0,-1.0,0.007956155446700223,1.0
45.281028747558594,12.801582336425781,-2.026370048522949,-0.0,-0.0,-1.0,0.008977894450223317,1.0
45.064117431640625,13.266654968261719,-2.0192980766296387,-0.0,-0.0,-1.0,0.004766035724941561,2.0
45.14225769042969,13.065903663635254,-2.0172362327575684,-0.0,-0.0,-1.0,0.004237338552117861,1.0
45.23949432373047,13.598596572875977,-2.0301661491394043,-0.0,-0.0,-1.0,0.007199698960460553,1.0
45.34013366699219,13.399482727050781,-2.0144922733306885,-0.0,-0.0,-1.0,0.009175033052783327,2.0
45.48651885986328,13.169929504394531,-2.0048394203186035,-0.0,-0.0,-1.0,0.01326139165212702,1.0
44.72675323486328,13.124885559082031,-1.9699326753616333,-0.0,-0.0,-1.0,0.03477770654770655,1.0
45.112640380859375,12.834602355957031,-1.9812620878219604,-0.0,-0.0,-1.0,0.004628491062298422,1.0
45.43870162963867,12.409772872924805,-1.9695874452590942,-0.0,-0.0,-1.0,0.008158859520920747,2.0
45.289527893066406,12.597476959228516,-1.973777413368225,-0.0,-0.0,-1.0,0.00914519722141283,1.0
43.82644271850586,12.391672134399414,-1.7632092237472534,-0.4068905348629916,-0.9133416203655953,0.01572186842768131,0.07694230203299357,3.0
45.653018951416016,12.145014762878418,-1.9648886919021606,-0.0,-0.0,-1.0,0.0059712256474210605,1.0
44.308372497558594,12.191164016723633,-2.0265214443206787,-0.0,-0.0,-1.0,0.027491616453936538,1.0
43.983665466308594,12.173662185668945,-1.9910480976104736,-0.0,-0.0,-1.0,0.04921322179352212,1.0
44.830833435058594,12.43858528137207,-2.0483434200286865,-0.0,-0.0,-1.0,0.006014331276933343,1.0
44.694549560546875,12.660442352294922,-2.06414532661438,-0.0,-0.0,-1.0,0.01731369115409018,1.0
44.256736755371094,12.796066284179688,-2.047689914703369,-0.0,-0.0,-1.0,0.03690904688576868,1.0
43.973506927490234,12.950746536254883,-2.0456690788269043,-0.0,-0.0,-1.0,0.048735072415388436,1.0
44.73024368286133,12.09657096862793,-2.0005152225494385,-0.0,-0.0,-1.0,0.04378076872289681,1.0
44.28708267211914,12.28250503540039,-1.9887981414794922,-0.0,-0.0,-1.0,0.038390885781453804,1.0
44.31613540649414,12.464315414428711,-2.0125467777252197,-0.0,-0.0,-1.0,0.042441650455312126,1.0
44.715362548828125,11.751073837280273,-1.9590322971343994,-0.0,-0.0,-1.0,0.0790997195469936,1.0
44.69731521606445,11.979488372802734,-1.7632945775985718,-0.0,-0.0,-1.0,0.055720094325345915,1.0
43.95330047607422,12.39946174621582,-1.8314930200576782,-0.0,-0.0,-1.0,0.06629278988944212,1.0
43.77146911621094,12.50704574584961,-1.834778904914856,0.12681117681340967,-0.9502904827631644,-0.2843711022677063,0.08346486627131397,4.0
43.89484405517578,12.471892356872559,-1.7335211038589478,-0.1438028756250424,-0.9395019890307627,0.31089667989415615,0.0549594905882816,3.0
43.846107482910156,12.614631652832031,-1.7471424341201782,0.5593245367694768,-0.8269383696704876,0.057697446514782924,0.0917238663179449,3.0
44.24901580810547,11.70895004272461,-1.921311855316162,0.8125404049020809,0.5827730593883893,-0.012395630385729897,0.009644009658884215,3.0
43.977386474609375,11.808212280273438,-1.8996548652648926,-0.0,-0.0,-1.0,0.03541849037256945,2.0
43.78064727783203,11.999259948730469,-1.8978188037872314,-0.0,-0.0,-1.0,0.07816038058143823,2.0
43.73516845703125,13.532186508178711,-1.9754197597503662,-0.0,-0.0,-1.0,0.045715924983305616,2.0
43.97328567504883,11.825512886047363,-1.8917268514633179,-0.0,-0.0,-1.0,0.035418490372569465,2.0
43.821128845214844,11.922333717346191,-1.8842787742614746,-0.0,-0.0,-1.0,0.07185588746773094,1.0
43.750545501708984,12.082748413085938,-1.8859975337982178,-0.0,-0.0,-1.0,0.06802354774127829,2.0
45.172000885009766,11.803841590881348,-1.9490344524383545,-0.0,-0.0,-1.0,0.014662505317359454,1.0
45.24115753173828,12.11385440826416,-1.9690797328948975,-0.0,-0.0,-1.0,0.01101949155754752,2.0
45.28825378417969,12.733255386352539,-1.9977734088897705,-0.0,-0.0,-1.0,0.009186413828770662,2.0
45.281822204589844,12.975668907165527,-2.0063252449035645,-0.0,-0.0,-1.0,0.008749700191236791,1.0
45.29251480102539,13.391816139221191,-2.0259015560150146,-0.0,-0.0,-1.0,0.008053770671436911,2.0
44.849552154541016,11.639517784118652,-1.8931872844696045,-0.0,-0.0,-1.0,0.06862155365311509,1.0
43.960899353027344,12.302428245544434,-1.770472764968872,-0.0,-0.0,-1.0,0.0495370538249256,2.0
43.814727783203125,12.507131576538086,-1.7542083263397217,-0.0,-0.0,-1.0,0.08511639197123401,1.0
44.63459014892578,13.235140800476074,-1.9609347581863403,-0.0,-0.0,-1.0,0.041426565609964404,1.0
44.66865539550781,13.463172912597656,-1.9646071195602417,-0.0,-0.0,-1.0,0.012734318524536133,1.0
44.253021240234375,12.972883224487305,-1.9025613069534302,-0.0,-0.0,-1.0,0.032596725765073685,1.0
43.9898567199707,12.780627250671387,-1.8629070520401,-0.0,-0.0,-1.0,0.06921141726584945,2.0
43.850364685058594,11.877348899841309,-1.8571125268936157,-0.0,-0.0,-1.0,0.07275693362412834,1.0
45.012386322021484,13.425277709960938,-2.021580219268799,-0.0,-0.0,-1.0,0.005923051768894508,1.0
44.818572998046875,13.127802848815918,-1.9932016134262085,-0.0,-0.0,-1.0,0.028166556274592476,1.0
44.81647491455078,12.861530303955078,-1.9946459531784058,-0.0,-0.0,-1.0,0.020132234982702918,1.0
44.06505584716797,11.826133728027344,-1.893847107887268,-0.0,-0.0,-1.0,0.034704030867916486,1.0
43.928321838378906,12.103591918945312,-1.8681563138961792,-0.12128713185752169,0.4311611719711834,-0.8940858322500208,0.07306390155145474,5.0
43.75981903076172,12.706259727478027,-1.8343626260757446,-0.0,-0.0,-1.0,0.11505437213089095,1.0
43.76228332519531,12.268238067626953,-1.840281367301941,-0.0,-0.0,-1.0,0.035038781315636335,1.0
45.425262451171875,12.609846115112305,-1.9583266973495483,-0.0,-0.0,-1.0,0.013035400831744967,2.0
45.53080368041992,12.876155853271484,-1.9613436460494995,-0.0,-0.0,-1.0,0.01223991931307858,1.0
45.553863525390625,12.081130981445312,-2.009000778198242,-0.0,-0.0,-1.0,0.004485352653897506,1.0
45.670127868652344,12.561076164245605,-2.0357508659362793,-0.0,-0.0,-1.0,0.010105892574178977,1.0
45.661048889160156,12.772801399230957,-2.039555549621582,-0.0,-0.0,-1.0,0.010016399768559161,2.0
45.682350158691406,13.445799827575684,-2.060032367706299,-0.0,-0.0,-1.0,0.011109515425130003,1.0
43.791141510009766,12.749671936035156,-1.780969262123108,-0.0,-0.0,-1.0,0.10829973569921146,1.0
43.82166290283203,12.679033279418945,-1.7833203077316284,-0.0,-0.0,-1.0,0.1037438535241754,2.0
43.85674285888672,12.842998504638672,-1.7924906015396118,-0.0,-0.0,-1.0,0.05472933556272478,1.0
43.997528076171875,12.307897567749023,-1.7497024536132812,-0.0,-0.0,-1.0,0.04923244162630098,2.0
43.91695785522461,12.457254409790039,-1.7675271034240723,-0.1438028756250424,-0.9395019890307627,0.31089667989415615,0.05795731670719077,3.0
44.434112548828125,12.192241668701172,-1.8912670612335205,-0.0,-0.0,-1.0,0.03315697819889317,1.0
43.98945617675781,12.033626556396484,-1.8556692600250244,-0.0,-0.0,-1.0,0.05044621715997702,2.0
43.72698974609375,12.017326354980469,-1.8445332050323486,-0.0,-0.0,-1.0,0.07108931057972181,1.0
43.883365631103516,12.379186630249023,-1.7533717155456543,-0.0,-0.0,-1.0,0.06409675212170123,2.0
43.833885192871094,12.450139999389648,-1.7732422351837158,-0.0,-0.0,-1.0,0.07448250603633458,2.0
44.45325469970703,13.367267608642578,-1.9915471076965332,-0.0,-0.0,-1.0,0.012958064116524575,1.0
44.65100860595703,11.717763900756836,-1.9275035858154297,-0.0,-0.0,-1.0,0.07234660898975294,1.0
44.12134552001953,12.00407600402832,-1.8796687126159668,-0.0,-0.0,-1.0,0.03488683370790085,1.0
43.79561996459961,12.222280502319336,-1.8528714179992676,-0.0,-0.0,-1.0,0.04005342023210197,1.0
45.62852096557617,13.119109153747559,-2.0097556114196777,0.2971119595557724,-0.45679079571030384,-0.8384906990797674,0.013226902335364625,3.0
43.875980377197266,12.287199974060059,-1.7598438262939453,-0.0,-0.0,-1.0,0.0551388465879395,2.0
43.815093994140625,12.396769523620605,-1.7607941627502441,-0.6796221326810886,-0.7328906732033474,0.03138499484710727,0.07694230203299363,4.0
45.09937286376953,12.095827102661133,-2.0020592212677,-0.0,-0.0,-1.0,0.00876125624791923,1.0
43.86574935913086,12.287808418273926,-1.865492582321167,-0.0,-0.0,-1.0,0.04313670441761242,2.0
45.05573272705078,11.94931697845459,-2.04695200920105,-0.0,-0.0,-1.0,0.013980281258986297,1.0
44.56401824951172,11.651945114135742,-1.9870078563690186,-0.0,-0.0,-1.0,0.0647327463795299,1.0
44.69092559814453,11.659428596496582,-1.8158912658691406,-0.0,-0.0,-1.0,0.0687534815814094,1.0
45.620941162109375,13.014642715454102,-1.972463607788086,-0.0,-0.0,-1.0,0.012579134017018719,1.0
43.80751419067383,12.589507102966309,-1.7331085205078125,-0.14246831250620898,-0.30680309775373266,-0.9410497538070699,0.08183795345532838,3.0
43.85464859008789,13.591777801513672,-1.977809190750122,-0.0,-0.0,-1.0,0.02257585029511036,1.0
43.7463493347168,12.391947746276855,-1.8358173370361328,-0.0,-0.0,-1.0,0.055160515064157714,2.0
43.904640197753906,12.191299438476562,-1.8564949035644531,-0.0,-0.0,-1.0,0.06639959134746923,1.0
44.033111572265625,12.92588996887207,-1.8894691467285156,-0.0,-0.0,-1.0,0.06519149632159212,2.0
44.007591247558594,12.001440048217773,-1.868997573852539,-0.19818987455443077,0.2775964369026102,-0.9400324419098915,0.04825510904431304,3.0
44.23930358886719,11.722949981689453,-1.899754524230957,0.8125404049020809,0.5827730593883893,-0.012395630385729897,0.009933069914359318,3.0
44.45526885986328,13.176187515258789,-1.9590201377868652,-0.0,-0.0,-1.0,0.046021671848909304,1.0
44.59561538696289,13.259672164916992,-1.9822196960449219,-0.0,-0.0,-1.0,0.04109227813327444,1.0
44.86793518066406,13.218809127807617,-2.0060219764709473,-0.0,-0.0,-1.0,0.02911060091253883,2.0
44.769107818603516,13.389619827270508,-2.001451015472412,-0.0,-0.0,-1.0,0.008367849617383662,1.0
45.12577819824219,12.335419654846191,-1.9883427619934082,-0.0,-0.0,-1.0,0.0070980854487900594,1.0
44.97725296020508,12.67757797241211,-1.9870686531066895,-0.0,-0.0,-1.0,0.005571282465081368,1.0
43.8995246887207,11.993546485900879,-1.7625174522399902,-0.0,-0.0,-1.0,0.06030472294131148,1.0
43.864627838134766,11.808145523071289,-1.7442326545715332,-0.0,-0.0,-1.0,0.04527873446750468,1.0
44.51051712036133,13.011713027954102,-1.9559326171875,-0.0,-0.0,-1.0,0.0421985052248601,2.0
44.737422943115234,13.234598159790039,-1.9814825057983398,-0.0,-0.0,-1.0,0.036189355035894225,1.0
43.90616989135742,12.712141990661621,-1.85809326171875,-0.0,-0.0,-1.0,0.09650621030058397,1.0
44.7288703918457,11.779662132263184,-1.8832850456237793,-0.0,-0.0,-1.0,0.07909971954699363,1.0
45.10107421875,12.071442604064941,-1.9264655113220215,-0.0,-0.0,-1.0,0.008761256247919234,1.0
45.33427047729492,12.293147087097168,-1.9489340782165527,-0.0,-0.0,-1.0,0.008029022717460156,1.0
45.397117614746094,12.441271781921387,-1.9442334175109863,-0.0,-0.0,-1.0,0.010618668981454978,1.0
45.60000991821289,12.740547180175781,-1.9512858390808105,-0.0,-0.0,-1.0,0.011312704316844963,1.0
44.46266174316406,11.659872055053711,-1.9354615211486816,-0.0,-0.0,-1.0,0.05112514497903769,1.0
44.690773010253906,11.873991012573242,-1.971052646636963,-0.0,-0.0,-1.0,0.08280815190906805,1.0
44.711090087890625,12.144948959350586,-1.9547696113586426,-0.0,-0.0,-1.0,0.04246001257143084,1.0
45.21349334716797,12.717944145202637,-2.0275635719299316,-0.0,-0.0,-1.0,0.007603236452520178,1.0
45.325279235839844,13.001852989196777,-2.032876491546631,-0.0,-0.0,-1.0,0.008337848073053405,2.0
45.43926239013672,13.217791557312012,-2.0438971519470215,-0.0,-0.0,-1.0,0.013265812705245059,1.0
45.611663818359375,13.514008522033691,-2.063236713409424,-0.0,-0.0,-1.0,0.010903000894067354,2.0
43.85795593261719,12.321028709411621,-1.745227336883545,-0.0,-0.0,-1.0,0.05406475864985873,2.0
44.14910888671875,11.642034530639648,-1.894172191619873,-0.0,-0.0,-1.0,0.022178636554118714,2.0
44.186283111572266,12.121402740478516,-1.9308152198791504,-0.0,-0.0,-1.0,0.04190980776761866,1.0
43.840633392333984,12.569999694824219,-1.903012752532959,-0.0,-0.0,-1.0,0.0833005444638515,1.0
43.77207946777344,13.508869171142578,-1.9520468711853027,-0.0,-0.0,-1.0,0.04208993270211312,2.0
43.733211517333984,13.077043533325195,-1.7028460502624512,-0.0,-0.0,-1.0,0.06255033624211924,1.0
45.67131423950195,13.14804458618164,-1.9618706703186035,-0.0,-0.0,-1.0,0.013226902335364625,2.0
45.408775329589844,13.438955307006836,-1.9713234901428223,-0.0,-0.0,-1.0,0.009845658436900606,1.0
44.19142150878906,11.64596939086914,-1.9031305313110352,-0.0,-0.0,-1.0,0.016578871773366293,2.0
43.89363098144531,11.889581680297852,-1.9192657470703125,-0.0,-0.0,-1.0,0.07191767121350408,1.0
45.70852279663086,12.171100616455078,-2.0076656341552734,-0.0,-0.0,-1.0,0.0059712256474210605,1.0
45.422367095947266,12.51416301727295,-2.046114921569824,-0.0,-0.0,-1.0,0.011522585113212632,1.0
45.396705627441406,11.71767520904541,-1.8718996047973633,-0.0,-0.0,-1.0,0.015184521823609118,1.0
44.98704147338867,12.704218864440918,-2.033689498901367,-0.0,-0.0,-1.0,0.0055267180893856065,1.0
44.49494934082031,12.954476356506348,-2.0279436111450195,-0.0,-0.0,-1.0,0.03886423452379902,1.0
44.25388717651367,13.208182334899902,-2.0542659759521484,-0.0,-0.0,-1.0,0.017235696545102642,1.0
44.437042236328125,13.105324745178223,-2.0539703369140625,-0.0,-0.0,-1.0,0.04373783298641584,1.0
43.8427619934082,13.47925090789795,-2.064272880554199,-0.0,-0.0,-1.0,0.022237099761432302,1.0
45.613704681396484,12.207834243774414,-1.9821624755859375,-0.0,-0.0,-1.0,0.006541034945863372,1.0
45.50776672363281,12.455118179321289,-1.9980297088623047,-0.0,-0.0,-1.0,0.009673572054343837,1.0
45.25117492675781,13.225064277648926,-2.0698938369750977,-0.0,-0.0,-1.0,0.010183809770083967,1.0
45.4050178527832,13.529658317565918,-2.0858755111694336,-0.0,-0.0,-1.0,0.00876295838897069,1.0
44.394798278808594,11.811321258544922,-1.9698448181152344,-0.0,-0.0,-1.0,0.02192856043638525,1.0
43.75367736816406,12.492514610290527,-1.7953262329101562,0.20611211024080422,-0.8278858771034295,-0.5216538819032868,0.0812549439522934,5.0
44.189090728759766,12.441800117492676,-1.8898391723632812,-0.0,-0.0,-1.0,0.0325496298273036,1.0
44.55136489868164,12.275918006896973,-1.9756793975830078,-0.0,-0.0,-1.0,0.023645118732145323,1.0
43.75395584106445,12.66178035736084,-1.7860174179077148,-0.0,-0.0,-1.0,0.08168955465112449,2.0
43.847320556640625,12.729575157165527,-1.7470097541809082,-0.0,-0.0,-1.0,0.09522355564705826,1.0
