x,y,z,nx,ny,nz,curvature,density
32.76261901855469,-29.54425048828125,1.814538598060608,-0.0,-0.0,-1.0,0.037408836767882515,2.0
32.709983825683594,-29.492568969726562,1.7852814197540283,-0.0,-0.0,-1.0,0.03921602631423542,2.0
32.88713455200195,-31.764644622802734,1.6273059844970703,-0.0,-0.0,-1.0,0.12280486123124527,1.0
35.177513122558594,-30.713058471679688,1.3633551597595215,-0.0,-0.0,-1.0,0.09886124950222748,1.0
32.96087646484375,-29.44750213623047,1.7674751281738281,-0.0,-0.0,-1.0,0.04240634216385734,1.0
32.96903991699219,-31.561248779296875,1.6242561340332031,-0.0,-0.0,-1.0,0.17184652916563656,1.0
33.5389404296875,-31.076473236083984,1.1137902736663818,-0.0,-0.0,-1.0,0.12580627252063145,1.0
33.92453384399414,-29.681926727294922,1.2275314331054688,-0.0,-0.0,-1.0,0.1021247418313949,2.0
33.41504669189453,-30.92650604248047,1.2956246137619019,0.5016669135439913,-0.4471079128579616,-0.7405571025350054,0.18068198111594203,3.0
34.70951461791992,-30.986019134521484,1.1803224086761475,-0.0,-0.0,-1.0,0.11644467882745671,1.0
34.87990951538086,-29.84925079345703,0.7552609443664551,-0.0,-0.0,-1.0,0.03391573235060306,1.0
34.45392608642578,-29.963422775268555,1.2852805852890015,-0.0,-0.0,-1.0,0.09920238905631311,2.0
32.752803802490234,-29.532320022583008,1.7616446018218994,-0.0,-0.0,-1.0,0.03921602631423542,1.0
32.736080169677734,-29.56300926208496,1.8179866075515747,-0.0,-0.0,-1.0,0.0391895542100171,2.0
32.754817962646484,-29.603775024414062,1.204702377319336,-0.0,-0.0,-1.0,0.10556357482607294,1.0
32.9566535949707,-29.578086853027344,1.201310396194458,-0.0,-0.0,-1.0,0.13482619706573773,1.0
33.26081085205078,-29.472942352294922,1.287442922592163,-0.0,-0.0,-1.0,0.07436128138532049,1.0
35.17373275756836,-30.76738929748535,0.9835033416748047,-0.0,-0.0,-1.0,0.179039647792485,2.0
32.9036979675293,-29.381807327270508,1.1632096767425537,-0.0,-0.0,-1.0,0.13009029772834552,1.0
33.35454177856445,-29.39394187927246,1.2667999267578125,-0.0,-0.0,-1.0,0.09188218283684413,2.0
33.284854888916016,-29.633277893066406,1.3441262245178223,-0.0,-0.0,-1.0,0.06631068861481525,2.0
33.3668098449707,-29.680601119995117,1.2627201080322266,-0.0,-0.0,-1.0,0.06919049690094743,2.0
32.720333099365234,-29.54754638671875,1.488083839416504,-0.0,-0.0,-1.0,0.037414308540080626,1.0
33.097225189208984,-29.38551902770996,1.243056058883667,-0.0,-0.0,-1.0,0.08541741487586657,1.0
35.105323791503906,-29.570667266845703,0.755439281463623,-0.0,-0.0,-1.0,0.04249542373719619,2.0
33.634490966796875,-29.53695297241211,1.154611349105835,-0.0,-0.0,-1.0,0.15341533644918778,1.0
33.85797882080078,-29.380664825439453,1.0018490552902222,-0.0,-0.0,-1.0,0.06297954498063196,1.0
33.88887023925781,-29.60049819946289,1.191386342048645,-0.0,-0.0,-1.0,0.09249342195045619,1.0
34.71661376953125,-29.781902313232422,0.8066840171813965,-0.0,-0.0,-1.0,0.17724476338684583,1.0
34.44334411621094,-29.62380599975586,0.8092854022979736,-0.0,-0.0,-1.0,0.13792324844690398,1.0
34.783226013183594,-30.265602111816406,0.7998385429382324,-0.0,-0.0,-1.0,0.013601819308039354,1.0
35.10739517211914,-30.073711395263672,0.8019787073135376,-0.0,-0.0,-1.0,0.012091382314746213,2.0
33.97608184814453,-29.530654907226562,0.8876123428344727,-0.0,-0.0,-1.0,0.06629404609833052,1.0
34.32762908935547,-29.681217193603516,0.8903591632843018,-0.0,-0.0,-1.0,0.06637070866737226,1.0
34.06958770751953,-29.71291732788086,0.887403130531311,-0.0,-0.0,-1.0,0.06155727373271631,1.0
34.620697021484375,-30.437782287597656,0.888349711894989,-0.0,-0.0,-1.0,0.011485888695762114,2.0
34.32982635498047,-30.32990264892578,0.886035680770874,-0.0,-0.0,-1.0,0.03987415511654322,1.0
34.624488830566406,-31.34548568725586,0.8822327256202698,-0.0,-0.0,-1.0,0.03513045749092183,1.0
35.089595794677734,-29.412874221801758,0.7877880930900574,-0.0,-0.0,-1.0,0.06561606763265322,1.0
33.86417007446289,-29.90994644165039,1.0476713180541992,-0.0,-0.0,-1.0,0.07069459856838298,1.0
33.81288146972656,-29.526317596435547,1.0459492206573486,-0.0,-0.0,-1.0,0.07873402486163808,1.0
35.128318786621094,-31.49432945251465,0.9362230896949768,-0.0,-0.0,-1.0,0.1599803708835833,1.0
34.32529067993164,-30.231483459472656,0.8922343850135803,-0.0,-0.0,-1.0,0.06900298014928931,1.0
34.165283203125,-30.10794448852539,0.8912883400917053,-0.0,-0.0,-1.0,0.07828235105884332,1.0
34.63102340698242,-29.99018669128418,0.865978479385376,-0.0,-0.0,-1.0,0.08610452960188605,1.0
33.06092834472656,-31.70433807373047,1.349393606185913,-0.0,-0.0,-1.0,0.04043539603926563,1.0
32.81100845336914,-29.47344970703125,1.727874994277954,-0.0,-0.0,-1.0,0.03740883676788255,1.0
32.751399993896484,-29.3923282623291,1.689360499382019,-0.0,-0.0,-1.0,0.03921602631423539,1.0
34.962100982666016,-29.62226104736328,0.7946963310241699,-0.0,-0.0,-1.0,0.06557121290681103,1.0
35.12199401855469,-30.074129104614258,0.8442988395690918,-0.0,-0.0,-1.0,0.012091382314746253,2.0
32.74693298339844,-29.40491485595703,1.7425408363342285,-0.0,-0.0,-1.0,0.03921602631423545,1.0
32.88081741333008,-30.494577407836914,1.8596528768539429,0.3190069581309578,0.36438583726930723,-0.8749042932010219,0.1041218047405271,3.0
32.96921920776367,-30.585582733154297,1.391127109527588,-0.0,-0.0,-1.0,0.19123540406427533,1.0
33.217857360839844,-30.54500961303711,1.3804075717926025,-0.0,-0.0,-1.0,0.12200542608675236,1.0
32.930076599121094,-30.496244430541992,1.485767126083374,-0.0,-0.0,-1.0,0.1288010678937753,1.0
34.08940505981445,-29.861080169677734,0.9167330265045166,-0.0,-0.0,-1.0,0.0853212453537769,1.0
33.83415985107422,-29.531482696533203,1.1044001579284668,-0.0,-0.0,-1.0,0.08678681558019717,1.0
33.79825210571289,-29.41115379333496,1.0680307149887085,-0.0,-0.0,-1.0,0.08006121151299032,1.0
34.02479934692383,-30.206335067749023,1.0576168298721313,-0.0,-0.0,-1.0,0.1665395620271952,2.0
34.68627166748047,-29.68163299560547,0.9038760662078857,-0.0,-0.0,-1.0,0.22570334052805585,1.0
34.232933044433594,-29.90054702758789,0.9075246453285217,-0.0,-0.0,-1.0,0.08825960773163116,1.0
34.113861083984375,-29.384231567382812,0.9874414801597595,-0.0,-0.0,-1.0,0.11482639757129048,1.0
34.241092681884766,-29.882808685302734,0.9810379147529602,-0.0,-0.0,-1.0,0.0843617465638046,1.0
35.13646697998047,-31.57748031616211,0.9555351734161377,-0.0,-0.0,-1.0,0.15544157833391922,1.0
33.06572341918945,-30.633556365966797,1.8978431224822998,-0.0,-0.0,-1.0,0.15832384035080072,1.0
33.354976654052734,-30.897464752197266,1.595656156539917,-0.0,-0.0,-1.0,0.14524439600549496,1.0
35.163883209228516,-29.659992218017578,0.8236963748931885,-0.0,-0.0,-1.0,0.03272895762364529,1.0
33.56757736206055,-29.527177810668945,1.2119295597076416,-0.0,-0.0,-1.0,0.15495198985753592,2.0
34.394229888916016,-29.605541229248047,1.2575151920318604,-0.0,-0.0,-1.0,0.19806999157355903,1.0
34.504512786865234,-29.555248260498047,1.2583186626434326,-0.0,-0.0,-1.0,0.21748161758583123,1.0
34.77451705932617,-30.935352325439453,1.127147912979126,-0.0,-0.0,-1.0,0.12557421892909237,2.0
34.99555206298828,-31.216211318969727,1.3910235166549683,-0.0,-0.0,-1.0,0.15875374808615142,1.0
34.6018180847168,-29.559431076049805,0.8460015654563904,-0.0,-0.0,-1.0,0.16043937592737365,2.0
34.75642395019531,-31.052560806274414,1.158586025238037,-0.0,-0.0,-1.0,0.19096466923691227,1.0
33.01209259033203,-29.391494750976562,1.195975661277771,-0.0,-0.0,-1.0,0.13246360788860612,2.0
34.624977111816406,-29.61505889892578,1.2011041641235352,-0.0,-0.0,-1.0,0.17525284418909495,1.0
34.88491439819336,-31.137622833251953,1.3858295679092407,-0.0,-0.0,-1.0,0.1679670953624482,1.0
32.88080596923828,-30.56749725341797,1.7622158527374268,-0.0,-0.0,-1.0,0.1013554818427113,1.0
32.970237731933594,-30.500402450561523,1.7085037231445312,-0.0,-0.0,-1.0,0.10979574771751865,1.0
32.95292663574219,-31.572702407836914,1.704575538635254,-0.0,-0.0,-1.0,0.15237871997985852,2.0
32.89561462402344,-31.676057815551758,1.7063384056091309,-0.0,-0.0,-1.0,0.16682349167579977,1.0
32.752906799316406,-29.447444915771484,1.0665149688720703,-0.0,-0.0,-1.0,0.1592901485278046,1.0
32.756492614746094,-30.61212921142578,1.6939759254455566,-0.0,-0.0,-1.0,0.09838853827299887,1.0
35.128814697265625,-30.745162963867188,1.5474812984466553,-0.0,-0.0,-1.0,0.10633287129642574,1.0
32.82745361328125,-31.57207489013672,1.4247463941574097,-0.0,-0.0,-1.0,0.11407884592062287,1.0
33.14515686035156,-30.50334930419922,1.383049488067627,-0.0,-0.0,-1.0,0.15703968522266573,1.0
33.51803207397461,-31.745813369750977,1.3452283143997192,-0.0,-0.0,-1.0,0.06864186019710054,1.0
34.19444274902344,-30.2816219329834,1.2590742111206055,-0.0,-0.0,-1.0,0.15604886050396688,1.0
32.93334197998047,-30.76179313659668,1.5994302034378052,-0.0,-0.0,-1.0,0.12003181261717231,1.0
33.147674560546875,-30.886764526367188,1.5783519744873047,-0.0,-0.0,-1.0,0.08126040193030086,1.0
33.728309631347656,-29.51259994506836,1.1192585229873657,-0.0,-0.0,-1.0,0.11133333025387107,2.0
32.9052848815918,-30.56729507446289,1.8203579187393188,-0.0,-0.0,-1.0,0.10135548184271126,2.0
32.797569274902344,-29.455650329589844,1.8091014623641968,-0.18382328696160288,0.6160031164396158,-0.7659955350439802,0.037408836767882515,4.0
32.906890869140625,-29.369037628173828,1.7959699630737305,-0.0,-0.0,-1.0,0.022589333409351587,2.0
33.76875305175781,-29.508533477783203,1.0970970392227173,-0.0,-0.0,-1.0,0.11133333025387115,2.0
32.93118667602539,-30.620391845703125,1.7595436573028564,-0.0,-0.0,-1.0,0.11842013436483045,1.0
32.731231689453125,-29.455263137817383,1.773743987083435,-0.6671249139888228,0.538998528736925,0.5142226513435946,0.03921602631423542,3.0
32.866329193115234,-30.671897888183594,1.3478708267211914,-0.0,-0.0,-1.0,0.2535848105516737,1.0
32.8818359375,-30.452341079711914,1.352470874786377,-0.0,-0.0,-1.0,0.1680459618222527,1.0
33.60100173950195,-29.679397583007812,1.3004688024520874,-0.0,-0.0,-1.0,0.10892286897099436,1.0
33.528533935546875,-29.420001983642578,1.3136684894561768,-0.0,-0.0,-1.0,0.12614379281941035,2.0
32.8419189453125,-30.48525619506836,1.415583610534668,-0.0,-0.0,-1.0,0.19296675955643414,1.0
33.609130859375,-29.460918426513672,1.1778088808059692,-0.0,-0.0,-1.0,0.15456954702934203,1.0
34.62733459472656,-29.712661743164062,1.061678171157837,-0.0,-0.0,-1.0,0.18241101393613984,2.0
32.81756591796875,-30.764488220214844,1.24077308177948,-0.0,-0.0,-1.0,0.25144174985168655,1.0
33.592105865478516,-29.761032104492188,1.2349578142166138,-0.0,-0.0,-1.0,0.07776584765603918,1.0
32.82178497314453,-29.434335708618164,1.8158559799194336,-0.6578333531893743,0.7529570805747088,-0.017632760533593667,0.037408836767882515,3.0
32.87303161621094,-31.510482788085938,1.523425579071045,-0.0,-0.0,-1.0,0.09149627581568007,1.0
34.83269500732422,-31.604040145874023,0.950741171836853,-0.0,-0.0,-1.0,0.008746887727827923,1.0
35.1815185546875,-30.869415283203125,0.9730257987976074,-0.0,-0.0,-1.0,0.2307579407618887,1.0
33.47837448120117,-29.931058883666992,1.1948049068450928,-0.0,-0.0,-1.0,0.06188278239353132,1.0
34.18634033203125,-30.076839447021484,1.1225552558898926,-0.0,-0.0,-1.0,0.14806021997097163,1.0
33.165435791015625,-29.401451110839844,1.261911153793335,-0.0,-0.0,-1.0,0.07626211091986203,1.0
32.856292724609375,-31.67385482788086,1.6336016654968262,-0.0,-0.0,-1.0,0.17184652916563656,1.0
34.654693603515625,-30.956436157226562,1.107133388519287,-0.0,-0.0,-1.0,0.18149357099496397,1.0
33.79142761230469,-29.671619415283203,1.2794694900512695,-0.0,-0.0,-1.0,0.09967474211919133,1.0
32.91748809814453,-31.538665771484375,1.6990690231323242,-0.0,-0.0,-1.0,0.12992310737152193,2.0
32.86977767944336,-30.51318359375,1.7540762424468994,-0.0,-0.0,-1.0,0.10135548184271126,1.0
32.75782775878906,-29.460426330566406,1.8136602640151978,-0.09561790744862461,0.9770977261357122,0.19009799934656546,0.039189554210017116,3.0
32.869773864746094,-29.38549041748047,1.810789942741394,-0.0,-0.0,-1.0,0.033663549851380495,2.0
34.91136169433594,-30.146560668945312,0.7954243421554565,-0.0,-0.0,-1.0,0.009370412923073605,1.0
34.36764144897461,-29.790847778320312,0.8869305849075317,-0.0,-0.0,-1.0,0.09138825746774652,1.0
34.486053466796875,-29.859161376953125,0.8681967258453369,-0.0,-0.0,-1.0,0.15588019271881665,1.0
35.07307434082031,-29.935224533081055,0.8018215894699097,-0.0,-0.0,-1.0,0.018943238978133974,1.0
34.59001922607422,-29.503339767456055,0.8970332145690918,-0.0,-0.0,-1.0,0.18391672534754286,1.0
32.91358947753906,-30.532716751098633,1.8535388708114624,-0.0853856535553585,0.5559682698326723,-0.8268062488311206,0.1013554818427113,5.0
34.732574462890625,-31.00092315673828,0.8658946752548218,-0.0,-0.0,-1.0,0.22745680491229475,1.0
34.81123733520508,-30.599544525146484,0.903963565826416,-0.0,-0.0,-1.0,0.044330965093901706,1.0
35.18434143066406,-30.711673736572266,0.8587762117385864,-0.0,-0.0,-1.0,0.12719624221770118,1.0
34.38688659667969,-30.24378204345703,0.9790270328521729,-0.0,-0.0,-1.0,0.07733273258982482,2.0
33.42182159423828,-30.910892486572266,1.444750428199768,-0.0,-0.0,-1.0,0.18488061669351727,2.0
34.26020431518555,-30.879619598388672,1.3939595222473145,-0.0,-0.0,-1.0,0.1457004378182561,1.0
34.851356506347656,-31.089454650878906,1.3354017734527588,-0.0,-0.0,-1.0,0.11414377710607566,1.0
33.67439270019531,-29.383651733398438,1.1315131187438965,-0.0,-0.0,-1.0,0.08632680129206236,1.0
34.65582275390625,-29.67409896850586,1.0198991298675537,-0.0,-0.0,-1.0,0.1631789174622951,2.0
34.49901580810547,-31.14916229248047,0.8841629028320312,-0.0,-0.0,-1.0,0.126333578178623,1.0
34.86009979248047,-31.00070571899414,0.8845829963684082,-0.0,-0.0,-1.0,0.13527928298690628,1.0
34.710052490234375,-30.857379913330078,0.9111998081207275,-0.0,-0.0,-1.0,0.18192035935422202,1.0
35.17420959472656,-30.775177001953125,0.8958472013473511,-0.0,-0.0,-1.0,0.15325284547746915,1.0
34.586490631103516,-31.234798431396484,1.3419394493103027,-0.0,-0.0,-1.0,0.1392575591901023,1.0
34.12065887451172,-30.412372589111328,0.9987465143203735,-0.0,-0.0,-1.0,0.13133558198020262,2.0
34.00541305541992,-30.298545837402344,1.018974781036377,-0.0,-0.0,-1.0,0.13055232953547863,1.0
34.179962158203125,-30.364553451538086,1.0021854639053345,-0.0,-0.0,-1.0,0.14238145639824726,1.0
32.83903503417969,-29.4188232421875,1.180227279663086,-0.0,-0.0,-1.0,0.1592901485278046,1.0
33.326934814453125,-29.646915435791016,1.1331250667572021,-0.0,-0.0,-1.0,0.07179013017309428,1.0
33.527435302734375,-29.58240509033203,1.1337405443191528,-0.0,-0.0,-1.0,0.11226836203328262,1.0
34.4858512878418,-29.903240203857422,1.0469205379486084,-0.0,-0.0,-1.0,0.13004018337662404,1.0
33.84701156616211,-29.41002082824707,1.1426374912261963,-0.0,-0.0,-1.0,0.06452997641612043,1.0
34.281944274902344,-29.37662124633789,1.1259632110595703,-0.0,-0.0,-1.0,0.13280221447058957,1.0
33.057613372802734,-30.497112274169922,1.4706695079803467,-0.0,-0.0,-1.0,0.18389665432755767,1.0
35.194671630859375,-30.785579681396484,1.3556574583053589,-0.0,-0.0,-1.0,0.09761583050787712,1.0
32.78522872924805,-29.393573760986328,1.585947871208191,-0.0,-0.0,-1.0,0.039216026314235444,1.0
32.72530746459961,-30.64763641357422,1.9075630903244019,-0.0,-0.0,-1.0,0.14620830299448384,1.0
34.0455436706543,-29.730819702148438,0.9361348152160645,-0.0,-0.0,-1.0,0.0781015906222898,2.0
34.32346725463867,-29.9759464263916,0.8968114852905273,-0.0,-0.0,-1.0,0.09634131874915822,1.0
34.944393157958984,-30.49751853942871,0.8109424114227295,-0.0,-0.0,-1.0,0.034946370711319986,1.0
34.03020477294922,-29.436098098754883,0.9803640842437744,-0.0,-0.0,-1.0,0.1320110032745645,1.0
34.661766052246094,-29.868934631347656,0.9086155891418457,-0.0,-0.0,-1.0,0.16888594918547312,1.0
33.415687561035156,-31.75202178955078,1.1126213073730469,-0.0,-0.0,-1.0,0.08215320131839092,1.0
33.203006744384766,-30.460552215576172,1.2604581117630005,-0.0,-0.0,-1.0,0.15827024029520007,1.0
33.066001892089844,-29.430255889892578,1.3783618211746216,-0.0,-0.0,-1.0,0.14773522595554373,1.0
33.06901931762695,-30.56380844116211,1.6790958642959595,-0.0,-0.0,-1.0,0.09815055026100204,1.0
33.11014175415039,-30.496841430664062,1.6846015453338623,-0.0,-0.0,-1.0,0.07779204552107051,1.0
32.89116287231445,-29.45559310913086,1.766481637954712,-0.0,-0.0,-1.0,0.033663549851380495,1.0
34.64450454711914,-31.456893920898438,0.8604015111923218,-0.0,-0.0,-1.0,0.014401819229891491,1.0
34.957305908203125,-31.280874252319336,0.8776812553405762,-0.0,-0.0,-1.0,0.05133615897404308,2.0
35.13517379760742,-29.433116912841797,0.7300373315811157,-0.0,-0.0,-1.0,0.046637992936632545,1.0
34.174564361572266,-30.455766677856445,1.0066994428634644,-0.0,-0.0,-1.0,0.1116129353262508,1.0
34.26025390625,-30.499164581298828,0.9993493556976318,-0.0,-0.0,-1.0,0.09510467084985169,1.0
34.65243911743164,-30.934566497802734,0.9320991039276123,0.9635497075204836,0.17622575176495034,-0.20128697313057428,0.2204323418117128,3.0
33.56964111328125,-29.554344177246094,1.1383742094039917,-0.0,-0.0,-1.0,0.1549519898575359,1.0
34.14556121826172,-30.148029327392578,1.049596905708313,-0.0,-0.0,-1.0,0.15656394466900095,1.0
34.31459045410156,-30.418834686279297,1.0095020532608032,-0.0,-0.0,-1.0,0.08976791271123699,1.0
34.6677360534668,-29.692794799804688,1.102150559425354,-0.0,-0.0,-1.0,0.1777807383003262,1.0
33.01012420654297,-31.60676383972168,1.3172261714935303,-0.0,-0.0,-1.0,0.04570355114683948,1.0
33.055938720703125,-30.717594146728516,1.40901780128479,-0.0,-0.0,-1.0,0.2144705831203369,1.0
33.33489227294922,-31.01297378540039,1.3779820203781128,-0.0,-0.0,-1.0,0.19031715937758556,1.0
33.09714889526367,-30.36541175842285,1.4453492164611816,-0.0,-0.0,-1.0,0.1385402562037881,2.0
32.88771057128906,-30.527170181274414,1.8485918045043945,0.2953710192972923,0.3833214359686278,-0.8751117858229475,0.1013554818427113,4.0
34.57136535644531,-29.548397064208984,0.7948591709136963,-0.0,-0.0,-1.0,0.1399810168628334,1.0
34.82670211791992,-29.39581298828125,0.8132669925689697,-0.0,-0.0,-1.0,0.09065621792285886,1.0
35.11932373046875,-29.588237762451172,0.7686218023300171,-0.0,-0.0,-1.0,0.043250873964175464,2.0
34.29929733276367,-31.621551513671875,0.8853895664215088,-0.0,-0.0,-1.0,0.05503012358673824,1.0
33.390506744384766,-29.803241729736328,1.154362440109253,-0.0,-0.0,-1.0,0.07614115146479584,1.0
34.38066864013672,-31.55333709716797,0.8932008743286133,-0.0,-0.0,-1.0,0.1119769347187284,2.0
33.63373947143555,-29.58161163330078,1.183093786239624,-0.0,-0.0,-1.0,0.13995125247913018,1.0
33.72102355957031,-29.69732093811035,1.1657389402389526,-0.0,-0.0,-1.0,0.12262883455286268,2.0
34.10449981689453,-30.242172241210938,1.0829761028289795,-0.0,-0.0,-1.0,0.1688366477430339,1.0
34.66372299194336,-30.951683044433594,0.9711289405822754,0.9635497075204836,0.17622575176495034,-0.20128697313057428,0.26368472164091095,3.0
34.974952697753906,-31.44951057434082,0.893004298210144,-0.0,-0.0,-1.0,0.03213666711173435,2.0
34.24569320678711,-30.035064697265625,1.1093122959136963,-0.0,-0.0,-1.0,0.17828202938049897,1.0
34.55243682861328,-30.463428497314453,1.0422850847244263,-0.0,-0.0,-1.0,0.027112120355918402,1.0
34.61574172973633,-29.797697067260742,1.133887767791748,-0.0,-0.0,-1.0,0.14426358491702057,1.0
33.026187896728516,-30.60687255859375,1.4501392841339111,-0.0,-0.0,-1.0,0.20615109944498736,1.0
33.271568298339844,-30.31658935546875,1.4793150424957275,-0.0,-0.0,-1.0,0.09179120476373248,1.0
33.344608306884766,-30.910131454467773,1.4161999225616455,-0.0,-0.0,-1.0,0.21490572204997727,2.0
33.385520935058594,-30.934226989746094,1.4133260250091553,0.5066240499609367,0.8342652857087306,0.21756264629413977,0.1903171593775856,3.0
34.177249908447266,-31.851118087768555,1.3069814443588257,-0.0,-0.0,-1.0,0.08169035757553597,1.0
34.20260238647461,-30.807331085205078,1.4163568019866943,-0.08813991306413838,-0.7061999147719102,-0.7025048299486581,0.12725218415243056,3.0
32.910484313964844,-30.517555236816406,1.8609000444412231,0.16032751704609066,0.2707739726674538,-0.9491978418663416,0.1013554818427113,5.0
35.02155303955078,-30.590410232543945,0.8249555826187134,-0.0,-0.0,-1.0,0.04495320727117068,1.0
32.959571838378906,-30.75853729248047,1.2261102199554443,-0.0,-0.0,-1.0,0.19993372483070615,1.0
33.075584411621094,-31.40967559814453,1.1364283561706543,-0.0,-0.0,-1.0,0.07654580263121982,1.0
33.351226806640625,-31.699275970458984,1.093275785446167,-0.0,-0.0,-1.0,0.08370161435421761,1.0
33.11104202270508,-30.50783920288086,1.258624792098999,-0.0,-0.0,-1.0,0.1822644694837376,1.0
33.39049530029297,-30.944246292114258,1.1955320835113525,-0.0,-0.0,-1.0,0.18577221393210946,2.0
33.48209762573242,-31.424522399902344,1.1285758018493652,-0.0,-0.0,-1.0,0.07651237702485962,1.0
33.650081634521484,-31.709325790405273,1.0866049528121948,-0.0,-0.0,-1.0,0.05761299180738811,1.0
33.94825744628906,-31.595897674560547,1.095606803894043,-0.0,-0.0,-1.0,0.05439571026004276,1.0
33.5335693359375,-29.476261138916016,1.0615224838256836,-0.0,-0.0,-1.0,0.10487848311192752,1.0
33.911800384521484,-29.96585464477539,0.9701669216156006,-0.0,-0.0,-1.0,0.06121867828198902,1.0
34.055110931396484,-30.080223083496094,0.9468748569488525,-0.0,-0.0,-1.0,0.09625479558194729,1.0
33.90397262573242,-29.424962997436523,1.0634623765945435,-0.0,-0.0,-1.0,0.059750523305664806,2.0
34.29256057739258,-30.089038848876953,0.9384902715682983,-0.0,-0.0,-1.0,0.11557608070609843,1.0
34.616973876953125,-30.42833709716797,0.8693137168884277,-0.0,-0.0,-1.0,0.011875412814031601,2.0
34.778018951416016,-30.48891830444336,0.8527576923370361,-0.0,-0.0,-1.0,0.023182281456834382,1.0
35.203155517578125,-30.841934204101562,1.1568714380264282,-0.0,-0.0,-1.0,0.10431941553242034,2.0
32.924129486083984,-31.622079849243164,1.514735460281372,-0.0,-0.0,-1.0,0.17184652916563656,2.0
32.9819450378418,-30.588130950927734,1.617944359779358,-0.0,-0.0,-1.0,0.10222985539813952,1.0
33.27185821533203,-31.14727020263672,1.5575380325317383,-0.0,-0.0,-1.0,0.21626720681194375,2.0
33.430274963378906,-30.99441909790039,1.5702701807022095,-0.0,-0.0,-1.0,0.1903171593775855,1.0
35.1886100769043,-30.665172576904297,1.5544263124465942,-0.0,-0.0,-1.0,0.09761583050787703,1.0
34.4865608215332,-31.429134368896484,0.8503296375274658,-0.0,-0.0,-1.0,0.01763976494571121,1.0
34.53803253173828,-29.822120666503906,0.8152608871459961,-0.0,-0.0,-1.0,0.13523221463159418,1.0
35.17228317260742,-30.01722526550293,0.777179479598999,-0.0,-0.0,-1.0,0.013229637415357712,1.0
33.397552490234375,-31.642061233520508,1.1653379201889038,-0.0,-0.0,-1.0,0.06411573708974805,1.0
33.44230651855469,-31.80062484741211,1.1446751356124878,-0.0,-0.0,-1.0,0.07534907592273948,1.0
33.4548454284668,-29.508041381835938,1.1601061820983887,-0.0,-0.0,-1.0,0.09700720961204214,1.0
33.37367248535156,-29.929298400878906,1.0833691358566284,-0.0,-0.0,-1.0,0.06185496784173366,1.0
33.8151741027832,-29.44658660888672,1.0328757762908936,-0.0,-0.0,-1.0,0.07427364121212358,1.0
34.031978607177734,-30.233293533325195,1.051284670829773,-0.0,-0.0,-1.0,0.1584493096605874,2.0
34.137290954589844,-30.76007080078125,0.961235761642456,-0.0,-0.0,-1.0,0.16853179564566034,1.0
34.115909576416016,-31.819822311401367,1.1603174209594727,-0.0,-0.0,-1.0,0.04182052351866077,2.0
34.14141082763672,-29.463481903076172,0.8837822675704956,-0.0,-0.0,-1.0,0.06901638674916964,1.0
34.35230255126953,-29.62405014038086,0.8543472290039062,-0.0,-0.0,-1.0,0.057838820104671965,1.0
34.111671447753906,-30.196243286132812,1.059743881225586,-0.0,-0.0,-1.0,0.19253039596272545,1.0
34.31175994873047,-31.332304000854492,0.8643172979354858,-0.0,-0.0,-1.0,0.0651491994904125,1.0
34.483123779296875,-29.421348571777344,0.8994308710098267,-0.0,-0.0,-1.0,0.19235856381202746,1.0
34.704742431640625,-29.562049865722656,1.0266871452331543,-0.0,-0.0,-1.0,0.23088747932274029,1.0
34.65095520019531,-30.91364288330078,0.9433141946792603,0.9635497075204836,0.17622575176495034,-0.20128697313057428,0.2210348637467287,3.0
35.00457763671875,-31.268184661865234,0.8844066858291626,-0.0,-0.0,-1.0,0.04573592505620905,2.0
35.097686767578125,-31.289884567260742,0.8811173439025879,-0.0,-0.0,-1.0,0.0907158931955444,1.0
32.87181854248047,-31.584623336791992,1.5309923887252808,-0.0,-0.0,-1.0,0.17184652916563656,1.0
33.046356201171875,-29.413618087768555,1.4619821310043335,-0.0,-0.0,-1.0,0.054476232911255876,1.0
33.13218688964844,-30.426616668701172,1.3249919414520264,-0.0,-0.0,-1.0,0.1934627920814766,2.0
32.9944953918457,-30.592885971069336,1.2964520454406738,-0.0,-0.0,-1.0,0.1655155238821544,1.0
33.404502868652344,-30.89539337158203,1.269697904586792,0.41788735654027503,0.8970215089777643,0.14395335937391568,0.2114213042662081,4.0
33.497772216796875,-30.910266876220703,1.6216431856155396,-0.0,-0.0,-1.0,0.1533221065894344,1.0
34.78322982788086,-31.001739501953125,1.2862472534179688,-0.0,-0.0,-1.0,0.09369634144637644,1.0
33.023738861083984,-30.542984008789062,1.644347906112671,-0.0,-0.0,-1.0,0.0947049119764189,1.0
34.659400939941406,-30.174789428710938,0.867741584777832,-0.0,-0.0,-1.0,0.02979292025884242,1.0
34.975852966308594,-29.39076042175293,0.7394119501113892,-0.0,-0.0,-1.0,0.07782909358705108,1.0
34.78911209106445,-30.303930282592773,0.8415560722351074,-0.0,-0.0,-1.0,0.014301472216393675,1.0
34.888023376464844,-30.39311981201172,0.8233364820480347,-0.0,-0.0,-1.0,0.017237765861761387,1.0
34.65718460083008,-31.785507202148438,0.9056473970413208,-0.0,-0.0,-1.0,0.021658456267490956,2.0
35.14211654663086,-30.435272216796875,0.8142167329788208,-0.0,-0.0,-1.0,0.02564371339978489,1.0
35.14924621582031,-31.85688018798828,0.8962894678115845,-0.0,-0.0,-1.0,0.06296840662519818,2.0
32.90798568725586,-31.565692901611328,1.2606201171875,-0.0,-0.0,-1.0,0.056414256410751984,1.0
33.18576431274414,-29.747798919677734,1.2187774181365967,-0.0,-0.0,-1.0,0.05598003798434631,1.0
33.17681121826172,-30.067222595214844,1.1637194156646729,-0.0,-0.0,-1.0,0.07698919394919217,1.0
33.239070892333984,-30.450990676879883,1.1006053686141968,-0.0,-0.0,-1.0,0.15040171597051677,1.0
33.04617691040039,-31.60527801513672,1.260484218597412,-0.0,-0.0,-1.0,0.05040991223932213,1.0
33.50022888183594,-31.731101989746094,1.2584271430969238,-0.0,-0.0,-1.0,0.10561106530004764,1.0
34.049320220947266,-29.711196899414062,0.9548261165618896,-0.0,-0.0,-1.0,0.07962225805932134,2.0
34.14083480834961,-30.478107452392578,1.1231472492218018,-0.0,-0.0,-1.0,0.1065856376802567,1.0
34.02693176269531,-31.704784393310547,0.9090932607650757,-0.0,-0.0,-1.0,0.042828171727065906,1.0
34.47416687011719,-29.881824493408203,0.9268709421157837,-0.0,-0.0,-1.0,0.14271045711653144,1.0
34.4086799621582,-29.94021987915039,1.0675843954086304,-0.0,-0.0,-1.0,0.1692899534605763,1.0
34.32053756713867,-31.668392181396484,0.9212052822113037,-0.0,-0.0,-1.0,0.055030123586738255,1.0
34.69485855102539,-29.71825408935547,0.9631356000900269,-0.0,-0.0,-1.0,0.19529271569783027,1.0
34.72005081176758,-30.902889251708984,1.0583677291870117,-0.0,-0.0,-1.0,0.18872224337798446,1.0
34.8026237487793,-31.49277114868164,0.9574100971221924,-0.0,-0.0,-1.0,0.01433795391787637,1.0
34.93040466308594,-31.568737030029297,0.9451389312744141,-0.0,-0.0,-1.0,0.06983917847255365,1.0
35.201026916503906,-30.764352798461914,1.0838840007781982,-0.0,-0.0,-1.0,0.16142094620713632,1.0
35.180450439453125,-31.598499298095703,0.9404383897781372,-0.0,-0.0,-1.0,0.15544157833391922,1.0
32.95115280151367,-30.510467529296875,1.4051109552383423,-0.0,-0.0,-1.0,0.2217404215341614,1.0
33.26240921020508,-29.596683502197266,1.2478735446929932,-0.0,-0.0,-1.0,0.06126786756032553,1.0
33.12747573852539,-30.377803802490234,1.430025339126587,-0.0,-0.0,-1.0,0.13394379238916646,2.0
33.39079666137695,-30.924808502197266,1.364924669265747,-0.0,-0.0,-1.0,0.19031715937758556,2.0
33.018226623535156,-31.597461700439453,1.6222436428070068,-0.0,-0.0,-1.0,0.17184652916563656,1.0
33.571964263916016,-29.376209259033203,1.2975119352340698,-0.0,-0.0,-1.0,0.13050137933578973,2.0
33.748497009277344,-29.638717651367188,1.2580217123031616,-0.0,-0.0,-1.0,0.10975336630443827,1.0
33.942726135253906,-29.650901794433594,1.2613683938980103,-0.0,-0.0,-1.0,0.09312160225994151,2.0
34.20028305053711,-30.79429817199707,1.4035463333129883,-0.08813991306413838,-0.7061999147719102,-0.7025048299486581,0.12725218415243061,3.0
34.249053955078125,-30.800447463989258,1.4036089181900024,-0.08813991306413838,-0.7061999147719102,-0.7025048299486581,0.0857657353322417,3.0
34.744476318359375,-29.693511962890625,1.266862154006958,-0.0,-0.0,-1.0,0.1590150260205534,1.0
34.885101318359375,-31.039718627929688,1.3790349960327148,-0.0,-0.0,-1.0,0.10706604553366196,1.0
34.059852600097656,-29.448396682739258,0.8517862558364868,-0.0,-0.0,-1.0,0.0854539165060036,1.0
34.52665328979492,-29.622241973876953,0.8176796436309814,-0.0,-0.0,-1.0,0.14382142407316892,1.0
34.86957931518555,-29.523700714111328,0.8425185680389404,-0.0,-0.0,-1.0,0.08452615084000262,1.0
34.89670181274414,-29.709787368774414,0.7976440191268921,-0.0,-0.0,-1.0,0.06473532358825924,1.0
34.48310470581055,-30.638717651367188,0.8940151929855347,-0.0,-0.0,-1.0,0.041094459126419736,1.0
34.66083908081055,-30.9238338470459,0.8378351926803589,-0.0,-0.0,-1.0,0.1675514302994077,1.0
35.02955627441406,-30.757305145263672,0.8730175495147705,-0.0,-0.0,-1.0,0.07997873914775797,1.0
34.942420959472656,-30.896286010742188,0.8446608781814575,-0.0,-0.0,-1.0,0.11445653201483966,1.0
33.08601760864258,-30.31584930419922,1.222711443901062,-0.0,-0.0,-1.0,0.1803264967774331,2.0
33.12253189086914,-30.342758178710938,1.2198623418807983,-0.0,-0.0,-1.0,0.18049941163477531,2.0
33.62721633911133,-29.464094161987305,1.1123058795928955,-0.0,-0.0,-1.0,0.11709426520211567,1.0
33.278533935546875,-31.141029357910156,1.0930341482162476,-0.0,-0.0,-1.0,0.10945262505397821,1.0
33.23651123046875,-31.341236114501953,1.0581055879592896,-0.0,-0.0,-1.0,0.06732123409415829,1.0
34.034576416015625,-29.362642288208008,0.8718276023864746,-0.0,-0.0,-1.0,0.08902030073731232,1.0
34.0926399230957,-30.115474700927734,0.9936989545822144,-0.0,-0.0,-1.0,0.10281503757627757,1.0
34.00642395019531,-30.162086486816406,0.982083797454834,-0.0,-0.0,-1.0,0.1121778184072717,1.0
33.485755920410156,-31.150833129882812,1.0994714498519897,-0.0,-0.0,-1.0,0.08758366684820557,1.0
33.371795654296875,-31.601909637451172,1.0198253393173218,-0.0,-0.0,-1.0,0.07389559990891012,1.0
33.576683044433594,-31.857223510742188,0.9842171669006348,-0.0,-0.0,-1.0,0.05133233854152959,1.0
34.2363395690918,-30.15911865234375,0.987714409828186,-0.0,-0.0,-1.0,0.11304588236029793,1.0
34.31142807006836,-30.321081161499023,0.9560555219650269,-0.0,-0.0,-1.0,0.1482229880453622,1.0
34.32770538330078,-30.77768325805664,1.1845948696136475,-0.0,-0.0,-1.0,0.0527735473179326,1.0
34.75355529785156,-30.93488121032715,1.1638303995132446,-0.0,-0.0,-1.0,0.11790199245459222,2.0
33.10490798950195,-30.399879455566406,1.5159796476364136,-0.0,-0.0,-1.0,0.11253434243790589,2.0
33.41469192504883,-30.90359878540039,1.4614053964614868,-0.0,-0.0,-1.0,0.1848806166935173,2.0
34.78907775878906,-29.691814422607422,1.3720744848251343,-0.0,-0.0,-1.0,0.15357760182177504,1.0
32.923126220703125,-30.477750778198242,1.8052387237548828,-0.0,-0.0,-1.0,0.10412180474052714,1.0
34.05934524536133,-29.80332374572754,0.9290492534637451,-0.0,-0.0,-1.0,0.07086532937386598,1.0
34.5321044921875,-29.813865661621094,0.9205508232116699,-0.0,-0.0,-1.0,0.18411909178952718,1.0
34.32791519165039,-29.91066551208496,0.9017233848571777,-0.0,-0.0,-1.0,0.10786056322443648,1.0
34.64908981323242,-29.812944412231445,0.9180371761322021,-0.0,-0.0,-1.0,0.2526147131221331,1.0
34.56648254394531,-29.922229766845703,0.8949849605560303,-0.0,-0.0,-1.0,0.1609003695122445,1.0
34.09987258911133,-31.180131912231445,0.9380310773849487,-0.0,-0.0,-1.0,0.05958515125989977,1.0
35.12525177001953,-30.146989822387695,0.8264739513397217,-0.0,-0.0,-1.0,0.008270778502212738,1.0
34.886478424072266,-30.3126163482666,0.7973741292953491,-0.0,-0.0,-1.0,0.013722939957692734,1.0
34.35533905029297,-31.534873962402344,0.8676878213882446,-0.0,-0.0,-1.0,0.055030123586738255,2.0
34.45167541503906,-31.645469665527344,0.8453738689422607,-0.0,-0.0,-1.0,0.052651577171690604,2.0
35.015296936035156,-31.42711639404297,0.8762574195861816,-0.0,-0.0,-1.0,0.03381733400233884,2.0
34.767250061035156,-31.4760684967041,0.8725647926330566,-0.0,-0.0,-1.0,0.007014640646561951,1.0
34.4856071472168,-31.667034149169922,0.8407847881317139,-0.0,-0.0,-1.0,0.051145051495194445,2.0
33.571346282958984,-29.54654312133789,1.2513002157211304,-0.0,-0.0,-1.0,0.16846368350003763,2.0
33.390777587890625,-29.939804077148438,1.172897219657898,-0.0,-0.0,-1.0,0.06521548880346666,1.0
33.302425384521484,-30.237253189086914,1.1144866943359375,-0.0,-0.0,-1.0,0.07285245003637998,1.0
33.032005310058594,-30.593475341796875,1.3412425518035889,-0.0,-0.0,-1.0,0.19027899866623285,1.0
34.02505111694336,-29.53274154663086,0.9911255836486816,-0.0,-0.0,-1.0,0.13567098038344672,1.0
33.94733810424805,-29.72010040283203,1.0837619304656982,-0.0,-0.0,-1.0,0.09715075832426494,1.0
33.383243560791016,-30.954322814941406,1.2908748388290405,-0.0,-0.0,-1.0,0.18608373927384703,2.0
33.013450622558594,-31.65660285949707,1.1750651597976685,-0.0,-0.0,-1.0,0.061674900727553425,1.0
34.302486419677734,-30.009510040283203,1.1623215675354004,-0.0,-0.0,-1.0,0.16764940878028517,1.0
34.13774108886719,-30.304039001464844,1.1068848371505737,-0.0,-0.0,-1.0,0.16760471846520208,1.0
33.30777359008789,-31.640491485595703,1.1823947429656982,-0.0,-0.0,-1.0,0.09289004242268074,1.0
33.86286163330078,-31.627975463867188,1.188571572303772,-0.0,-0.0,-1.0,0.05144767932203628,1.0
34.8576545715332,-30.883865356445312,1.2961957454681396,-0.0,-0.0,-1.0,0.10910602590406582,1.0
34.1285285949707,-31.811199188232422,1.1595637798309326,-0.0,-0.0,-1.0,0.041820523518660765,2.0
35.208763122558594,-30.793712615966797,1.1460779905319214,-0.0,-0.0,-1.0,0.13011898138240363,2.0
33.14059066772461,-30.399520874023438,1.3737761974334717,-0.0,-0.0,-1.0,0.18974083144668788,1.0
33.30519104003906,-31.131084442138672,1.578260898590088,-0.0,-0.0,-1.0,0.14138356802730018,2.0
32.963619232177734,-31.60516357421875,1.5160672664642334,-0.0,-0.0,-1.0,0.17184652916563656,2.0
35.05326843261719,-29.98900604248047,0.7823189496994019,-0.0,-0.0,-1.0,0.013987783996559951,1.0
34.87143325805664,-30.023853302001953,0.7856215238571167,-0.0,-0.0,-1.0,0.02659077471024992,1.0
33.35136413574219,-29.55253791809082,1.2093461751937866,-0.0,-0.0,-1.0,0.09359768333628632,1.0
33.90315246582031,-29.442338943481445,1.0999773740768433,-0.0,-0.0,-1.0,0.06266435547272652,2.0
33.714080810546875,-29.661548614501953,1.1817536354064941,-0.0,-0.0,-1.0,0.10872623120961449,2.0
33.365779876708984,-29.91924476623535,1.1322169303894043,-0.0,-0.0,-1.0,0.06544842318935495,1.0
34.19242477416992,-29.679012298583984,1.0337988138198853,-0.0,-0.0,-1.0,0.169150859525879,1.0
33.92391586303711,-30.219799041748047,1.0601396560668945,-0.0,-0.0,-1.0,0.09800129274916407,1.0
33.393253326416016,-30.909759521484375,1.2263760566711426,-0.4375040694909002,0.787451467480196,-0.4341778155804218,0.16871026230484587,4.0
34.689109802246094,-29.683013916015625,1.0118904113769531,-0.0,-0.0,-1.0,0.18616947291467803,2.0
34.57049560546875,-29.763391494750977,0.9988710880279541,-0.0,-0.0,-1.0,0.23166315643277965,1.0
34.207191467285156,-30.25339126586914,1.0448778867721558,-0.0,-0.0,-1.0,0.16824827998527397,1.0
34.08335876464844,-30.39589500427246,1.018792748451233,-0.0,-0.0,-1.0,0.14576446350566108,2.0
33.52347946166992,-30.82909393310547,1.2389445304870605,-0.0,-0.0,-1.0,0.20855885436258684,1.0
33.42243957519531,-30.904495239257812,1.22699773311615,-0.16523231720736714,0.9481452541453613,-0.27151216987809657,0.16871026230484581,3.0
33.34281539916992,-31.62399673461914,1.1026242971420288,-0.0,-0.0,-1.0,0.08370161435421752,1.0
34.712799072265625,-31.022226333618164,1.0181022882461548,-0.0,-0.0,-1.0,0.2261714017292136,1.0
34.45832443237305,-31.172409057617188,0.843755841255188,-0.0,-0.0,-1.0,0.062454764883133604,1.0
35.129066467285156,-30.84206771850586,1.0326590538024902,-0.0,-0.0,-1.0,0.15862203599334973,1.0
34.865196228027344,-31.044170379638672,0.8529262542724609,-0.0,-0.0,-1.0,0.11740592469766237,1.0
33.433406829833984,-29.395065307617188,1.2415765523910522,-0.0,-0.0,-1.0,0.09160990541643975,1.0
33.64397048950195,-29.437145233154297,1.2303136587142944,-0.0,-0.0,-1.0,0.15421450134382364,1.0
33.11737060546875,-30.42580795288086,1.312124490737915,-0.0,-0.0,-1.0,0.19346279208147665,2.0
33.0041618347168,-30.563077926635742,1.4321969747543335,-0.0,-0.0,-1.0,0.20125450624870111,1.0
33.14144515991211,-30.71890640258789,1.4084532260894775,-0.0,-0.0,-1.0,0.21709378839557947,1.0
34.840972900390625,-29.654672622680664,1.403344750404358,-0.0,-0.0,-1.0,0.17570961003849092,1.0
33.56541442871094,-30.789947509765625,1.2452037334442139,-0.0,-0.0,-1.0,0.17711090067542085,1.0
33.423301696777344,-30.922311782836914,1.5231636762619019,-0.0,-0.0,-1.0,0.1848806166935173,1.0
34.27812194824219,-30.78509521484375,1.2302783727645874,-0.0,-0.0,-1.0,0.1424170266674644,1.0
35.20747756958008,-30.739044189453125,1.498272180557251,-0.0,-0.0,-1.0,0.09761583050787707,1.0
34.9529914855957,-31.180370330810547,1.4489853382110596,-0.0,-0.0,-1.0,0.14815440719149794,1.0
32.93400573730469,-30.489572525024414,1.867881417274475,-0.20243789695299907,0.39385555195824123,-0.8966028675332888,0.1041218047405271,3.0
34.001182556152344,-29.45191192626953,0.9223753213882446,-0.0,-0.0,-1.0,0.10820210018619786,1.0
34.61977005004883,-29.577133178710938,0.8467229604721069,-0.0,-0.0,-1.0,0.16043937592737362,2.0
34.29186248779297,-29.696069717407227,0.8405389785766602,-0.0,-0.0,-1.0,0.05321073471403347,1.0
34.76120376586914,-29.829145431518555,0.9018385410308838,-0.0,-0.0,-1.0,0.15699379989153334,1.0
34.396053314208984,-30.239046096801758,0.9673407077789307,-0.0,-0.0,-1.0,0.08016713631246186,2.0
34.26856231689453,-30.24883270263672,0.9727264642715454,-0.0,-0.0,-1.0,0.1392757120340655,1.0
33.091861724853516,-31.28736114501953,1.0879533290863037,-0.0,-0.0,-1.0,0.06569717675080038,1.0
34.69737243652344,-30.535348892211914,0.8819460868835449,-0.0,-0.0,-1.0,0.017632854921965067,1.0
33.41262435913086,-31.36458969116211,1.0653893947601318,-0.0,-0.0,-1.0,0.09686101818244446,1.0
33.18034744262695,-31.42615509033203,1.059743046760559,-0.0,-0.0,-1.0,0.07307694245167498,1.0
34.91225814819336,-30.626863479614258,0.8465045690536499,-0.0,-0.0,-1.0,0.03850694585460418,1.0
33.639122009277344,-31.674636840820312,0.9999574422836304,-0.0,-0.0,-1.0,0.054916330960183654,1.0
33.380287170410156,-31.716014862060547,0.9998679161071777,-0.0,-0.0,-1.0,0.06411573708974819,1.0
34.73539352416992,-31.58902359008789,0.9667779207229614,-0.0,-0.0,-1.0,0.008568443655014479,1.0
34.206687927246094,-31.85298728942871,0.944146990776062,-0.0,-0.0,-1.0,0.0475166813279632,1.0
35.09825134277344,-31.66097640991211,0.9311504364013672,-0.0,-0.0,-1.0,0.1240467286924617,1.0
34.666255950927734,-31.819896697998047,0.9275960922241211,-0.0,-0.0,-1.0,0.02785754593467599,2.0
35.13923645019531,-31.83393096923828,0.896878719329834,-0.0,-0.0,-1.0,0.06296840662519818,2.0
33.46705627441406,-29.41899299621582,1.195930004119873,-0.0,-0.0,-1.0,0.08869637165146398,1.0
33.134185791015625,-29.404701232910156,1.3267914056777954,-0.0,-0.0,-1.0,0.07626211091986203,1.0
33.65022659301758,-29.659940719604492,1.1348775625228882,-0.0,-0.0,-1.0,0.1280644732016112,1.0
33.40350341796875,-29.884708404541016,1.0932269096374512,-0.0,-0.0,-1.0,0.059379015773121616,1.0
33.144657135009766,-30.41651153564453,1.2518306970596313,-0.0,-0.0,-1.0,0.1751424066380672,1.0
33.066341400146484,-30.833301544189453,1.4576526880264282,-0.0,-0.0,-1.0,0.11280508177922596,1.0
34.48844528198242,-29.94548988342285,1.2866030931472778,-0.0,-0.0,-1.0,0.10669204813351413,2.0
34.15046310424805,-30.3997745513916,1.2197738885879517,-0.0,-0.0,-1.0,0.13193557770343994,1.0
33.31135559082031,-30.99259376525879,1.2831213474273682,-0.0,-0.0,-1.0,0.18608373927384692,1.0
34.313751220703125,-30.853736877441406,1.1266815662384033,-0.0,-0.0,-1.0,0.17085978099364085,1.0
34.20783615112305,-30.879104614257812,1.4149818420410156,-0.0,-0.0,-1.0,0.13150290924196384,1.0
33.825439453125,-31.021997451782227,1.1166532039642334,-0.0,-0.0,-1.0,0.07936403981904015,1.0
33.40525817871094,-31.156660079956055,1.1050996780395508,-0.0,-0.0,-1.0,0.07470901176518352,1.0
33.13422393798828,-30.373451232910156,1.5268551111221313,-0.0,-0.0,-1.0,0.11253434243790579,2.0
32.93815231323242,-30.554290771484375,1.638429880142212,-0.0,-0.0,-1.0,0.1293370711476442,1.0
32.977272033691406,-31.7122859954834,1.6358087062835693,-0.0,-0.0,-1.0,0.14280682304996534,1.0
34.61628723144531,-29.71879005432129,1.050994873046875,-0.0,-0.0,-1.0,0.18241101393613987,2.0
32.81196212768555,-29.44279670715332,1.8210183382034302,-0.6578333531893743,0.7529570805747088,-0.017632760533593667,0.037408836767882515,3.0
32.756351470947266,-30.513164520263672,1.0495262145996094,-0.0,-0.0,-1.0,0.21684325748422925,1.0
33.38779830932617,-31.10887908935547,0.854116678237915,-0.0,-0.0,-1.0,0.07470717284191605,1.0
33.052833557128906,-30.881378173828125,1.2789878845214844,-0.0,-0.0,-1.0,0.1294235682499035,1.0
32.80727767944336,-30.550724029541016,1.6594808101654053,-0.0,-0.0,-1.0,0.09838853827299907,1.0
34.70146942138672,-29.50246238708496,0.8234374523162842,-0.0,-0.0,-1.0,0.13320546532090297,1.0
35.07511901855469,-29.593685150146484,0.8469810485839844,-0.0,-0.0,-1.0,0.0490632916997639,1.0
33.495506286621094,-29.759902954101562,1.2728309631347656,-0.0,-0.0,-1.0,0.09677872004689436,1.0
32.81658172607422,-29.391265869140625,1.2434515953063965,-0.0,-0.0,-1.0,0.08908971708979398,1.0
33.00739288330078,-29.38983154296875,1.2420973777770996,-0.0,-0.0,-1.0,0.13312454532242154,2.0
35.19645690917969,-30.824052810668945,1.0318169593811035,-0.0,-0.0,-1.0,0.22092605844307384,1.0
32.932090759277344,-29.374998092651367,1.3363847732543945,-0.0,-0.0,-1.0,0.06808425581785417,1.0
33.300872802734375,-29.38047218322754,1.3168153762817383,-0.0,-0.0,-1.0,0.08058515792622699,1.0
33.34593200683594,-29.674264907836914,1.2765979766845703,-0.0,-0.0,-1.0,0.06903554946767623,2.0
35.0324592590332,-31.024084091186523,0.9538211822509766,-0.0,-0.0,-1.0,0.13357084112998452,1.0
35.170074462890625,-30.737218856811523,0.9654116630554199,-0.0,-0.0,-1.0,0.17903964779248502,2.0
33.343780517578125,-29.39681053161621,1.2780451774597168,-0.0,-0.0,-1.0,0.09188218283684417,2.0
33.39838790893555,-29.802324295043945,1.2349934577941895,-0.0,-0.0,-1.0,0.07916587451858888,1.0
32.86279296875,-29.387739181518555,1.3282217979431152,-0.0,-0.0,-1.0,0.046525310334070424,1.0
34.37773132324219,-31.705583572387695,0.9337482452392578,-0.0,-0.0,-1.0,0.055030123586738235,1.0
33.58451461791992,-29.625322341918945,1.1646051406860352,-0.0,-0.0,-1.0,0.1251802441984778,1.0
33.58867263793945,-30.06570816040039,1.1393909454345703,-0.0,-0.0,-1.0,0.047608545622078814,2.0
33.592838287353516,-30.61184310913086,1.1076173782348633,-0.0,-0.0,-1.0,0.042491926409266925,1.0
33.58170700073242,-31.156816482543945,1.0772933959960938,-0.0,-0.0,-1.0,0.08389791373889648,1.0
34.165687561035156,-31.755748748779297,0.9986028671264648,-0.0,-0.0,-1.0,0.04626025072825635,1.0
34.702972412109375,-31.532405853271484,0.9241609573364258,-0.0,-0.0,-1.0,0.0072889776878304925,1.0
33.67506408691406,-29.423009872436523,1.1663546562194824,-0.0,-0.0,-1.0,0.1387235268402065,1.0
33.674407958984375,-29.942550659179688,1.1471281051635742,-0.0,-0.0,-1.0,0.06437068806621479,1.0
33.562164306640625,-30.039142608642578,1.1611080169677734,-0.0,-0.0,-1.0,0.054716971203167424,2.0
33.74921798706055,-30.990585327148438,1.0943055152893066,-0.0,-0.0,-1.0,0.1156408897413439,1.0
32.7236328125,-30.43557357788086,1.2442197799682617,-0.0,-0.0,-1.0,0.2340390432366701,1.0
32.81126022338867,-30.307231903076172,1.2210283279418945,-0.0,-0.0,-1.0,0.13627152902087464,1.0
32.948883056640625,-30.808650970458984,1.2218408584594727,-0.0,-0.0,-1.0,0.19993372483070618,1.0
33.37236785888672,-30.258346557617188,1.2850089073181152,-0.0,-0.0,-1.0,0.08108283226012067,1.0
33.28701400756836,-29.915306091308594,1.2786178588867188,-0.0,-0.0,-1.0,0.06544842318935487,1.0
33.61030960083008,-29.471355438232422,1.2768759727478027,-0.0,-0.0,-1.0,0.16977373010291638,1.0
33.74638748168945,-29.70708465576172,1.303288459777832,-0.0,-0.0,-1.0,0.12262883455286266,1.0
33.5452766418457,-29.384971618652344,1.330611228942871,-0.7151772830842151,0.5502602084392104,-0.4309700184104658,0.12710765631747634,3.0
35.13362121582031,-31.03106117248535,1.0261211395263672,-0.0,-0.0,-1.0,0.18537902655058391,1.0
33.368656158447266,-30.032302856445312,1.261106014251709,-0.0,-0.0,-1.0,0.076817867630934,1.0
33.31483840942383,-29.605571746826172,1.3296899795532227,-0.0,-0.0,-1.0,0.06279029707157112,2.0
33.164798736572266,-29.863550186157227,1.2281599044799805,-0.0,-0.0,-1.0,0.04947204457772646,1.0
33.136470794677734,-30.161848068237305,1.252065658569336,-0.0,-0.0,-1.0,0.11676155300566554,1.0
