x,y,z,nx,ny,nz,curvature,density,label
27.42059898376465,-21.993362426757812,0.6060124635696411,-0.0,-0.0,-1.0,0.16348520832975308,1.0,1
25.719058990478516,-22.293882369995117,1.0179243087768555,-0.0,-0.0,-1.0,0.09411913171027113,2.0,2
25.397417068481445,-22.39950942993164,1.019715428352356,-0.0,-0.0,-1.0,0.17430128467464215,1.0,2
26.647891998291016,-21.966848373413086,1.01129150390625,0.15278883030921916,0.48833513023253233,-0.8591765673675679,0.15726942456538337,4.0,2
25.975339889526367,-22.680837631225586,0.9813294410705566,-0.0,-0.0,-1.0,0.1806464708054818,1.0,1
25.246274948120117,-22.96753692626953,0.9817118644714355,0.5066828478479345,-0.7725938230625601,0.38258499220733216,0.13392633175868646,3.0,1
27.159847259521484,-21.917015075683594,0.9961299896240234,0.8363699479611756,-0.1288311181836747,-0.5328112734683492,0.15447668397947442,3.0,1
26.906497955322266,-22.115005493164062,0.9911653399467468,-0.0,-0.0,-1.0,0.17977965722915204,2.0,1
26.60000991821289,-22.661148071289062,0.9621697664260864,-0.0,-0.0,-1.0,0.2101460015570942,1.0,1
26.191102981567383,-22.77447509765625,0.9675012230873108,-0.0,-0.0,-1.0,0.22117301062027014,2.0,1
26.04671859741211,-22.932716369628906,0.9604310393333435,-0.0,-0.0,-1.0,0.23546486081217655,1.0,1
27.524009704589844,-21.900938034057617,0.9831928014755249,-0.0,-0.0,-1.0,0.14704592239585806,1.0,1
26.47552490234375,-22.85801124572754,0.9519243240356445,-0.0,-0.0,-1.0,0.26835609468234056,2.0,1
25.318927764892578,-23.197032928466797,1.3586645126342773,0.6103251415617726,-0.779701066225174,0.13989091787863944,0.2074103509775763,4.0,2
25.45667839050293,-23.309005737304688,1.3509600162506104,-0.3833641831175387,-0.13006145268371724,-0.9143937454009751,0.11531268762515304,3.0,2
27.55339813232422,-23.083335876464844,1.307004451751709,-0.0,-0.0,-1.0,0.18430283647169102,2.0,2
26.020601272583008,-21.869144439697266,0.5953346490859985,-0.0,-0.0,-1.0,0.20654907495197727,1.0,1
25.458118438720703,-22.032699584960938,0.9563442468643188,-0.0,-0.0,-1.0,0.14251245946344313,1.0,1
25.48597526550293,-22.268280029296875,0.935481607913971,-0.0,-0.0,-1.0,0.18525465609855496,1.0,1
26.253520965576172,-21.90378189086914,0.9104443788528442,-0.0,-0.0,-1.0,0.0902884223563636,1.0,1
25.837318420410156,-22.184741973876953,0.9178479909896851,-0.0,-0.0,-1.0,0.13010308720630587,1.0,1
25.945165634155273,-22.50517463684082,0.8846607208251953,-0.0,-0.0,-1.0,0.13023131801557844,1.0,1
25.563182830810547,-22.713092803955078,0.8944004774093628,-0.0,-0.0,-1.0,0.1832973967648033,1.0,1
26.64386749267578,-21.89194107055664,0.8826576471328735,-0.0,-0.0,-1.0,0.15416794136904782,1.0,1
26.468189239501953,-22.000288009643555,0.8871496915817261,-0.0,-0.0,-1.0,0.12896363383873727,2.0,1
26.11344337463379,-22.699172973632812,0.8572997450828552,-0.0,-0.0,-1.0,0.261021651843433,1.0,1
27.361385345458984,-21.87729263305664,0.8290756940841675,0.4391856478687751,0.887842236288049,0.13730305957669223,0.1123739986598598,5.0,1
27.108230590820312,-21.979896545410156,0.8407120704650879,-0.18795418428634042,-0.9800068560260503,-0.06526704184496591,0.23705210834377277,4.0,1
26.81215476989746,-22.3175106048584,0.8367313146591187,-0.0,-0.0,-1.0,0.17369757251256096,1.0,1
26.91998291015625,-24.311809539794922,0.6713488101959229,-0.0,-0.0,-1.0,0.1458009585296009,1.0,1
25.46003532409668,-22.118518829345703,1.2845205068588257,-0.0,-0.0,-1.0,0.1618866695719514,2.0,2
25.684921264648438,-23.21568489074707,1.2201554775238037,-0.0,-0.0,-1.0,0.25563231956757837,1.0,2
27.038551330566406,-22.010601043701172,1.1935827732086182,-0.0,-0.0,-1.0,0.19555938634515743,1.0,2
27.365108489990234,-23.05508041381836,1.1257038116455078,-0.0,-0.0,-1.0,0.19912448453437626,1.0,2
27.647354125976562,-23.12034034729004,1.1052231788635254,-0.0,-0.0,-1.0,0.1458379004225731,2.0,2
26.96551513671875,-24.200416564941406,1.0976327657699585,-0.0,-0.0,-1.0,0.12554044720658897,1.0,2
27.428451538085938,-24.361095428466797,1.0620155334472656,-0.0,-0.0,-1.0,0.18207462085486448,1.0,2
25.216794967651367,-22.740245819091797,1.0704740285873413,-0.0,-0.0,-1.0,0.08945423455179295,2.0,2
25.462162017822266,-22.900768280029297,1.0365099906921387,-0.0,-0.0,-1.0,0.16032662867201386,1.0,2
25.429834365844727,-23.217575073242188,1.0102427005767822,-0.0,-0.0,-1.0,0.1799886325630511,2.0,2
26.47576904296875,-21.876567840576172,0.7263681888580322,-0.0,-0.0,-1.0,0.1206728415909649,1.0,1
26.01551055908203,-22.353469848632812,0.7167750597000122,-0.0,-0.0,-1.0,0.16735969589462824,1.0,1
26.075538635253906,-22.630355834960938,0.8436094522476196,-0.0,-0.0,-1.0,0.2787858726820661,1.0,1
25.866579055786133,-23.010541915893555,0.9938180446624756,-0.0,-0.0,-1.0,0.19844553943056123,1.0,1
25.75660514831543,-23.22945213317871,0.9831935167312622,-0.0,-0.0,-1.0,0.22789688632929303,1.0,1
26.99904441833496,-21.88105010986328,0.8319169282913208,-0.0,-0.0,-1.0,0.14431990284236432,1.0,1
26.870515823364258,-22.114652633666992,0.9844756126403809,-0.0,-0.0,-1.0,0.20808584001739364,2.0,1
26.605636596679688,-22.587308883666992,0.9679745435714722,-0.0,-0.0,-1.0,0.22076713426335073,1.0,1
26.361358642578125,-22.749116897583008,0.8060246706008911,-0.0,-0.0,-1.0,0.25249357966340596,1.0,1
27.265506744384766,-21.947938919067383,0.7948968410491943,-0.0,-0.0,-1.0,0.16934528281279304,1.0,1
26.990676879882812,-22.201431274414062,0.9659435749053955,-0.0,-0.0,-1.0,0.2545782886365951,2.0,1
26.679603576660156,-22.735939025878906,0.9484508037567139,-0.0,-0.0,-1.0,0.19394402185579931,2.0,1
27.6712589263916,-22.076324462890625,0.5687155723571777,-0.0,-0.0,-1.0,0.2614638389063999,1.0,1
27.410369873046875,-24.260541915893555,0.7504206895828247,-0.0,-0.0,-1.0,0.18748334789740978,1.0,1
25.354551315307617,-22.239776611328125,1.1051560640335083,-0.024982228456461576,0.26056287587430976,-0.9651336052472002,0.22183613230677132,3.0,2
25.639068603515625,-22.400005340576172,1.0676287412643433,-0.0,-0.0,-1.0,0.2431912403256115,1.0,2
25.506383895874023,-22.86392593383789,1.367844820022583,-0.0,-0.0,-1.0,0.1677718067719484,2.0,2
25.32484245300293,-23.17611312866211,1.3621639013290405,0.21322688748524513,0.10224609464261881,-0.9716378083337882,0.1361424975991632,3.0,2
26.53959083557129,-21.93187713623047,1.0307233333587646,-0.0,-0.0,-1.0,0.1492254328330082,2.0,2
26.238126754760742,-22.195514678955078,1.034837007522583,-0.0,-0.0,-1.0,0.1271223817005603,1.0,2
25.47064208984375,-23.306777954101562,1.3447887897491455,0.020344354847988324,0.13915331440588455,-0.9900618477224924,0.11531268762515304,4.0,2
26.65544319152832,-22.023780822753906,1.0121912956237793,-0.0,-0.0,-1.0,0.18464255624301967,2.0,2
27.098024368286133,-23.064958572387695,1.2417635917663574,0.9743574521313476,0.15702609751763769,0.16115321955980305,0.08893758005248918,3.0,2
27.481719970703125,-23.099769592285156,1.210627555847168,-0.0,-0.0,-1.0,0.15134216689490607,1.0,2
27.62199592590332,-24.21790313720703,1.1392741203308105,-0.0,-0.0,-1.0,0.22810659813149475,1.0,2
25.439599990844727,-22.117525100708008,0.9131503105163574,-0.0,-0.0,-1.0,0.1477865786721794,2.0,1
25.234098434448242,-22.559886932373047,0.8748501539230347,-0.0,-0.0,-1.0,0.1510613341330876,1.0,1
26.023466110229492,-21.939462661743164,0.875044584274292,-0.0,-0.0,-1.0,0.17314040295735694,1.0,1
25.80511474609375,-22.205251693725586,0.8643573522567749,-0.0,-0.0,-1.0,0.10031774175245733,1.0,1
25.50613784790039,-22.777141571044922,0.8198285102844238,-0.0,-0.0,-1.0,0.12124076848738888,2.0,1
25.543947219848633,-22.94568634033203,0.7938947677612305,-0.0,-0.0,-1.0,0.20211361259318295,2.0,1
26.403987884521484,-21.996431350708008,0.8261117935180664,-0.0,-0.0,-1.0,0.08867549714791906,2.0,1
26.081396102905273,-22.580242156982422,0.7871652841567993,-0.0,-0.0,-1.0,0.169589079230757,2.0,1
26.040403366088867,-22.773582458496094,0.7665259838104248,-0.0,-0.0,-1.0,0.16871817052453436,1.0,1
25.718265533447266,-23.250507354736328,1.0613915920257568,-0.0,-0.0,-1.0,0.25290511222290707,1.0,2
27.031131744384766,-21.906436920166016,0.7646582126617432,-0.0,-0.0,-1.0,0.12188330834673004,1.0,1
26.568958282470703,-22.843286514282227,0.8639824390411377,-0.0,-0.0,-1.0,0.260741940800988,1.0,1
26.548831939697266,-23.005937576293945,0.8488709926605225,-0.0,-0.0,-1.0,0.17558175739321183,1.0,1
27.463958740234375,-21.86672592163086,0.716935396194458,-0.0,-0.0,-1.0,0.049542878811905874,1.0,1
27.024682998657227,-22.583871841430664,1.0085879564285278,-0.0,-0.0,-1.0,0.2641824311873427,1.0,2
26.817800521850586,-22.801321029663086,1.007737159729004,-0.0,-0.0,-1.0,0.24169886693162165,1.0,2
26.605060577392578,-23.102519989013672,0.6646308898925781,-0.0,-0.0,-1.0,0.13933482507388334,2.0,1
27.377609252929688,-22.89331817626953,0.9460742473602295,-0.0,-0.0,-1.0,0.16818948729387867,1.0,1
27.294414520263672,-22.950756072998047,0.9487292766571045,-0.0,-0.0,-1.0,0.13375503068604555,2.0,1
26.847904205322266,-24.187408447265625,0.8722008466720581,-0.0,-0.0,-1.0,0.13893350894946208,2.0,1
27.703237533569336,-24.236478805541992,0.7896592617034912,-0.0,-0.0,-1.0,0.21804829296072742,1.0,1
25.485700607299805,-22.406003952026367,1.1646393537521362,-0.0,-0.0,-1.0,0.1236980981790672,1.0,2
25.27548599243164,-22.880603790283203,1.134765863418579,-0.0,-0.0,-1.0,0.13400640840294575,1.0,2
25.633291244506836,-22.52224349975586,1.1406283378601074,-0.0,-0.0,-1.0,0.14182737349279062,1.0,2
25.599727630615234,-22.969398498535156,1.0991449356079102,-0.0,-0.0,-1.0,0.23385793253001427,2.0,2
25.50178337097168,-23.30088996887207,1.2357360124588013,-0.0,-0.0,-1.0,0.10756798105542884,1.0,2
26.25436782836914,-22.728710174560547,1.0661680698394775,-0.0,-0.0,-1.0,0.16995382757347513,1.0,2
26.136856079101562,-22.806482315063477,1.0690637826919556,-0.0,-0.0,-1.0,0.1532686270855348,2.0,2
25.81524658203125,-22.99983024597168,1.078047752380371,-0.0,-0.0,-1.0,0.1807653614855766,1.0,2
27.219280242919922,-21.86939239501953,1.0551178455352783,-0.0,-0.0,-1.0,0.16011051827269326,1.0,2
27.068073272705078,-22.025779724121094,1.0558764934539795,-0.9430766789042754,-0.3311220337004662,-0.031057631991984854,0.21577091263092554,4.0,2
26.776721954345703,-22.48371124267578,1.041505217552185,-0.0,-0.0,-1.0,0.12492013549717682,1.0,2
26.579429626464844,-22.70485496520996,1.0389461517333984,-0.5219946809597309,-0.8422081206013665,0.13493344523454034,0.12094391804966202,4.0,2
27.262922286987305,-22.011533737182617,1.0379438400268555,-0.0,-0.0,-1.0,0.15801105334987242,1.0,2
27.097381591796875,-22.998279571533203,1.2995853424072266,0.7446326232196708,0.4260216291796819,-0.5138363824293504,0.08085327189858538,4.0,2
27.609769821166992,-22.986438751220703,1.2610410451889038,-0.0,-0.0,-1.0,0.12334884757974593,2.0,2
27.681737899780273,-24.306034088134766,1.1719529628753662,-0.0,-0.0,-1.0,0.12447511923980807,1.0,2
26.15182876586914,-22.38165283203125,0.608741044998169,-0.0,-0.0,-1.0,0.11351606812790453,1.0,1
25.573219299316406,-22.119977951049805,0.8741234540939331,0.03422527087913905,-0.5937061643432258,-0.803953743230358,0.07586270994269234,5.0,1
25.494306564331055,-22.3990421295166,0.9866898059844971,-0.0,-0.0,-1.0,0.19385791389457502,2.0,1
25.30141258239746,-22.91672706604004,0.9504259824752808,-0.0,-0.0,-1.0,0.2768274310111068,1.0,1
25.337417602539062,-23.218812942504883,0.9100184440612793,-0.0,-0.0,-1.0,0.18223881066608433,2.0,1
26.057331085205078,-21.961650848388672,0.9606173038482666,-0.0,-0.0,-1.0,0.1805764064994363,1.0,1
25.824260711669922,-22.285701751708984,0.9562127590179443,-0.0,-0.0,-1.0,0.15050528348231437,2.0,1
25.97089958190918,-22.63572883605957,0.8966820240020752,-0.0,-0.0,-1.0,0.234241852257463,1.0,1
25.707111358642578,-22.948745727539062,0.895116925239563,-0.0,-0.0,-1.0,0.1988723494886778,1.0,1
26.460803985595703,-21.99911880493164,0.8992648124694824,-0.0,-0.0,-1.0,0.12576811088616005,2.0,1
26.475791931152344,-22.495624542236328,0.8430905342102051,-0.0,-0.0,-1.0,0.2190688484214165,1.0,1
26.169795989990234,-22.870452880859375,0.8432090282440186,-0.0,-0.0,-1.0,0.14044126494323178,2.0,1
26.883909225463867,-22.000993728637695,0.8373223543167114,-0.0,-0.0,-1.0,0.16058887143685413,1.0,1
26.641515731811523,-22.62348175048828,0.8056881427764893,-0.0,-0.0,-1.0,0.1668178170462513,1.0,1
26.478586196899414,-22.876434326171875,0.8004695177078247,-0.0,-0.0,-1.0,0.2291152044256063,1.0,1
26.38610076904297,-23.038476943969727,0.7949843406677246,-0.0,-0.0,-1.0,0.12456266101365443,1.0,1
27.30825424194336,-21.87364959716797,0.7865381240844727,0.3419223158418816,0.2624102647995505,-0.9023469304303943,0.07092886876547977,3.0,1
27.172550201416016,-23.078353881835938,1.010148286819458,-0.0,-0.0,-1.0,0.06336555003324211,1.0,2
26.63077735900879,-24.178789138793945,0.9850907325744629,-0.0,-0.0,-1.0,0.1566045211961105,1.0,1
27.62118148803711,-22.817853927612305,0.9741921424865723,-0.0,-0.0,-1.0,0.22008936631277634,1.0,1
27.407855987548828,-23.048110961914062,0.9833699464797974,-0.0,-0.0,-1.0,0.16824542589593336,2.0,1
27.12954330444336,-24.214614868164062,0.9239943027496338,-0.0,-0.0,-1.0,0.15550537230885567,1.0,1
27.696908950805664,-24.143020629882812,0.8616952896118164,-0.0,-0.0,-1.0,0.19764649832246198,1.0,1
25.324434280395508,-22.105316162109375,1.308411955833435,-0.0,-0.0,-1.0,0.1968999927541247,1.0,2
25.43703842163086,-22.970975875854492,1.221997618675232,-0.0,-0.0,-1.0,0.2383160604766304,1.0,2
25.267894744873047,-23.39118194580078,1.2039759159088135,-0.0,-0.0,-1.0,0.11022359840884043,1.0,2
25.698171615600586,-23.398643493652344,1.1564421653747559,-0.0,-0.0,-1.0,0.1733218714688177,1.0,2
26.994068145751953,-22.057327270507812,1.1115007400512695,-0.580113754170986,0.01597734711780981,0.8143787550032983,0.16556212235677004,4.0,2
26.937259674072266,-22.516141891479492,1.08329439163208,-0.0,-0.0,-1.0,0.1992908136236967,1.0,2
26.681068420410156,-23.000064849853516,1.076129674911499,-0.0,-0.0,-1.0,0.16546378138673973,1.0,2
27.18621063232422,-21.95946502685547,1.0944054126739502,0.21614012031816648,0.9690200764843453,-0.11951376388986375,0.23439248222590076,3.0,2
27.101036071777344,-22.087875366210938,1.0956401824951172,-0.7349651098865126,-0.3525871680562699,0.5792310214168144,0.22120361331093646,3.0,2
27.027849197387695,-22.69969367980957,1.0577279329299927,-0.0,-0.0,-1.0,0.18698077773527944,1.0,2
27.033655166625977,-22.902080535888672,1.0409876108169556,-0.0,-0.0,-1.0,0.17236024084128707,1.0,2
27.313447952270508,-23.13912010192871,1.3191273212432861,-0.0,-0.0,-1.0,0.07833568290851801,1.0,2
27.531301498413086,-24.359832763671875,1.2357012033462524,-0.0,-0.0,-1.0,0.14184619846217955,1.0,2
25.607763290405273,-24.33283233642578,0.6487956047058105,-0.0,-0.0,-1.0,0.08552591196613162,2.0,1
25.906482696533203,-22.073219299316406,0.6731982231140137,-0.0,-0.0,-1.0,0.17344489382407505,1.0,1
26.362712860107422,-22.061203002929688,0.5634949207305908,-0.0,-0.0,-1.0,0.1671538103079902,1.0,1
25.26458740234375,-22.097633361816406,0.9444136619567871,-0.0,-0.0,-1.0,0.1005110658179376,1.0,1
25.313316345214844,-22.563634872436523,0.9845919609069824,-0.0,-0.0,-1.0,0.14999231177500916,2.0,1
25.210477828979492,-22.879972457885742,0.9552785158157349,-0.0,-0.0,-1.0,0.14280620678344752,1.0,1
25.332958221435547,-23.18157958984375,0.8840528726577759,-0.0,-0.0,-1.0,0.16521066496941567,2.0,1
25.602237701416016,-22.14053726196289,0.8622490167617798,-0.0,-0.0,-1.0,0.0617971794026972,2.0,1
25.53038215637207,-22.420795440673828,0.9625158309936523,-0.0,-0.0,-1.0,0.2469268554286978,2.0,1
25.7814998626709,-22.953432083129883,0.8301646709442139,-0.0,-0.0,-1.0,0.1270008094855042,1.0,1
25.73628807067871,-23.241323471069336,0.7953746318817139,-0.0,-0.0,-1.0,0.20046115074474782,1.0,1
25.97237777709961,-22.22343635559082,0.8982802629470825,-0.19540899274941506,-0.09204710118142108,-0.97639267547271,0.18775589777080828,3.0,1
26.141220092773438,-22.43311309814453,0.8312677145004272,-0.0,-0.0,-1.0,0.16979168440007614,1.0,1
26.077877044677734,-22.86048126220703,0.7822494506835938,-0.0,-0.0,-1.0,0.17631090229870866,1.0,1
26.0504150390625,-23.533504486083984,0.9916895627975464,-0.0,-0.0,-1.0,0.2134697583063661,2.0,1
26.53496551513672,-22.002559661865234,0.8032819032669067,-0.0,-0.0,-1.0,0.1431145967994621,1.0,1
26.64272117614746,-22.530139923095703,0.8520307540893555,-0.0,-0.0,-1.0,0.2448228311757802,1.0,1
26.53390121459961,-22.776193618774414,0.8414136171340942,-0.0,-0.0,-1.0,0.15690194459226856,1.0,1
26.946971893310547,-22.080259323120117,0.8371767997741699,-0.0,-0.0,-1.0,0.17649879503916657,1.0,1
26.81168556213379,-22.538511276245117,0.812956690788269,-0.0,-0.0,-1.0,0.19095817598105289,1.0,1
26.755401611328125,-22.817659378051758,0.7901599407196045,-0.0,-0.0,-1.0,0.2730924428029521,1.0,1
26.789276123046875,-24.218730926513672,0.7711716890335083,-0.0,-0.0,-1.0,0.2029103093817177,1.0,1
27.140399932861328,-21.957073211669922,0.8086540699005127,-0.0,-0.0,-1.0,0.2032254891758901,2.0,1
27.36358642578125,-22.802722930908203,0.8152127265930176,-0.0,-0.0,-1.0,0.14108252819158457,1.0,1
27.31563949584961,-24.166465759277344,0.6753511428833008,-0.0,-0.0,-1.0,0.2002150423031169,1.0,1
25.528881072998047,-22.031600952148438,1.268951654434204,-0.0,-0.0,-1.0,0.2237044104210421,1.0,2
26.820688247680664,-21.952768325805664,1.017754316329956,-0.0,-0.0,-1.0,0.1352140979340021,1.0,2
27.154468536376953,-21.892990112304688,1.2294797897338867,-0.0,-0.0,-1.0,0.17365180462580634,1.0,2
27.48027992248535,-22.977888107299805,1.0866138935089111,-0.0,-0.0,-1.0,0.14788503624559265,1.0,2
27.311050415039062,-24.195098876953125,1.0184669494628906,-0.0,-0.0,-1.0,0.22267335156948936,1.0,2
27.518245697021484,-23.221372604370117,1.0606262683868408,-0.0,-0.0,-1.0,0.2767361176680685,1.0,2
27.50914764404297,-24.2519588470459,0.9787708520889282,-0.0,-0.0,-1.0,0.19910421443102072,2.0,1
26.58843421936035,-24.0067081451416,0.6867969036102295,-0.0,-0.0,-1.0,0.12820601113867908,1.0,1
26.425918579101562,-22.690673828125,0.6473376750946045,-0.0,-0.0,-1.0,0.1253764530795103,1.0,1
26.92439842224121,-24.08738899230957,0.6113898754119873,-0.0,-0.0,-1.0,0.14987905664719736,1.0,1
25.406171798706055,-22.20177459716797,0.9540022611618042,-0.0,-0.0,-1.0,0.19958855089647504,1.0,1
25.32860565185547,-22.615550994873047,0.8865619897842407,-0.0,-0.0,-1.0,0.23387944999933177,1.0,1
25.489866256713867,-22.904521942138672,0.932397723197937,-0.0,-0.0,-1.0,0.16765620140963028,1.0,1
25.67436981201172,-23.184682846069336,0.9858134984970093,-0.0,-0.0,-1.0,0.1923640095763076,1.0,1
25.59287452697754,-22.22846794128418,0.9111683368682861,-0.0,-0.0,-1.0,0.22103315505787222,2.0,1
25.704814910888672,-22.615982055664062,0.9444783926010132,-0.0,-0.0,-1.0,0.15588951619303104,1.0,1
25.756488800048828,-22.80605125427246,0.9015998840332031,-0.0,-0.0,-1.0,0.2668851886321713,1.0,1
25.96286964416504,-23.147220611572266,0.9411344528198242,-0.0,-0.0,-1.0,0.17542199210668533,1.0,1
25.922391891479492,-21.978410720825195,0.8885351419448853,-0.0,-0.0,-1.0,0.18128732272615145,2.0,1
26.029518127441406,-22.37278175354004,0.9218066930770874,-0.0,-0.0,-1.0,0.18096039871480146,1.0,1
26.173303604125977,-22.774259567260742,0.824774980545044,-0.0,-0.0,-1.0,0.21612574715207916,2.0,1
26.481487274169922,-21.93524169921875,0.9007211923599243,-0.0,-0.0,-1.0,0.12216882009938568,1.0,1
26.572406768798828,-22.42943572998047,0.801196813583374,-0.0,-0.0,-1.0,0.23048706474101333,1.0,1
26.532411575317383,-22.671756744384766,0.7705003023147583,-0.0,-0.0,-1.0,0.24878092620241113,1.0,1
26.620708465576172,-22.941795349121094,0.8496522903442383,-0.0,-0.0,-1.0,0.15981692562109362,1.0,1
26.818103790283203,-24.17039680480957,0.9455513954162598,-0.0,-0.0,-1.0,0.14328349696538548,1.0,1
26.833038330078125,-21.874719619750977,0.8301621675491333,-0.0,-0.0,-1.0,0.0948950335643337,1.0,1
26.91062355041504,-22.11205291748047,0.9121620655059814,-0.0,-0.0,-1.0,0.2391936806292008,2.0,1
26.858356475830078,-22.540966033935547,0.8617517948150635,-0.0,-0.0,-1.0,0.2134011780218156,2.0,1
27.344623565673828,-24.263803482055664,0.8444563150405884,-0.0,-0.0,-1.0,0.16900195453156497,2.0,1
27.106201171875,-21.985301971435547,0.8870095014572144,-0.36832691247927024,-0.9214267065287162,-0.12372594731555484,0.12128649715107656,3.0,1
27.463729858398438,-23.005033493041992,0.9751861095428467,-0.0,-0.0,-1.0,0.15858710083406702,1.0,1
27.65685272216797,-23.291425704956055,0.9060214757919312,-0.0,-0.0,-1.0,0.2034663091818979,1.0,1
27.65970802307129,-24.351417541503906,0.7785196304321289,-0.0,-0.0,-1.0,0.155525994662945,1.0,1
25.295223236083984,-22.530208587646484,1.1613706350326538,-0.0,-0.0,-1.0,0.1388039396922089,1.0,2
25.641347885131836,-23.011371612548828,1.2896450757980347,-0.0,-0.0,-1.0,0.1517712971343598,1.0,2
25.526554107666016,-22.290931701660156,1.1606422662734985,-0.0,-0.0,-1.0,0.14198537214740156,1.0,2
25.651615142822266,-22.363056182861328,1.1260392665863037,-0.0,-0.0,-1.0,0.16576290943910107,1.0,2
25.830951690673828,-23.28005599975586,1.2234641313552856,-0.0,-0.0,-1.0,0.18766096170744143,1.0,2
25.939950942993164,-22.11979866027832,1.110232949256897,-0.0,-0.0,-1.0,0.17301321428236155,1.0,2
26.47772789001465,-21.916854858398438,1.1602113246917725,-0.0,-0.0,-1.0,0.12621426535841332,1.0,2
26.859750747680664,-22.82485580444336,1.1078070402145386,-0.0,-0.0,-1.0,0.12774442862938895,1.0,2
26.659156799316406,-22.996129989624023,1.1225497722625732,-0.0,-0.0,-1.0,0.0792025374100422,1.0,2
27.102214813232422,-22.111391067504883,1.1448315382003784,-0.0,-0.0,-1.0,0.2026427838629936,2.0,2
26.934141159057617,-22.784772872924805,1.0991038084030151,-0.0,-0.0,-1.0,0.1289443081786442,1.0,2
27.108388900756836,-22.98695182800293,1.1909304857254028,-0.0,-0.0,-1.0,0.08253208390148194,1.0,2
27.37262535095215,-24.357553482055664,1.1676777601242065,-0.0,-0.0,-1.0,0.1524879875859497,1.0,2
27.279464721679688,-21.862533569335938,1.1368193626403809,-0.0,-0.0,-1.0,0.14544383395943505,1.0,2
27.254274368286133,-22.077409744262695,1.118940830230713,-0.0,-0.0,-1.0,0.09653879232681166,1.0,2
27.283668518066406,-22.44059944152832,1.0734169483184814,-0.0,-0.0,-1.0,0.20371280912499773,1.0,2
27.338911056518555,-24.306291580200195,0.6900202035903931,-0.0,-0.0,-1.0,0.1563817120218393,1.0,1
27.66970443725586,-24.305999755859375,0.6226916313171387,-0.0,-0.0,-1.0,0.13704209488115693,1.0,1
25.320640563964844,-23.285938262939453,0.9509991407394409,-0.0,-0.0,-1.0,0.16392781288882935,1.0,1
25.249528884887695,-22.619956970214844,1.0834156274795532,-0.0,-0.0,-1.0,0.13647884171413327,2.0,2
25.30667495727539,-22.90215301513672,1.0222563743591309,0.3545309233332614,-0.40552551901280415,-0.8425300456540769,0.1477432156834136,3.0,2
25.607624053955078,-23.185462951660156,0.9143249988555908,-0.0,-0.0,-1.0,0.2063677511179208,2.0,1
25.59592056274414,-22.348955154418945,1.0606193542480469,-0.0,-0.0,-1.0,0.21641282597639447,2.0,2
25.741764068603516,-22.829038619995117,0.9490538835525513,-0.0,-0.0,-1.0,0.20433920334640968,2.0,1
25.828292846679688,-23.107906341552734,1.0132458209991455,-0.0,-0.0,-1.0,0.12704814902602296,1.0,2
26.57742691040039,-24.089252471923828,0.8674180507659912,-0.0,-0.0,-1.0,0.2186951018950798,2.0,1
26.00560188293457,-22.156661987304688,1.0031299591064453,-0.0,-0.0,-1.0,0.14631948394821462,1.0,2
26.149782180786133,-22.617504119873047,0.8975224494934082,-0.0,-0.0,-1.0,0.27494953005184447,1.0,1
26.258955001831055,-22.83432388305664,0.9685016870498657,-0.0,-0.0,-1.0,0.170670468138,1.0,1
27.139705657958984,-24.178173065185547,1.0599820613861084,-0.0,-0.0,-1.0,0.11718917880080067,2.0,2
26.2288818359375,-22.050209045410156,0.9680501222610474,-0.0,-0.0,-1.0,0.15735735236724913,1.0,1
26.587059020996094,-22.201690673828125,0.8608323335647583,-0.0,-0.0,-1.0,0.16364503277174153,1.0,1
26.768951416015625,-22.807132720947266,0.8627557754516602,-0.0,-0.0,-1.0,0.2749819329923721,1.0,1
26.73758316040039,-22.990497589111328,0.8435370922088623,-0.0,-0.0,-1.0,0.18960634915454103,2.0,1
27.360437393188477,-24.243450164794922,0.8563474416732788,-0.0,-0.0,-1.0,0.18997416208154697,2.0,1
26.69441032409668,-21.95172119140625,0.8702921867370605,-0.0,-0.0,-1.0,0.12908158451374757,2.0,1
26.930856704711914,-22.261987686157227,0.8988571166992188,-0.0,-0.0,-1.0,0.20049572114094516,1.0,1
26.93206214904785,-22.59164810180664,0.8551486730575562,-0.0,-0.0,-1.0,0.25645863313121353,1.0,1
27.334081649780273,-22.92691421508789,0.8608230352401733,-0.0,-0.0,-1.0,0.1651975895189358,1.0,1
27.174121856689453,-22.009685516357422,0.8705916404724121,-0.0,-0.0,-1.0,0.2055514116223693,1.0,1
27.159358978271484,-22.338031768798828,0.9664561748504639,-0.0,-0.0,-1.0,0.21029150642489888,1.0,1
27.583200454711914,-22.952293395996094,0.8027511835098267,-0.0,-0.0,-1.0,0.19394065805563473,1.0,1
27.67589569091797,-23.118696212768555,0.7632336616516113,-0.0,-0.0,-1.0,0.21038199392072282,1.0,1
27.577165603637695,-21.888330459594727,0.783208966255188,-0.0,-0.0,-1.0,0.10592756474135105,2.0,1
25.587032318115234,-23.108112335205078,1.3120150566101074,-0.0,-0.0,-1.0,0.12865977397001088,1.0,2
25.486005783081055,-22.11663055419922,1.1227035522460938,-0.36180556745807985,-0.3627976152795376,-0.8587634259234715,0.15759940981904433,3.0,2
26.746234893798828,-22.00165557861328,1.096701741218567,-0.0,-0.0,-1.0,0.08224292478343057,1.0,2
27.006011962890625,-22.124679565429688,1.024653673171997,-0.0,-0.0,-1.0,0.21924300559337523,1.0,2
27.159420013427734,-21.948688507080078,1.1333309412002563,-0.1392584379580179,0.9255508071352732,-0.3520834998529995,0.1659987080341078,3.0,2
26.8962345123291,-24.268102645874023,0.8006860017776489,-0.0,-0.0,-1.0,0.12050377355448948,1.0,1
27.339839935302734,-24.203996658325195,0.732590913772583,-0.0,-0.0,-1.0,0.23733741008564566,1.0,1
27.482807159423828,-24.18451690673828,0.7093334197998047,-0.0,-0.0,-1.0,0.1806078452911742,1.0,1
27.50262451171875,-23.090452194213867,0.8605968952178955,-0.0,-0.0,-1.0,0.17551204431293244,1.0,1
27.61333656311035,-22.93672752380371,0.8583083152770996,-0.0,-0.0,-1.0,0.22675960145946222,1.0,1
25.665119171142578,-22.966716766357422,1.2104451656341553,-0.0,-0.0,-1.0,0.22153009976080215,1.0,2
27.414794921875,-24.328895568847656,1.0120915174484253,0.12582651320234903,-0.7482058169979082,-0.6514259313120959,0.18284713986107312,5.0,2
26.676368713378906,-22.790241241455078,1.0643830299377441,-0.0,-0.0,-1.0,0.11217478153561415,1.0,2
26.79208755493164,-23.014076232910156,1.0098741054534912,-0.0,-0.0,-1.0,0.18301005366663897,1.0,2
26.990459442138672,-22.818828582763672,0.999942421913147,-0.0,-0.0,-1.0,0.23225140381935758,1.0,1
27.346288681030273,-22.95958709716797,0.9099297523498535,-0.0,-0.0,-1.0,0.15423910607659624,1.0,1
27.421371459960938,-23.322614669799805,1.127381443977356,-0.0,-0.0,-1.0,0.1731717793301305,1.0,2
26.754690170288086,-22.019237518310547,1.1567296981811523,-0.0,-0.0,-1.0,0.10558099277070233,1.0,2
27.171714782714844,-22.230365753173828,1.0421316623687744,-0.0,-0.0,-1.0,0.16076334875169573,1.0,2
27.508419036865234,-22.91727638244629,0.8825435638427734,-0.0,-0.0,-1.0,0.20620437981595274,1.0,1
27.295696258544922,-21.95401382446289,1.0498508214950562,0.43389152689852367,0.6932536965073567,-0.5754454406497224,0.16214585696492315,3.0,2
26.44267463684082,-21.872406005859375,1.4583771228790283,-0.0,-0.0,-1.0,0.1475469523743749,1.0,2
26.49869155883789,-24.3619384765625,0.9855101108551025,-0.0,-0.0,-1.0,0.1314812474741095,1.0,1
26.881484985351562,-24.15865707397461,0.9633568525314331,-0.0,-0.0,-1.0,0.15316948648233714,1.0,1
27.47513771057129,-24.33133316040039,0.8422715663909912,-0.0,-0.0,-1.0,0.13508774014560862,2.0,1
25.54851722717285,-22.95075798034668,1.352536678314209,-0.6530634733283102,0.539486723099528,0.5314717070585196,0.18422413794597045,3.0,2
27.53533172607422,-24.310483932495117,1.1394262313842773,-0.0,-0.0,-1.0,0.1327456361477073,1.0,2
27.34918975830078,-22.989276885986328,1.0630391836166382,-0.0,-0.0,-1.0,0.16147319043624994,1.0,2
27.615537643432617,-23.114643096923828,1.1319634914398193,-0.0,-0.0,-1.0,0.1458379004225731,2.0,2
27.118772506713867,-21.971471786499023,1.2455302476882935,-0.0,-0.0,-1.0,0.2541276445556679,2.0,2
26.435731887817383,-24.299936294555664,1.0528216361999512,-0.0,-0.0,-1.0,0.1596822617520468,1.0,2
26.927431106567383,-24.290515899658203,0.9924494028091431,-0.0,-0.0,-1.0,0.0990788382381099,1.0,1
27.31797218322754,-24.273147583007812,0.9412561655044556,-0.0,-0.0,-1.0,0.2181069808229223,1.0,1
27.38666343688965,-24.118913650512695,0.9565349817276001,0.28631160061954253,0.7563495579511319,-0.5881845063734703,0.266342728178029,3.0,1
25.386493682861328,-23.1303653717041,1.3789522647857666,-0.0,-0.0,-1.0,0.18191154431374357,1.0,2
26.90407943725586,-22.99279022216797,1.2107499837875366,-0.0,-0.0,-1.0,0.08176010545026746,1.0,2
27.605777740478516,-23.10602569580078,1.2097465991973877,-0.0,-0.0,-1.0,0.16207846964134304,1.0,2
27.443092346191406,-24.29584312438965,0.8941614627838135,-0.0,-0.0,-1.0,0.21471746120994234,2.0,1
26.64141082763672,-24.243301391601562,1.000457763671875,-0.0,-0.0,-1.0,0.12299093994373633,1.0,2
27.39642906188965,-24.144004821777344,0.9290237426757812,-0.0,-0.0,-1.0,0.256381788305849,2.0,1
27.589847564697266,-23.168481826782227,1.3255810737609863,-0.0,-0.0,-1.0,0.1442886779157116,1.0,2
27.098712921142578,-24.18988037109375,1.0407519340515137,-0.0,-0.0,-1.0,0.11034664430226652,2.0,2
27.378936767578125,-24.313940048217773,0.9913487434387207,-0.0,-0.0,-1.0,0.17189100490630968,2.0,1
27.654747009277344,-23.089397430419922,1.2177684307098389,-0.0,-0.0,-1.0,0.18008574301833352,1.0,2
27.09916877746582,-23.101293563842773,1.2702487707138062,0.9743574521313476,0.15702609751763769,0.16115321955980305,0.14468980688748184,3.0,2
27.636035919189453,-24.324321746826172,1.187000036239624,0.360599509488985,0.9179098137443249,0.16555835100701408,0.18331045066784155,3.0,2
25.613895416259766,-23.35277557373047,1.4088735580444336,-0.0,-0.0,-1.0,0.12643072671740369,1.0,2
25.373313903808594,-23.27997589111328,1.4146075248718262,-0.0,-0.0,-1.0,0.13025926804453572,1.0,2
25.520898818969727,-23.181154251098633,1.439661979675293,0.2915004584275969,0.09180233523494938,-0.9521553518107805,0.18053011052759255,3.0,2
25.54841423034668,-23.417234420776367,1.3773442506790161,0.2714221791866355,0.47397243595257516,-0.8376634948490714,0.10565969676331119,3.0,2
25.52584457397461,-23.29302406311035,1.311551809310913,-0.21519529895460798,-0.7672843366170004,-0.6041239360346898,0.17056256531005579,3.0,2
25.37883186340332,-23.18437385559082,1.311121940612793,0.04300048823635002,-0.6248762628651194,-0.779538718806935,0.13614249759916322,3.0,2
25.4180908203125,-23.221637725830078,1.1400814056396484,-0.0,-0.0,-1.0,0.1256492029464136,1.0,2
27.641202926635742,-24.2244873046875,1.2953788042068481,-0.0,-0.0,-1.0,0.20716199185538395,1.0,2
25.52904510498047,-23.212303161621094,1.439152717590332,0.2915004584275969,0.09180233523494938,-0.9521553518107805,0.18207310712583338,3.0,2
25.724802017211914,-22.982223510742188,1.2151702642440796,-0.0,-0.0,-1.0,0.23446964917583127,2.0,2
25.910797119140625,-24.238998413085938,0.657172679901123,-0.0,-0.0,-1.0,0.058751576474651915,1.0,1
26.02466583251953,-24.33963394165039,0.6597628593444824,-0.0,-0.0,-1.0,0.06846418497366567,1.0,1
25.786754608154297,-24.117094039916992,0.6553843021392822,-0.0,-0.0,-1.0,0.07663937941743447,1.0,1
26.308307647705078,-24.281679153442383,0.7156366109848022,-0.0,-0.0,-1.0,0.10881292750991681,1.0,1
26.545324325561523,-24.284683227539062,0.7527065277099609,-0.0,-0.0,-1.0,0.187931144824338,1.0,1
25.32219696044922,-22.98052978515625,0.7330787181854248,-0.0,-0.0,-1.0,0.18644235179985266,1.0,1
25.591222763061523,-22.960561752319336,0.7876408100128174,-0.0,-0.0,-1.0,0.17435547153339498,2.0,1
25.448875427246094,-22.786376953125,0.782634973526001,-0.0,-0.0,-1.0,0.13625170110810034,1.0,1
25.708967208862305,-22.87386131286621,0.8218413591384888,-0.0,-0.0,-1.0,0.20723755501030122,2.0,1
26.04633331298828,-22.855609893798828,0.8883825540542603,-0.0,-0.0,-1.0,0.1990144281399326,2.0,1
26.34974479675293,-24.299793243408203,1.0306336879730225,-0.0,-0.0,-1.0,0.16255506216225415,1.0,2
27.44622230529785,-24.34124183654785,1.1627819538116455,-0.0,-0.0,-1.0,0.13584306737498117,2.0,2
25.266530990600586,-23.286806106567383,0.998369574546814,-0.0,-0.0,-1.0,0.14795851673376678,1.0,1
25.498804092407227,-23.321630477905273,1.1851255893707275,-0.0,-0.0,-1.0,0.12823693193882635,2.0,2
25.808032989501953,-23.3985538482666,1.070966362953186,-0.0,-0.0,-1.0,0.24061796348151904,1.0,2
25.581096649169922,-23.25322723388672,1.052541971206665,-0.4789458220893208,0.519938837669941,-0.7073008586065873,0.17226049364224733,3.0,2
25.807931900024414,-23.306249618530273,1.0820751190185547,-0.0,-0.0,-1.0,0.26786140938157044,1.0,2
27.43069839477539,-23.33173370361328,1.0552104711532593,-0.0,-0.0,-1.0,0.20837641911619717,1.0,2
26.595003128051758,-22.808115005493164,0.9967201948165894,-0.0,-0.0,-1.0,0.2139196656057872,1.0,1
26.84035873413086,-22.91084861755371,1.0250675678253174,-0.0,-0.0,-1.0,0.21798837193003365,1.0,2
27.209182739257812,-23.100887298583984,1.188636302947998,-0.0,-0.0,-1.0,0.10395977141568352,1.0,2
26.61063003540039,-22.562591552734375,1.0345659255981445,-0.0,-0.0,-1.0,0.1155332121921758,1.0,2
26.41585350036621,-22.157318115234375,1.052132248878479,-0.0,-0.0,-1.0,0.1673884467044397,1.0,2
26.68581771850586,-22.1393985748291,1.1068546772003174,-0.0,-0.0,-1.0,0.06320271937571989,1.0,2
26.989118576049805,-22.170669555664062,1.1601823568344116,-0.0,-0.0,-1.0,0.19606382779291984,1.0,2
25.581809997558594,-22.940967559814453,1.3835082054138184,-0.6530634733283102,0.539486723099528,0.5314717070585196,0.16513027655361448,3.0,2
25.83953094482422,-24.234283447265625,0.654875636100769,-0.0,-0.0,-1.0,0.06654223092832653,1.0,1
25.65522575378418,-24.02961540222168,0.6567744016647339,-0.0,-0.0,-1.0,0.0682304877077609,1.0,1
26.035179138183594,-24.189945220947266,0.6922240257263184,-0.0,-0.0,-1.0,0.0623857652857323,1.0,1
26.449024200439453,-24.312320709228516,0.735872745513916,-0.0,-0.0,-1.0,0.14722768669771194,1.0,1
27.100034713745117,-24.32672691345215,0.8287553787231445,-0.0,-0.0,-1.0,0.06476445543880371,1.0,1
25.307104110717773,-22.826889038085938,0.7669240236282349,-0.0,-0.0,-1.0,0.2134489430771427,1.0,1
27.112897872924805,-23.532114028930664,0.6795967817306519,-0.0,-0.0,-1.0,0.07461782514131139,1.0,1
27.546873092651367,-24.010961532592773,0.6618853807449341,-0.0,-0.0,-1.0,0.18901089980518773,1.0,1
25.44239044189453,-22.57396697998047,0.8231706619262695,-0.0,-0.0,-1.0,0.22522257774036306,1.0,1
25.783782958984375,-22.827341079711914,0.8498111963272095,-0.0,-0.0,-1.0,0.17382991008618165,1.0,1
26.63829803466797,-23.123138427734375,0.6649497747421265,-0.0,-0.0,-1.0,0.14266110200324064,2.0,1
26.8543643951416,-23.157384872436523,0.6999017000198364,-0.0,-0.0,-1.0,0.15917511036800663,1.0,1
25.392719268798828,-21.910383224487305,0.7459189891815186,-0.0,-0.0,-1.0,0.1210838779750288,2.0,1
25.589900970458984,-22.105318069458008,0.7607817649841309,-0.0,-0.0,-1.0,0.17498716250903135,1.0,1
26.637479782104492,-22.441713333129883,0.7772430181503296,-0.0,-0.0,-1.0,0.22126397157999153,1.0,1
26.765844345092773,-22.61637306213379,0.7745604515075684,-0.0,-0.0,-1.0,0.16337027336177512,2.0,1
27.14779281616211,-22.851839065551758,0.8083658218383789,-0.0,-0.0,-1.0,0.12407423809165681,1.0,1
27.555105209350586,-22.993629455566406,0.7290253639221191,-0.0,-0.0,-1.0,0.14847601296268317,2.0,1
25.831378936767578,-21.868518829345703,0.693157434463501,-0.0,-0.0,-1.0,0.1906475892744199,1.0,1
26.505517959594727,-21.895227432250977,0.8326292037963867,-0.0,-0.0,-1.0,0.09622192145969838,1.0,1
27.0340576171875,-22.300899505615234,0.7504571676254272,-0.0,-0.0,-1.0,0.16517030894758594,1.0,1
27.406578063964844,-22.685836791992188,0.6278584003448486,-0.0,-0.0,-1.0,0.06750515309297835,1.0,1
27.55385398864746,-22.778793334960938,0.6406819820404053,-0.0,-0.0,-1.0,0.14208263204254484,1.0,1
27.158021926879883,-21.94614028930664,0.7099815607070923,0.3590608568985507,-0.6946695809002371,-0.6233052818765192,0.1397841052841086,3.0,1
27.321170806884766,-22.076034545898438,0.7250270843505859,-0.0,-0.0,-1.0,0.15921114808423048,1.0,1
25.565406799316406,-23.241798400878906,1.0715676546096802,-0.4789458220893208,0.519938837669941,-0.7073008586065873,0.19231711715679525,3.0,2
27.382156372070312,-24.241283416748047,1.0276211500167847,-0.0,-0.0,-1.0,0.26697299800575613,2.0,2
25.339923858642578,-22.907400131225586,1.0778143405914307,-0.0,-0.0,-1.0,0.13977792250765328,2.0,2
25.62689208984375,-23.128461837768555,1.0934823751449585,0.29893048060566685,0.9451839083597087,0.13140756120836825,0.22168558185301218,4.0,2
27.114933013916016,-23.947261810302734,0.8947267532348633,-0.0,-0.0,-1.0,0.1049032807440302,1.0,1
27.57154083251953,-24.10181999206543,0.933670163154602,-0.0,-0.0,-1.0,0.19206114809930241,1.0,1
25.921838760375977,-22.6613826751709,0.8957371711730957,-0.0,-0.0,-1.0,0.1862221442708597,1.0,1
26.34059715270996,-22.76439666748047,0.953394889831543,-0.0,-0.0,-1.0,0.21733231655010074,1.0,1
26.730388641357422,-22.9215087890625,0.9957705736160278,-0.0,-0.0,-1.0,0.239113398604639,1.0,1
25.313642501831055,-22.054426193237305,1.1642098426818848,-0.0,-0.0,-1.0,0.17118595620523397,1.0,2
25.705799102783203,-22.243255615234375,0.911292314529419,0.32475635100565253,-0.3796574209664728,-0.8662525931774053,0.12917266338132685,3.0,1
26.444334030151367,-22.607227325439453,0.9927598237991333,-0.0,-0.0,-1.0,0.1762053829759719,2.0,1
26.697254180908203,-22.75965118408203,1.0137052536010742,-0.9733219215261447,-0.228037388606049,0.025365064052501076,0.18073611817995464,3.0,2
27.034372329711914,-23.01184844970703,1.031369924545288,-0.0,-0.0,-1.0,0.09839331425274817,2.0,2
27.349571228027344,-23.111522674560547,1.0652799606323242,-0.0,-0.0,-1.0,0.22334522181370392,1.0,2
25.874011993408203,-21.917978286743164,0.9808906316757202,-0.0,-0.0,-1.0,0.18691973267827028,1.0,1
26.37238311767578,-22.005512237548828,1.0596474409103394,-0.0,-0.0,-1.0,0.15929173513605768,1.0,2
26.63812828063965,-22.38375473022461,1.056422233581543,-0.0,-0.0,-1.0,0.1594782562161921,2.0,2
27.169038772583008,-22.256011962890625,0.9129306077957153,-0.0,-0.0,-1.0,0.2533038486822367,1.0,1
27.0237979888916,-21.954666137695312,1.0569626092910767,-0.40614166473145236,-0.5849276705579435,0.7020744749560563,0.18861451629044054,4.0,2
26.96457290649414,-23.00556755065918,1.2909666299819946,-0.0,-0.0,-1.0,0.11140495663479753,1.0,2
25.492021560668945,-23.861238479614258,0.6426677703857422,-0.0,-0.0,-1.0,0.06204514585707357,1.0,1
25.683073043823242,-24.12230682373047,0.6482503414154053,-0.0,-0.0,-1.0,0.06400623859280373,2.0,1
25.99964714050293,-24.270429611206055,0.6877427101135254,-0.0,-0.0,-1.0,0.09521654105821806,1.0,1
25.380443572998047,-23.532747268676758,0.6570072174072266,-0.0,-0.0,-1.0,0.07020838349319727,1.0,1
26.113597869873047,-24.20920753479004,0.7157425880432129,-0.0,-0.0,-1.0,0.1180847231165681,1.0,1
26.861400604248047,-23.676223754882812,0.620572566986084,-0.0,-0.0,-1.0,0.09752569310551223,1.0,1
27.339006423950195,-24.005958557128906,0.6645727157592773,-0.0,-0.0,-1.0,0.2263463660684783,1.0,1
27.704021453857422,-24.233196258544922,0.6952204704284668,-0.0,-0.0,-1.0,0.19087874409010014,1.0,1
26.57658576965332,-22.96554183959961,0.6588068008422852,-0.0,-0.0,-1.0,0.20965327912637588,1.0,1
27.62807846069336,-23.876041412353516,0.7417547702789307,-0.0,-0.0,-1.0,0.1666962306505728,1.0,1
26.621179580688477,-22.586854934692383,0.7161917686462402,-0.0,-0.0,-1.0,0.19026432179687067,1.0,1
25.426713943481445,-23.237545013427734,1.0210922956466675,-0.7023140523107976,0.421436684390412,0.573712552570364,0.15941661106648622,3.0,2
26.315690994262695,-24.090713500976562,0.9255808591842651,-0.0,-0.0,-1.0,0.12215700641739864,1.0,1
25.245853424072266,-22.796545028686523,1.0243617296218872,-0.0,-0.0,-1.0,0.171261389609961,2.0,2
25.51504135131836,-23.010684967041016,1.0537720918655396,-0.0,-0.0,-1.0,0.14246506015641147,2.0,2
26.729480743408203,-23.985393524169922,0.8533284664154053,-0.0,-0.0,-1.0,0.23291018675879024,1.0,1
25.527902603149414,-22.623859405517578,0.9308245182037354,-0.0,-0.0,-1.0,0.19080339744721658,1.0,1
27.12721061706543,-23.89461326599121,0.9342876672744751,-0.0,-0.0,-1.0,0.09407744461267672,1.0,1
27.303651809692383,-24.038345336914062,0.9444819688796997,-0.0,-0.0,-1.0,0.14928041248819243,1.0,1
25.400794982910156,-21.957965850830078,0.9542977809906006,-0.0,-0.0,-1.0,0.13696377324520642,1.0,1
25.80541229248047,-22.008193969726562,0.8829364776611328,-0.0,-0.0,-1.0,0.22102063764537058,1.0,1
25.867233276367188,-22.41351890563965,0.8619194030761719,-0.0,-0.0,-1.0,0.2003687065570455,1.0,1
26.42527198791504,-22.604248046875,0.9557127952575684,-0.0,-0.0,-1.0,0.17574400546409039,2.0,1
26.51114273071289,-22.8710880279541,0.9450598955154419,-0.25485506886087467,-0.1972324223222992,-0.9466510790469723,0.2403024742702031,3.0,1
27.61117172241211,-23.977458953857422,1.0039949417114258,-0.0,-0.0,-1.0,0.1323022253021363,1.0,2
26.051576614379883,-22.06996726989746,0.9289796352386475,-0.0,-0.0,-1.0,0.2521578875847139,1.0,1
26.370494842529297,-22.000595092773438,1.0003491640090942,-0.0,-0.0,-1.0,0.1600143679908698,2.0,2
26.623292922973633,-22.414945602416992,0.8763382434844971,-0.0,-0.0,-1.0,0.21655854417227421,1.0,1
26.855960845947266,-22.66069984436035,0.8986847400665283,-0.0,-0.0,-1.0,0.13224007349879346,1.0,1
27.225624084472656,-22.820714950561523,0.8199548721313477,-0.0,-0.0,-1.0,0.10289262269230132,1.0,1
27.49758529663086,-23.02962875366211,0.8481708765029907,-0.0,-0.0,-1.0,0.14619120062463606,2.0,1
26.916351318359375,-22.029512405395508,0.9790924787521362,-0.45973356516158825,0.8767158681204179,0.14147203133367922,0.207989181429924,3.0,1
27.502052307128906,-22.7752628326416,0.8858391046524048,-0.0,-0.0,-1.0,0.18555738652395581,1.0,1
25.323474884033203,-23.075340270996094,1.3377447128295898,-0.0,-0.0,-1.0,0.17243534079564304,1.0,2
27.261974334716797,-24.293323516845703,1.197238564491272,-0.0,-0.0,-1.0,0.1768074649742883,1.0,2
25.384340286254883,-22.61911964416504,1.3720916509628296,-0.0,-0.0,-1.0,0.08980259167992195,1.0,2
27.412118911743164,-24.12847137451172,1.2370997667312622,-0.0,-0.0,-1.0,0.10621530433597103,1.0,2
27.58477020263672,-24.32242774963379,1.2374175786972046,-0.37980037123146004,0.9241383633522483,-0.04147244136861599,0.17016057019046124,3.0,2
27.347654342651367,-22.907390594482422,1.358624815940857,-0.0,-0.0,-1.0,0.066045527062991,1.0,2
25.459232330322266,-24.03952407836914,0.6554477214813232,-0.0,-0.0,-1.0,0.10585320450914161,1.0,1
25.65125274658203,-24.341028213500977,0.6589422225952148,-0.0,-0.0,-1.0,0.09285370124252676,2.0,1
25.307479858398438,-22.722074508666992,0.7431727647781372,-0.0,-0.0,-1.0,0.20677368019939588,1.0,1
25.414413452148438,-22.867122650146484,0.7535635232925415,-0.0,-0.0,-1.0,0.16611513432260336,1.0,1
26.590576171875,-24.091209411621094,0.54610276222229,-0.0,-0.0,-1.0,0.0930624740289697,1.0,1
26.343952178955078,-23.367677688598633,0.586228609085083,-0.0,-0.0,-1.0,0.10426714917937702,1.0,1
26.705453872680664,-24.072223663330078,0.5723862648010254,-0.0,-0.0,-1.0,0.12203797925732734,1.0,1
27.08834457397461,-24.089384078979492,0.648374080657959,-0.0,-0.0,-1.0,0.14882431019647183,1.0,1
25.79210662841797,-21.86566162109375,0.6011061668395996,-0.0,-0.0,-1.0,0.1476771541285875,1.0,1
25.920021057128906,-22.05889892578125,0.6176552772521973,-0.0,-0.0,-1.0,0.15493894541062803,1.0,1
26.77631187438965,-23.235733032226562,0.6972293853759766,-0.0,-0.0,-1.0,0.1416167158041196,1.0,1
27.35630226135254,-24.2209415435791,0.6818557977676392,-0.0,-0.0,-1.0,0.19018762600410724,1.0,1
26.738021850585938,-22.635652542114258,0.756554126739502,-0.0,-0.0,-1.0,0.1368039978643637,2.0,1
26.905776977539062,-22.95913314819336,0.7586777210235596,-0.0,-0.0,-1.0,0.21182778049122414,1.0,1
25.255855560302734,-23.13500213623047,1.0305079221725464,-0.0,-0.0,-1.0,0.09757202476243854,1.0,2
25.535728454589844,-23.286773681640625,1.0661207437515259,-0.0,-0.0,-1.0,0.19653653677115626,2.0,2
25.293004989624023,-22.602445602416992,1.0701336860656738,-0.0,-0.0,-1.0,0.17277182790458512,2.0,2
25.576444625854492,-22.910228729248047,0.9429140090942383,-0.0,-0.0,-1.0,0.18910972513894012,1.0,1
25.705078125,-23.334627151489258,1.090132474899292,-0.0,-0.0,-1.0,0.24164732342907005,1.0,2
26.588090896606445,-24.067745208740234,0.8594110012054443,-0.0,-0.0,-1.0,0.19657605905520664,2.0,1
25.23217010498047,-21.913326263427734,0.7805818319320679,0.20038158451218552,-0.86513059659436,-0.45977850256908814,0.1677902066766381,3.0,1
25.368118286132812,-22.08533477783203,0.955368161201477,-0.0,-0.0,-1.0,0.14607937527763676,1.0,1
25.636825561523438,-22.30604362487793,0.8400363922119141,-0.0,-0.0,-1.0,0.2459477925826351,1.0,1
25.90383529663086,-22.826374053955078,0.8544844388961792,-0.0,-0.0,-1.0,0.17511890931299293,1.0,1
26.081335067749023,-22.85224151611328,0.8873938322067261,-0.0,-0.0,-1.0,0.2022534420748078,2.0,1
26.176517486572266,-23.259504318237305,0.8689690828323364,-0.0,-0.0,-1.0,0.1688472548565632,1.0,1
26.856698989868164,-24.193687438964844,0.8916549682617188,-0.0,-0.0,-1.0,0.12901354495029896,2.0,1
26.992055892944336,-24.17673110961914,0.9171663522720337,-0.0,-0.0,-1.0,0.2055820113175138,1.0,1
25.93984603881836,-22.15287971496582,0.9123512506484985,-0.0,-0.0,-1.0,0.19016698449846925,1.0,1
26.5169620513916,-22.82227325439453,0.9753352403640747,-0.0,-0.0,-1.0,0.21586782352329292,1.0,1
26.659589767456055,-23.002531051635742,0.9861525297164917,-0.0,-0.0,-1.0,0.18261516465395955,1.0,1
27.451847076416016,-24.267009735107422,0.9834961891174316,-0.07890210781628877,-0.5605027220940431,-0.8243853200459811,0.25567548418776737,3.0,1
27.59963607788086,-24.290443420410156,1.0046403408050537,-0.0,-0.0,-1.0,0.18174267396955943,2.0,2
26.368005752563477,-21.963878631591797,1.013371467590332,-0.0,-0.0,-1.0,0.16001436799086968,2.0,2
26.888286590576172,-22.60854148864746,0.7939938306808472,-0.0,-0.0,-1.0,0.24260336396477183,1.0,1
26.930429458618164,-22.888931274414062,0.9124212265014648,-0.0,-0.0,-1.0,0.24576259891415536,1.0,1
26.948230743408203,-22.029664993286133,0.8646172285079956,0.2275274829191654,-0.45918131573960025,-0.8587105238624471,0.22681895769436614,3.0,1
27.097797393798828,-22.219791412353516,0.8819420337677002,-0.0,-0.0,-1.0,0.22734729155420105,1.0,1
27.309383392333984,-22.850200653076172,0.8609025478363037,-0.0,-0.0,-1.0,0.11137586352460703,1.0,1
27.56186294555664,-23.06503677368164,0.8885397911071777,-0.0,-0.0,-1.0,0.17167700634410027,1.0,1
27.17342758178711,-21.87143325805664,0.9323254823684692,-0.0,-0.0,-1.0,0.13072716881473426,2.0,1
25.345592498779297,-23.174789428710938,1.3668568134307861,0.21322688748524513,0.10224609464261881,-0.9716378083337882,0.1974004522624054,3.0,2
25.57990074157715,-23.42363166809082,1.3839268684387207,-0.0,-0.0,-1.0,0.10565969676331119,2.0,2
25.213417053222656,-22.528627395629883,0.8265511989593506,-0.0,-0.0,-1.0,0.142022431730027,1.0,1
25.224597930908203,-22.73576545715332,0.820539116859436,-0.0,-0.0,-1.0,0.13094913851649959,1.0,1
25.704696655273438,-23.564443588256836,0.8696595430374146,-0.0,-0.0,-1.0,0.15960998271665872,1.0,1
25.223491668701172,-21.906593322753906,0.8465602397918701,-0.0,-0.0,-1.0,0.14192975164480912,1.0,1
25.374866485595703,-22.157493591308594,0.8707733154296875,-0.0,-0.0,-1.0,0.18938067529326363,1.0,1
25.60654067993164,-22.860088348388672,0.8901337385177612,-0.0,-0.0,-1.0,0.1574385044185265,2.0,1
25.761234283447266,-23.45419692993164,0.8871119022369385,-0.0,-0.0,-1.0,0.24832274760839554,2.0,1
25.98617935180664,-23.77825164794922,0.5882799625396729,-0.0,-0.0,-1.0,0.07946624825510767,1.0,1
26.270858764648438,-24.067089080810547,0.6234588623046875,-0.0,-0.0,-1.0,0.07431111868399166,1.0,1
26.483470916748047,-24.24358367919922,0.6511169672012329,-0.0,-0.0,-1.0,0.1792275424995891,1.0,1
26.198806762695312,-23.24835968017578,0.6783716678619385,-0.0,-0.0,-1.0,0.10092281286652299,1.0,1
26.378835678100586,-23.923837661743164,0.6606897115707397,-0.0,-0.0,-1.0,0.09255252454920825,1.0,1
26.688283920288086,-24.345115661621094,0.6829572916030884,-0.0,-0.0,-1.0,0.19548169899369197,1.0,1
26.269380569458008,-22.482118606567383,0.7436110973358154,-0.0,-0.0,-1.0,0.16822264375565132,1.0,1
26.546663284301758,-22.558185577392578,0.8034496307373047,-0.0,-0.0,-1.0,0.20098308800682327,1.0,1
26.65384292602539,-22.95595932006836,0.8022283315658569,-0.0,-0.0,-1.0,0.18070255123563003,1.0,1
