x,y,z,nx,ny,nz,curvature,density,label
17.501981735229492,6.711228370666504,-0.45845651626586914,-0.8233648691306774,-0.44270677259173946,-0.3550788726224471,0.09396651763397505,7.0,0
16.23038673400879,7.115916728973389,-0.5348218679428101,-0.26665662530772355,-0.7394998131745225,-0.6180892091715746,0.06313874968830986,5.0,0
15.437715530395508,6.9761199951171875,-0.4979095458984375,-0.0,-0.0,-1.0,0.03482286341717095,1.0,0
17.142494201660156,7.068995475769043,-0.568763256072998,-0.0,-0.0,-1.0,0.06428931368166553,2.0,0
16.44742774963379,7.212750434875488,-0.618403434753418,0.28514382137699623,0.3669084161939469,-0.885477958650905,0.04956426850212224,3.0,0
17.618581771850586,6.535347938537598,-0.5623410940170288,-0.0,-0.0,-1.0,0.1850631799275879,1.0,0
17.263343811035156,5.778423309326172,-0.6397130489349365,-0.0,-0.0,-1.0,0.04289031086565637,1.0,0
16.107433319091797,6.919471740722656,-0.5087140798568726,-0.7073489124018799,0.6396406687578075,-0.3008609828391557,0.060643602178041024,3.0,0
15.419575691223145,7.050459861755371,-0.555878758430481,-0.0,-0.0,-1.0,0.05359783577979421,2.0,0
17.552356719970703,6.56718635559082,-0.42092156410217285,0.3508262963268451,-0.8929082037715363,-0.2821982449326666,0.10869140044051218,4.0,0
15.972439765930176,6.539334297180176,-0.4720994234085083,-0.0,-0.0,-1.0,0.0950373810697378,1.0,0
15.558199882507324,6.617157936096191,-0.4959428310394287,-0.0,-0.0,-1.0,0.023388122302872735,2.0,0
16.331527709960938,6.131284713745117,-0.48211467266082764,-0.16840556824281616,0.10356662642085668,-0.9802619642098824,0.17664638985163902,4.0,0
15.704903602600098,6.518309593200684,-0.5122052431106567,-0.0,-0.0,-1.0,0.03822348888020986,2.0,0
16.00131607055664,6.149543762207031,-0.5366320610046387,0.2672730880384109,-0.31691976810964184,-0.9100148114133869,0.09716945877154634,4.0,0
15.551630973815918,6.583036422729492,-0.509049654006958,0.22601238322079573,0.35611125076216954,-0.9066990568603562,0.02077610922286093,5.0,0
16.042861938476562,6.455150604248047,-0.49605298042297363,-0.1883677616848129,-0.8148645893380881,0.548190922399051,0.07921579868524986,3.0,0
16.26720428466797,6.1944580078125,-0.5150110721588135,0.288614875695719,-0.7290689098490952,-0.620612583032762,0.09743325990781188,4.0,0
17.45932960510254,6.5097856521606445,-0.41295552253723145,0.46593134758508253,0.8259988567664608,-0.3172284160633299,0.1635114520127237,3.0,0
16.168363571166992,7.083477020263672,-0.5232820510864258,0.3591488901202772,-0.25927314524912204,-0.8965430892478066,0.06365872142810325,5.0,0
17.330413818359375,6.803841590881348,-0.4870903491973877,-0.8162469101247495,-0.28530714182997957,-0.502335362614068,0.17077797476515777,6.0,0
17.597597122192383,6.525613784790039,-0.5104374885559082,0.6129068722660438,-0.47207818362492593,-0.6336302979454551,0.23614112287796263,5.0,0
15.741216659545898,6.24186897277832,-0.42865633964538574,0.8985502167893867,0.3886678406852187,-0.20382545848062175,0.09745448575541664,4.0,0
15.802084922790527,5.739554405212402,-0.487260103225708,-0.0,-0.0,-1.0,0.11006766701501089,1.0,0
16.577993392944336,5.7749433517456055,-0.4371781349182129,-0.0,-0.0,-1.0,0.10173090967160957,2.0,0
15.396245956420898,5.715850830078125,-0.05118155479431152,-0.0,-0.0,-1.0,0.22606182741105368,1.0,0
15.286720275878906,7.868505001068115,-0.6134606599807739,-0.0,-0.0,-1.0,0.04629923587946576,1.0,0
15.660167694091797,7.690386772155762,-0.6168859004974365,-0.0,-0.0,-1.0,0.011505959950290703,2.0,0
16.69733238220215,7.226902008056641,-0.6398977041244507,-0.0,-0.0,-1.0,0.02934384562309957,2.0,0
15.823447227478027,6.42207145690918,-0.43756306171417236,-0.5708997412095415,-0.33533076393425376,-0.7494176167172405,0.06481793013653464,3.0,0
16.374088287353516,6.1908769607543945,-0.45555055141448975,-0.0,-0.0,-1.0,0.18736455103885213,2.0,0
15.81564998626709,6.645412445068359,-0.5445594787597656,-0.0,-0.0,-1.0,0.10616577219291601,2.0,0
15.718008041381836,6.978445053100586,-0.4913433790206909,-0.0,-0.0,-1.0,0.019834557888429694,1.0,0
16.264198303222656,6.614134788513184,-0.5252389907836914,-0.15064827464377303,-0.9681807715957684,-0.19982765288887602,0.05586413180338106,3.0,0
17.55831527709961,6.637851715087891,-0.461694598197937,-0.04502744384747958,-0.8627640167384185,-0.5035978362959397,0.1222603711393309,5.0,0
15.81901741027832,5.723381042480469,-0.32056570053100586,-0.5747431427940605,0.29018413320930153,-0.7651558590540706,0.14379544714786838,7.0,0
15.24897575378418,7.998878002166748,-0.5729594230651855,-0.3183099432661543,0.2164204574687437,-0.9229523094975803,0.03948724403919213,5.0,0
15.984634399414062,6.185168266296387,-0.5532858371734619,0.6308664817492063,-0.010477717442771912,-0.7758206620363804,0.09626521533706325,5.0,0
16.340377807617188,6.320044040679932,-0.5077543258666992,-0.0,-0.0,-1.0,0.05805848006832848,1.0,0
16.587736129760742,6.179858684539795,-0.5240491628646851,-0.0,-0.0,-1.0,0.070029521907204,2.0,0
17.496662139892578,6.597476482391357,-0.4018210172653198,0.08672269041176552,-0.2734877636744256,-0.9579580461001969,0.1407337520375101,4.0,0
15.767036437988281,5.63847541809082,-0.3142307996749878,-0.0,-0.0,-1.0,0.11771594773873496,1.0,0
15.750234603881836,5.783174991607666,-0.49730706214904785,-0.0,-0.0,-1.0,0.09651089449843123,1.0,0
16.15069580078125,5.793698787689209,-0.46736979484558105,-0.1943122666343024,-0.9558733248498653,0.22033821701172032,0.06609718768195791,3.0,0
17.335256576538086,6.787203788757324,-0.4584009647369385,-0.7600092315016092,-0.04898029984018137,0.6480639615500153,0.13887754404897779,7.0,0
17.59659767150879,6.5201215744018555,-0.5065542459487915,-0.29750933779125766,-0.5144890724960725,-0.8042320487329127,0.2023521872446375,3.0,0
16.328250885009766,6.100633144378662,-0.49580562114715576,-0.07979675951244067,0.41362889803236874,-0.9069419010520146,0.10737740664045486,3.0,0
15.86274528503418,5.711371898651123,-0.33612704277038574,-0.6347153379199995,-0.08714853405683257,-0.7678161061223227,0.12373143616660816,7.0,0
15.282365798950195,5.694040298461914,-0.07162559032440186,-0.0,-0.0,-1.0,0.2518777427588151,2.0,0
15.2930908203125,5.700359344482422,-0.12826871871948242,-0.2758970839384405,-0.8074434885749037,-0.5214554744484471,0.2518777427588152,3.0,0
15.985754013061523,6.071288585662842,-0.5018070936203003,-0.0,-0.0,-1.0,0.09341406810996711,1.0,0
15.990066528320312,6.8209686279296875,-0.49052751064300537,-0.0,-0.0,-1.0,0.0361353003492594,1.0,0
16.842004776000977,7.683083534240723,-0.6227186918258667,-0.0,-0.0,-1.0,0.02249853903693569,1.0,0
17.362659454345703,6.985484600067139,-0.5805186033248901,-0.286487027561571,0.46097073236012337,-0.8398994981224288,0.06654789661112316,4.0,0
17.468677520751953,5.729756832122803,0.5204626321792603,-0.0,-0.0,-1.0,0.09741590619661299,1.0,1
15.61842155456543,8.101228713989258,-0.5750744342803955,-0.0,-0.0,-1.0,0.015053074109392944,2.0,0
17.526460647583008,6.625940322875977,-0.41012513637542725,-0.20854680080186822,-0.6749673770020891,-0.707762157690156,0.11213332371107282,4.0,0
15.341438293457031,7.894536018371582,-0.5416077375411987,-0.0,-0.0,-1.0,0.04629923587946565,1.0,0
16.139598846435547,6.986023902893066,-0.45938968658447266,-0.0,-0.0,-1.0,0.06797607422829606,1.0,0
17.52472496032715,7.057469367980957,-0.44400978088378906,-0.0,-0.0,-1.0,0.09061230937430563,1.0,0
17.505401611328125,5.752895832061768,-0.40093016624450684,-0.0,-0.0,-1.0,0.11340395782020848,1.0,0
17.433095932006836,5.6468119621276855,1.167952060699463,-0.0,-0.0,-1.0,0.0982642943174849,1.0,2
17.41141700744629,6.626471042633057,-0.44330453872680664,-0.7240616511656897,0.23636048009598645,-0.6479725679070141,0.10093416659121233,6.0,0
17.551279067993164,6.492440700531006,-0.5436223745346069,0.9597656839070993,0.08854966907409123,-0.26647474195729487,0.20177752928661377,3.0,0
17.50634765625,6.726179122924805,-0.46472787857055664,-0.8233648691306774,-0.44270677259173946,-0.3550788726224471,0.12200270463460576,7.0,0
17.232898712158203,7.682368278503418,-0.6166709661483765,-0.0,-0.0,-1.0,0.01976834969167363,1.0,0
17.393470764160156,6.607169151306152,-0.4556562900543213,-0.6387591686521007,0.49485176089106825,-0.5891591119603315,0.09655398965659345,7.0,0
17.64935302734375,7.333165645599365,-0.8468066453933716,-0.0,-0.0,-1.0,0.049613951970890594,1.0,0
17.126323699951172,6.101044178009033,0.6228468418121338,-0.0,-0.0,-1.0,0.1645163734011725,1.0,1
15.986504554748535,6.8640666007995605,-0.7569195032119751,-0.0,-0.0,-1.0,0.1855264539277281,1.0,0
17.108531951904297,8.137248992919922,-0.6404744386672974,-0.0,-0.0,-1.0,0.0350109120434078,1.0,0
17.633533477783203,6.557008266448975,-0.5070370435714722,0.20333051591659923,0.09723264451584583,-0.9742702469733666,0.17684500099587944,4.0,0
17.171104431152344,6.4689717292785645,-0.5381209850311279,-0.0,-0.0,-1.0,0.2518053583689683,1.0,0
17.596296310424805,6.577892780303955,-0.45456933975219727,0.10904171286330458,0.076555271241449,-0.9910848577700019,0.11551931322645273,3.0,0
15.286874771118164,8.025412559509277,-0.567636251449585,0.5320920148053091,-0.651496031522807,-0.5407689050698653,0.036653157102699986,3.0,0
16.250812530517578,7.192256927490234,-0.5422688722610474,-0.4075772290534747,0.3713104416459272,-0.8342717532565739,0.07898790623498946,3.0,0
17.663461685180664,6.627486705780029,-0.5566692352294922,-0.0,-0.0,-1.0,0.209113011000259,2.0,0
15.260876655578613,7.989507675170898,-0.5499604940414429,-0.3183099432661543,0.2164204574687437,-0.9229523094975803,0.03948724403919215,5.0,0
17.590167999267578,6.603003978729248,-0.5059707164764404,0.41934903765257,-0.7936191475396076,0.4408117889512146,0.19182530610159967,5.0,0
17.085613250732422,7.453704833984375,-0.6510535478591919,-0.0,-0.0,-1.0,0.022674546596147635,2.0,0
16.911937713623047,6.469066619873047,-0.6074686050415039,-0.0,-0.0,-1.0,0.04965606757803349,1.0,0
17.003841400146484,6.224338054656982,-0.6412056684494019,-0.0,-0.0,-1.0,0.029671906366775323,2.0,0
15.39126968383789,7.9308319091796875,-0.6286449432373047,-0.0,-0.0,-1.0,0.033905510228194075,1.0,0
15.944191932678223,5.9918036460876465,-0.44243955612182617,0.884181479876345,-0.30863613966647985,-0.35066628571257036,0.13612501977951955,4.0,0
15.834319114685059,6.370771408081055,-0.47658324241638184,-0.0,-0.0,-1.0,0.08085071794911364,2.0,0
15.812625885009766,6.7727532386779785,-0.5000083446502686,-0.0,-0.0,-1.0,0.02923834479526221,1.0,0
17.700611114501953,6.449305057525635,-0.639553427696228,-0.0,-0.0,-1.0,0.10697230024395338,1.0,0
17.28293800354004,7.158126354217529,-0.6108719110488892,0.6191187254624455,-0.7764091622689452,-0.1178168770872456,0.04601890121341969,4.0,0
15.487668991088867,7.434374809265137,-0.6343814134597778,0.8923533650490987,-0.4513113250937221,0.004853836389770981,0.04077396816847832,3.0,0
16.326374053955078,6.234839916229248,-0.4790356159210205,-0.0,-0.0,-1.0,0.11172401219419109,2.0,0
15.692547798156738,6.177182197570801,-0.42200565338134766,-0.0,-0.0,-1.0,0.06510906280901788,2.0,0
16.415021896362305,6.1579694747924805,-0.6364985704421997,-0.0,-0.0,-1.0,0.07700793758524314,1.0,0
15.5237398147583,6.522961616516113,-0.4681050777435303,-0.0,-0.0,-1.0,0.02012677121658469,2.0,0
16.702863693237305,6.9749298095703125,-0.5586156845092773,-0.0,-0.0,-1.0,0.03719368720466828,1.0,0
16.05169105529785,6.364559173583984,-0.5588927268981934,-0.0,-0.0,-1.0,0.09953119052799848,1.0,0
16.104568481445312,6.773830413818359,-0.6345453262329102,-0.0,-0.0,-1.0,0.1442861682363116,1.0,0
16.5465087890625,7.235088348388672,-0.6199005842208862,-0.0,-0.0,-1.0,0.03505056525305459,2.0,0
17.118066787719727,6.53408145904541,-0.41220974922180176,-0.0,-0.0,-1.0,0.1474713801872256,1.0,0
15.411202430725098,6.136785507202148,-0.41935086250305176,-0.0,-0.0,-1.0,0.023004169884998853,1.0,0
16.157201766967773,5.918028831481934,-0.5114914178848267,-0.0,-0.0,-1.0,0.08871948495884106,1.0,0
16.327064514160156,6.162387847900391,-0.4891704320907593,-0.8044843480044187,-0.5738714288868841,-0.15322048467235488,0.19079060484268356,4.0,0
16.568511962890625,6.104063987731934,-0.5193885564804077,-0.0,-0.0,-1.0,0.11689732031789493,2.0,0
17.282136917114258,6.852975845336914,-0.4780024290084839,-0.0,-0.0,-1.0,0.1054968488644559,2.0,0
17.281536102294922,6.061459541320801,-0.5937197208404541,-0.0,-0.0,-1.0,0.0636034339702805,1.0,0
15.437772750854492,6.191725730895996,-0.4531012773513794,-0.0,-0.0,-1.0,0.02333149592400981,1.0,0
15.256509780883789,5.905195236206055,-0.4894763231277466,-0.0,-0.0,-1.0,0.08851719722517666,1.0,0
17.363039016723633,6.817048072814941,-0.5203808546066284,-0.5774318738533313,0.2791583875869653,-0.7672307512724426,0.16825738273604054,4.0,0
17.3228759765625,6.044755935668945,-0.6412291526794434,-0.0,-0.0,-1.0,0.06167833517067816,1.0,0
16.178791046142578,7.216210842132568,-0.5452451705932617,-0.0,-0.0,-1.0,0.0912878127607562,2.0,0
16.42699432373047,6.044489860534668,-0.46941351890563965,-0.7344957989747836,-0.5894465095490633,-0.3362569459041998,0.18867263672949294,3.0,0
17.23480796813965,6.53651237487793,-0.5710796117782593,-0.7821494858483493,-0.6037560861817274,0.15401548683715285,0.16522064311564164,3.0,0
17.398508071899414,6.903337478637695,-0.5587019920349121,-0.7091069205558658,-0.6340088369287981,-0.3085452477611183,0.08173901662539125,4.0,0
15.38439655303955,5.713074684143066,-0.4925727844238281,-0.0,-0.0,-1.0,0.08302377213165339,1.0,0
17.433353424072266,6.469865798950195,-0.46202754974365234,0.857006898376061,0.41580212170576836,-0.3043809647806925,0.13200876769390132,6.0,0
17.522144317626953,6.690166473388672,-0.4546147584915161,-0.41861520180300354,0.06273554223024436,-0.9059942409091284,0.11785573846896107,5.0,0
17.30267906188965,6.589138984680176,-0.46951842308044434,-0.0,-0.0,-1.0,0.09062768462347208,2.0,0
17.41472816467285,6.746604919433594,-0.4702080488204956,-0.5803856528725442,-0.6433206507207053,-0.4992905309496655,0.1422707635485901,5.0,0
16.032833099365234,5.740025520324707,-0.3266695737838745,-0.5905454051264628,-0.05030088553885105,-0.8054352521450932,0.11421742026299044,3.0,0
17.29774284362793,6.848125457763672,-0.5252765417098999,-0.0,-0.0,-1.0,0.18288315546569395,1.0,0
15.434024810791016,5.795736312866211,-0.11157643795013428,-0.0,-0.0,-1.0,0.18800626989885785,2.0,0
15.903369903564453,5.8659772872924805,-0.5248265266418457,-0.0,-0.0,-1.0,0.0780029588892125,1.0,0
15.62882137298584,6.5381550788879395,-0.5490059852600098,-0.0,-0.0,-1.0,0.03375934555228374,1.0,0
15.455313682556152,7.9986748695373535,-0.5948019027709961,-0.0,-0.0,-1.0,0.018073028865357218,1.0,0
15.740645408630371,6.490290641784668,-0.5350992679595947,-0.0,-0.0,-1.0,0.04050488742585661,1.0,0
16.007102966308594,5.881309509277344,-0.4953869581222534,-0.0,-0.0,-1.0,0.08226289254990858,1.0,0
15.668434143066406,7.101830005645752,-0.5413501262664795,-0.0,-0.0,-1.0,0.025290673547392936,2.0,0
16.13712501525879,6.353476524353027,-0.44730091094970703,-0.0,-0.0,-1.0,0.04851920900527357,2.0,0
15.955638885498047,6.780468940734863,-0.47895359992980957,-0.0,-0.0,-1.0,0.04018054526566533,2.0,0
15.901223182678223,7.12069034576416,-0.5959682464599609,-0.0,-0.0,-1.0,0.063311328362004,1.0,0
16.88225555419922,7.744002342224121,-0.6658222675323486,0.8315033993645111,0.4688678256424691,0.29793465545747705,0.025038766504495484,3.0,0
15.963394165039062,7.275906562805176,-0.588424563407898,-0.0,-0.0,-1.0,0.09980455199569722,1.0,0
17.35202407836914,6.709190845489502,-0.4820122718811035,-0.9822388018850495,-0.13313187120188696,0.13222269450327565,0.1316584480352795,4.0,0
17.51146697998047,6.451681613922119,-0.43058156967163086,-0.0,-0.0,-1.0,0.149754081415171,2.0,0
15.67961597442627,7.380398750305176,-0.6319526433944702,-0.0,-0.0,-1.0,0.030820161399073134,1.0,0
15.899174690246582,6.612565040588379,-0.5360422134399414,-0.0,-0.0,-1.0,0.10855753078430333,1.0,0
16.084075927734375,7.0179901123046875,-0.5214322805404663,-0.9295083664672463,-0.36749235513716727,0.031041352791545053,0.09337122646497201,3.0,0
16.17074966430664,5.696890354156494,-0.4409533739089966,-0.0,-0.0,-1.0,0.069270932924328,2.0,0
16.29012680053711,5.838414192199707,-0.41871798038482666,0.4314351196440979,-0.057377934836471065,-0.9003174496429495,0.13334389988316747,4.0,0
15.642084121704102,7.57271671295166,-0.6075906753540039,-0.0,-0.0,-1.0,0.018513921313007536,2.0,0
15.217297554016113,5.983761787414551,-0.5053423643112183,-0.0,-0.0,-1.0,0.09128661854221598,1.0,0
15.55842113494873,6.835268974304199,-0.5305637121200562,-0.0,-0.0,-1.0,0.03164963794561812,1.0,0
15.715152740478516,6.085257530212402,-0.4246007204055786,-0.3339198336338325,-0.09221641341661055,-0.9380797822160597,0.052383327345350054,4.0,0
16.453142166137695,5.753209114074707,-0.4454312324523926,0.21094647388743493,-0.8213750137220077,0.5299478011914279,0.15443663095936702,5.0,0
15.478482246398926,8.102807998657227,-0.6231639385223389,-0.0,-0.0,-1.0,0.09185652243857635,1.0,0
17.3980770111084,6.459860324859619,-0.49733781814575195,0.5201697554784767,0.6419067998798166,-0.5633640792183279,0.09682368312073512,4.0,0
17.510263442993164,6.67161750793457,-0.5129926204681396,0.9254439342362332,0.324893631194811,-0.19492986686091276,0.24170633883182596,3.0,0
16.454843521118164,7.8205485343933105,-0.7122628688812256,-0.0,-0.0,-1.0,0.031312215701890384,1.0,0
16.101539611816406,7.375326633453369,-0.6003813743591309,-0.0,-0.0,-1.0,0.044215295894042585,2.0,0
17.307941436767578,6.794975280761719,-0.5377988815307617,-0.3091652155170429,-0.5479138473394651,-0.7773077160352684,0.19936100528420667,4.0,0
17.045812606811523,7.338655471801758,-0.6050593852996826,-0.0,-0.0,-1.0,0.027494401963402283,1.0,0
15.698469161987305,6.62407112121582,-0.5168588161468506,-0.0,-0.0,-1.0,0.02966116784106207,1.0,0
16.291933059692383,7.257774353027344,-0.5219929218292236,-0.0,-0.0,-1.0,0.0715341364880691,1.0,0
16.651840209960938,7.307622909545898,-0.6290616989135742,-0.0,-0.0,-1.0,0.023383793198028628,1.0,0
15.509702682495117,7.054445266723633,-0.5199580192565918,-0.0,-0.0,-1.0,0.04301878132445568,2.0,0
15.862314224243164,5.732189178466797,-0.336749792098999,-0.08702547188872185,-0.5415473915196689,-0.8361536880148216,0.1264421500908357,6.0,0
16.565143585205078,6.065282821655273,-0.49965667724609375,-0.0,-0.0,-1.0,0.13676593018941416,2.0,0
17.343400955200195,6.893119812011719,-0.49993062019348145,-0.9984135891631659,0.020489617069697468,0.05244502423168744,0.11766720661887908,3.0,0
15.839468002319336,6.280267715454102,-0.40697193145751953,0.21785196896939554,0.2217575871630423,-0.9504546765373838,0.06743581786203189,4.0,0
15.818735122680664,5.677631378173828,-0.318220853805542,-0.22486305491591482,-0.17920619113326697,-0.9577691515148049,0.1582588357260386,4.0,0
15.97769546508789,7.810781478881836,-0.6542601585388184,0.43647867183822886,0.8454573217912157,-0.30771461788475446,0.04709123756062305,3.0,0
15.278105735778809,7.917600631713867,-0.5460028648376465,0.11522052482631244,0.4671609466187454,-0.876632694241452,0.04351008386174089,3.0,0
16.222135543823242,5.918519973754883,-0.504070520401001,-0.0,-0.0,-1.0,0.11272035737897361,2.0,0
16.99810791015625,5.751100540161133,-0.593280553817749,-0.05925824518950873,0.29403912521364095,-0.953954638974337,0.030039708494020607,3.0,0
15.761970520019531,6.262691497802734,-0.4167344570159912,-0.872471161108113,-0.07243287494439812,-0.48326757770613016,0.10408247889097771,5.0,0
17.345975875854492,6.798908233642578,-0.4691603183746338,0.07591907136529923,-0.3284785072115114,-0.9414553440833655,0.14002263551766528,6.0,0
16.849811553955078,6.362701416015625,-0.6073391437530518,-0.0,-0.0,-1.0,0.054785908960892984,2.0,0
15.233111381530762,6.430782318115234,-0.4321937561035156,-0.7913316866457708,-0.3264029857884782,-0.5169673612315636,0.061969474380664386,4.0,0
16.17249298095703,6.642974853515625,-0.48952507972717285,-0.1717555775476565,-0.5436980701305547,-0.8215183687036954,0.054437338525477545,4.0,0
17.121566772460938,7.046407699584961,-0.5278351306915283,-0.0,-0.0,-1.0,0.05395069141121259,2.0,0
16.57343101501465,7.015651702880859,-0.6219878196716309,-0.25575996059964784,-0.004068125600812823,-0.9667317585080994,0.033677631179450836,3.0,0
15.476584434509277,6.940396308898926,-0.5091514587402344,-0.4033569678928749,-0.9095861771073978,0.09978047337739097,0.041779861220532885,5.0,0
16.26423454284668,7.088587760925293,-0.5272359848022461,0.13704748711584314,-0.1088456124230392,-0.9845662085058,0.05930688582480242,5.0,0
16.237234115600586,7.056968688964844,-0.5338101387023926,0.7212348240971928,-0.6827078398489753,0.11717650753558728,0.0921330812316782,4.0,0
16.985158920288086,7.162053108215332,-0.6020753383636475,-0.1607736261445888,0.3726878035621794,-0.9139232146150563,0.04389924670255223,3.0,0
16.906864166259766,6.298409461975098,-0.6481544971466064,-0.0,-0.0,-1.0,0.05379204864717364,2.0,0
17.310638427734375,6.925518035888672,-0.562859296798706,-0.4213213498395618,-0.4254788827853365,-0.8009095082923607,0.10259484017967006,3.0,0
15.352570533752441,5.693886756896973,-0.11778473854064941,-0.1904513538533303,0.04169588382445687,-0.9808107539620121,0.2518777427588151,7.0,0
17.09493064880371,7.078911781311035,-0.5391433238983154,-0.7903869298427274,-0.5885107296408653,0.17012825230209114,0.06621969577009491,3.0,0
17.250646591186523,7.023863792419434,-0.5605802536010742,-0.0,-0.0,-1.0,0.06053532232915429,1.0,0
17.257171630859375,6.429026126861572,-0.5188331604003906,-0.0,-0.0,-1.0,0.12235857214220901,2.0,0
15.880570411682129,6.545909404754639,-0.4281792640686035,-0.0,-0.0,-1.0,0.06148823020983025,2.0,0
16.64453887939453,6.323965549468994,-0.6050763130187988,-0.19657368923423424,-0.6258879828690536,-0.7547337395406079,0.023387829004002336,4.0,0
16.45258331298828,5.774288177490234,-0.5095992088317871,-0.0,-0.0,-1.0,0.1597876918208691,1.0,0
16.30091667175293,6.824970722198486,-0.5164008140563965,-0.0,-0.0,-1.0,0.07583057650595665,2.0,0
17.287179946899414,6.184638977050781,-0.47881412506103516,-0.0,-0.0,-1.0,0.031648638367684466,1.0,0
17.16429328918457,7.928710460662842,-0.5070409774780273,-0.0,-0.0,-1.0,0.04736781160111836,1.0,0
15.924402236938477,5.972833156585693,-0.46674442291259766,0.5464309876592698,0.3837247399524891,-0.744424945628577,0.11430683049610083,3.0,0
15.945537567138672,6.442933082580566,-0.45443248748779297,-0.0,-0.0,-1.0,0.11126658190744473,1.0,0
15.957141876220703,7.056580066680908,-0.43557262420654297,-0.0,-0.0,-1.0,0.18955443716904588,1.0,0
17.579288482666016,6.146821975708008,-0.6066985130310059,-0.0,-0.0,-1.0,0.03749139056101823,2.0,0
17.345426559448242,6.922884464263916,-0.47299718856811523,-0.0,-0.0,-1.0,0.09668401356424314,2.0,0
16.521133422851562,6.788710117340088,-0.6206893920898438,-0.0,-0.0,-1.0,0.03963760395022123,2.0,0
15.878437042236328,5.91261100769043,-0.4890575408935547,-0.0,-0.0,-1.0,0.05501083591203527,1.0,0
16.026586532592773,7.135234355926514,-0.4763331413269043,-0.0,-0.0,-1.0,0.158073934986213,1.0,0
17.378822326660156,6.6318769454956055,-0.4375476837158203,-0.48857428281815357,0.1536106271924156,-0.8588940245352037,0.07586434480126548,6.0,0
17.141010284423828,7.5287933349609375,-0.6490998268127441,0.034090884438087464,0.017066586843708185,-0.9992730073467084,0.011577541127652169,4.0,0
15.90855598449707,7.599545955657959,-0.5522465705871582,-0.0,-0.0,-1.0,0.03398619476669882,1.0,0
16.126434326171875,7.088149070739746,-0.5908298492431641,-0.0,-0.0,-1.0,0.07837283563376583,2.0,0
15.212319374084473,6.490433216094971,-0.5742418766021729,-0.0,-0.0,-1.0,0.050488779358024434,1.0,0
15.346304893493652,6.830992221832275,-0.6155698299407959,-0.0,-0.0,-1.0,0.029862115417832194,1.0,0
15.410062789916992,7.103336334228516,-0.642622709274292,-0.0,-0.0,-1.0,0.0398724502499093,1.0,0
15.35626220703125,7.413136005401611,-0.6551120281219482,-0.0,-0.0,-1.0,0.043943692835070165,1.0,0
17.3470516204834,6.273739337921143,-0.6314160823822021,-0.0,-0.0,-1.0,0.08391181680300894,1.0,0
17.26229476928711,6.627295970916748,-0.641240119934082,-0.0,-0.0,-1.0,0.14323239386218517,1.0,0
17.14809226989746,6.933080673217773,-0.6428554058074951,-0.0,-0.0,-1.0,0.04874356167475952,2.0,0
17.13949966430664,7.210229873657227,-0.6629788875579834,-0.0,-0.0,-1.0,0.04804545074161697,1.0,0
17.53242301940918,7.481451511383057,-0.7587940692901611,-0.0,-0.0,-1.0,0.046925808086447036,1.0,0
17.32144546508789,7.827253818511963,-0.7475409507751465,-0.0,-0.0,-1.0,0.024968400163549072,1.0,0
17.50468635559082,7.64818811416626,-0.7670998573303223,-0.0,-0.0,-1.0,0.024701830526185783,1.0,0
17.18248748779297,8.130491256713867,-0.74735426902771,-0.0,-0.0,-1.0,0.03842062781157457,1.0,0
16.212236404418945,5.9811015129089355,-0.39293670654296875,-0.0,-0.0,-1.0,0.11683804281296677,1.0,0
16.46955108642578,7.393006801605225,-0.6752419471740723,-0.0,-0.0,-1.0,0.031701047541212106,2.0,0
16.43065643310547,7.648236274719238,-0.6899018287658691,-0.0,-0.0,-1.0,0.040364240666394303,1.0,0
16.458473205566406,7.709842205047607,-0.7026247978210449,-0.0,-0.0,-1.0,0.039958709656100745,1.0,0
16.334491729736328,8.132009506225586,-0.7138357162475586,-0.0,-0.0,-1.0,0.021307704951179778,2.0,0
16.46277618408203,7.944283485412598,-0.7263693809509277,-0.0,-0.0,-1.0,0.025084449369283657,1.0,0
15.48430061340332,5.708291530609131,-0.282346248626709,-0.0,-0.0,-1.0,0.10208182431272199,1.0,0
16.334239959716797,6.216951370239258,-0.5367851257324219,-0.0,-0.0,-1.0,0.1160489723183561,2.0,0
16.27865219116211,6.4652252197265625,-0.5443739891052246,0.44888640790455897,-0.7753093160017658,0.44429321097605834,0.034094006363900586,5.0,0
16.67789649963379,6.6075592041015625,-0.6556615829467773,-0.0,-0.0,-1.0,0.023884848709401593,2.0,0
16.10521697998047,6.962092399597168,-0.5458979606628418,-0.37384899022048435,-0.7425862871283349,-0.5557000438006814,0.07718488893556219,4.0,0
16.530176162719727,6.869666576385498,-0.642280101776123,-0.0,-0.0,-1.0,0.04046877629406293,2.0,0
16.274396896362305,7.26061487197876,-0.6150603294372559,-0.0,-0.0,-1.0,0.09119820290413413,1.0,0
17.388050079345703,7.387518405914307,-0.6870443820953369,-0.35666365766647157,0.05748197398594341,-0.9324627917330821,0.037047109144001396,3.0,0
17.265827178955078,7.661179065704346,-0.690467119216919,-0.0,-0.0,-1.0,0.021569517235177953,1.0,0
17.177337646484375,7.819894313812256,-0.6885931491851807,-0.0,-0.0,-1.0,0.05506778356324685,1.0,0
17.32162857055664,6.478932857513428,-0.5675032138824463,-0.0,-0.0,-1.0,0.12021301758293544,1.0,0
17.574779510498047,6.310189723968506,-0.6123740673065186,-0.0,-0.0,-1.0,0.06414099552892652,1.0,0
17.23488426208496,6.826530456542969,-0.5846989154815674,-0.0,-0.0,-1.0,0.10712434994384262,1.0,0
17.253986358642578,7.226591110229492,-0.6353800296783447,-0.0,-0.0,-1.0,0.061833236272993496,1.0,0
17.29048728942871,7.556293487548828,-0.6836202144622803,-0.0,-0.0,-1.0,0.013297991895328915,1.0,0
17.00279998779297,8.105841636657715,-0.6829359531402588,-0.0,-0.0,-1.0,0.047026298629620676,2.0,0
17.076688766479492,7.937538146972656,-0.6791970729827881,-0.0,-0.0,-1.0,0.04771766327658904,1.0,0
16.385547637939453,5.692847728729248,-0.46378231048583984,-0.0,-0.0,-1.0,0.1283629938001328,2.0,0
16.352113723754883,5.972244739532471,-0.49626970291137695,-0.0,-0.0,-1.0,0.1394839063028369,2.0,0
16.51728057861328,6.850358009338379,-0.6910104751586914,-0.0,-0.0,-1.0,0.03586298151402684,1.0,0
16.648662567138672,6.61676025390625,-0.6931662559509277,-0.0,-0.0,-1.0,0.024942554237410094,2.0,0
16.12230682373047,7.224344730377197,-0.6335086822509766,-0.0,-0.0,-1.0,0.06982368710875876,1.0,0
16.31658935546875,7.013437747955322,-0.6564469337463379,-0.0,-0.0,-1.0,0.06182569871767515,1.0,0
16.094587326049805,7.557700157165527,-0.6849422454833984,-0.0,-0.0,-1.0,0.04331231279006692,2.0,0
15.962923049926758,7.954986095428467,-0.7188749313354492,-0.0,-0.0,-1.0,0.04264966583082977,1.0,0
15.34514331817627,5.74334716796875,-0.14090728759765625,0.28009137626855557,-0.03681316968734812,-0.9592672263126456,0.25187774275881514,4.0,0
17.531761169433594,5.73445987701416,1.277451515197754,-0.0,-0.0,-1.0,0.08330383291780694,1.0,2
17.62814712524414,5.861593246459961,1.6880478858947754,-0.0,-0.0,-1.0,0.14672205187853246,1.0,2
17.438047409057617,5.935460090637207,1.2194476127624512,-0.0,-0.0,-1.0,0.10091153478602455,1.0,2
17.434314727783203,5.90495491027832,0.13316679000854492,-0.0,-0.0,-1.0,0.12728639374723466,1.0,1
17.494632720947266,6.1243743896484375,0.0628361701965332,-0.0,-0.0,-1.0,0.15146244140331752,1.0,1
17.544038772583008,5.92406702041626,0.5754580497741699,-0.0,-0.0,-1.0,0.06361848069163582,1.0,1
17.375303268432617,6.19948148727417,0.5569496154785156,-0.0,-0.0,-1.0,0.1583034017414931,1.0,1
17.54486656188965,6.050686359405518,1.0174121856689453,-0.0,-0.0,-1.0,0.15441894544446538,2.0,2
17.42379379272461,6.041140556335449,1.3865766525268555,-0.0,-0.0,-1.0,0.10532763202251602,1.0,2
17.41141700744629,6.0209550857543945,1.461920976638794,-0.0,-0.0,-1.0,0.1452717143611186,2.0,2
17.614910125732422,6.0260419845581055,0.9386978149414062,-0.0,-0.0,-1.0,0.07453706455005452,1.0,1
17.557720184326172,6.238438129425049,0.940502405166626,-0.0,-0.0,-1.0,0.08557533262348038,1.0,1
17.400611877441406,6.07460880279541,1.301159381866455,-0.0,-0.0,-1.0,0.10763923763659732,1.0,2
17.668542861938477,5.926758766174316,0.8524034023284912,-0.0,-0.0,-1.0,0.09057973731668756,2.0,1
17.538707733154297,6.193349361419678,0.7196033000946045,-0.0,-0.0,-1.0,0.06754224223851524,2.0,1
17.510387420654297,5.98680305480957,1.0432713031768799,-0.0,-0.0,-1.0,0.1260149851521974,2.0,2
17.581668853759766,6.101393699645996,1.027164340019226,-0.0,-0.0,-1.0,0.1647022502098336,2.0,2
17.38962173461914,6.004203796386719,1.3727413415908813,-0.0,-0.0,-1.0,0.10532763202251604,1.0,2
17.656932830810547,5.860851764678955,0.7606828212738037,0.6202740538422697,0.7766081616690697,-0.11018103901790346,0.07502693639280614,3.0,1
17.53635025024414,6.1337361335754395,0.8003377914428711,-0.0,-0.0,-1.0,0.05352865350972383,2.0,1
17.498462677001953,6.0309739112854,1.1182955503463745,-0.0,-0.0,-1.0,0.12340556564849252,2.0,2
17.345233917236328,6.040868759155273,1.4525268077850342,-0.0,-0.0,-1.0,0.13667844344611946,2.0,2
17.640399932861328,5.872259140014648,0.748013973236084,0.6202740538422697,0.7766081616690697,-0.11018103901790346,0.07502693639280615,3.0,1
17.524398803710938,6.133182048797607,0.7959048748016357,-0.0,-0.0,-1.0,0.05352865350972384,2.0,1
17.517635345458984,6.098716735839844,1.1122705936431885,-0.0,-0.0,-1.0,0.1543669680729179,2.0,2
17.30086898803711,6.0612664222717285,1.3056259155273438,-0.0,-0.0,-1.0,0.10558396243084996,1.0,2
17.653064727783203,5.839166641235352,0.44777417182922363,-0.0,-0.0,-1.0,0.07754057917561134,2.0,1
17.522790908813477,6.016074180603027,0.6652793884277344,-0.0,-0.0,-1.0,0.03936824217479048,2.0,1
17.522754669189453,6.247291088104248,0.6894769668579102,-0.0,-0.0,-1.0,0.05568049111779652,2.0,1
17.504196166992188,6.064416885375977,1.1607284545898438,-0.0,-0.0,-1.0,0.1294900863200556,2.0,2
17.58207130432129,6.118105411529541,1.1524461507797241,-0.0,-0.0,-1.0,0.15234311320172553,2.0,2
17.557964324951172,6.242259502410889,0.5407016277313232,-0.0,-0.0,-1.0,0.12212274400485121,1.0,1
17.512611389160156,5.984055995941162,0.521291971206665,-0.0,-0.0,-1.0,0.07954634817147145,1.0,1
17.513980865478516,6.068055629730225,0.5308778285980225,-0.0,-0.0,-1.0,0.10755015728889715,1.0,1
17.634540557861328,5.939990520477295,0.8305747509002686,-0.0,-0.0,-1.0,0.09117710521824592,2.0,1
17.582733154296875,6.164217948913574,0.8635894060134888,-0.0,-0.0,-1.0,0.06177952387645419,1.0,1
17.596843719482422,6.055149078369141,1.1840181350708008,-0.0,-0.0,-1.0,0.13875307215880867,2.0,2
17.583635330200195,5.816253662109375,0.32128310203552246,-0.0,-0.0,-1.0,0.10203341323747096,1.0,1
17.532529830932617,6.215301036834717,0.3980088233947754,-0.0,-0.0,-1.0,0.09616837361103324,1.0,1
17.5938663482666,6.261002063751221,0.3921067714691162,-0.0,-0.0,-1.0,0.08779651970336651,1.0,1
17.365514755249023,6.153139591217041,0.4236299991607666,-0.0,-0.0,-1.0,0.20856085465108637,1.0,1
17.52587890625,6.081275939941406,0.7327291965484619,-0.0,-0.0,-1.0,0.03487198158434346,1.0,1
17.54883575439453,6.30528450012207,0.7608458995819092,-0.0,-0.0,-1.0,0.07878825345318602,2.0,1
17.497922897338867,6.158520698547363,0.7491147518157959,-0.0,-0.0,-1.0,0.053141501783226346,1.0,1
17.54251480102539,6.08796501159668,1.0806769132614136,-0.10068347815399203,0.9150061745111201,-0.39067446529475114,0.16215823430394313,3.0,2
17.38445281982422,6.069981575012207,1.101822018623352,-0.0,-0.0,-1.0,0.1294900863200556,1.0,2
17.380226135253906,6.034142017364502,1.4388633966445923,-0.1335621166994573,-0.7476697213581353,-0.6505006908120924,0.13667844344611946,4.0,2
17.628910064697266,6.264334678649902,0.32334041595458984,-0.0,-0.0,-1.0,0.0927973266770368,1.0,1
17.381189346313477,6.088552951812744,0.3433401584625244,-0.0,-0.0,-1.0,0.17436980095211652,1.0,1
17.526275634765625,6.179791450500488,0.3299574851989746,-0.0,-0.0,-1.0,0.119042013767382,1.0,1
17.630128860473633,6.344224452972412,0.7059376239776611,-0.0,-0.0,-1.0,0.047975666952225535,2.0,1
17.529041290283203,6.036637783050537,0.6791682243347168,-0.0,-0.0,-1.0,0.040761806545124915,2.0,1
17.549049377441406,6.212063789367676,0.7009403705596924,-0.3883382281913953,-0.5342110860044461,-0.7508741146924152,0.06621327677385942,3.0,1
17.60354232788086,6.118371486663818,1.0468214750289917,-0.0,-0.0,-1.0,0.1627278660260961,2.0,2
17.51331901550293,6.073107719421387,1.053403615951538,-0.0,-0.0,-1.0,0.17459924514078964,2.0,2
17.385543823242188,6.057033538818359,1.4268265962600708,-0.0,-0.0,-1.0,0.13667844344611946,2.0,2
17.538597106933594,5.888535022735596,0.42119908332824707,-0.0,-0.0,-1.0,0.10525357531426661,1.0,1
17.412973403930664,6.128026008605957,0.4784843921661377,-0.0,-0.0,-1.0,0.1834857183180625,1.0,1
17.484840393066406,6.321222305297852,0.493969202041626,-0.0,-0.0,-1.0,0.07011979123656066,1.0,1
17.566875457763672,6.108349800109863,0.8405647277832031,-0.0,-0.0,-1.0,0.06659566562757309,1.0,1
17.568883895874023,6.295626163482666,0.8631997108459473,-0.0,-0.0,-1.0,0.07574274301366415,1.0,1
17.213550567626953,6.100005149841309,0.5087645053863525,-0.0,-0.0,-1.0,0.2765495822052636,1.0,1
17.409992218017578,6.243327617645264,0.49590468406677246,-0.0,-0.0,-1.0,0.1410288075329949,1.0,1
17.574642181396484,6.125133037567139,1.2279951572418213,-0.0,-0.0,-1.0,0.12273514946447456,1.0,2
17.305479049682617,6.100602626800537,1.2568742036819458,-0.0,-0.0,-1.0,0.10558396243085007,1.0,2
17.575857162475586,6.095619201660156,0.17001605033874512,-0.0,-0.0,-1.0,0.15146244140331755,1.0,1
17.583560943603516,6.2987589836120605,0.19960403442382812,-0.0,-0.0,-1.0,0.0691728586815837,1.0,1
17.454578399658203,6.033762454986572,0.18182849884033203,-0.0,-0.0,-1.0,0.19459436118413542,1.0,1
17.531837463378906,6.21350622177124,0.19595956802368164,-0.0,-0.0,-1.0,0.1019466851863277,1.0,1
17.562164306640625,6.049863815307617,0.9991335868835449,-0.0,-0.0,-1.0,0.14477987192518085,2.0,1
17.667648315429688,6.222278118133545,1.004089593887329,-0.0,-0.0,-1.0,0.08068253948285581,1.0,2
17.521812438964844,6.1917619705200195,1.0191460847854614,-0.0,-0.0,-1.0,0.13842480725946915,2.0,2
17.648096084594727,7.1975202560424805,-0.671055793762207,-0.0,-0.0,-1.0,0.052278946065931864,2.0,0
17.018020629882812,6.960558891296387,-0.6113224029541016,-0.0,-0.0,-1.0,0.047231041534417574,1.0,0
17.140554428100586,7.14271879196167,-0.5886862277984619,-0.0,-0.0,-1.0,0.0653445704054363,1.0,0
16.96407699584961,6.9027485847473145,-0.6160850524902344,-0.0,-0.0,-1.0,0.04701486847761155,1.0,0
17.677989959716797,7.243561744689941,-0.7686400413513184,-0.0,-0.0,-1.0,0.05008424039548115,1.0,0
17.458894729614258,7.236322402954102,-0.7304081916809082,-0.0,-0.0,-1.0,0.0440062192369751,1.0,0
17.204967498779297,7.258978843688965,-0.681190013885498,-0.0,-0.0,-1.0,0.0586879352935055,2.0,0
17.27215576171875,7.306790351867676,-0.6843810081481934,-0.0,-0.0,-1.0,0.05230850075623259,2.0,0
16.92528533935547,6.287641525268555,-0.3879520893096924,-0.0,-0.0,-1.0,0.17545424395700576,1.0,0
15.893985748291016,6.414783477783203,-0.6060009002685547,-0.0,-0.0,-1.0,0.15013768015656645,1.0,0
15.938987731933594,6.5253448486328125,-0.5972726345062256,-0.0,-0.0,-1.0,0.22432129528627945,1.0,0
16.31110382080078,6.769706726074219,-0.5944480895996094,-0.0,-0.0,-1.0,0.06539360723779535,1.0,0
16.887052536010742,6.747875213623047,-0.6327390670776367,-0.0,-0.0,-1.0,0.062453265873322755,2.0,0
17.099674224853516,6.657835006713867,-0.6557228565216064,-0.0,-0.0,-1.0,0.07540895970672445,1.0,0
17.3886775970459,6.66710090637207,-0.6739139556884766,-0.0,-0.0,-1.0,0.16337726678064815,1.0,0
15.436016082763672,6.888238906860352,-0.5308477878570557,-0.38091269559645274,0.1953145846843694,-0.9037464972784218,0.03788005096384852,5.0,0
16.2774658203125,6.955106735229492,-0.5732951164245605,-0.0,-0.0,-1.0,0.08672315256619281,1.0,0
16.565292358398438,6.9155120849609375,-0.5951719284057617,-0.0,-0.0,-1.0,0.04260093773385802,1.0,0
15.270760536193848,5.648246765136719,-0.3731222152709961,-0.0,-0.0,-1.0,0.1158389939604681,1.0,0
15.531694412231445,5.649242401123047,-0.38007545471191406,-0.0,-0.0,-1.0,0.11837429527796017,1.0,0
15.805039405822754,5.7457427978515625,-0.3782534599304199,-0.0,-0.0,-1.0,0.1497562035836985,2.0,0
16.12604331970215,5.809276580810547,-0.3814516067504883,-0.0,-0.0,-1.0,0.08823676050591417,2.0,0
16.362424850463867,5.802156448364258,-0.389512300491333,-0.0,-0.0,-1.0,0.09616169531453556,2.0,0
15.213821411132812,8.121723175048828,-0.583362340927124,-0.0,-0.0,-1.0,0.15120407564491833,1.0,0
15.42654800415039,8.10090446472168,-0.5950193405151367,-0.0,-0.0,-1.0,0.022074404841015572,1.0,0
15.811322212219238,8.056163787841797,-0.6174564361572266,-0.0,-0.0,-1.0,0.03752819483562652,1.0,0
16.0928955078125,7.889598846435547,-0.6501593589782715,-0.0,-0.0,-1.0,0.036355322165945544,1.0,0
16.428430557250977,7.931690216064453,-0.6611940860748291,-0.0,-0.0,-1.0,0.023941428176869062,1.0,0
16.75132179260254,8.068288803100586,-0.6609921455383301,-0.0,-0.0,-1.0,0.12049858735580117,1.0,0
17.362119674682617,8.05655288696289,-0.6939005851745605,-0.3874789651504952,-0.1018490081519373,-0.9162351396363098,0.017948320087278168,3.0,0
17.509552001953125,7.969144821166992,-0.712026834487915,-0.8386751833748918,-0.27894922517952764,-0.4677726654720566,0.021134473000316404,3.0,0
15.393000602722168,5.6764678955078125,-0.12677574157714844,-0.3078866212821252,-0.889243256029054,0.33830793671199066,0.16433616105675228,3.0,0
15.869718551635742,5.706716537475586,-0.40764808654785156,0.5372369148179913,-0.714909612227139,-0.44752736642811947,0.16646395365730104,3.0,0
16.328655242919922,5.943483352661133,-0.4191458225250244,-0.3461916112148332,-0.8410845635960856,-0.4156057328825723,0.2155764631270065,5.0,0
16.168302536010742,5.800762176513672,-0.4212002754211426,0.6473771030097222,-0.7506457638143065,-0.13203720599276447,0.06093840646258484,3.0,0
16.522220611572266,5.784564971923828,-0.45102787017822266,-0.500240816105734,0.18330195878646138,-0.8462620857671199,0.15701483807010802,3.0,0
17.276412963867188,6.625709533691406,-0.42678022384643555,-0.0,-0.0,-1.0,0.0980168850769736,1.0,0
17.37713050842285,6.531230926513672,-0.44501590728759766,0.6339044459075905,0.7260215292633223,0.26656686310330796,0.12547427218764667,3.0,0
17.533321380615234,6.635774612426758,-0.44766926765441895,0.7561321829588883,-0.5984176063486779,-0.26487825563029027,0.1296989369478046,6.0,0
15.373566627502441,6.445505142211914,-0.46090197563171387,0.4088931158078117,-0.2665417530606323,-0.8727897305309821,0.04557415018834736,3.0,0
15.769691467285156,6.657264709472656,-0.4621419906616211,-0.0,-0.0,-1.0,0.058383954797325506,2.0,0
16.091108322143555,6.725261688232422,-0.4759407043457031,-0.0,-0.0,-1.0,0.07378471553561725,1.0,0
16.275493621826172,6.487264633178711,-0.5165455341339111,0.6608316614250317,-0.2870707698006761,0.6934636893048399,0.05170139227447125,4.0,0
16.53519058227539,6.367029190063477,-0.5488507747650146,-0.0,-0.0,-1.0,0.019906237847119465,1.0,0
16.800838470458984,6.222005844116211,-0.5847842693328857,-0.0,-0.0,-1.0,0.026085542985456428,2.0,0
17.08650016784668,6.616601943969727,-0.5595564842224121,-0.0,-0.0,-1.0,0.17873520546314603,1.0,0
16.960237503051758,6.29002571105957,-0.5883877277374268,-0.27902740935736287,0.08216327096823288,-0.9567616744681611,0.17655068288994805,4.0,0
17.474668502807617,6.79986572265625,-0.5672669410705566,-0.0,-0.0,-1.0,0.10456088574184302,2.0,0
17.701885223388672,6.661359786987305,-0.6007370948791504,-0.0,-0.0,-1.0,0.1633089645295118,1.0,0
15.980934143066406,5.795244216918945,-0.2787306308746338,-0.0,-0.0,-1.0,0.11080730815594687,1.0,0
15.457660675048828,7.485631942749023,-0.5403165817260742,-0.0,-0.0,-1.0,0.044292512571063945,2.0,0
15.494626998901367,7.412101745605469,-0.5532431602478027,0.24582205439818441,-0.7933700487621825,-0.5568980905861937,0.03959384708271709,4.0,0
15.850107192993164,7.470022201538086,-0.5708742141723633,-0.0,-0.0,-1.0,0.03374523341215779,1.0,0
16.31231689453125,7.523008346557617,-0.5985944271087646,-0.0,-0.0,-1.0,0.03745163028439509,1.0,0
16.697513580322266,7.619359970092773,-0.6159508228302002,-0.0,-0.0,-1.0,0.026626723043646924,2.0,0
16.969886779785156,7.762500762939453,-0.6184284687042236,-0.0,-0.0,-1.0,0.016723042839573023,1.0,0
17.48735237121582,7.794979095458984,-0.6585259437561035,-0.0,-0.0,-1.0,0.04683452186685316,1.0,0
17.681751251220703,7.745416641235352,-0.6827630996704102,-0.0,-0.0,-1.0,0.022314279349252238,1.0,0
15.518380165100098,6.914011001586914,-0.5067050457000732,-0.04452673383013734,0.3313005945431855,-0.9424740240610091,0.04501422706760453,7.0,0
15.336800575256348,6.682001113891602,-0.5306000709533691,-0.0,-0.0,-1.0,0.021911495734721197,2.0,0
15.834752082824707,6.960809707641602,-0.5200622081756592,-0.0,-0.0,-1.0,0.03653954205976495,2.0,0
16.127662658691406,7.092929840087891,-0.5196173191070557,-0.16651954949190811,-0.8853048266509447,0.43417347172017823,0.07044425195515704,3.0,0
16.365808486938477,6.724103927612305,-0.5922276973724365,-0.0,-0.0,-1.0,0.060224288791616204,1.0,0
16.502283096313477,6.629293441772461,-0.6163244247436523,-0.0,-0.0,-1.0,0.043610488759821216,2.0,0
16.777429580688477,6.680931091308594,-0.6285314559936523,-0.0,-0.0,-1.0,0.021206383108520764,1.0,0
17.09100914001465,7.086147308349609,-0.5905811786651611,-0.0,-0.0,-1.0,0.06381440049332725,2.0,0
17.47417449951172,7.016895294189453,-0.6310741901397705,-0.0,-0.0,-1.0,0.0653068311702524,1.0,0
15.30948543548584,7.468576431274414,-0.5822200775146484,0.48844992160575934,-0.8705105956377923,-0.06023269017455143,0.042183947128418636,4.0,0
15.707244873046875,7.481134414672852,-0.6002132892608643,-0.0,-0.0,-1.0,0.032988193067193604,2.0,0
16.11424446105957,7.518222808837891,-0.6162638664245605,-0.0,-0.0,-1.0,0.05421777640214538,1.0,0
16.54034996032715,7.527082443237305,-0.6402587890625,-0.0,-0.0,-1.0,0.03410687452055328,2.0,0
16.47309112548828,7.472078323364258,-0.6454794406890869,-0.0,-0.0,-1.0,0.047686910002976625,1.0,0
16.797054290771484,7.605930328369141,-0.642970085144043,-0.0,-0.0,-1.0,0.020454887371079703,2.0,0
16.913915634155273,7.589651107788086,-0.6534745693206787,-0.0,-0.0,-1.0,0.013009619475237252,1.0,0
17.351877212524414,7.720621109008789,-0.6612193584442139,0.911834544208394,-0.3298189382812371,0.2444938280188438,0.042189570886190346,3.0,0
17.32056999206543,7.653535842895508,-0.6705741882324219,-0.0,-0.0,-1.0,0.03324274441783085,1.0,0
17.596834182739258,7.649553298950195,-0.6913173198699951,-0.0,-0.0,-1.0,0.0266696389524705,2.0,0
15.287315368652344,6.419355392456055,-0.4919593334197998,-0.2605056208229778,-0.14468917261468173,-0.9545689419039958,0.06960014661632759,4.0,0
15.308979988098145,6.396583557128906,-0.49703049659729004,-0.3422362607460253,-0.11800587183639247,-0.9321743163393377,0.06830828856684172,3.0,0
15.674858093261719,6.47545051574707,-0.5036141872406006,0.23582209373296215,0.5058897632784798,-0.8297369990047723,0.03744227618234381,3.0,0
16.004850387573242,6.609962463378906,-0.5001070499420166,-0.0,-0.0,-1.0,0.08972856163020455,2.0,0
16.086896896362305,6.577320098876953,-0.510688066482544,-0.0,-0.0,-1.0,0.03716134679866985,1.0,0
16.45730972290039,6.344419479370117,-0.5735094547271729,-0.0,-0.0,-1.0,0.027600386920539927,2.0,0
16.627328872680664,6.298225402832031,-0.592592716217041,-0.19657368923423424,-0.6258879828690536,-0.7547337395406079,0.03362541509291627,4.0,0
16.930280685424805,6.259206771850586,-0.6201932430267334,-0.0,-0.0,-1.0,0.030055095260963845,1.0,0
17.26656723022461,6.689447402954102,-0.5719454288482666,-0.0,-0.0,-1.0,0.09762275473084733,1.0,0
17.620603561401367,6.646137237548828,-0.6064302921295166,-0.0,-0.0,-1.0,0.22908564963918715,1.0,0
15.534896850585938,7.347993850708008,-0.5917651653289795,-0.0,-0.0,-1.0,0.03707795588252814,2.0,0
15.999357223510742,5.647127151489258,-0.33873915672302246,-0.0,-0.0,-1.0,0.11452292732671919,1.0,0
15.95695686340332,7.407574653625488,-0.6002118587493896,-0.7985600631368769,-0.059091200725845415,-0.5990075588501411,0.058216983309061915,3.0,0
16.378219604492188,7.383883476257324,-0.6278667449951172,-0.0,-0.0,-1.0,0.055334521411253675,2.0,0
16.77033805847168,7.441985130310059,-0.6400458812713623,0.35802709346852535,0.41590597230252846,-0.8359658022584228,0.027034436279705948,6.0,0
17.15476417541504,7.494541168212891,-0.6551215648651123,-0.08545971723451767,0.13913048006458134,-0.9865796198215304,0.01794837861056472,3.0,0
17.277755737304688,7.485073089599609,-0.6656713485717773,-0.0,-0.0,-1.0,0.02884295892961367,1.0,0
17.556529998779297,7.48884391784668,-0.6854672431945801,-0.0827607841181292,0.4166030876437137,-0.9053134926520627,0.018860613662483344,3.0,0
15.36840534210205,7.737977027893066,-0.5999419689178467,-0.0,-0.0,-1.0,0.025719416780361635,2.0,0
15.381027221679688,5.8713884353637695,-0.43949222564697266,-0.9542242854425703,-0.26368706262411074,-0.14115645956272882,0.056210836898451876,3.0,0
15.362799644470215,7.770807266235352,-0.5925390720367432,0.999328598411742,0.036534953839679744,0.002747643418623052,0.02779927320995634,4.0,0
15.743172645568848,6.142217636108398,-0.4101989269256592,0.8705382154380734,-0.3660886317580698,-0.3288500101252832,0.08440607666348858,6.0,0
15.819609642028809,5.998407363891602,-0.44153642654418945,-0.0,-0.0,-1.0,0.0575884302894858,1.0,0
15.681596755981445,7.761190414428711,-0.6111376285552979,-0.0,-0.0,-1.0,0.014341021516021497,2.0,0
15.895938873291016,7.726877212524414,-0.630760669708252,-0.0,-0.0,-1.0,0.03476726655177672,2.0,0
16.182615280151367,5.871638298034668,-0.487748384475708,0.1745138278177756,-0.9032184908962795,-0.39209856108309693,0.11856852389512619,3.0,0
16.16147232055664,7.715714454650879,-0.6493480205535889,-0.0,-0.0,-1.0,0.03137306927783489,1.0,0
16.51422691345215,5.936132431030273,-0.4980466365814209,-0.0,-0.0,-1.0,0.1146000677396596,2.0,0
16.743057250976562,5.7881975173950195,-0.5416707992553711,-0.0,-0.0,-1.0,0.038902717467305906,2.0,0
16.544572830200195,7.751827239990234,-0.6665406227111816,-0.0,-0.0,-1.0,0.026707367822437413,2.0,0
17.0720272064209,5.711359024047852,-0.5803861618041992,-0.0,-0.0,-1.0,0.030248354597131318,2.0,0
16.857128143310547,7.896053314208984,-0.6568348407745361,-0.0,-0.0,-1.0,0.02401340098330977,1.0,0
17.351505279541016,6.599932670593262,-0.43727755546569824,-0.46766052441872863,0.4065584671413557,-0.7848591253824286,0.08038707962064211,4.0,0
17.33112144470215,7.925780296325684,-0.687427282333374,-0.0,-0.0,-1.0,0.019108892167111546,2.0,0
17.47974395751953,6.658998489379883,-0.43668365478515625,0.22103096777250025,-0.6097290233267257,-0.7611674122021969,0.1243273848634493,3.0,0
17.61845588684082,6.450826644897461,-0.4867401123046875,-0.25964096600404524,-0.0750972548225758,-0.9627808530972141,0.1487563868007258,3.0,0
17.59404754638672,7.877988815307617,-0.720139741897583,-0.0,-0.0,-1.0,0.025916156871125234,1.0,0
15.33347225189209,7.045811653137207,-0.5633218288421631,-0.0,-0.0,-1.0,0.0415005101917046,2.0,0
15.626005172729492,7.127585411071777,-0.5560240745544434,-0.0,-0.0,-1.0,0.022893710219740813,1.0,0
15.8507661819458,5.6391401290893555,-0.3541908264160156,0.7285587124345975,-0.6758543621762586,-0.11145888777017374,0.15585821275293799,3.0,0
16.022335052490234,7.132184028625488,-0.5719747543334961,-0.0,-0.0,-1.0,0.08062344510882478,1.0,0
