x,y,z,nx,ny,nz,curvature,density,label
50.41097640991211,0.47402477264404297,-0.9937138557434082,-0.0,-0.0,-1.0,0.13739291970719447,1.0,0
50.42143630981445,0.5575342178344727,-1.0000885725021362,0.3967471615630271,-0.041766605940654,-0.9169772300443886,0.13897844707615617,3.0,0
51.22716522216797,0.5185985565185547,-1.1082371473312378,-0.6350575705274035,0.7541541210461563,-0.16719283425114537,0.16933896016122785,3.0,0
50.43358612060547,0.2759666442871094,-0.9507758617401123,-0.0,-0.0,-1.0,0.04081216948979771,2.0,0
52.39171600341797,-1.5850067138671875,-1.1912896633148193,-0.0,-0.0,-1.0,0.060985888205370785,2.0,0
50.55166244506836,0.6030302047729492,-1.0517914295196533,-0.0,-0.0,-1.0,0.06864429344847127,1.0,0
51.36221694946289,0.6113796234130859,-1.1314549446105957,-0.0,-0.0,-1.0,0.20702874245880673,2.0,0
52.53863525390625,-0.3851604461669922,-1.3759452104568481,-0.0,-0.0,-1.0,0.013187435681296909,2.0,0
50.504024505615234,0.6323318481445312,-1.1011027097702026,-0.0,-0.0,-1.0,0.06923065272119652,1.0,0
51.319644927978516,0.5451784133911133,-1.1622716188430786,-0.9378075790614822,-0.34273988902569436,-0.05519341559911279,0.1611532672219432,3.0,0
52.31429672241211,-1.4518814086914062,-1.260246992111206,-0.0,-0.0,-1.0,0.059899720402697136,2.0,0
50.568359375,0.09458255767822266,-0.9491791725158691,0.9426560638328455,0.07638138334759248,0.3249083403008834,0.08338530395809574,3.0,0
51.71807098388672,-1.0051288604736328,-1.2542636394500732,-0.0,-0.0,-1.0,0.043846833191889076,1.0,0
52.55646896362305,-1.0941905975341797,-1.3321261405944824,-0.0,-0.0,-1.0,0.018232768179777956,1.0,0
51.249088287353516,-0.47048473358154297,-1.142768144607544,-0.0,-0.0,-1.0,0.042518901298047154,2.0,0
50.57780838012695,0.1880054473876953,-1.0016522407531738,-0.0,-0.0,-1.0,0.03158224710294867,1.0,0
52.25559997558594,-1.5256567001342773,-1.2386125326156616,-0.0,-0.0,-1.0,0.07166468988539414,1.0,0
51.077274322509766,-0.7998752593994141,-1.1298552751541138,-0.0,-0.0,-1.0,0.027343274758752426,1.0,0
50.24861526489258,0.46491146087646484,-0.8953849077224731,-0.0,-0.0,-1.0,0.14727894430768187,1.0,0
50.575416564941406,0.1511211395263672,-0.9560447931289673,-0.0,-0.0,-1.0,0.04181678100921007,2.0,0
51.64804458618164,-0.9422721862792969,-1.258764624595642,-0.0,-0.0,-1.0,0.0470829563714593,1.0,0
50.80973815917969,-0.3606386184692383,-1.1305211782455444,-0.0,-0.0,-1.0,0.02306952665209929,1.0,0
52.144920349121094,-0.8447189331054688,-1.2605785131454468,-0.0,-0.0,-1.0,0.027764920818334437,1.0,0
52.061622619628906,-0.231048583984375,-1.3365451097488403,-0.0,-0.0,-1.0,0.013973988307742562,1.0,0
51.694149017333984,-1.364445686340332,-1.0332235097885132,-0.0,-0.0,-1.0,0.07353934278139193,1.0,0
51.98487854003906,0.22642803192138672,-1.3268218040466309,-0.046351796071254024,-0.5377154230985184,-0.8418513139283862,0.030239619469632186,4.0,0
51.254756927490234,0.62799072265625,-1.2328379154205322,-0.0,-0.0,-1.0,0.13200599508714175,1.0,0
50.93206787109375,-1.6984062194824219,-1.2186498641967773,-0.0,-0.0,-1.0,0.04278677808381965,1.0,0
52.35886764526367,-1.6045923233032227,-1.212916612625122,-0.0,-0.0,-1.0,0.06482146324139922,2.0,0
50.55685806274414,-0.0713205337524414,-0.9284231662750244,-0.0,-0.0,-1.0,0.07414320011212293,1.0,0
52.573307037353516,-0.3123044967651367,-1.3709938526153564,-0.0,-0.0,-1.0,0.012797099362399113,1.0,0
50.64979934692383,-1.6659736633300781,-1.1363022327423096,-0.0,-0.0,-1.0,0.03420092598194997,1.0,0
51.65414047241211,-1.377558708190918,-1.0868022441864014,-0.0,-0.0,-1.0,0.07353934278139196,2.0,0
52.37247085571289,-0.2256183624267578,-1.4508867263793945,-0.0,-0.0,-1.0,0.013918445624922341,2.0,0
52.02285385131836,0.24770164489746094,-1.3313939571380615,-0.0,-0.0,-1.0,0.03286056439019706,2.0,0
51.309818267822266,-1.475947380065918,-1.2176954746246338,-0.0,-0.0,-1.0,0.11747097270585162,1.0,0
52.335201263427734,-1.445180892944336,-1.2349510192871094,-0.0,-0.0,-1.0,0.05989972040269711,2.0,0
51.024391174316406,-1.039748191833496,-1.130246877670288,-0.0,-0.0,-1.0,0.010758294713248188,2.0,0
51.75208282470703,-1.1270265579223633,-1.1590137481689453,-0.0,-0.0,-1.0,0.06294593898038331,2.0,0
50.63053512573242,-0.04845619201660156,-0.9367895126342773,-0.0,-0.0,-1.0,0.06607954371653676,1.0,0
52.16554260253906,0.12078475952148438,-1.42611563205719,-0.0,-0.0,-1.0,0.01450244656838646,1.0,0
51.93074035644531,-0.9801177978515625,-1.2174187898635864,-0.0,-0.0,-1.0,0.04396927666836252,1.0,0
50.865840911865234,-0.7035255432128906,-1.1390947103500366,-0.0,-0.0,-1.0,0.019125072022827438,1.0,0
51.339996337890625,-0.7345027923583984,-1.1532236337661743,-0.0,-0.0,-1.0,0.04618815231072899,1.0,0
52.46625900268555,0.17514705657958984,-1.3818004131317139,-0.0,-0.0,-1.0,0.01577152141587216,2.0,0
51.34267044067383,-1.4480667114257812,-0.9123708009719849,-0.0,-0.0,-1.0,0.13304084792356743,1.0,0
50.287933349609375,-0.061890602111816406,-0.6565414667129517,-0.0,-0.0,-1.0,0.07470807948788485,2.0,0
52.24959182739258,-0.923548698425293,-1.320404291152954,0.13103832573809424,0.49152593565375857,-0.8609478565903129,0.016464404941183102,3.0,0
50.52048873901367,0.2649526596069336,-1.0563650131225586,-0.0,-0.0,-1.0,0.033758523827975,1.0,0
51.20667266845703,-0.2876720428466797,-1.173929214477539,-0.0,-0.0,-1.0,0.02213151839917699,1.0,0
51.54522705078125,-1.4475822448730469,-1.0950027704238892,-0.0,-0.0,-1.0,0.15925465282879298,2.0,0
50.24042510986328,0.3805561065673828,-0.9963812828063965,-0.0,-0.0,-1.0,0.1286982560355479,1.0,0
50.21833801269531,0.5176486968994141,-1.1051030158996582,-0.0,-0.0,-1.0,0.14201902742490718,1.0,0
51.51862335205078,-1.5262165069580078,-1.153529405593872,-0.0,-0.0,-1.0,0.10937974550217726,2.0,0
50.28013610839844,0.5308570861816406,-1.0830239057540894,-0.0,-0.0,-1.0,0.11689610444500154,1.0,0
51.23823547363281,0.5970687866210938,-1.1967226266860962,-0.8028800303253768,0.5961395119712789,-0.0011572257199946579,0.17499104533326917,3.0,0
51.23624801635742,-1.6512107849121094,-1.166450023651123,-0.0,-0.0,-1.0,0.1429559254219557,1.0,0
51.43290710449219,-0.6385250091552734,-1.1657414436340332,-0.0,-0.0,-1.0,0.03916178410150214,2.0,0
50.23898696899414,0.44281959533691406,-0.9933488368988037,-0.0,-0.0,-1.0,0.14669958623505722,1.0,0
52.00694274902344,-0.857208251953125,-1.2654098272323608,-0.0,-0.0,-1.0,0.03961039722641713,1.0,0
52.27721405029297,-0.8989009857177734,-1.3021284341812134,-0.0,-0.0,-1.0,0.01721299639094244,2.0,0
51.95623779296875,-0.8036956787109375,-1.2574955224990845,-0.0,-0.0,-1.0,0.04047569461522574,1.0,0
52.372894287109375,-0.7601127624511719,-1.3117738962173462,-0.0,-0.0,-1.0,0.01659337387310149,1.0,0
50.388423919677734,0.40125274658203125,-1.0228768587112427,0.8683929765401375,-0.1393056167103118,-0.4759071164089903,0.10987413864175548,3.0,0
50.339988708496094,0.5272493362426758,-1.0135117769241333,-0.0,-0.0,-1.0,0.1437981666983591,1.0,0
52.380672454833984,-0.5177574157714844,-1.343886137008667,-0.0,-0.0,-1.0,0.012736167931634047,1.0,0
51.63688659667969,-0.4374408721923828,-1.2495183944702148,-0.0,-0.0,-1.0,0.016859067785588752,1.0,0
51.908843994140625,-0.5091590881347656,-1.2857356071472168,-0.0,-0.0,-1.0,0.015717342644970985,1.0,0
51.468727111816406,-0.36400413513183594,-1.2258615493774414,-0.0,-0.0,-1.0,0.020697651364202117,1.0,0
52.0877571105957,0.09735870361328125,-1.2808847427368164,-0.0,-0.0,-1.0,0.01629282645745814,1.0,0
50.385643005371094,0.5444412231445312,-1.0535509586334229,0.9838428519193194,-0.1711791863836352,-0.052449298148754396,0.10865836298025232,3.0,0
51.24468231201172,0.5581827163696289,-1.1566839218139648,-0.013630293536811784,0.40644289219784363,-0.9135745128230932,0.17499104533326904,5.0,0
51.37982177734375,0.5212974548339844,-1.1749162673950195,-0.0,-0.0,-1.0,0.21479587359723673,1.0,0
52.59832763671875,-1.7635746002197266,-1.3041212558746338,-0.0,-0.0,-1.0,0.02935799318976953,1.0,0
51.66645050048828,-1.182973861694336,-1.1698596477508545,-0.0,-0.0,-1.0,0.05650494560137243,1.0,0
51.63283920288086,-0.9522819519042969,-1.1529333591461182,-0.0,-0.0,-1.0,0.048655184742379405,1.0,0
51.209327697753906,-0.12390899658203125,-1.257481575012207,-0.0,-0.0,-1.0,0.006821544812669325,1.0,0
51.66276550292969,-0.3033790588378906,-1.3259358406066895,-0.0,-0.0,-1.0,0.0033846536380026967,1.0,0
51.97976303100586,-0.13039207458496094,-1.3559725284576416,-0.0,-0.0,-1.0,0.011724623848584068,1.0,0
52.48893737792969,-0.23221397399902344,-1.4282608032226562,-0.0,-0.0,-1.0,0.013292725037382339,1.0,0
51.84373474121094,0.21184921264648438,-1.3178694248199463,-0.0,-0.0,-1.0,0.05777111889967663,1.0,0
51.9498405456543,0.25191497802734375,-1.3293025493621826,0.4648416413314555,0.5733701453776218,-0.6746620819891418,0.05204682578938294,3.0,0
52.46648406982422,0.20992660522460938,-1.399752140045166,0.8960935579811176,-0.20814973850142607,-0.3920331895471724,0.017099389437057248,3.0,0
50.31868362426758,0.5024404525756836,-1.106734037399292,-0.0,-0.0,-1.0,0.12397671437296523,2.0,0
50.42040252685547,0.5893077850341797,-1.113753080368042,0.9541771068690414,0.1172091377064029,-0.2753326474741911,0.13508406639280418,3.0,0
51.272098541259766,0.5349493026733398,-1.2246568202972412,-0.0,-0.0,-1.0,0.1567169482403258,2.0,0
51.50490188598633,-0.6303806304931641,-1.230475902557373,-0.0,-0.0,-1.0,0.036004456372513656,1.0,0
51.78446960449219,-0.7218036651611328,-1.272167444229126,-0.0,-0.0,-1.0,0.02691211379666671,1.0,0
52.28744125366211,-0.6985359191894531,-1.336507797241211,-0.0,-0.0,-1.0,0.018301265707484655,1.0,0
52.66742706298828,-0.5814609527587891,-1.3801195621490479,-0.0,-0.0,-1.0,0.007009749164538452,1.0,0
51.09435272216797,-0.4355335235595703,-1.1659157276153564,-0.0,-0.0,-1.0,0.031922502380823795,2.0,0
51.34194564819336,-0.5163516998291016,-1.202481985092163,-0.0,-0.0,-1.0,0.04418832219016621,1.0,0
50.38895034790039,0.5512886047363281,-1.013859748840332,0.8432107579868652,0.09542636541847149,-0.5290457696629256,0.15546001221967706,5.0,0
51.218345642089844,0.507838249206543,-1.1232736110687256,-0.6846408967383311,0.7161064996050232,-0.13586141371550212,0.16933896016122782,4.0,0
50.70947265625,-1.8236331939697266,-1.2012133598327637,-0.0,-0.0,-1.0,0.02979089636931019,1.0,0
52.22850036621094,-0.9197883605957031,-1.321467638015747,-0.0,-0.0,-1.0,0.01701346609404722,2.0,0
52.521766662597656,-0.7825717926025391,-1.3499634265899658,-0.0,-0.0,-1.0,0.004186579084852137,1.0,0
51.80558776855469,-0.814117431640625,-1.260133981704712,-0.0,-0.0,-1.0,0.04482640506277501,1.0,0
51.07097244262695,-0.4367332458496094,-1.1412389278411865,-0.0,-0.0,-1.0,0.034247897099873935,2.0,0
51.349098205566406,-0.5641040802001953,-1.1849589347839355,-0.0,-0.0,-1.0,0.04525295948447102,1.0,0
50.44182205200195,0.30263233184814453,-1.0100185871124268,-0.0,-0.0,-1.0,0.03235737725237019,1.0,0
51.217567443847656,0.5141124725341797,-1.0920166969299316,-0.6350575705274035,0.7541541210461563,-0.16719283425114537,0.16933896016122785,3.0,0
52.136653900146484,-0.7762203216552734,-1.3263179063796997,-0.0,-0.0,-1.0,0.022001498332898443,1.0,0
52.38724899291992,-0.6714191436767578,-1.3524235486984253,-0.0,-0.0,-1.0,0.0059517605004294856,1.0,0
51.01128387451172,-0.4062957763671875,-1.1504849195480347,-0.0,-0.0,-1.0,0.02430279515012301,1.0,0
51.22561264038086,-0.4631195068359375,-1.1825312376022339,-0.0,-0.0,-1.0,0.03862681259514721,2.0,0
51.588504791259766,-0.5692386627197266,-1.237998366355896,-0.0,-0.0,-1.0,0.024999478373126133,1.0,0
52.19194030761719,-0.6126842498779297,-1.321644902229309,-0.0,-0.0,-1.0,0.01910176120443986,1.0,0
52.45370864868164,-0.5398960113525391,-1.3519607782363892,-0.0,-0.0,-1.0,0.012736167931634196,1.0,0
50.38819122314453,0.36014556884765625,-1.0112687349319458,0.8683929765401375,-0.1393056167103118,-0.4759071164089903,0.08803946216482217,3.0,0
51.168949127197266,0.49333667755126953,-1.102392315864563,-0.0,-0.0,-1.0,0.1342098220017691,1.0,0
52.588260650634766,0.5174427032470703,-1.2954317331314087,-0.0,-0.0,-1.0,0.023241685471042346,1.0,0
50.271907806396484,-1.608682632446289,-1.0880424976348877,-0.0,-0.0,-1.0,0.028892893829609852,1.0,0
50.35134506225586,-1.6274547576904297,-1.099097490310669,-0.0,-0.0,-1.0,0.031645058741416016,1.0,0
51.69206237792969,-1.0322608947753906,-1.2177846431732178,-0.0,-0.0,-1.0,0.0525292762595788,1.0,0
51.0462760925293,-0.7532577514648438,-1.112178087234497,-0.0,-0.0,-1.0,0.028321445715631614,2.0,0
51.38044738769531,-0.6990013122558594,-1.1506752967834473,-0.0,-0.0,-1.0,0.04729124430574955,1.0,0
51.83297348022461,-0.9408512115478516,-1.2290360927581787,-0.0,-0.0,-1.0,0.04872980473788374,1.0,0
52.16886901855469,-0.9460163116455078,-1.2740764617919922,-0.0,-0.0,-1.0,0.02537906350603836,1.0,0
52.54363250732422,-0.9272899627685547,-1.3232836723327637,-0.0,-0.0,-1.0,0.01890320348769835,1.0,0
51.08616256713867,-0.5409564971923828,-1.1000690460205078,-0.0,-0.0,-1.0,0.0374996289003563,2.0,0
50.579158782958984,0.10547256469726562,-0.9830715656280518,0.9628153548663496,0.03880921971674024,0.26735825571424415,0.08338530395809574,4.0,0
50.76627731323242,-1.625814437866211,-1.0017547607421875,-0.0,-0.0,-1.0,0.034755559398358525,1.0,0
51.60321807861328,-1.4342060089111328,-1.0825350284576416,-0.0,-0.0,-1.0,0.12770414192361748,1.0,0
50.94875717163086,0.5655746459960938,-1.2839299440383911,-0.0,-0.0,-1.0,0.0724677934967136,1.0,0
51.30605697631836,0.43572521209716797,-1.3425613641738892,-0.0,-0.0,-1.0,0.13356472904876998,1.0,0
51.67057418823242,0.5439014434814453,-1.3740042448043823,-0.0,-0.0,-1.0,0.07430947602316532,2.0,0
52.01380920410156,0.5602226257324219,-1.4154483079910278,-0.0,-0.0,-1.0,0.04412813875620948,1.0,0
51.88043975830078,-0.4575309753417969,-1.3191661834716797,-0.0,-0.0,-1.0,0.014969232612723357,1.0,0
50.87676239013672,-0.09129142761230469,-1.1713862419128418,-0.0,-0.0,-1.0,0.03230692908496392,1.0,0
51.21387481689453,-0.1974925994873047,-1.2180054187774658,-0.0,-0.0,-1.0,0.011832309764047335,1.0,0
51.63976287841797,-0.37784576416015625,-1.284109115600586,-0.0,-0.0,-1.0,0.011819973638771715,1.0,0
52.03316116333008,-0.34131813049316406,-1.3211138248443604,-0.0,-0.0,-1.0,0.013291095474254139,1.0,0
52.48471450805664,-0.40180015563964844,-1.3782410621643066,-0.0,-0.0,-1.0,0.01255293624811191,2.0,0
50.234519958496094,0.49347877502441406,-1.0362906455993652,-0.0,-0.0,-1.0,0.1397459147637378,1.0,0
50.389190673828125,0.5612554550170898,-1.0418806076049805,0.9605390167498437,-0.26346972729492363,-0.08915436108448098,0.1267224841177936,5.0,0
51.3289680480957,0.6009674072265625,-1.1293318271636963,-0.0,-0.0,-1.0,0.20702874245880673,2.0,0
51.048397064208984,-0.19881439208984375,-1.2515166997909546,-0.0,-0.0,-1.0,0.00934982135661766,1.0,0
51.282161712646484,-0.16881370544433594,-1.261388897895813,-0.0,-0.0,-1.0,0.007586793320798682,1.0,0
51.82615661621094,-0.40630149841308594,-1.3298074007034302,-0.0,-0.0,-1.0,0.012390570069769248,1.0,0
52.215145111083984,-0.5291767120361328,-1.3733419179916382,-0.0,-0.0,-1.0,0.01647575070961445,1.0,0
52.575748443603516,-0.5148735046386719,-1.396802544593811,-0.0,-0.0,-1.0,0.010544728213550897,1.0,0
50.722084045410156,0.0955047607421875,-1.1904140710830688,-0.0,-0.0,-1.0,0.043198018862326715,1.0,0
51.01875305175781,-0.056629180908203125,-1.2295159101486206,-0.0,-0.0,-1.0,0.007561286328553421,1.0,0
50.328880310058594,0.48871326446533203,-1.1121362447738647,-0.0,-0.0,-1.0,0.12397671437296523,2.0,0
51.23976135253906,0.5218744277954102,-1.1605437994003296,-0.8804932443051741,0.2543595300803076,-0.4000410931270365,0.16933896016122782,6.0,0
51.42197036743164,0.36266422271728516,-1.194677472114563,-0.0,-0.0,-1.0,0.1485522580994316,1.0,0
51.46782684326172,-1.6129875183105469,-1.2298214435577393,-0.0,-0.0,-1.0,0.05604078479273392,1.0,0
52.05974578857422,-1.735666275024414,-1.2819643020629883,-0.0,-0.0,-1.0,0.04816268946680519,1.0,0
52.10559844970703,-1.6472091674804688,-1.2729904651641846,-0.0,-0.0,-1.0,0.07013990514341588,2.0,0
52.45902633666992,-1.613107681274414,-1.2913703918457031,-0.0,-0.0,-1.0,0.05792650287700578,1.0,0
50.86838912963867,-1.2671489715576172,-1.1498358249664307,-0.0,-0.0,-1.0,0.03540674420365554,1.0,0
51.36699676513672,-1.5419197082519531,-1.2144453525543213,-0.0,-0.0,-1.0,0.14839058419483808,1.0,0
50.96117401123047,-1.0953960418701172,-1.1315007209777832,-0.0,-0.0,-1.0,0.016777623271667,1.0,0
51.106998443603516,-1.2734203338623047,-1.1635608673095703,-0.0,-0.0,-1.0,0.043363764535973834,1.0,0
51.75920486450195,-1.328573226928711,-1.208770751953125,-0.0,-0.0,-1.0,0.07499187375550628,1.0,0
51.1223030090332,-0.6011772155761719,-1.0734202861785889,-0.0,-0.0,-1.0,0.03996128031271685,1.0,0
51.4417610168457,-0.7340259552001953,-1.1097333431243896,-0.0,-0.0,-1.0,0.04220937342979592,1.0,0
50.566307067871094,0.11038684844970703,-0.9469401836395264,0.9446716071714465,-0.09390006898581851,0.3142902029153549,0.08857054136159954,4.0,0
51.036041259765625,-0.42461395263671875,-1.0447120666503906,-0.0,-0.0,-1.0,0.03668874708404549,1.0,0
50.26721954345703,0.41275691986083984,-0.8907136917114258,-0.0,-0.0,-1.0,0.1286982560355478,2.0,0
50.442413330078125,0.20975780487060547,-0.9270651340484619,-0.0,-0.0,-1.0,0.036514215596046805,1.0,0
50.850379943847656,-0.4235105514526367,-1.1088600158691406,-0.0,-0.0,-1.0,0.020112736827064392,1.0,0
51.615631103515625,-0.8986263275146484,-1.2312800884246826,-0.0,-0.0,-1.0,0.042661582603686174,2.0,0
51.803524017333984,-0.9907512664794922,-1.258509874343872,-0.0,-0.0,-1.0,0.0407360223077105,1.0,0
50.585350036621094,0.10141754150390625,-1.0148284435272217,-0.0,-0.0,-1.0,0.08228611089514806,2.0,0
51.149986267089844,-0.4687051773071289,-1.135679006576538,-0.0,-0.0,-1.0,0.040080270308678854,1.0,0
51.467613220214844,-0.6554050445556641,-1.1851880550384521,-0.0,-0.0,-1.0,0.037824587261481836,2.0,0
51.96803283691406,-0.9200553894042969,-1.2606596946716309,-0.0,-0.0,-1.0,0.046480679530074565,1.0,0
52.3065185546875,-0.9590702056884766,-1.292626142501831,-0.0,-0.0,-1.0,0.030825625512697987,1.0,0
52.64433670043945,-1.078023910522461,-1.3369817733764648,-0.0,-0.0,-1.0,0.014093138493996078,1.0,0
50.272850036621094,0.3853778839111328,-0.9538328647613525,-0.0,-0.0,-1.0,0.1286982560355478,1.0,0
50.348880767822266,0.4587697982788086,-0.9476296901702881,-0.0,-0.0,-1.0,0.1208907843785279,1.0,0
51.06790542602539,0.6191034317016602,-1.3614753484725952,-0.0,-0.0,-1.0,0.13268522611112346,1.0,0
51.633514404296875,0.547673225402832,-1.4002560377120972,-0.0,-0.0,-1.0,0.07643945726511835,2.0,0
51.895294189453125,0.4485492706298828,-1.4322553873062134,-0.0,-0.0,-1.0,0.06744353632655922,2.0,0
52.27378845214844,0.5797796249389648,-1.4289928674697876,-0.0,-0.0,-1.0,0.036044033409998864,1.0,0
50.723419189453125,-1.710841178894043,-1.2043498754501343,-0.0,-0.0,-1.0,0.031773202471565,1.0,0
50.82273864746094,-1.3451519012451172,-1.151337742805481,-0.0,-0.0,-1.0,0.04124031972095977,1.0,0
51.04243850708008,-1.6616544723510742,-1.2076035737991333,-0.0,-0.0,-1.0,0.03235665019312804,2.0,0
50.610652923583984,-0.5872631072998047,-1.0280343294143677,-0.0,-0.0,-1.0,0.024032614033875896,1.0,0
51.24946594238281,-1.4214754104614258,-1.1784402132034302,-0.0,-0.0,-1.0,0.1057631344360034,2.0,0
51.51079559326172,-1.5811491012573242,-1.2131620645523071,-0.8472798144312937,-0.029559318743170977,-0.530323639613314,0.060439091320044186,3.0,0
51.94771957397461,-1.8013219833374023,-1.2658730745315552,-0.0,-0.0,-1.0,0.04219944493766133,1.0,0
50.46956253051758,0.00943756103515625,-0.9320603609085083,-0.0,-0.0,-1.0,0.0788066339877725,2.0,0
51.291526794433594,-0.5620183944702148,-1.0480157136917114,-0.0,-0.0,-1.0,0.05460199581515465,2.0,0
51.452823638916016,-0.6641874313354492,-1.0701929330825806,-0.0,-0.0,-1.0,0.03926592758823037,1.0,0
51.71547317504883,-1.1341190338134766,-1.1533900499343872,-0.0,-0.0,-1.0,0.06474065398411541,2.0,0
51.871456146240234,-1.586958885192871,-1.2296191453933716,-0.0,-0.0,-1.0,0.051291928705033366,1.0,0
52.18497085571289,-1.7525968551635742,-1.2698134183883667,-0.0,-0.0,-1.0,0.03839182602361502,1.0,0
52.443580627441406,-1.6756048202514648,-1.2710374593734741,-0.0,-0.0,-1.0,0.03205078857925617,1.0,0
52.68592834472656,-1.7397336959838867,-1.2937995195388794,-0.0,-0.0,-1.0,0.029357993189769536,1.0,0
50.23398208618164,0.40463924407958984,-0.8648208379745483,-0.0,-0.0,-1.0,0.12062947165034657,2.0,0
50.84827423095703,-1.0078716278076172,-1.1565066576004028,-0.0,-0.0,-1.0,0.018882183654718353,1.0,0
51.04136276245117,-0.7467937469482422,-1.1198159456253052,-0.0,-0.0,-1.0,0.028321445715631603,2.0,0
51.25986862182617,-1.0317144393920898,-1.1750000715255737,-0.0,-0.0,-1.0,0.010122269805913754,1.0,0
51.49098205566406,-0.9359312057495117,-1.1682950258255005,-0.0,-0.0,-1.0,0.04642299727346206,1.0,0
51.744693756103516,-1.212580680847168,-1.2248319387435913,-0.0,-0.0,-1.0,0.0539635882892501,1.0,0
52.06742477416992,-1.5776376724243164,-1.3000127077102661,-0.0,-0.0,-1.0,0.03821660225775389,1.0,0
51.35576629638672,0.5502395629882812,-1.401466727256775,-0.0,-0.0,-1.0,0.18287017809983974,1.0,0
51.99742126464844,-0.7441396713256836,-1.159084439277649,-0.0,-0.0,-1.0,0.036689125327039857,1.0,0
52.38131332397461,-1.4371767044067383,-1.2924662828445435,-0.0,-0.0,-1.0,0.055970843691235596,1.0,0
52.63417053222656,-1.5171136856079102,-1.3190966844558716,-0.0,-0.0,-1.0,0.039644938057832334,1.0,0
51.637962341308594,0.60308837890625,-1.4036732912063599,-0.0,-0.0,-1.0,0.0792533098805566,1.0,0
52.12788772583008,0.5350818634033203,-1.442470669746399,-0.0,-0.0,-1.0,0.04011109398931425,1.0,0
50.432899475097656,0.27364253997802734,-0.9318009614944458,-0.0,-0.0,-1.0,0.04081216948979763,2.0,0
50.621646881103516,-0.0779561996459961,-0.9953509569168091,-0.0,-0.0,-1.0,0.05087487849557091,1.0,0
50.694183349609375,-0.3196220397949219,-1.037580132484436,-0.0,-0.0,-1.0,0.04024361327291621,1.0,0
51.74866485595703,-0.9386272430419922,-1.2617312669754028,-0.0,-0.0,-1.0,0.0418056142217612,1.0,0
52.052188873291016,-0.9498262405395508,-1.2754117250442505,-0.0,-0.0,-1.0,0.03851239342989047,1.0,0
52.25189971923828,-1.2056465148925781,-1.3291071653366089,-0.0,-0.0,-1.0,0.030623739498811954,1.0,0
52.53064727783203,-1.1766023635864258,-1.3365486860275269,-0.0,-0.0,-1.0,0.02166487442448023,1.0,0
50.280242919921875,0.5220851898193359,-0.9630290269851685,-0.0,-0.0,-1.0,0.1437923876419565,1.0,0
50.40146255493164,0.37481212615966797,-0.9913455247879028,0.8683929765401375,-0.1393056167103118,-0.4759071164089903,0.10461853721258507,3.0,0
50.58586883544922,0.2435312271118164,-1.0180679559707642,-0.0,-0.0,-1.0,0.029610730953919653,1.0,0
50.67399215698242,-0.036632537841796875,-1.0697821378707886,-0.0,-0.0,-1.0,0.0463146187414304,1.0,0
50.970306396484375,-0.35415077209472656,-1.1334642171859741,-0.0,-0.0,-1.0,0.023310238111097385,1.0,0
51.21810531616211,-0.3987751007080078,-1.1481879949569702,-0.0,-0.0,-1.0,0.03457937399552314,1.0,0
51.4150505065918,-0.5680379867553711,-1.1844195127487183,-0.0,-0.0,-1.0,0.0441474064531309,1.0,0
51.59676742553711,-0.8640260696411133,-1.2430685758590698,-0.0,-0.0,-1.0,0.032736653049083464,2.0,0
51.89263153076172,-0.8261833190917969,-1.247156023979187,-0.0,-0.0,-1.0,0.045218437343668434,1.0,0
52.28327560424805,-1.168792724609375,-0.7959085702896118,-0.0,-0.0,-1.0,0.07537356638017988,1.0,0
50.3779411315918,0.605712890625,-1.1378170251846313,-0.0,-0.0,-1.0,0.10751404261460148,2.0,0
50.60493850708008,0.39833736419677734,-1.1809273958206177,-0.0,-0.0,-1.0,0.029435108260178457,1.0,0
50.7780647277832,0.3039398193359375,-1.2016857862472534,-0.0,-0.0,-1.0,0.028222121943748124,2.0,0
50.993934631347656,0.07681941986083984,-1.2500895261764526,-0.0,-0.0,-1.0,0.01586306100985482,1.0,0
51.28471755981445,0.4091815948486328,-1.1887623071670532,-0.0,-0.0,-1.0,0.143669517371052,1.0,0
51.32259750366211,-0.02589702606201172,-1.2766183614730835,-0.0,-0.0,-1.0,0.013828545625832852,1.0,0
51.597373962402344,-0.1759805679321289,-1.3126553297042847,-0.0,-0.0,-1.0,0.004464104550190398,1.0,0
51.72904586791992,-0.24096298217773438,-1.3290542364120483,-0.0,-0.0,-1.0,0.005067036424325218,1.0,0
52.16994094848633,-0.4010467529296875,-1.37401282787323,-0.0,-0.0,-1.0,0.016577620564217993,1.0,0
52.2738037109375,-0.5261478424072266,-1.4022780656814575,-0.0,-0.0,-1.0,0.01838336770780049,1.0,0
52.522701263427734,-0.3879871368408203,-1.383705735206604,0.29437627729067717,-0.9165922764551975,-0.2705572141177565,0.013187435681296883,3.0,0
52.70573425292969,-0.5373449325561523,-1.4204434156417847,-0.0,-0.0,-1.0,0.007633387230147443,1.0,0
51.74320983886719,-1.3918094635009766,-1.038864016532898,-0.0,-0.0,-1.0,0.0838020319714916,1.0,0
52.293460845947266,-1.2915048599243164,-1.037274718284607,-0.0,-0.0,-1.0,0.10712491647818613,1.0,0
51.1089973449707,0.32380008697509766,-1.2982869148254395,-0.0,-0.0,-1.0,0.10978626109748635,1.0,0
51.17387771606445,0.2636232376098633,-1.3112878799438477,-0.0,-0.0,-1.0,0.07784335489218878,1.0,0
51.4846076965332,0.13057994842529297,-1.3414537906646729,-0.0,-0.0,-1.0,0.029190047160184803,1.0,0
51.89181137084961,0.33569812774658203,-1.3018007278442383,-0.0,-0.0,-1.0,0.07701763078273034,1.0,0
51.77449035644531,0.02321624755859375,-1.367607593536377,-0.0,-0.0,-1.0,0.011198765228189246,1.0,0
52.03585433959961,0.12039661407470703,-1.3505229949951172,-0.0,-0.0,-1.0,0.025025224845475823,1.0,0
52.209041595458984,-0.1271524429321289,-1.4071195125579834,-0.0,-0.0,-1.0,0.015439823455629881,1.0,0
52.544517517089844,-0.16463661193847656,-1.423088788986206,-0.0,-0.0,-1.0,0.011541572513560817,1.0,0
52.707977294921875,-1.8483905792236328,-1.263477087020874,-0.0,-0.0,-1.0,0.029357993189769557,1.0,0
50.263885498046875,0.09224414825439453,-0.9021751880645752,-0.0,-0.0,-1.0,0.03339393911839458,1.0,0
50.73550033569336,0.6109113693237305,-1.2374897003173828,0.2510397882841596,-5.648790748848436e-05,-0.9679767670287137,0.03444514640699185,3.0,0
50.39118957519531,0.03165912628173828,-0.9115111827850342,-0.0,-0.0,-1.0,0.09024480531096764,1.0,0
50.474361419677734,-0.02991962432861328,-0.9217312335968018,-0.0,-0.0,-1.0,0.07915187208976615,2.0,0
50.92213439941406,0.5001440048217773,-1.2604267597198486,-0.0,-0.0,-1.0,0.07916341052392663,1.0,0
50.695457458496094,-1.6366758346557617,-1.2084989547729492,-0.0,-0.0,-1.0,0.03612468767498695,1.0,0
50.63552474975586,-1.6719675064086914,-1.215095043182373,-0.0,-0.0,-1.0,0.0352288742816582,1.0,0
51.33694839477539,0.4454994201660156,-1.2725565433502197,-0.0,-0.0,-1.0,0.18860673820051774,1.0,0
51.310760498046875,-0.5600805282592773,-1.0144739151000977,-0.0,-0.0,-1.0,0.05460199581515462,2.0,0
51.12966537475586,-1.3313446044921875,-1.1526048183441162,-0.0,-0.0,-1.0,0.06007828308035962,1.0,0
51.10072326660156,-1.568070411682129,-1.1951608657836914,-0.0,-0.0,-1.0,0.044280740809107225,1.0,0
51.706424713134766,-1.3222837448120117,-1.1537234783172607,-0.0,-0.0,-1.0,0.08179460771005494,1.0,0
51.495628356933594,-1.5396337509155273,-1.1912438869476318,-0.9702226517980734,0.20897234644731022,-0.12246862601588965,0.061053728626163976,4.0,0
51.83320999145508,-1.0264177322387695,-1.1018991470336914,-0.0,-0.0,-1.0,0.04374530638362483,1.0,0
51.749881744384766,-1.2178535461425781,-1.135387659072876,-0.0,-0.0,-1.0,0.05234148339625352,1.0,0
51.887489318847656,-1.8134632110595703,-1.243713617324829,-0.0,-0.0,-1.0,0.04864836065944462,1.0,0
52.23857879638672,-1.8397035598754883,-1.2530808448791504,-0.0,-0.0,-1.0,0.03839182602361502,1.0,0
52.600425720214844,-1.7882795333862305,-1.2503635883331299,-0.0,-0.0,-1.0,0.05792650287700579,1.0,0
51.1488151550293,0.029394149780273438,-1.2754168510437012,-0.0,-0.0,-1.0,0.016906496748468478,1.0,0
51.51005172729492,-0.15978717803955078,-1.3181869983673096,-0.0,-0.0,-1.0,0.004134451780153385,1.0,0
51.80324935913086,-0.25470924377441406,-1.342130184173584,-0.0,-0.0,-1.0,0.013794140943622794,1.0,0
52.2097282409668,-0.4329404830932617,-1.3876557350158691,-0.0,-0.0,-1.0,0.01869849265413013,1.0,0
52.56672286987305,-0.4573955535888672,-1.401799201965332,-0.0,-0.0,-1.0,0.010374081679013525,1.0,0
50.40679168701172,0.6000738143920898,-1.1563389301300049,-0.28136925881173436,-0.9478515128797095,-0.14969585741556457,0.10921725666407736,3.0,0
50.762107849121094,0.31644153594970703,-1.2142362594604492,-0.0,-0.0,-1.0,0.029562551308817672,2.0,0
51.129520416259766,0.12651538848876953,-1.2546894550323486,-0.0,-0.0,-1.0,0.03432106994174631,1.0,0
50.36665725708008,-1.5006237030029297,-1.1088459491729736,-0.0,-0.0,-1.0,0.02833011269386609,1.0,0
50.27372741699219,-1.7012500762939453,-1.145601511001587,-0.0,-0.0,-1.0,0.031645058741416036,1.0,0
51.88507843017578,0.5721368789672852,-1.1663086414337158,-0.0,-0.0,-1.0,0.06002512780465023,1.0,0
51.606773376464844,-1.3798274993896484,-1.0867915153503418,-0.0,-0.0,-1.0,0.12850426142619595,2.0,0
52.32499694824219,-0.19040393829345703,-1.441150426864624,-0.0,-0.0,-1.0,0.012086835960504977,1.0,0
52.590877532958984,-0.1258840560913086,-1.437084674835205,-0.0,-0.0,-1.0,0.010067732162576393,1.0,0
52.44890594482422,-0.18401813507080078,-1.4443843364715576,-0.0,-0.0,-1.0,0.012479020795537654,1.0,0
50.77663040161133,0.5990571975708008,-1.2268221378326416,0.2510397882841596,-5.648790748848436e-05,-0.9679767670287137,0.04934671376023635,3.0,0
50.680145263671875,0.6124658584594727,-1.223069429397583,-0.0,-0.0,-1.0,0.0420148050577289,1.0,0
51.09166717529297,0.4193000793457031,-1.2712311744689941,-0.0,-0.0,-1.0,0.1410151630087862,1.0,0
51.059513092041016,0.33417606353759766,-1.2900917530059814,-0.0,-0.0,-1.0,0.10045608686323496,1.0,0
50.66738510131836,-0.44376277923583984,-1.0128495693206787,-0.0,-0.0,-1.0,0.01959814595452155,1.0,0
51.42551803588867,0.2196359634399414,-1.3223793506622314,-0.0,-0.0,-1.0,0.05304884542949008,1.0,0
51.938629150390625,0.2666778564453125,-1.3244807720184326,-0.6200946709394941,-0.2254937230902534,-0.7514221050244242,0.053206758976857324,3.0,0
51.795318603515625,0.08448314666748047,-1.362006425857544,-0.0,-0.0,-1.0,0.014882400629284216,1.0,0
51.067665100097656,-1.0526905059814453,-1.1332263946533203,-0.0,-0.0,-1.0,0.011005685903815557,2.0,0
50.879947662353516,-1.1848201751708984,-1.156759262084961,-0.0,-0.0,-1.0,0.023642279098719823,1.0,0
50.74790954589844,-1.4932689666748047,-1.2147843837738037,-0.0,-0.0,-1.0,0.0388128576732812,1.0,0
52.39128494262695,-0.05604743957519531,-1.4131925106048584,-0.0,-0.0,-1.0,0.016299794705173332,1.0,0
52.20235061645508,-0.07459068298339844,-1.4105455875396729,-0.0,-0.0,-1.0,0.014801961694587844,1.0,0
51.442176818847656,-1.3483800888061523,-1.1953725814819336,-0.0,-0.0,-1.0,0.05740047679328188,1.0,0
51.27772521972656,-1.360886573791504,-1.1952009201049805,-0.0,-0.0,-1.0,0.1158209390644273,1.0,0
52.661643981933594,-0.030303955078125,-1.4184057712554932,-0.0,-0.0,-1.0,0.011460473652951386,2.0,0
51.8452262878418,-1.1750898361206055,-1.1703145503997803,-0.0,-0.0,-1.0,0.0575078311523124,2.0,0
51.686378479003906,-1.4057912826538086,-1.2110388278961182,-0.0,-0.0,-1.0,0.08467041478587807,1.0,0
51.521793365478516,-1.5380220413208008,-1.2331366539001465,-0.8472798144312937,-0.029559318743170977,-0.530323639613314,0.06971378698406852,3.0,0
52.099308013916016,-1.648702621459961,-1.267256498336792,-0.0,-0.0,-1.0,0.07013990514341592,2.0,0
52.6120491027832,-1.6564102172851562,-1.28401517868042,-0.0,-0.0,-1.0,0.05529638000370264,1.0,0
52.3978271484375,-1.6994142532348633,-1.2853412628173828,-0.0,-0.0,-1.0,0.03205078857925617,1.0,0
50.34292984008789,0.1357860565185547,-0.9007983207702637,-0.0,-0.0,-1.0,0.03378025808948711,1.0,0
50.57075119018555,-0.008124351501464844,-0.9287846088409424,-0.0,-0.0,-1.0,0.0841916937175458,1.0,0
51.18955612182617,0.44617748260498047,-1.3178900480270386,-0.0,-0.0,-1.0,0.19372027995358185,1.0,0
50.95814514160156,0.47275733947753906,-1.3071292638778687,-0.0,-0.0,-1.0,0.07558338507109867,1.0,0
51.40925598144531,0.3521451950073242,-1.3457218408584595,-0.0,-0.0,-1.0,0.10234129156566485,1.0,0
52.33641052246094,0.29288291931152344,-1.39272940158844,-0.0,-0.0,-1.0,0.02573774366011664,1.0,0
52.0075798034668,0.24291610717773438,-1.391065001487732,-0.0,-0.0,-1.0,0.031193783816033827,1.0,0
51.76455307006836,0.21904945373535156,-1.3879376649856567,-0.0,-0.0,-1.0,0.040294202971483145,1.0,0
52.559776306152344,0.18820953369140625,-1.4279524087905884,-0.0,-0.0,-1.0,0.010084987029011356,1.0,0
52.27915954589844,0.15096282958984375,-1.4237488508224487,-0.0,-0.0,-1.0,0.014895353939002752,1.0,0
51.300472259521484,-0.8122119903564453,-1.1681629419326782,-0.0,-0.0,-1.0,0.03690090853693399,1.0,0
51.846885681152344,-1.0210790634155273,-1.2233058214187622,-0.0,-0.0,-1.0,0.04073602230771052,1.0,0
51.604393005371094,-1.1044025421142578,-1.2339457273483276,-0.0,-0.0,-1.0,0.05708010770184341,1.0,0
52.0369758605957,-1.450699806213379,-1.3153339624404907,-0.0,-0.0,-1.0,0.04746049492047251,1.0,0
52.648399353027344,-1.3777904510498047,-1.321677327156067,-0.0,-0.0,-1.0,0.028373289830599915,1.0,0
52.31767272949219,-1.419053077697754,-1.3180359601974487,-0.0,-0.0,-1.0,0.05302870111883936,1.0,0
50.23960494995117,0.3778343200683594,-0.9148072004318237,-0.0,-0.0,-1.0,0.12062947165034661,1.0,0
50.52363586425781,0.13660240173339844,-0.9651855230331421,-0.0,-0.0,-1.0,0.08857054136159957,1.0,0
50.64202880859375,-0.23395061492919922,-1.04135000705719,-0.0,-0.0,-1.0,0.03633055761871688,1.0,0
50.73093795776367,-0.4708700180053711,-1.0903130769729614,-0.0,-0.0,-1.0,0.019420087900888852,1.0,0
51.05875778198242,-0.555027961730957,-1.1118277311325073,-0.0,-0.0,-1.0,0.036180907148097935,2.0,0
50.84018325805664,-0.5493955612182617,-1.1075466871261597,-0.0,-0.0,-1.0,0.016836133290325385,1.0,0
51.246803283691406,-0.6648035049438477,-1.1372898817062378,-0.0,-0.0,-1.0,0.05455008897050333,1.0,0
50.488014221191406,-0.08726692199707031,-1.1810756921768188,-0.0,-0.0,-1.0,0.05561876855214766,1.0,0
50.3281135559082,-0.08375263214111328,-0.7660006284713745,-0.0,-0.0,-1.0,0.06546216371866387,1.0,0
50.245906829833984,-0.7454719543457031,-0.8878093957901001,-0.0,-0.0,-1.0,0.0338645682775124,1.0,0
52.6998176574707,0.6080770492553711,-1.3319823741912842,-0.0,-0.0,-1.0,0.021936116024601025,1.0,0
52.64434814453125,0.363250732421875,-1.370319128036499,-0.0,-0.0,-1.0,0.019980749515191798,1.0,0
52.45616912841797,0.37011241912841797,-1.343738317489624,-0.0,-0.0,-1.0,0.023986152136138184,1.0,0
50.212646484375,-1.5092763900756836,-1.174365520477295,-0.0,-0.0,-1.0,0.041340884309409374,1.0,0
51.36252212524414,-1.7869815826416016,-0.9575728178024292,-0.0,-0.0,-1.0,0.15669165672985166,1.0,0
51.33134841918945,-1.565378189086914,-0.926672101020813,-0.0,-0.0,-1.0,0.16871931088481212,1.0,0
50.238704681396484,-0.0647573471069336,-0.65343177318573,-0.0,-0.0,-1.0,0.07470807948788492,2.0,0
52.0594482421875,-0.800994873046875,-1.2922894954681396,-0.0,-0.0,-1.0,0.029278230382612545,1.0,0
51.76999282836914,-0.6542816162109375,-1.2564365863800049,-0.0,-0.0,-1.0,0.026671231414848902,1.0,0
50.50639343261719,0.3798408508300781,-1.0367538928985596,-0.0,-0.0,-1.0,0.05511438524249849,1.0,0
51.41617965698242,-0.4185447692871094,-1.2035560607910156,-0.0,-0.0,-1.0,0.02943212369904605,1.0,0
51.043766021728516,-0.32124996185302734,-1.1736466884613037,-0.0,-0.0,-1.0,0.01608156086901925,1.0,0
50.879661560058594,0.37665653228759766,-1.2085422277450562,-0.0,-0.0,-1.0,0.07992878370712123,1.0,0
50.57032012939453,0.59228515625,-1.1586183309555054,-0.0,-0.0,-1.0,0.06020627488209334,1.0,0
51.325889587402344,0.5581827163696289,-1.0536961555480957,-0.0,-0.0,-1.0,0.20702874245880673,2.0,0
50.27784729003906,0.484161376953125,-0.8563743829727173,-0.0,-0.0,-1.0,0.1472789443076819,1.0,0
52.509002685546875,-1.8206653594970703,-1.1833455562591553,-0.0,-0.0,-1.0,0.03057879759219759,1.0,0
51.67598342895508,-1.430842399597168,-1.0441458225250244,-0.0,-0.0,-1.0,0.08970131224936713,1.0,0
51.28169631958008,0.5702304840087891,-1.0352871417999268,-0.0,-0.0,-1.0,0.20702874245880673,2.0,0
51.30055236816406,-1.7069339752197266,-1.1762577295303345,-0.0,-0.0,-1.0,0.11509060959624945,1.0,0
51.19556427001953,-1.5010480880737305,-1.1645787954330444,-0.0,-0.0,-1.0,0.08887250468160561,1.0,0
51.2524299621582,0.6162290573120117,-1.1744943857192993,-0.8028800303253768,0.5961395119712789,-0.0011572257199946579,0.1749910453332691,3.0,0
51.2501220703125,0.5218791961669922,-1.1737831830978394,-0.39056978914841295,0.46017705359078903,-0.7973031538587217,0.17215667139049023,6.0,0
52.6708984375,-0.35828590393066406,-1.3863537311553955,-0.0,-0.0,-1.0,0.01198777220584117,1.0,0
51.27558135986328,0.5048236846923828,-1.1998584270477295,-0.7798939206384533,0.5961489021976052,-0.19071433863181894,0.15671694824032573,4.0,0
51.993309020996094,0.1923351287841797,-1.294196367263794,-0.0,-0.0,-1.0,0.029956138400667517,2.0,0
51.31422805786133,0.5667190551757812,-1.2039949893951416,-0.9378075790614822,-0.34273988902569436,-0.05519341559911279,0.16115326722194317,3.0,0
50.899085998535156,-1.8546009063720703,-1.153618335723877,-0.0,-0.0,-1.0,0.05644238031044663,1.0,0
51.317405700683594,-1.8236970901489258,-1.2044811248779297,-0.0,-0.0,-1.0,0.08120868233018326,1.0,0
51.205020904541016,-1.5732402801513672,-1.1847918033599854,-0.0,-0.0,-1.0,0.0676249514143019,1.0,0
51.312564849853516,0.5642919540405273,-1.16066312789917,-0.9378075790614822,-0.34273988902569436,-0.05519341559911279,0.1611532672219432,3.0,0
50.48616027832031,0.6122894287109375,-1.053030014038086,-0.0,-0.0,-1.0,0.12377998467402535,2.0,0
51.19595718383789,-1.7560319900512695,-1.194254994392395,-0.0,-0.0,-1.0,0.08069940192534625,1.0,0
50.40239715576172,0.5908975601196289,-1.0098458528518677,0.8106963069744468,-0.2915035421368246,-0.5077373167098101,0.13698790903869923,5.0,0
51.206844329833984,0.5868301391601562,-1.1111875772476196,-0.0,-0.0,-1.0,0.16933896016122782,1.0,0
51.535247802734375,-1.5157470703125,-1.0990039110183716,-0.0,-0.0,-1.0,0.16834664450311645,1.0,0
50.767295837402344,0.6281890869140625,-1.2292447090148926,0.2510397882841596,-5.648790748848436e-05,-0.9679767670287137,0.0323517745203266,3.0,0
51.38776397705078,0.5209865570068359,-1.3202626705169678,-0.0,-0.0,-1.0,0.14721710665480855,1.0,0
51.721832275390625,0.4629688262939453,-1.3695058822631836,-0.0,-0.0,-1.0,0.06517662855674847,1.0,0
51.88460159301758,0.5379924774169922,-1.385162591934204,-0.0,-0.0,-1.0,0.06744353632655928,1.0,0
52.24558639526367,0.47158241271972656,-1.4389715194702148,-0.0,-0.0,-1.0,0.028962449315400648,1.0,0
51.22711181640625,0.5359616279602051,-1.1651338338851929,-0.013630293536811784,0.40644289219784363,-0.9135745128230932,0.16933896016122787,5.0,0
51.25154495239258,0.6150612831115723,-1.1620506048202515,-0.8028800303253768,0.5961395119712789,-0.0011572257199946579,0.1749910453332691,3.0,0
52.064109802246094,0.45517873764038086,-1.285246729850769,-0.0,-0.0,-1.0,0.053068039806936834,1.0,0
52.25421142578125,-0.17328166961669922,-1.3614429235458374,-0.0,-0.0,-1.0,0.01726411019280493,1.0,0
52.399993896484375,-0.33522510528564453,-1.3944100141525269,-0.0,-0.0,-1.0,0.01243224962885178,2.0,0
52.54723358154297,0.5291008949279785,-1.3458412885665894,-0.0,-0.0,-1.0,0.02372074533992987,1.0,0
50.40174865722656,0.6080241203308105,-1.0484601259231567,0.7422689761778397,-0.6667969980027985,-0.06647202763837962,0.12672248411779355,5.0,0
52.364768981933594,-0.2285780906677246,-1.4445364475250244,-0.0,-0.0,-1.0,0.013590287953721135,2.0,0
52.460975646972656,0.4478311538696289,-1.4205234050750732,-0.0,-0.0,-1.0,0.023720745339929808,1.0,0
52.455665588378906,0.22458934783935547,-1.4322657585144043,-0.0,-0.0,-1.0,0.016782784486631352,2.0,0
52.703495025634766,0.4750852584838867,-1.4578828811645508,-0.0,-0.0,-1.0,0.017179262416408745,1.0,0
50.309051513671875,-1.3867745399475098,-1.204542636871338,-0.0,-0.0,-1.0,0.041340884309409374,1.0,0
50.42469787597656,0.620511531829834,-1.0855839252471924,0.35361018859038107,-0.8984532940498476,0.2602719979868237,0.10921725666407738,4.0,0
51.23740768432617,0.48409128189086914,-1.2226667404174805,-0.0,-0.0,-1.0,0.1320607178966898,2.0,0
51.87347412109375,0.2833828926086426,-1.3358192443847656,-0.0,-0.0,-1.0,0.07465473872904319,1.0,0
51.914154052734375,-0.11959075927734375,-1.3665359020233154,-0.0,-0.0,-1.0,0.012000002795068883,1.0,0
51.951229095458984,0.3065791130065918,-1.3468525409698486,-0.0,-0.0,-1.0,0.05547794809826696,2.0,0
52.03109359741211,-0.11765909194946289,-1.3849234580993652,-0.0,-0.0,-1.0,0.01261483469862198,1.0,0
51.72566223144531,0.5935134887695312,-1.3928381204605103,-0.0,-0.0,-1.0,0.07120746405054432,1.0,0
50.35246658325195,-0.8456215858459473,-1.0732805728912354,-0.0,-0.0,-1.0,0.0353365108790065,1.0,0
50.768280029296875,-0.8612408638000488,-1.1414031982421875,-0.0,-0.0,-1.0,0.0165884358512903,1.0,0
50.80066680908203,-1.1296849250793457,-1.1620848178863525,-0.0,-0.0,-1.0,0.02822846182306439,1.0,0
50.884098052978516,-1.5298986434936523,-1.1991119384765625,-0.0,-0.0,-1.0,0.043773231897929095,1.0,0
50.87818145751953,-1.7487530708312988,-1.2115237712860107,-0.0,-0.0,-1.0,0.043229702817591184,1.0,0
51.24866485595703,0.5569300651550293,-1.149055004119873,-0.013630293536811784,0.40644289219784363,-0.9135745128230932,0.17499104533326904,5.0,0
52.29754638671875,-0.2288799285888672,-1.3597843647003174,-0.0,-0.0,-1.0,0.013344129382085363,1.0,0
52.3577995300293,0.37764406204223633,-1.3425638675689697,-0.0,-0.0,-1.0,0.027578675541669158,1.0,0
52.62626647949219,-0.04973459243774414,-1.4063074588775635,-0.0,-0.0,-1.0,0.01050043437146403,2.0,0
52.44261169433594,-0.3447113037109375,-1.3893513679504395,-0.0,-0.0,-1.0,0.012819837386557887,2.0,0
50.69990921020508,-1.6443867683410645,-1.0050369501113892,-0.0,-0.0,-1.0,0.031287513813691874,2.0,0
51.396141052246094,-0.6176967620849609,-1.055270791053772,-0.0,-0.0,-1.0,0.046150077923703514,1.0,0
51.67615509033203,-1.2167000770568848,-1.1310263872146606,-0.0,-0.0,-1.0,0.05790957213475807,1.0,0
51.61600875854492,-1.4681658744812012,-1.1357730627059937,-0.0,-0.0,-1.0,0.08653287658874609,1.0,0
51.82530975341797,-1.140552043914795,-1.150161623954773,-0.0,-0.0,-1.0,0.0609567506849946,2.0,0
52.234622955322266,-1.395256519317627,-1.2279270887374878,-0.0,-0.0,-1.0,0.05300281931888816,1.0,0
52.45494842529297,-1.7511835098266602,-1.2820762395858765,-0.0,-0.0,-1.0,0.030578797592197643,1.0,0
50.24831771850586,-1.0077800750732422,-1.18544340133667,-0.0,-0.0,-1.0,0.026865778233493176,1.0,0
50.33601760864258,-1.1112794876098633,-1.2069079875946045,-0.0,-0.0,-1.0,0.027692707755707743,1.0,0
51.3153076171875,-1.6374881267547607,-1.1521865129470825,-0.0,-0.0,-1.0,0.17144094551376604,1.0,0
50.711116790771484,-1.6575431823730469,-1.039507508277893,-0.0,-0.0,-1.0,0.031287513813691874,2.0,0
50.507293701171875,-0.5807012319564819,-1.105391502380371,-0.0,-0.0,-1.0,0.028542069420972697,1.0,0
51.61530303955078,0.46509408950805664,-1.1444324254989624,-0.0,-0.0,-1.0,0.09065433390683074,1.0,0
50.335182189941406,-0.35939550399780273,-0.969699501991272,-0.0,-0.0,-1.0,0.05815395432827836,1.0,0
50.3529167175293,-0.24733972549438477,-0.9785157442092896,-0.0,-0.0,-1.0,0.06882418198855376,1.0,0
50.848602294921875,-1.036156177520752,-0.9777249097824097,-0.0,-0.0,-1.0,0.014872030715290342,1.0,0
50.5657958984375,-0.9699616432189941,-0.9543322324752808,-0.0,-0.0,-1.0,0.03186135469082968,1.0,0
50.27938461303711,-0.5218682289123535,-0.9541486501693726,-0.0,-0.0,-1.0,0.06511926619297399,1.0,0
50.21674346923828,-0.7149815559387207,-0.9361833333969116,-0.0,-0.0,-1.0,0.036342182670687645,1.0,0
50.228271484375,-0.9275336265563965,-0.9243413209915161,-0.0,-0.0,-1.0,0.02893509306019871,1.0,0
50.44141387939453,0.6158361434936523,-1.0489295721054077,0.032782155704884984,-0.9683592599171023,-0.24739780516436036,0.1445350926975115,4.0,0
50.39964294433594,-0.31618833541870117,-0.9611934423446655,-0.0,-0.0,-1.0,0.06721155931216875,2.0,0
50.2700080871582,-1.7435665130615234,-1.1155986785888672,-0.0,-0.0,-1.0,0.031645058741416016,1.0,0
50.95843505859375,-1.6518287658691406,-1.2040276527404785,-0.0,-0.0,-1.0,0.04457465314070755,1.0,0
50.22234344482422,-1.141397476196289,-1.175797462463379,-0.0,-0.0,-1.0,0.021577121129163556,1.0,0
50.37071228027344,-1.2305660247802734,-1.1826720237731934,-0.0,-0.0,-1.0,0.03588161776003273,1.0,0
50.916465759277344,-1.4550819396972656,-1.2202491760253906,-0.0,-0.0,-1.0,0.039473011415270653,1.0,0
51.069664001464844,-1.6710090637207031,-1.2147722244262695,-0.0,-0.0,-1.0,0.02476784694857466,2.0,0
50.78340148925781,-0.581939697265625,-1.042400598526001,-0.0,-0.0,-1.0,0.015810817864031806,1.0,0
50.548545837402344,-0.5314464569091797,-1.0356953144073486,-0.0,-0.0,-1.0,0.021553301466502934,1.0,0
50.27961349487305,-0.5127487182617188,-1.0236918926239014,-0.0,-0.0,-1.0,0.05311115615732912,1.0,0
50.419166564941406,0.1668262481689453,-0.7867412567138672,-0.0,-0.0,-1.0,0.03093100414956223,1.0,0
50.520606994628906,-0.4358348846435547,-1.0354464054107666,-0.0,-0.0,-1.0,0.0398064162204982,1.0,0
50.35349655151367,-1.7051448822021484,-1.1183433532714844,-0.0,-0.0,-1.0,0.03164505874141602,1.0,0
50.37364196777344,-1.7808723449707031,-1.1698343753814697,-0.0,-0.0,-1.0,0.031645058741416036,1.0,0
50.42514419555664,-0.5343475341796875,-1.084951639175415,-0.0,-0.0,-1.0,0.02854206942097262,1.0,0
52.41170120239258,-1.4884414672851562,-1.2659187316894531,-0.0,-0.0,-1.0,0.05774572493916928,1.0,0
51.40077209472656,-1.633070945739746,-1.146862506866455,-0.0,-0.0,-1.0,0.18316595023686127,1.0,0
50.35090255737305,-0.2710866928100586,-0.8983840942382812,-0.0,-0.0,-1.0,0.06792463920956009,1.0,0
50.43876647949219,-0.42504310607910156,-1.0342199802398682,-0.0,-0.0,-1.0,0.03885362841105822,1.0,0
50.31450653076172,-0.3462362289428711,-1.0273516178131104,-0.0,-0.0,-1.0,0.04592658361804589,1.0,0
50.382171630859375,-0.3242974281311035,-1.003868818283081,-0.0,-0.0,-1.0,0.04574045122389977,2.0,0
51.261085510253906,-1.426778793334961,-1.2008564472198486,-0.0,-0.0,-1.0,0.11113843281426415,2.0,0
51.36962127685547,-1.6492195129394531,-1.2114689350128174,-0.0,-0.0,-1.0,0.1134618615663151,1.0,0
51.37530517578125,0.6109180450439453,-1.2205932140350342,-0.0,-0.0,-1.0,0.15498784664300336,1.0,0
52.27457046508789,0.2924947738647461,-1.3607606887817383,-0.0,-0.0,-1.0,0.024485019503503392,1.0,0
52.539703369140625,0.5782737731933594,-1.3955888748168945,-0.0,-0.0,-1.0,0.018410594366721825,1.0,0
50.21942901611328,-1.7717247009277344,-1.091282844543457,-0.0,-0.0,-1.0,0.02867017797043734,1.0,0
50.91581726074219,-1.4522809982299805,-1.1378374099731445,-0.0,-0.0,-1.0,0.03947301141527066,1.0,0
50.91366958618164,-1.2767324447631836,-1.1113128662109375,-0.0,-0.0,-1.0,0.031402769216803544,1.0,0
51.436119079589844,-0.8806295394897461,-1.1238594055175781,-0.0,-0.0,-1.0,0.03674916836781986,1.0,0
51.78089141845703,0.5445365905761719,-1.3668866157531738,-0.0,-0.0,-1.0,0.0654468403249447,1.0,0
51.89741897583008,0.46448755264282227,-1.4250950813293457,-0.0,-0.0,-1.0,0.06744353632655924,2.0,0
51.72048568725586,-1.6894681453704834,-1.048530101776123,-0.0,-0.0,-1.0,0.10925990794063967,1.0,0
51.83129119873047,-0.9060275554656982,-1.1191411018371582,-0.0,-0.0,-1.0,0.04616549294194871,1.0,0
52.11192321777344,-1.3332602977752686,-1.1430821418762207,-0.0,-0.0,-1.0,0.044403232879313616,1.0,0
52.0635871887207,-0.6036355495452881,-1.1821532249450684,-0.0,-0.0,-1.0,0.021087817078696607,1.0,0
52.337188720703125,-1.598052740097046,-1.16776704788208,-0.0,-0.0,-1.0,0.06482146324139923,1.0,0
51.515869140625,-1.4275562763214111,-1.0647425651550293,-0.0,-0.0,-1.0,0.15470141356858397,2.0,0
51.427799224853516,-1.7256768941879272,-1.0365447998046875,-0.0,-0.0,-1.0,0.17071345553623424,1.0,0
50.93575668334961,0.5238873958587646,-1.085376262664795,-0.0,-0.0,-1.0,0.07058931314219616,1.0,0
51.450294494628906,-1.8075637817382812,-0.932548999786377,-0.0,-0.0,-1.0,0.15552036517996226,1.0,0
52.25205993652344,-1.852973461151123,-1.1165528297424316,-0.0,-0.0,-1.0,0.03082443346155756,1.0,0
51.564422607421875,-1.1500322818756104,-1.1150479316711426,-0.0,-0.0,-1.0,0.056586505595187776,1.0,0
51.91358184814453,-1.5533027648925781,-1.1091313362121582,-0.0,-0.0,-1.0,0.03870022720424058,1.0,0
52.07444763183594,-0.5854814648628235,-1.271167278289795,-0.0,-0.0,-1.0,0.020250530222281297,1.0,0
50.7730598449707,0.47399479150772095,-1.2322487831115723,-0.0,-0.0,-1.0,0.030156170793534012,1.0,0
52.37943649291992,-0.28921079635620117,-1.3588032722473145,-0.0,-0.0,-1.0,0.014499515488236268,1.0,0
