x,y,z,nx,ny,nz,curvature,density,label
54.172367095947266,-9.398950576782227,-0.8739311695098877,-0.0,-0.0,-1.0,0.02696184464237821,1.0,0
53.58262634277344,-9.615428924560547,-0.8343832492828369,-0.0,-0.0,-1.0,0.009930769760068016,1.0,0
53.09367370605469,-10.779376983642578,-0.7704899311065674,-0.0,-0.0,-1.0,0.08195643550476736,2.0,0
53.77257537841797,-10.771671295166016,-0.8217206001281738,-0.0,-0.0,-1.0,0.07229738259743683,1.0,0
54.252349853515625,-9.382904052734375,-0.8703548908233643,0.8881758373588974,0.4528915265197667,-0.07767204863022828,0.026961844642378212,4.0,0
53.507347106933594,-10.67314338684082,-0.815142035484314,-0.0,-0.0,-1.0,0.052052269877202115,1.0,0
53.18680953979492,-10.14914608001709,-0.4792064428329468,-0.0,-0.0,-1.0,0.12612680607990626,1.0,0
54.24678039550781,-9.391502380371094,-0.889187216758728,0.8672420295301821,0.3032070464498116,-0.39491359713176805,0.026961844642378212,3.0,0
53.93840026855469,-10.285686492919922,-0.8261117935180664,-0.0,-0.0,-1.0,0.04889423611029381,2.0,0
53.899871826171875,-10.062362670898438,-0.7798540592193604,-0.0,-0.0,-1.0,0.06646905303786398,1.0,0
53.73271942138672,-9.937945365905762,-0.8185179233551025,-0.0,-0.0,-1.0,0.0073069985428630526,2.0,0
52.96003723144531,-9.981345176696777,-0.836944580078125,-0.0,-0.0,-1.0,0.026106596533274986,1.0,0
53.53548049926758,-11.37149715423584,-0.8540177345275879,-0.0,-0.0,-1.0,0.03079169371970141,1.0,0
52.892093658447266,-10.963476181030273,-0.7983102798461914,-0.0,-0.0,-1.0,0.035143553209758364,1.0,0
52.87908935546875,-10.623498916625977,-0.8229265213012695,-0.0,-0.0,-1.0,0.03518611648360775,1.0,0
52.80093002319336,-10.195296287536621,-0.8458242416381836,-0.0,-0.0,-1.0,0.029360869659659453,1.0,0
52.922019958496094,-9.88691520690918,-0.8866405487060547,-0.0,-0.0,-1.0,0.015294239761790191,1.0,0
53.062747955322266,-9.581976890563965,-0.9300222396850586,-0.0,-0.0,-1.0,0.01685770906933601,1.0,0
53.073848724365234,-9.417123794555664,-0.9447207450866699,-0.0,-0.0,-1.0,0.022700005991533254,1.0,0
52.70991897583008,-9.74738883972168,-0.8478589057922363,-0.0,-0.0,-1.0,0.016316031019962502,2.0,0
52.95250701904297,-9.561216354370117,-0.8770909309387207,-0.0,-0.0,-1.0,0.018215032609441403,1.0,0
54.10951232910156,-9.701872825622559,-0.8524608612060547,0.5437096360690838,0.005423529959869317,-0.8392558709764255,0.04422209087967757,4.0,0
53.73431396484375,-9.727154731750488,-0.8313000202178955,-0.0,-0.0,-1.0,0.011350240493678953,1.0,0
53.3497314453125,-9.837376594543457,-0.8141472339630127,-0.0,-0.0,-1.0,0.022514036583613287,2.0,0
52.87657165527344,-9.99668025970459,-0.7944693565368652,-0.0,-0.0,-1.0,0.023356706286789375,1.0,0
53.978309631347656,-10.065545082092285,0.9022059440612793,-0.0,-0.0,-1.0,0.053854199285654075,1.0,1
54.078060150146484,-9.978460311889648,-0.0379939079284668,-0.0,-0.0,-1.0,0.007296955944100668,1.0,0
54.248565673828125,-9.378978729248047,-0.821380615234375,-0.0,-0.0,-1.0,0.026961844642378215,2.0,0
53.1505241394043,-9.468387603759766,-0.9056181907653809,-0.0,-0.0,-1.0,0.023562353819942358,2.0,0
52.816776275634766,-10.456457138061523,-0.7780420780181885,-0.0,-0.0,-1.0,0.0284736381409721,1.0,0
52.80777359008789,-10.787393569946289,-0.7781648635864258,-0.0,-0.0,-1.0,0.01842362952005048,2.0,0
52.99125289916992,-11.53990364074707,-0.7959058284759521,-0.7378134291121696,-0.6463319503380263,-0.19464417225795588,0.02067978065322581,3.0,0
53.025386810302734,-10.215263366699219,-0.7952413558959961,-0.0,-0.0,-1.0,0.03181141341795328,1.0,0
53.80015563964844,-9.551151275634766,-0.8599541187286377,-0.0,-0.0,-1.0,0.011244165295344574,2.0,0
54.009063720703125,-9.506507873535156,-0.8777666091918945,-0.0,-0.0,-1.0,0.021770074758193786,2.0,0
53.658592224121094,-10.541006088256836,0.08234500885009766,-0.0,-0.0,-1.0,0.03427504511476294,1.0,1
52.790245056152344,-10.828317642211914,-0.789006233215332,-0.0,-0.0,-1.0,0.018526615763772836,2.0,0
52.722869873046875,-11.085521697998047,-0.7758080959320068,-0.0,-0.0,-1.0,0.031050300062422743,1.0,0
52.874298095703125,-10.489421844482422,-0.805976152420044,-0.0,-0.0,-1.0,0.03977217769324655,2.0,0
53.105220794677734,-10.380748748779297,-0.8338868618011475,-0.0,-0.0,-1.0,0.0775417778330156,1.0,0
53.66108703613281,-9.43116569519043,-0.9178059101104736,-0.0,-0.0,-1.0,0.019170890997188297,1.0,0
53.60578536987305,-9.586734771728516,-0.9079244136810303,-0.0,-0.0,-1.0,0.0236149493589438,1.0,0
54.093711853027344,-10.040939331054688,-0.7926137447357178,-0.0,-0.0,-1.0,0.12654496112071756,1.0,0
53.94959259033203,-10.193622589111328,-0.47493767738342285,-0.0,-0.0,-1.0,0.10491366702188877,2.0,0
53.294715881347656,-11.837120056152344,-0.8154716491699219,-0.0,-0.0,-1.0,0.026949866905614853,1.0,0
52.88569641113281,-11.666919708251953,-0.7686378955841064,-0.0,-0.0,-1.0,0.014810788628380048,1.0,0
52.88768768310547,-10.997562408447266,-0.7567324638366699,-0.0,-0.0,-1.0,0.034996845349689595,1.0,0
53.047977447509766,-10.784229278564453,-0.7703807353973389,-0.0,-0.0,-1.0,0.05968585909402648,2.0,0
53.523681640625,-10.278860092163086,-0.8141391277313232,-0.0,-0.0,-1.0,0.023777551794234145,1.0,0
53.68535614013672,-10.07423210144043,-0.8288946151733398,-0.0,-0.0,-1.0,0.005995571455464128,1.0,0
53.86599349975586,-9.894485473632812,-0.8463397026062012,-0.0,-0.0,-1.0,0.014571162019479658,1.0,0
54.088741302490234,-9.666942596435547,-0.8680858612060547,0.23995101321052587,-0.4133221182274137,-0.8784010119775856,0.04532604227800777,4.0,0
52.71284484863281,-9.715587615966797,-0.84494948387146,-0.0,-0.0,-1.0,0.016316031019962502,2.0,0
53.082679748535156,-9.530031204223633,-0.8818979263305664,-0.0,-0.0,-1.0,0.017169649990187472,1.0,0
52.91004943847656,-9.599651336669922,-0.8565289974212646,-0.0,-0.0,-1.0,0.0173413128759635,2.0,0
53.24073028564453,-9.37380599975586,-0.8881621360778809,-0.0,-0.0,-1.0,0.021368210612038748,1.0,0
53.18566131591797,-10.569787979125977,-0.5192422866821289,-0.0,-0.0,-1.0,0.12090668873299813,1.0,0
53.230079650878906,-10.556327819824219,-0.5837991237640381,-0.0,-0.0,-1.0,0.18692321459411165,1.0,0
54.02416229248047,-10.19975471496582,0.4765781760215759,-0.0,-0.0,-1.0,0.013110278514981847,1.0,1
52.809268951416016,-9.921377182006836,-0.8221063613891602,-0.0,-0.0,-1.0,0.01597925255183232,2.0,0
53.15361404418945,-9.76742935180664,-0.8445842266082764,0.6759264732311646,0.4103482486048613,-0.6121582455968412,0.025108834864934967,3.0,0
53.3748779296875,-9.617425918579102,-0.8576974868774414,-0.0,-0.0,-1.0,0.042482509620544937,2.0,0
53.65789031982422,-9.548791885375977,-0.8787388801574707,-0.0,-0.0,-1.0,0.021462561788577198,1.0,0
53.91364288330078,-9.443231582641602,-0.8966619968414307,-0.0,-0.0,-1.0,0.008775698145771386,1.0,0
52.832279205322266,-10.730697631835938,-0.8232135772705078,-0.0,-0.0,-1.0,0.02730379629787865,2.0,0
52.790626525878906,-9.908105850219727,-0.7898685932159424,-0.0,-0.0,-1.0,0.014739274429996348,2.0,0
53.18943405151367,-9.778823852539062,-0.8126709461212158,-0.0,-0.0,-1.0,0.026968426464813972,2.0,0
53.42340087890625,-9.65753173828125,-0.8245446681976318,-0.0,-0.0,-1.0,0.02685475953747703,2.0,0
54.04704666137695,-9.856048583984375,-0.8743488788604736,-0.0,-0.0,-1.0,0.03283391833896372,1.0,0
53.69329071044922,-9.594160079956055,-0.841597318649292,-0.0,-0.0,-1.0,0.009483245088847363,1.0,0
53.809242248535156,-9.580915451049805,-0.849557638168335,-0.0,-0.0,-1.0,0.011992282524316058,2.0,0
54.06345748901367,-10.121463775634766,0.19923973083496094,-0.0,-0.0,-1.0,0.00642435270278638,2.0,1
53.99714279174805,-10.20782470703125,0.9351028203964233,-0.0,-0.0,-1.0,0.056344030994887294,2.0,1
54.02373123168945,-10.105096817016602,-0.07002067565917969,0.2059371808170226,-0.6604516692683708,-0.7220758063512165,0.007680067101927957,4.0,0
53.998905181884766,-10.185638427734375,0.8783891201019287,-0.4999112504115298,-0.7577962781501659,0.4193251036293167,0.05404633992137796,3.0,1
53.906795501708984,-10.15121841430664,0.7698104977607727,-0.0,-0.0,-1.0,0.05879880546290315,1.0,1
54.051883697509766,-10.113302230834961,-0.12507760524749756,0.7224098881422576,-0.6472699467237433,0.24323973684933478,0.00742685483199483,3.0,0
54.03079605102539,-10.138137817382812,0.8631612062454224,-0.0,-0.0,-1.0,0.05404633992137793,2.0,1
52.93115234375,-9.624082565307617,-0.8761798143386841,-0.0,-0.0,-1.0,0.01505301676678165,2.0,0
53.31968688964844,-9.439146041870117,-0.8989020586013794,-0.0,-0.0,-1.0,0.021031129325648393,2.0,0
53.53252410888672,-9.364801406860352,-0.9132763147354126,-0.0,-0.0,-1.0,0.022601046696000302,1.0,0
54.04001998901367,-10.144758224487305,-0.02708137035369873,0.4354451200852003,-0.78161650694354,-0.4466130130967579,0.007401379784886176,3.0,0
54.020729064941406,-10.220657348632812,0.9488685131072998,-0.0,-0.0,-1.0,0.056344030994887294,2.0,1
52.72725296020508,-11.856973648071289,-0.8081634044647217,-0.0,-0.0,-1.0,0.012462442872216786,1.0,0
52.902374267578125,-11.513643264770508,-0.8002529144287109,-0.0,-0.0,-1.0,0.021778660929782253,1.0,0
52.96479797363281,-11.118684768676758,-0.7811808586120605,-0.0,-0.0,-1.0,0.03590717614569872,1.0,0
53.009334564208984,-10.884281158447266,-0.7704672813415527,-0.0,-0.0,-1.0,0.05370782489156458,1.0,0
53.295867919921875,-10.637216567993164,-0.7772645950317383,-0.0,-0.0,-1.0,0.1986365512070965,1.0,0
53.69257736206055,-10.717388153076172,-0.8123595714569092,-0.0,-0.0,-1.0,0.08189926513504357,1.0,0
53.94303894042969,-10.303874969482422,-0.8075838088989258,-0.0,-0.0,-1.0,0.11161783502980263,2.0,0
52.852684020996094,-9.877252578735352,-0.8573786020278931,-0.0,-0.0,-1.0,0.01388925312896238,1.0,0
53.22095489501953,-9.8179931640625,-0.8692678213119507,-0.0,-0.0,-1.0,0.02821911910734391,1.0,0
53.439109802246094,-9.725914001464844,-0.8723264932632446,-0.0,-0.0,-1.0,0.026401468310747158,2.0,0
53.67584228515625,-9.725765228271484,-0.883186936378479,-0.0,-0.0,-1.0,0.009066152663141237,2.0,0
54.08147048950195,-9.628673553466797,-0.8951250314712524,-0.0,-0.0,-1.0,0.041355423594569805,2.0,0
52.918670654296875,-9.948799133300781,-0.8265674114227295,-0.0,-0.0,-1.0,0.01752957332829721,1.0,0
53.18085479736328,-9.891321182250977,-0.8386564254760742,-0.0,-0.0,-1.0,0.02631808068408338,2.0,0
53.43779754638672,-9.804975509643555,-0.8485431671142578,-0.0,-0.0,-1.0,0.02364477906841902,1.0,0
53.68982696533203,-9.721324920654297,-0.8585052490234375,0.7613724217736987,-0.5573788204851364,-0.33112065148077224,0.009066152663141282,3.0,0
53.95227813720703,-9.674497604370117,-0.8721966743469238,-0.0,-0.0,-1.0,0.014629779133571908,1.0,0
54.25874710083008,-9.403806686401367,-0.8723549842834473,0.7587647722306916,0.4087427330458125,-0.5071542158002298,0.02696184464237821,4.0,0
54.06917190551758,-10.078666687011719,0.000125885009765625,-0.0,-0.0,-1.0,0.006729487127362937,1.0,1
52.93301773071289,-10.059586524963379,-0.8155251741409302,-0.0,-0.0,-1.0,0.02528053099375745,1.0,0
53.139801025390625,-10.009814262390137,-0.8195410966873169,-0.0,-0.0,-1.0,0.027317659162968043,1.0,0
53.438377380371094,-9.975855827331543,-0.8288794755935669,-0.0,-0.0,-1.0,0.017514474738255008,1.0,0
53.69544219970703,-9.94335651397705,-0.8369489908218384,0.4317019990567979,0.08479658749049847,-0.8980216716540481,0.006748128528750294,3.0,0
53.9454345703125,-9.869488716125488,-0.8417373895645142,-0.0,-0.0,-1.0,0.0328125101046309,1.0,0
54.210975646972656,-9.630293846130371,-0.8340317010879517,-0.0,-0.0,-1.0,0.039813317429167584,1.0,0
53.94095230102539,-10.147913932800293,0.8879626393318176,-0.0,-0.0,-1.0,0.05388688631928393,1.0,1
54.032588958740234,-10.10441780090332,0.6245965957641602,0.17769143007625787,-0.27271671336342945,-0.9455428863513827,0.03722770645320286,4.0,1
54.04487228393555,-10.11819076538086,0.38341468572616577,-0.0,-0.0,-1.0,0.0069869742498827846,1.0,1
53.131168365478516,-9.894171714782715,-0.8341656923294067,-0.0,-0.0,-1.0,0.0282536154387475,2.0,0
53.514198303222656,-9.87437915802002,-0.8418828248977661,-0.0,-0.0,-1.0,0.019797246772766265,1.0,0
53.89435958862305,-9.848311424255371,-0.8494902849197388,-0.0,-0.0,-1.0,0.014823830966574617,1.0,0
54.0449333190918,-10.13188648223877,0.7561846971511841,-0.0,-0.0,-1.0,0.06276562656372965,1.0,1
54.050804138183594,-10.128087043762207,0.46307820081710815,-0.0,-0.0,-1.0,0.011589709310098544,1.0,1
54.024513244628906,-10.064961433410645,0.5105880498886108,-0.0,-0.0,-1.0,0.021589556051816623,1.0,1
53.278839111328125,-10.465169906616211,-0.5752748250961304,-0.0,-0.0,-1.0,0.24140059016453458,1.0,0
54.014732360839844,-10.097417831420898,0.22280776500701904,-0.0,-0.0,-1.0,0.0064243527027863815,2.0,1
54.08750534057617,-10.058452606201172,0.2236114740371704,-0.0,-0.0,-1.0,0.006383945203413431,1.0,1
54.01787185668945,-10.129510879516602,1.000474452972412,-0.0,-0.0,-1.0,0.04550660938164545,2.0,2
52.89158630371094,-10.454414367675781,-0.784394383430481,-0.24016789709797007,0.5925997207008195,-0.7688595139743343,0.03912644570623896,3.0,0
53.33167266845703,-10.529701232910156,-0.7985368967056274,-0.0,-0.0,-1.0,0.2039598538964704,1.0,0
53.12716293334961,-10.454475402832031,-0.788040041923523,-0.0,-0.0,-1.0,0.18364766076833414,1.0,0
53.89176559448242,-10.340322494506836,-0.790575385093689,-0.0,-0.0,-1.0,0.09783324257111817,1.0,0
53.649166107177734,-10.561410903930664,-0.8070458173751831,-0.0,-0.0,-1.0,0.02245104713584928,2.0,0
53.9762077331543,-10.179279327392578,-0.004385471343994141,-0.0,-0.0,-1.0,0.006729487127362975,2.0,0
53.975303649902344,-10.203472137451172,0.7642549276351929,-0.0,-0.0,-1.0,0.06173133822283523,1.0,1
53.98357009887695,-9.751721382141113,-0.49126672744750977,-0.0,-0.0,-1.0,0.12611163381310136,1.0,0
53.751739501953125,-9.853636741638184,-0.48683011531829834,-0.0,-0.0,-1.0,0.14250262610093975,1.0,0
53.478790283203125,-9.957268714904785,-0.48062241077423096,-0.0,-0.0,-1.0,0.1810909262796558,1.0,0
53.30628967285156,-10.109663963317871,-0.482258677482605,-0.0,-0.0,-1.0,0.14893106169540063,1.0,0
54.07754898071289,-9.723506927490234,-0.8760057687759399,0.3549204287525753,0.3968664653949765,-0.8464800634976505,0.04422209087967756,3.0,0
53.708927154541016,-9.687606811523438,-0.8713446855545044,-0.043326098936364875,-0.33399817836012236,-0.9415774349479049,0.010098870227018907,3.0,0
53.307838439941406,-9.671518325805664,-0.8688300848007202,-0.0,-0.0,-1.0,0.03367873624790543,1.0,0
52.92477035522461,-9.681222915649414,-0.8691509962081909,-0.0,-0.0,-1.0,0.01924801989719099,1.0,0
52.84722137451172,-10.210243225097656,-0.7398132085800171,-0.0,-0.0,-1.0,0.02895486574451526,1.0,0
54.065948486328125,-10.097060203552246,-0.542965292930603,-0.0,-0.0,-1.0,0.07791508867716462,2.0,0
53.20356750488281,-10.75049877166748,-0.7630382776260376,-0.0,-0.0,-1.0,0.18969820904300735,2.0,0
53.563812255859375,-10.337447166442871,-0.8031164407730103,-0.0,-0.0,-1.0,0.03555650333477536,1.0,0
53.74458312988281,-10.140608787536621,-0.8229876756668091,0.29956141660856805,0.7718303241146309,-0.5608394676345202,0.009611009010178207,3.0,0
54.08097839355469,-9.697144508361816,-0.8622080087661743,0.5437096360690838,0.005423529959869317,-0.8392558709764255,0.04422209087967757,4.0,0
54.07374572753906,-10.069853782653809,0.5303390026092529,-0.0,-0.0,-1.0,0.02292350585592761,1.0,1
54.073524475097656,-10.103885650634766,0.5748112201690674,-0.0,-0.0,-1.0,0.037227706453202884,1.0,1
53.31163024902344,-10.704451560974121,-0.7500207424163818,-0.0,-0.0,-1.0,0.18133453009052988,1.0,0
53.754520416259766,-10.376049995422363,-0.8109896183013916,-0.0,-0.0,-1.0,0.008325826681183842,1.0,0
53.75337219238281,-10.143908500671387,-0.8228342533111572,0.29956141660856805,0.7718303241146309,-0.5608394676345202,0.009611009010178176,3.0,0
53.97216033935547,-9.533642768859863,-0.876863956451416,-0.0,-0.0,-1.0,0.021899505696653946,2.0,0
53.917762756347656,-10.27005386352539,0.7645388841629028,-0.0,-0.0,-1.0,0.05879880546290316,1.0,1
54.06504821777344,-10.104339599609375,-0.5260019302368164,-0.0,-0.0,-1.0,0.07768692867124254,2.0,0
53.998817443847656,-10.132266998291016,0.6863000392913818,-0.9529264772722187,0.01449801654591916,0.30285464571274734,0.05087288669970428,4.0,1
54.056396484375,-10.138014793395996,0.078102707862854,-0.0,-0.0,-1.0,0.006733445202910462,1.0,1
54.056983947753906,-10.093228340148926,-0.0868077278137207,-0.2516482830080464,-0.9639159584900199,-0.08682837455214801,0.007680067101927929,4.0,0
54.01565933227539,-10.150588035583496,0.6992194652557373,-0.9529264772722187,0.01449801654591916,0.30285464571274734,0.056321959858726435,4.0,1
53.468482971191406,-9.418139457702637,-0.8972669839859009,-0.0,-0.0,-1.0,0.024921901154237383,1.0,0
54.00164794921875,-10.22994327545166,0.1389305591583252,-0.0,-0.0,-1.0,0.006529444819560438,1.0,1
54.03256607055664,-10.198439598083496,1.0735905170440674,-0.0,-0.0,-1.0,0.04550660938164545,1.0,2
53.290306091308594,-10.856827735900879,-0.7535667419433594,-0.0,-0.0,-1.0,0.11284448530901023,1.0,0
53.95733642578125,-10.368680000305176,-0.7966790199279785,-0.0,-0.0,-1.0,0.09624555142147628,2.0,0
53.24946594238281,-10.8887939453125,-0.7482538223266602,-0.0,-0.0,-1.0,0.0688901260879541,1.0,0
54.009124755859375,-10.248785018920898,-0.7983653545379639,-0.0,-0.0,-1.0,0.1700302247046272,2.0,0
52.856021881103516,-9.699256896972656,-0.8581167459487915,-0.0,-0.0,-1.0,0.020334985579793796,1.0,0
53.01408386230469,-9.650236129760742,-0.8688455820083618,-0.0,-0.0,-1.0,0.017942931774686352,1.0,0
53.347354888916016,-9.464580535888672,-0.8888829946517944,-0.0,-0.0,-1.0,0.022382079092931592,2.0,0
54.024627685546875,-10.187002182006836,0.0036165714263916016,-0.0,-0.0,-1.0,0.006729487127362975,2.0,1
53.24274444580078,-10.54106330871582,-0.5371935367584229,-0.0,-0.0,-1.0,0.17326644332376548,1.0,0
54.017486572265625,-10.1221923828125,-0.23607027530670166,-0.0,-0.0,-1.0,0.042582262377995644,1.0,0
54.0114860534668,-10.118349075317383,0.6761998534202576,-0.9529264772722187,0.01449801654591916,0.30285464571274734,0.044707949757322486,4.0,1
52.83300018310547,-9.802778244018555,-0.8502297401428223,-0.0,-0.0,-1.0,0.017452683435101327,1.0,0
53.12149429321289,-9.739313125610352,-0.8612027168273926,-0.0,-0.0,-1.0,0.02583943741256642,2.0,0
53.385765075683594,-9.65501594543457,-0.8696351051330566,-0.0,-0.0,-1.0,0.041838140922319675,2.0,0
53.661659240722656,-9.634639739990234,-0.8832874298095703,-0.0,-0.0,-1.0,0.010459829570637326,1.0,0
53.92729187011719,-9.602659225463867,-0.8957297801971436,-0.0,-0.0,-1.0,0.011739698737450413,1.0,0
54.094764709472656,-9.52621841430664,-0.899932861328125,-0.0,-0.0,-1.0,0.026961844642378215,1.0,0
53.997520446777344,-10.11512565612793,0.8525376915931702,-0.5723667364281688,-0.819822772484754,0.016939325428691535,0.0554841590749052,3.0,1
54.003135681152344,-10.107035636901855,0.6194931268692017,0.18898126512898852,-0.5765276045263716,-0.7949226394117418,0.0331364476676724,3.0,1
52.71479415893555,-10.323824882507324,-0.8303095102310181,-0.0,-0.0,-1.0,0.024047698932550245,1.0,0
53.223880767822266,-10.096495628356934,-0.8409165143966675,-0.0,-0.0,-1.0,0.025981519631792998,2.0,0
53.255897521972656,-10.130532264709473,-0.8450490236282349,-0.0,-0.0,-1.0,0.03262904909220748,2.0,0
53.60472869873047,-10.0260648727417,-0.8565255403518677,-0.0,-0.0,-1.0,0.005341257482237789,1.0,0
53.98674011230469,-9.881392478942871,-0.8674365282058716,-0.0,-0.0,-1.0,0.03212642312903228,1.0,0
53.99626159667969,-10.114794731140137,0.8260180950164795,-0.0,-0.0,-1.0,0.0554841590749052,2.0,1
52.777870178222656,-10.897897720336914,-0.8127847909927368,-0.0,-0.0,-1.0,0.027271912575664206,1.0,0
52.725852966308594,-11.392444610595703,-0.828781247138977,-0.0,-0.0,-1.0,0.02702312173786813,1.0,0
54.21333312988281,-9.57571029663086,-0.8931020498275757,-0.0,-0.0,-1.0,0.039744649818825875,2.0,0
54.14671325683594,-9.684093475341797,-0.8910046815872192,-0.0,-0.0,-1.0,0.04534107684575276,1.0,0
52.846744537353516,-10.557096481323242,-0.8049634695053101,-0.0,-0.0,-1.0,0.03567174607769681,2.0,0
52.92909622192383,-10.471126556396484,-0.8089922666549683,-0.0,-0.0,-1.0,0.04099380477237176,2.0,0
53.485313415527344,-10.086057662963867,-0.8448580503463745,-0.0,-0.0,-1.0,0.012581774780081439,1.0,0
53.745845794677734,-9.893495559692383,-0.8615375757217407,-0.0,-0.0,-1.0,0.008235609245415195,1.0,0
54.00750732421875,-9.720611572265625,-0.8793052434921265,-0.0,-0.0,-1.0,0.03266724692854535,2.0,0
54.05187225341797,-10.178653717041016,0.7235668301582336,-0.0,-0.0,-1.0,0.05562162378234941,2.0,1
53.2501106262207,-10.565696716308594,-0.6921026706695557,-0.0,-0.0,-1.0,0.20217492233401005,1.0,0
54.005165100097656,-10.191963195800781,0.8744220733642578,-0.4999112504115298,-0.7577962781501659,0.4193251036293167,0.05634403099488737,3.0,1
53.265724182128906,-10.506837844848633,-0.6745699644088745,-0.0,-0.0,-1.0,0.19431054546099455,1.0,0
54.01642608642578,-10.144590377807617,-0.050379037857055664,0.6307758284476639,-0.4359344087284749,-0.6419369482532677,0.0076800671019279475,3.0,0
53.98655700683594,-10.176904678344727,0.6348733901977539,-0.0,-0.0,-1.0,0.04470794975732241,2.0,1
54.05608367919922,-10.13709831237793,0.21004843711853027,0.7733518895833892,-0.5643860188794607,-0.2887824034999264,0.006424352702786386,3.0,1
54.029869079589844,-10.2135009765625,0.8649510145187378,-0.4999112504115298,-0.7577962781501659,0.4193251036293167,0.05634403099488732,3.0,1
52.84954071044922,-9.421878814697266,-0.8837049007415771,-0.0,-0.0,-1.0,0.017388442284690227,1.0,0
54.026283264160156,-10.108482360839844,-0.427266001701355,-0.0,-0.0,-1.0,0.05182555115045115,1.0,0
54.02531814575195,-10.175323486328125,0.20236504077911377,-0.0,-0.0,-1.0,0.006424352702786383,2.0,1
53.96125030517578,-10.202975273132324,0.8338234424591064,-0.0,-0.0,-1.0,0.0612231246513466,1.0,1
53.46485137939453,-11.093950271606445,-0.8794187307357788,-0.0,-0.0,-1.0,0.04464269358723072,1.0,0
52.963417053222656,-11.212224006652832,-0.8404444456100464,-0.0,-0.0,-1.0,0.037094178950746334,1.0,0
52.914527893066406,-11.305118560791016,-0.8414088487625122,-0.1009392166008535,0.2267333423723647,-0.9687121688141748,0.03251581958210607,3.0,0
53.81269836425781,-9.681035041809082,-0.8371975421905518,-0.0,-0.0,-1.0,0.010301857268484583,1.0,0
53.996482849121094,-9.441502571105957,-0.8691332340240479,-0.0,-0.0,-1.0,0.02229112669771887,2.0,0
53.861045837402344,-10.087276458740234,-0.8173682689666748,-0.0,-0.0,-1.0,0.02034717898151257,1.0,0
54.13136291503906,-9.855652809143066,1.0654155015945435,-0.0,-0.0,-1.0,0.04157837702783437,1.0,2
54.03951644897461,-10.136795043945312,-0.8683840036392212,-0.0,-0.0,-1.0,0.024931321931511898,1.0,0
54.14274215698242,-9.821348190307617,-0.8779407739639282,-0.0,-0.0,-1.0,0.03712747950907071,1.0,0
54.221858978271484,-9.599825859069824,-0.8886915445327759,-0.0,-0.0,-1.0,0.03974464981882587,2.0,0
53.99400329589844,-9.726536750793457,-0.8731909990310669,-0.0,-0.0,-1.0,0.03242030663983901,2.0,0
53.6606330871582,-9.912959098815918,-0.8508123159408569,-0.0,-0.0,-1.0,0.005181695486849438,2.0,0
53.25999450683594,-10.232221603393555,-0.8257871866226196,-0.0,-0.0,-1.0,0.06215936667514585,1.0,0
53.35505676269531,-10.059186935424805,-0.830274224281311,-0.0,-0.0,-1.0,0.017957543763407642,1.0,0
52.811344146728516,-10.732115745544434,-0.8012176752090454,-0.0,-0.0,-1.0,0.025250843684601756,2.0,0
52.937469482421875,-10.416068077087402,-0.8051258325576782,-0.0,-0.0,-1.0,0.03890056250596686,1.0,0
54.006614685058594,-10.32073974609375,-0.8313982486724854,-0.0,-0.0,-1.0,0.09967938338722102,1.0,0
54.052581787109375,-10.055156707763672,-0.8260300159454346,-0.0,-0.0,-1.0,0.10296811214745377,1.0,0
53.16680908203125,-10.82621955871582,-0.7972080707550049,-0.0,-0.0,-1.0,0.0821213945821006,1.0,0
54.01399230957031,-10.103410720825195,0.23223531246185303,-0.0,-0.0,-1.0,0.006424352702786382,2.0,1
53.02001953125,-9.983461380004883,-0.8065125942230225,-0.0,-0.0,-1.0,0.026005666518286934,1.0,0
52.85185241699219,-10.083822250366211,-0.8008468151092529,-0.0,-0.0,-1.0,0.021788195235196924,2.0,0
54.019630432128906,-10.090319633483887,-0.5738017559051514,-0.0,-0.0,-1.0,0.10248044361660646,1.0,0
54.21981430053711,-9.592470169067383,-0.962228536605835,-0.0,-0.0,-1.0,0.02627217433247157,1.0,0
54.00254821777344,-10.156047821044922,0.6646453142166138,-0.6695049524762477,0.6597494304470487,-0.34131189202044043,0.04470794975732249,6.0,1
52.857444763183594,-10.300345420837402,-0.8220824003219604,-0.0,-0.0,-1.0,0.031973752885044074,1.0,0
54.041542053222656,-10.102337837219238,0.625216543674469,0.18898126512898852,-0.5765276045263716,-0.7949226394117418,0.03722770645320286,3.0,1
54.092315673828125,-10.045293807983398,0.1172565221786499,-0.0,-0.0,-1.0,0.006733445202910455,1.0,1
54.0604248046875,-10.120635032653809,-0.04940474033355713,0.015745911305141674,-0.7583967854521264,-0.6516029328456497,0.007680067101927955,4.0,0
54.057891845703125,-10.13636302947998,0.13463425636291504,-0.0,-0.0,-1.0,0.006733445202910478,1.0,1
54.029335021972656,-10.154934883117676,0.5807430744171143,-0.0,-0.0,-1.0,0.03722770645320283,2.0,1
54.03104019165039,-10.150679588317871,0.6373782157897949,-0.8357825932808964,0.05810489507815085,-0.545977360278443,0.04470794975732248,4.0,1
54.036041259765625,-10.18160629272461,0.6102353930473328,-0.9793506758706896,-0.19725400807240898,0.04430699686272519,0.03722770645320289,3.0,1
53.00129699707031,-11.021206855773926,-0.86612868309021,-0.0,-0.0,-1.0,0.0483317949087891,1.0,0
53.1600341796875,-10.285662651062012,-0.840578556060791,-0.0,-0.0,-1.0,0.060142677852977715,1.0,0
53.13945007324219,-10.536803245544434,-0.850717306137085,-0.0,-0.0,-1.0,0.10880207296289279,1.0,0
53.38263702392578,-10.126738548278809,-0.8436501026153564,-0.0,-0.0,-1.0,0.02089113947779307,1.0,0
54.04058837890625,-10.195655822753906,0.7226457595825195,-0.0,-0.0,-1.0,0.06276562656372958,2.0,1
52.9505615234375,-10.64362907409668,-0.7520889043807983,-0.0,-0.0,-1.0,0.039473287496015225,1.0,0
52.73369216918945,-10.913902282714844,-0.7434464693069458,-0.0,-0.0,-1.0,0.02067884383246251,1.0,0
53.02948760986328,-11.339581489562988,-0.7678147554397583,-0.0,-0.0,-1.0,0.032831331206767934,1.0,0
53.14776611328125,-10.289898872375488,-0.7583185434341431,-0.0,-0.0,-1.0,0.1397895171732671,1.0,0
53.05524444580078,-10.437370300292969,-0.7550948858261108,-0.0,-0.0,-1.0,0.1089207475261775,1.0,0
53.61760711669922,-10.205925941467285,-0.7850724458694458,-0.0,-0.0,-1.0,0.004761439763133867,1.0,0
54.07164764404297,-9.829550743103027,-0.8064755201339722,-0.0,-0.0,-1.0,0.03448085443809878,1.0,0
53.92584991455078,-9.961671829223633,-0.7997564077377319,-0.0,-0.0,-1.0,0.024523765935349214,1.0,0
54.065826416015625,-10.072548866271973,0.3723788857460022,-0.0,-0.0,-1.0,0.006986974249882786,1.0,1
54.04927062988281,-10.168115615844727,1.0209938287734985,-0.0,-0.0,-1.0,0.045506609381645434,1.0,2
53.34294128417969,-10.490421295166016,-0.4618920087814331,-0.0,-0.0,-1.0,0.23106229694703223,1.0,0
52.848350524902344,-10.794142723083496,-0.8258795738220215,-0.0,-0.0,-1.0,0.020296022348855757,1.0,0
52.99378967285156,-10.870294570922852,-0.8338563442230225,-0.0,-0.0,-1.0,0.06364253394015301,1.0,0
52.733177185058594,-10.604696273803711,-0.83072829246521,-0.0,-0.0,-1.0,0.023432823959229607,1.0,0
53.581748962402344,-10.963363647460938,-0.8845925331115723,-0.0,-0.0,-1.0,0.04627144823915286,1.0,0
53.20869827270508,-10.764030456542969,-0.7466814517974854,-0.0,-0.0,-1.0,0.1800919117421922,2.0,0
53.80067443847656,-10.881523132324219,-0.8016026020050049,-0.0,-0.0,-1.0,0.06723065456121435,1.0,0
53.41136932373047,-10.352075576782227,-0.7964389324188232,-0.0,-0.0,-1.0,0.0862879669769624,1.0,0
53.65850830078125,-10.55440902709961,-0.8086974620819092,-0.0,-0.0,-1.0,0.020505003135442717,2.0,0
53.32911682128906,-9.859467506408691,-0.8221435546875,-0.0,-0.0,-1.0,0.023145259067537335,2.0,0
53.441307067871094,-9.620559692382812,-0.8509047031402588,-0.0,-0.0,-1.0,0.04128030664573469,2.0,0
53.311607360839844,-10.405380249023438,-0.6635563373565674,-0.0,-0.0,-1.0,0.24214120739681755,1.0,0
54.28901672363281,-9.42045783996582,-0.847771167755127,-0.0,-0.0,-1.0,0.0375253246641944,2.0,0
54.155792236328125,-9.809551239013672,-0.7493946552276611,-0.0,-0.0,-1.0,0.07885430413080005,1.0,0
54.08384704589844,-10.02914810180664,-0.7221310138702393,-0.0,-0.0,-1.0,0.1265449611207176,1.0,0
53.327110290527344,-10.50692367553711,-0.5891819000244141,-0.0,-0.0,-1.0,0.22667927533371918,1.0,0
53.93914794921875,-10.233795166015625,-0.7674245834350586,-0.0,-0.0,-1.0,0.18869715802089293,1.0,0
53.949119567871094,-9.90804672241211,-0.8005883693695068,-0.0,-0.0,-1.0,0.03897197558156366,1.0,0
54.01066970825195,-9.748740196228027,-0.823244571685791,-0.0,-0.0,-1.0,0.03344985473608115,1.0,0
54.07187271118164,-9.494304656982422,-0.8554482460021973,-0.0,-0.0,-1.0,0.026961844642378215,1.0,0
54.014183044433594,-10.11909008026123,0.9891641139984131,-0.0,-0.0,-1.0,0.04520473607475635,2.0,1
54.042930603027344,-9.975555419921875,-0.7817051410675049,-0.0,-0.0,-1.0,0.1276964131165053,1.0,0
54.151763916015625,-9.57867431640625,-0.8353395462036133,-0.0,-0.0,-1.0,0.040049946831732616,1.0,0
53.66654968261719,-10.390329360961914,-0.7786052227020264,-0.0,-0.0,-1.0,0.004991961916241913,1.0,0
53.86490249633789,-10.606809616088867,-0.7917165756225586,-0.0,-0.0,-1.0,0.0717420569016734,2.0,0
53.76780700683594,-10.139832496643066,-0.8095147609710693,0.29956141660856805,0.7718303241146309,-0.5608394676345202,0.009611009010178197,3.0,0
53.8488883972168,-9.763547897338867,-0.8465592861175537,-0.0,-0.0,-1.0,0.013616310290492204,1.0,0
53.98285675048828,-9.446887016296387,-0.8871698379516602,-0.0,-0.0,-1.0,0.01968205735843071,2.0,0
52.915679931640625,-11.860780715942383,-0.8042898178100586,-0.0,-0.0,-1.0,0.025667535899929223,1.0,0
53.085609436035156,-11.83848762512207,-0.788017988204956,-0.0,-0.0,-1.0,0.02693280750426993,2.0,0
53.003570556640625,-11.555915832519531,-0.7894270420074463,-0.0,-0.0,-1.0,0.01927393233702545,2.0,0
52.81446838378906,-11.78260326385498,-0.7589421272277832,-0.0,-0.0,-1.0,0.012462442872216779,1.0,0
52.87477111816406,-11.419816970825195,-0.7800142765045166,-0.0,-0.0,-1.0,0.024126651055522953,1.0,0
52.96681594848633,-11.443887710571289,-0.8283121585845947,-0.0,-0.0,-1.0,0.022490893314072165,2.0,0
52.788230895996094,-11.310858726501465,-0.8130247592926025,-0.0,-0.0,-1.0,0.03251581958210608,1.0,0
52.86141586303711,-10.547161102294922,-0.7701570987701416,-0.0,-0.0,-1.0,0.03567174607769678,2.0,0
53.077674865722656,-11.746521949768066,-0.7798399925231934,-0.0,-0.0,-1.0,0.02693280750426993,1.0,0
52.960655212402344,-11.51310920715332,-0.7688961029052734,-0.0,-0.0,-1.0,0.02138188515912307,2.0,0
52.80360794067383,-11.051082611083984,-0.7564888000488281,-0.0,-0.0,-1.0,0.03269304937545439,1.0,0
53.024147033691406,-11.749122619628906,-0.7788918018341064,-0.0,-0.0,-1.0,0.027128733578110464,1.0,0
52.81898498535156,-11.147183418273926,-0.7699074745178223,-0.0,-0.0,-1.0,0.031654889960481415,1.0,0
52.9000244140625,-11.57054615020752,-0.7690954208374023,-0.0,-0.0,-1.0,0.015786273168527896,1.0,0
52.75715637207031,-11.148432731628418,-0.7630999088287354,-0.0,-0.0,-1.0,0.031654889960481415,1.0,0
53.21820831298828,-9.446046829223633,-0.9780855178833008,-0.0,-0.0,-1.0,0.02362144702229038,1.0,0
52.922245025634766,-9.531476020812988,-0.9598503112792969,-0.0,-0.0,-1.0,0.0170656680284737,1.0,0
54.05551528930664,-10.136275291442871,-0.7834334373474121,-0.0,-0.0,-1.0,0.10692521954312749,1.0,0
54.072792053222656,-9.881086349487305,-0.7830948829650879,-0.0,-0.0,-1.0,0.0926324901494124,1.0,0
54.065101623535156,-9.962779998779297,-0.5530974864959717,-0.0,-0.0,-1.0,0.13695497132008308,1.0,0
54.04130554199219,-10.124881744384766,-0.12447452545166016,-0.0,-0.0,-1.0,0.007260244567813575,2.0,0
53.754417419433594,-10.6231689453125,-0.392655611038208,-0.0,-0.0,-1.0,0.16844620729963591,1.0,0
53.917606353759766,-10.164007186889648,-0.4651327133178711,-0.0,-0.0,-1.0,0.13199044455961517,2.0,0
54.08366012573242,-10.056388854980469,-0.5756022930145264,-0.0,-0.0,-1.0,0.0875083022367627,1.0,0
54.10429000854492,-9.994457244873047,0.10718631744384766,-0.0,-0.0,-1.0,0.006497335715011175,1.0,1
54.093040466308594,-10.027946472167969,0.5858697891235352,-0.0,-0.0,-1.0,0.03762694477538184,1.0,1
54.06114196777344,-10.06924057006836,1.0346108675003052,-0.0,-0.0,-1.0,0.045312717793399085,1.0,2
53.716182708740234,-11.130457878112793,-1.0779180526733398,-0.0,-0.0,-1.0,0.03505733757247822,1.0,0
53.437740325927734,-11.730402946472168,-1.0094661712646484,-0.0,-0.0,-1.0,0.021379838204016594,1.0,0
53.5274772644043,-11.529515266418457,-1.0318355560302734,-0.0,-0.0,-1.0,0.02418829254530294,1.0,0
53.19993591308594,-10.717912673950195,-0.8669242858886719,-0.0,-0.0,-1.0,0.10242357381005222,1.0,0
53.338592529296875,-9.731338500976562,-0.8859357833862305,-0.0,-0.0,-1.0,0.02861430550802371,1.0,0
53.594696044921875,-9.363031387329102,-0.9210720062255859,-0.0,-0.0,-1.0,0.020810691775852166,1.0,0
53.11548614501953,-10.455781936645508,-0.8553123474121094,-0.0,-0.0,-1.0,0.11663137659760718,1.0,0
53.127044677734375,-10.113357543945312,-0.8568882942199707,-0.0,-0.0,-1.0,0.021898966131330327,1.0,0
52.93733596801758,-11.4734468460083,-0.8277740478515625,-0.0,-0.0,-1.0,0.02249089331407217,2.0,0
53.54076385498047,-10.853178977966309,-0.8466100692749023,-0.0,-0.0,-1.0,0.05391821371213586,1.0,0
53.7537956237793,-10.612515449523926,-0.8516778945922852,-0.0,-0.0,-1.0,0.06917535878410216,1.0,0
53.8962287902832,-10.230353355407715,-0.8375301361083984,-0.0,-0.0,-1.0,0.05723488302661964,1.0,0
54.055389404296875,-9.965523719787598,-0.8347177505493164,-0.0,-0.0,-1.0,0.11382036282927778,1.0,0
53.41716003417969,-9.74985408782959,-0.8543596267700195,-0.0,-0.0,-1.0,0.025224618666000544,2.0,0
53.744041442871094,-9.673615455627441,-0.8779234886169434,-0.0,-0.0,-1.0,0.01080286022554287,2.0,0
54.0527458190918,-9.587763786315918,-0.898503303527832,-0.0,-0.0,-1.0,0.025404536542835136,1.0,0
53.037315368652344,-9.730650901794434,-0.8253216743469238,-0.0,-0.0,-1.0,0.012592152812384017,1.0,0
53.61500930786133,-9.561524391174316,-0.8546323776245117,-0.0,-0.0,-1.0,0.02313941977846019,1.0,0
53.233463287353516,-9.602303504943848,-0.8242278099060059,-0.0,-0.0,-1.0,0.03310243498558693,1.0,0
52.86579513549805,-10.113235473632812,-0.8057589530944824,-0.0,-0.0,-1.0,0.029113068355941654,2.0,0
53.23670959472656,-9.890142440795898,-0.8309750556945801,-0.0,-0.0,-1.0,0.023718746874468177,1.0,0
53.65500259399414,-9.68140983581543,-0.8643884658813477,-0.0,-0.0,-1.0,0.010321973849794613,1.0,0
52.983673095703125,-9.500068664550781,-0.8968358039855957,-0.0,-0.0,-1.0,0.016465353898117877,1.0,0
52.902706146240234,-9.740612030029297,-0.8761601448059082,-0.0,-0.0,-1.0,0.020404082688695643,1.0,0
53.18208694458008,-9.482088088989258,-0.9155678749084473,-0.0,-0.0,-1.0,0.023363093173282636,2.0,0
53.84513854980469,-10.631731986999512,-0.7880210876464844,-0.0,-0.0,-1.0,0.0717420569016734,2.0,0
53.980018615722656,-10.231171607971191,-0.8141059875488281,-0.0,-0.0,-1.0,0.14284498161624623,2.0,0
53.95711898803711,-10.40084457397461,-0.8087668418884277,-0.0,-0.0,-1.0,0.09591162359517444,2.0,0
54.10544967651367,-9.91569709777832,-0.8386383056640625,-0.0,-0.0,-1.0,0.10384610307031181,1.0,0
53.05538558959961,-11.1758451461792,-0.9114246368408203,-0.0,-0.0,-1.0,0.04253478856854127,1.0,0
53.25714874267578,-10.871127128601074,-0.9528613090515137,-0.0,-0.0,-1.0,0.0626554494962165,1.0,0
52.9573860168457,-10.430500030517578,-0.9094171524047852,-0.0,-0.0,-1.0,0.04478205904492254,1.0,0
52.87758255004883,-10.936604499816895,-0.8848204612731934,-0.0,-0.0,-1.0,0.02778593540499438,1.0,0
52.861175537109375,-9.541982650756836,-0.9136929512023926,-0.0,-0.0,-1.0,0.017668811299628308,1.0,0
52.91173553466797,-9.991950035095215,-0.9114336967468262,-0.0,-0.0,-1.0,0.023561523862502407,1.0,0
52.97297668457031,-10.26773452758789,-0.9158101081848145,-0.0,-0.0,-1.0,0.03983056900307145,1.0,0
53.17790222167969,-10.670509338378906,-0.9430937767028809,-0.0,-0.0,-1.0,0.08054004393462323,1.0,0
52.88124465942383,-11.296195030212402,-0.8358521461486816,-0.1009392166008535,0.2267333423723647,-0.9687121688141748,0.0325158195821061,3.0,0
53.05573272705078,-11.54072093963623,-0.8549761772155762,-0.0,-0.0,-1.0,0.019622292494926908,1.0,0
52.932640075683594,-11.167043685913086,-0.7675085067749023,-0.0,-0.0,-1.0,0.037721418940114985,1.0,0
53.60089874267578,-10.853168487548828,-0.7489981651306152,-0.0,-0.0,-1.0,0.08535311908696783,1.0,0
53.10163879394531,-11.205994606018066,-0.7386417388916016,-0.0,-0.0,-1.0,0.03402723544229992,1.0,0
53.215702056884766,-11.047338485717773,-0.7300248146057129,-0.0,-0.0,-1.0,0.040354750293716525,1.0,0
52.83216094970703,-11.404833793640137,-0.734717845916748,-0.0,-0.0,-1.0,0.024901655693534863,1.0,0
53.1317024230957,-11.84129524230957,-0.8049821853637695,-0.0,-0.0,-1.0,0.027625413615511258,2.0,0
52.908409118652344,-11.276172637939453,-0.8339962959289551,-0.1009392166008535,0.2267333423723647,-0.9687121688141748,0.03251581958210608,3.0,0
53.16691970825195,-11.638378143310547,-0.83343505859375,-0.0,-0.0,-1.0,0.026949866905614826,1.0,0
53.16714096069336,-10.486611366271973,-0.9364910125732422,-0.0,-0.0,-1.0,0.07973643401397487,1.0,0
53.291351318359375,-9.819703102111816,-0.9932656288146973,-0.0,-0.0,-1.0,0.026916194680331035,1.0,0
53.43973922729492,-9.445347785949707,-1.0346813201904297,-0.0,-0.0,-1.0,0.023854835147083513,1.0,0
