x,y,z,nx,ny,nz,curvature,density,label
24.716211318969727,-27.517620086669922,0.8813170194625854,-0.0,-0.0,-1.0,0.105490733027927,1.0,1
23.221160888671875,-29.072223663330078,1.1562910079956055,-0.0,-0.0,-1.0,0.07843918105776541,1.0,2
22.925535202026367,-28.339130401611328,1.2565903663635254,-0.0,-0.0,-1.0,0.09084411765765087,1.0,2
23.332012176513672,-28.800498962402344,1.1842602491378784,0.11887078727234131,0.9269376936025564,-0.35588797129437694,0.13818502203881494,3.0,2
22.979671478271484,-27.62776756286621,0.9661494493484497,-0.0,-0.0,-1.0,0.08212495625860464,1.0,1
23.15823745727539,-28.098270416259766,1.2764146327972412,-0.0,-0.0,-1.0,0.1428733258446717,1.0,2
23.667282104492188,-28.70486068725586,1.1799396276474,-0.0,-0.0,-1.0,0.08532591431030492,1.0,2
23.817848205566406,-28.79663848876953,1.161228895187378,-0.0,-0.0,-1.0,0.07303239665367553,2.0,2
22.804672241210938,-27.261247634887695,1.0299911499023438,-0.0,-0.0,-1.0,0.05195239409638283,2.0,2
23.4073486328125,-27.968156814575195,1.2812461853027344,-0.0,-0.0,-1.0,0.1478941889556928,1.0,2
24.018463134765625,-28.38772964477539,1.1994516849517822,-0.927258003626845,0.09814917784608743,-0.36132995115004657,0.116873968047262,4.0,2
24.23276710510254,-28.620328903198242,1.1592448949813843,-0.0,-0.0,-1.0,0.1467670200084395,2.0,2
24.8350830078125,-29.127222061157227,1.0607051849365234,-0.0,-0.0,-1.0,0.024828082222123734,1.0,2
23.255666732788086,-26.925556182861328,1.0640546083450317,-0.0,-0.0,-1.0,0.09884415796201844,1.0,2
23.3629207611084,-27.377243041992188,0.9884750843048096,-0.0,-0.0,-1.0,0.05094163823425982,1.0,1
23.984691619873047,-27.51620101928711,0.9326027631759644,-0.0,-0.0,-1.0,0.03508954057656569,1.0,1
24.78293228149414,-28.94478988647461,1.0858489274978638,-0.35703793378795806,0.9210816024508081,-0.1553466944066634,0.022588406831311143,5.0,2
25.079540252685547,-29.16883087158203,1.0388243198394775,-0.0,-0.0,-1.0,0.03927358213721072,1.0,2
24.291784286499023,-27.51170539855957,1.1008979082107544,0.5809494130239516,0.28882842370676354,-0.7609703812673606,0.19037741089147786,3.0,2
24.877883911132812,-28.199495315551758,1.1670773029327393,-0.7234723508762433,0.620585505431129,-0.3024258387876143,0.20173419862820763,3.0,2
24.882328033447266,-28.33007049560547,1.151441216468811,-0.0,-0.0,-1.0,0.1373313902032605,2.0,2
24.849271774291992,-27.349773406982422,0.8963842391967773,-0.0,-0.0,-1.0,0.03200862434741785,1.0,1
25.035911560058594,-27.9061279296875,1.189835548400879,-0.0,-0.0,-1.0,0.16539771036304748,1.0,2
24.95059585571289,-27.063674926757812,0.9313795566558838,0.13443960247704656,-0.8757419037944005,-0.46368320136098584,0.03156529721239554,3.0,1
24.943323135375977,-27.240915298461914,0.9051297903060913,-0.0,-0.0,-1.0,0.021122897145305398,1.0,1
23.15054702758789,-29.164155960083008,1.5736867189407349,-0.0,-0.0,-1.0,0.15306022042363354,1.0,2
23.780731201171875,-29.180213928222656,1.5447418689727783,-0.0,-0.0,-1.0,0.1384894930464461,2.0,2
24.256589889526367,-28.934354782104492,1.5412288904190063,-0.0,-0.0,-1.0,0.21008673672392114,1.0,2
24.20429801940918,-28.84247589111328,1.5518128871917725,-0.0,-0.0,-1.0,0.19311307537948347,2.0,2
24.801647186279297,-29.306066513061523,1.4786088466644287,-0.0,-0.0,-1.0,0.09344659496452888,1.0,2
24.217788696289062,-27.25251007080078,1.323237419128418,-0.0,-0.0,-1.0,0.17859762372282884,2.0,2
24.31078338623047,-27.286344528198242,1.4937396049499512,-0.0,-0.0,-1.0,0.11463094561702805,1.0,2
24.84900665283203,-28.28201675415039,1.560882806777954,-0.0,-0.0,-1.0,0.10526646677935744,2.0,2
24.55095100402832,-27.327924728393555,1.2925673723220825,-0.0,-0.0,-1.0,0.24795998543979403,2.0,2
22.93126678466797,-27.75409698486328,0.9972279071807861,-0.20371163680678764,-0.973557106994625,-0.10338340509847443,0.029369272774374094,3.0,1
23.094621658325195,-27.759212493896484,0.9929454326629639,-0.0,-0.0,-1.0,0.08530200481175479,1.0,1
23.354427337646484,-27.760234832763672,0.9857120513916016,-0.2659696413801527,-0.8079195630157245,-0.5258575183075672,0.05503809191472333,3.0,1
23.748823165893555,-27.785587310791016,0.9689997434616089,-0.0,-0.0,-1.0,0.10467222585867042,1.0,1
23.98284149169922,-27.741321563720703,0.9665882587432861,-0.0,-0.0,-1.0,0.034925143134885185,1.0,1
24.69516372680664,-27.646800994873047,0.9455016851425171,-0.0,-0.0,-1.0,0.12639238709390863,1.0,1
22.880998611450195,-29.3582706451416,1.1780567169189453,-0.0,-0.0,-1.0,0.15729043548585353,1.0,2
23.253620147705078,-28.925949096679688,1.2225286960601807,-0.0,-0.0,-1.0,0.132577388507859,1.0,2
22.890419006347656,-28.26148223876953,1.3116545677185059,-0.0,-0.0,-1.0,0.09970720875158011,1.0,2
23.359718322753906,-28.836074829101562,1.2306873798370361,-0.0,-0.0,-1.0,0.12041623855504323,2.0,2
23.598297119140625,-28.81821632385254,1.2257401943206787,-0.9333767727026098,0.11606489758692395,-0.3396126318725464,0.21161896646552636,3.0,2
23.936203002929688,-28.91114044189453,1.203000545501709,-0.0,-0.0,-1.0,0.06053535871810701,2.0,2
24.288658142089844,-29.30169105529785,1.1417903900146484,-0.0,-0.0,-1.0,0.1967257584550583,1.0,2
24.69114112854004,-29.325687408447266,1.1206858158111572,-0.0,-0.0,-1.0,0.11129577272337327,1.0,2
22.876970291137695,-27.69739532470703,1.0070173740386963,-0.0,-0.0,-1.0,0.08113275384718005,1.0,2
23.137832641601562,-28.05108070373535,1.3318147659301758,-0.0,-0.0,-1.0,0.10878372316879259,1.0,2
23.871383666992188,-28.697481155395508,1.2313272953033447,-0.0,-0.0,-1.0,0.10275269199793981,2.0,2
24.03141975402832,-28.705333709716797,1.2243906259536743,-0.0,-0.0,-1.0,0.1553100225235447,2.0,2
24.296140670776367,-28.953819274902344,1.1835262775421143,-0.0,-0.0,-1.0,0.06876445704526332,2.0,2
24.729700088500977,-29.137222290039062,1.14144766330719,-0.0,-0.0,-1.0,0.05881762842977735,2.0,2
23.185260772705078,-27.735065460205078,0.9945697784423828,-0.0,-0.0,-1.0,0.03280173412291919,1.0,1
24.081148147583008,-28.153154373168945,1.2893157005310059,-0.0,-0.0,-1.0,0.1539967951052425,1.0,2
24.454124450683594,-28.568662643432617,1.2229957580566406,-0.0,-0.0,-1.0,0.1367143563113603,2.0,2
24.750892639160156,-28.428504943847656,1.225387454032898,-0.0,-0.0,-1.0,0.10694775759874503,1.0,2
23.2928466796875,-26.95752716064453,1.1140975952148438,-0.0,-0.0,-1.0,0.08309977972642728,2.0,2
24.000722885131836,-27.634807586669922,0.9825334548950195,-0.0,-0.0,-1.0,0.04222334927234587,2.0,1
24.82071304321289,-28.353561401367188,1.2307168245315552,-0.0,-0.0,-1.0,0.16373723287183875,2.0,2
24.43229866027832,-27.57972526550293,0.9704456329345703,-0.0,-0.0,-1.0,0.1838665427986504,1.0,1
24.832988739013672,-27.557373046875,0.9511286020278931,-0.0,-0.0,-1.0,0.12236852950241688,2.0,1
25.01483154296875,-27.355497360229492,0.970462441444397,-0.0,-0.0,-1.0,0.05687518371284935,1.0,1
23.747787475585938,-29.252634048461914,1.594017505645752,-0.0,-0.0,-1.0,0.13138208283636962,1.0,2
23.202966690063477,-28.56024932861328,1.6690728664398193,-0.0,-0.0,-1.0,0.2029577575805214,1.0,2
24.779590606689453,-29.139223098754883,1.5643184185028076,-0.0,-0.0,-1.0,0.209229223845377,2.0,2
24.1915225982666,-27.541961669921875,1.358614206314087,-0.0,-0.0,-1.0,0.21828475482660217,1.0,2
24.304990768432617,-27.295101165771484,1.3832752704620361,-0.0,-0.0,-1.0,0.12427228173251242,2.0,2
24.444421768188477,-27.433319091796875,1.360036849975586,-0.0,-0.0,-1.0,0.20387736281483035,2.0,2
24.222156524658203,-26.87352180480957,1.4379241466522217,-0.0,-0.0,-1.0,0.2050486343910699,1.0,2
23.49445343017578,-28.953304290771484,2.0397443771362305,-0.0,-0.0,-1.0,0.13347067211324412,1.0,3
23.821014404296875,-29.31018829345703,2.0121188163757324,-0.6482400777763162,0.7576682663471996,-0.07565447597455521,0.037029451552368024,3.0,3
24.235668182373047,-27.219497680664062,1.7514030933380127,-0.21099634483114835,0.8463339905515556,0.4890800741238339,0.04653130114164441,4.0,2
22.920902252197266,-29.11833953857422,1.1596558094024658,-0.261727482430162,0.35528039874841444,-0.8973709172944806,0.14840168331144732,3.0,2
23.150177001953125,-28.876535415649414,1.1885042190551758,-0.0,-0.0,-1.0,0.12788881827350357,1.0,2
23.610485076904297,-28.828773498535156,1.1886353492736816,-0.9333767727026098,0.11606489758692395,-0.3396126318725464,0.20304799016000555,3.0,2
24.77140998840332,-29.25458335876465,1.1044914722442627,-0.20394531415726136,-0.8310848885684853,-0.5174014078318738,0.09504022824759016,3.0,2
22.96038055419922,-28.225296020507812,1.272136926651001,-0.0,-0.0,-1.0,0.14469294198935728,1.0,2
23.386234283447266,-28.570476531982422,1.224599838256836,-0.0,-0.0,-1.0,0.14098611897645286,2.0,2
23.68439483642578,-28.654239654541016,1.2093124389648438,-0.0,-0.0,-1.0,0.1298948401677426,2.0,2
24.076757431030273,-28.688186645507812,1.1966170072555542,-0.0,-0.0,-1.0,0.12270743139013578,2.0,2
24.389232635498047,-28.663219451904297,1.1913237571716309,0.181915125832341,0.012460004228381028,-0.9832352898915048,0.06976508326713503,3.0,2
24.72701644897461,-29.067890167236328,1.1295109987258911,-0.0,-0.0,-1.0,0.04472602750372254,1.0,2
22.7861270904541,-27.98658561706543,1.302968978881836,-0.0,-0.0,-1.0,0.12630388946342994,1.0,2
22.899112701416016,-27.96112632751465,1.3058314323425293,-0.0,-0.0,-1.0,0.13565280842904198,1.0,2
23.432836532592773,-28.118579864501953,1.2811312675476074,-0.0,-0.0,-1.0,0.2199151695685994,1.0,2
23.9781494140625,-28.30093002319336,1.2479758262634277,-0.0,-0.0,-1.0,0.14670430041996027,1.0,2
24.14202308654785,-28.476524353027344,1.22177255153656,-0.0,-0.0,-1.0,0.15658353348827408,1.0,2
24.598039627075195,-28.533935546875,1.2006332874298096,-0.19015103552703197,-0.5594824672962286,-0.8067353670666249,0.1516631178804756,5.0,2
22.972362518310547,-27.539287567138672,0.9914898872375488,-0.0,-0.0,-1.0,0.06031076910400849,1.0,1
23.04275894165039,-27.53533172607422,0.991828441619873,-0.0,-0.0,-1.0,0.05911646230852134,1.0,1
23.59134864807129,-27.642169952392578,0.9682979583740234,-0.0,-0.0,-1.0,0.08788176413624448,1.0,1
23.856063842773438,-27.67844009399414,0.9571070671081543,-0.0,-0.0,-1.0,0.07138106027816558,1.0,1
24.767133712768555,-28.191558837890625,1.2378004789352417,-0.0,-0.0,-1.0,0.2121666580055693,2.0,2
22.831422805786133,-27.237796783447266,1.040449857711792,-0.0,-0.0,-1.0,0.05195239409638284,2.0,2
23.227741241455078,-27.1486873626709,1.053130865097046,-0.0,-0.0,-1.0,0.12274640152165413,2.0,2
24.032470703125,-27.569992065429688,0.9701094627380371,-0.0,-0.0,-1.0,0.05616574544496975,1.0,1
24.511615753173828,-27.593870162963867,0.9506886005401611,-0.0,-0.0,-1.0,0.206245973376434,2.0,1
24.760568618774414,-27.580202102661133,0.9428584575653076,-0.0,-0.0,-1.0,0.1150954186786219,1.0,1
25.20676612854004,-28.06032371520996,1.235998272895813,-0.0,-0.0,-1.0,0.16863879500375767,1.0,2
24.307140350341797,-27.29256820678711,1.0066496133804321,-0.0,-0.0,-1.0,0.23510640043617248,1.0,2
24.867816925048828,-27.42373275756836,0.9631452560424805,-0.0,-0.0,-1.0,0.07594540691547547,1.0,1
25.18204116821289,-27.18365478515625,0.9857006072998047,-0.0,-0.0,-1.0,0.04468012034975319,2.0,1
23.124282836914062,-29.222394943237305,1.5683295726776123,-0.0,-0.0,-1.0,0.06477445093982376,1.0,2
23.7393741607666,-29.18912696838379,1.5629137754440308,-0.0,-0.0,-1.0,0.1432228603145302,2.0,2
24.753053665161133,-29.31458282470703,1.5267400741577148,-0.0,-0.0,-1.0,0.2025469897630522,1.0,2
24.201824188232422,-27.453197479248047,1.3491108417510986,-0.0,-0.0,-1.0,0.12881020285118253,1.0,2
23.3519344329834,-26.8851261138916,1.438180685043335,-0.0,-0.0,-1.0,0.030680013061382978,2.0,2
24.346073150634766,-27.296918869018555,1.3644753694534302,-0.0,-0.0,-1.0,0.15461902910513498,2.0,2
24.437740325927734,-27.338865280151367,1.3562304973602295,-0.9276198579817084,0.36878868769065626,-0.0592984224865944,0.20355226705767557,3.0,2
23.8262882232666,-29.309471130371094,1.9741127490997314,-0.6482400777763162,0.7576682663471996,-0.07565447597455521,0.04002912274336471,3.0,2
24.242538452148438,-27.226890563964844,1.7302988767623901,-0.21099634483114835,0.8463339905515556,0.4890800741238339,0.049150547270180846,4.0,2
22.764490127563477,-28.44461441040039,1.106671690940857,-0.0,-0.0,-1.0,0.10674861415880231,1.0,2
23.270278930664062,-28.460174560546875,1.1029059886932373,-0.0,-0.0,-1.0,0.08441989263387228,2.0,2
24.76154136657715,-28.705455780029297,1.038644552230835,-0.0,-0.0,-1.0,0.05881210953558165,1.0,2
24.989898681640625,-28.74459457397461,1.025272011756897,-0.0,-0.0,-1.0,0.025121460436718722,1.0,2
22.912050247192383,-28.292160034179688,1.1272038221359253,-0.0,-0.0,-1.0,0.1765511624868025,1.0,2
23.238540649414062,-28.329662322998047,1.1206908226013184,-0.0,-0.0,-1.0,0.05699364886922348,2.0,2
23.613445281982422,-28.322235107421875,1.1178617477416992,-0.0,-0.0,-1.0,0.039687895742671106,1.0,2
24.01287841796875,-28.287017822265625,1.1158943176269531,-0.3244892026604536,0.9168075475672344,-0.23274595180268215,0.09764206688370738,4.0,2
24.46821403503418,-28.508922576904297,1.0745136737823486,-0.0,-0.0,-1.0,0.12579818793019074,2.0,2
24.80815315246582,-28.474040985107422,1.06856369972229,-0.0,-0.0,-1.0,0.10290397400652268,2.0,2
25.16727066040039,-28.615257263183594,1.035948395729065,-0.0,-0.0,-1.0,0.08245781393096036,1.0,2
24.296907424926758,-27.61741828918457,1.2009010314941406,-0.0,-0.0,-1.0,0.1738917024455394,1.0,2
24.97972297668457,-27.620460510253906,1.1789638996124268,-0.0,-0.0,-1.0,0.15288293780100704,1.0,2
22.9559326171875,-26.99553871154785,0.9472122192382812,-0.0,-0.0,-1.0,0.0882696483936709,1.0,1
23.34992790222168,-26.946792602539062,0.9564341306686401,-0.0,-0.0,-1.0,0.11803034304579998,2.0,1
23.77438735961914,-27.09453582763672,0.9280791282653809,-0.0,-0.0,-1.0,0.04405563936488942,1.0,1
24.194225311279297,-27.12594223022461,0.9153666496276855,-0.0,-0.0,-1.0,0.05626881092688105,2.0,1
24.604948043823242,-27.19293975830078,0.8927652835845947,-0.0,-0.0,-1.0,0.08462693970714616,1.0,1
24.844818115234375,-27.05698013305664,0.9080636501312256,-0.0,-0.0,-1.0,0.030399931550971388,1.0,1
25.05286979675293,-26.92282485961914,0.92275071144104,-0.0,-0.0,-1.0,0.03292022332864106,1.0,1
23.300094604492188,-27.91098403930664,1.5584298372268677,-0.0,-0.0,-1.0,0.0656437623763456,1.0,2
23.66082000732422,-28.036760330200195,1.5408380031585693,0.3566115710403401,0.1887337200690244,-0.9149905848198919,0.0726846402786989,3.0,2
24.369842529296875,-27.553016662597656,1.2078113555908203,-0.0,-0.0,-1.0,0.20080729283264193,2.0,2
24.268001556396484,-27.32550048828125,1.2414679527282715,-0.0,-0.0,-1.0,0.18420047451713828,2.0,2
25.14206314086914,-27.325349807739258,1.2127609252929688,-0.0,-0.0,-1.0,0.12317757839654192,1.0,2
25.201452255249023,-27.42449188232422,1.1967792510986328,-0.0,-0.0,-1.0,0.11600638615299826,1.0,2
24.245525360107422,-26.875019073486328,1.3034981489181519,-0.0,-0.0,-1.0,0.22518739996685885,1.0,2
24.275972366333008,-27.25408935546875,1.6070901155471802,-0.0,-0.0,-1.0,0.07090073921817892,2.0,2
24.688232421875,-28.532150268554688,0.9942914247512817,-0.0,-0.0,-1.0,0.10463931705018109,1.0,1
22.86334800720215,-27.962474822998047,1.0552568435668945,-0.0,-0.0,-1.0,0.11631835481976883,1.0,2
23.226762771606445,-27.995071411132812,1.0593795776367188,0.7399911378085473,0.16497431279377495,-0.6520710023325935,0.0790187856928078,3.0,2
23.577991485595703,-28.113754272460938,1.0489650964736938,-0.9249825895776479,0.06535829228055494,-0.37434676786156185,0.09027358862210484,3.0,2
23.992076873779297,-28.08881378173828,1.0573077201843262,-0.0,-0.0,-1.0,0.10835215356325711,1.0,2
24.362958908081055,-28.311744689941406,1.0268528461456299,-0.0,-0.0,-1.0,0.11215380512807192,1.0,2
24.703969955444336,-28.355998992919922,1.019707202911377,-0.0,-0.0,-1.0,0.1096934683426884,1.0,2
24.12961769104004,-28.047344207763672,1.0642139911651611,-0.0,-0.0,-1.0,0.23908828234197596,2.0,2
24.893714904785156,-28.0965518951416,1.0561034679412842,-0.0,-0.0,-1.0,0.18200797800259966,2.0,2
25.182510375976562,-27.96048927307129,1.0727148056030273,0.5991296980023723,-0.26957194300031545,-0.75390620936468,0.1534582313245069,3.0,2
24.58269691467285,-27.65721893310547,1.121308445930481,-0.0,-0.0,-1.0,0.12243442002549193,2.0,2
25.191587448120117,-27.644451141357422,1.1186614036560059,-0.0,-0.0,-1.0,0.19757829636104207,1.0,2
24.321964263916016,-26.883358001708984,0.8848576545715332,-0.0,-0.0,-1.0,0.1699952674595462,1.0,1
24.51561164855957,-26.951587677001953,0.8738553524017334,-0.0,-0.0,-1.0,0.06851384494219043,2.0,1
24.720966339111328,-26.920129776000977,0.8801572322845459,-0.0,-0.0,-1.0,0.020874093496239945,2.0,1
24.96595573425293,-26.87143898010254,0.8880975246429443,-0.0,-0.0,-1.0,0.03203285046990649,1.0,1
25.204469680786133,-26.867130279541016,0.8870166540145874,-0.0,-0.0,-1.0,0.03238236325617133,1.0,1
23.049699783325195,-29.293622970581055,1.3088352680206299,-0.0,-0.0,-1.0,0.13321724155541664,1.0,2
23.037757873535156,-28.8424015045166,1.3567893505096436,-0.0,-0.0,-1.0,0.16981677830123004,1.0,2
23.537294387817383,-28.920433044433594,1.3534793853759766,-0.0,-0.0,-1.0,0.2675424262452396,2.0,2
23.827743530273438,-29.056577682495117,1.3402440547943115,-0.5910519687490071,-0.505021205100225,-0.6289762735088178,0.2432128961811434,3.0,2
23.516460418701172,-28.71831512451172,1.3751494884490967,-0.0,-0.0,-1.0,0.23703529880850452,2.0,2
23.30448341369629,-27.998939514160156,1.450012445449829,0.691068994707067,0.46341628756333136,-0.5546791766197682,0.06243918109141978,3.0,2
23.52254295349121,-28.053422927856445,1.4465248584747314,-0.0,-0.0,-1.0,0.0725508897041778,1.0,2
24.271631240844727,-27.279401779174805,1.1753731966018677,-0.0,-0.0,-1.0,0.21016512516310448,2.0,2
24.360084533691406,-27.471332550048828,1.1480369567871094,0.43904994696092914,0.770564590468353,0.4620231119651318,0.21641989397367775,4.0,2
25.017507553100586,-27.57269287109375,1.1310808658599854,0.2407091781112223,-0.8374306424658793,-0.49068218903094946,0.1679361948953623,3.0,2
24.26859474182129,-27.31371307373047,1.5300655364990234,-0.0,-0.0,-1.0,0.14264175879117244,1.0,2
24.328720092773438,-27.138599395751953,1.8996596336364746,-0.0,-0.0,-1.0,0.04653130114164444,2.0,2
24.670637130737305,-28.96945571899414,1.117335557937622,-0.0,-0.0,-1.0,0.023006569370368955,2.0,2
24.891910552978516,-29.239009857177734,1.0859811305999756,-0.0,-0.0,-1.0,0.04428399671068393,2.0,2
22.98360824584961,-28.45182228088379,1.130171537399292,-0.0,-0.0,-1.0,0.06493370510855351,1.0,2
23.365989685058594,-28.496055603027344,1.140674352645874,0.649273364294427,-0.036648383664540436,-0.7596716359010468,0.08861034018097272,4.0,2
23.723876953125,-28.389812469482422,1.1666641235351562,-0.32485191025881016,0.8519693167949314,0.41063307178207126,0.05138415913195589,4.0,2
24.253896713256836,-28.59874153137207,1.155787467956543,-0.0,-0.0,-1.0,0.1071728264750355,2.0,2
24.534395217895508,-28.60736656188965,1.1608760356903076,-0.0,-0.0,-1.0,0.24060810571594493,2.0,2
23.386056900024414,-28.120769500732422,1.1871922016143799,0.3274616688514389,-0.8515598342420219,-0.4094077480199059,0.18915865032041518,5.0,2
23.857145309448242,-28.246490478515625,1.1886954307556152,-0.0,-0.0,-1.0,0.044756406860015994,1.0,2
24.073129653930664,-28.34514617919922,1.1829943656921387,-0.0,-0.0,-1.0,0.11738564121655422,1.0,2
24.838302612304688,-28.454139709472656,1.1856954097747803,-0.0,-0.0,-1.0,0.1726580704568449,2.0,2
23.617826461791992,-27.194232940673828,0.9404677152633667,-0.0,-0.0,-1.0,0.06134075045035361,1.0,1
23.935131072998047,-27.248308181762695,0.9471914768218994,-0.0,-0.0,-1.0,0.03092258325629984,2.0,1
24.33534049987793,-27.442489624023438,1.1184394359588623,-0.0,-0.0,-1.0,0.2660269527978598,2.0,2
24.77801513671875,-27.531482696533203,0.9316322803497314,-0.0,-0.0,-1.0,0.11615429326289578,2.0,1
24.960147857666016,-27.317455291748047,0.9707943201065063,-0.0,-0.0,-1.0,0.042693407076870124,1.0,1
23.176280975341797,-26.891204833984375,0.9617533683776855,-0.0,-0.0,-1.0,0.13213346059678974,1.0,1
23.443941116333008,-26.95611000061035,0.9679279327392578,-0.0,-0.0,-1.0,0.0694654324071949,1.0,1
24.00928497314453,-27.059341430664062,0.9803974628448486,-0.0,-0.0,-1.0,0.059914637235792566,1.0,1
24.214448928833008,-27.019405364990234,0.9954071044921875,-0.0,-0.0,-1.0,0.18450592510424577,2.0,1
25.036954879760742,-27.28252601623535,0.9781371355056763,-0.0,-0.0,-1.0,0.03827858554705485,2.0,1
22.790573120117188,-29.25522232055664,1.4688279628753662,-0.0,-0.0,-1.0,0.17202356012734715,1.0,2
23.198545455932617,-29.232391357421875,1.483095645904541,-0.8977641522551867,-0.43349933424992815,-0.07808875802825153,0.10409011692040372,3.0,2
23.980558395385742,-29.243803024291992,1.5000922679901123,-0.0,-0.0,-1.0,0.20803158493015914,2.0,2
24.31607437133789,-29.29334831237793,1.5009782314300537,-0.0,-0.0,-1.0,0.15050360597397172,1.0,2
24.139371871948242,-29.111982345581055,1.514888048171997,-0.0,-0.0,-1.0,0.13187710166331743,2.0,2
24.845783233642578,-29.14926528930664,1.5200402736663818,0.04954619730842827,0.996328352385996,-0.0698211183244762,0.10261177466196165,5.0,2
23.4592342376709,-27.954923629760742,1.6033117771148682,-0.0,-0.0,-1.0,0.072926193829744,2.0,2
23.689943313598633,-28.115962982177734,1.5953730344772339,-0.0,-0.0,-1.0,0.06556677263531979,1.0,2
24.450607299804688,-27.311918258666992,1.322538137435913,-0.0,-0.0,-1.0,0.19673393863565072,2.0,2
24.25230598449707,-27.053741455078125,1.3492698669433594,-0.0,-0.0,-1.0,0.14788086374954748,2.0,2
24.278656005859375,-27.17357635498047,1.6936811208724976,-0.0,-0.0,-1.0,0.053174362094924106,2.0,2
23.888813018798828,-27.235591888427734,0.9377822875976562,0.2074811332226845,0.032297490290102794,-0.9777057080111536,0.024527948007010542,3.0,1
24.31868553161621,-27.446266174316406,0.9338005781173706,-0.0,-0.0,-1.0,0.18527060269946946,2.0,1
24.623445510864258,-27.56668472290039,0.9324512481689453,-0.0,-0.0,-1.0,0.0656686123739747,1.0,1
23.55997085571289,-27.08524513244629,0.9361898899078369,-0.0,-0.0,-1.0,0.11076416158406867,1.0,1
24.527149200439453,-29.205299377441406,1.1121735572814941,-0.0,-0.0,-1.0,0.05452186365585716,1.0,2
24.73180389404297,-29.177608489990234,1.122215986251831,-0.0,-0.0,-1.0,0.07483541792367254,2.0,2
22.946876525878906,-28.39847183227539,1.1295558214187622,-0.0,-0.0,-1.0,0.0887770011337258,1.0,2
23.378055572509766,-28.45125389099121,1.1486773490905762,0.9638977659505621,-0.26472135146440456,0.028700224291350242,0.05722451919178114,3.0,2
23.680904388427734,-28.405668258666992,1.1698589324951172,-0.3885491496058246,0.41430798369151783,-0.8230300437955225,0.037314342289475784,5.0,2
24.181419372558594,-28.56191635131836,1.1750080585479736,0.9818153117782972,0.12665784529828739,-0.14140892398317806,0.09675731602318229,3.0,2
24.488296508789062,-28.614513397216797,1.181175947189331,-0.38501241485902504,-0.8812329432903598,-0.2742151346374435,0.18494975513523784,3.0,2
23.313953399658203,-28.008737564086914,1.1946924924850464,-0.0,-0.0,-1.0,0.23107796416818957,1.0,2
24.782794952392578,-28.153528213500977,1.2468621730804443,-0.0,-0.0,-1.0,0.19710352766360986,2.0,2
24.86187744140625,-28.30130386352539,1.2318576574325562,-0.33405956940744724,0.7981312877383204,-0.5013887230687197,0.19975806428776702,3.0,2
24.209850311279297,-27.605234146118164,1.2878522872924805,-0.0,-0.0,-1.0,0.20819153074786673,1.0,2
23.919052124023438,-27.198078155517578,0.9454386234283447,-0.0,-0.0,-1.0,0.022284867138545415,2.0,1
24.301095962524414,-27.350154876708984,1.1348974704742432,-0.0,-0.0,-1.0,0.248415728988971,2.0,2
24.527019500732422,-27.35999298095703,1.3307299613952637,-0.0,-0.0,-1.0,0.2545115252550591,2.0,2
24.920597076416016,-27.42267417907715,0.9690229892730713,-0.0,-0.0,-1.0,0.07407518483479607,1.0,1
23.52435874938965,-26.99983024597168,0.9454344511032104,-0.0,-0.0,-1.0,0.09454284624648195,2.0,1
23.921218872070312,-27.005985260009766,0.9734992980957031,-0.0,-0.0,-1.0,0.06269899799444036,1.0,1
24.17296028137207,-27.191822052001953,0.9630115032196045,-0.0,-0.0,-1.0,0.14731962438082,1.0,1
23.17882537841797,-29.194599151611328,1.5000133514404297,-0.0,-0.0,-1.0,0.12517312287227686,2.0,2
24.15842628479004,-29.116016387939453,1.5408306121826172,-0.0,-0.0,-1.0,0.12393485028293837,2.0,2
24.821069717407227,-29.151126861572266,1.5547653436660767,-0.01983930674232408,0.7217940123763913,-0.6918235364640132,0.19485418868319038,7.0,2
23.461658477783203,-27.946247100830078,1.6116325855255127,-0.691509866918655,0.5912329254707371,-0.4150394340221881,0.072926193829744,3.0,2
23.66957664489746,-28.17176055908203,1.6020991802215576,-0.0,-0.0,-1.0,0.19618389530080646,2.0,2
24.82867431640625,-28.25310516357422,1.6323904991149902,-0.0,-0.0,-1.0,0.13894319995826396,1.0,2
24.339628219604492,-27.2377872467041,1.520042896270752,-0.0,-0.0,-1.0,0.13212028336755452,1.0,2
24.238523483276367,-27.006868362426758,1.3581100702285767,0.9096716228825592,0.31788918447395925,-0.26729011376534717,0.13036864570506107,3.0,2
23.543804168701172,-28.813274383544922,1.9713331460952759,-0.0,-0.0,-1.0,0.24991297034066579,1.0,2
24.61174201965332,-29.264816284179688,1.092976450920105,-0.0,-0.0,-1.0,0.07929671957230451,2.0,2
24.05298614501953,-27.179441452026367,0.9046965837478638,-0.0,-0.0,-1.0,0.03949558403806047,2.0,1
24.31930923461914,-27.309703826904297,0.9080305099487305,-0.0,-0.0,-1.0,0.18020164492030882,1.0,1
24.66562271118164,-27.541345596313477,0.9009253978729248,-0.0,-0.0,-1.0,0.10654810772768421,1.0,1
23.62310028076172,-26.933490753173828,0.8996514081954956,-0.0,-0.0,-1.0,0.07923420693756056,1.0,1
23.88184928894043,-27.080432891845703,0.9034699201583862,-0.0,-0.0,-1.0,0.02845402121379027,2.0,1
24.188446044921875,-27.117801666259766,0.9242935180664062,-0.0,-0.0,-1.0,0.04498706108996171,2.0,1
25.192325592041016,-29.213027954101562,1.1235241889953613,-0.0,-0.0,-1.0,0.04193078762615016,2.0,2
22.94508934020996,-28.342588424682617,1.0929017066955566,-0.0,-0.0,-1.0,0.1719794151560926,1.0,2
23.384918212890625,-28.429943084716797,1.1147592067718506,-0.0,-0.0,-1.0,0.05875675004093301,2.0,2
23.78469467163086,-28.39688491821289,1.1441662311553955,-0.0,-0.0,-1.0,0.05157637194888848,2.0,2
24.18022918701172,-28.58374786376953,1.1471903324127197,-0.0,-0.0,-1.0,0.06095887831685973,2.0,2
24.53070831298828,-28.626806259155273,1.161132574081421,-0.41067496016596144,0.06588703453706724,-0.9093981393056604,0.1937111083028529,3.0,2
23.397491455078125,-28.04232406616211,1.1560169458389282,-0.0,-0.0,-1.0,0.1984997147279866,1.0,2
24.93010139465332,-28.193477630615234,1.229695200920105,-0.0,-0.0,-1.0,0.14988370112204819,1.0,2
24.09383773803711,-27.912918090820312,1.2152564525604248,-0.0,-0.0,-1.0,0.25979767604247583,2.0,2
24.331634521484375,-27.336042404174805,1.2917516231536865,-0.0,-0.0,-1.0,0.20618107831836685,2.0,2
24.581266403198242,-27.312068939208984,1.3094239234924316,0.5332416951166448,-0.13102424004021648,-0.8357547146806955,0.21115816301921478,3.0,2
23.38611602783203,-26.86531639099121,1.274057149887085,-0.0,-0.0,-1.0,0.02353736190807391,2.0,2
24.415821075439453,-29.1029052734375,1.5409637689590454,-0.0,-0.0,-1.0,0.15589467597463075,1.0,2
24.871538162231445,-29.100391387939453,1.5567121505737305,-0.2554330589546815,-0.39234633325450824,-0.8836392404000608,0.19235310952890594,6.0,2
23.49759292602539,-27.919042587280273,1.5905145406723022,-0.0,-0.0,-1.0,0.07132145059219482,2.0,2
23.684423446655273,-28.17706298828125,1.5810706615447998,-0.0,-0.0,-1.0,0.19233795884782443,2.0,2
24.284061431884766,-27.22461700439453,1.6811044216156006,-0.0,-0.0,-1.0,0.05577012492334449,1.0,2
23.153160095214844,-28.62453842163086,1.1101595163345337,-0.0,-0.0,-1.0,0.08135647882755984,1.0,2
24.08251953125,-28.867202758789062,1.1509714126586914,-0.0,-0.0,-1.0,0.04558460426281442,1.0,2
24.23021125793457,-28.989696502685547,1.147646427154541,-0.0,-0.0,-1.0,0.07018765649170344,1.0,2
23.043895721435547,-28.389278411865234,1.1234071254730225,-0.0,-0.0,-1.0,0.08226206962621849,2.0,2
23.46193504333496,-28.502845764160156,1.144212007522583,-0.0,-0.0,-1.0,0.052222125377569165,2.0,2
23.952268600463867,-28.609737396240234,1.1678828001022339,-0.0,-0.0,-1.0,0.0777478825489295,1.0,2
23.872833251953125,-27.130733489990234,0.8990449905395508,-0.0,-0.0,-1.0,0.028702321041194894,1.0,1
24.10470962524414,-27.26956558227539,0.9040100574493408,-0.0,-0.0,-1.0,0.04371611577857778,1.0,1
24.463184356689453,-27.454193115234375,0.9127490520477295,-0.0,-0.0,-1.0,0.16044260064739485,1.0,1
24.907058715820312,-27.52444839477539,0.9398282766342163,-0.0,-0.0,-1.0,0.07906018109344617,1.0,1
23.67532730102539,-26.946258544921875,0.9011619091033936,-0.0,-0.0,-1.0,0.0907981790456277,2.0,1
24.17444610595703,-26.905624389648438,0.9550955295562744,-0.0,-0.0,-1.0,0.15175240407385804,1.0,1
22.7796688079834,-29.196651458740234,1.510716438293457,-0.0,-0.0,-1.0,0.1538901522771072,1.0,2
23.970413208007812,-28.533105850219727,1.1764740943908691,-0.0,-0.0,-1.0,0.05683853240322418,1.0,2
24.389476776123047,-28.647123336791992,1.191572904586792,0.181915125832341,0.012460004228381028,-0.9832352898915048,0.07803098266562238,3.0,2
23.360366821289062,-28.13500213623047,1.1707534790039062,0.4659208173418685,-0.7632446121316467,-0.44763316903408445,0.22225609381468744,4.0,2
23.46572494506836,-27.96770668029785,1.1940051317214966,-0.0,-0.0,-1.0,0.23881258287315174,1.0,2
24.067638397216797,-27.924564361572266,1.2416936159133911,-0.0,-0.0,-1.0,0.2174379168582443,2.0,2
24.755451202392578,-28.28900909423828,1.2493581771850586,-0.0,-0.0,-1.0,0.20489013132553788,1.0,2
23.423023223876953,-27.730560302734375,1.2122136354446411,-0.0,-0.0,-1.0,0.18447985874570264,1.0,2
24.30621910095215,-27.218708038330078,1.325331211090088,-0.0,-0.0,-1.0,0.2503482403493437,1.0,2
24.430084228515625,-27.36392593383789,1.3201395273208618,-0.9033779991926966,0.4174443722396079,-0.09822620149471498,0.24812774196948198,3.0,2
24.315536499023438,-27.185977935791016,1.7212594747543335,0.4107522305677874,0.492692776031063,-0.7671612826064625,0.049410665212703334,4.0,2
24.247533798217773,-29.32422637939453,1.1233656406402588,-0.0,-0.0,-1.0,0.17351844639810393,1.0,2
24.234477996826172,-28.823835372924805,1.1676064729690552,-0.0,-0.0,-1.0,0.08139574381670622,1.0,2
23.005393981933594,-28.35095977783203,1.1098767518997192,-0.0,-0.0,-1.0,0.140270886599776,1.0,2
23.35150146484375,-28.49287986755371,1.1279270648956299,0.663203629875233,0.02283372603194708,-0.7480906136797959,0.04335627886308978,3.0,2
23.722457885742188,-28.38606834411621,1.1668810844421387,-0.32485191025881016,0.8519693167949314,0.41063307178207126,0.05138415913195589,4.0,2
24.084341049194336,-28.496063232421875,1.1854348182678223,-0.1286647551327939,-0.9666104473957354,0.22160691273521776,0.07504451524703462,3.0,2
24.60318946838379,-28.557907104492188,1.2173960208892822,-0.19015103552703197,-0.5594824672962286,-0.8067353670666249,0.16554797175575497,5.0,2
24.435649871826172,-27.28559112548828,0.903005838394165,-0.0,-0.0,-1.0,0.1678131324987268,1.0,1
24.768051147460938,-27.5294246673584,0.9075143337249756,-0.0,-0.0,-1.0,0.10485537837943654,2.0,1
25.063709259033203,-27.31139373779297,0.9606107473373413,-0.0,-0.0,-1.0,0.0436389361087527,2.0,1
23.79741668701172,-26.893329620361328,0.8772233724594116,-0.0,-0.0,-1.0,0.035726653566834125,1.0,1
24.065364837646484,-26.87824249267578,0.9084575176239014,-0.0,-0.0,-1.0,0.11689932384322826,1.0,1
24.222606658935547,-27.028928756713867,0.9093595743179321,-0.0,-0.0,-1.0,0.1283602627119506,2.0,1
24.112905502319336,-27.975008010864258,1.232320785522461,-0.4940853242143991,0.8563274762407982,-0.1502762317567797,0.16119614706531918,3.0,2
25.014528274536133,-28.24219512939453,1.2740733623504639,-0.0,-0.0,-1.0,0.14201846177458122,1.0,2
23.856426239013672,-27.82027816772461,1.2245538234710693,-0.0,-0.0,-1.0,0.17219849209769736,1.0,2
24.386489868164062,-27.327796936035156,1.3082664012908936,-0.0,-0.0,-1.0,0.23123713332607393,1.0,2
24.596885681152344,-27.340747833251953,1.3238856792449951,-0.0,-0.0,-1.0,0.20635123096069397,2.0,2
24.35247039794922,-27.182647705078125,1.7257167100906372,0.07270494934965395,0.4103316466077042,-0.9090335143064168,0.04370451855438478,3.0,2
24.862558364868164,-28.930688858032227,1.071470022201538,-0.0,-0.0,-1.0,0.019847920895380688,1.0,2
25.08473014831543,-29.04555320739746,1.0736968517303467,-0.0,-0.0,-1.0,0.011771904674576852,2.0,2
24.219018936157227,-28.369537353515625,1.0836673974990845,-0.0,-0.0,-1.0,0.13195059731568343,1.0,2
24.548799514770508,-28.613582611083984,1.0828380584716797,-0.0,-0.0,-1.0,0.250296378036484,2.0,2
24.849214553833008,-28.779813766479492,1.0864043235778809,-0.0,-0.0,-1.0,0.030622407243706355,1.0,2
23.018640518188477,-27.736799240112305,1.0463714599609375,-0.0,-0.0,-1.0,0.0851711026430491,1.0,2
23.3925838470459,-27.912647247314453,1.0621583461761475,-0.0,-0.0,-1.0,0.09166420519975875,2.0,2
23.699203491210938,-28.06560707092285,1.0729548931121826,-0.0,-0.0,-1.0,0.0624996419155082,2.0,2
24.114639282226562,-28.132829666137695,1.0990432500839233,-0.0,-0.0,-1.0,0.18599593999169647,1.0,2
24.551315307617188,-28.398212432861328,1.105144739151001,-0.0,-0.0,-1.0,0.13933299319365816,1.0,2
22.85019874572754,-27.5369930267334,1.0492240190505981,-0.0,-0.0,-1.0,0.06489541473693122,1.0,2
22.877395629882812,-27.608280181884766,1.0454106330871582,0.9593753263130732,-0.24552352608900238,-0.13898626334464612,0.0798109441023743,4.0,2
24.04085922241211,-27.83474349975586,1.1222330331802368,-0.0,-0.0,-1.0,0.1597746258939535,1.0,2
23.51416015625,-29.099245071411133,1.4533661603927612,-0.0,-0.0,-1.0,0.22497370228965824,1.0,2
24.470260620117188,-29.292633056640625,1.4876718521118164,-0.0,-0.0,-1.0,0.10497624520022528,1.0,2
23.37853240966797,-28.804046630859375,1.4667243957519531,-0.0,-0.0,-1.0,0.17734789646778154,1.0,2
23.482051849365234,-28.86788558959961,1.4680039882659912,-0.0,-0.0,-1.0,0.15080639379483543,1.0,2
24.44957733154297,-29.15705108642578,1.49690842628479,-0.0,-0.0,-1.0,0.17566773316974976,1.0,2
24.626522064208984,-28.226608276367188,1.127970576286316,-0.0,-0.0,-1.0,0.2177823740586044,1.0,2
24.512264251708984,-27.666664123535156,1.1752445697784424,-0.0,-0.0,-1.0,0.09900164209916583,1.0,2
23.264741897583008,-26.962291717529297,1.1359832286834717,-0.0,-0.0,-1.0,0.08610395909248847,2.0,2
24.239233016967773,-27.441532135009766,1.1754834651947021,-0.0,-0.0,-1.0,0.17932470161596595,2.0,2
25.038169860839844,-27.53662109375,1.2275440692901611,-0.0,-0.0,-1.0,0.15674288077911525,1.0,2
23.42936897277832,-26.88983154296875,1.156988263130188,-0.08390019018043358,-0.9861558167187326,-0.1430295886853359,0.046698289866228114,3.0,2
24.098419189453125,-26.86286163330078,1.2176532745361328,-0.0,-0.0,-1.0,0.13210393353844527,1.0,2
24.215288162231445,-27.35610008239746,1.6134274005889893,-0.0,-0.0,-1.0,0.1081082949682683,2.0,2
22.770729064941406,-27.744369506835938,1.103109359741211,-0.0,-0.0,-1.0,0.05685489216728328,1.0,2
22.901334762573242,-27.777626037597656,1.1095521450042725,-0.0,-0.0,-1.0,0.07122170836070542,1.0,2
23.262537002563477,-27.928791046142578,1.1216483116149902,-0.0,-0.0,-1.0,0.1004133442475565,1.0,2
23.70215606689453,-28.141281127929688,1.1326887607574463,-0.0,-0.0,-1.0,0.12361263872971906,2.0,2
23.955486297607422,-28.280282974243164,1.136785864830017,-0.20523699678058363,-0.4673571662069405,-0.8599157251425891,0.09485061310852884,3.0,2
24.320049285888672,-28.566251754760742,1.1336218118667603,-0.0,-0.0,-1.0,0.10735245013321441,2.0,2
24.574289321899414,-28.844131469726562,1.122964859008789,-0.0,-0.0,-1.0,0.043309296169561515,1.0,2
24.866552352905273,-28.971630096435547,1.1285240650177002,-0.0,-0.0,-1.0,0.020018256395634593,1.0,2
23.72629737854004,-28.030790328979492,1.1444928646087646,-0.0,-0.0,-1.0,0.10240884840319568,1.0,2
24.64812469482422,-28.086467742919922,1.200510025024414,-0.0,-0.0,-1.0,0.15124126643678854,1.0,2
24.0418701171875,-27.18307113647461,1.2435601949691772,-0.0,-0.0,-1.0,0.09900694863367189,1.0,2
25.16166877746582,-27.212526321411133,1.3167539834976196,-0.0,-0.0,-1.0,0.0957692331377802,1.0,2
24.443756103515625,-29.144718170166016,1.565822958946228,-0.0,-0.0,-1.0,0.08751562930307269,2.0,2
23.001262664794922,-27.731361389160156,1.5975620746612549,-0.0,-0.0,-1.0,0.09731163436929927,1.0,2
23.171443939208984,-27.762971878051758,1.6033746004104614,-0.0,-0.0,-1.0,0.18412177800711707,1.0,2
23.99237060546875,-27.07007598876953,1.6857519149780273,-0.0,-0.0,-1.0,0.17777255639118333,1.0,2
23.47351837158203,-29.11386489868164,2.025599479675293,-0.0,-0.0,-1.0,0.1482689278492499,1.0,3
22.860862731933594,-28.220380783081055,1.1330139636993408,-0.0,-0.0,-1.0,0.16125226346211896,1.0,2
23.64740562438965,-28.55209732055664,1.1785588264465332,-0.931251634680161,-0.3314839598736729,-0.15129037395682862,0.042014433488997985,3.0,2
23.95930290222168,-28.876773834228516,1.1814637184143066,0.14463029121503865,-0.5934161015527919,-0.7917950551000807,0.061419721732610094,3.0,2
24.08086395263672,-29.141204833984375,1.1717097759246826,-0.0,-0.0,-1.0,0.07655533842581,2.0,2
23.041542053222656,-27.661636352539062,1.184902310371399,-0.0,-0.0,-1.0,0.09467154268560896,1.0,2
23.13298797607422,-28.02975845336914,1.1695208549499512,-0.0,-0.0,-1.0,0.12214800324667129,1.0,2
23.524147033691406,-28.055221557617188,1.2020070552825928,-0.0,-0.0,-1.0,0.21662679736749865,1.0,2
23.680252075195312,-28.375518798828125,1.1935631036758423,-0.6650836442599237,-0.4703939758987397,0.579994184088181,0.048492651589312444,3.0,2
24.066184997558594,-28.694091796875,1.203314185142517,-0.4919620875685397,-0.10004982680826006,-0.8648487362254987,0.12686182096555554,3.0,2
24.46066665649414,-28.77377700805664,1.2289304733276367,-0.0,-0.0,-1.0,0.08400717473217982,1.0,2
23.59052276611328,-27.84299087524414,1.2219593524932861,-0.0,-0.0,-1.0,0.19370544252328892,1.0,2
24.164142608642578,-28.336578369140625,1.2366238832473755,-0.0,-0.0,-1.0,0.11068360210668737,1.0,2
24.297134399414062,-27.06515884399414,0.902512788772583,-0.0,-0.0,-1.0,0.07026584382008115,1.0,1
24.571048736572266,-27.01795196533203,0.9376599788665771,-0.0,-0.0,-1.0,0.09656185421344338,1.0,1
24.79150390625,-26.97149658203125,0.9664648771286011,-0.0,-0.0,-1.0,0.02723204049526641,1.0,1
25.094600677490234,-26.94573211669922,1.0021075010299683,-0.0,-0.0,-1.0,0.034270041850127775,1.0,2
22.815872192382812,-28.802143096923828,1.6000785827636719,-0.0,-0.0,-1.0,0.10845783285436077,1.0,2
23.438323974609375,-29.008926391601562,1.6284531354904175,-0.0,-0.0,-1.0,0.19305005342131515,1.0,2
24.490371704101562,-28.078304290771484,1.2817885875701904,-0.0,-0.0,-1.0,0.11784522516901252,1.0,2
24.894939422607422,-28.398447036743164,1.2908861637115479,-0.0,-0.0,-1.0,0.18481062010390176,1.0,2
24.00843048095703,-27.018783569335938,1.312588095664978,-0.0,-0.0,-1.0,0.1963485693475458,1.0,2
24.06696891784668,-27.170921325683594,1.307930827140808,-0.0,-0.0,-1.0,0.11904114503381509,1.0,2
23.96658706665039,-26.928892135620117,1.7491073608398438,-0.0,-0.0,-1.0,0.06877638480256376,1.0,2
23.533069610595703,-28.962303161621094,2.1294617652893066,-0.0,-0.0,-1.0,0.11162684963474889,1.0,3
23.962963104248047,-29.333782196044922,2.136962413787842,-0.0,-0.0,-1.0,0.07768409786412002,1.0,3
22.767444610595703,-29.223535537719727,1.1241624355316162,-0.0,-0.0,-1.0,0.17434886720898018,1.0,2
22.874671936035156,-28.98320770263672,1.148834466934204,-0.0,-0.0,-1.0,0.1471923982798769,1.0,2
23.510295867919922,-28.75286865234375,1.2152018547058105,-0.0,-0.0,-1.0,0.21170046509673385,2.0,2
23.317886352539062,-28.125221252441406,1.2411233186721802,-0.0,-0.0,-1.0,0.11150321165298162,2.0,2
23.44748306274414,-28.192363739013672,1.247467041015625,-0.0,-0.0,-1.0,0.20672575684946431,1.0,2
23.697446823120117,-28.769908905029297,1.2287707328796387,-0.0,-0.0,-1.0,0.16827708590740093,2.0,2
23.90334701538086,-28.981517791748047,1.229873538017273,-0.0,-0.0,-1.0,0.04924637857126336,1.0,2
23.985427856445312,-29.262161254882812,1.2160362005233765,-0.0,-0.0,-1.0,0.13678262294723337,1.0,2
23.633804321289062,-28.148740768432617,1.2655489444732666,-0.0,-0.0,-1.0,0.16694984376934327,1.0,2
23.725669860839844,-27.072433471679688,0.8965075016021729,-0.0,-0.0,-1.0,0.047433976716009955,1.0,1
24.045852661132812,-27.084922790527344,0.9315978288650513,-0.0,-0.0,-1.0,0.059072812445824276,2.0,1
24.211021423339844,-27.32160758972168,0.9293457269668579,-0.0,-0.0,-1.0,0.15215140140116937,1.0,1
24.503829956054688,-27.557905197143555,0.9398831129074097,-0.0,-0.0,-1.0,0.12889965410395854,2.0,1
24.655590057373047,-27.739660263061523,0.9391545057296753,-0.0,-0.0,-1.0,0.14577230197365526,2.0,1
25.02543830871582,-27.43499755859375,1.0060745477676392,-0.0,-0.0,-1.0,0.1089910979300354,1.0,2
23.21712875366211,-29.19953155517578,1.6661683320999146,-0.0,-0.0,-1.0,0.07523645112149938,1.0,2
23.438640594482422,-26.900651931762695,1.326320767402649,-0.0,-0.0,-1.0,0.03393204271308723,1.0,2
23.012176513671875,-27.286197662353516,1.002097725868225,-0.0,-0.0,-1.0,0.05306589136411084,1.0,2
23.162012100219727,-27.64318084716797,0.9946620464324951,-0.0,-0.0,-1.0,0.06809745884297698,1.0,1
23.166744232177734,-27.004287719726562,1.0368417501449585,-0.0,-0.0,-1.0,0.1794075264185385,1.0,2
23.23651885986328,-27.177352905273438,1.0334935188293457,-0.0,-0.0,-1.0,0.07837879667588461,2.0,2
23.343544006347656,-27.769336700439453,1.0052006244659424,-0.2659696413801527,-0.8079195630157245,-0.5258575183075672,0.06059593839033999,3.0,2
23.554012298583984,-27.906707763671875,1.0172288417816162,-0.41605683078255107,0.7815932615977157,-0.4647673471579346,0.09961886562553747,3.0,2
23.931011199951172,-27.99376678466797,1.0495011806488037,-0.0,-0.0,-1.0,0.04961259447711678,2.0,2
24.91327667236328,-29.111589431762695,1.051018238067627,-0.0,-0.0,-1.0,0.01932816185004517,1.0,2
23.40416717529297,-29.088411331176758,1.3995344638824463,-0.0,-0.0,-1.0,0.1913197502027433,1.0,2
23.4149169921875,-28.045495986938477,1.4570817947387695,-0.0,-0.0,-1.0,0.07605328621663048,1.0,2
23.53759765625,-28.860881805419922,1.42183256149292,-0.0,-0.0,-1.0,0.19610212783248118,2.0,2
23.719573974609375,-29.140262603759766,1.4184150695800781,-0.0,-0.0,-1.0,0.15452014787580923,1.0,2
24.1390380859375,-28.10912322998047,1.061478614807129,-0.0,-0.0,-1.0,0.21770895467291126,1.0,2
24.35315704345703,-28.40078353881836,1.0594704151153564,-0.0,-0.0,-1.0,0.16795561272780737,1.0,2
24.678131103515625,-28.851455688476562,1.0525306463241577,-0.0,-0.0,-1.0,0.030226106164425497,1.0,2
24.3189697265625,-27.501420974731445,1.1255556344985962,0.5809494130239516,0.28882842370676354,-0.7609703812673606,0.21273729071008643,3.0,2
24.655298233032227,-28.461875915527344,1.083317756652832,-0.0,-0.0,-1.0,0.12169159619430378,1.0,2
24.708805084228516,-28.754165649414062,1.0636451244354248,-0.0,-0.0,-1.0,0.04230769477047056,2.0,2
25.074811935424805,-29.056602478027344,1.070176601409912,-0.0,-0.0,-1.0,0.011775414448474329,2.0,2
24.677810668945312,-29.16944122314453,1.4805103540420532,-0.0,-0.0,-1.0,0.08564588380180742,1.0,2
22.98004722595215,-27.168792724609375,0.9811371564865112,-0.0,-0.0,-1.0,0.05765673956059373,1.0,1
23.094070434570312,-27.539945602416992,0.980183482170105,-0.0,-0.0,-1.0,0.05890793915344197,1.0,1
23.28589630126953,-27.028270721435547,1.026098608970642,-0.0,-0.0,-1.0,0.17841868577654685,1.0,2
23.289531707763672,-27.580854415893555,1.003020167350769,-0.0,-0.0,-1.0,0.10681415515940737,1.0,2
23.31279754638672,-27.754549026489258,0.9980320930480957,-0.2659696413801527,-0.8079195630157245,-0.5258575183075672,0.05629267292756429,3.0,1
23.688312530517578,-27.955982208251953,1.0350379943847656,-0.0,-0.0,-1.0,0.05751907403236288,1.0,2
23.85186004638672,-28.08453941345215,1.0486594438552856,-0.0,-0.0,-1.0,0.049381632039342385,2.0,2
24.142108917236328,-28.171945571899414,1.079319715499878,-0.0,-0.0,-1.0,0.13076051944861844,1.0,2
24.358232498168945,-28.440597534179688,1.0906622409820557,-0.0,-0.0,-1.0,0.1709952734554881,1.0,2
24.545608520507812,-29.298419952392578,1.0624165534973145,-0.0,-0.0,-1.0,0.05992713139162219,2.0,2
24.340103149414062,-26.90678596496582,1.1651638746261597,-0.0,-0.0,-1.0,0.1242344483307858,1.0,2
24.425941467285156,-27.343883514404297,1.1556532382965088,-0.0,-0.0,-1.0,0.17959200110658186,1.0,2
24.45333480834961,-27.553071975708008,1.1488351821899414,-0.0,-0.0,-1.0,0.1461806693504066,2.0,2
24.646175384521484,-28.55459976196289,1.1181612014770508,-0.3655604400461205,0.8058013355522209,-0.46588600783404466,0.134087730879628,3.0,2
24.689599990844727,-28.83554458618164,1.106827735900879,0.5493810474694875,0.41161731142998925,-0.7271531156589208,0.029446674555980972,3.0,2
24.79787826538086,-29.25436782836914,1.0937122106552124,-0.2899949302846987,-0.8209564932611999,-0.49186723471018656,0.08182445683631816,4.0,2
24.948375701904297,-27.84945297241211,1.1932982206344604,-0.0,-0.0,-1.0,0.13076317192332862,2.0,2
23.33499526977539,-29.242900848388672,1.4075050354003906,-0.0,-0.0,-1.0,0.06681538749217426,1.0,2
23.520732879638672,-28.819705963134766,1.4386255741119385,-0.0,-0.0,-1.0,0.22115407306598742,2.0,2
23.63177490234375,-28.945114135742188,1.4444350004196167,-0.0,-0.0,-1.0,0.1925108217830268,1.0,2
23.594215393066406,-26.867717742919922,1.501592993736267,-0.0,-0.0,-1.0,0.021784810309820626,2.0,2
23.802242279052734,-29.009201049804688,1.4575886726379395,-0.0,-0.0,-1.0,0.21403413155099904,1.0,2
23.93937110900879,-29.3387451171875,1.4579778909683228,-0.0,-0.0,-1.0,0.20803158493015914,1.0,2
24.222213745117188,-29.199386596679688,1.4880409240722656,-0.0,-0.0,-1.0,0.19219867245496083,1.0,2
24.87916374206543,-29.280275344848633,1.5419942140579224,-0.0,-0.0,-1.0,0.1751501887528885,1.0,2
24.886566162109375,-28.28304672241211,1.5801395177841187,-0.0,-0.0,-1.0,0.10082140520877564,2.0,2
24.694381713867188,-26.94620704650879,0.8809165954589844,-0.0,-0.0,-1.0,0.04761593391271837,2.0,1
24.91457176208496,-26.994426727294922,0.912266731262207,-0.0,-0.0,-1.0,0.034499403736734977,2.0,1
25.03573989868164,-27.127302169799805,0.9228764772415161,-0.0,-0.0,-1.0,0.024110546438226767,1.0,1
22.944499969482422,-27.241104125976562,1.0417916774749756,0.299885945252629,0.11633254214525579,-0.946855405792225,0.055370221295899934,3.0,2
22.87441635131836,-27.636539459228516,1.0187500715255737,0.9138864886708503,0.22343085141737248,-0.338954481397977,0.07981094410237434,3.0,2
22.994041442871094,-27.827503204345703,1.0265121459960938,0.4827989042759558,0.572940748801883,-0.6623021337669641,0.026217250629098056,3.0,2
22.879318237304688,-29.220081329345703,1.4378632307052612,-0.0,-0.0,-1.0,0.18862763596093324,1.0,2
23.29346466064453,-27.988460540771484,1.0571880340576172,-0.0,-0.0,-1.0,0.11081030115233317,1.0,2
23.430835723876953,-28.294998168945312,1.0610308647155762,-0.0,-0.0,-1.0,0.0953327580467903,2.0,2
23.756250381469727,-28.087718963623047,1.1097649335861206,-0.0,-0.0,-1.0,0.0771150678971158,1.0,2
23.767372131347656,-28.261632919311523,1.1034015417099,-0.0,-0.0,-1.0,0.03060438714193625,2.0,2
24.356544494628906,-27.403717041015625,1.2129437923431396,0.7559818979322712,0.23008761394537408,0.6128222090522222,0.20714383814018736,4.0,2
24.350631713867188,-27.501676559448242,1.2080830335617065,-0.25420655508461465,0.9664107842860676,-0.03780507065990614,0.2425545869781962,4.0,2
24.01068878173828,-28.1542911529541,1.1377867460250854,-0.0,-0.0,-1.0,0.1429301353382848,1.0,2
24.112638473510742,-28.431377410888672,1.1369353532791138,-0.0,-0.0,-1.0,0.11655333765809642,2.0,2
24.280702590942383,-28.672273635864258,1.1450344324111938,-0.0,-0.0,-1.0,0.11865014520274639,2.0,2
24.20803451538086,-29.243722915649414,1.1067323684692383,-0.0,-0.0,-1.0,0.11641815699338626,1.0,2
24.378929138183594,-27.437225341796875,1.2142964601516724,-0.0,-0.0,-1.0,0.20766160763496153,2.0,2
24.48785400390625,-27.509382247924805,1.2245965003967285,-0.0,-0.0,-1.0,0.22271270657670336,2.0,2
24.627044677734375,-28.52288246154785,1.1932945251464844,-0.5132594808103582,-0.6549847070523785,-0.5545806874439385,0.1678787817241157,6.0,2
24.518041610717773,-28.841733932495117,1.1639952659606934,-0.0,-0.0,-1.0,0.04394629904998465,1.0,2
25.0628662109375,-28.03290557861328,1.269353985786438,-0.0,-0.0,-1.0,0.1757474052036216,1.0,2
24.7613468170166,-28.528011322021484,1.208725929260254,-0.0,-0.0,-1.0,0.0812700189658891,2.0,2
23.281570434570312,-29.171831130981445,1.4754188060760498,-0.35440275907693514,-0.6394294484054184,-0.6822966106251724,0.07365124459074911,3.0,2
23.70183563232422,-28.875898361206055,1.5216588973999023,-0.0,-0.0,-1.0,0.2045679585759113,1.0,2
