x,y,z,nx,ny,nz,curvature,density,label
43.0023193359375,8.716226577758789,-1.3965375423431396,-0.0,-0.0,-1.0,0.10377848313034715,1.0,0
44.692771911621094,9.026387214660645,-1.7651517391204834,-0.0,-0.0,-1.0,0.01983725451591318,1.0,0
44.63426971435547,8.862958908081055,-1.7607343196868896,-0.0,-0.0,-1.0,0.02080511457796436,1.0,0
44.87038803100586,9.25045108795166,-1.7843225002288818,-0.0,-0.0,-1.0,0.011323234618920137,1.0,0
45.134803771972656,9.43275260925293,-1.816030740737915,-0.0,-0.0,-1.0,0.014112464212394862,1.0,0
42.84455871582031,8.22738265991211,-1.5395808219909668,-0.9191855999282496,-0.2139191822154182,0.33066057576437924,0.13056858899665302,4.0,0
42.994117736816406,8.968303680419922,-1.5419871807098389,-0.0,-0.0,-1.0,0.1988615737904899,1.0,0
42.829917907714844,8.551202774047852,-1.5299842357635498,-0.0,-0.0,-1.0,0.16065474248372003,2.0,0
42.864715576171875,8.408376693725586,-1.5378937721252441,-0.8589215658501387,-0.34695512138431256,-0.37666415739056286,0.15262547295567436,4.0,0
43.269126892089844,9.142289161682129,-1.574406623840332,-0.0,-0.0,-1.0,0.14372926656598725,2.0,0
43.49539566040039,9.306231498718262,-1.6007702350616455,0.8879486808789362,0.15500404736269907,-0.4330368176339505,0.04046316453539076,3.0,0
42.780914306640625,8.479063034057617,-1.6002848148345947,-0.7244910912381574,-0.625663123751809,-0.2892374704177736,0.14540240651756714,3.0,0
42.7574462890625,8.192523956298828,-1.6024174690246582,-0.0,-0.0,-1.0,0.11255433621665878,2.0,0
43.086181640625,9.04343318939209,-1.6328749656677246,-0.0,-0.0,-1.0,0.13005422491029386,1.0,0
43.408294677734375,9.413249015808105,-1.672067403793335,-0.0,-0.0,-1.0,0.047401912116893805,1.0,0
43.25370788574219,9.189455032348633,-1.6539218425750732,-0.5362047427635191,0.4402421788688343,-0.7201883765951305,0.11115004868422684,3.0,0
43.73478317260742,10.084251403808594,-1.7082412242889404,-0.0,-0.0,-1.0,0.051251536049521124,2.0,0
43.74644470214844,9.662291526794434,-1.7159106731414795,-0.0,-0.0,-1.0,0.022147928909434483,1.0,0
44.0662727355957,10.22704792022705,-1.7533204555511475,-0.0,-0.0,-1.0,0.02810290834021383,1.0,0
44.3281364440918,9.979475975036621,-1.7937452793121338,-0.0,-0.0,-1.0,0.009162470290042406,1.0,0
44.33708190917969,9.603228569030762,-1.8001925945281982,-0.0,-0.0,-1.0,0.007815044319154075,1.0,0
44.85399627685547,10.50551986694336,-1.8619987964630127,-0.0,-0.0,-1.0,0.005405491656581855,2.0,0
44.722965240478516,10.210532188415527,-1.846879243850708,-0.0,-0.0,-1.0,0.004444735446743011,1.0,0
42.921302795410156,8.799949645996094,-1.3396117687225342,-0.0,-0.0,-1.0,0.1018662502970947,1.0,0
43.02647399902344,8.570194244384766,-1.3562994003295898,-0.0,-0.0,-1.0,0.018978270111008083,1.0,0
43.12820053100586,9.030060768127441,-1.3658320903778076,-0.0,-0.0,-1.0,0.09961354603318531,2.0,0
43.22657775878906,9.40705394744873,-1.6826364994049072,-0.0,-0.0,-1.0,0.06738086216596396,1.0,0
43.054344177246094,9.210601806640625,-1.6633522510528564,-0.0,-0.0,-1.0,0.09392007998663991,1.0,0
43.632930755615234,10.09760570526123,-1.7230918407440186,-0.0,-0.0,-1.0,0.08168930938619187,2.0,0
43.554630279541016,9.667181015014648,-1.722874402999878,-0.0,-0.0,-1.0,0.03715339461650221,1.0,0
43.821102142333984,10.23987865447998,-1.7468092441558838,-0.0,-0.0,-1.0,0.03275268322021474,1.0,0
43.88249588012695,9.839239120483398,-1.7656972408294678,-0.16595891240428096,-0.4374537426251464,-0.8837940158525857,0.027721866527945917,3.0,0
44.050140380859375,10.151090621948242,-1.7821400165557861,-0.0,-0.0,-1.0,0.028796100055719233,2.0,0
44.721160888671875,10.446274757385254,-1.872511625289917,0.36348275481219444,0.4079333059824532,-0.8375384796081696,0.0046930818143342025,3.0,0
44.460472106933594,10.212722778320312,-1.8401167392730713,-0.0,-0.0,-1.0,0.007437729740343076,1.0,0
42.85886764526367,8.776203155517578,-1.501955509185791,-0.0,-0.0,-1.0,0.16060645726794842,1.0,0
43.019107818603516,8.814607620239258,-1.5271124839782715,-0.0,-0.0,-1.0,0.22849832247533672,1.0,0
44.84991455078125,8.67888355255127,-1.8107891082763672,-0.0,-0.0,-1.0,0.01515862159514734,1.0,0
44.94530487060547,8.365605354309082,-1.8228693008422852,-0.0,-0.0,-1.0,0.01918741019442545,1.0,0
45.067543029785156,8.871315002441406,-1.8465957641601562,-0.0,-0.0,-1.0,0.01326020138399376,1.0,0
42.857337951660156,8.362214088439941,-1.530609130859375,-0.8577499924086961,0.46112951482268794,-0.22721030144400187,0.14214164259911355,4.0,0
42.842777252197266,8.596391677856445,-1.535271167755127,-0.0,-0.0,-1.0,0.20488751267748795,2.0,0
42.79655075073242,9.106632232666016,-1.5436081886291504,-0.0,-0.0,-1.0,0.21402760266562715,1.0,0
43.18544387817383,9.107413291931152,-1.61474609375,-0.0,-0.0,-1.0,0.1359929047435789,2.0,0
43.378055572509766,9.359428405761719,-1.6589665412902832,0.13574944219250015,0.9432005608526831,0.30322399468315353,0.0525227175052481,4.0,0
43.63079833984375,9.598901748657227,-1.7141633033752441,0.35837717934173496,0.7930893145713104,-0.492519173677402,0.020339493164183407,4.0,0
43.788124084472656,9.734341621398926,-1.7482528686523438,-0.0,-0.0,-1.0,0.04275557828884052,2.0,0
43.770668029785156,10.054903030395508,-1.7575726509094238,-0.0,-0.0,-1.0,0.031538433245349454,2.0,0
43.847782135009766,9.848259925842285,-1.763643741607666,-0.0,-0.0,-1.0,0.03459409866859424,2.0,0
43.99860382080078,10.34896469116211,-1.8116707801818848,-0.0,-0.0,-1.0,0.02247953961472628,1.0,0
42.80886459350586,9.471697807312012,-1.6841001510620117,-0.0,-0.0,-1.0,0.025180203944049205,1.0,0
42.80389404296875,9.746233940124512,-1.6914548873901367,-0.0,-0.0,-1.0,0.009342175070475515,1.0,0
42.89623260498047,9.685417175292969,-1.7074556350708008,-0.0,-0.0,-1.0,0.01317753170505238,1.0,0
42.85265350341797,10.079212188720703,-1.7115778923034668,-0.0,-0.0,-1.0,0.013728896202479732,2.0,0
43.01082229614258,10.492036819458008,-1.75679349899292,-0.0,-0.0,-1.0,0.022885153162233184,1.0,0
43.232627868652344,8.851423263549805,-1.3276431560516357,-0.0,-0.0,-1.0,0.11730735749431744,2.0,0
42.818817138671875,8.407073974609375,-1.5718157291412354,-0.5243649042028302,-0.41038559523395446,0.7460731267542274,0.19403230222631587,4.0,0
43.1011848449707,8.957372665405273,-1.6243999004364014,-0.0,-0.0,-1.0,0.12068760465790962,1.0,0
43.25273895263672,9.186738967895508,-1.6548607349395752,-0.5362047427635191,0.4402421788688343,-0.7201883765951305,0.11115004868422683,3.0,0
43.442970275878906,9.368392944335938,-1.6946732997894287,-0.0,-0.0,-1.0,0.05394197625961232,2.0,0
43.604522705078125,9.603649139404297,-1.7286880016326904,-0.0,-0.0,-1.0,0.031248769699005068,2.0,0
43.68401336669922,9.9933500289917,-1.7450439929962158,0.17902940557655106,0.12418675597912385,-0.9759744471953596,0.1066563729279571,4.0,0
43.877525329589844,10.133809089660645,-1.7876904010772705,-0.0,-0.0,-1.0,0.03856645487053015,1.0,0
44.065277099609375,10.402881622314453,-1.8299901485443115,-0.0,-0.0,-1.0,0.02060803843335431,2.0,0
42.76515197753906,8.455521583557129,-1.4324042797088623,-0.0,-0.0,-1.0,0.08692901341558029,2.0,0
43.01170349121094,8.94715404510498,-1.476963996887207,-0.0,-0.0,-1.0,0.16210559741057898,2.0,0
44.416725158691406,8.88552188873291,-1.7870290279388428,-0.0,-0.0,-1.0,0.01659006755797337,1.0,0
44.432456970214844,8.950672149658203,-1.7897942066192627,-0.0,-0.0,-1.0,0.014870641694908943,1.0,0
43.21123504638672,9.036056518554688,-1.5193583965301514,-0.0,-0.0,-1.0,0.13013363764740207,2.0,0
43.339393615722656,9.123357772827148,-1.5463626384735107,0.0549918585306214,-0.6395642290159511,-0.7667682129943706,0.05706453792329938,4.0,0
44.41184997558594,9.134552955627441,-1.7834346294403076,-0.0,-0.0,-1.0,0.009051561306996478,1.0,0
44.455299377441406,9.241649627685547,-1.7921473979949951,-0.0,-0.0,-1.0,0.00944791729151923,1.0,0
44.58247375488281,9.564382553100586,-1.8184669017791748,-0.0,-0.0,-1.0,0.009336908103840141,2.0,0
44.77190017700195,9.9751615524292,-1.859771490097046,-0.0,-0.0,-1.0,0.003329887855530415,2.0,0
44.84870147705078,10.242666244506836,-1.8771731853485107,-0.0,-0.0,-1.0,0.008237557862434798,2.0,0
44.9107666015625,10.404973030090332,-1.8916561603546143,-0.0,-0.0,-1.0,0.007922013917217544,1.0,0
42.755836486816406,10.282630920410156,-1.7566325664520264,-0.23035931202741056,-0.5772058825572776,-0.7834334410168696,0.016784646536519666,3.0,0
42.916603088378906,10.471551895141602,-1.7958290576934814,-0.0,-0.0,-1.0,0.018460897151879676,1.0,0
45.081817626953125,8.253274917602539,-1.7619633674621582,-0.0,-0.0,-1.0,0.018492529660381833,1.0,0
45.16695022583008,8.531494140625,-1.7753944396972656,-0.0,-0.0,-1.0,0.018186685251928045,1.0,0
42.73957824707031,9.937694549560547,-1.7584939002990723,-0.0,-0.0,-1.0,0.00749286276474206,1.0,0
42.83055877685547,10.197385787963867,-1.775254249572754,-0.0,-0.0,-1.0,0.017613131550858217,2.0,0
42.94031524658203,10.348348617553711,-1.801344394683838,-0.0,-0.0,-1.0,0.019800757696187922,1.0,0
42.84955596923828,9.658756256103516,-1.764623761177063,-0.0,-0.0,-1.0,0.013177531705052429,1.0,0
43.025386810302734,9.994087219238281,-1.7919400930404663,-0.0,-0.0,-1.0,0.01012676193641189,2.0,0
43.129268646240234,10.34811019897461,-1.8047868013381958,-0.0,-0.0,-1.0,0.022221261400805787,1.0,0
43.22856140136719,10.570779800415039,-1.820062518119812,-0.0,-0.0,-1.0,0.017160702504116557,1.0,0
42.73572540283203,9.222850799560547,-1.6587245464324951,-0.0,-0.0,-1.0,0.07099930191666576,1.0,0
43.064144134521484,9.332073211669922,-1.7236382961273193,-0.0,-0.0,-1.0,0.05427108468716623,1.0,0
43.242610931396484,9.526610374450684,-1.7542078495025635,-0.0,-0.0,-1.0,0.035864085139705994,1.0,0
43.38818359375,9.712751388549805,-1.778881311416626,-0.0,-0.0,-1.0,0.04319584209739301,1.0,0
43.501976013183594,10.036014556884766,-1.7932548522949219,0.22756642321000164,0.4907534025653949,-0.8410556586206968,0.09578724763936466,4.0,0
43.640830993652344,10.314343452453613,-1.8156650066375732,-0.0,-0.0,-1.0,0.047761197604065955,1.0,0
43.84109878540039,10.508678436279297,-1.8548634052276611,-0.0,-0.0,-1.0,0.020092805474261486,1.0,0
44.39990997314453,8.523696899414062,-1.7345316410064697,-0.0,-0.0,-1.0,0.014950209790140032,1.0,0
44.517127990722656,8.578898429870605,-1.7578699588775635,-0.0,-0.0,-1.0,0.017519184187978813,1.0,0
44.458030700683594,8.764568328857422,-1.739943504333496,-0.0,-0.0,-1.0,0.018123935309330416,1.0,0
44.585819244384766,8.820043563842773,-1.7659423351287842,-0.0,-0.0,-1.0,0.020805114577964398,2.0,0
44.74509811401367,9.191676139831543,-1.7914350032806396,0.5179653041362992,-0.32592456227252176,-0.7908761745168814,0.01488688536613884,3.0,0
44.88988494873047,9.404451370239258,-1.8185231685638428,0.9146473457488435,0.40386929154116985,-0.01760193922921661,0.013747406114065332,5.0,0
45.0020866394043,9.609935760498047,-1.8396220207214355,-0.0,-0.0,-1.0,0.013391645900358911,1.0,0
42.74824905395508,10.459524154663086,-1.805973768234253,-0.0,-0.0,-1.0,0.017776791391561655,1.0,0
42.806915283203125,8.511478424072266,-1.4007172584533691,-0.5093651987049113,-0.7536898083930333,-0.41532970887329856,0.11170249553610805,5.0,0
43.133583068847656,8.963960647583008,-1.4522461891174316,-0.0,-0.0,-1.0,0.1343963701786354,2.0,0
43.331138610839844,9.042377471923828,-1.4914155006408691,-0.0,-0.0,-1.0,0.05927805142812894,2.0,0
43.467166900634766,9.077834129333496,-1.519230604171753,-0.0,-0.0,-1.0,0.03836945266871528,1.0,0
42.80888366699219,8.38995361328125,-1.6045854091644287,-0.0,-0.0,-1.0,0.18720318977620268,2.0,0
43.05712890625,8.987667083740234,-1.621255874633789,-0.0,-0.0,-1.0,0.15019317613984903,1.0,0
43.364097595214844,9.28182601928711,-1.6752045154571533,-0.0,-0.0,-1.0,0.03432157551626009,1.0,0
43.5733528137207,9.471834182739258,-1.714017629623413,-0.0,-0.0,-1.0,0.02665990399796792,1.0,0
43.77260208129883,9.56972599029541,-1.756420373916626,-0.0,-0.0,-1.0,0.01760652411237234,1.0,0
44.066162109375,9.708805084228516,-1.8200743198394775,-0.0,-0.0,-1.0,0.008576794220197439,1.0,0
44.011566162109375,10.042837142944336,-1.7926273345947266,-0.8294814461597977,-0.01988127696127554,-0.5581803161192983,0.03659160215419863,3.0,0
44.22257614135742,10.069558143615723,-1.8430111408233643,-0.0,-0.0,-1.0,0.01131194794763421,1.0,0
44.398094177246094,10.389612197875977,-1.8743901252746582,-0.0,-0.0,-1.0,0.007129422868622357,1.0,0
44.46723937988281,10.591350555419922,-1.8850581645965576,-0.0,-0.0,-1.0,0.0071999027027689014,1.0,0
42.7943229675293,8.230081558227539,-1.5045416355133057,-0.0,-0.0,-1.0,0.1268137725944085,1.0,0
42.82925796508789,8.369977951049805,-1.5005195140838623,-0.7419466966799406,-0.16206298773423197,-0.6505771954905726,0.1161141353926592,3.0,0
42.90896987915039,8.913286209106445,-1.474703311920166,-0.0,-0.0,-1.0,0.2537349352806868,1.0,0
43.083980560302734,8.963984489440918,-1.5118024349212646,-0.0,-0.0,-1.0,0.11265944822700634,1.0,0
43.27654266357422,9.084537506103516,-1.5483026504516602,0.18623219847408878,-0.19402910406037985,-0.9631564125462871,0.11396568228130731,4.0,0
43.472373962402344,9.227436065673828,-1.5849738121032715,0.1104633869490805,0.8604587739172334,-0.4974017878260884,0.03951210008002623,5.0,0
44.10189437866211,9.013948440551758,-1.750756025314331,-0.0,-0.0,-1.0,0.013365493543878715,1.0,0
44.26866912841797,9.182536125183105,-1.7805461883544922,-0.0,-0.0,-1.0,0.008249517216187155,1.0,0
43.804744720458984,9.428781509399414,-1.6518943309783936,-0.0,-0.0,-1.0,0.025317895027768274,2.0,0
44.47150802612305,9.582097053527832,-1.8068032264709473,-0.0,-0.0,-1.0,0.008943284858590845,2.0,0
44.614253997802734,9.763973236083984,-1.832425594329834,-0.0,-0.0,-1.0,0.009253995045135821,1.0,0
44.6723518371582,9.96027660369873,-1.8371667861938477,-0.0,-0.0,-1.0,0.003977280315983952,1.0,0
42.82577133178711,10.415409088134766,-1.770740032196045,-0.0,-0.0,-1.0,0.017776791391561655,2.0,0
43.0135383605957,10.599692344665527,-1.8095591068267822,-0.3583215186514708,0.8038947127391041,-0.47471989646676616,0.0221344550113532,4.0,0
44.833621978759766,10.362443923950195,-1.8596992492675781,-0.0,-0.0,-1.0,0.0057571191416540025,2.0,0
44.94547653198242,10.584592819213867,-1.8793213367462158,-0.0,-0.0,-1.0,0.007199985338647118,1.0,0
44.0378532409668,9.139303207397461,-1.7867610454559326,-0.0,-0.0,-1.0,0.009251531284291422,1.0,0
44.221031188964844,9.29075813293457,-1.8197121620178223,-0.0,-0.0,-1.0,0.008850888637559985,1.0,0
44.37533187866211,9.565960884094238,-1.8359880447387695,-0.0,-0.0,-1.0,0.007815044319154073,1.0,0
44.49760818481445,9.759283065795898,-1.852158546447754,-0.0,-0.0,-1.0,0.009976782102364225,1.0,0
44.612083435058594,9.984222412109375,-1.8654184341430664,-0.0,-0.0,-1.0,0.004736431008417298,1.0,0
44.819313049316406,10.371461868286133,-1.8939692974090576,-0.0,-0.0,-1.0,0.004755742723178381,2.0,0
42.81097412109375,8.346725463867188,-1.5715315341949463,0.3166153446000866,-0.7962762681047186,0.5154598223110998,0.12263421637785944,3.0,0
42.8437385559082,8.355493545532227,-1.5781118869781494,0.26909713673292907,-0.9613064041302566,0.058963788720667105,0.12989297911864273,3.0,0
43.04259490966797,8.950788497924805,-1.5586421489715576,-0.0,-0.0,-1.0,0.11855374189824869,1.0,0
43.21220779418945,9.064334869384766,-1.5879669189453125,0.25400347175845644,0.1254632572970185,-0.9590313902073665,0.10882979133914662,4.0,0
43.42074203491211,9.219061851501465,-1.6240637302398682,-0.0,-0.0,-1.0,0.030777809885358887,2.0,0
43.950965881347656,9.126540184020996,-1.76595139503479,-0.0,-0.0,-1.0,0.010871485596472743,1.0,0
43.74922561645508,9.456167221069336,-1.6840224266052246,-0.0,-0.0,-1.0,0.029754795686594917,1.0,0
42.86459732055664,8.582441329956055,-1.381646990776062,0.3828375688669421,-0.5405445163238112,-0.7491642154670141,0.17195328373216515,3.0,0
44.25792694091797,8.393677711486816,-1.7397760152816772,-0.0,-0.0,-1.0,0.010877226095094412,1.0,0
44.4359130859375,8.568193435668945,-1.7648779153823853,-0.0,-0.0,-1.0,0.016948649815667235,1.0,0
42.98811340332031,8.849201202392578,-1.3778377771377563,-0.0,-0.0,-1.0,0.1818680398009136,2.0,0
43.256988525390625,8.960644721984863,-1.4290212392807007,-0.0,-0.0,-1.0,0.06621741327564877,1.0,0
44.58099365234375,8.819511413574219,-1.7753535509109497,-0.0,-0.0,-1.0,0.020805114577964388,2.0,0
44.743221282958984,9.108270645141602,-1.7882004976272583,-0.0,-0.0,-1.0,0.014125455011868553,2.0,0
44.90118408203125,9.292330741882324,-1.8122018575668335,-0.0,-0.0,-1.0,0.013100812257817696,1.0,0
45.10731506347656,9.54519271850586,-1.8444699048995972,-0.0,-0.0,-1.0,0.015036815738406074,2.0,0
42.959373474121094,8.919679641723633,-1.3621770143508911,-0.0,-0.0,-1.0,0.14883398235595308,2.0,0
42.803104400634766,8.44343376159668,-1.5787959098815918,-0.9033366656531442,-0.414380763868498,0.11077658156135614,0.13858000345787866,6.0,0
42.71945571899414,8.245356559753418,-1.5619137287139893,-0.0,-0.0,-1.0,0.11054987681610542,1.0,0
42.782203674316406,8.847352981567383,-1.5890467166900635,-0.0,-0.0,-1.0,0.1734280949313386,1.0,0
42.84803009033203,8.638519287109375,-1.5907349586486816,-0.0,-0.0,-1.0,0.21536103512547014,1.0,0
43.49805450439453,9.790432929992676,-1.7139742374420166,-0.0,-0.0,-1.0,0.049664558913011796,1.0,0
43.64653015136719,9.976827621459961,-1.739976406097412,-0.036914629060998475,-0.35101663033320096,-0.935641296326115,0.10732461648995194,4.0,0
42.71979904174805,10.301996231079102,-1.7603038549423218,-0.8956202796589395,-0.4442781836143128,-0.021936504461964112,0.016784646536519666,4.0,0
43.091102600097656,8.82358455657959,-1.3440991640090942,-0.0,-0.0,-1.0,0.13804032783077444,2.0,0
43.05586242675781,8.939892768859863,-1.3609275817871094,-0.0,-0.0,-1.0,0.14655869435456348,2.0,0
42.95759963989258,10.212976455688477,-1.8131024837493896,-0.0,-0.0,-1.0,0.019709363550113296,1.0,0
43.87733459472656,8.156377792358398,-1.6339062452316284,-0.0,-0.0,-1.0,0.03233620714933566,1.0,0
43.29545593261719,9.145755767822266,-1.5967568159103394,-0.0,-0.0,-1.0,0.13924691364739222,2.0,0
44.9100341796875,9.414759635925293,-1.8442577123641968,0.9219497560492207,0.38720072722156895,0.0091784617377068,0.013764068450775501,4.0,0
45.04856872558594,9.744126319885254,-1.8817766904830933,-0.0,-0.0,-1.0,0.010446647481141946,1.0,0
45.05679702758789,10.163641929626465,-1.9060941934585571,-0.0,-0.0,-1.0,0.007903637172462369,1.0,0
45.19694137573242,10.162610054016113,-1.9263845682144165,-0.0,-0.0,-1.0,0.005935451118684414,1.0,0
45.1224250793457,10.578093528747559,-1.9394558668136597,-0.0,-0.0,-1.0,0.007157734810619448,2.0,0
42.76030349731445,8.462668418884277,-1.4865163564682007,-0.10623885465896088,-0.8458667274934528,0.5227071695321093,0.0760854341647322,3.0,0
42.78427505493164,8.482912063598633,-1.4488850831985474,0.6807731212107536,-0.725721051375787,0.09938265958903847,0.1095154257875503,4.0,0
43.623722076416016,8.1997652053833,-1.5644501447677612,-0.0,-0.0,-1.0,0.06109255070259553,2.0,0
43.34413146972656,9.150140762329102,-1.5712257623672485,0.019580346669874803,-0.6820790650033627,-0.7310162509195169,0.05992522594725715,3.0,0
44.71697235107422,9.455581665039062,-1.8016787767410278,-0.0,-0.0,-1.0,0.011216293183073931,2.0,0
44.802093505859375,9.350231170654297,-1.8086296319961548,-0.0,-0.0,-1.0,0.012692934782385173,1.0,0
43.740997314453125,10.043277740478516,-1.6866172552108765,-0.0,-0.0,-1.0,0.03681765769071978,2.0,0
44.81669616699219,9.766743659973145,-1.8359993696212769,-0.0,-0.0,-1.0,0.008314506409644144,2.0,0
44.840538024902344,9.76653003692627,-1.8397151231765747,-0.0,-0.0,-1.0,0.009352807375908722,2.0,0
44.869483947753906,10.26140022277832,-1.8757647275924683,-0.0,-0.0,-1.0,0.007866133691770109,2.0,0
44.88219451904297,10.047150611877441,-1.8638304471969604,-0.0,-0.0,-1.0,0.005218422907304377,1.0,0
44.71906280517578,10.569318771362305,-1.873156189918518,-0.0,-0.0,-1.0,0.006037122638452139,1.0,0
43.63651657104492,8.185636520385742,-1.5201294422149658,-0.6882944084972012,-0.723128254181629,-0.057761018305749506,0.06109255070259551,4.0,0
44.784297943115234,8.138654708862305,-1.705427646636963,-0.0,-0.0,-1.0,0.017619532584443758,1.0,0
44.783363342285156,9.19685173034668,-1.7685070037841797,-0.0,-0.0,-1.0,0.011098263965090048,2.0,0
44.91395568847656,9.417911529541016,-1.8044250011444092,0.9146473457488435,0.40386929154116985,-0.01760193922921661,0.013764068450775501,5.0,0
44.973445892333984,9.783217430114746,-1.8388993740081787,-0.0,-0.0,-1.0,0.009005780325727459,2.0,0
44.98902893066406,10.11571979522705,-1.8649260997772217,-0.0,-0.0,-1.0,0.00858571413523614,2.0,0
44.8770751953125,10.573856353759766,-1.880382776260376,-0.0,-0.0,-1.0,0.005184352505563696,1.0,0
42.82701110839844,8.499348640441895,-1.405120611190796,-0.517526215512782,-0.6594828793394368,-0.5452054182738679,0.10378096643595817,3.0,0
43.34931182861328,9.09729290008545,-1.5266406536102295,-0.16153922069180665,-0.5394371024673711,-0.8263853173065766,0.059547654217273996,5.0,0
43.7669792175293,8.170517921447754,-1.5598180294036865,-0.0,-0.0,-1.0,0.040168155999459595,1.0,0
43.334625244140625,9.078736305236816,-1.5170388221740723,0.07757593533145599,-0.5570832199349842,-0.8268254110296317,0.061732231042835685,4.0,0
44.74018096923828,9.15267276763916,-1.7785818576812744,0.9419924376522296,-0.008184989888146213,0.335534280434267,0.014400275340770973,3.0,0
44.81102752685547,9.300827980041504,-1.7985332012176514,-0.0,-0.0,-1.0,0.014662636877407023,1.0,0
44.88835906982422,9.4471435546875,-1.819803237915039,0.9219497560492207,0.38720072722156895,0.0091784617377068,0.014024451645099856,4.0,0
44.900665283203125,9.86214828491211,-1.8431556224822998,-0.0,-0.0,-1.0,0.0071329685676353675,1.0,0
44.951080322265625,9.722553253173828,-1.845210313796997,-0.0,-0.0,-1.0,0.010306042494045344,1.0,0
45.02373123168945,10.130446434020996,-1.8803362846374512,-0.0,-0.0,-1.0,0.00858571413523609,2.0,0
45.07994079589844,10.519974708557129,-1.912942886352539,-0.0,-0.0,-1.0,0.0071577348106194386,1.0,0
42.836517333984375,8.488670349121094,-1.4012277126312256,-0.8856571642703135,-0.3408467792567382,0.31533293587409367,0.10233442247322189,6.0,0
43.003578186035156,8.96396255493164,-1.4511964321136475,-0.0,-0.0,-1.0,0.15551231669119986,2.0,0
43.143924713134766,8.593587875366211,-1.377320408821106,-0.0,-0.0,-1.0,0.06645815011209598,1.0,0
43.00483703613281,8.874208450317383,-1.3586398363113403,-0.0,-0.0,-1.0,0.13641265222464602,2.0,0
43.06442642211914,8.749410629272461,-1.3664084672927856,-0.0,-0.0,-1.0,0.10055331089513407,1.0,0
44.58879089355469,9.335003852844238,-1.7987126111984253,-0.0,-0.0,-1.0,0.01460457218587319,1.0,0
44.60661697387695,9.538479804992676,-1.8118871450424194,-0.0,-0.0,-1.0,0.009841017038766827,2.0,0
44.726768493652344,9.739810943603516,-1.8474382162094116,-0.0,-0.0,-1.0,0.007103909246015501,1.0,0
44.708560943603516,10.094017028808594,-1.862064242362976,-0.0,-0.0,-1.0,0.0042121901334771705,1.0,0
44.74671173095703,9.971701622009277,-1.8637510538101196,-0.0,-0.0,-1.0,0.003029471131329878,2.0,0
44.68110656738281,10.471102714538574,-1.8778020143508911,0.36348275481219444,0.4079333059824532,-0.8375384796081696,0.006383384431875657,3.0,0
44.78298568725586,10.271454811096191,-1.8879436254501343,-0.0,-0.0,-1.0,0.0054600700178796535,1.0,0
42.891456604003906,8.410585403442383,-1.4006108045578003,-0.8245345839333524,-0.31643003010300536,-0.46905730561080067,0.1206468738340875,6.0,0
42.71330261230469,8.6683988571167,-1.3707376718521118,-0.0,-0.0,-1.0,0.22218446496976754,1.0,0
42.87800979614258,8.94476318359375,-1.4156941175460815,-0.0,-0.0,-1.0,0.1997779334260426,2.0,0
43.2724723815918,9.032258987426758,-1.503637671470642,-0.0,-0.0,-1.0,0.08634621392705406,1.0,0
43.44471740722656,9.138477325439453,-1.5448263883590698,-0.0,-0.0,-1.0,0.03508804639281078,1.0,0
44.53520965576172,9.213702201843262,-1.781917691230774,-0.0,-0.0,-1.0,0.011129568680758803,1.0,0
42.720767974853516,8.441230773925781,-1.6163127422332764,-0.0,-0.0,-1.0,0.12229422307271229,2.0,0
42.7344856262207,8.680121421813965,-1.6258635520935059,-0.0,-0.0,-1.0,0.13208111107559428,2.0,0
45.203857421875,8.50422477722168,-1.7449743747711182,-0.0,-0.0,-1.0,0.018186685251928045,1.0,0
42.721435546875,9.374865531921387,-1.6469542980194092,-0.0,-0.0,-1.0,0.03716596932231779,1.0,0
42.994834899902344,9.612205505371094,-1.7281713485717773,-0.0,-0.0,-1.0,0.02062839784683286,1.0,0
43.02125549316406,10.039515495300293,-1.7570104598999023,-0.0,-0.0,-1.0,0.015348630760401721,1.0,0
43.083595275878906,9.93907642364502,-1.7674741744995117,-0.0,-0.0,-1.0,0.009372320767057787,2.0,0
43.02302169799805,10.407258987426758,-1.779268741607666,-0.0,-0.0,-1.0,0.023438552500828626,1.0,0
43.306602478027344,8.834527015686035,-1.337639331817627,-0.0,-0.0,-1.0,0.10619334280841947,2.0,0
44.990814208984375,8.291044235229492,-1.7594363689422607,-0.0,-0.0,-1.0,0.01918741019442541,1.0,0
44.99444580078125,8.641026496887207,-1.7677929401397705,-0.0,-0.0,-1.0,0.01818668525192805,1.0,0
43.115318298339844,9.338897705078125,-1.7185187339782715,-0.0,-0.0,-1.0,0.06687727212225153,1.0,0
44.92612838745117,9.081300735473633,-1.763535976409912,-0.0,-0.0,-1.0,0.015111594399896448,1.0,0
44.988243103027344,9.206063270568848,-1.783043384552002,-0.0,-0.0,-1.0,0.01518028224195779,1.0,0
43.17870330810547,9.707566261291504,-1.751650333404541,-0.0,-0.0,-1.0,0.024194069706869534,1.0,0
45.11477279663086,9.501309394836426,-1.8255188465118408,0.9847757955622597,0.17328629657020345,0.013729235073447347,0.014345082299775422,3.0,0
43.20145034790039,10.11658000946045,-1.7788176536560059,-0.0,-0.0,-1.0,0.01799861210580221,2.0,0
43.19055938720703,10.523454666137695,-1.8002190589904785,-0.0,-0.0,-1.0,0.021175052669173158,1.0,0
42.80055618286133,8.159797668457031,-1.6049177646636963,-0.0,-0.0,-1.0,0.23195789333870523,2.0,0
44.370975494384766,8.153465270996094,-1.6047179698944092,-0.0,-0.0,-1.0,0.010323387110398458,2.0,0
42.7901611328125,8.543838500976562,-1.6058266162872314,-0.0,-0.0,-1.0,0.18594765655908865,2.0,0
43.32574462890625,8.874641418457031,-1.361863136291504,-0.0,-0.0,-1.0,0.07436493001836024,2.0,0
42.89192199707031,9.163986206054688,-1.6489191055297852,-0.0,-0.0,-1.0,0.0768884635742293,1.0,0
44.27588653564453,9.350723266601562,-1.8311522006988525,-0.0,-0.0,-1.0,0.009967267844993405,1.0,0
44.272132873535156,9.719718933105469,-1.846142292022705,-0.0,-0.0,-1.0,0.008206080686326077,1.0,0
44.03367614746094,10.139403343200684,-1.799335241317749,0.6138197181609835,-0.7877096833176734,-0.05233362594299474,0.03509553827430707,3.0,0
44.18675994873047,10.105228424072266,-1.8419082164764404,-0.0,-0.0,-1.0,0.021388063347054138,1.0,0
44.28508758544922,10.529341697692871,-1.8970427513122559,-0.0,-0.0,-1.0,0.0074620170218502,1.0,0
42.89405822753906,8.42703628540039,-1.4078526496887207,-0.7944642692983764,0.13259638509615074,-0.5926590279980812,0.12064687383408759,5.0,0
42.71139907836914,8.888947486877441,-1.3632662296295166,-0.0,-0.0,-1.0,0.12657096328214,2.0,0
42.8045654296875,8.668932914733887,-1.3857600688934326,-0.0,-0.0,-1.0,0.16258544089877516,1.0,0
42.888240814208984,8.956497192382812,-1.4161183834075928,-0.0,-0.0,-1.0,0.15616415944114703,2.0,0
43.28020095825195,9.072446823120117,-1.5329179763793945,0.5663310442927805,-0.5772153781671768,-0.5882954661371885,0.10985210223868565,3.0,0
43.48571014404297,9.208222389221191,-1.5967857837677002,0.798883118244704,0.012335934902938907,-0.601359782570874,0.0401118755711917,6.0,0
43.9016227722168,9.4832124710083,-1.7278780937194824,-0.0,-0.0,-1.0,0.01889800284134056,1.0,0
44.244537353515625,10.197776794433594,-1.8092727661132812,-0.0,-0.0,-1.0,0.01011136840928672,1.0,0
43.988277435302734,10.049349784851074,-1.7582511901855469,-0.4989098771301755,-0.8483287377292232,-0.1772774301615856,0.037648233122066437,3.0,0
42.97642517089844,8.439070701599121,-1.3792541027069092,-0.0,-0.0,-1.0,0.03269776172551923,1.0,0
42.75357437133789,8.556976318359375,-1.3792126178741455,-0.055519167434873375,-0.4971358662666396,-0.8658946544000927,0.23284122484661118,5.0,0
43.02579879760742,8.148741722106934,-1.6081327199935913,-0.0,-0.0,-1.0,0.10427874666589095,1.0,0
45.112098693847656,10.13471794128418,-1.8739707469940186,-0.0,-0.0,-1.0,0.006574884496900033,1.0,0
44.70212936401367,10.28140640258789,-1.8579432964324951,-0.0,-0.0,-1.0,0.0058466409636739715,1.0,0
44.33913040161133,10.334014892578125,-1.832801342010498,-0.0,-0.0,-1.0,0.008694463855032945,1.0,0
43.02643585205078,10.627534866333008,-1.7742490768432617,-0.13014770235655665,0.8011311866598345,-0.5841664123623637,0.0221344550113532,3.0,0
45.07975769042969,9.984951972961426,-1.8462960720062256,-0.0,-0.0,-1.0,0.007722917470818257,1.0,0
45.185035705566406,9.648448944091797,-1.8024578094482422,-0.0,-0.0,-1.0,0.014062989013780738,1.0,0
42.75922393798828,8.52447509765625,-1.3832929134368896,-0.8001110266880114,-0.5822081308662601,-0.14441619481717474,0.17732881974604994,4.0,0
43.10877227783203,10.528318405151367,-1.7267104387283325,-0.0,-0.0,-1.0,0.022983292236584872,1.0,0
43.24226379394531,10.296951293945312,-1.711107850074768,-0.0,-0.0,-1.0,0.015177857805018173,1.0,0
43.05209732055664,10.368249893188477,-1.703945279121399,-0.0,-0.0,-1.0,0.02268917501937519,1.0,0
44.84239196777344,9.601324081420898,-1.7646843194961548,-0.0,-0.0,-1.0,0.011409831194892951,1.0,0
44.673072814941406,9.566829681396484,-1.7466398477554321,-0.0,-0.0,-1.0,0.009098449167983165,1.0,0
44.86223602294922,9.239166259765625,-1.726239800453186,-0.0,-0.0,-1.0,0.011323234618920139,1.0,0
44.87482452392578,8.939321517944336,-1.694234013557434,-0.0,-0.0,-1.0,0.01950789573700489,1.0,0
42.779052734375,8.656217575073242,-1.4879199266433716,-0.0,-0.0,-1.0,0.2011048630954821,2.0,0
43.42876052856445,8.364416122436523,-1.5089110136032104,-0.0,-0.0,-1.0,0.08218537237290628,1.0,0
43.1383171081543,8.284154891967773,-1.4758044481277466,-0.0,-0.0,-1.0,0.1301949132332216,1.0,0
42.92047882080078,8.25909423828125,-1.4549468755722046,-0.0,-0.0,-1.0,0.0986230300345225,1.0,0
42.71940994262695,8.757431030273438,-1.4551701545715332,-0.0,-0.0,-1.0,0.08529694259300981,1.0,0
45.09135818481445,8.179939270019531,-1.6274946928024292,-0.0,-0.0,-1.0,0.01849252966038193,1.0,0
43.90860366821289,8.197601318359375,-1.575196623802185,-0.0,-0.0,-1.0,0.022455150346117878,1.0,0
45.19615173339844,8.311352729797363,-1.617516279220581,-0.0,-0.0,-1.0,0.01834333185687532,1.0,0
44.87409591674805,8.557220458984375,-1.623164176940918,-0.0,-0.0,-1.0,0.01925775880835722,1.0,0
44.519187927246094,8.771749496459961,-1.6229279041290283,-0.0,-0.0,-1.0,0.018499884889353068,1.0,0
44.43617248535156,9.111114501953125,-1.6596765518188477,-0.0,-0.0,-1.0,0.015128445650599093,1.0,0
43.49595642089844,8.32984447479248,-1.4896283149719238,-0.0,-0.0,-1.0,0.060810847951324916,1.0,0
43.25123596191406,8.383471488952637,-1.4781572818756104,-0.0,-0.0,-1.0,0.12640844657156744,2.0,0
42.76835632324219,8.659743309020996,-1.4782192707061768,-0.0,-0.0,-1.0,0.20407031708602483,2.0,0
42.855106353759766,8.313606262207031,-1.4398200511932373,0.08058952573465443,0.32641055050170725,-0.9417863244192047,0.12668097698472144,4.0,0
42.71599197387695,8.612711906433105,-1.4683458805084229,-0.7447389423360004,-0.6089263774433763,0.2730797953381801,0.1651189840777044,3.0,0
43.90507507324219,8.258430480957031,-1.6881694793701172,-0.0,-0.0,-1.0,0.017917604081924002,1.0,0
43.82982635498047,8.37767219543457,-1.6948134899139404,-0.0,-0.0,-1.0,0.022826766262396513,1.0,0
43.63390350341797,8.40473747253418,-1.6787388324737549,-0.0,-0.0,-1.0,0.071154849534933,1.0,0
43.234291076660156,8.235729217529297,-1.6194963455200195,-0.0,-0.0,-1.0,0.10042755142088174,1.0,0
42.92687225341797,8.369636535644531,-1.6053657531738281,-0.0,-0.0,-1.0,0.1655699917168565,1.0,0
42.736934661865234,8.183847427368164,-1.5646588802337646,-0.0,-0.0,-1.0,0.12745927940283236,2.0,0
45.20768737792969,9.071779251098633,-1.7807589769363403,-0.0,-0.0,-1.0,0.012231069422376825,1.0,0
44.91998291015625,8.89242935180664,-1.729542851448059,-0.0,-0.0,-1.0,0.018086847403694633,1.0,0
44.790443420410156,9.138374328613281,-1.7469497919082642,-0.0,-0.0,-1.0,0.00835975695312851,1.0,0
44.91537857055664,9.389728546142578,-1.7908786535263062,0.6055899929448184,-0.3196969475086073,-0.7287349464646069,0.013201570479581932,3.0,0
43.583194732666016,10.13840103149414,-1.7595902681350708,-0.0,-0.0,-1.0,0.07496802999391078,1.0,0
43.60279083251953,8.217721939086914,-1.5132101774215698,-0.6723701294582025,-0.6193137454940874,-0.4054243377677821,0.06109255070259554,3.0,0
43.54188537597656,10.10542106628418,-1.75137460231781,-0.0,-0.0,-1.0,0.08216316146073754,2.0,0
43.238739013671875,8.37237548828125,-1.4961119890213013,-0.0,-0.0,-1.0,0.10292811238723733,2.0,0
43.03358459472656,10.627355575561523,-1.7760876417160034,-0.3583215186514708,0.8038947127391041,-0.47471989646676616,0.0221344550113532,4.0,0
42.873138427734375,8.385490417480469,-1.4617034196853638,-0.0,-0.0,-1.0,0.1397180560308271,1.0,0
42.73788070678711,8.583452224731445,-1.4738959074020386,-0.7641669978414696,-0.6175322914215573,-0.1862865224904805,0.17802657451573045,5.0,0
42.826271057128906,8.145256042480469,-1.595749020576477,-0.0,-0.0,-1.0,0.23195789333870528,2.0,0
42.722511291503906,8.658051490783691,-1.6318975687026978,-0.0,-0.0,-1.0,0.124734542842853,2.0,0
42.71893310546875,8.490835189819336,-1.614723801612854,-0.0,-0.0,-1.0,0.10459524664135407,2.0,0
45.055267333984375,10.348340034484863,-1.880277156829834,-0.0,-0.0,-1.0,0.008294574973741257,1.0,0
42.82203674316406,8.449836730957031,-1.4145309925079346,-0.03954521321685186,0.3369943900635212,-0.9406757981245979,0.08569592338754171,3.0,0
42.74147033691406,8.578666687011719,-1.4153873920440674,-0.4690666568284987,-0.8092726706643419,0.3536300552378697,0.15919383945893664,7.0,0
42.736846923828125,10.26576042175293,-1.738619327545166,-0.23035931202741056,-0.5772058825572776,-0.7834334410168696,0.016784646536519735,3.0,0
42.91175079345703,10.520726203918457,-1.77109694480896,-0.0,-0.0,-1.0,0.019597994716336015,1.0,0
43.582542419433594,8.159173011779785,-1.7021807432174683,-0.0,-0.0,-1.0,0.06953112698975687,1.0,0
43.31434631347656,9.599724769592285,-1.7688790559768677,-0.0,-0.0,-1.0,0.03653699736898429,1.0,0
43.339332580566406,9.740140914916992,-1.7844165563583374,-0.0,-0.0,-1.0,0.03588972118030856,1.0,0
42.95335388183594,9.410982131958008,-1.6966902017593384,-0.0,-0.0,-1.0,0.03819592525272681,1.0,0
43.13066864013672,9.888731002807617,-1.7641328573226929,-0.0,-0.0,-1.0,0.010908853259928622,2.0,0
43.10369873046875,10.207372665405273,-1.7874010801315308,-0.0,-0.0,-1.0,0.01919915138573815,2.0,0
43.059326171875,10.616060256958008,-1.8169242143630981,-0.36377209180817427,0.8132243635814066,-0.45424222579932094,0.024289189036576675,3.0,0
42.868919372558594,8.406132698059082,-1.6064223051071167,-0.0,-0.0,-1.0,0.18554152543045324,2.0,0
42.82270431518555,8.279468536376953,-1.5900343656539917,-0.0,-0.0,-1.0,0.11889189525137946,2.0,0
45.154762268066406,8.390756607055664,-1.7489293813705444,-0.0,-0.0,-1.0,0.01873896613093178,1.0,0
44.95501708984375,9.452249526977539,-1.8062883615493774,-0.0,-0.0,-1.0,0.013569999057045146,1.0,0
44.99199676513672,9.799941062927246,-1.8420718908309937,-0.0,-0.0,-1.0,0.008783220605587696,2.0,0
44.89405059814453,10.207976341247559,-1.864632487297058,-0.0,-0.0,-1.0,0.007663977236741079,2.0,0
44.69252014160156,10.633426666259766,-1.8751779794692993,-0.0,-0.0,-1.0,0.005304564914423699,2.0,0
44.66197967529297,10.628618240356445,-1.870339035987854,-0.19098124708269,0.26064479072230007,-0.9463564108368836,0.006236127095881601,3.0,0
44.32774353027344,8.160407066345215,-1.60993230342865,-0.0,-0.0,-1.0,0.012571471018840106,2.0,0
43.613216400146484,8.203192710876465,-1.5083059072494507,-0.6723701294582025,-0.6193137454940874,-0.4054243377677821,0.06109255070259553,3.0,0
43.310890197753906,9.106136322021484,-1.536429524421692,0.3057802378088861,-0.5161796902750733,-0.8000356076532286,0.11356224897435434,6.0,0
43.50060272216797,9.218433380126953,-1.573677897453308,0.30997740663713713,-0.40370745685734255,-0.8607754043025927,0.0373355912241068,6.0,0
42.85698699951172,8.359759330749512,-1.4094024896621704,0.3421233318050305,0.8790890182147566,-0.33189474820918846,0.11766579135270706,3.0,0
42.84479522705078,8.451709747314453,-1.4148167371749878,-0.3692038299642178,-0.9018700158147268,0.2243189838468807,0.08373507702399828,5.0,0
42.76897430419922,8.540190696716309,-1.41069495677948,0.1274358326297413,-0.43734816842375357,-0.8902172140204616,0.14143219015070738,9.0,0
44.218685150146484,10.528072357177734,-1.8456876277923584,-0.0,-0.0,-1.0,0.01520165065893328,1.0,0
44.10882568359375,9.721309661865234,-1.7778491973876953,-0.0,-0.0,-1.0,0.006973023046308829,1.0,0
44.004791259765625,10.091196060180664,-1.7842819690704346,-0.3300196572866816,0.04670153099389431,-0.9428181122608997,0.03606647387160463,4.0,0
44.09397888183594,10.386528968811035,-1.8169538974761963,-0.0,-0.0,-1.0,0.021511710893962647,2.0,0
43.504493713378906,9.431894302368164,-1.666292667388916,-0.0,-0.0,-1.0,0.03753747410674868,1.0,0
43.65629196166992,9.53746509552002,-1.6961688995361328,-0.0,-0.0,-1.0,0.03002472664809324,2.0,0
43.71561813354492,9.982743263244629,-1.732212781906128,0.43113169297475096,0.22879111770849633,-0.8728001419399642,0.07631189246449466,3.0,0
43.32109832763672,9.236956596374512,-1.6265544891357422,-0.0,-0.0,-1.0,0.0695603206451837,2.0,0
42.848426818847656,8.167119026184082,-1.497847557067871,-0.0,-0.0,-1.0,0.12313713832369648,2.0,0
42.80371856689453,8.443395614624023,-1.504018783569336,-0.6688272391745854,-0.17678586202010246,-0.7220920184629597,0.08831271802182547,3.0,0
43.193359375,8.861754417419434,-1.3437340259552002,-0.0,-0.0,-1.0,0.11802637745242522,2.0,0
44.677154541015625,9.80947208404541,-1.8393404483795166,-0.0,-0.0,-1.0,0.008488604092748242,1.0,0
44.80426025390625,10.17070198059082,-1.8616573810577393,-0.0,-0.0,-1.0,0.006372820801225403,1.0,0
44.87737274169922,10.485051155090332,-1.8763163089752197,-0.0,-0.0,-1.0,0.005682643983369264,2.0,0
44.487396240234375,9.51143741607666,-1.8087265491485596,-0.0,-0.0,-1.0,0.00823102796900702,1.0,0
44.48584747314453,9.610118865966797,-1.808546543121338,-0.0,-0.0,-1.0,0.009624144116943458,2.0,0
43.81791687011719,9.992301940917969,-1.7040133476257324,-0.0,-0.0,-1.0,0.024771735882810904,1.0,0
43.57172775268555,9.4085111618042,-1.6645557880401611,-0.0,-0.0,-1.0,0.022232522275092276,1.0,0
43.17650604248047,9.053760528564453,-1.6043260097503662,0.4364150821320578,-0.08819999528364483,-0.895411992838847,0.09922453575757356,3.0,0
43.310340881347656,9.22294807434082,-1.6242008209228516,0.4989832727083742,-0.5018824544807151,-0.7064911149063755,0.08212255160644863,3.0,0
42.78630065917969,8.239158630371094,-1.5543134212493896,-0.0,-0.0,-1.0,0.12745927940283236,2.0,0
42.784454345703125,8.478008270263672,-1.5499646663665771,-0.32317382044497517,-0.7027978720367981,0.6337458740217147,0.11813301906410512,3.0,0
45.073692321777344,9.719452857971191,-1.8306488990783691,-0.0,-0.0,-1.0,0.010302848095606418,2.0,0
44.76027297973633,9.455961227416992,-1.7930917739868164,-0.0,-0.0,-1.0,0.0118257961351398,2.0,0
43.780181884765625,9.406414031982422,-1.6507391929626465,-0.0,-0.0,-1.0,0.02569599015261843,2.0,0
43.45972442626953,9.20167064666748,-1.611778736114502,0.36893658423557624,0.7929340493771365,-0.4849137966184946,0.029520971597675773,5.0,0
43.550621032714844,9.318050384521484,-1.6204562187194824,-0.0,-0.0,-1.0,0.0341917322192219,1.0,0
43.246299743652344,9.048469543457031,-1.587028980255127,-0.0,-0.0,-1.0,0.06900524827611468,2.0,0
42.82741928100586,8.231569290161133,-1.565915822982788,-0.19019330221972797,-0.9812182052030225,-0.03220778739551402,0.14534322957221232,3.0,0
42.80817413330078,8.466209411621094,-1.5509533882141113,-0.32317382044497517,-0.7027978720367981,0.6337458740217147,0.12034730181387235,3.0,0
42.818443298339844,8.986011505126953,-1.527541160583496,-0.0,-0.0,-1.0,0.2731170988094577,1.0,0
42.76560974121094,9.256216049194336,-1.5081918239593506,-0.0,-0.0,-1.0,0.0723831378254766,1.0,0
42.831119537353516,10.432991027832031,-1.7400115728378296,-0.0,-0.0,-1.0,0.017776791391561655,2.0,0
42.72626495361328,10.32093620300293,-1.7279688119888306,-0.0,-0.0,-1.0,0.0172716063357971,2.0,0
43.16035461425781,10.568872451782227,-1.789082407951355,-0.0,-0.0,-1.0,0.021360287762863504,1.0,0
42.842529296875,10.155920028686523,-1.7558478116989136,-0.0,-0.0,-1.0,0.015152942210863425,2.0,0
42.92171859741211,8.564287185668945,-1.6081793308258057,-0.0,-0.0,-1.0,0.07425487191934876,1.0,0
43.03752136230469,8.435317039489746,-1.4333088397979736,-0.0,-0.0,-1.0,0.09827301169537503,1.0,0
43.22114944458008,8.936695098876953,-1.3641343116760254,-0.0,-0.0,-1.0,0.11710660588635381,1.0,0
42.91741943359375,8.464755058288574,-1.4077610969543457,0.0026547101549210263,0.0007830358891373248,-0.9999961696770591,0.06949147651360382,3.0,0
42.86408996582031,8.6218843460083,-1.4103655815124512,-0.0,-0.0,-1.0,0.20470937922376045,2.0,0
43.254337310791016,9.106033325195312,-1.4759645462036133,-0.0,-0.0,-1.0,0.16286271858255183,1.0,0
43.45173645019531,9.227560997009277,-1.502802848815918,-0.0,-0.0,-1.0,0.03952010988419241,1.0,0
43.073333740234375,9.579192161560059,-1.7219964265823364,-0.0,-0.0,-1.0,0.0264786610793074,1.0,0
43.215579986572266,10.088562965393066,-1.756926417350769,-0.0,-0.0,-1.0,0.017494199149604872,2.0,0
43.226959228515625,9.99211597442627,-1.754639983177185,-0.0,-0.0,-1.0,0.013843079588504368,1.0,0
43.52409362792969,9.574576377868652,-1.7288211584091187,-0.0,-0.0,-1.0,0.031755778857677754,1.0,0
43.63104248046875,10.001636505126953,-1.7466636896133423,-0.7246393088443117,-0.040528674149830836,-0.6879355337888099,0.118903911163736,4.0,0
43.7208251953125,9.817194938659668,-1.7550169229507446,-0.0,-0.0,-1.0,0.05011688352584691,1.0,0
43.772216796875,10.129531860351562,-1.7650195360183716,-0.0,-0.0,-1.0,0.019921101871728197,1.0,0
44.508026123046875,10.466102600097656,-1.8566914796829224,-0.0,-0.0,-1.0,0.008421598233528161,1.0,0
44.626747131347656,10.594831466674805,-1.8725343942642212,-0.0,-0.0,-1.0,0.007514412290631906,2.0,0
42.80797576904297,8.322322845458984,-1.6073867082595825,-0.9445046387267888,-0.229412594255582,0.235118797675775,0.11767339619706137,3.0,0
42.78919219970703,8.643577575683594,-1.613045334815979,-0.0,-0.0,-1.0,0.1703407106959929,1.0,0
43.3641357421875,9.369338989257812,-1.7022885084152222,-0.0,-0.0,-1.0,0.04043983238738467,2.0,0
43.78276062011719,9.698071479797363,-1.7624863386154175,-0.0,-0.0,-1.0,0.02597336668614502,2.0,0
43.72684860229492,10.045533180236816,-1.765353798866272,-0.0,-0.0,-1.0,0.08705440606128036,2.0,0
43.90353012084961,9.863956451416016,-1.7818814516067505,-0.0,-0.0,-1.0,0.022182869024733626,2.0,0
43.98426818847656,10.295955657958984,-1.8040374517440796,-0.0,-0.0,-1.0,0.026653928274293047,1.0,0
43.97901916503906,10.208255767822266,-1.8008729219436646,-0.0,-0.0,-1.0,0.033680682498194656,2.0,0
44.523536682128906,10.421554565429688,-1.873740315437317,-0.0,-0.0,-1.0,0.008421598233528204,1.0,0
43.10649108886719,8.787518501281738,-1.3486387729644775,-0.0,-0.0,-1.0,0.09426935543350894,2.0,0
42.786930084228516,8.552312850952148,-1.577670693397522,0.48193264927524443,-0.8222320979834264,0.3027792902566439,0.1891182200077141,3.0,0
42.720191955566406,8.861373901367188,-1.569400429725647,-0.0,-0.0,-1.0,0.12563239233164267,1.0,0
43.303131103515625,9.400971412658691,-1.6548563241958618,-0.0,-0.0,-1.0,0.053204281784030735,1.0,0
43.40320587158203,9.517823219299316,-1.6698848009109497,-0.0,-0.0,-1.0,0.03941470236541242,1.0,0
43.71556854248047,9.72446060180664,-1.7156344652175903,-0.0,-0.0,-1.0,0.04381261996938495,2.0,0
44.87074279785156,9.98479175567627,-1.8804413080215454,-0.0,-0.0,-1.0,0.003962136659097505,1.0,0
45.11354064941406,10.24598503112793,-1.9173961877822876,-0.0,-0.0,-1.0,0.0075225742614249335,1.0,0
42.79132080078125,8.50069808959961,-1.3652094602584839,-0.3776262877940003,-0.826811100049814,-0.4168714329398684,0.1432311073414746,3.0,0
42.87779235839844,8.41809368133545,-1.3716310262680054,-0.7457982367119625,-0.43318331224215195,-0.5060999981349985,0.07204212129442211,5.0,0
43.16925811767578,10.35847282409668,-1.747154951095581,-0.0,-0.0,-1.0,0.021790152290076026,1.0,0
43.266746520996094,10.337068557739258,-1.7577121257781982,-0.0,-0.0,-1.0,0.016897079978287665,1.0,0
42.7651252746582,8.55278205871582,-1.5416898727416992,-0.5398721288807183,-0.7886411872629046,0.2942501694313146,0.1177137456176094,4.0,0
42.74068832397461,8.552616119384766,-1.442378282546997,-0.5616028797583245,-0.7942097508881226,-0.23201956176448515,0.13521579226321234,6.0,0
42.8458366394043,8.454591751098633,-1.3665411472320557,-0.8654428714556712,-0.4956237998591532,0.07325083794562912,0.04188396692389762,4.0,0
42.96603775024414,8.305830001831055,-1.4570977687835693,-0.0,-0.0,-1.0,0.16321870949656375,1.0,0
42.761993408203125,8.564935684204102,-1.479487657546997,-0.6762795458519708,-0.4743778655961386,-0.5635704183992487,0.1740011706328924,5.0,0
45.08428955078125,8.551584243774414,-1.7611393928527832,-0.0,-0.0,-1.0,0.018152285045122927,1.0,0
44.473915100097656,8.91257095336914,-1.7675094604492188,-0.0,-0.0,-1.0,0.017059930507131282,1.0,0
44.2235107421875,9.107738494873047,-1.7765445709228516,-0.0,-0.0,-1.0,0.013078488556391626,1.0,0
43.29914093017578,8.145414352416992,-1.601491928100586,-0.0,-0.0,-1.0,0.08631690030384565,1.0,0
43.05312728881836,8.317546844482422,-1.6086249351501465,-0.0,-0.0,-1.0,0.13623213301052853,1.0,0
42.79285430908203,8.471044540405273,-1.6128473281860352,-0.7244910912381574,-0.625663123751809,-0.2892374704177736,0.11844549801986988,3.0,0
43.63849639892578,9.878194808959961,-1.851905107498169,-0.0,-0.0,-1.0,0.0858228037104515,1.0,0
44.52492904663086,10.365324020385742,-1.8496580123901367,-0.0,-0.0,-1.0,0.008233869963456835,1.0,0
43.93345260620117,10.108335494995117,-1.767991065979004,-0.0,-0.0,-1.0,0.04147810214761876,1.0,0
43.791255950927734,9.84455680847168,-1.739758014678955,-0.0,-0.0,-1.0,0.057268166072323864,1.0,0
43.646087646484375,9.926046371459961,-1.7258777618408203,-0.0,-0.0,-1.0,0.07589172910499321,2.0,0
42.84663391113281,8.409753799438477,-1.56980562210083,-0.0008832014766723664,-0.9994047209829006,0.03448802157622797,0.18051642888726124,4.0,0
44.924686431884766,9.763854026794434,-1.870161771774292,-0.0,-0.0,-1.0,0.008722083302075412,1.0,0
44.928470611572266,10.197002410888672,-1.8894426822662354,-0.0,-0.0,-1.0,0.009254149720316874,2.0,0
43.721588134765625,9.49306869506836,-1.7140448093414307,-0.0,-0.0,-1.0,0.02975479568659493,1.0,0
43.27556610107422,9.223674774169922,-1.649277925491333,0.5639943198516416,-0.23929277166106283,-0.7903476302272631,0.08187540383281464,4.0,0
43.40576934814453,9.351140975952148,-1.670161485671997,-0.4311979819600746,-0.2860174818276005,-0.8557232615995418,0.05387850750029163,3.0,0
42.76176834106445,8.325189590454102,-1.5527050495147705,-0.0,-0.0,-1.0,0.11676322454992262,1.0,0
43.90574645996094,10.255987167358398,-1.9199244976043701,-0.0,-0.0,-1.0,0.02967840132512057,1.0,0
43.52116394042969,9.816683769226074,-1.8776657581329346,-0.0,-0.0,-1.0,0.06336405088733842,1.0,0
43.56404113769531,10.05329704284668,-1.8793342113494873,-0.0,-0.0,-1.0,0.10091733866825943,1.0,0
43.23313903808594,9.563703536987305,-1.8451378345489502,-0.0,-0.0,-1.0,0.032874139518688346,1.0,0
45.11804962158203,9.479583740234375,-1.7863454818725586,-0.0,-0.0,-1.0,0.012266017730607382,2.0,0
43.40581512451172,9.221627235412598,-1.5742487907409668,-0.0,-0.0,-1.0,0.03050546784193561,1.0,0
43.23210906982422,9.101156234741211,-1.5503225326538086,-0.0,-0.0,-1.0,0.16589324107975817,2.0,0
42.85057830810547,8.280533790588379,-1.4852352142333984,0.3068774179419456,-0.9517250536232574,0.006758155302431018,0.11043275119847276,4.0,0
42.739784240722656,8.511760711669922,-1.47711181640625,-0.0,-0.0,-1.0,0.10073490462682694,1.0,0
45.01729202270508,9.537527084350586,-1.8253040313720703,-0.0,-0.0,-1.0,0.01503332838406952,2.0,0
45.08561325073242,9.662931442260742,-1.8376164436340332,-0.0,-0.0,-1.0,0.012322911963877562,2.0,0
43.207305908203125,9.086673736572266,-1.5925564765930176,0.5059869914808667,-0.22088799772512357,-0.8337779422083119,0.1452936921371889,4.0,0
42.8361701965332,8.270151138305664,-1.5249285697937012,-0.939864644724149,-0.1820804506125068,0.2889656711484872,0.11018352999543808,4.0,0
42.71120834350586,8.573877334594727,-1.5179409980773926,-0.0,-0.0,-1.0,0.12173918434697026,2.0,0
44.41635513305664,10.348905563354492,-1.803177833557129,-0.0,-0.0,-1.0,0.009046464482113978,1.0,0
