x,y,z,nx,ny,nz,curvature,density,label
21.199344635009766,-39.08250427246094,2.252629280090332,-0.0,-0.0,-1.0,0.10923876243407743,1.0,3
21.18425941467285,-36.89332580566406,1.9539153575897217,-0.0,-0.0,-1.0,0.0858484810210089,1.0,2
21.8935546875,-38.04414367675781,1.8797229528427124,-0.0,-0.0,-1.0,0.016943709424007705,2.0,2
21.365318298339844,-38.889366149902344,2.317821502685547,-0.9965822293352518,0.060846645160662974,0.05587079689669793,0.13292762102854944,3.0,3
20.717084884643555,-38.78776550292969,2.1370387077331543,-0.0,-0.0,-1.0,0.18292431879011423,1.0,3
21.43680191040039,-37.52764129638672,1.7894845008850098,-0.0,-0.0,-1.0,0.0202798351622986,1.0,2
21.641328811645508,-39.041099548339844,2.211024045944214,-0.0,-0.0,-1.0,0.15906333319382995,1.0,3
21.51352882385254,-38.261322021484375,1.8565608263015747,-0.0,-0.0,-1.0,0.014128585153366773,1.0,2
22.162248611450195,-37.53478240966797,1.8453296422958374,-0.0,-0.0,-1.0,0.05980117220673488,1.0,2
22.38728141784668,-37.63068389892578,2.071967840194702,-0.0,-0.0,-1.0,0.14479699975406982,1.0,3
21.38680076599121,-38.752403259277344,2.0935306549072266,-0.0,-0.0,-1.0,0.12286712725800776,2.0,3
22.074201583862305,-37.80358123779297,2.453076124191284,-0.0,-0.0,-1.0,0.08090240534892447,1.0,3
21.537086486816406,-38.78220748901367,2.236100673675537,-0.0,-0.0,-1.0,0.17488096390654262,1.0,3
21.705049514770508,-38.849143981933594,2.0408453941345215,-0.0,-0.0,-1.0,0.1070554040918265,1.0,3
21.557762145996094,-38.777957916259766,2.3072690963745117,-0.0,-0.0,-1.0,0.1843329611641287,1.0,3
21.369260787963867,-38.949546813964844,2.418328046798706,-0.0,-0.0,-1.0,0.08154171697776758,2.0,3
21.36746597290039,-38.887794494628906,2.474548816680908,-0.140376728792768,0.03931115468993889,-0.9893174450753336,0.11372320571295907,3.0,3
22.531112670898438,-37.842166900634766,2.3512730598449707,-0.0,-0.0,-1.0,0.13447239815731768,2.0,3
21.41384506225586,-38.946571350097656,2.1594161987304688,-0.0,-0.0,-1.0,0.1287277772105146,1.0,3
22.538843154907227,-37.443355560302734,1.814917802810669,-0.0,-0.0,-1.0,0.06538581224542614,1.0,2
21.367460250854492,-38.90622329711914,2.4738173484802246,-0.140376728792768,0.03931115468993889,-0.9893174450753336,0.11372320571295912,3.0,3
22.40544891357422,-37.63559341430664,2.5379457473754883,-0.0,-0.0,-1.0,0.11067326425597893,1.0,3
20.22604751586914,-36.99725341796875,1.952065110206604,-0.0,-0.0,-1.0,0.22464248084100066,1.0,2
22.56388282775879,-37.40111541748047,1.9251575469970703,-0.0,-0.0,-1.0,0.0726840185741464,1.0,2
22.496482849121094,-37.70803451538086,2.3768608570098877,-0.06736159553544951,-0.9967124677595752,0.04501857460578099,0.12207709858300876,3.0,3
21.72113800048828,-38.93353271484375,2.138981819152832,-0.0,-0.0,-1.0,0.11981361158435172,1.0,3
20.37534523010254,-36.91089630126953,2.1256253719329834,-0.0,-0.0,-1.0,0.14892925158951195,2.0,3
20.569061279296875,-36.87687683105469,2.1229026317596436,-0.0,-0.0,-1.0,0.14942826399318704,1.0,3
21.612380981445312,-38.76200866699219,2.0023958683013916,-0.0,-0.0,-1.0,0.10947495742603418,1.0,3
21.762060165405273,-38.869049072265625,2.003661632537842,-0.0,-0.0,-1.0,0.09661267399187397,1.0,3
22.133501052856445,-38.827171325683594,2.0023725032806396,-0.0,-0.0,-1.0,0.11115078394024892,2.0,3
20.34711456298828,-36.877716064453125,1.9781101942062378,-0.0,-0.0,-1.0,0.1376999103195342,1.0,2
22.64291000366211,-37.74156951904297,1.9856747388839722,-0.0,-0.0,-1.0,0.18819443701307445,1.0,2
20.39035415649414,-37.014102935791016,1.9568673372268677,-0.0,-0.0,-1.0,0.2242557337494089,1.0,2
21.57909393310547,-38.78279113769531,1.9613037109375,-0.0,-0.0,-1.0,0.10306116235828144,1.0,2
22.127222061157227,-38.78646469116211,1.9549314975738525,-0.0,-0.0,-1.0,0.11522937565600724,1.0,2
22.19705581665039,-37.47101974487305,1.939967155456543,-0.0,-0.0,-1.0,0.05821583930794053,1.0,2
22.65613555908203,-37.729759216308594,1.9374101161956787,-0.0,-0.0,-1.0,0.17850345516639152,1.0,2
22.38573455810547,-37.44578170776367,1.8636795282363892,-0.0,-0.0,-1.0,0.07368650854372695,1.0,2
22.610689163208008,-37.56596374511719,1.8646880388259888,-0.0,-0.0,-1.0,0.10268251872616187,2.0,2
22.45724868774414,-37.697391510009766,2.414963722229004,-0.0,-0.0,-1.0,0.11576608956073375,1.0,3
21.97582244873047,-37.439945220947266,1.8251004219055176,-0.0,-0.0,-1.0,0.03183454131237831,1.0,2
22.245258331298828,-37.182552337646484,1.8150875568389893,-0.0,-0.0,-1.0,0.015119269934789736,2.0,2
21.7830867767334,-37.46342086791992,1.8232191801071167,-0.0,-0.0,-1.0,0.02277113373823078,1.0,2
22.040679931640625,-37.243186950683594,1.81569242477417,-0.0,-0.0,-1.0,0.019742784787357283,1.0,2
22.231121063232422,-37.1763801574707,1.8102296590805054,-0.0,-0.0,-1.0,0.015607102431337125,2.0,2
22.556934356689453,-37.76384353637695,2.5132198333740234,-0.0,-0.0,-1.0,0.13639726460437918,2.0,3
20.225595474243164,-36.893096923828125,2.302504539489746,-0.0,-0.0,-1.0,0.16985336282576308,2.0,3
21.41701316833496,-38.83021545410156,2.280369758605957,-0.0,-0.0,-1.0,0.15384776394981564,1.0,3
22.54863166809082,-37.724517822265625,2.229663372039795,-0.4957389887205579,-0.8549463648752471,-0.15267471384914758,0.10166079610490066,4.0,3
22.679868698120117,-37.77180099487305,2.225630283355713,-0.0,-0.0,-1.0,0.0700013477868968,1.0,3
21.240833282470703,-38.76765823364258,2.3029491901397705,-0.0,-0.0,-1.0,0.11567745314790401,2.0,3
22.46303939819336,-37.726219177246094,2.2438721656799316,-0.37581797539475076,0.633792007035162,-0.6760684441597106,0.10013925897897162,3.0,3
22.549421310424805,-37.7401008605957,2.2660131454467773,-0.6601755658625954,-0.6954361291268905,-0.28379008535008526,0.10586664204646799,3.0,3
21.44215965270996,-38.8999137878418,2.313453435897827,-0.0,-0.0,-1.0,0.16542997410657434,2.0,3
22.581592559814453,-37.354122161865234,1.8913822174072266,-0.0,-0.0,-1.0,0.06760197041405128,1.0,2
22.287567138671875,-37.54521942138672,1.8970236778259277,-0.0,-0.0,-1.0,0.06821089317001892,2.0,2
22.58016586303711,-38.021820068359375,1.9004426002502441,-0.0,-0.0,-1.0,0.09491168044334422,2.0,2
21.469314575195312,-38.422637939453125,1.9174420833587646,-0.0,-0.0,-1.0,0.03631795901138646,1.0,2
22.539966583251953,-37.66670608520508,2.066434144973755,-0.0,-0.0,-1.0,0.10470106600874712,1.0,3
22.39156723022461,-38.357112884521484,2.0807671546936035,-0.0,-0.0,-1.0,0.10825407951138692,1.0,3
21.366802215576172,-38.705116271972656,2.102060556411743,-0.0,-0.0,-1.0,0.13027450191744563,2.0,3
21.22665786743164,-38.67100143432617,2.103569507598877,-0.0,-0.0,-1.0,0.13647697062598263,2.0,3
21.564544677734375,-38.927608489990234,2.1030006408691406,0.6099433126390562,-0.2717399166345223,-0.7443967847017864,0.14499916290808154,3.0,3
20.290010452270508,-37.185482025146484,2.381021499633789,-0.0,-0.0,-1.0,0.15662345382536855,1.0,3
20.42099380493164,-37.81992721557617,2.376687526702881,-0.0,-0.0,-1.0,0.10348261072217632,1.0,3
20.283390045166016,-37.82025909423828,2.3847029209136963,-0.0,-0.0,-1.0,0.08023663324924062,1.0,3
20.766250610351562,-38.0334587097168,2.3577098846435547,-0.0,-0.0,-1.0,0.11003494481129864,1.0,3
22.102920532226562,-39.29048156738281,2.2875027656555176,-0.0,-0.0,-1.0,0.1211263073592055,1.0,3
21.994529724121094,-39.21752166748047,2.293301582336426,-0.0,-0.0,-1.0,0.13418993018929806,1.0,3
20.727432250976562,-36.97688674926758,2.4265952110290527,-0.0,-0.0,-1.0,0.08685264390648531,1.0,3
20.24448013305664,-37.74273681640625,2.4547297954559326,-0.0,-0.0,-1.0,0.07925805263226182,1.0,3
22.704849243164062,-37.78490447998047,2.436387062072754,-0.0,-0.0,-1.0,0.1268315686858505,1.0,3
20.24933624267578,-37.06961441040039,2.3155524730682373,-0.0,-0.0,-1.0,0.18255831525166644,1.0,3
21.58717918395996,-38.964996337890625,2.3169474601745605,-0.0,-0.0,-1.0,0.17224595439448098,2.0,3
20.211246490478516,-36.98657989501953,2.3379926681518555,-0.0,-0.0,-1.0,0.1757358401402074,2.0,3
20.377958297729492,-37.21553421020508,2.330030918121338,-0.0,-0.0,-1.0,0.15283383635687947,1.0,3
21.53665542602539,-38.83346939086914,2.277327060699463,-0.0,-0.0,-1.0,0.21399781777778204,1.0,3
22.631576538085938,-38.489288330078125,2.211639881134033,-0.0,-0.0,-1.0,0.05954919022925925,1.0,3
21.67795181274414,-38.99666213989258,2.270833969116211,-0.0,-0.0,-1.0,0.16185110035157438,1.0,3
22.661134719848633,-37.764156341552734,2.0671920776367188,-0.0,-0.0,-1.0,0.09750887947369317,2.0,3
22.487224578857422,-37.926761627197266,2.081785202026367,-0.0,-0.0,-1.0,0.1710415330109538,1.0,3
21.483036041259766,-38.88078308105469,2.1652989387512207,0.863643761054682,0.07009833312223898,-0.49920504573251967,0.20140570065571944,4.0,3
21.012283325195312,-37.22783279418945,1.7268955707550049,-0.0,-0.0,-1.0,0.12275889487217756,1.0,2
21.307292938232422,-37.36408615112305,1.683046817779541,-0.0,-0.0,-1.0,0.06508186262393856,1.0,2
20.584686279296875,-37.531883239746094,1.7734075784683228,-0.0,-0.0,-1.0,0.051447701891460994,1.0,2
20.24720001220703,-38.15457534790039,1.7972174882888794,-0.0,-0.0,-1.0,0.08344853700072491,1.0,2
22.117746353149414,-37.490848541259766,2.002955436706543,-0.0,-0.0,-1.0,0.06282218481917175,1.0,3
21.11124610900879,-38.888084411621094,2.326855182647705,-0.0,-0.0,-1.0,0.1377646828686442,1.0,3
21.189971923828125,-38.86077117919922,2.275320053100586,-0.0,-0.0,-1.0,0.19623923949001768,2.0,3
21.496461868286133,-38.87166976928711,2.151118755340576,0.922483115784137,0.011586608538143799,-0.3858635142064795,0.19364773787845663,5.0,3
21.384666442871094,-38.79218292236328,2.0921173095703125,-0.0,-0.0,-1.0,0.17596772619653664,2.0,3
21.558349609375,-38.88669967651367,2.082990884780884,-0.0,-0.0,-1.0,0.15097462954259006,2.0,3
21.542160034179688,-37.512271881103516,1.8083651065826416,-0.0,-0.0,-1.0,0.012725800717348926,1.0,2
21.514053344726562,-38.29655838012695,1.9465744495391846,-0.0,-0.0,-1.0,0.019577553084992785,1.0,2
20.543310165405273,-36.868160247802734,2.0077290534973145,-0.0,-0.0,-1.0,0.12168657749614506,2.0,3
22.244125366210938,-37.75404739379883,1.9906961917877197,-0.0,-0.0,-1.0,0.10496164751010548,2.0,2
20.93671989440918,-38.84183120727539,2.032041072845459,-0.0,-0.0,-1.0,0.13069758116528213,1.0,3
21.179519653320312,-38.90052032470703,2.0284981727600098,-0.0,-0.0,-1.0,0.17166137619434851,1.0,3
21.580522537231445,-39.19028854370117,2.025785446166992,-0.0,-0.0,-1.0,0.15058140736236264,1.0,3
22.552478790283203,-38.272274017333984,1.9934687614440918,-0.0,-0.0,-1.0,0.11131490856497252,1.0,2
20.526885986328125,-37.1333122253418,2.1480467319488525,-0.0,-0.0,-1.0,0.1765244797436984,1.0,3
21.506311416625977,-38.858123779296875,2.184485673904419,0.863643761054682,0.07009833312223898,-0.49920504573251967,0.18192629673897837,4.0,3
20.25886344909668,-36.89147186279297,2.465477466583252,-0.0,-0.0,-1.0,0.20053155646264323,2.0,3
21.296829223632812,-38.88868713378906,2.4442853927612305,-0.0,-0.0,-1.0,0.12318167743240631,1.0,3
22.566959381103516,-37.740699768066406,2.332247018814087,-0.0,-0.0,-1.0,0.13892999182013083,2.0,3
22.521240234375,-37.71023178100586,2.365257978439331,-0.06736159553544951,-0.9967124677595752,0.04501857460578099,0.12346155487209318,3.0,3
20.31313705444336,-36.930091857910156,2.0906221866607666,-0.0,-0.0,-1.0,0.1117254122462893,1.0,3
21.209245681762695,-38.78245544433594,2.045318603515625,-0.0,-0.0,-1.0,0.22115280070518806,1.0,3
21.206729888916016,-36.96689224243164,2.0463175773620605,-0.0,-0.0,-1.0,0.12394821334193516,2.0,3
21.494585037231445,-38.918636322021484,2.0309882164001465,-0.0,-0.0,-1.0,0.15651676853356467,1.0,3
22.373302459716797,-38.10822296142578,1.9872474670410156,-0.0,-0.0,-1.0,0.08100969620235303,1.0,2
22.528045654296875,-37.73311996459961,1.9796403646469116,-0.0,-0.0,-1.0,0.1579593969314793,2.0,2
20.934518814086914,-38.99618148803711,2.521568536758423,-0.0,-0.0,-1.0,0.09873849367995165,1.0,3
21.04608154296875,-39.00794982910156,2.5181610584259033,-0.0,-0.0,-1.0,0.14343095272113976,1.0,3
22.278059005737305,-37.801597595214844,2.4595835208892822,-0.0,-0.0,-1.0,0.09309078858994156,1.0,3
21.47521209716797,-38.84393310546875,2.1027703285217285,0.7933192888197644,0.4805268298825204,-0.37381609348656797,0.1392787433875008,4.0,3
22.516067504882812,-37.73639678955078,2.0494372844696045,-0.0,-0.0,-1.0,0.19372692010444326,2.0,3
20.23398208618164,-36.996192932128906,2.3268747329711914,-0.0,-0.0,-1.0,0.20691414699471908,2.0,3
21.367813110351562,-38.85663604736328,2.326677083969116,-0.0,-0.0,-1.0,0.12537890852303665,2.0,3
22.565690994262695,-37.807777404785156,2.28741455078125,-0.0,-0.0,-1.0,0.17089713076904495,1.0,3
20.262466430664062,-36.89312744140625,1.8650500774383545,0.5250644278336803,0.5980307968230437,-0.6055299436649564,0.16737050909831733,3.0,2
21.415775299072266,-37.70118713378906,1.8129059076309204,-0.0,-0.0,-1.0,0.014967117035226131,1.0,2
21.15709114074707,-38.220001220703125,1.8196370601654053,-0.0,-0.0,-1.0,0.015801308870983174,1.0,2
22.425752639770508,-37.256656646728516,1.7759793996810913,-0.0,-0.0,-1.0,0.03376448365961909,1.0,2
21.560020446777344,-37.42589569091797,1.7559266090393066,-0.24956139909443326,0.22072544320302323,-0.9428676401302876,0.01383860121652553,3.0,2
21.34980583190918,-37.6374626159668,1.7609670162200928,-0.0,-0.0,-1.0,0.018658723732899844,1.0,2
21.386898040771484,-37.59737777709961,1.764367699623108,-0.0,-0.0,-1.0,0.019200054071597774,1.0,2
22.65386962890625,-37.739261627197266,2.4487228393554688,-0.8099331954637942,-0.029921003256157673,-0.5857584420646048,0.1294043199232096,3.0,3
20.226472854614258,-36.95552444458008,2.4356541633605957,-0.0,-0.0,-1.0,0.20053155646264323,1.0,3
20.598358154296875,-36.87156677246094,2.4148457050323486,-0.0,-0.0,-1.0,0.06159282507639776,1.0,3
21.334135055541992,-38.941776275634766,2.3962182998657227,-0.0,-0.0,-1.0,0.0900920786309663,2.0,3
22.515975952148438,-37.775020599365234,2.322500228881836,-0.0,-0.0,-1.0,0.16189606662871442,2.0,3
21.65081214904785,-38.768798828125,2.3777637481689453,-0.0,-0.0,-1.0,0.18724191422258743,1.0,3
20.233552932739258,-36.940940856933594,2.2910001277923584,-0.0,-0.0,-1.0,0.14651722420352836,2.0,3
22.689373016357422,-37.7403564453125,2.1676971912384033,-0.0,-0.0,-1.0,0.0469766150451856,1.0,3
21.45915985107422,-38.882041931152344,2.228987455368042,-0.0,-0.0,-1.0,0.1767982083967464,2.0,3
21.46038818359375,-38.916954040527344,2.228931188583374,-0.0,-0.0,-1.0,0.13073110505134553,2.0,3
22.56652069091797,-37.78782653808594,2.1737613677978516,-0.9814958208714424,0.19148334825120383,0.0002845248701484543,0.07334107919267142,3.0,3
21.958690643310547,-38.75752258300781,2.2039949893951416,-0.0,-0.0,-1.0,0.15729794509686174,1.0,3
20.545766830444336,-36.864776611328125,1.845955491065979,-0.0,-0.0,-1.0,0.1164577514059789,1.0,2
21.022933959960938,-37.225555419921875,1.8075013160705566,-0.0,-0.0,-1.0,0.10497712859186759,1.0,2
21.24785804748535,-37.28004837036133,1.7899718284606934,-0.0,-0.0,-1.0,0.10829461585392851,2.0,2
21.09334373474121,-37.35057830810547,1.7994916439056396,-0.0,-0.0,-1.0,0.11560204389402245,1.0,2
21.550262451171875,-37.30405807495117,1.7675118446350098,-0.0,-0.0,-1.0,0.010109132576238095,1.0,2
20.266984939575195,-36.866600036621094,2.6178834438323975,-0.0,-0.0,-1.0,0.20589432701154758,1.0,3
22.099384307861328,-37.714263916015625,2.497084856033325,-0.0,-0.0,-1.0,0.07735448441764806,1.0,3
21.193317413330078,-38.57738494873047,1.9379487037658691,-0.0,-0.0,-1.0,0.04812609441893471,1.0,2
21.34191131591797,-38.77350616455078,1.9157934188842773,-0.0,-0.0,-1.0,0.15605447377355813,1.0,2
21.582422256469727,-38.457183837890625,1.9014225006103516,-0.0,-0.0,-1.0,0.026617461482353683,1.0,2
22.023561477661133,-37.545166015625,1.8860833644866943,-0.0,-0.0,-1.0,0.04423578927292482,1.0,2
21.821882247924805,-38.218997955322266,1.8843979835510254,-0.0,-0.0,-1.0,0.017286051863935687,1.0,2
22.52492332458496,-37.36803436279297,1.8387408256530762,-0.0,-0.0,-1.0,0.047117621384004243,1.0,2
22.27004051208496,-37.560638427734375,1.8593964576721191,-0.0,-0.0,-1.0,0.06759759722668914,2.0,2
21.21940040588379,-38.72981262207031,2.3687736988067627,-0.0,-0.0,-1.0,0.09396756084293055,1.0,3
21.36647605895996,-38.90645980834961,2.357088804244995,-0.0,-0.0,-1.0,0.09336544688316613,2.0,3
22.392696380615234,-37.73969268798828,2.3170666694641113,-0.5003238166766891,-0.17600129886130997,-0.8477615356131714,0.14505703348930152,3.0,3
21.24400520324707,-38.77684020996094,2.123706102371216,-0.0,-0.0,-1.0,0.15124757295983132,2.0,3
21.384475708007812,-38.851654052734375,2.112588405609131,-0.0,-0.0,-1.0,0.1739955861830123,1.0,3
21.783340454101562,-39.209991455078125,2.076681613922119,-0.0,-0.0,-1.0,0.12175448662408225,1.0,3
22.418916702270508,-37.7629508972168,2.0714638233184814,-0.0,-0.0,-1.0,0.14145777922420724,1.0,3
21.42376136779785,-37.04856872558594,1.6543112993240356,-0.0,-0.0,-1.0,0.10458535102173841,1.0,2
21.27760124206543,-38.84492111206055,2.329632520675659,-0.0,-0.0,-1.0,0.1432459053318353,1.0,3
22.39226722717285,-37.716922760009766,2.3125927448272705,-0.5003238166766891,-0.17600129886130997,-0.8477615356131714,0.14505703348930152,3.0,3
21.36532974243164,-36.864036560058594,1.6730371713638306,-0.0,-0.0,-1.0,0.09312585101573174,1.0,2
21.17305564880371,-38.80104446411133,2.334418773651123,-0.0,-0.0,-1.0,0.09469799351328727,1.0,3
21.129039764404297,-38.75639343261719,2.3358137607574463,-0.0,-0.0,-1.0,0.08585320618460432,1.0,3
22.02731704711914,-38.718467712402344,2.3214564323425293,-0.0,-0.0,-1.0,0.19814356840555217,1.0,3
22.363922119140625,-37.72639465332031,2.3312876224517822,-0.5003238166766891,-0.17600129886130997,-0.8477615356131714,0.13476987604814392,3.0,3
21.2880916595459,-38.81907272338867,2.2221710681915283,-0.0,-0.0,-1.0,0.13628013333631242,1.0,3
21.393564224243164,-38.904701232910156,2.2198328971862793,-0.0,-0.0,-1.0,0.13233023721375842,1.0,3
20.250783920288086,-37.93300247192383,2.2431588172912598,-0.0,-0.0,-1.0,0.11049009381271695,1.0,3
22.428462982177734,-37.7551383972168,2.2359819412231445,-0.0,-0.0,-1.0,0.12393488049667954,2.0,3
20.239622116088867,-39.244873046875,2.020780563354492,-0.0,-0.0,-1.0,0.08914975934241362,1.0,3
21.51018524169922,-38.808677673339844,2.0157785415649414,-0.0,-0.0,-1.0,0.1445811521549239,1.0,3
21.837074279785156,-38.95951843261719,2.0055956840515137,-0.0,-0.0,-1.0,0.13914730027014716,1.0,3
22.119888305664062,-38.83271026611328,2.0042800903320312,-0.0,-0.0,-1.0,0.1111507839402489,2.0,3
22.400938034057617,-38.161869049072266,2.019282817840576,-0.0,-0.0,-1.0,0.13095776146349147,1.0,3
20.37129783630371,-36.94440841674805,2.086562156677246,-0.0,-0.0,-1.0,0.14201364075447914,1.0,3
21.11452865600586,-37.95419692993164,1.8488842248916626,-0.0,-0.0,-1.0,0.014583070525452421,1.0,2
21.485097885131836,-37.85893630981445,1.8514494895935059,-0.0,-0.0,-1.0,0.00822914394791979,1.0,2
21.73033332824707,-37.64654541015625,1.8586366176605225,-0.0,-0.0,-1.0,0.017241385911657064,1.0,2
22.072437286376953,-37.534339904785156,1.8612468242645264,-0.0,-0.0,-1.0,0.04350923828870469,1.0,2
20.275728225708008,-36.880615234375,1.8889068365097046,-0.0,-0.0,-1.0,0.14504721449972285,2.0,2
22.33174705505371,-37.29386520385742,1.8689478635787964,-0.0,-0.0,-1.0,0.04463124560404254,1.0,2
22.474529266357422,-37.7384033203125,2.5742697715759277,-0.0,-0.0,-1.0,0.1200152853935944,1.0,3
21.5965518951416,-38.93230438232422,2.1309409141540527,0.059653390636483526,0.9933363175778618,0.0986125406143915,0.10624330646289311,3.0,3
21.899707794189453,-39.3355712890625,2.122549057006836,-0.0,-0.0,-1.0,0.08849580516770503,1.0,3
21.335952758789062,-38.717681884765625,2.134737730026245,-0.0,-0.0,-1.0,0.1286552618628319,2.0,3
21.470487594604492,-38.813575744628906,2.1331610679626465,0.6844364973619058,0.7279028844258751,-0.041280406047622405,0.17552768759897064,7.0,3
21.978355407714844,-38.79571533203125,2.135009527206421,-0.0,-0.0,-1.0,0.1460803582029266,1.0,3
22.508005142211914,-37.71502685546875,2.160576820373535,-0.0,-0.0,-1.0,0.08023037679038765,1.0,3
21.536890029907227,-38.919376373291016,2.2031497955322266,-0.0,-0.0,-1.0,0.16922270620884383,2.0,3
21.444469451904297,-38.83464813232422,2.2040133476257324,-0.0,-0.0,-1.0,0.18373578685030859,1.0,3
20.408145904541016,-37.94842529296875,2.2091898918151855,-0.0,-0.0,-1.0,0.14203097475778398,1.0,3
22.49587631225586,-37.72090148925781,2.2306036949157715,-0.0,-0.0,-1.0,0.07106499367056775,2.0,3
20.494686126708984,-36.87176513671875,2.22762393951416,-0.0,-0.0,-1.0,0.11245458560665193,1.0,3
21.5241641998291,-38.866668701171875,2.2356724739074707,-0.0,-0.0,-1.0,0.19526013517914975,1.0,3
21.406108856201172,-38.736595153808594,2.236814498901367,-0.0,-0.0,-1.0,0.14140443179217735,1.0,3
20.41636085510254,-37.886016845703125,2.239377975463867,-0.0,-0.0,-1.0,0.11049009381271695,1.0,3
22.59435272216797,-37.70545959472656,2.261341094970703,-0.0,-0.0,-1.0,0.1174664805596163,1.0,3
21.410730361938477,-38.86131286621094,2.381143093109131,-0.0,-0.0,-1.0,0.12245750176070262,1.0,3
21.709426879882812,-38.96110534667969,2.3814735412597656,-0.0,-0.0,-1.0,0.16290251415430212,1.0,3
22.514785766601562,-37.708343505859375,2.397406578063965,-0.06736159553544951,-0.9967124677595752,0.04501857460578099,0.12383850720256026,3.0,3
22.622156143188477,-37.633121490478516,2.3985047340393066,-0.0,-0.0,-1.0,0.11154037110000711,1.0,3
21.862497329711914,-37.36312484741211,1.7301961183547974,-0.0,-0.0,-1.0,0.01903974187953732,1.0,2
22.152450561523438,-36.92095947265625,1.7525333166122437,-0.0,-0.0,-1.0,0.01505305866509368,1.0,2
21.350963592529297,-38.917274475097656,2.4757189750671387,-0.140376728792768,0.03931115468993889,-0.9893174450753336,0.12277373127035492,3.0,3
22.6256103515625,-37.74996566772461,2.4883439540863037,-0.8099331954637942,-0.029921003256157673,-0.5857584420646048,0.13235586788588252,3.0,3
22.529640197753906,-37.691505432128906,2.488370895385742,-0.0,-0.0,-1.0,0.12498442759024822,1.0,3
20.227996826171875,-36.89433288574219,2.4728493690490723,-0.0,-0.0,-1.0,0.20053155646264317,2.0,3
21.193904876708984,-38.85003662109375,2.2356581687927246,-0.0,-0.0,-1.0,0.21624615172089232,2.0,3
20.21826934814453,-37.865142822265625,2.252033233642578,-0.0,-0.0,-1.0,0.07959227826942321,1.0,3
22.341270446777344,-37.72736358642578,2.261953353881836,-0.0,-0.0,-1.0,0.11102096578835657,1.0,3
22.281686782836914,-37.68393325805664,2.2627999782562256,-0.0,-0.0,-1.0,0.05882139538218283,1.0,3
21.843612670898438,-37.45861053466797,2.4137308597564697,-0.0,-0.0,-1.0,0.13480983188822074,1.0,3
21.935016632080078,-37.45301055908203,2.4137916564941406,-0.0,-0.0,-1.0,0.12876754621937195,1.0,3
20.52045440673828,-38.31901550292969,2.403364419937134,-0.0,-0.0,-1.0,0.09685108214446994,1.0,3
20.707176208496094,-38.52312088012695,2.4006857872009277,-0.0,-0.0,-1.0,0.11187519114197589,1.0,3
20.551204681396484,-38.442298889160156,1.822633981704712,-0.0,-0.0,-1.0,0.0674256450921022,1.0,2
20.880722045898438,-38.379180908203125,1.8331315517425537,-0.0,-0.0,-1.0,0.036818772196669236,1.0,2
21.087902069091797,-38.35118865966797,1.8393596410751343,-0.0,-0.0,-1.0,0.026607429189154878,1.0,2
21.355995178222656,-38.297611236572266,1.8477848768234253,-0.0,-0.0,-1.0,0.015118200547429843,1.0,2
21.26968765258789,-38.206459045410156,1.8478662967681885,-0.0,-0.0,-1.0,0.012581184250454144,1.0,2
20.237468719482422,-36.884605407714844,1.8517906665802002,-0.0,-0.0,-1.0,0.23784383759903543,2.0,2
21.713634490966797,-38.083702087402344,1.862596035003662,-0.0,-0.0,-1.0,0.014500438447429261,1.0,2
20.820587158203125,-36.905975341796875,1.8680965900421143,-0.0,-0.0,-1.0,0.0734288977148736,1.0,2
21.26583480834961,-36.94839859008789,1.879532814025879,-0.0,-0.0,-1.0,0.11071568012232352,1.0,2
22.063068389892578,-37.63710021972656,1.8831932544708252,-0.0,-0.0,-1.0,0.06488224053678174,1.0,2
22.07349395751953,-37.77454376220703,1.8798669576644897,-0.0,-0.0,-1.0,0.04962822710861018,1.0,2
22.37936782836914,-37.61756896972656,1.8917049169540405,-0.0,-0.0,-1.0,0.08280468881148959,1.0,2
20.56291961669922,-38.56195068359375,1.883094310760498,-0.0,-0.0,-1.0,0.05172515222046111,2.0,2
20.727447509765625,-38.741546630859375,1.8815782070159912,-0.0,-0.0,-1.0,0.04984170418851723,2.0,2
20.723865509033203,-38.53514099121094,1.887021541595459,-0.0,-0.0,-1.0,0.05741400565733061,1.0,2
21.231067657470703,-38.260498046875,1.9043307304382324,-0.0,-0.0,-1.0,0.02161336969357856,2.0,2
21.395671844482422,-38.376853942871094,1.904329538345337,-0.0,-0.0,-1.0,0.030365447711577415,1.0,2
21.652042388916016,-38.184486389160156,1.914414644241333,-0.0,-0.0,-1.0,0.010036929332153546,1.0,2
21.250444412231445,-36.97908020019531,1.9387531280517578,-0.0,-0.0,-1.0,0.10782712235829477,1.0,2
22.17757797241211,-37.61732482910156,1.939753770828247,-0.0,-0.0,-1.0,0.07042908222023411,1.0,2
22.41419792175293,-37.808956146240234,1.9387140274047852,-0.0,-0.0,-1.0,0.1395311860077478,1.0,2
22.626394271850586,-38.11933135986328,1.9336799383163452,-0.0,-0.0,-1.0,0.07328723170161085,1.0,2
22.587923049926758,-37.755531311035156,1.9432759284973145,-0.0,-0.0,-1.0,0.2277706995491337,1.0,2
20.269258499145508,-37.014564514160156,2.1975531578063965,-0.0,-0.0,-1.0,0.20308454442751706,1.0,3
21.423282623291016,-38.79203796386719,2.169834613800049,-0.0,-0.0,-1.0,0.18587111199846848,2.0,3
21.4892578125,-38.83397674560547,2.1692867279052734,0.907934741088824,0.09195896875150365,-0.408898586436943,0.19277122811502698,6.0,3
21.56371307373047,-38.9339599609375,2.167482852935791,-0.7282163111845369,0.23507929808215167,-0.6437691571813521,0.13517911428342563,3.0,3
22.391361236572266,-38.419830322265625,2.183103322982788,-0.0,-0.0,-1.0,0.09210789897940158,1.0,3
22.307723999023438,-38.693450927734375,2.1765072345733643,-0.0,-0.0,-1.0,0.06952401031848536,1.0,3
22.538585662841797,-37.72270202636719,2.1995139122009277,-0.6886692299185224,-0.7004712782372283,0.18728235402229554,0.07692846261820722,3.0,3
21.83944320678711,-36.94194030761719,1.6544064283370972,-0.0,-0.0,-1.0,0.007107978588778252,1.0,2
20.34391975402832,-36.920257568359375,2.312959909439087,-0.0,-0.0,-1.0,0.17401324354122388,1.0,3
20.28365707397461,-37.267967224121094,2.3127548694610596,-0.0,-0.0,-1.0,0.11485095238053318,1.0,3
21.419937133789062,-38.80062484741211,2.3543002605438232,-0.0,-0.0,-1.0,0.14235842226677822,1.0,3
21.561599731445312,-38.93124008178711,2.3590636253356934,-0.0,-0.0,-1.0,0.1725101269673471,1.0,3
22.655921936035156,-37.75572204589844,2.387449264526367,-0.0,-0.0,-1.0,0.13059566739922768,2.0,3
21.433395385742188,-37.292236328125,1.7198060750961304,-0.0,-0.0,-1.0,0.0403306707938173,2.0,2
21.157886505126953,-37.291133880615234,1.705749273300171,-0.0,-0.0,-1.0,0.09604189015211335,1.0,2
21.626323699951172,-37.224510192871094,1.730931043624878,-0.0,-0.0,-1.0,0.009154338340990142,1.0,2
21.611059188842773,-37.41683578491211,1.7263493537902832,-0.0,-0.0,-1.0,0.013680210791888223,2.0,2
22.001190185546875,-37.08590316772461,1.7526036500930786,-0.0,-0.0,-1.0,0.013606193926466052,1.0,2
20.422006607055664,-36.897178649902344,2.398883581161499,-0.0,-0.0,-1.0,0.15356892295277866,2.0,3
21.40686798095703,-38.837852478027344,2.4421002864837646,-0.0,-0.0,-1.0,0.12545866049368612,2.0,3
21.453372955322266,-38.901893615722656,2.443866729736328,-0.0,-0.0,-1.0,0.12809376136851233,1.0,3
22.602725982666016,-37.6875114440918,2.467665195465088,-0.0,-0.0,-1.0,0.13736312123532302,2.0,3
22.639686584472656,-37.7557258605957,2.469174861907959,-0.8099331954637942,-0.029921003256157673,-0.5857584420646048,0.1323558678858825,3.0,3
21.39392852783203,-37.290443420410156,1.7473270893096924,-0.0,-0.0,-1.0,0.07137827324532044,2.0,2
21.577072143554688,-37.23423767089844,1.7582100629806519,-0.0,-0.0,-1.0,0.009142888244902302,1.0,2
21.708576202392578,-37.343536376953125,1.7637479305267334,-0.0,-0.0,-1.0,0.009629321851509455,1.0,2
21.98150634765625,-37.22170639038086,1.7804316282272339,-0.0,-0.0,-1.0,0.019474698063566023,1.0,2
22.538616180419922,-36.944793701171875,1.81475830078125,-0.0,-0.0,-1.0,0.022340262353287826,1.0,2
22.46626853942871,-37.14873504638672,1.8076499700546265,-0.0,-0.0,-1.0,0.02523732648580589,1.0,2
20.38128662109375,-36.91324996948242,2.40765380859375,-0.0,-0.0,-1.0,0.15356892295277882,2.0,3
21.410072326660156,-38.8455696105957,2.464939594268799,-0.0,-0.0,-1.0,0.12276785484722093,2.0,3
22.60385513305664,-37.69620895385742,2.489685297012329,-0.0,-0.0,-1.0,0.14347721156411206,2.0,3
22.70016860961914,-37.73757553100586,2.4932260513305664,-0.0,-0.0,-1.0,0.12940431992320955,1.0,3
20.348201751708984,-37.06277084350586,2.130509853363037,-0.0,-0.0,-1.0,0.1895108472957461,1.0,3
20.73650550842285,-36.94411087036133,2.1448516845703125,-0.0,-0.0,-1.0,0.10186781615108295,1.0,3
21.22698211669922,-37.05299377441406,2.1619300842285156,-0.0,-0.0,-1.0,0.08149994836714443,1.0,3
20.495662689208984,-38.016578674316406,2.1328959465026855,-0.0,-0.0,-1.0,0.10207082614699683,2.0,3
21.61914825439453,-38.85417175292969,2.1666030883789062,-0.0,-0.0,-1.0,0.16548813157047657,2.0,3
22.631874084472656,-37.71650314331055,2.205775737762451,-0.0,-0.0,-1.0,0.07186708229346175,2.0,3
22.55107879638672,-38.40779495239258,2.198854923248291,-0.0,-0.0,-1.0,0.07223904933593465,1.0,3
20.393213272094727,-36.892642974853516,2.128906726837158,-0.0,-0.0,-1.0,0.14416210286255499,2.0,3
20.690738677978516,-36.917640686035156,2.1346492767333984,-0.0,-0.0,-1.0,0.1151691162290359,2.0,3
20.47193145751953,-38.001243591308594,2.108917236328125,-0.0,-0.0,-1.0,0.14040666702204865,2.0,3
21.423152923583984,-38.68454360961914,2.1119651794433594,-0.0,-0.0,-1.0,0.10310480351998942,1.0,3
22.62679672241211,-37.746315002441406,2.1531546115875244,-0.0,-0.0,-1.0,0.05778680221248135,2.0,3
21.644710540771484,-38.85748291015625,2.111876964569092,-0.0,-0.0,-1.0,0.14516680558606831,1.0,3
22.509450912475586,-38.36848068237305,2.137014865875244,-0.0,-0.0,-1.0,0.08810535290188903,2.0,3
22.061298370361328,-39.315696716308594,2.1080162525177,-0.0,-0.0,-1.0,0.06775635773476049,1.0,3
20.574031829833984,-36.88318634033203,2.002638816833496,0.18342472385176603,0.6305126151958244,-0.7541944131050202,0.12228655528254262,3.0,3
21.195026397705078,-37.00193405151367,2.007467269897461,-0.0,-0.0,-1.0,0.10190512909693934,1.0,3
20.411182403564453,-38.25384521484375,1.9525072574615479,-0.0,-0.0,-1.0,0.08809089145391043,1.0,2
22.051895141601562,-37.51325988769531,1.9999189376831055,-0.0,-0.0,-1.0,0.044625658837984784,1.0,2
20.73919677734375,-38.5090217590332,1.9475748538970947,-0.0,-0.0,-1.0,0.13180208210432726,1.0,2
20.21712875366211,-38.86105728149414,1.9282335042953491,-0.0,-0.0,-1.0,0.08522203230279995,1.0,2
22.55168342590332,-37.74547576904297,1.9967236518859863,-0.0,-0.0,-1.0,0.17198301719245024,2.0,2
22.087482452392578,-37.84572982788086,1.9879684448242188,-0.0,-0.0,-1.0,0.05291049052299167,1.0,2
21.340538024902344,-38.451263427734375,1.9569534063339233,-0.0,-0.0,-1.0,0.041967367070713774,1.0,2
20.806350708007812,-38.75046157836914,1.9396352767944336,-0.0,-0.0,-1.0,0.05916594813403747,1.0,2
20.330081939697266,-39.0244140625,1.9237850904464722,-0.0,-0.0,-1.0,0.03758698487770034,2.0,2
22.554302215576172,-38.18461990356445,1.9800069332122803,-0.0,-0.0,-1.0,0.12672645104849362,1.0,2
21.716312408447266,-38.51420211791992,1.958862543106079,-0.0,-0.0,-1.0,0.028233270439961,1.0,2
21.72064208984375,-38.729713439941406,1.950801134109497,-0.0,-0.0,-1.0,0.06357800562608237,1.0,2
20.308685302734375,-36.91183090209961,2.0036261081695557,-0.0,-0.0,-1.0,0.1365541673802489,1.0,3
20.364744186401367,-38.05782699584961,1.9824559688568115,-0.0,-0.0,-1.0,0.14804055331542545,1.0,2
22.578044891357422,-37.749786376953125,2.048365354537964,-0.0,-0.0,-1.0,0.11986346397052479,1.0,3
22.05581283569336,-37.896949768066406,2.0317790508270264,-0.0,-0.0,-1.0,0.04629878124918797,1.0,3
20.873943328857422,-38.56248474121094,1.9858472347259521,-0.0,-0.0,-1.0,0.06420687510519862,1.0,2
20.23907470703125,-38.65337371826172,1.9664943218231201,-0.0,-0.0,-1.0,0.10663405573237121,1.0,2
22.57305908203125,-38.1442756652832,2.0389628410339355,-0.0,-0.0,-1.0,0.13642392576227835,1.0,3
21.594717025756836,-38.61550521850586,2.0035862922668457,-0.0,-0.0,-1.0,0.07483676504796512,1.0,3
21.157615661621094,-38.73822784423828,1.9894962310791016,-0.0,-0.0,-1.0,0.1258676411501395,1.0,2
20.891632080078125,-38.7602653503418,1.981985092163086,-0.0,-0.0,-1.0,0.05220675037019307,1.0,2
20.332115173339844,-39.042213439941406,1.9607651233673096,-0.0,-0.0,-1.0,0.037586984877700354,2.0,2
21.65032386779785,-38.85652542114258,1.9994721412658691,-0.0,-0.0,-1.0,0.1009343491754342,1.0,2
22.201187133789062,-39.11803436279297,2.0067946910858154,-0.0,-0.0,-1.0,0.10673697357633179,1.0,3
20.630775451660156,-37.14406204223633,1.9659152030944824,-0.0,-0.0,-1.0,0.16032975160950616,1.0,2
21.03868865966797,-37.61644744873047,1.9461545944213867,-0.0,-0.0,-1.0,0.057546195042013686,1.0,2
22.608600616455078,-37.397499084472656,1.962595820426941,-0.0,-0.0,-1.0,0.05994087108598591,1.0,2
22.378015518188477,-37.48662185668945,1.957592487335205,-0.0,-0.0,-1.0,0.07744016638876071,1.0,2
22.251636505126953,-37.73483657836914,1.9455646276474,-0.0,-0.0,-1.0,0.05947241598844919,2.0,2
22.118877410888672,-37.77879333496094,1.9430301189422607,-0.0,-0.0,-1.0,0.06641788285020588,1.0,2
21.59960174560547,-38.102108001708984,1.9260094165802002,-0.0,-0.0,-1.0,0.009284222152552984,2.0,2
21.287235260009766,-38.24247741699219,1.9182517528533936,-0.0,-0.0,-1.0,0.013111569506907417,2.0,2
21.105838775634766,-38.209041595458984,1.919063925743103,-0.0,-0.0,-1.0,0.022733276825337486,2.0,2
20.603370666503906,-38.57582092285156,1.8999707698822021,-0.0,-0.0,-1.0,0.05357162146441277,2.0,2
20.318180084228516,-38.4135627746582,1.9061933755874634,-0.0,-0.0,-1.0,0.10238492262329493,1.0,2
20.65898895263672,-38.665565490722656,1.8960576057434082,-0.0,-0.0,-1.0,0.052577442964444256,1.0,2
20.373058319091797,-38.77867889404297,1.889603853225708,-0.0,-0.0,-1.0,0.037417824254947094,1.0,2
20.55072021484375,-36.886207580566406,2.5827245712280273,-0.0,-0.0,-1.0,0.10800895522577587,1.0,3
22.558441162109375,-37.77674102783203,2.5340263843536377,-0.39587382504311414,-0.7930764008998112,-0.462940316867667,0.1363972646043792,3.0,3
21.237472534179688,-38.95045852661133,2.534062147140503,-0.0,-0.0,-1.0,0.09220536649407492,1.0,3
21.929481506347656,-37.03837585449219,1.6659142971038818,-0.0,-0.0,-1.0,0.00785080171192337,1.0,2
21.08046531677246,-36.86628341674805,2.2156715393066406,-0.0,-0.0,-1.0,0.06321563414747394,2.0,3
20.323673248291016,-37.03403091430664,2.2079339027404785,-0.0,-0.0,-1.0,0.2096821858715436,1.0,3
22.625551223754883,-37.74809265136719,2.182929039001465,-0.9760834138008749,0.21559095340206214,-0.027959079277039885,0.06408315061253421,3.0,3
22.485179901123047,-38.33345413208008,2.1587581634521484,-0.0,-0.0,-1.0,0.10970375745297585,2.0,3
22.471004486083984,-38.53718566894531,2.1502881050109863,-0.0,-0.0,-1.0,0.10023449508031361,1.0,3
21.599220275878906,-38.865875244140625,2.1377530097961426,-0.0,-0.0,-1.0,0.16813889312038216,2.0,3
20.53299331665039,-37.09056091308594,2.115055799484253,-0.0,-0.0,-1.0,0.15172736127101313,1.0,3
20.298789978027344,-37.1354866027832,2.1084465980529785,-0.0,-0.0,-1.0,0.13348530837712416,1.0,3
20.26620101928711,-38.008636474609375,2.0514261722564697,-0.0,-0.0,-1.0,0.10660076377461573,1.0,3
22.35300064086914,-37.99830627441406,2.0780885219573975,0.18041716275967679,0.7471703429497021,-0.6396765792165384,0.14041155073232617,3.0,3
22.700984954833984,-38.43391418457031,2.0513784885406494,-0.0,-0.0,-1.0,0.09157855699831777,1.0,3
21.467182159423828,-38.6221809387207,2.0264501571655273,-0.0,-0.0,-1.0,0.11459238205252509,2.0,3
20.990867614746094,-38.67038345336914,2.0176124572753906,-0.0,-0.0,-1.0,0.07812848926803402,1.0,3
22.17926788330078,-38.973724365234375,2.0097241401672363,-0.0,-0.0,-1.0,0.13077577785020017,1.0,3
21.965757369995117,-38.97101974487305,2.007899284362793,-0.0,-0.0,-1.0,0.10190936920362781,1.0,3
21.54488754272461,-38.88587951660156,2.0094645023345947,-0.0,-0.0,-1.0,0.14561936953499893,1.0,3
21.036052703857422,-38.9578971862793,1.9989137649536133,-0.0,-0.0,-1.0,0.13699837396537723,1.0,2
20.326889038085938,-39.227195739746094,1.9721524715423584,-0.0,-0.0,-1.0,0.08914975934241358,1.0,2
22.248184204101562,-39.1865119934082,1.9956862926483154,-0.0,-0.0,-1.0,0.09493171889013186,2.0,2
21.187898635864258,-36.94495391845703,2.1343648433685303,-0.0,-0.0,-1.0,0.10429716478310203,1.0,3
21.022180557250977,-36.86358642578125,2.137251853942871,-0.0,-0.0,-1.0,0.06581593114036169,2.0,3
22.550312042236328,-37.79241180419922,2.0940613746643066,-0.0,-0.0,-1.0,0.11409916541846947,2.0,3
21.952558517456055,-37.081153869628906,1.7318837642669678,-0.0,-0.0,-1.0,0.008717844898197791,1.0,2
21.32387924194336,-37.10454559326172,1.7088245153427124,-0.0,-0.0,-1.0,0.1214310267820701,2.0,2
21.884492874145508,-37.208457946777344,1.7173751592636108,-0.0,-0.0,-1.0,0.008898556712501495,1.0,2
21.928607940673828,-38.825050354003906,2.103433132171631,-0.0,-0.0,-1.0,0.17236688500352218,1.0,3
21.45405387878418,-38.819549560546875,2.097581148147583,-0.4190780453913564,-0.40959596545919075,-0.8103115061200313,0.14335680350656063,6.0,3
21.235464096069336,-38.68454360961914,2.1035256385803223,-0.0,-0.0,-1.0,0.13711396299713627,2.0,3
21.63400650024414,-38.98798751831055,2.0887203216552734,-0.0,-0.0,-1.0,0.20061544767828368,1.0,3
22.167821884155273,-39.34210968017578,2.071193218231201,-0.0,-0.0,-1.0,0.09588101254934112,1.0,3
21.109800338745117,-36.897979736328125,2.218710422515869,-0.0,-0.0,-1.0,0.06321563414747394,2.0,3
22.570859909057617,-37.76559829711914,2.182851791381836,-0.9814958208714424,0.19148334825120383,0.0002845248701484543,0.07334107919267129,3.0,3
22.036373138427734,-37.1492805480957,1.787854790687561,-0.0,-0.0,-1.0,0.01978015158891748,1.0,2
21.22064781188965,-37.28761291503906,1.7492523193359375,-0.0,-0.0,-1.0,0.09872165419519927,2.0,2
22.599525451660156,-37.04254913330078,1.8138322830200195,-0.0,-0.0,-1.0,0.032238646200001594,1.0,2
22.16248893737793,-37.148277282714844,1.7915197610855103,-0.0,-0.0,-1.0,0.02258943596033184,1.0,2
21.889041900634766,-37.32389831542969,1.7662618160247803,-0.0,-0.0,-1.0,0.0232067933610601,1.0,2
21.596620559692383,-37.416419982910156,1.748457431793213,-0.30957012241351395,0.8528219245800129,-0.42054857539233775,0.013728686484884754,4.0,2
20.492645263671875,-36.97441101074219,2.2339248657226562,-0.0,-0.0,-1.0,0.16823005985546635,1.0,3
22.565725326538086,-37.79195785522461,2.2104246616363525,-0.9814958208714424,0.19148334825120383,0.0002845248701484543,0.1202134882222565,3.0,3
20.576221466064453,-38.547279357910156,2.1322083473205566,-0.0,-0.0,-1.0,0.19199591671740443,1.0,3
22.442171096801758,-38.36197280883789,2.169915199279785,-0.0,-0.0,-1.0,0.09753258519419455,1.0,3
21.42201805114746,-38.81435775756836,2.1267218589782715,0.05683949222010158,0.9360932672851794,-0.3471291792222583,0.1593019271688845,4.0,3
21.212764739990234,-38.79155731201172,2.125432014465332,-0.0,-0.0,-1.0,0.1440586596490603,2.0,3
21.882909774780273,-39.02332305908203,2.118272542953491,-0.0,-0.0,-1.0,0.15407683744133255,1.0,3
21.597660064697266,-39.009864807128906,2.115743637084961,-0.0,-0.0,-1.0,0.22177635003173116,1.0,3
21.45741844177246,-37.10530471801758,1.7069376707077026,-0.0,-0.0,-1.0,0.10275584631421676,1.0,2
21.3341121673584,-37.111656188964844,1.702379822731018,-0.0,-0.0,-1.0,0.110044665047551,2.0,2
20.250913619995117,-36.896629333496094,2.141636848449707,-0.0,-0.0,-1.0,0.08761693978170652,1.0,3
20.79125213623047,-36.94845199584961,2.1484463214874268,-0.0,-0.0,-1.0,0.0927393286080143,1.0,3
22.53618049621582,-37.755226135253906,2.1122193336486816,-0.0,-0.0,-1.0,0.11312401649846163,2.0,3
22.362041473388672,-37.98897933959961,2.0915327072143555,0.18041716275967679,0.7471703429497021,-0.6396765792165384,0.15074525010578876,3.0,3
21.238710403442383,-38.68403625488281,2.0213515758514404,-0.0,-0.0,-1.0,0.11527864175512613,1.0,3
22.657316207885742,-38.746768951416016,2.0342636108398438,-0.0,-0.0,-1.0,0.06030440180995435,1.0,3
21.946941375732422,-38.891868591308594,2.0146536827087402,-0.0,-0.0,-1.0,0.13331980695899467,1.0,3
21.69411849975586,-38.931861877441406,2.0082221031188965,-0.0,-0.0,-1.0,0.08694165154378822,1.0,3
21.44466781616211,-38.900447845458984,2.0073204040527344,-0.0,-0.0,-1.0,0.12287767128108071,1.0,3
20.285049438476562,-39.19208526611328,1.9663379192352295,-0.0,-0.0,-1.0,0.08914975934241363,1.0,2
22.244731903076172,-39.174171447753906,1.995658278465271,-0.0,-0.0,-1.0,0.09493171889013181,2.0,2
21.788042068481445,-39.04510498046875,2.000485897064209,-0.0,-0.0,-1.0,0.11405202185546741,1.0,3
21.10541343688965,-39.27903747558594,1.9726423025131226,-0.0,-0.0,-1.0,0.17027735389698143,1.0,2
22.370864868164062,-39.353721618652344,1.982663869857788,-0.0,-0.0,-1.0,0.09493171889013181,1.0,2
22.53091049194336,-37.77678298950195,2.557640552520752,-0.0,-0.0,-1.0,0.12514100416926432,2.0,3
22.410968780517578,-37.782981872558594,2.557267189025879,-0.0,-0.0,-1.0,0.12089565527778837,1.0,3
21.319154739379883,-38.962623596191406,2.501413345336914,-0.0,-0.0,-1.0,0.10628682275861637,1.0,3
20.846954345703125,-38.374298095703125,1.9134854078292847,-0.0,-0.0,-1.0,0.036076803003090664,1.0,2
20.51052474975586,-38.30427551269531,1.9376046657562256,-0.0,-0.0,-1.0,0.09522285037542742,1.0,2
20.924057006835938,-38.49150085449219,1.8960837125778198,-0.0,-0.0,-1.0,0.02325080901088718,1.0,2
20.69308853149414,-38.84633255004883,1.8667844533920288,-0.0,-0.0,-1.0,0.046391740751019456,1.0,2
21.34637451171875,-36.996131896972656,2.0474016666412354,-0.0,-0.0,-1.0,0.1172689559227517,1.0,3
21.0323429107666,-36.877342224121094,2.076056957244873,-0.0,-0.0,-1.0,0.07695812176008988,1.0,3
20.647716522216797,-37.044151306152344,2.0745368003845215,-0.0,-0.0,-1.0,0.15571680752531478,1.0,3
22.303247451782227,-37.467926025390625,1.9393924474716187,-0.0,-0.0,-1.0,0.06538935004421872,1.0,2
22.03335952758789,-37.58197784423828,1.9419496059417725,-0.0,-0.0,-1.0,0.04820443613318162,1.0,2
22.38011932373047,-37.67723846435547,1.9098761081695557,-0.0,-0.0,-1.0,0.08572959936358902,1.0,2
21.963375091552734,-37.817813873291016,1.9182015657424927,-0.0,-0.0,-1.0,0.03886721396027254,2.0,2
21.61763572692871,-38.06326675415039,1.9089703559875488,-0.0,-0.0,-1.0,0.008594632206670462,2.0,2
21.27206039428711,-38.237586975097656,1.9073896408081055,0.36267987771050975,-0.54830352065503,-0.7535426700202109,0.01330355082566487,3.0,2
21.094398498535156,-38.22228240966797,1.9185084104537964,-0.0,-0.0,-1.0,0.02620993173705902,2.0,2
20.527013778686523,-36.92351531982422,2.5124623775482178,-0.0,-0.0,-1.0,0.12803184223338376,1.0,3
22.505964279174805,-37.798484802246094,2.313880443572998,-0.0,-0.0,-1.0,0.16189606662871436,2.0,3
22.49477767944336,-38.37762451171875,2.2653470039367676,-0.0,-0.0,-1.0,0.09516489132081146,1.0,3
21.25022315979004,-38.7266845703125,2.3212428092956543,-0.0,-0.0,-1.0,0.1136398868492417,2.0,3
21.434146881103516,-38.92755126953125,2.2923483848571777,-0.0,-0.0,-1.0,0.10471814579097717,2.0,3
20.997432708740234,-36.892337799072266,2.150402069091797,-0.0,-0.0,-1.0,0.044158094197387025,2.0,3
20.651308059692383,-36.89606475830078,2.1505918502807617,-0.0,-0.0,-1.0,0.12223699035301966,2.0,3
20.333581924438477,-38.053855895996094,2.0416922569274902,-0.0,-0.0,-1.0,0.08959703775590383,1.0,3
20.868858337402344,-36.88640213012695,2.5570738315582275,-0.0,-0.0,-1.0,0.05328247664869511,1.0,3
21.2188777923584,-37.004207611083984,2.0651895999908447,-0.0,-0.0,-1.0,0.13358943708236173,2.0,3
20.862455368041992,-37.083396911621094,2.047060012817383,-0.0,-0.0,-1.0,0.07529111125669462,1.0,3
20.76115608215332,-38.744815826416016,1.9019488096237183,-0.0,-0.0,-1.0,0.05916594813403747,2.0,2
21.290435791015625,-37.027801513671875,2.4758429527282715,-0.0,-0.0,-1.0,0.08503483924358024,1.0,3
20.459976196289062,-37.02186584472656,2.4558191299438477,-0.0,-0.0,-1.0,0.1934323720038653,1.0,3
20.37342643737793,-37.4320182800293,2.4327821731567383,-0.0,-0.0,-1.0,0.08255808888991045,1.0,3
22.540618896484375,-37.65753173828125,1.9446258544921875,-0.0,-0.0,-1.0,0.14475935586587188,1.0,2
22.589258193969727,-38.00057601928711,1.9141684770584106,-0.0,-0.0,-1.0,0.09491168044334417,2.0,2
22.229782104492188,-37.776737213134766,1.92477285861969,-0.0,-0.0,-1.0,0.06775249174426995,1.0,2
21.909605026245117,-38.05474853515625,1.8892719745635986,-0.0,-0.0,-1.0,0.016887346728650283,2.0,2
21.775379180908203,-38.05442428588867,1.8850178718566895,-0.0,-0.0,-1.0,0.01579529790624521,1.0,2
20.22918128967285,-36.946224212646484,1.9271190166473389,-0.0,-0.0,-1.0,0.10843509216987207,1.0,2
22.635759353637695,-37.758827209472656,2.379534959793091,-0.0,-0.0,-1.0,0.1305956673992277,2.0,3
22.242752075195312,-38.77391052246094,2.311007261276245,-0.0,-0.0,-1.0,0.07680237112710006,1.0,3
21.59650421142578,-38.97075653076172,2.2822303771972656,-0.0,-0.0,-1.0,0.15186260938778634,2.0,3
21.76026153564453,-37.581459045410156,1.8137798309326172,-0.0,-0.0,-1.0,0.019418624961680397,1.0,2
21.90532684326172,-37.44306182861328,1.7626519203186035,-0.0,-0.0,-1.0,0.024055786341330633,1.0,2
21.564910888671875,-37.41499710083008,1.75718355178833,-0.24956139909443326,0.22072544320302323,-0.9428676401302876,0.010451799665795567,3.0,2
21.778709411621094,-37.7274169921875,1.9406321048736572,-0.0,-0.0,-1.0,0.02357909144478315,1.0,2
21.941482543945312,-37.72220230102539,1.9344680309295654,-0.0,-0.0,-1.0,0.051543822340533264,1.0,2
21.667724609375,-38.02739715576172,1.9367897510528564,-0.0,-0.0,-1.0,0.012207117442460785,1.0,2
21.52906608581543,-38.17741394042969,1.9379847049713135,-0.0,-0.0,-1.0,0.01193467601472975,1.0,2
22.436256408691406,-38.81359100341797,1.9884438514709473,-0.0,-0.0,-1.0,0.04743249171423679,1.0,2
22.65924072265625,-38.59663391113281,1.9693188667297363,-0.0,-0.0,-1.0,0.08886619608917232,2.0,2
21.97904396057129,-38.58502197265625,2.0541481971740723,-0.0,-0.0,-1.0,0.11606064789317416,2.0,3
20.288734436035156,-37.34800338745117,1.9678583145141602,-0.0,-0.0,-1.0,0.09101902465221098,1.0,2
22.696571350097656,-37.12459945678711,1.7964167594909668,-0.0,-0.0,-1.0,0.03227377879122052,1.0,2
22.056310653686523,-37.67143249511719,1.9412941932678223,-0.0,-0.0,-1.0,0.05973355774988022,1.0,2
22.287519454956055,-37.58543395996094,1.9575552940368652,-0.0,-0.0,-1.0,0.07350686277073104,1.0,2
22.439950942993164,-37.56935119628906,1.9628949165344238,-0.0,-0.0,-1.0,0.08919736882981619,1.0,2
22.090635299682617,-37.17049026489258,1.8046393394470215,-0.0,-0.0,-1.0,0.021105214398430133,1.0,2
22.29741668701172,-37.06757736206055,1.818678855895996,-0.0,-0.0,-1.0,0.017648999592307313,1.0,2
20.909698486328125,-38.240394592285156,1.8743553161621094,-0.0,-0.0,-1.0,0.031083265552299743,1.0,2
20.901744842529297,-38.631202697753906,1.8311519622802734,-0.0,-0.0,-1.0,0.03784994421827015,1.0,2
22.524084091186523,-37.51082229614258,1.875861644744873,-0.0,-0.0,-1.0,0.08963109778315666,1.0,2
20.86089324951172,-38.22952651977539,1.8637800216674805,-0.0,-0.0,-1.0,0.04272674175710535,1.0,2
22.481792449951172,-37.195255279541016,1.8395709991455078,-0.0,-0.0,-1.0,0.031670533442254886,1.0,2
20.598831176757812,-36.869102478027344,2.020444393157959,-0.0,-0.0,-1.0,0.12228655528254266,2.0,3
20.347087860107422,-37.436466217041016,2.2363805770874023,-0.0,-0.0,-1.0,0.09650975313406727,1.0,3
22.571876525878906,-37.31083297729492,1.9237775802612305,-0.0,-0.0,-1.0,0.0453882580159897,1.0,2
21.954818725585938,-38.653282165527344,1.966501235961914,-0.0,-0.0,-1.0,0.12410960379197666,1.0,2
20.265491485595703,-37.57278823852539,2.384100914001465,-0.0,-0.0,-1.0,0.07547954340440843,1.0,3
22.617080688476562,-37.32718276977539,1.9995927810668945,-0.0,-0.0,-1.0,0.05785428063481364,1.0,2
21.97991180419922,-38.61162185668945,2.0892248153686523,-0.0,-0.0,-1.0,0.17660884430226467,2.0,3
22.70425033569336,-37.95950698852539,1.9776616096496582,-0.0,-0.0,-1.0,0.11080261647662058,1.0,2
22.653949737548828,-38.55401611328125,1.9789056777954102,-0.0,-0.0,-1.0,0.09356799351798788,2.0,2
22.4005126953125,-38.88114929199219,2.016822338104248,-0.0,-0.0,-1.0,0.062092775929784856,1.0,3
21.770174026489258,-38.73768997192383,2.4169578552246094,-0.0,-0.0,-1.0,0.08565575481950255,1.0,3
21.932373046875,-38.69905090332031,2.2568259239196777,-0.0,-0.0,-1.0,0.18506043891498541,1.0,3
20.252544403076172,-37.50876998901367,2.2523422241210938,-0.0,-0.0,-1.0,0.0841443181110851,1.0,3
