x,y,z,nx,ny,nz,curvature,density,label
28.786252975463867,3.578138589859009,-0.6133437156677246,0.6862788628233807,-0.6481904843792408,-0.32995517635286875,0.25041467651484167,4.0,0
28.42434310913086,3.883366107940674,-0.5612587928771973,-0.0,-0.0,-1.0,0.22361430853619632,2.0,0
28.6885929107666,3.7023732662200928,-0.6016073226928711,-0.0,-0.0,-1.0,0.1891460493497901,1.0,0
28.420801162719727,4.23856258392334,-0.5815048217773438,-0.0,-0.0,-1.0,0.1659770277734724,1.0,0
28.318899154663086,4.487145900726318,-0.5769424438476562,0.2646392543989275,0.48654020495711336,0.8326131718820389,0.18946566695566724,3.0,0
28.967294692993164,5.060096263885498,-0.7365341186523438,-0.0,-0.0,-1.0,0.19545980451406847,2.0,0
28.98866844177246,5.151570796966553,-0.7464103698730469,-0.0,-0.0,-1.0,0.1949917502598096,1.0,0
28.93564796447754,5.513476848602295,-0.7595934867858887,-0.0,-0.0,-1.0,0.21178520418302407,1.0,0
28.43138313293457,3.9961798191070557,-0.6470355987548828,-0.6573402550022704,0.5656242369085618,-0.49796888635250836,0.2207731394006656,5.0,0
28.685869216918945,3.8724424839019775,-0.690274715423584,-0.0,-0.0,-1.0,0.2719328380217715,1.0,0
29.162832260131836,3.819315195083618,-0.7837591171264648,-0.029316157313021764,-0.2156775203911698,-0.9760244720898724,0.20202103096712068,3.0,0
28.49039649963379,4.289532661437988,-0.6796274185180664,0.1783196921031167,0.9653963938444641,-0.19029421998672139,0.2475988443555543,6.0,0
29.05207633972168,4.756336212158203,-0.8272228240966797,-0.0,-0.0,-1.0,0.08435893021497821,1.0,0
29.04623794555664,5.019143104553223,-0.845515251159668,-0.0,-0.0,-1.0,0.25027453798199734,2.0,0
29.224252700805664,5.366057872772217,-0.9078388214111328,-0.0,-0.0,-1.0,0.17081352760913102,2.0,0
28.674793243408203,3.5883429050445557,-0.6516036987304688,-0.0,-0.0,-1.0,0.15536057271993037,1.0,0
28.49166488647461,3.681922674179077,-0.620849609375,-0.0,-0.0,-1.0,0.23659380000536603,1.0,0
28.391141891479492,4.218881130218506,-0.6512546539306641,-0.0,-0.0,-1.0,0.25412240169415884,2.0,0
28.504615783691406,4.160503387451172,-0.6698179244995117,-0.0,-0.0,-1.0,0.2266952960569613,1.0,0
28.9491024017334,4.780564785003662,-0.8279457092285156,-0.0,-0.0,-1.0,0.054224268464823165,2.0,0
28.963499069213867,4.988489627838135,-0.8528604507446289,-0.0,-0.0,-1.0,0.20421161011283104,2.0,0
28.91483497619629,5.3090691566467285,-0.8769497871398926,-0.0,-0.0,-1.0,0.1802067194779524,1.0,0
29.236440658569336,5.258727073669434,-0.9398918151855469,-0.0,-0.0,-1.0,0.15979481649796365,1.0,0
28.27615737915039,3.8429853916168213,-0.5897560119628906,-0.0,-0.0,-1.0,0.22909258454806303,1.0,0
28.420780181884766,3.8688721656799316,-0.6234340667724609,-0.0,-0.0,-1.0,0.2107699469553061,2.0,0
28.316482543945312,4.164433002471924,-0.6298885345458984,-0.0,-0.0,-1.0,0.16373980695612247,1.0,0
29.822620391845703,3.8607304096221924,-0.3897557258605957,0.7567409645120393,0.6218852935141047,-0.20149886932750857,0.14841583080808898,6.0,0
29.842105865478516,5.518531322479248,-0.5607385635375977,-0.0,-0.0,-1.0,0.23717923006786784,2.0,0
29.80870246887207,4.134387969970703,-0.6003561019897461,-0.0,-0.0,-1.0,0.16040531575036407,1.0,0
30.04313850402832,4.596373558044434,-0.6897177696228027,-0.9890498071262204,-0.078267397798331,0.12511871748649028,0.23982175547273202,4.0,0
29.30014419555664,4.689373016357422,-0.5434055328369141,-0.0,-0.0,-1.0,0.2090602612474803,1.0,0
29.73253059387207,5.444469451904297,-0.7047028541564941,-0.9794331511632371,0.17887447931960887,-0.09335214539896988,0.1692923429248673,5.0,0
29.05034637451172,3.630918264389038,-0.39926910400390625,-0.0,-0.0,-1.0,0.20229492701721302,2.0,0
28.947847366333008,3.7333264350891113,-0.3861961364746094,0.4848356405709613,0.23453094455012738,-0.8425732239280873,0.22799328433136423,4.0,0
29.997922897338867,4.590259075164795,-0.8009042739868164,-0.0,-0.0,-1.0,0.16293845859215947,2.0,0
30.042762756347656,5.229440212249756,-0.8959379196166992,-0.0,-0.0,-1.0,0.11435102505455465,1.0,0
29.328763961791992,5.276120662689209,-0.755347728729248,-0.0,-0.0,-1.0,0.19855789496613885,1.0,0
29.023300170898438,5.362823486328125,-0.7045679092407227,-0.0,-0.0,-1.0,0.2356284845622699,1.0,0
28.96019744873047,3.6499264240264893,-0.4638209342956543,0.2999837058339613,-0.3818071430684197,-0.8742042563017263,0.2618995789581191,4.0,0
29.041183471679688,3.744051933288574,-0.49263668060302734,-0.0,-0.0,-1.0,0.19599399113525157,2.0,0
28.68307113647461,3.9966208934783936,-0.4508519172668457,-0.0,-0.0,-1.0,0.17962499741845994,2.0,0
28.468482971191406,4.218307018280029,-0.43541574478149414,-0.2827102888733954,0.5696648111156133,-0.7717233283643399,0.21359726697534834,5.0,0
28.49021339416504,4.467304706573486,-0.4728889465332031,0.6122330033903995,0.4580685567792537,0.6444718355752587,0.2395384803476012,3.0,0
29.104534149169922,3.441129446029663,-0.5555720329284668,0.18614977858389026,-0.9809760299997,0.05508437618051213,0.25299801164897306,7.0,0
29.220272064208984,3.6766250133514404,-0.6169652938842773,-0.0,-0.0,-1.0,0.27739846738372786,1.0,0
28.90231704711914,3.8158931732177734,-0.5695505142211914,-0.0,-0.0,-1.0,0.20952784342315015,1.0,0
29.844863891601562,4.880613327026367,-0.9474411010742188,-0.0,-0.0,-1.0,0.0386064357149413,2.0,0
29.053104400634766,4.881436347961426,-0.7769784927368164,-0.0,-0.0,-1.0,0.10715719677197454,1.0,0
29.392784118652344,5.333500862121582,-0.9280490875244141,0.7297509652409712,-0.4498943873006371,-0.5148383911532387,0.19651272409746778,3.0,0
29.04694366455078,5.0320892333984375,-0.8014469146728516,-0.8527843002284535,-0.5195546387750029,-0.05312169623838483,0.2323153903347221,5.0,0
29.26278305053711,5.383369445800781,-0.9089431762695312,0.3665052508053583,-0.8411048766315526,-0.3977643619515473,0.12235502164045434,3.0,0
28.554611206054688,3.9109437465667725,-0.5090131759643555,-0.7737568479745827,0.628873220882692,0.07628113966812133,0.17101392082535374,3.0,0
28.507369995117188,4.159150123596191,-0.5387701988220215,-0.788805655833977,-0.22117976434814657,0.5734676531132579,0.1983305662201008,4.0,0
28.47378921508789,4.374853134155273,-0.5668540000915527,0.19365677894256614,0.22627737080827265,-0.9546180405951302,0.2326076751963652,6.0,0
28.452369689941406,4.512087821960449,-0.5850563049316406,0.39827730791254456,0.8749630278764035,0.27534503055492443,0.20876828850736726,4.0,0
28.184856414794922,4.9329833984375,-0.5990862846374512,-0.0,-0.0,-1.0,0.09544692245824658,1.0,0
27.71481704711914,5.303737640380859,-0.5637683868408203,-0.0,-0.0,-1.0,0.10358034548583994,1.0,0
30.085874557495117,3.1822104454040527,-0.6157932281494141,-0.10814734705752148,0.7309446893038756,-0.6738130397245812,0.16109772695369254,4.0,0
30.20055389404297,4.644902229309082,-0.7187809944152832,-0.0,-0.0,-1.0,0.13589095632244505,2.0,0
29.099815368652344,3.4905500411987305,-0.4010167121887207,0.82066193136429,-0.36018660076114645,-0.44359847502168426,0.16206838682587463,8.0,0
29.090282440185547,3.6733875274658203,-0.4078841209411621,0.8556283119693453,-0.517037665291608,0.023921630928760877,0.19059503108523237,8.0,0
28.9429988861084,3.767138957977295,-0.37850141525268555,0.4848356405709613,0.23453094455012738,-0.8425732239280873,0.220164878609634,4.0,0
29.782711029052734,5.362874507904053,-0.6682009696960449,-0.5617486379858828,0.8273003738260842,0.0035438944999715617,0.23973831113364744,6.0,0
29.98609161376953,4.823574542999268,-0.9357976913452148,-0.0,-0.0,-1.0,0.1299542689145704,2.0,0
30.03021240234375,4.977118015289307,-0.9540176391601562,0.9694294642390907,-0.21898526948076574,0.11068859749561288,0.10378038302431018,3.0,0
29.94483184814453,5.081421852111816,-0.93768310546875,-0.052486700763141984,-0.6063874634585256,-0.7934351834922219,0.11191078244726105,3.0,0
29.100139617919922,3.4048540592193604,-0.6606521606445312,-0.6810113149182829,0.20883401929869738,0.701863192749714,0.24544610338884262,3.0,0
29.280986785888672,3.69180965423584,-0.7147297859191895,-0.0,-0.0,-1.0,0.2257067977051815,2.0,0
28.858192443847656,3.572967529296875,-0.6047172546386719,0.04537722783663238,-0.012467086301296577,-0.9988921257838698,0.18769495766368785,6.0,0
28.614376068115234,3.8097312450408936,-0.5510063171386719,-0.0,-0.0,-1.0,0.21791067938105085,2.0,0
29.34393310546875,4.84237003326416,-0.7757401466369629,0.060242878339442245,-0.5019769255937008,-0.8627803670580803,0.224163346133504,3.0,0
29.41150665283203,5.360929489135742,-0.8186860084533691,-0.0,-0.0,-1.0,0.10009081995117744,2.0,0
28.46810531616211,3.735079765319824,-0.511751651763916,-0.0,-0.0,-1.0,0.22380968664916787,1.0,0
28.454727172851562,4.06834077835083,-0.5202102661132812,-0.46127229737045256,0.7071738923197802,-0.5358478829853451,0.26405980945958263,4.0,0
28.546566009521484,4.465909004211426,-0.5590524673461914,-0.08200875743163542,-0.0004501030578408299,-0.996631507183952,0.2629842388704211,5.0,0
28.977813720703125,5.235196590423584,-0.7035131454467773,-0.0,-0.0,-1.0,0.18654235723425472,1.0,0
29.141910552978516,5.5077996253967285,-0.7592592239379883,-0.0,-0.0,-1.0,0.22712970894153828,2.0,0
28.046123504638672,5.0015482902526855,-0.4584956169128418,-0.0,-0.0,-1.0,0.06711083132643707,1.0,0
30.058773040771484,3.2804839611053467,-0.5682177543640137,-0.0,-0.0,-1.0,0.21296489321329928,2.0,0
30.06330108642578,3.6409409046173096,-0.5672698020935059,-0.0,-0.0,-1.0,0.13308998427831434,2.0,0
29.759899139404297,3.7206459045410156,-0.49368906021118164,-0.0,-0.0,-1.0,0.13736667482355652,1.0,0
30.029727935791016,4.7246222496032715,-0.5630016326904297,0.5723244408451942,-0.39125444910570795,-0.7206696125591983,0.2342737688118013,3.0,0
29.164203643798828,3.2494912147521973,-0.35238075256347656,-0.0,-0.0,-1.0,0.1748022192204769,2.0,0
29.05998992919922,3.4614477157592773,-0.32562971115112305,-0.6597184742595698,0.679108424527128,-0.3218435683012905,0.1611264633486284,9.0,0
29.033599853515625,3.8721275329589844,-0.31784534454345703,-0.7088806695438782,0.6549032154895759,-0.26189687796618905,0.1989527722547606,5.0,0
30.13445281982422,3.4241340160369873,-0.6171910762786865,-0.0,-0.0,-1.0,0.13573671506260127,1.0,0
29.06578254699707,3.321136236190796,-0.4062490463256836,-0.13297874564636133,0.8927932667406422,0.4303914916316225,0.22337556904466954,3.0,0
29.044286727905273,3.6991994380950928,-0.4076530933380127,-0.28232504072056247,-0.830493978507734,-0.48017946961998315,0.17894415503382893,7.0,0
30.118942260742188,4.744039535522461,-0.4785454273223877,-0.0,-0.0,-1.0,0.12524875301899438,1.0,0
29.664337158203125,5.518436431884766,-0.4058959484100342,-0.0,-0.0,-1.0,0.183868796922498,2.0,0
28.038768768310547,4.889793395996094,-0.8187663555145264,-0.9588142096757885,-0.21496554529970474,-0.18564785390031638,0.15498328771822886,3.0,0
29.15329360961914,3.3979763984680176,-0.32515716552734375,-0.11281017372343366,0.932566977418811,-0.3429179163188056,0.2476296258243199,6.0,0
28.910953521728516,3.2686080932617188,-0.28639960289001465,-0.0,-0.0,-1.0,0.21418931375741337,2.0,0
28.972774505615234,3.886836051940918,-0.29015111923217773,0.2692812395867197,0.7308677539876883,-0.627152246418389,0.16294974000223078,6.0,0
30.007137298583984,3.253727674484253,-0.8511664867401123,-0.0,-0.0,-1.0,0.14600705925096888,1.0,0
29.692684173583984,5.32122802734375,-0.7553188800811768,0.826042639259177,-0.09089079156369116,-0.556230547646081,0.18229193163857424,3.0,0
29.59230613708496,5.320468425750732,-0.7379424571990967,-0.0,-0.0,-1.0,0.17720414691261968,1.0,0
29.149507522583008,3.506863594055176,-0.6961865425109863,-0.0,-0.0,-1.0,0.18086700884134338,2.0,0
29.238847732543945,4.688389301300049,-0.6853487491607666,-0.0,-0.0,-1.0,0.24720410373274979,2.0,0
29.08453369140625,3.4419360160827637,-0.6868278980255127,-0.9024954568601885,-0.10760618166420881,0.4170405975613986,0.20890016048945576,4.0,0
28.521411895751953,3.7602362632751465,-0.5811028480529785,-0.0,-0.0,-1.0,0.18038246565960184,1.0,0
28.465768814086914,4.051938533782959,-0.5644030570983887,-0.9631224012583918,-0.05970142519577919,-0.2623565894424271,0.19671586421846224,4.0,0
28.498703002929688,4.401415824890137,-0.5626659393310547,-0.21361114952719892,0.2988297786522185,-0.9300919525446583,0.26753396101327187,4.0,0
28.567123413085938,4.6364922523498535,-0.5700943470001221,0.5872018070095214,0.8040855013478104,-0.09295452849104888,0.2342389613862952,3.0,0
27.95774269104004,3.309852361679077,-0.4968113899230957,0.3461544048424725,0.8806866698941508,-0.3233699390464497,0.17472056252120322,6.0,0
28.296375274658203,3.8439536094665527,-0.5401489734649658,-0.0,-0.0,-1.0,0.16896280125432236,2.0,0
28.05467987060547,5.048020362854004,-0.47522592544555664,-0.0,-0.0,-1.0,0.07692774808157006,1.0,0
29.96607208251953,3.1441471576690674,-0.8179090023040771,-0.0,-0.0,-1.0,0.12639345324766782,2.0,0
30.04128646850586,4.555227756500244,-0.7557246685028076,-0.5352298945028776,-0.8421559394747309,-0.06559217665142447,0.18498560687044927,4.0,0
29.56548309326172,5.299591541290283,-0.6431639194488525,0.022460089535588097,-0.8976091482667561,-0.4402196739423192,0.1256894753087836,3.0,0
29.62799072265625,5.368683338165283,-0.6510028839111328,-0.0,-0.0,-1.0,0.18638135723431962,2.0,0
28.891189575195312,3.567434787750244,-0.6132946014404297,-0.20348771927841267,0.5293731171216245,-0.8236242170867757,0.2033261573911546,4.0,0
28.43084716796875,3.955536127090454,-0.5145955085754395,0.12727046913300483,0.9577234493104291,-0.258007795090767,0.18659976709296736,6.0,0
28.511367797851562,4.296090126037598,-0.5104620456695557,-0.0,-0.0,-1.0,0.24886976519132528,2.0,0
28.514720916748047,4.5758891105651855,-0.49727559089660645,-0.0,-0.0,-1.0,0.21289758136017656,2.0,0
27.725074768066406,3.362513542175293,-0.4301419258117676,-0.0,-0.0,-1.0,0.27437830551911857,1.0,0
29.937620162963867,3.172682762145996,-0.8306317329406738,-0.0,-0.0,-1.0,0.12170540826188365,2.0,0
29.825000762939453,4.707825660705566,-0.7063498497009277,-0.0,-0.0,-1.0,0.12759608608880033,1.0,0
29.663673400878906,5.378679275512695,-0.6399154663085938,0.051380380568926895,0.4314938774383421,-0.9006514809990694,0.2841712222847219,5.0,0
29.337818145751953,4.767793655395508,-0.6216943264007568,0.9884318029263651,0.1515657152248903,0.0055140667481361995,0.21422949625720433,5.0,0
28.840816497802734,3.6020565032958984,-0.6185002326965332,-0.6183703238210505,-0.5057781232756706,-0.6015036430755758,0.17046252762929334,5.0,0
28.421226501464844,4.015361785888672,-0.5197145938873291,-0.36726975225429165,-0.5512162641007141,-0.7491819266839819,0.20990358556057864,4.0,0
28.60500717163086,4.2355756759643555,-0.5347559452056885,-0.0,-0.0,-1.0,0.21063993075874402,2.0,0
28.28697967529297,4.078251838684082,-0.4930744171142578,-0.0,-0.0,-1.0,0.14015334719376935,1.0,0
27.85450553894043,3.4439284801483154,-0.46856164932250977,-0.0,-0.0,-1.0,0.11292465240056565,1.0,0
28.64458465576172,5.385230541229248,-0.8253581523895264,-0.0,-0.0,-1.0,0.0916894392332343,2.0,0
28.304065704345703,4.676670074462891,-0.8199918270111084,-0.0,-0.0,-1.0,0.07154549558833659,2.0,0
28.278663635253906,4.751235008239746,-0.8096671104431152,-0.11489062511691253,-0.5220285424206018,-0.845154627957788,0.070873451474559,3.0,0
28.480224609375,5.479587554931641,-0.7898011207580566,-0.0,-0.0,-1.0,0.16390274136435506,2.0,0
29.2193603515625,3.429281234741211,-0.33319520950317383,0.5769376479692724,-0.25415652577589315,-0.7762392741682244,0.11028407303956964,4.0,0
30.139690399169922,5.002148151397705,-0.975341796875,-0.0,-0.0,-1.0,0.09532612251628979,2.0,0
29.975671768188477,4.960072040557861,-0.950068473815918,-0.0,-0.0,-1.0,0.09024132646823457,1.0,0
29.282779693603516,5.400139331817627,-0.8073296546936035,-0.0,-0.0,-1.0,0.13278261400743308,2.0,0
29.126941680908203,4.706112861633301,-0.822406530380249,-0.3056308119136508,-0.6729069537065208,-0.6736364289900099,0.16628374346388666,3.0,0
29.253074645996094,5.3328070640563965,-0.8061103820800781,-0.0,-0.0,-1.0,0.21487959230922352,2.0,0
28.992889404296875,4.4801554679870605,-0.8143796920776367,-0.0,-0.0,-1.0,0.12516519552107744,2.0,0
28.996679306030273,4.844043254852295,-0.7920150756835938,-0.0,-0.0,-1.0,0.1399730903694633,2.0,0
29.106653213500977,5.182079315185547,-0.7900927066802979,-0.0,-0.0,-1.0,0.17535395200318574,1.0,0
28.970672607421875,5.56786584854126,-0.7449917793273926,-0.0,-0.0,-1.0,0.2369519416267397,1.0,0
28.528186798095703,4.453784942626953,-0.7382774353027344,-0.5064172962069353,-0.6350882779736882,-0.5832704358039008,0.16279254984810565,5.0,0
28.38511085510254,4.209144592285156,-0.730966329574585,-0.0,-0.0,-1.0,0.1388104500451681,2.0,0
28.34856605529785,4.323296070098877,-0.7170345783233643,-0.0,-0.0,-1.0,0.17495591292879367,2.0,0
29.172834396362305,3.412550926208496,-0.16550660133361816,-0.3610855219214032,0.6802945979235067,0.6378216881659343,0.13330678212317992,5.0,0
29.741458892822266,5.035150527954102,-0.9709737300872803,-0.0,-0.0,-1.0,0.0859811960988446,1.0,0
29.287456512451172,5.411831378936768,-0.8632431030273438,-0.6774517133212612,0.3858707684314748,-0.6262291323375107,0.12034073088721259,3.0,0
29.1346435546875,5.0840020179748535,-0.8670639991760254,-0.0,-0.0,-1.0,0.22019787360385754,1.0,0
29.017353057861328,5.405339241027832,-0.8193340301513672,-0.0,-0.0,-1.0,0.24536059811170716,1.0,0
28.865848541259766,5.480483531951904,-0.7878963947296143,-0.0,-0.0,-1.0,0.16991785541355767,1.0,0
28.621593475341797,4.598395347595215,-0.8283424377441406,-0.0,-0.0,-1.0,0.1071550361494769,1.0,0
29.846515655517578,3.8341455459594727,-0.3156414031982422,-0.4148608832403382,0.18829394304692038,0.8901886533588762,0.0987061782572167,8.0,0
29.201526641845703,3.414588451385498,-0.2714407444000244,0.4094727173239939,0.04396404004046713,-0.911262452288376,0.19064497372934236,7.0,0
29.09555435180664,3.3770151138305664,-0.261552095413208,-0.4175535910177103,-0.6138937063539905,-0.6699130659474968,0.28709197671705006,9.0,0
29.94422149658203,4.938806056976318,-0.9121737480163574,-0.0,-0.0,-1.0,0.17470115652682874,2.0,0
29.932598114013672,5.263395309448242,-0.8858242034912109,-0.0,-0.0,-1.0,0.29240230746957097,2.0,0
28.977672576904297,4.544065952301025,-0.7930886745452881,-0.0,-0.0,-1.0,0.08310893196259238,2.0,0
28.974624633789062,5.021102428436279,-0.754040002822876,-0.0,-0.0,-1.0,0.16657084054683677,2.0,0
28.581886291503906,4.46797513961792,-0.738271951675415,0.8929095424815533,0.3503619054544872,-0.28277037353952816,0.14164865100109433,3.0,0
28.362751007080078,4.164954662322998,-0.7307145595550537,0.610233862377714,-0.3129214051009857,-0.7278013653719,0.22013037225960197,3.0,0
28.435527801513672,4.329658508300781,-0.7275466918945312,-0.0,-0.0,-1.0,0.22241665024701,2.0,0
28.371746063232422,4.353540420532227,-0.7157173156738281,-0.40381363740341153,0.03486513598856414,-0.9141766615592005,0.21030669199452723,4.0,0
30.080768585205078,3.6003594398498535,-0.2385568618774414,0.20926215022565628,0.9389654602523662,-0.2730443497602494,0.1095279147650137,5.0,0
29.14319610595703,3.3868026733398438,-0.1429576873779297,-0.46034817987094395,-0.8231441774443364,-0.33243528156469215,0.16617442486563677,6.0,0
29.050579071044922,3.5055809020996094,-0.12277960777282715,-0.9920951510932627,0.06252938360826756,0.10879929854004727,0.2673586053562542,7.0,0
30.03781509399414,4.731967449188232,-0.5605669021606445,-0.0,-0.0,-1.0,0.2322272408891827,2.0,0
29.735816955566406,3.7731800079345703,-0.5717370510101318,-0.774497639522516,0.6295644439093699,0.061660500639683334,0.2668951287559046,10.0,0
29.309059143066406,4.928016185760498,-0.44492387771606445,-0.0,-0.0,-1.0,0.1814274123711722,1.0,0
29.154884338378906,3.315885543823242,-0.5192248821258545,-0.9217749014089683,-0.37657996497316004,-0.09229605145021298,0.097484271917407,3.0,0
28.987770080566406,3.680227279663086,-0.4723324775695801,0.4659331578584992,-0.8325517441057897,0.2996062178834319,0.18924242005943187,5.0,0
28.82122802734375,4.239304542541504,-0.414201021194458,-0.0,-0.0,-1.0,0.15960257048993642,1.0,0
28.52178955078125,3.2375736236572266,-0.4368565082550049,-0.9206338983623223,-0.33652450282178054,-0.19795071150856355,0.11538614470307539,5.0,0
29.944358825683594,4.910223960876465,-0.8909115791320801,-0.0,-0.0,-1.0,0.1188871677183258,2.0,0
29.87301254272461,5.480955123901367,-0.8510520458221436,0.8083554520253039,0.5396455130064047,0.2352534451884208,0.18913436635552733,3.0,0
29.2584285736084,4.907113075256348,-0.7832245826721191,-0.0,-0.0,-1.0,0.15395425402937615,1.0,0
29.158447265625,4.53557014465332,-0.788322925567627,-0.9130751614184448,-0.33415838063646774,0.233734734798007,0.1402804200350816,3.0,0
29.162248611450195,4.744370460510254,-0.7771070003509521,-0.0,-0.0,-1.0,0.15016467309116502,2.0,0
29.05337142944336,5.283750534057617,-0.7310242652893066,-0.0,-0.0,-1.0,0.19341779220411326,2.0,0
28.413230895996094,4.051973342895508,-0.702664852142334,0.40257401098005957,0.48492242805899743,-0.7763919142087928,0.25529632534133556,4.0,0
28.50606918334961,4.456296920776367,-0.6920533180236816,0.2825689182216835,0.7954665418328056,-0.5360856156245803,0.1592182883862806,3.0,0
28.40544891357422,4.181541442871094,-0.6933400630950928,-0.4798162381743022,0.15829331909511304,-0.8629713800086962,0.2197542107016948,3.0,0
29.881893157958984,4.032782554626465,-0.10885858535766602,0.9023500783096979,0.25631890917278916,-0.346503900374806,0.09830190443993818,11.0,0
29.981128692626953,3.323955535888672,-0.6029112339019775,-0.0,-0.0,-1.0,0.16964552474921146,2.0,0
29.726318359375,3.8257150650024414,-0.5182309150695801,-0.8039254586759657,-0.28944621219663264,-0.5195428251238393,0.24712337840977797,7.0,0
29.039775848388672,3.466726303100586,-0.4945540428161621,-0.0,-0.0,-1.0,0.23787347195090014,2.0,0
28.930660247802734,3.6193761825561523,-0.4655160903930664,0.643549924390717,-0.645069727288965,0.4119812395632141,0.1752546457936466,3.0,0
28.75861358642578,3.895432472229004,-0.4155442714691162,-0.0,-0.0,-1.0,0.09754429053511089,1.0,0
28.625545501708984,4.146074295043945,-0.372546911239624,-0.0,-0.0,-1.0,0.13354036377451164,1.0,0
27.951770782470703,3.3740339279174805,-0.4019906520843506,-0.0,-0.0,-1.0,0.1417640195168658,1.0,0
28.823692321777344,5.11622428894043,-0.9465644359588623,-0.0,-0.0,-1.0,0.10630613518852738,1.0,0
28.41482162475586,5.634115219116211,-0.8597736358642578,-0.0,-0.0,-1.0,0.1354333938455547,1.0,0
27.980636596679688,4.744455337524414,-0.8650522232055664,-0.0,-0.0,-1.0,0.0770180260771463,1.0,0
27.71648406982422,4.808375358581543,-0.8273301124572754,-0.0,-0.0,-1.0,0.043458847767544835,1.0,0
29.871505737304688,3.944704055786133,-0.30933260917663574,0.130263530521687,0.9264715159115339,-0.3531033033272417,0.1247690490448826,4.0,0
29.084327697753906,3.5442028045654297,-0.25653862953186035,-0.48927953615752273,-0.2882169982345428,-0.8231260519666164,0.2272547002621443,4.0,0
29.060409545898438,3.458160400390625,-0.25913166999816895,-0.8173228424248713,-0.07930385790559469,0.5706963022237117,0.17873202584885012,7.0,0
30.116283416748047,3.3603200912475586,-0.5489788055419922,-0.8366061068848643,-0.05658552692439234,-0.5448745727831674,0.17108931110917516,4.0,0
29.128803253173828,3.4411439895629883,-0.45471620559692383,0.3158109053809321,-0.13655442196097634,-0.938944280500914,0.16036137297225705,4.0,0
29.065582275390625,3.8781185150146484,-0.4149203300476074,-0.0,-0.0,-1.0,0.22258930855687492,1.0,0
28.986515045166016,3.7851638793945312,-0.41509151458740234,0.3651848250993195,-0.4612674825692111,-0.8086237400926605,0.27918794685177556,3.0,0
29.112735748291016,3.4575672149658203,-0.30674242973327637,-0.7995919354174246,-0.45354700716667934,0.39363415642645316,0.1703085722245778,9.0,0
30.068435668945312,4.663815498352051,-0.8275575637817383,-0.9055424976088815,0.11479157497398106,-0.40843075219584213,0.15713385979144895,5.0,0
29.20870590209961,4.578742027282715,-0.7510209083557129,-0.8776335204648713,0.47201283301887403,0.08344632539502861,0.17438662816038575,4.0,0
29.330406188964844,4.754596710205078,-0.7480769157409668,-0.0,-0.0,-1.0,0.19004833480579184,2.0,0
28.601909637451172,4.444091796875,-0.7046360969543457,-0.5476096859455254,-0.8007884358362214,-0.2426139173452778,0.15630880003606173,3.0,0
28.375789642333984,4.141969680786133,-0.7098996639251709,0.2573482659653176,-0.6769541537018369,-0.6895686650294328,0.2201660753862303,5.0,0
28.45290756225586,4.397292137145996,-0.6946744918823242,-0.27770803946839756,0.7328217633987917,0.6211686630084492,0.2521110013746974,6.0,0
30.126754760742188,3.3316879272460938,-0.5709371566772461,-0.0,-0.0,-1.0,0.1705549395437669,2.0,0
28.96725082397461,3.735147476196289,-0.44968628883361816,0.4196322832816846,0.3777928616695854,-0.8253370829541741,0.2225089011866718,4.0,0
29.180599212646484,3.5920028686523438,-0.4194660186767578,-0.0,-0.0,-1.0,0.15970154128508274,2.0,0
28.65152359008789,3.318449020385742,-0.39047718048095703,-0.0,-0.0,-1.0,0.15440145182439885,1.0,0
29.07206916809082,3.9429244995117188,-0.39580416679382324,-0.0,-0.0,-1.0,0.1745225049587459,1.0,0
27.81281089782715,3.2949752807617188,-0.3277168273925781,-0.0,-0.0,-1.0,0.20890568800779355,1.0,0
29.009506225585938,4.460407257080078,-0.753685712814331,-0.8651779165107609,-0.5008882452759584,-0.02404451135853157,0.16835899229141763,3.0,0
29.19858169555664,4.787687301635742,-0.7519075870513916,-0.15555712489462903,-0.5189838485250247,-0.8405104079454762,0.1867938242025809,5.0,0
28.394336700439453,3.792570114135742,-0.7402284145355225,-0.0,-0.0,-1.0,0.1122418063567798,1.0,0
28.8023681640625,4.445676803588867,-0.7374389171600342,0.5945014678611428,0.11567699181249814,-0.7957303803903416,0.21586563923054694,4.0,0
29.114471435546875,4.7120208740234375,-0.7489159107208252,-0.0,-0.0,-1.0,0.14539328648371516,2.0,0
27.718830108642578,4.282289505004883,-0.6591660976409912,-0.6712005875133567,-0.23268558575485324,-0.7038090575601069,0.17098133884519917,3.0,0
28.074718475341797,5.167440414428711,-0.9204914569854736,-0.0,-0.0,-1.0,0.09248777954647966,1.0,0
27.94316864013672,4.589942932128906,-0.6704943180084229,-0.0,-0.0,-1.0,0.079255355049569,2.0,0
28.760543823242188,4.820320129394531,-0.7335429191589355,-0.0,-0.0,-1.0,0.1810403189977789,2.0,0
29.180404663085938,4.796295166015625,-0.7744417190551758,-0.08525022549063335,-0.6148594740333997,-0.7840154502592199,0.14856855649123984,4.0,0
29.316238403320312,5.131496429443359,-0.769660472869873,-0.0,-0.0,-1.0,0.1867390486621669,1.0,0
29.47500228881836,5.101753234863281,-0.7864682674407959,-0.0,-0.0,-1.0,0.1954412697231122,1.0,0
27.928524017333984,5.524143218994141,-0.6178946495056152,-0.0,-0.0,-1.0,0.12118281804593374,1.0,0
28.639991760253906,5.414007186889648,-0.8698122501373291,-0.0,-0.0,-1.0,0.10314718652681366,2.0,0
28.901338577270508,5.619354248046875,-0.8710014820098877,-0.0,-0.0,-1.0,0.17229358803002454,2.0,0
29.084552764892578,3.568756103515625,-0.21087098121643066,-0.0,-0.0,-1.0,0.21820469548447768,1.0,0
28.337772369384766,4.571260452270508,-0.7699589729309082,-0.0,-0.0,-1.0,0.13643967046956174,1.0,0
28.668737411499023,4.555692672729492,-0.7955272197723389,-0.0,-0.0,-1.0,0.11119992387425759,1.0,0
28.404705047607422,5.454904556274414,-0.710742712020874,-0.0,-0.0,-1.0,0.1455693167329819,1.0,0
28.971080780029297,4.692998886108398,-0.8081181049346924,-0.0,-0.0,-1.0,0.075439333333271,2.0,0
28.95577621459961,3.512859344482422,-0.32973456382751465,-0.0,-0.0,-1.0,0.16660859377046328,1.0,0
29.25119972229004,3.6810855865478516,-0.3458740711212158,-0.0,-0.0,-1.0,0.2021075029887618,2.0,0
27.71811294555664,4.47698974609375,-0.6848268508911133,-0.0,-0.0,-1.0,0.10714821499289495,1.0,0
27.777015686035156,4.21961784362793,-0.7061231136322021,-0.0,-0.0,-1.0,0.15358517735398639,1.0,0
27.79358673095703,5.480224609375,-0.6349101066589355,0.1296087001913745,-0.7721193962224084,-0.6221199424643498,0.11590128366833373,4.0,0
28.517230987548828,5.457691192626953,-0.7154970169067383,-0.0,-0.0,-1.0,0.20988768134518576,2.0,0
28.426067352294922,4.682472229003906,-0.7495903968811035,-0.0,-0.0,-1.0,0.10908852453312963,1.0,0
28.729480743408203,4.469697952270508,-0.7949299812316895,-0.0,-0.0,-1.0,0.14429239849747522,1.0,0
28.896957397460938,4.672454833984375,-0.8018403053283691,-0.5220874089783922,0.373742527505195,-0.766642850694023,0.0710988586281272,3.0,0
28.560340881347656,5.476106643676758,-0.8159480094909668,0.16926247948013146,0.9049423769775103,-0.3904222168249803,0.17593504432019944,3.0,0
28.58269500732422,4.838895797729492,-0.8630807399749756,-0.0,-0.0,-1.0,0.05302844981323376,1.0,0
28.835054397583008,5.20741081237793,-0.8629927635192871,-0.0,-0.0,-1.0,0.15267300887077787,1.0,0
27.850788116455078,4.224237442016602,-0.6771030426025391,-0.37522939342951445,0.5857604875381267,-0.7183923395649587,0.28064301099341704,3.0,0
28.361404418945312,3.592174530029297,-0.7734766006469727,-0.0,-0.0,-1.0,0.07272341987486815,2.0,0
28.584835052490234,4.410577774047852,-0.7470202445983887,-0.33770466884064715,-0.7224367249242641,-0.6033578831207332,0.22600403226577329,4.0,0
29.1086483001709,4.5836334228515625,-0.7954378128051758,-0.0,-0.0,-1.0,0.18423886935634895,2.0,0
28.992259979248047,4.291444778442383,-0.8002805709838867,-0.5107256472275182,0.8492089652461435,-0.1341769227907946,0.10329856234861644,4.0,0
27.814252853393555,5.38140869140625,-0.6001348495483398,-0.30412553481259647,-0.426781065696288,-0.8516839678179301,0.13661831764388058,3.0,0
27.942535400390625,3.318744659423828,-0.5085070133209229,-0.5800750104411635,-0.45758713750933905,-0.6738894522454654,0.18307610123317308,6.0,0
28.18240737915039,3.8742332458496094,-0.5011963844299316,-0.016801373090683424,0.9907098820101825,-0.13495052259860962,0.17820964186855306,4.0,0
28.017154693603516,3.3856163024902344,-0.5125789642333984,-0.7463065394971442,0.2692342394334859,-0.6087195359280576,0.17489137276895947,5.0,0
28.361419677734375,3.946807861328125,-0.5166194438934326,-0.17781001585542847,0.87634568887374,-0.4476626317372296,0.15995928486336938,4.0,0
29.31676483154297,3.9349193572998047,-0.6242063045501709,-0.0992247150927366,0.4594378105546576,-0.8826501878703181,0.2541527714118123,4.0,0
29.422035217285156,4.603513717651367,-0.5972802639007568,-0.5906622601498122,-0.3430891891992109,-0.7303477957037618,0.11025834935610071,3.0,0
29.41510772705078,4.430641174316406,-0.6064941883087158,0.015937217586376198,-0.7443621501196801,0.6675859454518279,0.1846541436660393,5.0,0
29.658145904541016,3.8423519134521484,-0.6682884693145752,0.7215516392059722,0.5160987972493142,-0.4615249326276808,0.18438398998084826,5.0,0
28.429134368896484,4.41108512878418,-0.49648356437683105,-0.0,-0.0,-1.0,0.21172986564880897,2.0,0
28.41522216796875,4.145288467407227,-0.5107438564300537,-0.4370691603742677,0.72243485695036,-0.5357783371067232,0.23160050069083168,6.0,0
28.599504470825195,4.494907379150391,-0.5105786323547363,0.20726655702503755,-0.3370550630110212,-0.9183868786288397,0.21242922425637623,4.0,0
27.83428955078125,4.288633346557617,-0.7068629264831543,-0.0,-0.0,-1.0,0.14136555979937918,2.0,0
27.8195858001709,4.126230239868164,-0.7181992530822754,-0.0,-0.0,-1.0,0.13704154076848626,2.0,0
28.27363395690918,3.6785640716552734,-0.8002324104309082,-0.0,-0.0,-1.0,0.062217053124535904,1.0,0
28.49677276611328,4.406024932861328,-0.7663447856903076,-0.1063920681602993,0.9317320709827575,-0.3472118600145393,0.16088496482681938,4.0,0
28.310272216796875,3.8038997650146484,-0.7941350936889648,-0.0,-0.0,-1.0,0.17397949673033555,1.0,0
28.42656135559082,5.405406951904297,-0.6814138889312744,-0.0,-0.0,-1.0,0.24233408748848773,1.0,0
28.581275939941406,4.441989898681641,-0.7723958492279053,0.9960706090523187,0.06096382379610661,-0.06423981608240086,0.16930360700269212,3.0,0
28.817302703857422,4.392513275146484,-0.8010673522949219,-0.0,-0.0,-1.0,0.09407183171982282,2.0,0
29.11984634399414,4.696601867675781,-0.8096866607666016,-0.3056308119136508,-0.6729069537065208,-0.6736364289900099,0.10097636045092191,3.0,0
29.805057525634766,4.202079772949219,-0.9208645820617676,-0.0,-0.0,-1.0,0.13638783683674865,1.0,0
27.94734764099121,3.3182544708251953,-0.5297744274139404,-0.5800750104411635,-0.45758713750933905,-0.6738894522454654,0.18526909449431447,6.0,0
27.92865753173828,3.164213180541992,-0.5387060642242432,-0.0,-0.0,-1.0,0.21576227037180562,1.0,0
28.228111267089844,3.9086132049560547,-0.51845383644104,-0.997599213743508,0.044069785486860774,0.05341968499978867,0.13441169378774773,3.0,0
28.149250030517578,3.598264694213867,-0.5316436290740967,-0.0,-0.0,-1.0,0.12089527406250664,1.0,0
28.446151733398438,4.403871536254883,-0.5078096389770508,0.5477022291876301,0.7669088927579302,0.33447424168642176,0.22742630251806253,3.0,0
28.40204429626465,4.047246932983398,-0.5276377201080322,-0.9004258209685126,0.089200092182569,0.42576599733633125,0.22402239968901422,4.0,0
28.718111038208008,4.374090194702148,-0.5396366119384766,-0.0,-0.0,-1.0,0.22271860028657556,2.0,0
29.3776798248291,4.715654373168945,-0.5896599292755127,0.4140984133083137,-0.827511344293258,-0.37914044780463857,0.1971449913574903,8.0,0
29.44628143310547,4.363348007202148,-0.621025562286377,0.06178451810007517,0.05340080189591399,-0.9966599358256631,0.2345599406381672,5.0,0
29.436195373535156,3.8761749267578125,-0.6528682708740234,-0.4941129980095044,-0.204878337309,-0.844912547012742,0.24415867225590832,3.0,0
29.76223373413086,4.293344497680664,-0.661109209060669,-0.0,-0.0,-1.0,0.2048130865785901,1.0,0
29.760848999023438,5.405576705932617,-0.5871553421020508,-0.27501595603466333,-0.9576050087277637,0.08578386320188358,0.1386769437228369,5.0,0
27.748916625976562,4.603681564331055,-0.724062442779541,-0.3655582274195525,-0.6953208124845531,-0.6187860293281475,0.13123153719537087,3.0,0
28.307214736938477,4.779621124267578,-0.7759127616882324,-0.11156498697045966,0.609487124895505,-0.784906808652398,0.07809801239765153,3.0,0
28.66103172302246,5.577503204345703,-0.7538352012634277,-0.0,-0.0,-1.0,0.14374482167902092,1.0,0
28.465316772460938,5.438629150390625,-0.7409825325012207,-0.0,-0.0,-1.0,0.22427210078402535,2.0,0
28.705074310302734,4.760322570800781,-0.8257324695587158,-0.0,-0.0,-1.0,0.06987945143908333,1.0,0
28.585224151611328,4.641336441040039,-0.8209238052368164,-0.0,-0.0,-1.0,0.06591748458533692,1.0,0
28.857635498046875,5.129812240600586,-0.8143374919891357,-0.0,-0.0,-1.0,0.12279595511278048,2.0,0
28.877685546875,4.941137313842773,-0.8321123123168945,-0.0,-0.0,-1.0,0.10455913561815335,1.0,0
29.100589752197266,3.408761978149414,-0.10040974617004395,0.0488498376355532,-0.6075393684369416,-0.7927859794182932,0.22541292047627287,14.0,0
29.842361450195312,3.8574676513671875,-0.15323591232299805,-0.0,-0.0,-1.0,0.1875501099485417,2.0,0
28.333478927612305,3.867654800415039,-0.7490739822387695,-0.0,-0.0,-1.0,0.23407158954232662,1.0,0
29.000186920166016,4.530771255493164,-0.7830502986907959,-0.0,-0.0,-1.0,0.10799326484501101,2.0,0
28.820697784423828,4.363710403442383,-0.7725498676300049,-0.947923185827914,-0.12899321591181764,-0.29120848891916745,0.17715267995993436,4.0,0
29.155052185058594,4.7293548583984375,-0.7881536483764648,-0.9450398303564331,0.2843963729899987,0.16130226926493613,0.15154576038712633,4.0,0
27.75348663330078,4.218912124633789,-0.6474859714508057,-0.20343904396435153,-0.9688057609559814,0.14152015025915007,0.19529102596958497,3.0,0
27.775836944580078,5.359346389770508,-0.5589611530303955,-0.9131954469364268,-0.24952570704915703,0.32219714029798285,0.1406650104543399,6.0,0
28.549856185913086,4.420677185058594,-0.732928991317749,0.32966630058488294,0.9180710719216759,-0.220149124820571,0.19625977341887127,7.0,0
29.08528709411621,5.035440444946289,-0.755467414855957,0.3190258632790203,-0.8249588216511364,-0.46654629045684654,0.13935688584242056,3.0,0
29.056461334228516,3.408374786376953,-0.03185606002807617,-0.6731041958831452,0.48320916566135874,-0.5598568064294283,0.25229159315955796,8.0,0
29.891294479370117,3.9487857818603516,-0.09850287437438965,0.23098708663554826,-0.2568639427562719,-0.9384380004663727,0.0946830941711353,5.0,0
29.413379669189453,3.7784347534179688,-0.5824329853057861,-0.0,-0.0,-1.0,0.20115798300915377,1.0,0
29.667957305908203,3.8995895385742188,-0.606865406036377,-0.0,-0.0,-1.0,0.16438124314024777,1.0,0
29.963491439819336,3.1826610565185547,-0.6954250335693359,-0.0,-0.0,-1.0,0.14932640731523128,1.0,0
27.817127227783203,3.211019515991211,-0.42447829246520996,-0.0,-0.0,-1.0,0.21089891868896476,1.0,0
28.465065002441406,4.225866317749023,-0.42949795722961426,-0.5132010098404017,0.3730574826262877,-0.7729507346237071,0.1995665455768567,3.0,0
28.268333435058594,3.971609115600586,-0.4233129024505615,-0.6348414237151352,0.4164445119944117,-0.6508074486090923,0.11308866357344335,6.0,0
28.779508590698242,4.09388542175293,-0.478870153427124,-0.7268108100007271,0.6751745032200253,-0.12603744153099528,0.14180972832138264,5.0,0
29.34231948852539,3.748828887939453,-0.5753905773162842,-0.0,-0.0,-1.0,0.2007589062612206,1.0,0
29.35824203491211,4.813255310058594,-0.5029928684234619,0.801320400890917,-0.596168189506025,0.049690088922517014,0.24495874414883212,3.0,0
29.53054428100586,4.3702850341796875,-0.5561974048614502,-0.5101194565871261,0.3558023228703606,-0.7830599255812487,0.20127591951072205,5.0,0
27.714439392089844,4.632045745849609,-0.7355668544769287,0.411816481903059,0.13504581056341972,-0.9012046461721425,0.10007174540341529,3.0,0
28.443492889404297,4.742341995239258,-0.8283212184906006,-0.0,-0.0,-1.0,0.07005736514019147,1.0,0
28.670120239257812,5.514726638793945,-0.7905833721160889,-0.0,-0.0,-1.0,0.24172344022221762,1.0,0
28.626453399658203,5.453990936279297,-0.7896921634674072,-0.0,-0.0,-1.0,0.23230515506323715,1.0,0
28.764163970947266,4.860963821411133,-0.8636462688446045,-0.0,-0.0,-1.0,0.07292416076069962,1.0,0
29.06177520751953,4.974653244018555,-0.8965268135070801,-0.44763693924941567,-0.888058491153737,0.10475345774322944,0.28210299798306254,3.0,0
27.763568878173828,5.4954376220703125,-0.6614577770233154,0.18448787144829326,-0.7654889306786481,-0.6164340372634675,0.08859386410131784,5.0,0
28.92058563232422,3.1714420318603516,-0.2605435848236084,-0.0,-0.0,-1.0,0.18310015284621656,1.0,0
29.04106903076172,3.944540023803711,-0.2258601188659668,0.14671554614074386,0.7520156761443525,-0.6426095014499675,0.1857747028522297,7.0,0
29.129789352416992,3.4100303649902344,-0.2706432342529297,-0.5467288457944816,0.7821963040274932,0.2987582821311627,0.24864182104074276,13.0,0
29.840797424316406,3.8542003631591797,-0.3303999900817871,0.6805089552153284,0.3886183525870648,-0.6211950884418338,0.09386110907511998,7.0,0
27.75820541381836,4.160337448120117,-0.592299222946167,-0.0,-0.0,-1.0,0.23089819089231606,2.0,0
28.333097457885742,3.470550537109375,-0.7337906360626221,-0.0,-0.0,-1.0,0.08995908410630506,2.0,0
28.494659423828125,4.294973373413086,-0.6769216060638428,-0.08154427761286259,0.9587263957239868,-0.27238617610056937,0.18816575120272025,7.0,0
28.351318359375,4.077322006225586,-0.6783068180084229,-0.0,-0.0,-1.0,0.24687751532219895,1.0,0
28.433378219604492,3.6412105560302734,-0.7306466102600098,-0.0,-0.0,-1.0,0.11098397254076063,1.0,0
28.718570709228516,4.3480682373046875,-0.7020485401153564,-0.0,-0.0,-1.0,0.24025292561759892,1.0,0
28.943679809570312,4.209177017211914,-0.7454383373260498,-0.0,-0.0,-1.0,0.139797446417794,1.0,0
29.193256378173828,4.58010196685791,-0.7454173564910889,-0.21898392465024674,0.6192431478656795,-0.7540450679940683,0.20550109454537027,3.0,0
29.21174430847168,4.1400146484375,-0.7883119583129883,-0.0,-0.0,-1.0,0.22953615829606733,2.0,0
30.092529296875,4.118268966674805,-0.911963701248169,-0.0,-0.0,-1.0,0.07785748190451347,2.0,0
28.708492279052734,5.496807098388672,-0.5950720310211182,-0.0,-0.0,-1.0,0.11929298725890103,1.0,0
29.03307342529297,5.1864423751831055,-0.6681816577911377,-0.0,-0.0,-1.0,0.14368702293589058,1.0,0
29.012493133544922,3.428173065185547,-0.08681201934814453,-0.7659199779202048,-0.6364928363299688,-0.09079348392557952,0.22963195703161401,7.0,0
28.25238800048828,5.293547630310059,-0.8987524509429932,-0.0,-0.0,-1.0,0.08449999731501225,1.0,0
28.338409423828125,5.012946128845215,-0.9393486976623535,-0.0,-0.0,-1.0,0.017450388893592027,1.0,0
28.459774017333984,5.625217437744141,-0.9092366695404053,-0.0050518322244542165,0.5438318195176455,-0.8391790220634111,0.1432421485753783,3.0,0
28.7808837890625,3.6248178482055664,-0.44012999534606934,-0.0,-0.0,-1.0,0.09798722085118733,1.0,0
29.794876098632812,3.5090160369873047,-0.6130530834197998,-0.0,-0.0,-1.0,0.1000789229943757,1.0,0
28.696016311645508,3.742847442626953,-0.41911864280700684,-0.0,-0.0,-1.0,0.1639367885823183,1.0,0
27.951473236083984,3.7729148864746094,-0.754126787185669,-0.0,-0.0,-1.0,0.15211240947391283,1.0,0
28.23139762878418,4.347365379333496,-0.7490847110748291,-0.0,-0.0,-1.0,0.0765799979711879,1.0,0
28.074256896972656,3.9114456176757812,-0.7617435455322266,-0.0,-0.0,-1.0,0.10729915859262865,1.0,0
28.463600158691406,4.40687370300293,-0.7830512523651123,-0.21605949144559508,0.8544794508608943,0.4724226542120257,0.17105826482587794,3.0,0
28.753673553466797,4.860842704772949,-0.7938024997711182,-0.0,-0.0,-1.0,0.10336323199033208,2.0,0
28.729839324951172,4.5325469970703125,-0.8175275325775146,-0.0,-0.0,-1.0,0.11514616003485059,1.0,0
29.878934860229492,5.208318710327148,-0.96421217918396,0.8205594186973297,-0.5543451606215827,0.13922529684842655,0.13753519726946134,3.0,0
28.14470672607422,5.300859451293945,-0.6517138481140137,-0.0,-0.0,-1.0,0.17623304765978084,1.0,0
28.412147521972656,5.5436811447143555,-0.6774044036865234,-0.0,-0.0,-1.0,0.13293379675428535,1.0,0
29.572532653808594,3.629012107849121,-0.33379292488098145,-0.0,-0.0,-1.0,0.14460645224353602,1.0,0
28.739456176757812,3.5569229125976562,-0.21503257751464844,-0.0,-0.0,-1.0,0.1427579792081024,1.0,0
28.76953887939453,3.348133087158203,-0.2319014072418213,-0.0,-0.0,-1.0,0.1699712422057495,1.0,0
29.511137008666992,3.813075065612793,-0.31415319442749023,-0.0,-0.0,-1.0,0.13986823848663785,1.0,0
28.366777420043945,3.156121253967285,-0.5434391498565674,-0.0,-0.0,-1.0,0.04294321106953432,1.0,0
28.259977340698242,4.175662994384766,-0.4479100704193115,-0.0,-0.0,-1.0,0.15714743878448956,1.0,0
28.440237045288086,4.167920112609863,-0.47777628898620605,-0.2882074644009813,0.8871333869621378,-0.3604591671752059,0.2625682530043308,4.0,0
28.617778778076172,4.138333320617676,-0.5090324878692627,-0.4288632655515343,0.10712354597780847,-0.8969954544799066,0.23864258119865484,3.0,0
29.118396759033203,3.7875518798828125,-0.6173431873321533,-0.0,-0.0,-1.0,0.18234983752496994,1.0,0
29.30890655517578,4.2816057205200195,-0.6135115623474121,-0.0,-0.0,-1.0,0.13937995793554286,1.0,0
29.14885711669922,3.9088869094848633,-0.613532543182373,-0.0,-0.0,-1.0,0.2228056377257982,2.0,0
29.465301513671875,3.87229061126709,-0.6689479351043701,-0.0,-0.0,-1.0,0.1945530569917586,2.0,0
29.838916778564453,3.226778030395508,-0.7778093814849854,-0.0,-0.0,-1.0,0.1430820461750669,1.0,0
29.17466163635254,4.754087448120117,-0.5575568675994873,-0.0,-0.0,-1.0,0.19721486148813894,1.0,0
29.321712493896484,4.36854362487793,-0.6095216274261475,-0.0,-0.0,-1.0,0.180562859110051,1.0,0
29.437881469726562,4.3260345458984375,-0.6321556568145752,-0.5695752698544151,-0.1609103278230702,0.8060346632559559,0.2377056380945061,5.0,0
30.049560546875,3.2347583770751953,-0.8125035762786865,-0.0,-0.0,-1.0,0.21724373225389174,1.0,0
30.18197250366211,3.722949981689453,-0.8006424903869629,-0.8456179603491056,0.14253000879470126,-0.514407874869739,0.1254501193572798,4.0,0
28.452171325683594,4.981839179992676,-0.8803877830505371,-0.0,-0.0,-1.0,0.07086257381314025,2.0,0
28.657323837280273,5.453161239624023,-0.8748493194580078,0.7265206893178247,-0.39402621596000137,-0.562948513746502,0.09869225770732626,3.0,0
28.86367416381836,3.187443733215332,-0.47155237197875977,-0.0,-0.0,-1.0,0.12419466851084557,1.0,0
28.816329956054688,3.798961639404297,-0.4198737144470215,-0.0,-0.0,-1.0,0.17069472105171266,2.0,0
28.90557098388672,3.605332374572754,-0.44831395149230957,-0.0,-0.0,-1.0,0.23806750931582038,2.0,0
29.004173278808594,3.215725898742676,-0.49230432510375977,0.7623319763707339,0.6308540515664021,-0.1444753384662808,0.18858336489612806,3.0,0
29.250579833984375,3.6313962936401367,-0.5033142566680908,-0.0,-0.0,-1.0,0.16311104116957645,1.0,0
29.83380889892578,3.2146005630493164,-0.6293859481811523,0.9201834791520497,-0.3909577298171366,0.020357263859860288,0.12892721821503272,3.0,0
28.314929962158203,5.381573677062988,-0.8156743049621582,-0.0,-0.0,-1.0,0.21003454031937593,1.0,0
29.715330123901367,3.758997917175293,-0.5723931789398193,-0.7135403657184195,0.6954157732536087,0.08518831375552628,0.2433606375653081,8.0,0
29.982460021972656,3.6282968521118164,-0.6263930797576904,-0.0,-0.0,-1.0,0.1551078707192367,1.0,0
30.150348663330078,3.202381134033203,-0.6833937168121338,0.2727219306535669,0.9451020244050881,-0.18001364394399552,0.13640494989768473,3.0,0
28.53824234008789,5.465241432189941,-0.8507125377655029,-0.150527797540099,0.878850407302337,-0.4527287750433403,0.1615871896886294,4.0,0
28.266464233398438,3.9080963134765625,-0.7900853157043457,-0.17696383621540043,-0.6500657753487135,-0.7389846333938244,0.1897188087157424,3.0,0
30.188255310058594,5.315300941467285,-0.9808719158172607,-0.0,-0.0,-1.0,0.15969624747807362,2.0,0
27.94179916381836,4.042552947998047,-0.7202610969543457,-0.0,-0.0,-1.0,0.04733735712376695,1.0,0
28.33570098876953,4.059534072875977,-0.7840709686279297,-0.0,-0.0,-1.0,0.15642914702836738,2.0,0
28.416135787963867,4.390865325927734,-0.7596254348754883,-0.3929370083853453,0.6648954334671214,0.6352279669502469,0.2785891419083621,3.0,0
28.53462028503418,4.416123390197754,-0.7771086692810059,-0.2603688581748214,0.9654602649629138,-0.009722883856149505,0.20415880894150557,3.0,0
30.12522315979004,3.1792707443237305,-0.5370619297027588,-0.9638818162049787,-0.06254739708476047,0.2588815704280871,0.19845287951037163,7.0,0
27.716354370117188,5.252231597900391,-0.5414495468139648,-0.7391017250211585,-0.6290178338839029,0.24096722749525534,0.15219243247350212,5.0,0
28.491985321044922,4.621114730834961,-0.7465479373931885,-0.0,-0.0,-1.0,0.24052685644905242,1.0,0
28.856990814208984,4.507828712463379,-0.8229448795318604,-0.0,-0.0,-1.0,0.05959344748425454,1.0,0
30.151168823242188,3.249582290649414,-0.5353670120239258,-0.5039135522098291,0.2381833078724026,0.8302649238346952,0.23199436443834817,4.0,0
29.037452697753906,4.828922271728516,-0.8195400238037109,0.4738036466394083,-0.05152527239205517,-0.8791218634160588,0.07400073856026457,4.0,0
28.900611877441406,5.620555877685547,-0.7098498344421387,-0.26345503180761126,0.893292256702612,-0.36417082575407544,0.15713366464243733,5.0,0
29.02570343017578,5.202219009399414,-0.7771017551422119,-0.0,-0.0,-1.0,0.21804699287094562,1.0,0
29.027450561523438,3.2657041549682617,-0.3631260395050049,-0.34167885844150725,0.9246016892374405,0.16842587079596863,0.11452161145752475,7.0,0
28.949018478393555,3.749436378479004,-0.31006836891174316,-0.0,-0.0,-1.0,0.12702953698241962,2.0,0
29.79251480102539,3.8192520141601562,-0.4334371089935303,0.25113100174984443,0.023531902951528006,-0.9676670240860746,0.18645651680113082,8.0,0
30.04738998413086,4.738625526428223,-0.4015681743621826,-0.2566904205832957,-0.031164963600013768,-0.9659910833049035,0.09842759122301172,3.0,0
27.90904998779297,3.954883575439453,-0.7339415550231934,-0.0,-0.0,-1.0,0.10301567756555195,2.0,0
28.23239517211914,3.77793025970459,-0.8166160583496094,-0.0,-0.0,-1.0,0.1323472436632993,1.0,0
29.100263595581055,3.2427568435668945,-0.44661712646484375,-0.8211221619741492,0.5702046776703629,0.025000413551311655,0.1792633473299287,3.0,0
27.962543487548828,4.112207412719727,-0.7249624729156494,-0.0,-0.0,-1.0,0.08934943213320425,1.0,0
28.299577713012695,3.923992156982422,-0.8119981288909912,-0.0,-0.0,-1.0,0.15615476128913258,2.0,0
29.97734832763672,3.1440248489379883,-0.6112642288208008,-0.0,-0.0,-1.0,0.15270794000956606,1.0,0
30.05213165283203,3.1899967193603516,-0.6210215091705322,-0.8065983874274905,0.3493481601744639,-0.4768174749126639,0.18290762358575613,7.0,0
27.717540740966797,5.072380065917969,-0.563147783279419,-0.0,-0.0,-1.0,0.11898857981604738,2.0,0
28.379472732543945,4.382359504699707,-0.7734012603759766,-0.3110473230284176,0.9044773534938217,0.2918394761742619,0.23602622648508753,4.0,0
28.62303924560547,4.400175094604492,-0.8195462226867676,-0.0,-0.0,-1.0,0.17680816316504083,2.0,0
