x,y,z,nx,ny,nz,curvature,density,label
12.108945846557617,22.016048431396484,-1.0286699533462524,0.22454062949368997,-0.5810507185012541,-0.7822797250573185,0.20226734298302532,3.0,0
11.758736610412598,22.12908935546875,-1.0679713487625122,-0.0,-0.0,-1.0,0.2702305602424829,1.0,0
12.597291946411133,21.301591873168945,-0.6546614170074463,0.3661235874635832,0.36937687481083725,-0.8541160594777361,0.1686216680184922,5.0,0
12.036641120910645,21.535734176635742,-0.7217721939086914,-0.0,-0.0,-1.0,0.17674480279808766,1.0,0
12.177387237548828,22.01154136657715,-0.7466533184051514,-0.7068464117986658,-0.392781514675955,0.5882948511216232,0.2486879386869932,3.0,0
12.097501754760742,22.759090423583984,-0.812669038772583,-0.0,-0.0,-1.0,0.17690730407963076,1.0,0
11.90666675567627,21.564525604248047,-0.7353724241256714,-0.0,-0.0,-1.0,0.2178513831805406,2.0,0
11.98460578918457,22.122556686401367,-0.7720482349395752,-0.0,-0.0,-1.0,0.23511647719396514,2.0,0
11.911001205444336,22.617040634155273,-0.8173911571502686,-0.38362891425065154,0.6052253870689898,-0.6975178040724537,0.1933108969419119,4.0,0
12.046655654907227,22.889097213745117,-0.8273839950561523,0.7642691672280212,0.544098507228924,-0.3461927995436115,0.19366793411523017,3.0,0
10.507501602172852,22.32306671142578,-0.9166426658630371,-0.0,-0.0,-1.0,0.2252050564294087,2.0,0
10.688977241516113,22.585418701171875,-0.9209415912628174,-0.0,-0.0,-1.0,0.17629485373173168,2.0,0
10.210153579711914,21.977502822875977,-0.9166152477264404,-0.0,-0.0,-1.0,0.14220165117733605,1.0,0
10.255661010742188,22.187850952148438,-0.9285464286804199,-0.0,-0.0,-1.0,0.1286003626320081,2.0,0
12.549786567687988,21.286300659179688,-0.6966700553894043,-0.026970786677049115,0.8972922267872528,0.4406123425565767,0.15531197022999113,3.0,0
12.229215621948242,22.908584594726562,-0.832240104675293,-0.0,-0.0,-1.0,0.13584511139400282,1.0,0
11.820060729980469,20.654523849487305,-0.7412304878234863,-0.0,-0.0,-1.0,0.07348984300972534,2.0,0
12.00832748413086,21.543846130371094,-0.7725117206573486,-0.0,-0.0,-1.0,0.25789111320841485,1.0,0
12.046957015991211,22.044355392456055,-0.7985653877258301,-0.0,-0.0,-1.0,0.22959481316888247,2.0,0
11.868542671203613,22.441219329833984,-0.8426594734191895,-0.0,-0.0,-1.0,0.21385807256176292,2.0,0
11.998377799987793,22.754180908203125,-0.8478167057037354,-0.5328502019096881,0.099069371535493,-0.8403903390379777,0.16692979834592878,3.0,0
11.712300300598145,22.048046112060547,-0.8359038829803467,-0.0,-0.0,-1.0,0.18991742841765738,1.0,0
10.658798217773438,21.700618743896484,-0.9331161975860596,-0.0,-0.0,-1.0,0.2363266213006578,2.0,0
10.747401237487793,21.74742889404297,-0.9258773326873779,-0.0,-0.0,-1.0,0.2356813631607731,2.0,0
10.599211692810059,22.139144897460938,-0.9656121730804443,-0.0,-0.0,-1.0,0.20638728845527243,2.0,0
10.820570945739746,22.825654983520508,-0.9821574687957764,-0.0,-0.0,-1.0,0.1257418934948209,1.0,0
10.446197509765625,21.951751708984375,-0.97178053855896,-0.0,-0.0,-1.0,0.24990822936927323,1.0,0
10.507554054260254,22.342899322509766,-0.9879963397979736,-0.0,-0.0,-1.0,0.16042326471359633,1.0,0
12.089276313781738,21.653461456298828,-0.19992971420288086,0.2797451009038561,0.7862655035642814,-0.5509348749399495,0.15556866696814267,3.0,0
12.404380798339844,23.04653549194336,-1.184558391571045,-0.0,-0.0,-1.0,0.15478027225936947,1.0,0
12.489500045776367,21.12662124633789,-1.0603840351104736,-0.0,-0.0,-1.0,0.1471950279690321,1.0,0
12.5294771194458,21.22784423828125,-1.0598578453063965,-0.5369649033762851,-0.7084607041729178,-0.4579870338611237,0.19669465523644997,5.0,0
12.143784523010254,22.68034553527832,-1.2008578777313232,-0.0,-0.0,-1.0,0.1197173647079499,1.0,0
12.245917320251465,22.952322006225586,-1.2021136283874512,-0.0,-0.0,-1.0,0.11986765111145166,1.0,0
12.260091781616211,20.953960418701172,-1.0860323905944824,-0.0,-0.0,-1.0,0.08510599881887884,1.0,0
12.160975456237793,21.152790069580078,-1.1117134094238281,-0.0,-0.0,-1.0,0.10143037110296095,2.0,0
12.03874397277832,21.767566680908203,-1.1639196872711182,-0.0,-0.0,-1.0,0.20167857150475604,2.0,0
11.940618515014648,21.964303970336914,-1.1897313594818115,-0.0,-0.0,-1.0,0.1683247489305387,1.0,0
11.945625305175781,22.432952880859375,-1.2158002853393555,-0.0,-0.0,-1.0,0.19211118772559876,2.0,0
11.742844581604004,22.280452728271484,-1.237330436706543,-0.0,-0.0,-1.0,0.11782249318313812,1.0,0
12.077901840209961,21.40772247314453,-0.5943050384521484,-0.0,-0.0,-1.0,0.17900755632720808,1.0,0
11.98637580871582,21.957645416259766,-0.6251726150512695,-0.0,-0.0,-1.0,0.25125007168050345,1.0,0
10.378332138061523,23.13463592529297,-0.8625164031982422,-0.0,-0.0,-1.0,0.04636222580390742,1.0,0
10.45742130279541,20.77859115600586,-0.7646658420562744,-0.0,-0.0,-1.0,0.18897648338412448,1.0,0
10.384535789489746,21.76572036743164,-0.8135247230529785,-0.0,-0.0,-1.0,0.19193065398606088,1.0,0
10.261040687561035,22.140499114990234,-0.8399021625518799,-0.0,-0.0,-1.0,0.09913435068821556,1.0,0
10.232329368591309,22.348752975463867,-0.8521323204040527,-0.0,-0.0,-1.0,0.11422689962246718,1.0,0
12.543242454528809,21.26435089111328,-0.5326648950576782,-0.0,-0.0,-1.0,0.2674612468851438,1.0,0
12.317837715148926,22.782085418701172,-0.9509304761886597,-0.0,-0.0,-1.0,0.14808318969006015,1.0,0
12.601806640625,21.418872833251953,-0.8220769166946411,-0.0,-0.0,-1.0,0.1667478254724167,1.0,0
12.23089599609375,22.07977867126465,-0.9150463342666626,-0.0,-0.0,-1.0,0.10780806300097531,1.0,0
12.092336654663086,22.395042419433594,-0.9546183347702026,-0.0,-0.0,-1.0,0.1482972985866923,1.0,0
12.116814613342285,22.69729232788086,-0.9717811346054077,-0.0,-0.0,-1.0,0.24180496382381408,2.0,0
12.326943397521973,21.446176528930664,-0.8615375757217407,-0.0,-0.0,-1.0,0.10992892327710117,1.0,0
12.09510612487793,22.04330062866211,-0.931090235710144,-0.0,-0.0,-1.0,0.12902022018277956,2.0,0
11.908313751220703,22.264907836914062,-0.9709497690200806,-0.0,-0.0,-1.0,0.1948163776613431,1.0,0
11.893954277038574,20.890226364135742,-0.8888391256332397,-0.0,-0.0,-1.0,0.11430557003147085,1.0,0
11.484137535095215,21.786134719848633,-0.9987386465072632,-0.0,-0.0,-1.0,0.17786682510046606,1.0,0
11.077839851379395,22.490924835205078,-1.0984498262405396,-0.0,-0.0,-1.0,0.09221495324519986,1.0,0
11.188143730163574,23.088016510009766,-1.1224945783615112,-0.0,-0.0,-1.0,0.04633211710417138,1.0,0
11.161602020263672,22.04739761352539,-1.0592776536941528,-0.0,-0.0,-1.0,0.1324142780818935,1.0,0
10.939541816711426,22.2280330657959,-1.1010698080062866,-0.0,-0.0,-1.0,0.0906795418086775,1.0,0
11.023533821105957,22.58926773071289,-1.1121259927749634,-0.935742200740761,-0.15221683440820602,-0.3181455155672985,0.08117801388046977,3.0,0
11.093307495117188,21.429649353027344,-1.0321825742721558,-0.0,-0.0,-1.0,0.21058600048960371,1.0,0
10.77304458618164,21.768476486206055,-1.096657156944275,-0.0,-0.0,-1.0,0.16783689907855026,1.0,0
10.697811126708984,22.037891387939453,-1.1230264902114868,-0.0,-0.0,-1.0,0.15446234658380625,1.0,0
12.224820137023926,21.620590209960938,-0.3720642328262329,-0.0,-0.0,-1.0,0.05542747027994759,1.0,0
12.20074462890625,22.975109100341797,-1.073625922203064,-0.0,-0.0,-1.0,0.24658139657202277,1.0,0
12.555473327636719,21.297544479370117,-0.896173357963562,-0.1303740129874235,-0.9143550881922528,-0.3833502177311144,0.20008924428395433,3.0,0
11.981274604797363,22.759668350219727,-1.0876778364181519,-0.0,-0.0,-1.0,0.1866148721286001,2.0,0
12.470003128051758,21.242996215820312,-0.9048737287521362,0.8197002346227267,0.47534133131639084,-0.3195968462012851,0.1884130043529041,6.0,0
12.130877494812012,21.48952293395996,-0.9719089269638062,-0.0,-0.0,-1.0,0.12008382745868484,2.0,0
11.999314308166504,21.927932739257812,-1.0225187540054321,-0.0,-0.0,-1.0,0.17902722331296264,1.0,0
11.745880126953125,22.196956634521484,-1.0789023637771606,-0.0,-0.0,-1.0,0.19132564501922517,1.0,0
11.650578498840332,22.583797454833984,-1.1213825941085815,-0.0,-0.0,-1.0,0.13826235568446013,2.0,0
11.424749374389648,21.920011520385742,-1.1057623624801636,-0.0,-0.0,-1.0,0.1389510981232371,2.0,0
11.265826225280762,22.251201629638672,-1.1524907350540161,-0.0,-0.0,-1.0,0.14091180784437524,1.0,0
11.724557876586914,20.922508239746094,-0.9938195943832397,-0.0,-0.0,-1.0,0.12909887633025566,2.0,0
11.533512115478516,21.128414154052734,-1.0357717275619507,-0.0,-0.0,-1.0,0.07080657612488124,1.0,0
11.175942420959473,21.5107364654541,-1.1143206357955933,-0.0,-0.0,-1.0,0.2331259309553858,1.0,0
11.146153450012207,21.785568237304688,-1.1373318433761597,-0.0,-0.0,-1.0,0.1324191467598233,2.0,0
10.742888450622559,21.736879348754883,-0.6631237268447876,-0.0,-0.0,-1.0,0.22617614103946224,1.0,0
10.650530815124512,21.31988525390625,-0.653473973274231,-0.0,-0.0,-1.0,0.13893935751913322,1.0,0
10.21247673034668,20.72256851196289,-0.6780369281768799,-0.0,-0.0,-1.0,0.16788144714541114,1.0,0
12.467721939086914,21.483774185180664,-0.44979655742645264,-0.0,-0.0,-1.0,0.15717935100068492,1.0,0
12.059142112731934,21.581974029541016,-0.5021277666091919,0.0796987958464188,0.9583302362589675,-0.2743196314747854,0.15781147490510442,3.0,0
12.38609504699707,23.0324649810791,-1.2537773847579956,-0.0,-0.0,-1.0,0.09217801936958289,1.0,0
12.129278182983398,22.589120864868164,-1.271921992301941,-0.0,-0.0,-1.0,0.07255028024615684,1.0,0
12.258757591247559,22.752614974975586,-1.2584279775619507,-0.9365744056909089,0.1583857373040315,0.31263771497274406,0.1061908413187837,3.0,0
12.181997299194336,21.95179557800293,-1.2227205038070679,-0.0,-0.0,-1.0,0.17416534318158092,2.0,0
12.056397438049316,22.369121551513672,-1.2718497514724731,-0.0,-0.0,-1.0,0.1506730517400643,1.0,0
12.227006912231445,21.61966896057129,-1.1950277090072632,-0.0,-0.0,-1.0,0.07100369659812025,1.0,0
12.122838973999023,21.77945899963379,-1.224080204963684,-0.0,-0.0,-1.0,0.11210904021404276,2.0,0
12.07756233215332,22.84072494506836,-0.8182584047317505,0.38289377267402014,0.8987679786360582,0.21356141839271997,0.15190170978608317,3.0,0
12.59827995300293,21.265939712524414,-1.1038895845413208,-0.46882080084180583,-0.08643234581322842,-0.8790543249966241,0.21584279665625106,5.0,0
11.947456359863281,22.358137130737305,-0.8168321847915649,-0.0,-0.0,-1.0,0.2055645356004568,1.0,0
11.855890274047852,22.76677894592285,-0.849448561668396,-0.0,-0.0,-1.0,0.2073283125524567,1.0,0
12.447866439819336,20.764326095581055,-1.1075385808944702,-0.0,-0.0,-1.0,0.07824697727100789,1.0,0
12.363304138183594,21.102813720703125,-1.1409868001937866,-0.0,-0.0,-1.0,0.14062742375626508,1.0,0
11.779206275939941,22.054622650146484,-0.830767035484314,-0.0,-0.0,-1.0,0.2050777232681716,2.0,0
10.821762084960938,22.545202255249023,-1.0038470029830933,-0.0,-0.0,-1.0,0.14308394924289888,2.0,0
10.817130088806152,22.903032302856445,-1.0194681882858276,-0.0,-0.0,-1.0,0.09430257547871976,2.0,0
11.107596397399902,21.55462646484375,-0.9204872846603394,-0.0,-0.0,-1.0,0.1892688982243126,1.0,0
10.59761905670166,22.02033042907715,-1.0198956727981567,0.5909189981346262,0.5098566000194173,-0.6251887595440349,0.17607531123258843,3.0,0
10.599998474121094,22.133548736572266,-1.023642897605896,-0.0,-0.0,-1.0,0.18055372268896588,2.0,0
10.83345890045166,21.314128875732422,-0.9574140310287476,-0.0,-0.0,-1.0,0.20033035088413512,1.0,0
10.481160163879395,21.71755599975586,-1.0283540487289429,-0.0,-0.0,-1.0,0.15489684392566982,1.0,0
10.40629768371582,22.002729415893555,-1.0503703355789185,-0.0,-0.0,-1.0,0.18336405692105798,1.0,0
12.557966232299805,21.354372024536133,-0.6780487298965454,-0.0,-0.0,-1.0,0.20558179734472692,2.0,0
12.143699645996094,22.034500122070312,-0.7718008756637573,-0.0,-0.0,-1.0,0.17123398322603556,2.0,0
12.132768630981445,22.17024803161621,-0.7792764902114868,-0.0,-0.0,-1.0,0.13946387400132612,2.0,0
12.407073974609375,21.313196182250977,-0.700819730758667,-0.0,-0.0,-1.0,0.2308445364647516,2.0,0
12.006579399108887,21.746841430664062,-0.7820185422897339,-0.0,-0.0,-1.0,0.18964141532816675,1.0,0
11.951807022094727,20.64330291748047,-0.7524064779281616,-0.0,-0.0,-1.0,0.10066760936338925,2.0,0
12.105724334716797,21.650768280029297,-0.3096027374267578,-0.0,-0.0,-1.0,0.11837507668702453,2.0,0
11.486865997314453,22.56795310974121,-1.1779162883758545,-0.0,-0.0,-1.0,0.07966367662786684,1.0,0
12.04405403137207,23.046676635742188,-1.1045284271240234,-0.0,-0.0,-1.0,0.24184479862539526,1.0,0
11.842761039733887,22.54916000366211,-1.110116720199585,-0.0,-0.0,-1.0,0.23903995865403457,1.0,0
11.9279203414917,22.7457275390625,-1.1064391136169434,-0.0,-0.0,-1.0,0.24081902732085733,2.0,0
12.455244064331055,21.31296157836914,-0.925126314163208,0.7022666802431732,-0.29770110515683024,-0.6466804170597983,0.21469788300857875,4.0,0
12.079000473022461,22.01205825805664,-1.034301519393921,0.18834819296651859,-0.9169062621574449,-0.3518634175681105,0.19484054025029895,3.0,0
11.73000717163086,22.307849884033203,-1.1172235012054443,-0.0,-0.0,-1.0,0.1957266288247994,2.0,0
12.008447647094727,21.561717987060547,-1.0235071182250977,-0.0,-0.0,-1.0,0.19163977555748415,2.0,0
11.77658748626709,21.81366539001465,-1.0809297561645508,-0.0,-0.0,-1.0,0.16192435754304296,1.0,0
11.492278099060059,22.07345199584961,-1.1489927768707275,-0.0,-0.0,-1.0,0.15821967316454752,1.0,0
11.854790687561035,20.825366973876953,-1.0189645290374756,-0.0,-0.0,-1.0,0.09327847347220526,1.0,0
11.686717987060547,21.050249099731445,-1.0614521503448486,-0.0,-0.0,-1.0,0.07845913233586926,1.0,0
11.263236999511719,21.48460578918457,-1.1633899211883545,-0.0,-0.0,-1.0,0.12183401317601066,1.0,0
11.229650497436523,21.688819885253906,-1.1796064376831055,-0.0,-0.0,-1.0,0.123500206573966,1.0,0
10.434225082397461,22.318340301513672,-0.8801093101501465,-0.05245125746473559,0.9835418568107108,-0.17289962837353723,0.1496436617036514,3.0,0
10.355451583862305,22.622329711914062,-0.9039196968078613,-0.0,-0.0,-1.0,0.08533934934971979,1.0,0
10.248270988464355,22.112791061401367,-0.9026007652282715,-0.0,-0.0,-1.0,0.10643761411039075,1.0,0
10.434260368347168,21.280569076538086,-0.8467080593109131,-0.5600541101397541,0.7022050213866696,-0.4395992511992204,0.11361589264028553,3.0,0
10.389509201049805,21.446086883544922,-0.8587081432342529,-0.0,-0.0,-1.0,0.12497090289525906,2.0,0
12.55447769165039,21.4012451171875,-0.5099663734436035,-0.0,-0.0,-1.0,0.12565908309664453,1.0,0
12.15316104888916,21.962696075439453,-0.5949321985244751,-0.0,-0.0,-1.0,0.15593815675518266,1.0,0
11.983309745788574,22.235628128051758,-0.6326766014099121,-0.0,-0.0,-1.0,0.19877111935218347,1.0,0
12.031355857849121,21.5607967376709,-0.598847508430481,-0.0,-0.0,-1.0,0.1786844813164435,1.0,0
11.675626754760742,22.01538848876953,-0.6721696853637695,-0.0,-0.0,-1.0,0.126828733019575,2.0,0
10.984977722167969,22.26228141784668,-0.7906994819641113,-0.4088970799338151,-0.9099472094373453,-0.06927664872658668,0.12154760014819373,3.0,0
10.574455261230469,21.116832733154297,-0.8194553852081299,-0.0,-0.0,-1.0,0.14552537117502143,2.0,0
12.642735481262207,22.89466667175293,-1.1961631774902344,-0.0,-0.0,-1.0,0.10692920740022693,1.0,0
12.458943367004395,23.03961753845215,-1.2477118968963623,-0.0,-0.0,-1.0,0.08198629055508937,1.0,0
12.40708065032959,22.798084259033203,-1.2405941486358643,-0.0,-0.0,-1.0,0.06760224293468525,1.0,0
12.25769329071045,22.841960906982422,-1.2767059803009033,-0.0,-0.0,-1.0,0.09062670617058377,1.0,0
12.091652870178223,22.485132217407227,-1.2880597114562988,0.5488183221859982,0.09710995222935548,-0.8302819439268552,0.1403249711072224,3.0,0
12.169251441955566,22.667407989501953,-1.2834630012512207,-0.0,-0.0,-1.0,0.10747744578639,2.0,0
12.48781967163086,21.44020652770996,-1.1323304176330566,-0.0,-0.0,-1.0,0.06940167090266877,1.0,0
12.124720573425293,21.871183395385742,-1.240894079208374,-0.0,-0.0,-1.0,0.12802872878820884,2.0,0
12.033737182617188,22.214168548583984,-1.282912254333496,-0.0,-0.0,-1.0,0.07607039404807144,2.0,0
12.34593677520752,21.030357360839844,-1.1436960697174072,-0.0,-0.0,-1.0,0.13795158716388345,2.0,0
12.301115036010742,21.18792152404785,-1.1620218753814697,-0.0,-0.0,-1.0,0.11919860565464171,1.0,0
12.14434814453125,22.937097549438477,-0.8987863063812256,-0.0,-0.0,-1.0,0.2089276279410405,1.0,0
11.96435832977295,22.452178955078125,-0.9066939353942871,-0.0,-0.0,-1.0,0.17844983745126955,2.0,0
11.958580017089844,22.604463577270508,-0.915825366973877,-0.0,-0.0,-1.0,0.23026536071800577,2.0,0
12.557631492614746,21.271690368652344,-1.1069104671478271,0.0816911579055965,0.050300862117672616,-0.9953875516552646,0.2647468774276443,4.0,0
12.483711242675781,21.357627868652344,-0.9416317939758301,0.5502540125126888,0.6142191611114524,-0.5656459527277014,0.2485755779297499,3.0,0
12.232603073120117,22.013839721679688,-0.8332569599151611,-0.0,-0.0,-1.0,0.16390285432781512,1.0,0
11.87238597869873,22.098623275756836,-0.9072856903076172,-0.0,-0.0,-1.0,0.15661461661231124,1.0,0
11.811861991882324,22.377099990844727,-0.9323124885559082,-0.0,-0.0,-1.0,0.26403292204134243,1.0,0
12.45810317993164,21.07408905029297,-1.1199862957000732,-0.0,-0.0,-1.0,0.16655196925946233,1.0,0
12.359851837158203,21.307214736938477,-0.7775096893310547,-0.0,-0.0,-1.0,0.10205771734793301,1.0,0
11.9547758102417,21.600967407226562,-0.8693130016326904,-0.0,-0.0,-1.0,0.1974463287221093,2.0,0
11.741795539855957,21.89417839050293,-0.9235715866088867,-0.0,-0.0,-1.0,0.2159333922322996,1.0,0
11.442399978637695,22.090007781982422,-0.9907422065734863,-0.0,-0.0,-1.0,0.1532341436174962,1.0,0
10.905120849609375,22.292673110961914,-1.1048305034637451,-0.0,-0.0,-1.0,0.1164679134100721,1.0,0
12.398929595947266,20.748746871948242,-1.1182050704956055,-0.0,-0.0,-1.0,0.06324748145733584,1.0,0
11.129583358764648,21.567136764526367,-1.031445026397705,-0.0,-0.0,-1.0,0.22290758948796718,1.0,0
10.731572151184082,22.092674255371094,-1.1306490898132324,-0.0,-0.0,-1.0,0.11378810537500525,2.0,0
11.827147483825684,20.76380157470703,-0.8651397228240967,-0.0,-0.0,-1.0,0.11039687013022807,2.0,0
11.597848892211914,20.964624404907227,-0.9173917770385742,-0.4739634204679753,-0.3581828607389694,-0.804402706566273,0.16150516567490417,5.0,0
10.985504150390625,21.339553833007812,-1.0523123741149902,-0.0,-0.0,-1.0,0.09320072193128598,1.0,0
10.785357475280762,21.499897003173828,-1.0978314876556396,-0.0,-0.0,-1.0,0.15523705415762937,2.0,0
10.635832786560059,21.88210678100586,-1.1412677764892578,-0.0,-0.0,-1.0,0.1352168332011625,1.0,0
12.036087989807129,21.594139099121094,-0.4663273096084595,-0.14834426133404835,0.6991895251753637,-0.6993768569335883,0.1354307639337429,4.0,0
11.669909477233887,22.014022827148438,-0.5380284786224365,-0.1801659184181927,-0.9663242429112494,-0.18373268463321776,0.13646823834867225,3.0,0
10.556845664978027,22.87500762939453,-0.7450432777404785,-0.0,-0.0,-1.0,0.058011006927485065,1.0,0
10.87687873840332,21.29979705810547,-0.6509971618652344,-0.0,-0.0,-1.0,0.2574572857803239,2.0,0
10.699069023132324,21.771896362304688,-0.6908326148986816,-0.2836559211047192,0.4696722920703944,-0.8360306552295649,0.22617614103946238,3.0,0
10.61345386505127,21.307472229003906,-0.6950896978378296,-0.0,-0.0,-1.0,0.17088981468086883,1.0,0
12.07774543762207,22.927528381347656,-1.0480895042419434,-0.0,-0.0,-1.0,0.23940580159622735,2.0,0
12.157336235046387,22.445093154907227,-1.1749706268310547,-0.0,-0.0,-1.0,0.18107129933604516,1.0,0
11.959763526916504,22.65152359008789,-1.0499968528747559,0.8502130895569,0.3442962689021287,0.3982433697705259,0.1717554074259819,3.0,0
11.967626571655273,22.00640869140625,-1.1819159984588623,-0.0,-0.0,-1.0,0.15956444398442093,2.0,0
11.730331420898438,22.352609634399414,-1.0755114555358887,-0.0,-0.0,-1.0,0.1763088142511413,1.0,0
10.83266830444336,22.85208511352539,-1.099478006362915,-0.0,-0.0,-1.0,0.1565686550419677,1.0,0
12.381735801696777,21.339908599853516,-1.033515453338623,-0.0,-0.0,-1.0,0.18953952426698287,2.0,0
12.024298667907715,21.446256637573242,-1.1266474723815918,-0.0,-0.0,-1.0,0.24049737605603858,1.0,0
11.92491340637207,21.783302307128906,-1.174543857574463,-0.0,-0.0,-1.0,0.1973515454375582,2.0,0
10.969557762145996,22.312335968017578,-1.0361669063568115,-0.0,-0.0,-1.0,0.27260219920267276,1.0,0
10.832777976989746,22.460180282592773,-1.0733463764190674,0.5488700586371515,-0.6646569279590646,-0.5069248729818538,0.1052030763988095,3.0,0
12.07535171508789,20.892486572265625,-1.0789353847503662,-0.0,-0.0,-1.0,0.05957332025010149,1.0,0
11.968465805053711,21.211671829223633,-1.1242547035217285,-0.0,-0.0,-1.0,0.08500702634533439,1.0,0
11.018001556396484,21.594282150268555,-0.9848446846008301,-0.0,-0.0,-1.0,0.25066697093209195,1.0,0
10.8336820602417,22.119369506835938,-1.0519697666168213,-0.0,-0.0,-1.0,0.21565691554060556,1.0,0
10.624187469482422,22.16309356689453,-1.0974676609039307,-0.0,-0.0,-1.0,0.161840289368691,1.0,0
10.799081802368164,21.33544158935547,-1.0175621509552002,-0.0,-0.0,-1.0,0.1476931592252437,2.0,0
10.601229667663574,21.729581832885742,-1.0781288146972656,-0.0,-0.0,-1.0,0.25626607448808564,1.0,0
10.395221710205078,21.848922729492188,-1.1269984245300293,-0.0,-0.0,-1.0,0.17805269058496978,1.0,0
12.184557914733887,22.883407592773438,-0.8361713886260986,-0.8020929180610182,0.010868253721103388,-0.5971003532551412,0.1279921070834599,4.0,0
12.290867805480957,22.0628662109375,-0.7540318965911865,-0.0,-0.0,-1.0,0.23316327568792675,1.0,0
11.917403221130371,22.48163604736328,-0.8578014373779297,-0.0,-0.0,-1.0,0.11396114374890394,1.0,0
11.983309745788574,22.055131912231445,-0.8151981830596924,-0.620450019053109,-0.2781538914516998,-0.7332613357645915,0.1947633603183329,3.0,0
11.840998649597168,22.32012939453125,-0.8615455627441406,-0.8674587224605996,0.3129150830954557,-0.3867809659204916,0.15226225685938857,4.0,0
12.491412162780762,21.311969757080078,-0.666223406791687,-0.0,-0.0,-1.0,0.16839591694491554,2.0,0
12.122171401977539,21.619352340698242,-0.7596435546875,-0.0,-0.0,-1.0,0.2249329784884758,2.0,0
11.706592559814453,20.82959747314453,-0.804847240447998,0.412085561114078,0.007873677912843326,-0.9111111323638958,0.12462519897369397,3.0,0
10.653955459594727,21.767784118652344,-0.6669412851333618,-0.5480646206737049,0.34723118549069854,-0.7609570785455064,0.28539586904875736,3.0,0
10.211108207702637,20.640037536621094,-0.708240270614624,-0.0,-0.0,-1.0,0.14613105110191965,2.0,0
12.129522323608398,23.122045516967773,-1.1862123012542725,-0.0,-0.0,-1.0,0.1766345131264382,1.0,0
12.005219459533691,22.710819244384766,-1.1989834308624268,-0.0,-0.0,-1.0,0.13141179935762448,1.0,0
12.017634391784668,22.85306739807129,-1.2023215293884277,-0.0,-0.0,-1.0,0.1537010684130335,1.0,0
11.888070106506348,22.318330764770508,-1.2157433032989502,-0.7697759395999398,0.5347247235927708,0.34858926086680464,0.14007688195815293,3.0,0
11.743704795837402,22.45416259765625,-1.2619435787200928,-0.8286760703248697,-0.12716728435164643,-0.5450912329707377,0.12520013061134005,3.0,0
11.900052070617676,21.811504364013672,-1.1965909004211426,-0.0,-0.0,-1.0,0.2188250207161098,2.0,0
11.86034107208252,21.945890426635742,-1.21158766746521,-0.0,-0.0,-1.0,0.10265365836337556,1.0,0
12.210283279418945,22.976320266723633,-0.8148343563079834,-0.0,-0.0,-1.0,0.12202124051359434,1.0,0
12.0110445022583,23.087059020996094,-0.8677794933319092,-0.0,-0.0,-1.0,0.2230377944181741,1.0,0
12.00797176361084,22.736347198486328,-0.8560020923614502,-0.0,-0.0,-1.0,0.15479161370738367,2.0,0
11.895428657531738,22.779253005981445,-0.8851261138916016,-0.0,-0.0,-1.0,0.19779878593894998,2.0,0
12.102265357971191,22.03770637512207,-0.9802753925323486,-0.0,-0.0,-1.0,0.18095957672132126,1.0,0
11.888856887817383,22.367511749267578,-0.8752861022949219,-0.3769294589115183,-0.028718342068167726,-0.9257966514486458,0.14616831571502742,3.0,0
11.73364543914795,22.459020614624023,-0.916264533996582,-0.0,-0.0,-1.0,0.15352369674254102,1.0,0
11.165653228759766,22.650888442993164,-1.0634465217590332,-0.0,-0.0,-1.0,0.06480453814588137,1.0,0
11.003890037536621,23.03498649597168,-1.1137359142303467,-0.0,-0.0,-1.0,0.10623837594643556,1.0,0
12.41988754272461,21.350210189819336,-1.034879207611084,-0.0,-0.0,-1.0,0.17462497504652297,2.0,0
11.979596138000488,21.734540939331055,-1.0064938068389893,-0.0,-0.0,-1.0,0.1397382793433622,1.0,0
11.754827499389648,21.943328857421875,-0.9014768600463867,-0.0,-0.0,-1.0,0.2573223471625923,1.0,0
11.498235702514648,22.032899856567383,-0.9680404663085938,-0.0,-0.0,-1.0,0.20080045756163864,1.0,0
10.992610931396484,22.237154006958008,-1.0999770164489746,-0.0,-0.0,-1.0,0.20582867926285137,1.0,0
10.606307983398438,22.421314239501953,-0.8202579021453857,-0.0,-0.0,-1.0,0.1847259606960518,1.0,0
10.352020263671875,22.992752075195312,-0.8786180019378662,-0.0,-0.0,-1.0,0.04355812734969232,1.0,0
12.1393404006958,21.178377151489258,-1.1158316135406494,-0.0,-0.0,-1.0,0.08321059688174667,2.0,0
10.755511283874512,21.880292892456055,-1.1580355167388916,-0.0,-0.0,-1.0,0.14737351967357468,1.0,0
10.402201652526855,22.31917953491211,-0.8656206130981445,-0.0,-0.0,-1.0,0.11923290972613787,2.0,0
12.275136947631836,20.70793914794922,-1.0738425254821777,-0.25506230323996437,-0.26589405157128654,-0.9296470162405361,0.05449294262948997,3.0,0
11.987154960632324,20.844980239868164,-0.9965870380401611,-0.0,-0.0,-1.0,0.0844799880513812,1.0,0
11.639957427978516,20.933151245117188,-0.9298434257507324,0.7590792145596997,-0.14190895630910522,-0.6353428949336647,0.18623166979646258,3.0,0
10.97221851348877,21.459579467773438,-1.1016910076141357,-0.0,-0.0,-1.0,0.05915962629814342,1.0,0
10.784831047058105,21.81441307067871,-1.150219202041626,-0.0,-0.0,-1.0,0.17686153504961652,1.0,0
10.962236404418945,21.23920440673828,-1.1054584980010986,-0.0,-0.0,-1.0,0.12397440341028916,2.0,0
11.941765785217285,22.199373245239258,-0.5259398221969604,-0.0,-0.0,-1.0,0.19241050614475505,1.0,0
12.522790908813477,21.34043312072754,-0.6979968547821045,-0.0,-0.0,-1.0,0.15351307038407278,2.0,0
12.386017799377441,21.496227264404297,-0.5800626277923584,-0.0,-0.0,-1.0,0.135584068572918,1.0,0
12.007061004638672,21.604084014892578,-0.5106494426727295,-0.8312022429788777,-0.13881542100875122,-0.5383615050846838,0.16271199540646708,3.0,0
11.619686126708984,22.05959701538086,-0.5960558652877808,-0.0,-0.0,-1.0,0.09871236990196455,2.0,0
11.937036514282227,20.67194366455078,-0.85469651222229,-0.0,-0.0,-1.0,0.10677628599428883,2.0,0
10.652730941772461,21.77665901184082,-0.8127870559692383,-0.0,-0.0,-1.0,0.20517927955785145,1.0,0
10.66384506225586,21.153627395629883,-0.8197219371795654,-0.0,-0.0,-1.0,0.21346799535236746,1.0,0
10.44369888305664,21.27499771118164,-0.8676323890686035,-0.5600541101397541,0.7022050213866696,-0.4395992511992204,0.11588503299788107,3.0,0
10.337000846862793,21.079633712768555,-0.8961443901062012,-0.0,-0.0,-1.0,0.10877505733043809,1.0,0
12.074402809143066,21.73451042175293,-0.17848074436187744,-0.27550892560131857,-0.5181974788021085,-0.8096704297905081,0.16776808499088428,3.0,0
10.814751625061035,22.736818313598633,-1.1153852939605713,-0.0,-0.0,-1.0,0.10390272464468835,1.0,0
10.7858247756958,22.262853622436523,-1.11549973487854,-0.0,-0.0,-1.0,0.10435298726326873,1.0,0
10.591020584106445,21.810619354248047,-1.1685800552368164,-0.0,-0.0,-1.0,0.14624702088934935,2.0,0
10.689108848571777,21.604843139648438,-1.141721248626709,-0.0,-0.0,-1.0,0.2319476131442865,1.0,0
11.979005813598633,22.93924331665039,-0.808828592300415,-0.0,-0.0,-1.0,0.15099174951489794,1.0,0
11.87095832824707,22.61186981201172,-0.8256354331970215,-0.003861278475011335,0.855487705327616,-0.5178087258455853,0.17794202791877078,3.0,0
11.998822212219238,22.10968780517578,-0.7773950099945068,-0.0,-0.0,-1.0,0.24478269013169637,2.0,0
11.725358009338379,22.233062744140625,-0.8552865982055664,-0.0,-0.0,-1.0,0.16202370890655857,1.0,0
11.968912124633789,21.700366973876953,-0.780083179473877,-0.0,-0.0,-1.0,0.2097232175436365,2.0,0
11.534614562988281,22.099533081054688,-0.9052872657775879,-0.0,-0.0,-1.0,0.19023285707162269,1.0,0
10.945539474487305,22.040645599365234,-1.0688838958740234,-0.0,-0.0,-1.0,0.11606350462173379,1.0,0
10.323954582214355,22.384140014648438,-0.8905189037322998,-0.0,-0.0,-1.0,0.11197458894943506,2.0,0
11.067559242248535,21.706256866455078,-1.033945083618164,-0.0,-0.0,-1.0,0.23730312311463045,1.0,0
10.603068351745605,21.82080078125,-0.826282262802124,-0.0,-0.0,-1.0,0.21638483461938646,1.0,0
10.235453605651855,22.222976684570312,-0.9128880500793457,-0.0,-0.0,-1.0,0.11221290309762598,2.0,0
11.836421966552734,20.712873458862305,-0.8264422416687012,-0.0,-0.0,-1.0,0.0979347781150887,1.0,0
11.669586181640625,20.877599716186523,-0.8708229064941406,-0.18964342075187995,-0.7661080019922686,-0.6140960040978443,0.14521837708481716,3.0,0
10.834155082702637,21.33909797668457,-1.1033077239990234,-0.0,-0.0,-1.0,0.09609313294908009,1.0,0
10.439642906188965,21.391193389892578,-0.8749666213989258,-0.0,-0.0,-1.0,0.08057173968501746,1.0,0
10.265771865844727,21.539777755737305,-0.9151041507720947,-0.0,-0.0,-1.0,0.17170369655265016,1.0,0
10.234709739685059,21.15047264099121,-0.9334161281585693,-0.0,-0.0,-1.0,0.11033178426640017,2.0,0
12.57071304321289,21.332664489746094,-0.6091442108154297,-0.0,-0.0,-1.0,0.17060056202150667,1.0,0
12.351041793823242,21.43895149230957,-0.671353816986084,-0.0,-0.0,-1.0,0.16239287769261274,2.0,0
11.987215995788574,21.63100242614746,-0.4869506359100342,-0.8312022429788777,-0.13881542100875122,-0.5383615050846838,0.14248397445689945,3.0,0
11.63022232055664,22.035808563232422,-0.5730645656585693,-0.0,-0.0,-1.0,0.13087597050015617,2.0,0
12.06886100769043,21.747920989990234,-0.18517792224884033,-0.0,-0.0,-1.0,0.16776808499088433,2.0,0
10.326271057128906,21.15500259399414,-0.7575013637542725,-0.0,-0.0,-1.0,0.13204165723961186,1.0,0
12.002850532531738,21.685956954956055,-0.33191871643066406,-0.0,-0.0,-1.0,0.07640604644167162,1.0,0
10.380945205688477,20.980205535888672,-0.9869205951690674,-0.0,-0.0,-1.0,0.08749048669970338,1.0,0
12.214641571044922,21.93095588684082,-0.30901360511779785,-0.0,-0.0,-1.0,0.0861872871167872,1.0,0
12.498737335205078,21.452054977416992,-0.8301317691802979,-0.0,-0.0,-1.0,0.22387258504663965,1.0,0
10.44579792022705,21.236967086791992,-0.9503684043884277,-0.0,-0.0,-1.0,0.10804173043537106,2.0,0
12.070889472961426,22.888864517211914,-0.9105198383331299,-0.0,-0.0,-1.0,0.2211190292034187,1.0,0
11.176490783691406,22.330514907836914,-0.906296968460083,-0.0,-0.0,-1.0,0.12982999255191954,2.0,0
10.73433780670166,22.702268600463867,-0.9744961261749268,-0.5910630803851428,-0.8002581449509678,-0.10115006893355148,0.14103977414325924,3.0,0
10.363733291625977,21.78074836730957,-0.900043249130249,-0.0,-0.0,-1.0,0.26827022120522653,1.0,0
12.083105087280273,21.64496421813965,-0.39872217178344727,-0.0,-0.0,-1.0,0.11711324437499741,2.0,0
12.61015510559082,21.289039611816406,-0.9899775981903076,-0.40160255613196305,-0.3217741286039629,-0.857424513919117,0.1367931211488186,4.0,0
10.55188274383545,20.964855194091797,-1.0606434345245361,-0.0,-0.0,-1.0,0.10588391541067632,2.0,0
11.068437576293945,22.410106658935547,-1.0830373764038086,-0.0,-0.0,-1.0,0.14265512824805604,1.0,0
11.144388198852539,22.603378295898438,-1.1087708473205566,-0.0,-0.0,-1.0,0.07196099644776882,1.0,0
10.6522855758667,21.986896514892578,-1.0422310829162598,-0.0,-0.0,-1.0,0.18698083922468103,2.0,0
12.551835060119629,21.409976959228516,-0.8445236682891846,0.11093711118904682,-0.22738510569467446,-0.9674652299019592,0.18140266817921077,3.0,0
10.54998779296875,21.26789665222168,-0.9364376068115234,-0.0,-0.0,-1.0,0.11582069942300684,1.0,0
10.743806838989258,22.59815216064453,-1.0907866954803467,-0.0,-0.0,-1.0,0.1335690573701862,1.0,0
12.101252555847168,21.60018539428711,-0.8525114059448242,0.7116137631385268,0.7020893005659795,-0.026008962735914628,0.23485309822795422,3.0,0
11.99602222442627,22.287796020507812,-0.9657340049743652,-0.0,-0.0,-1.0,0.13477917421648153,1.0,0
10.46840763092041,22.247413635253906,-1.0545012950897217,-0.0,-0.0,-1.0,0.12344570226327554,1.0,0
10.551361083984375,21.394176483154297,-0.9165048599243164,-0.0,-0.0,-1.0,0.06850974058379962,1.0,0
11.238859176635742,22.296676635742188,-1.0009615421295166,-0.0,-0.0,-1.0,0.15358233267155696,2.0,0
10.666025161743164,21.340665817260742,-0.8872127532958984,-0.0,-0.0,-1.0,0.12267516810368508,1.0,0
10.591170310974121,20.92673110961914,-1.1095447540283203,-0.0,-0.0,-1.0,0.13102717797199412,1.0,0
12.034635543823242,21.78518295288086,-0.6952164173126221,-0.0,-0.0,-1.0,0.1912052966506016,1.0,0
11.893497467041016,22.162120819091797,-0.7581326961517334,-0.0,-0.0,-1.0,0.21499455541671922,1.0,0
10.773542404174805,21.922443389892578,-0.7720530033111572,-0.0,-0.0,-1.0,0.16934923507458008,1.0,0
10.340049743652344,22.98556137084961,-0.9550926685333252,-0.0,-0.0,-1.0,0.09094837885864934,1.0,0
10.265434265136719,22.211042404174805,-0.841644287109375,-0.0,-0.0,-1.0,0.11056915842843197,1.0,0
10.908485412597656,21.268844604492188,-1.0274198055267334,-0.0,-0.0,-1.0,0.1485934428256356,2.0,0
10.673243522644043,21.025432586669922,-0.9960522651672363,-0.0,-0.0,-1.0,0.1287876904971028,1.0,0
12.528348922729492,21.445804595947266,-0.5821011066436768,-0.0,-0.0,-1.0,0.13009729322077562,1.0,0
12.100616455078125,21.628402709960938,-0.6214804649353027,-0.0,-0.0,-1.0,0.11724261968666247,2.0,0
12.04737377166748,22.282752990722656,-0.7307634353637695,-0.0,-0.0,-1.0,0.11695998525684602,1.0,0
11.754609107971191,22.054059982299805,-0.7004151344299316,-0.0,-0.0,-1.0,0.12307008919088167,1.0,0
10.60415267944336,20.86271095275879,-1.1417145729064941,-0.0,-0.0,-1.0,0.14136607270766327,1.0,0
10.542411804199219,20.720943450927734,-1.113111972808838,-0.0,-0.0,-1.0,0.106575668873296,1.0,0
12.705680847167969,21.32249641418457,-0.5645198822021484,-0.0,-0.0,-1.0,0.153610335656789,1.0,0
12.029080390930176,21.61216163635254,-0.6163043975830078,-0.0,-0.0,-1.0,0.1628807758930297,1.0,0
12.016762733459473,22.14805793762207,-0.7088232040405273,-0.0,-0.0,-1.0,0.22828331090763582,2.0,0
12.388370513916016,21.968055725097656,-0.8221597671508789,-0.0,-0.0,-1.0,0.25724747508250845,1.0,0
12.158317565917969,21.638608932495117,-0.7657663822174072,-0.0,-0.0,-1.0,0.21197147197318636,2.0,0
12.068071365356445,21.951990127563477,-0.8272745609283447,-0.0,-0.0,-1.0,0.23263728153169108,1.0,0
11.997909545898438,22.470256805419922,-0.9270179271697998,-0.0,-0.0,-1.0,0.19557791659664664,2.0,0
12.146103858947754,22.6409969329834,-0.9552106857299805,-0.0,-0.0,-1.0,0.18945180766125325,1.0,0
11.758193016052246,22.101472854614258,-0.8642117977142334,-0.0,-0.0,-1.0,0.24436651589626826,1.0,0
11.876886367797852,22.612091064453125,-0.9572482109069824,-0.0,-0.0,-1.0,0.18955950192603307,2.0,0
10.887320518493652,22.601741790771484,-0.9880895614624023,-0.0,-0.0,-1.0,0.14171389243299076,1.0,0
10.781268119812012,21.66510772705078,-0.8144400119781494,-0.0,-0.0,-1.0,0.1720414512689292,2.0,0
10.578947067260742,22.17961311340332,-0.9198846817016602,-0.0,-0.0,-1.0,0.21508016150665726,2.0,0
12.221626281738281,22.802038192749023,-1.119230031967163,-0.0,-0.0,-1.0,0.20301098289881805,2.0,0
11.888833045959473,22.669824600219727,-1.0967519283294678,-0.0,-0.0,-1.0,0.26930698926180496,1.0,0
11.556283950805664,22.920944213867188,-1.1539955139160156,-0.0,-0.0,-1.0,0.0729320692413527,1.0,0
11.058215141296387,22.542173385620117,-1.0862247943878174,-0.0,-0.0,-1.0,0.07982660837475765,1.0,0
12.234064102172852,21.987699508666992,-0.9522407054901123,-0.6658627808611802,-0.5668186215880234,-0.48512205400792585,0.2206508320267124,3.0,0
12.11654281616211,21.58400535583496,-0.8709309101104736,0.7116137631385268,0.7020893005659795,-0.026008962735914628,0.19816232025340158,3.0,0
11.908112525939941,21.831113815307617,-0.9243335723876953,-0.0,-0.0,-1.0,0.22381344894992536,1.0,0
11.879741668701172,22.096834182739258,-0.9792721271514893,-0.0,-0.0,-1.0,0.21764829384122344,1.0,0
11.616308212280273,20.814355850219727,-0.7200174331665039,-0.0,-0.0,-1.0,0.09302148255554855,2.0,0
11.554113388061523,20.79131507873535,-0.7162885665893555,-0.0,-0.0,-1.0,0.11447891529661061,1.0,0
10.824254989624023,21.305110931396484,-0.8367800712585449,-0.0,-0.0,-1.0,0.14490475792162963,1.0,0
10.732528686523438,21.718013763427734,-0.9241297245025635,-0.0,-0.0,-1.0,0.27652143691900005,2.0,0
10.508055686950684,21.305967330932617,-0.8450014591217041,-0.0,-0.0,-1.0,0.17801024813487284,2.0,0
10.51771354675293,21.55026626586914,-0.8951914310455322,-0.0,-0.0,-1.0,0.1490547205666677,1.0,0
10.591475486755371,21.84589195251465,-0.9541206359863281,-0.0,-0.0,-1.0,0.2396312699014291,1.0,0
10.25473690032959,20.641103744506836,-0.714977502822876,-0.0,-0.0,-1.0,0.14613105110191965,2.0,0
11.99819278717041,22.252840042114258,-1.0551838874816895,-0.0,-0.0,-1.0,0.11442865318467367,1.0,0
11.951445579528809,22.509775161743164,-1.114030122756958,-0.0,-0.0,-1.0,0.23233193910622685,2.0,0
11.782238006591797,23.03926658630371,-1.2380826473236084,-0.0,-0.0,-1.0,0.06641030713161,1.0,0
11.608217239379883,22.59701919555664,-1.145202398300171,-0.0,-0.0,-1.0,0.10653420599864186,2.0,0
11.473542213439941,22.699630737304688,-1.1732079982757568,-0.0,-0.0,-1.0,0.036470968532740095,1.0,0
11.126117706298828,22.44176483154297,-1.1290404796600342,-0.0,-0.0,-1.0,0.0851496757693475,1.0,0
11.31873893737793,22.630659103393555,-1.1636581420898438,-0.0,-0.0,-1.0,0.028950658541734366,1.0,0
12.08277702331543,21.69432830810547,-0.9280836582183838,-0.0,-0.0,-1.0,0.14987195811028137,1.0,0
12.168610572814941,22.015201568603516,-0.997039794921875,-0.0,-0.0,-1.0,0.173693184064885,2.0,0
11.740821838378906,22.048187255859375,-1.0177206993103027,-0.0,-0.0,-1.0,0.2109607727608706,1.0,0
10.839422225952148,21.181041717529297,-0.8578908443450928,-0.0,-0.0,-1.0,0.20867472514486815,1.0,0
10.802996635437012,21.393720626831055,-0.9073772430419922,0.7906074447663369,-0.4707828058749025,-0.39153980381641623,0.20951131336889947,3.0,0
10.748519897460938,21.859655380249023,-1.0145833492279053,-0.0,-0.0,-1.0,0.2216407443577717,1.0,0
10.518170356750488,21.43537139892578,-0.9298160076141357,-0.0,-0.0,-1.0,0.07008344907447527,1.0,0
10.764954566955566,21.004499435424805,-1.1079318523406982,-0.0,-0.0,-1.0,0.17678622894412552,1.0,0
10.580883026123047,21.012765884399414,-1.1131153106689453,-0.0,-0.0,-1.0,0.09416910908255206,1.0,0
12.641767501831055,21.288555145263672,-0.6388657093048096,0.016100801812215758,0.8346314783462384,-0.5505733915969568,0.1664723441747133,5.0,0
12.441566467285156,22.774511337280273,-0.9669387340545654,-0.0,-0.0,-1.0,0.11208917893092835,1.0,0
12.059389114379883,21.65639305114746,-0.7194721698760986,-0.0,-0.0,-1.0,0.17160439812141068,1.0,0
11.979068756103516,21.95123863220215,-0.7853116989135742,-0.0,-0.0,-1.0,0.26725739798064074,1.0,0
11.909307479858398,22.395151138305664,-0.884469747543335,-0.0,-0.0,-1.0,0.14214454599456278,2.0,0
11.055059432983398,22.258188247680664,-0.8635709285736084,-0.0,-0.0,-1.0,0.1793873963057999,1.0,0
10.745782852172852,21.852678298950195,-0.7781288623809814,-0.0,-0.0,-1.0,0.16559196940030566,1.0,0
10.621817588806152,22.54197120666504,-0.9356629848480225,-0.0,-0.0,-1.0,0.15203440693047343,2.0,0
10.281753540039062,22.246732711791992,-0.8775191307067871,-0.0,-0.0,-1.0,0.12449809086005789,2.0,0
12.431520462036133,21.372282028198242,-0.7446293830871582,-0.0,-0.0,-1.0,0.2522638608458724,2.0,0
12.271502494812012,21.966529846191406,-0.879021167755127,-0.0,-0.0,-1.0,0.20932828620194932,2.0,0
12.059264183044434,21.612903594970703,-0.7903962135314941,-0.6304837919761714,0.05201041933863402,-0.7744579422638567,0.2759597219038144,3.0,0
12.06225872039795,22.023868560791016,-0.8872456550598145,-0.806569476211625,0.46803187636537225,-0.3610981068208665,0.1191527821188434,3.0,0
11.979366302490234,22.400205612182617,-0.9742138385772705,-0.0,-0.0,-1.0,0.13482091134098922,2.0,0
11.951347351074219,22.653181076049805,-1.0334620475769043,0.47950936892827273,0.8448003706694226,0.23745125568591052,0.17806196237796676,4.0,0
11.751457214355469,22.12978172302246,-0.9058995246887207,-0.0,-0.0,-1.0,0.22415725995580552,1.0,0
11.18608283996582,22.242712020874023,-0.925929069519043,-0.0,-0.0,-1.0,0.1790809950249189,1.0,0
11.033500671386719,22.59501075744629,-1.0093071460723877,-0.0,-0.0,-1.0,0.0966258278205827,1.0,0
10.759557723999023,21.824098587036133,-0.8243517875671387,-0.0,-0.0,-1.0,0.17847524572696136,1.0,0
10.761927604675293,22.25067710876465,-0.9266993999481201,-0.0,-0.0,-1.0,0.26006255513197324,1.0,0
10.62840461730957,22.546934127807617,-0.9980084896087646,-0.0,-0.0,-1.0,0.08401235734848654,1.0,0
10.31695556640625,22.29955291748047,-0.9405744075775146,-0.0,-0.0,-1.0,0.09681845379064653,1.0,0
10.425666809082031,22.38573455810547,-0.9604010581970215,-0.0,-0.0,-1.0,0.16468940422025005,1.0,0
12.51323413848877,22.20230484008789,-1.3124361038208008,-0.0,-0.0,-1.0,0.03081759364740462,1.0,0
12.116053581237793,22.563709259033203,-0.8830089569091797,-0.0,-0.0,-1.0,0.14310210660249365,1.0,0
11.932601928710938,22.5283203125,-0.8719737529754639,-0.0,-0.0,-1.0,0.11061999781066087,1.0,0
11.39666748046875,21.81397247314453,-1.1781916618347168,-0.0,-0.0,-1.0,0.12054482502757254,2.0,0
11.105531692504883,21.53580093383789,-1.0952837467193604,-0.0,-0.0,-1.0,0.22924597384755552,2.0,0
11.229103088378906,21.786479949951172,-1.168748378753662,-0.0,-0.0,-1.0,0.12265231623827012,1.0,0
10.757650375366211,22.83727264404297,-0.9496397972106934,-0.0,-0.0,-1.0,0.13299926995516687,1.0,0
10.700368881225586,21.160701751708984,-0.9852666854858398,-0.0,-0.0,-1.0,0.18354015458398373,1.0,0
10.89659309387207,21.2896728515625,-1.022829532623291,-0.0,-0.0,-1.0,0.1436339711333219,2.0,0
10.297371864318848,21.05957794189453,-0.9580206871032715,-0.0,-0.0,-1.0,0.10877505733043814,1.0,0
12.452909469604492,21.443363189697266,-0.6096463203430176,-0.0,-0.0,-1.0,0.1707067961665682,1.0,0
12.137313842773438,21.57430648803711,-0.6358163356781006,-0.0,-0.0,-1.0,0.18043615664064225,1.0,0
12.115335464477539,22.13760757446289,-0.7762646675109863,-0.0,-0.0,-1.0,0.12183185174572711,2.0,0
12.025774002075195,21.653247833251953,-0.6537470817565918,-0.0,-0.0,-1.0,0.21513715296117514,1.0,0
11.836236953735352,22.082914352416992,-0.7591454982757568,-0.0,-0.0,-1.0,0.14197137781499686,1.0,0
11.890754699707031,22.325681686401367,-0.820650577545166,-0.0,-0.0,-1.0,0.22454073628795207,2.0,0
11.012051582336426,22.25072479248047,-0.798703670501709,-0.4088970799338151,-0.9099472094373453,-0.06927664872658668,0.12220016779637019,3.0,0
12.64844799041748,21.26934814453125,-0.906841516494751,-0.0,-0.0,-1.0,0.18637464566098133,1.0,0
12.518409729003906,22.623950958251953,-1.2957468032836914,-0.0,-0.0,-1.0,0.029658938941714452,1.0,0
12.090210914611816,21.578031539916992,-0.9734706878662109,-0.2837568545879035,0.7367633843001946,0.6137277597020552,0.2269339797909004,3.0,0
12.08835220336914,21.970439910888672,-1.088721513748169,-0.0,-0.0,-1.0,0.09682767658519179,2.0,0
11.912251472473145,21.7889347076416,-1.0297327041625977,-0.0,-0.0,-1.0,0.23910088174500962,1.0,0
11.872091293334961,22.172426223754883,-1.1417791843414307,-0.0,-0.0,-1.0,0.20336614662677976,1.0,0
11.700793266296387,22.504661560058594,-1.2360467910766602,-0.8898977477376153,-0.12571679084617832,-0.4384943409792855,0.12655873000433857,3.0,0
11.335530281066895,22.086200714111328,-1.104264259338379,-0.0,-0.0,-1.0,0.1182938581021416,1.0,0
11.285523414611816,22.405502319335938,-1.1988472938537598,-0.0,-0.0,-1.0,0.0634615357526487,1.0,0
11.183631896972656,21.580673217773438,-0.9510025978088379,-0.0,-0.0,-1.0,0.1801800862152143,1.0,0
11.049819946289062,22.31875991821289,-1.169970989227295,-0.0,-0.0,-1.0,0.09734125572842461,1.0,0
10.773439407348633,21.761842727661133,-1.0006678104400635,-0.0,-0.0,-1.0,0.21159592076526673,1.0,0
10.587717056274414,21.930654525756836,-1.0507168769836426,-0.0,-0.0,-1.0,0.22257026152963127,1.0,0
12.478450775146484,21.46832275390625,-0.5032410621643066,-0.0,-0.0,-1.0,0.11313355269226956,2.0,0
12.28573226928711,22.823734283447266,-0.8456249237060547,-0.0,-0.0,-1.0,0.1507326792896962,1.0,0
12.362218856811523,22.931673049926758,-0.8752331733703613,-0.0,-0.0,-1.0,0.2234451968600515,1.0,0
12.11838436126709,21.732507705688477,-0.5604565143585205,-0.0,-0.0,-1.0,0.08315999842558115,1.0,0
12.036358833312988,22.16991424560547,-0.6713066101074219,-0.0,-0.0,-1.0,0.19694240930550436,2.0,0
12.014015197753906,22.701601028442383,-0.808415412902832,-0.0,-0.0,-1.0,0.17070955758061473,1.0,0
11.704805374145508,22.024625778198242,-0.6273324489593506,-0.0,-0.0,-1.0,0.14450268864478574,2.0,0
10.783052444458008,21.23154640197754,-0.8416635990142822,-0.0,-0.0,-1.0,0.2022663187176726,2.0,0
10.651613235473633,21.54916763305664,-0.9361345767974854,-0.0,-0.0,-1.0,0.16954472686850755,2.0,0
10.367030143737793,21.260456085205078,-0.848806619644165,-0.0,-0.0,-1.0,0.13754732714283532,1.0,0
10.422005653381348,21.53882598876953,-0.9325921535491943,-0.0,-0.0,-1.0,0.1430016873111813,1.0,0
12.371922492980957,22.948671340942383,-0.8281998634338379,-0.0,-0.0,-1.0,0.16372055854471684,1.0,0
12.161858558654785,22.867992401123047,-0.7991595268249512,-0.839508705049319,-0.27769490341959696,-0.46702320580587453,0.1321244960434985,4.0,0
11.969072341918945,23.060653686523438,-0.8462932109832764,-0.0,-0.0,-1.0,0.23251467167350076,2.0,0
12.503023147583008,21.537336349487305,-0.4527626037597656,-0.0,-0.0,-1.0,0.09071457780908654,1.0,0
12.108561515808105,21.598709106445312,-0.4520375728607178,0.04061650357167829,0.9062989997214668,-0.42068090370431666,0.10948762140495893,3.0,0
11.745502471923828,22.002483367919922,-0.54972243309021,-0.0,-0.0,-1.0,0.13874564255177857,1.0,0
12.046260833740234,22.225048065185547,-0.6199312210083008,-0.0,-0.0,-1.0,0.20033932382616337,2.0,0
10.708784103393555,22.125267028808594,-1.1176600456237793,-0.0,-0.0,-1.0,0.09938861546367536,2.0,0
10.427042007446289,21.98105239868164,-1.1073927879333496,-0.0,-0.0,-1.0,0.06873190650488321,1.0,0
11.20911979675293,22.420032501220703,-1.1529183387756348,-0.0,-0.0,-1.0,0.06562968096998822,1.0,0
10.880905151367188,22.22488021850586,-1.128629207611084,-0.0,-0.0,-1.0,0.10995881843631207,1.0,0
10.640182495117188,21.850967407226562,-1.0425004959106445,-0.0,-0.0,-1.0,0.2595119210718839,1.0,0
11.177983283996582,21.83966064453125,-0.9786691665649414,-0.0,-0.0,-1.0,0.20832932251274872,1.0,0
10.71338176727295,21.434749603271484,-0.9079599380493164,-0.0,-0.0,-1.0,0.19283284867818384,1.0,0
10.33957290649414,21.247644424438477,-0.8972663879394531,-0.0,-0.0,-1.0,0.12943460945714236,1.0,0
10.618324279785156,21.125123977661133,-0.8258700370788574,-0.0,-0.0,-1.0,0.14914088382068902,2.0,0
10.761259078979492,22.090274810791016,-1.1829984188079834,-0.0,-0.0,-1.0,0.07208762901122474,1.0,0
10.3568115234375,21.913204193115234,-1.1377007961273193,-0.0,-0.0,-1.0,0.1469223902192105,1.0,0
11.758132934570312,22.45986557006836,-1.2852084636688232,-0.0,-0.0,-1.0,0.12289541782625486,2.0,0
11.550758361816406,22.293020248413086,-1.2328851222991943,-0.0,-0.0,-1.0,0.09507850781753326,1.0,0
11.055509567260742,22.024616241455078,-1.154010534286499,-0.0,-0.0,-1.0,0.058830636815774336,1.0,0
11.00195026397705,21.947589874267578,-1.1300818920135498,-0.0,-0.0,-1.0,0.06574713756668964,1.0,0
10.673032760620117,21.305076599121094,-0.9290540218353271,-0.3366954848913868,0.04636617593869469,-0.9404713329935027,0.15653380465579952,3.0,0
10.400222778320312,21.22490692138672,-0.9123055934906006,-0.0,-0.0,-1.0,0.0947168878237669,1.0,0
12.398226737976074,22.533363342285156,-1.3057963848114014,-0.0,-0.0,-1.0,0.03028966190581814,1.0,0
12.053447723388672,22.517810821533203,-1.3018381595611572,-0.0,-0.0,-1.0,0.08001667023172905,1.0,0
11.752102851867676,22.027423858642578,-1.1427199840545654,-0.0,-0.0,-1.0,0.16908289548265767,1.0,0
12.682600021362305,22.51007080078125,-1.2984130382537842,-0.0,-0.0,-1.0,0.013966849361636028,1.0,0
11.972763061523438,21.54357147216797,-0.9807045459747314,-0.0,-0.0,-1.0,0.19349668070837042,2.0,0
10.314085960388184,23.089017868041992,-0.9341018199920654,-0.0,-0.0,-1.0,0.0459108655257051,1.0,0
12.088252067565918,22.96701431274414,-0.8758676052093506,-0.0,-0.0,-1.0,0.2376968902420722,1.0,0
11.813368797302246,22.73861312866211,-0.8102519512176514,-0.0,-0.0,-1.0,0.21240305178345462,2.0,0
11.972383499145508,22.11529541015625,-0.6273171901702881,-0.0,-0.0,-1.0,0.26509911133650504,1.0,0
11.164871215820312,21.167705535888672,-0.870466947555542,-0.0,-0.0,-1.0,0.205010913367186,1.0,0
