x,y,z,nx,ny,nz,curvature,density,label
38.655250549316406,7.964737892150879,-1.368634819984436,-0.0,-0.0,-1.0,0.12785651186914254,2.0,0
38.8421745300293,7.546598434448242,-1.364690899848938,-0.0,-0.0,-1.0,0.07550450940030966,2.0,0
38.970550537109375,7.80478572845459,-0.8370355367660522,-0.0,-0.0,-1.0,0.13833191843971038,1.0,0
37.98302459716797,6.517126560211182,-1.3765469789505005,-0.0,-0.0,-1.0,0.06135626637200625,2.0,0
37.73181915283203,6.520205020904541,-1.354329228401184,-0.0,-0.0,-1.0,0.18348380605133263,1.0,0
38.807098388671875,5.810852527618408,-1.349779486656189,-0.18995288474619884,0.2742763038123456,-0.9427037767738257,0.09144206780142422,3.0,0
38.45066833496094,5.927414417266846,-1.3327332735061646,-0.0,-0.0,-1.0,0.02023941183253802,2.0,0
38.254638671875,6.127932071685791,-1.343798279762268,-0.47446645951336014,0.5997290531853976,-0.6443653013331833,0.039044567580392216,3.0,0
38.92791748046875,5.7301344871521,-1.3497427701950073,-0.0,-0.0,-1.0,0.09892842011140614,1.0,0
39.47499465942383,8.026622772216797,-1.1544266939163208,-0.6662457009453583,0.69869335121751,0.2606612110312421,0.14527673587690915,4.0,0
39.680259704589844,7.4358906745910645,-1.1015111207962036,-0.0,-0.0,-1.0,0.19046149167719284,1.0,0
39.34765625,7.528461933135986,-1.0867048501968384,-0.0,-0.0,-1.0,0.19130575244435905,2.0,0
39.97762680053711,7.173745632171631,-1.0943933725357056,-0.0,-0.0,-1.0,0.16586443529074218,1.0,0
38.115169525146484,7.519375324249268,-1.5311393737792969,-0.0,-0.0,-1.0,0.03917382209656951,1.0,0
37.87082290649414,7.6208720207214355,-1.5297737121582031,-0.0,-0.0,-1.0,0.04261794979937054,1.0,0
38.0580940246582,7.523678302764893,-1.5276401042938232,-0.0,-0.0,-1.0,0.03711001683790535,1.0,0
37.809322357177734,7.5737385749816895,-1.5178050994873047,-0.0,-0.0,-1.0,0.039216223244781884,1.0,0
39.52886199951172,6.196958065032959,-1.4413824081420898,-0.0,-0.0,-1.0,0.08420571015550776,1.0,0
40.006446838378906,5.805178165435791,-1.4277756214141846,-0.0,-0.0,-1.0,0.03699281079314562,1.0,0
39.7799072265625,5.974063396453857,-1.4312686920166016,-0.0,-0.0,-1.0,0.03144081742314322,1.0,0
39.40849685668945,6.172092914581299,-1.426802635192871,-0.0,-0.0,-1.0,0.06734793098691398,1.0,0
39.02585220336914,6.31011438369751,-1.414034366607666,-0.0,-0.0,-1.0,0.03816342307370556,2.0,0
38.54422378540039,6.248977184295654,-1.3637714385986328,-0.0,-0.0,-1.0,0.05277104035224826,1.0,0
38.23407745361328,6.2862067222595215,-1.3443059921264648,-0.0,-0.0,-1.0,0.040070404157261125,2.0,0
38.033199310302734,6.2216668128967285,-1.3181662559509277,-0.0,-0.0,-1.0,0.06936345154922428,1.0,0
37.76448059082031,6.228755474090576,-1.2985479831695557,-0.0,-0.0,-1.0,0.09501993347207208,1.0,0
40.05695343017578,7.529629230499268,-1.1110327243804932,-0.0,-0.0,-1.0,0.12060496379054203,1.0,0
39.53719711303711,7.637793064117432,-1.538556694984436,-0.0,-0.0,-1.0,0.09148127790768788,1.0,0
39.35982894897461,6.985650539398193,-1.4213677644729614,-0.0,-0.0,-1.0,0.1658555780415749,1.0,0
39.27822494506836,7.3883538246154785,-1.4826959371566772,-0.0,-0.0,-1.0,0.1715293824135906,1.0,0
38.71147537231445,7.606166362762451,-1.4882827997207642,-0.0,-0.0,-1.0,0.04454921984922647,2.0,0
38.57338333129883,7.790198802947998,-1.5123344659805298,-0.0,-0.0,-1.0,0.04775590611428736,1.0,0
38.26646423339844,7.93798303604126,-1.522621750831604,-0.0,-0.0,-1.0,0.011641269215701536,1.0,0
39.45964813232422,6.814749240875244,-1.3995457887649536,-0.0,-0.0,-1.0,0.1411374042829085,1.0,0
38.033504486083984,7.959140300750732,-1.515640139579773,-0.0,-0.0,-1.0,0.009754504503871423,2.0,0
37.77370834350586,7.912521839141846,-1.4963968992233276,-0.0,-0.0,-1.0,0.028214355612950253,1.0,0
40.06877899169922,6.042135715484619,-1.3155299425125122,-0.0,-0.0,-1.0,0.08395462747227334,1.0,0
39.867881774902344,6.207586765289307,-1.3280836343765259,-0.0,-0.0,-1.0,0.11206935631818912,1.0,0
39.58186340332031,6.43798303604126,-1.3462880849838257,-0.0,-0.0,-1.0,0.22885086534753252,2.0,0
38.69542694091797,6.5808329582214355,-1.3167089223861694,-0.0,-0.0,-1.0,0.05255920691332714,1.0,0
38.45919418334961,6.4682698249816895,-1.2850970029830933,-0.0,-0.0,-1.0,0.07937971579018548,1.0,0
38.183719635009766,6.280519962310791,-1.2390633821487427,-0.0,-0.0,-1.0,0.0593343952667233,1.0,0
37.99098587036133,6.3355326652526855,-1.2384532690048218,-0.0,-0.0,-1.0,0.1169225381833993,1.0,0
39.804317474365234,7.537258625030518,-0.9630738496780396,-0.0,-0.0,-1.0,0.10771080978144985,1.0,0
39.63371658325195,7.740000247955322,-1.3399204015731812,-0.0,-0.0,-1.0,0.17263829856735038,1.0,0
39.364078521728516,7.943200588226318,-1.371245265007019,-0.0,-0.0,-1.0,0.26258452765087864,1.0,0
39.07441329956055,8.046163558959961,-1.38498055934906,-0.0,-0.0,-1.0,0.15399099713202807,1.0,0
39.845523834228516,6.672694683074951,-1.1680961847305298,-0.0,-0.0,-1.0,0.050447789401929365,1.0,0
39.51847839355469,7.054624080657959,-1.2152048349380493,-0.0,-0.0,-1.0,0.08039075689738835,2.0,0
39.32863235473633,7.529419422149658,-1.2958709001541138,-0.6516318159614538,0.2778474197382652,-0.7058163980608314,0.1806126643442238,4.0,0
38.879600524902344,8.041019439697266,-1.3811780214309692,0.1855838658453114,-0.7151346932650833,-0.6738998436166639,0.1379781701943755,3.0,0
39.76605987548828,6.655216693878174,-1.1627382040023804,-0.6444362692258103,-0.6817834932860474,-0.3462270399448796,0.05672259421489023,3.0,0
39.518348693847656,6.45328950881958,-1.1204088926315308,-0.0,-0.0,-1.0,0.0784778889450727,1.0,0
39.28356170654297,6.995964527130127,-1.199398159980774,-0.0,-0.0,-1.0,0.2102081092790153,2.0,0
39.096866607666016,7.8455119132995605,-0.7858458757400513,0.9202851245987113,0.031945134625509866,0.38994204417591666,0.15182554029885542,6.0,0
39.94927978515625,6.55731201171875,-1.360641598701477,-0.0,-0.0,-1.0,0.12300071372656071,2.0,0
39.15422821044922,7.542125701904297,-1.4513157606124878,-0.0,-0.0,-1.0,0.13654204141836584,1.0,0
39.114376068115234,7.84367561340332,-1.4981557130813599,-0.0,-0.0,-1.0,0.09652379212235823,1.0,0
38.912933349609375,8.13216781616211,-1.5316163301467896,-0.0,-0.0,-1.0,0.1636248851841933,1.0,0
39.716129302978516,6.492643356323242,-1.3298927545547485,-0.0,-0.0,-1.0,0.12379625599534581,2.0,0
39.355445861816406,6.585254669189453,-1.3131567239761353,-0.0,-0.0,-1.0,0.17473811101457415,1.0,0
39.037349700927734,7.009397506713867,-1.3550609350204468,-0.3235978647016038,0.2869045291803258,-0.9016486084369993,0.13725182347526105,3.0,0
38.997596740722656,7.084038734436035,-1.3640671968460083,-0.0,-0.0,-1.0,0.1448523184768462,2.0,0
39.47445297241211,6.336416244506836,-1.2843338251113892,-0.0,-0.0,-1.0,0.18118053635884196,1.0,0
39.359161376953125,6.51118278503418,-1.3018797636032104,-0.45568285640978523,0.708234124914492,-0.5392193975376098,0.22438523007646202,4.0,0
39.104270935058594,6.764176368713379,-1.3209012746810913,-0.0,-0.0,-1.0,0.14470122531495036,1.0,0
38.39748001098633,7.355873107910156,-1.363806128501892,-0.0,-0.0,-1.0,0.036893220280700564,1.0,0
40.02051544189453,7.728056907653809,-0.9771522283554077,-0.0,-0.0,-1.0,0.11567117763487134,2.0,0
39.15459060668945,7.920882225036621,-0.9536539316177368,0.800007720051097,-0.020200364097993292,0.5996495586164926,0.20480149179845591,4.0,0
38.16899490356445,6.948253631591797,-1.2787832021713257,-0.0,-0.0,-1.0,0.10995284912060922,1.0,0
38.81830978393555,5.663599967956543,-1.2977545261383057,-0.0,-0.0,-1.0,0.10581787752086955,1.0,0
38.39628601074219,5.830226898193359,-1.2838890552520752,-0.0,-0.0,-1.0,0.018150993029815127,2.0,0
38.141998291015625,6.1069793701171875,-1.304776668548584,-0.0,-0.0,-1.0,0.039543393221018984,1.0,0
37.835052490234375,6.326118469238281,-1.312746286392212,-0.0,-0.0,-1.0,0.13415938190653864,1.0,0
39.74973678588867,7.742042541503906,-1.1439900398254395,-0.08145777826131809,-0.5981032698250415,-0.7972685300357235,0.1641143554311339,3.0,0
39.30937576293945,8.123831748962402,-1.1667053699493408,-0.0,-0.0,-1.0,0.1894656144007166,2.0,0
39.891658782958984,7.135796546936035,-1.0724234580993652,-0.0,-0.0,-1.0,0.22149309157207814,2.0,0
39.318450927734375,7.969332695007324,-1.1461105346679688,-0.07655479644384411,0.5154206184162238,-0.853510954383644,0.11223894877645778,5.0,0
39.51978302001953,7.181178092956543,-1.052755355834961,-0.0,-0.0,-1.0,0.1276202333955191,2.0,0
39.29094696044922,7.527615547180176,-1.0840418338775635,-0.6008823407818792,0.6599187889027949,0.45105166510008377,0.23471406285351745,5.0,0
39.12974548339844,7.864428520202637,-0.5637936592102051,-0.0,-0.0,-1.0,0.1959496226055939,1.0,0
38.53422546386719,5.714877605438232,-1.353278636932373,-0.0,-0.0,-1.0,0.01786750991600025,2.0,0
38.251712799072266,5.921020030975342,-1.3484382629394531,-0.2906259955825014,0.055275322239560255,-0.9552388023122768,0.017605349259546276,5.0,0
38.08678436279297,6.262442111968994,-1.378485918045044,-0.0,-0.0,-1.0,0.06684903500876953,1.0,0
37.84281921386719,6.415374279022217,-1.3717942237854004,-0.0,-0.0,-1.0,0.10001856305119523,2.0,0
39.88459014892578,7.1406636238098145,-1.1632311344146729,-0.0,-0.0,-1.0,0.21275164385496084,1.0,0
39.7412109375,7.747562885284424,-1.2237396240234375,0.7733834953295565,0.5695059263251572,-0.27846179097384627,0.16498436364871008,3.0,0
39.29798126220703,7.939969539642334,-1.2058038711547852,-0.9667487112594279,-0.2142278122904427,0.1396544797687712,0.19364915840502608,4.0,0
39.47885513305664,7.214364528656006,-1.1335153579711914,0.050525848922571594,-0.9834580295989013,0.17394666598731026,0.23116428526106325,5.0,0
39.19009017944336,7.423520565032959,-1.1318676471710205,-0.01490361367532685,0.14901106117445906,-0.988723209976927,0.15449074408589758,4.0,0
38.296470642089844,5.701364994049072,-1.3219799995422363,-0.12167025028786783,0.610145585367949,-0.7828912535281578,0.014055116291251476,4.0,0
38.207340240478516,6.0595197677612305,-1.3736369609832764,-0.0,-0.0,-1.0,0.020903640557116486,2.0,0
38.09589385986328,6.363203048706055,-1.3944447040557861,-0.26941787873753364,0.45461529134885226,-0.8489634523867123,0.066371381396331,3.0,0
38.189903259277344,6.007590293884277,-1.3647422790527344,-0.0,-0.0,-1.0,0.02008980629262776,1.0,0
37.990726470947266,6.406451225280762,-1.3844761848449707,-0.0,-0.0,-1.0,0.07305458110787824,2.0,0
39.76173400878906,7.71474552154541,-1.2338576316833496,0.22709968327641178,0.2777452300439618,-0.9334255840952612,0.18506007973286076,4.0,0
39.53668975830078,7.037677764892578,-1.14013671875,-0.0,-0.0,-1.0,0.11517860580791227,1.0,0
39.70975875854492,7.6081743240356445,-1.2171106338500977,-0.0,-0.0,-1.0,0.1733638333571141,1.0,0
39.28400421142578,7.892475128173828,-1.1952192783355713,0.5489202686361128,-0.4625149417862308,-0.6962517269672925,0.17441165960751323,3.0,0
39.4642333984375,7.082399368286133,-1.1359007358551025,-0.0,-0.0,-1.0,0.18892829115421322,1.0,0
39.164581298828125,7.388628959655762,-1.1306970119476318,0.4797675574365259,-0.3773288959087521,-0.7921148875912334,0.1548436843885276,3.0,0
38.271484375,5.670086860656738,-1.3361175060272217,0.44074794102669546,0.10062424011987844,-0.8919731020501829,0.013220536199194232,4.0,0
38.25302505493164,5.873869895935059,-1.3578591346740723,0.0207046623068091,-0.06566511603869225,-0.9976268889190919,0.01898738809070925,6.0,0
37.716190338134766,6.383630752563477,-1.3418891429901123,-0.0,-0.0,-1.0,0.14544306444839195,1.0,0
39.85377883911133,7.090573787689209,-1.0016855001449585,-0.0,-0.0,-1.0,0.17602327001399856,1.0,0
39.69076919555664,7.735325336456299,-1.0739136934280396,-0.217858266541852,0.9758781696355127,0.01412705660147229,0.13232344192811799,4.0,0
39.332420349121094,6.043881893157959,-1.3240052461624146,-0.0,-0.0,-1.0,0.018917190597829113,1.0,0
39.10528564453125,6.212034702301025,-1.3204809427261353,-0.20691005158861261,0.2811805809572404,-0.9370836203051179,0.05963691972582347,3.0,0
38.90587615966797,6.367994785308838,-1.319623351097107,-0.0,-0.0,-1.0,0.08637655954116091,1.0,0
38.65629959106445,6.641047954559326,-1.3319724798202515,-0.0,-0.0,-1.0,0.03736605347730022,1.0,0
38.36544418334961,6.68181848526001,-1.3037184476852417,-0.0,-0.0,-1.0,0.05798009124175511,1.0,0
38.421363830566406,6.8817667961120605,-1.3426190614700317,-0.0,-0.0,-1.0,0.030060765233335177,1.0,0
38.183265686035156,7.2516913414001465,-1.3760448694229126,-0.0,-0.0,-1.0,0.04244805241175213,1.0,0
37.96372985839844,7.610692501068115,-1.4122751951217651,-0.0,-0.0,-1.0,0.04277407354834917,1.0,0
37.74803161621094,7.71899938583374,-1.4076505899429321,-0.0,-0.0,-1.0,0.030670401964099685,1.0,0
39.184696197509766,7.871303081512451,-1.0477076768875122,-0.45694728616440106,0.8249154242309441,0.3327367135331931,0.25259751613735815,5.0,0
39.12554168701172,7.382716655731201,-0.9740463495254517,0.6639814358180578,-0.7347753615256306,0.1386860518720954,0.18983479213474555,4.0,0
39.51900100708008,7.206875801086426,-1.1202392578125,0.1684153490628125,-0.9823562337178728,-0.08131728153158399,0.17777681982907984,7.0,0
39.34675598144531,7.91595458984375,-1.1794373989105225,0.2946058941978781,-0.5758099921522587,-0.7626599635758292,0.16377262234676399,3.0,0
38.99545669555664,5.816271781921387,-1.3899948596954346,-0.6375113726447024,0.46978139132348,-0.6106428531595556,0.07503002432957019,3.0,0
38.862892150878906,5.976932048797607,-1.3876831531524658,-0.0,-0.0,-1.0,0.024562455959752223,1.0,0
38.66831970214844,6.279472827911377,-1.393934965133667,-0.0,-0.0,-1.0,0.07405986805443394,2.0,0
38.49915313720703,6.560132026672363,-1.4032716751098633,-0.0,-0.0,-1.0,0.08773430958573679,2.0,0
38.28901672363281,6.667058944702148,-1.3852806091308594,-0.24594102784762678,-0.9655958057527292,-0.08448521014941412,0.04764737160350719,4.0,0
38.018436431884766,7.088800430297852,-1.4023776054382324,-0.9767420287611066,0.20550897628713635,0.06116428628742744,0.16414764039682145,3.0,0
37.965049743652344,7.509954452514648,-1.4544410705566406,-0.0,-0.0,-1.0,0.04528791845878113,2.0,0
37.87028121948242,7.694649696350098,-1.4680662155151367,-0.0,-0.0,-1.0,0.04103242774294316,1.0,0
37.72389602661133,7.8282670974731445,-1.46761155128479,-0.0,-0.0,-1.0,0.03167044116104425,1.0,0
39.233863830566406,7.407655715942383,-1.1077601909637451,-0.15077428407468782,-0.17604932546308516,-0.9727660305879099,0.13750470923478084,5.0,0
39.097900390625,7.777379989624023,-0.6181304454803467,0.7314014298322015,0.6778753410881337,0.07441082168648261,0.16505014564593504,3.0,0
39.83808135986328,7.504623889923096,-1.296915888786316,-0.0,-0.0,-1.0,0.23589196731186685,1.0,0
39.69660949707031,7.653900623321533,-1.2981065511703491,0.9235922583263283,0.19145704634436136,0.3321468647522749,0.2375121934210967,3.0,0
39.39143371582031,8.114989280700684,-1.321353554725647,-0.0,-0.0,-1.0,0.14527789916738335,1.0,0
38.602195739746094,5.641630172729492,-1.3664389848709106,-0.0,-0.0,-1.0,0.04159103745624051,1.0,0
38.3669548034668,5.805714130401611,-1.348767638206482,-0.0,-0.0,-1.0,0.017243880525193465,1.0,0
38.25775146484375,6.101163387298584,-1.3710047006607056,0.387389906538928,0.8541688203789632,-0.3468784896821523,0.019758078087555517,4.0,0
38.13459777832031,6.398244380950928,-1.3929425477981567,0.2044004019825295,-0.2428064141665248,-0.9482961145702192,0.057180468436850526,3.0,0
37.83123779296875,6.453696250915527,-1.3525525331497192,-0.042247258259035775,0.4380917966026178,-0.8979369392775223,0.11930287042440182,3.0,0
39.529029846191406,6.645950794219971,-1.1504093408584595,0.09367577675943414,0.029062584627784098,-0.9951784840033817,0.04022493853705454,4.0,0
39.42466735839844,7.219277858734131,-1.2076455354690552,-0.2745621908493194,-0.4199836894771201,-0.8650024878167737,0.20419863625464224,3.0,0
39.416648864746094,7.577381610870361,-1.2527574300765991,-0.0,-0.0,-1.0,0.2598420766501839,1.0,0
39.332733154296875,7.930367469787598,-1.2891172170639038,0.6744355377811014,0.5182096739429728,0.5259234157268857,0.19960241349336627,4.0,0
39.27824401855469,6.754395484924316,-1.1307190656661987,0.5482042420337845,-0.12061511800457292,-0.8276014151298359,0.14487998234112573,3.0,0
39.237979888916016,7.0044708251953125,-1.1565152406692505,0.29131934848153773,0.6634363141670672,0.6891917688457319,0.15647566007167574,5.0,0
39.30421829223633,7.600016117095947,-1.241568684577942,-0.9448873755922842,-0.29100931187963547,-0.15000475941005023,0.15968899640824638,3.0,0
39.08046340942383,7.883405685424805,-0.7456170320510864,-0.0,-0.0,-1.0,0.18638012680665378,2.0,0
39.39857482910156,5.860100269317627,-1.3942757844924927,-0.05405073028468215,0.0317294398315917,-0.9980339479214455,0.008782607606056658,3.0,0
39.1484260559082,6.18778657913208,-1.3837863206863403,-0.0,-0.0,-1.0,0.05315076389788229,2.0,0
38.853309631347656,7.80742883682251,-1.5232208967208862,-0.0,-0.0,-1.0,0.04274684055809267,1.0,0
39.03776550292969,6.283868789672852,-1.3749524354934692,-0.0,-0.0,-1.0,0.054343985615141456,2.0,0
38.867332458496094,6.598732948303223,-1.3801559209823608,-0.1370998867401353,0.8355736590129861,-0.5319965050820278,0.06294247053474625,3.0,0
38.74067687988281,6.923248767852783,-1.3960057497024536,0.46726065121538085,-0.7003271281019102,-0.539638209794589,0.09543857704847532,4.0,0
38.55780792236328,7.2274017333984375,-1.4022847414016724,-0.0,-0.0,-1.0,0.04615649484244123,2.0,0
38.7452392578125,7.936515808105469,-1.5226737260818481,-0.0,-0.0,-1.0,0.06796963449419033,1.0,0
37.93370056152344,6.790310859680176,-1.2465091943740845,-0.0,-0.0,-1.0,0.13410759032331512,2.0,0
37.8985481262207,7.082418918609619,-1.2767845392227173,-0.0,-0.0,-1.0,0.16968528068653146,1.0,0
39.87084197998047,7.093615531921387,-1.0918675661087036,-0.0,-0.0,-1.0,0.19787524809183882,2.0,0
39.216922760009766,7.854027271270752,-1.0838886499404907,-0.6561312024895138,0.602362366761738,0.4545892918105989,0.24640673545223168,5.0,0
39.07091522216797,7.43330192565918,-1.0194188356399536,0.8375093300304207,0.3306359358823269,-0.4350379293983619,0.23426463112866008,3.0,0
37.73396682739258,6.6497650146484375,-1.1966427564620972,-0.0,-0.0,-1.0,0.1044381244492831,1.0,0
39.429481506347656,7.960855960845947,-1.4319276809692383,-0.0,-0.0,-1.0,0.13023905249709836,2.0,0
39.973976135253906,6.4211602210998535,-1.3696095943450928,-0.0,-0.0,-1.0,0.19750880876108945,1.0,0
39.93743133544922,6.460741996765137,-1.366833209991455,-0.0,-0.0,-1.0,0.12377465641460501,1.0,0
39.332672119140625,7.349503993988037,-1.35050630569458,-0.10686713305433708,0.1880562297427455,-0.9763269279947624,0.14667875889993387,3.0,0
39.34520721435547,7.744176387786865,-1.39449143409729,-0.0,-0.0,-1.0,0.10909922253642751,1.0,0
39.2899284362793,8.031964302062988,-1.417572259902954,-0.9086017449015231,0.40825594676313365,0.0881473260765453,0.1693406130560941,3.0,0
39.32881546020508,6.543905258178711,-1.2714543342590332,0.922047641771628,0.15604797867101833,-0.35422757466926424,0.21593849571669652,10.0,0
39.10062026977539,6.856517314910889,-1.2626960277557373,-0.2783191428106291,0.15570308050518897,-0.9477842610353642,0.14377793702545413,7.0,0
39.17371368408203,7.421526908874512,-1.3319532871246338,-0.1120169916727895,0.8959248814549083,-0.42984974161512124,0.12768629237287696,3.0,0
39.16493225097656,7.6949591636657715,-1.3598620891571045,0.9197739856725957,-0.36898272029457285,0.13366962034794985,0.12078480653850973,3.0,0
38.78611755371094,8.039432525634766,-1.3381626605987549,-0.7646924945799776,-0.40944661947117844,0.4975930611822022,0.16274553934999017,3.0,0
37.770137786865234,5.828336238861084,-1.3699266910552979,0.1011514139524787,-0.9327632353895098,0.34600742500863796,0.02096702565136066,3.0,0
39.9718017578125,7.725139617919922,-0.9765737056732178,-0.06041411112931661,0.9961196755179103,-0.06399786889067657,0.08415220100351782,3.0,0
39.16094970703125,7.865030288696289,-0.8852260112762451,-0.0,-0.0,-1.0,0.15827866443173547,2.0,0
39.04912567138672,5.94002628326416,-1.3746888637542725,-0.011739368455551246,-0.23948037921575005,-0.9708302298542966,0.026612284722867155,4.0,0
38.956172943115234,6.284686088562012,-1.3781044483184814,-0.0,-0.0,-1.0,0.027695679083221722,1.0,0
38.82099914550781,6.7320404052734375,-1.3831586837768555,-0.1911878616779023,0.7744565013993978,-0.6030458763537281,0.05547139615134326,4.0,0
38.76812744140625,7.113138198852539,-1.4023549556732178,-0.0,-0.0,-1.0,0.103131219777295,2.0,0
38.90180969238281,7.555002212524414,-1.464306354522705,-0.0,-0.0,-1.0,0.07726766182206626,2.0,0
38.9594612121582,7.936034202575684,-1.5090303421020508,-0.0,-0.0,-1.0,0.11186808890294403,2.0,0
38.833072662353516,6.461053848266602,-1.3661975860595703,-0.0,-0.0,-1.0,0.09996907754759102,2.0,0
38.78593826293945,6.726198196411133,-1.3761875629425049,-0.10417694178123105,0.7193424117425874,-0.6867995773655279,0.06819967476709646,4.0,0
38.73994445800781,7.044551849365234,-1.391714334487915,-0.0,-0.0,-1.0,0.13423108202638068,2.0,0
39.71289825439453,7.7184576988220215,-1.1225330829620361,-0.315997190270823,-0.7156859762402411,-0.6228477816882696,0.13628730512193737,5.0,0
39.125465393066406,7.369650840759277,-1.0070364475250244,0.2684816295936409,-0.9595700198264742,-0.08451622105230878,0.20797471518999897,7.0,0
39.1807861328125,7.9400200843811035,-1.0585215091705322,0.6667109310374703,0.4443545354863664,-0.5983691011640266,0.26649143729763475,6.0,0
39.8138427734375,7.840726852416992,-1.2233972549438477,-0.0,-0.0,-1.0,0.1786455497697445,1.0,0
38.77531051635742,7.826230049133301,-1.5079166889190674,-0.0,-0.0,-1.0,0.04200071794086409,2.0,0
38.81984329223633,8.132122039794922,-1.516958475112915,-0.0,-0.0,-1.0,0.12496616162515609,2.0,0
38.35221481323242,7.375774383544922,-1.4189825057983398,-0.0,-0.0,-1.0,0.04612607345483137,1.0,0
38.529319763183594,7.547744274139404,-1.4560723304748535,-0.04072994314439248,0.5435992791954684,-0.8383560671872196,0.046110983919002625,4.0,0
38.1309928894043,6.3895263671875,-1.3914873600006104,0.2724069407592859,-0.2602567927782511,-0.9263157455419536,0.06362051763476122,4.0,0
38.243621826171875,7.178619384765625,-1.3978428840637207,-0.0,-0.0,-1.0,0.043169580117404724,1.0,0
38.07878875732422,6.379680633544922,-1.380192756652832,-0.0,-0.0,-1.0,0.08138428614178042,2.0,0
37.97822570800781,6.906465530395508,-1.3439223766326904,0.5341697185285689,-0.44817785932434373,-0.7167979619241105,0.22048553549577202,6.0,0
39.947566986083984,6.401026725769043,-1.2897469997406006,-0.0,-0.0,-1.0,0.19991045909125635,1.0,0
39.34520721435547,6.579603672027588,-1.1696803569793701,0.501516275354359,0.5585415167285336,-0.6606911529945597,0.1390044349250915,7.0,0
39.314693450927734,7.109189987182617,-1.1471641063690186,0.7173552478173646,0.2039850526315575,0.6661768134150182,0.19947670511606205,4.0,0
39.27405548095703,7.406851291656494,-1.132394790649414,-0.0,-0.0,-1.0,0.07632989639926553,2.0,0
39.246009826660156,7.806365013122559,-1.1198039054870605,-0.0,-0.0,-1.0,0.1958148180778145,1.0,0
39.24821472167969,6.725303649902344,-1.1463706493377686,0.38554782698692336,0.12916125440776005,-0.9136028915592788,0.13474353336814057,4.0,0
39.16590881347656,6.872132301330566,-1.126316785812378,-0.2587050454030715,0.8720072019088317,-0.4155419825987804,0.1432054488146941,6.0,0
37.87273406982422,5.675422668457031,-1.3616185188293457,-0.0,-0.0,-1.0,0.02171665899913147,1.0,0
37.92140579223633,5.903827667236328,-1.3625547885894775,-0.0,-0.0,-1.0,0.015119753278502564,1.0,0
37.96223831176758,6.256181716918945,-1.3583402633666992,-0.0,-0.0,-1.0,0.058965202245893626,2.0,0
37.748451232910156,6.779814720153809,-1.2955961227416992,0.9894411232154072,0.0009632038476284252,0.14493217699524424,0.17310857262544094,3.0,0
37.9017448425293,6.954995155334473,-1.3260095119476318,-0.0,-0.0,-1.0,0.23216359713749513,2.0,0
39.771270751953125,7.798187732696533,-1.2317651510238647,-0.0,-0.0,-1.0,0.26371992927356863,2.0,0
39.74726104736328,7.255952835083008,-1.1941169500350952,-0.0,-0.0,-1.0,0.07911099915356351,1.0,0
38.58768844604492,7.5281782150268555,-1.486324667930603,-0.0,-0.0,-1.0,0.047420331596276996,1.0,0
38.76903533935547,7.807024002075195,-1.5440138578414917,-0.0,-0.0,-1.0,0.04194766610874345,2.0,0
38.71636962890625,8.12020206451416,-1.5579386949539185,-0.0,-0.0,-1.0,0.08378080603178716,1.0,0
38.55986022949219,5.715821266174316,-1.3858612775802612,-0.307748520507166,0.9267923955231925,-0.2152828458703402,0.017842228071206185,3.0,0
38.560028076171875,6.132104873657227,-1.4016436338424683,-0.0,-0.0,-1.0,0.02801979731432904,1.0,0
38.573394775390625,6.462878704071045,-1.4194594621658325,-0.0,-0.0,-1.0,0.059630743562880326,1.0,0
38.42314529418945,7.304932594299316,-1.437254548072815,-0.0,-0.0,-1.0,0.02813770151650565,1.0,0
38.0076789855957,6.930754661560059,-1.3278745412826538,-0.5200623637264905,0.8098911003212564,-0.27131447336189063,0.20319655871463152,3.0,0
37.89344024658203,7.041604042053223,-1.3111013174057007,-0.0,-0.0,-1.0,0.2347326397104287,1.0,0
37.794090270996094,6.801887512207031,-1.276152491569519,-0.0,-0.0,-1.0,0.1549318489755612,2.0,0
39.53382110595703,7.278576374053955,-1.1591182947158813,0.4159422759887843,-0.7415420035732363,0.5264099922891475,0.15953833513035184,4.0,0
39.16168975830078,7.465389728546143,-1.1072040796279907,-0.0,-0.0,-1.0,0.1362178652802272,1.0,0
39.18698501586914,7.916808128356934,-1.141269326210022,-0.024707001405609833,0.9995245256798511,0.018446860058333132,0.2177300255677359,5.0,0
39.135501861572266,8.124429702758789,-1.1474543809890747,-0.0,-0.0,-1.0,0.13568020096153838,2.0,0
39.475860595703125,5.686285018920898,-1.40762460231781,-0.0,-0.0,-1.0,0.0041848504245932784,1.0,0
39.444217681884766,5.872780799865723,-1.4104031324386597,-0.3860614968545048,-0.2848956965733539,-0.8773773206098062,0.009591968861404288,3.0,0
39.284027099609375,6.073469161987305,-1.3893483877182007,-0.0,-0.0,-1.0,0.027140965381091106,2.0,0
39.1235466003418,6.413623332977295,-1.3765414953231812,-0.0,-0.0,-1.0,0.06858401549514152,2.0,0
39.009098052978516,7.342007160186768,-1.4128690958023071,-0.0,-0.0,-1.0,0.07436451280193644,1.0,0
39.07310104370117,7.61033821105957,-1.4446407556533813,0.7442936563515477,0.08266549332642119,-0.6627166584053431,0.1312326075689105,5.0,0
39.1201286315918,7.960733413696289,-1.4799634218215942,0.2523244291302369,0.4381470588587604,-0.862762735216072,0.09274876652423353,3.0,0
38.889625549316406,6.839824676513672,-1.3562952280044556,-0.9245700716419358,0.3086952774523613,-0.2233325061486465,0.09457859098036328,3.0,0
38.877193450927734,7.143991470336914,-1.3735846281051636,-0.0,-0.0,-1.0,0.12680482378069635,2.0,0
39.81644821166992,7.719540119171143,-1.0729082822799683,-0.0,-0.0,-1.0,0.15765648794686013,2.0,0
39.53227996826172,8.093101501464844,-1.054381251335144,-0.0,-0.0,-1.0,0.13636601519985178,1.0,0
39.195865631103516,7.911116600036621,-0.9879051446914673,0.6885406582141955,0.6996980608739926,-0.1906158062573437,0.1893070727266168,3.0,0
39.66218948364258,7.788632869720459,-1.4192227125167847,-0.0,-0.0,-1.0,0.13503959125433332,1.0,0
39.324676513671875,6.53645658493042,-1.2750052213668823,0.9243223173405425,0.14261809731226316,-0.3539609187258373,0.22227614023013825,8.0,0
39.341796875,7.269826412200928,-1.3239058256149292,-0.2545929923293249,0.7193337272924768,-0.6463291708071925,0.15059247836754533,3.0,0
39.462066650390625,7.602970123291016,-1.369064211845398,-0.0,-0.0,-1.0,0.18553720617150996,2.0,0
39.317138671875,8.068140983581543,-1.3776332139968872,-0.4827991111330486,0.7434674465055764,-0.46277551175015275,0.20826184511149293,3.0,0
39.08333206176758,6.866572856903076,-1.2506333589553833,-0.5011686600320016,0.6396330866848743,-0.5828374461371783,0.16140355168378429,7.0,0
38.905792236328125,7.967822074890137,-1.2945619821548462,-0.0,-0.0,-1.0,0.11681391246674111,2.0,0
39.98184585571289,7.776902198791504,-0.9433342218399048,-0.6725209695575624,-0.32800600202381947,-0.6634211393539601,0.11264313639379303,4.0,0
39.21632385253906,7.960214138031006,-0.8445097208023071,0.7321707753261447,-0.4294449231701043,0.5286804457531368,0.19064538701589573,3.0,0
39.11478042602539,7.86032247543335,-0.8221489191055298,0.5445770861706194,-0.3870630345405745,0.7440551085169426,0.08851851432721711,7.0,0
39.13037109375,5.792938709259033,-1.3569996356964111,-0.0,-0.0,-1.0,0.06938749462873223,2.0,0
39.114891052246094,6.0461273193359375,-1.3577234745025635,0.2726926635757671,-0.6099127669090055,-0.7440733350909401,0.050065540465679514,3.0,0
39.06884765625,6.350319862365723,-1.3542742729187012,-0.9329125395219684,0.17611386786102867,-0.3140988684311045,0.03269607601741729,3.0,0
39.05537414550781,7.376659870147705,-1.3788831233978271,-0.0,-0.0,-1.0,0.051700898967806136,2.0,0
39.13384246826172,7.641898155212402,-1.4034059047698975,0.598857215965701,-0.6913038244608237,-0.4043130682672141,0.1463782236007939,3.0,0
39.2307014465332,8.046469688415527,-1.4382514953613281,-0.4985877859139408,0.7828290829041405,-0.37227522976542093,0.23805242010696798,5.0,0
38.989803314208984,6.51993465423584,-1.3427107334136963,-0.0,-0.0,-1.0,0.06106131998051737,2.0,0
38.87459182739258,6.815427303314209,-1.32778000831604,-0.9245700716419358,0.3086952774523613,-0.2233325061486465,0.10851785527583911,3.0,0
38.91178894042969,7.171689987182617,-1.3448271751403809,0.6429168765639601,0.31507291240739826,-0.6981310404905097,0.12172557173555448,3.0,0
38.984764099121094,8.016918182373047,-1.3895220756530762,-0.0,-0.0,-1.0,0.17388966380068518,1.0,0
39.759071350097656,7.127532005310059,-0.9724225997924805,-0.0,-0.0,-1.0,0.09235080993823179,1.0,0
39.13784408569336,7.931042194366455,-0.9061188697814941,-0.6776040011923915,0.4312765266315695,0.5956957068375351,0.15635058886927314,5.0,0
39.921363830566406,7.312241554260254,-1.3355504274368286,-0.0,-0.0,-1.0,0.16517170406227072,1.0,0
39.32511520385742,6.540571212768555,-1.2227782011032104,0.41821801440349937,0.8658381143834639,-0.27462347333992126,0.12709465980947723,10.0,0
39.3031005859375,7.057342052459717,-1.2227061986923218,0.4387698667417825,-0.7408306977907417,0.5085773109865216,0.247320147630794,6.0,0
39.459571838378906,7.2108683586120605,-1.2522650957107544,0.9512863514170022,-0.15749955720416206,0.26504370788272047,0.22895230819786036,5.0,0
39.5285758972168,7.582788944244385,-1.2702850103378296,-0.0,-0.0,-1.0,0.1961614053207222,1.0,0
39.17158889770508,6.728888511657715,-1.1967650651931763,-0.2813508109311911,0.6559425022560529,0.7004149876483434,0.14518159840323785,4.0,0
39.29655456542969,7.618729591369629,-1.2295986413955688,-0.0,-0.0,-1.0,0.15886116609606984,2.0,0
37.86948013305664,7.411569595336914,-1.447191834449768,-0.0,-0.0,-1.0,0.034100100183398055,1.0,0
37.943302154541016,7.764034271240234,-1.4660364389419556,-0.0,-0.0,-1.0,0.03338672084573509,2.0,0
38.07784652709961,8.131484031677246,-1.5004202127456665,-0.0,-0.0,-1.0,0.0066841604885202665,2.0,0
39.12070083618164,6.90186071395874,-1.1890994310379028,-0.7724287378243966,0.4394972463604445,0.4584713899738958,0.1361401945422745,6.0,0
39.230228424072266,7.951681137084961,-1.224485993385315,-0.0,-0.0,-1.0,0.13836422787974814,2.0,0
40.03343963623047,7.787631988525391,-0.8214079141616821,-0.015803193257358742,-0.8499152052164499,-0.5266824498924854,0.12513628520416875,3.0,0
40.032257080078125,7.840978622436523,-0.822632908821106,-0.7997556299449233,0.5859560154802192,-0.13056217022531494,0.11253980765933849,3.0,0
39.1212158203125,7.811254978179932,-0.6916812658309937,-0.16906508132302006,0.9532030140928073,0.2506412021229318,0.11873566295564078,5.0,0
39.73869323730469,5.692698955535889,-1.4031436443328857,-0.0,-0.0,-1.0,0.00776611539824031,2.0,0
39.74509048461914,5.839026927947998,-1.3996970653533936,-0.0,-0.0,-1.0,0.012071208560605923,2.0,0
39.8636589050293,7.563777923583984,-1.3889813423156738,0.8432565887704405,-0.33190226180001264,-0.422799259823472,0.21374924800147754,3.0,0
39.71559143066406,6.007639408111572,-1.389735460281372,-0.0,-0.0,-1.0,0.035735902246109584,1.0,0
39.41435241699219,6.311627388000488,-1.330148696899414,-0.0,-0.0,-1.0,0.15202703919987492,1.0,0
39.64265441894531,7.447025299072266,-1.350914478302002,-0.0,-0.0,-1.0,0.11600059474990825,1.0,0
39.71715545654297,7.917035102844238,-1.3618066310882568,-0.0,-0.0,-1.0,0.21314358012335619,1.0,0
39.3509521484375,6.477664470672607,-1.3151848316192627,-0.0,-0.0,-1.0,0.16448739687836555,2.0,0
39.14674377441406,6.75596284866333,-1.2739803791046143,-0.7130249525940071,-0.25793866801902865,-0.6519686039364803,0.2170459969894372,4.0,0
39.274478912353516,7.143864154815674,-1.2896320819854736,0.5753529274399749,-0.47115840682941523,-0.6685647048418112,0.21616627767739502,3.0,0
39.347129821777344,7.565085411071777,-1.2977588176727295,-0.6516318159614538,0.2778474197382652,-0.7058163980608314,0.2297835994749418,4.0,0
39.362606048583984,8.023523330688477,-1.2986702919006348,-0.0,-0.0,-1.0,0.1851191482520154,1.0,0
37.71367263793945,7.968337059020996,-1.4757544994354248,-0.0,-0.0,-1.0,0.02264534059504212,2.0,0
39.9974365234375,7.821377754211426,-0.867168664932251,-0.1939961844953739,0.5857802043258474,-0.7869097995457962,0.15343462021037488,5.0,0
39.08135223388672,7.808986663818359,-0.7366893291473389,0.913298365789231,-0.34029570276640647,-0.2237966258133433,0.18441812509025374,5.0,0
39.14745330810547,8.13149642944336,-1.5251438617706299,-0.0,-0.0,-1.0,0.1749545591961898,2.0,0
38.83815002441406,7.655806541442871,-1.4902589321136475,-0.0,-0.0,-1.0,0.06893464876087708,2.0,0
38.9233283996582,7.96421480178833,-1.4908463954925537,-0.08917953897742434,-0.9954147028091244,0.03459160677385505,0.18356264751078924,4.0,0
38.22447204589844,7.019495010375977,-1.4163281917572021,0.8651360153331693,0.48204316373289585,0.13847044187055665,0.061869197835942934,4.0,0
38.38831329345703,7.253308296203613,-1.4311678409576416,-0.0,-0.0,-1.0,0.040336604192394536,1.0,0
38.59039306640625,7.45365047454834,-1.4557547569274902,-0.0,-0.0,-1.0,0.04262175838116333,2.0,0
38.02124786376953,6.893904685974121,-1.3888049125671387,-0.0,-0.0,-1.0,0.1409475584567226,2.0,0
37.75468826293945,6.745896339416504,-1.3523709774017334,0.07492006767882217,-0.9105938294251421,-0.40645523895240365,0.1588073662755229,3.0,0
39.507972717285156,7.196161270141602,-1.0892689228057861,0.7711422275912477,-0.5792680603074291,-0.2641745240050164,0.14526829386840237,4.0,0
39.088783264160156,7.388617515563965,-1.0189812183380127,0.6928938322832869,0.6627527789340943,-0.2840015690078407,0.17226490899814634,6.0,0
39.17198944091797,7.835929870605469,-1.0136592388153076,-0.43312108966297275,0.813704389964997,0.3876742027022828,0.2641127438463726,4.0,0
39.287269592285156,7.988682746887207,-1.0257568359375,0.6063592700804408,-0.09044210800765429,-0.7900307973026413,0.2344243267124538,4.0,0
39.70798110961914,7.192448139190674,-1.1996567249298096,-0.0,-0.0,-1.0,0.10673862046360034,2.0,0
39.362518310546875,6.4854960441589355,-1.2132303714752197,0.7331428029552426,0.6459306455436342,0.21277977258779585,0.17182194658296132,5.0,0
38.455997467041016,7.871978282928467,-1.5004949569702148,-0.0,-0.0,-1.0,0.05798378341815828,1.0,0
38.10139465332031,7.687418460845947,-1.4579761028289795,-0.0,-0.0,-1.0,0.031292056297225666,1.0,0
37.80023956298828,7.397085666656494,-1.436607837677002,-0.0,-0.0,-1.0,0.02978206858651041,1.0,0
37.97233200073242,7.541265964508057,-1.4504890441894531,-0.0,-0.0,-1.0,0.046687546433135364,2.0,0
39.34713363647461,6.993679046630859,-1.16746187210083,-0.0,-0.0,-1.0,0.21003350408435914,1.0,0
39.38737487792969,7.170807838439941,-1.1584396362304688,0.8409342433687824,-0.46809898630605823,0.2715012658331721,0.18837389364823873,3.0,0
39.23490905761719,7.637649059295654,-1.101548194885254,-0.0,-0.0,-1.0,0.1895682594225674,2.0,0
39.272621154785156,7.870757579803467,-1.0894029140472412,0.9196359407102654,-0.02944108585806475,0.3916668980363841,0.24462379014867094,5.0,0
39.183128356933594,6.868953227996826,-1.1563334465026855,-0.2587050454030715,0.8720072019088317,-0.4155419825987804,0.16387154984727847,6.0,0
39.21993637084961,7.330219268798828,-1.1231639385223389,-0.0,-0.0,-1.0,0.10507644622073564,2.0,0
38.72478485107422,7.083348274230957,-0.6670480966567993,-0.0,-0.0,-1.0,0.1259568255884682,1.0,0
39.26169204711914,7.6880388259887695,-1.0502122640609741,-0.0,-0.0,-1.0,0.10455736277085612,1.0,0
39.82135009765625,7.446586608886719,-1.094969630241394,-0.0,-0.0,-1.0,0.19170343445380708,1.0,0
39.065250396728516,6.938277721405029,-1.329742193222046,-0.0,-0.0,-1.0,0.13703920113601198,1.0,0
39.0639533996582,7.31797456741333,-1.3528075218200684,-0.10550418871633689,0.43466798551977126,-0.8943895172280876,0.07386616419034865,3.0,0
39.06169128417969,7.128214359283447,-1.340916395187378,-0.0,-0.0,-1.0,0.10949460469973722,2.0,0
39.401702880859375,6.554915904998779,-1.347088098526001,-0.0,-0.0,-1.0,0.19596992921683767,1.0,0
39.26801300048828,7.591405868530273,-1.3943073749542236,-0.0,-0.0,-1.0,0.10678165106676751,1.0,0
39.22606658935547,7.850513458251953,-1.0030441284179688,0.30474598927579144,0.15874153583663153,-0.939111818060313,0.2858686653433664,5.0,0
39.913536071777344,7.120704650878906,-1.0704452991485596,-0.0,-0.0,-1.0,0.2214930915720784,2.0,0
39.246726989746094,7.937216758728027,-1.0044076442718506,0.20701901167579062,0.8787116657481726,0.4301266526069391,0.16822924315837487,4.0,0
39.31330490112305,7.956405162811279,-1.0110445022583008,0.4487130506721841,0.4132246565759797,-0.7924026636465358,0.20129652254809746,7.0,0
39.34347152709961,7.509942054748535,-0.9924163818359375,-0.0,-0.0,-1.0,0.19256045572451988,2.0,0
39.35527801513672,8.030511856079102,-1.0190021991729736,-0.0,-0.0,-1.0,0.24623792535318312,1.0,0
39.182594299316406,6.940770149230957,-1.1935380697250366,0.4077741080437189,-0.24259908093884533,-0.8802647117411768,0.12191122138771363,6.0,0
39.31597137451172,6.652110576629639,-1.200123906135559,-0.0,-0.0,-1.0,0.17077463665140813,2.0,0
39.39366912841797,7.143922805786133,-1.2234004735946655,0.9294349269323444,-0.3158131023781187,0.19082138497709242,0.14252994708895272,3.0,0
39.4119873046875,7.439492702484131,-1.2344778776168823,-0.0,-0.0,-1.0,0.16471627929636293,1.0,0
39.6884765625,7.2993879318237305,-1.2613974809646606,-0.0,-0.0,-1.0,0.16318068264096605,2.0,0
39.335693359375,7.964661121368408,-1.2422300577163696,0.24240352973547633,0.9611722265222958,0.13186538489669605,0.15103422578369372,6.0,0
39.68220520019531,7.678837299346924,-1.272426962852478,0.9235922583263283,0.19145704634436136,0.3321468647522749,0.1870688588009353,3.0,0
39.35435485839844,6.301504135131836,-1.3222492933273315,-0.28901741368364836,-0.2855968987449901,-0.9137304558866683,0.1040251786553437,4.0,0
39.161529541015625,6.554704666137695,-1.3036459684371948,0.43711367076889623,-0.2940927895780102,-0.8499653345549836,0.02987657784260466,3.0,0
39.01325988769531,6.938002586364746,-1.293056845664978,0.0034252371768949573,0.24648454559413704,-0.9691406691154457,0.18156507818723588,6.0,0
39.25548553466797,7.225227355957031,-1.3281139135360718,-0.0,-0.0,-1.0,0.13544938000366732,1.0,0
38.928428649902344,8.006686210632324,-1.3048900365829468,0.276048771158347,-0.3937849335739409,-0.8767727767398652,0.10074969581305286,3.0,0
39.2204704284668,8.075428009033203,-1.341910719871521,-0.0,-0.0,-1.0,0.24178225216452154,2.0,0
39.54374694824219,7.651336193084717,-1.3719624280929565,-0.791477819717178,0.5742407640116407,-0.20930935440889648,0.24782509900071573,3.0,0
39.15950012207031,6.963905334472656,-1.191628098487854,0.2956863973411233,-0.03329386839903724,-0.954704704479063,0.16385585758334958,9.0,0
39.258888244628906,6.710196495056152,-1.2022067308425903,0.9100424974541548,0.4027469939388982,-0.09806891301827397,0.16033125015801208,3.0,0
39.44432067871094,7.176900386810303,-1.2261744737625122,0.955902015546624,-0.015599452002826695,0.29327119492223086,0.19175714812023378,4.0,0
39.35354232788086,7.96414852142334,-1.2203370332717896,0.6012196814867663,0.7334662766377403,0.31711530336475513,0.13146348073265363,6.0,0
39.59986114501953,7.627401351928711,-1.2471128702163696,-0.0,-0.0,-1.0,0.15119538881109507,2.0,0
39.35078430175781,6.632535457611084,-1.1485823392868042,0.20933251014286175,0.4798229521552464,-0.8520268979218397,0.16513466375047628,6.0,0
39.272705078125,6.990633010864258,-1.1461962461471558,-0.24835083267911937,-0.7491141912692826,0.6141252252973792,0.14993292955444043,5.0,0
39.283119201660156,7.5013580322265625,-1.158117413520813,-0.9192031757044049,-0.2180633728674075,-0.3278931032953071,0.19519547712415672,3.0,0
39.504432678222656,7.248501777648926,-1.1797071695327759,0.6368023994612316,-0.2888715761392586,-0.7148677615749912,0.2541542760922762,5.0,0
39.29541015625,7.939837455749512,-1.169296383857727,-0.8103661977474823,0.5769428589048353,-0.10219375277875115,0.2318092961696189,6.0,0
39.759315490722656,7.724289894104004,-1.2210546731948853,0.7733834953295565,0.5695059263251572,-0.27846179097384627,0.1809375876381493,3.0,0
37.997467041015625,6.070265769958496,-1.3427255153656006,-0.0,-0.0,-1.0,0.01612285949473813,2.0,0
38.019187927246094,5.885909557342529,-1.342777967453003,-0.0,-0.0,-1.0,0.012186350166813475,1.0,0
37.8778076171875,6.8166399002075195,-1.3393452167510986,-0.0,-0.0,-1.0,0.1481178502580521,2.0,0
38.08431625366211,6.980654239654541,-1.373692274093628,0.3387654962177704,0.38179398409074816,-0.8599251666769854,0.1254304545817024,3.0,0
38.32532501220703,7.305027008056641,-1.4170782566070557,-0.0,-0.0,-1.0,0.04784419552355801,2.0,0
38.55940246582031,7.569181442260742,-1.4584858417510986,-0.0,-0.0,-1.0,0.04530425669210037,2.0,0
38.74518585205078,8.114444732666016,-1.5006344318389893,-0.0,-0.0,-1.0,0.15815550732901706,1.0,0
39.241661071777344,7.844656467437744,-0.8750293254852295,-0.0,-0.0,-1.0,0.12861354431818317,1.0,0
39.38397979736328,6.158573150634766,-1.360398292541504,-0.4747708059806625,-0.7181535773309573,-0.5087711874263529,0.07961400396169103,4.0,0
39.64452362060547,5.751840114593506,-1.3919579982757568,-0.0,-0.0,-1.0,0.007747117352517877,1.0,0
39.004493713378906,6.914413928985596,-1.3184678554534912,0.15291321743943248,0.8320371524901702,-0.533227648203251,0.11024147712037628,4.0,0
39.13151168823242,6.589910507202148,-1.331026554107666,-0.0,-0.0,-1.0,0.09607058262806523,2.0,0
39.30308532714844,6.372614860534668,-1.352109432220459,0.9651350469606752,0.2530810068776272,-0.06681575477401672,0.1169239563463481,4.0,0
39.098594665527344,7.269611358642578,-1.338907241821289,-0.0,-0.0,-1.0,0.05885113942625268,2.0,0
39.15516662597656,7.672184944152832,-1.3555314540863037,0.9656806124413856,-0.20442118747776752,0.16022775310479112,0.15909188763077123,4.0,0
39.18562316894531,7.573129653930664,-1.357776165008545,-0.5207259363445588,-0.30187142223423696,-0.7985725663058816,0.1176746061253922,3.0,0
39.302852630615234,8.053845405578613,-1.385695457458496,-0.4295247376787772,0.7989117279567843,-0.4210089674283465,0.18710654441717567,4.0,0
39.514930725097656,7.771076202392578,-1.409787654876709,-0.0,-0.0,-1.0,0.16752361556404693,1.0,0
38.876068115234375,8.022007942199707,-1.3231287002563477,-0.6876975194313928,0.6544212737541736,-0.31433249629313625,0.09814210696627891,4.0,0
39.15696334838867,7.821537494659424,-0.705338716506958,-0.14397298099749065,0.9447631960912737,0.2944389309417118,0.15900100330321834,4.0,0
39.23851776123047,6.722245693206787,-1.2605630159378052,-0.0,-0.0,-1.0,0.1215555235740795,2.0,0
39.309322357177734,6.498317718505859,-1.266104817390442,0.3735710095317254,-0.2939223777399373,-0.879803578477122,0.1992246576031185,5.0,0
39.09252166748047,7.059569835662842,-1.2468568086624146,0.265273592755731,-0.8139303522594308,-0.5168629437842348,0.11649437562862654,5.0,0
39.30427932739258,7.472924709320068,-1.2882634401321411,0.2107850515126481,0.7341641573884328,-0.6454243968622062,0.1712463883408126,5.0,0
39.59708023071289,7.503115177154541,-1.3320616483688354,-0.30225753426559754,-0.4746339306130997,-0.826657737452714,0.13441016705541822,3.0,0
39.31083679199219,8.109675407409668,-1.3066753149032593,-0.0,-0.0,-1.0,0.13027937576202403,2.0,0
39.54783630371094,7.715336322784424,-1.3304907083511353,-0.0,-0.0,-1.0,0.2494785134482125,1.0,0
38.996009826660156,7.92278528213501,-0.642188310623169,-0.0,-0.0,-1.0,0.17959287032156532,2.0,0
37.89338302612305,7.1809515953063965,-1.4334944486618042,-0.0,-0.0,-1.0,0.07847953098286864,1.0,0
38.14799499511719,7.6122212409973145,-1.4758659601211548,-0.0,-0.0,-1.0,0.03212462581003068,1.0,0
38.08386993408203,7.427637577056885,-1.4654120206832886,-0.0,-0.0,-1.0,0.033860595614862765,1.0,0
38.221435546875,7.882336616516113,-1.4882687330245972,-0.0,-0.0,-1.0,0.009305076106303826,1.0,0
37.74995422363281,7.04377555847168,-1.409380555152893,-0.0,-0.0,-1.0,0.15634617004429202,1.0,0
39.2058219909668,8.051753044128418,-1.0721980333328247,-0.0,-0.0,-1.0,0.14385979196539322,2.0,0
39.73085021972656,7.9083781242370605,-1.1462491750717163,-0.0,-0.0,-1.0,0.22868317166881283,1.0,0
39.13349151611328,6.935515880584717,-1.237154483795166,-0.4450111150200122,0.4414825788754971,-0.7791394227338815,0.11320087573594304,4.0,0
39.16367721557617,6.853337287902832,-1.2432935237884521,-0.6205864912067898,0.7840977309840814,-0.007947024428073915,0.11698946009157463,3.0,0
39.38189697265625,6.520139694213867,-1.2839863300323486,-0.0006623540797105973,-0.9089628161895333,-0.41687667249663374,0.1700167162747084,4.0,0
39.23848342895508,7.125613212585449,-1.2508525848388672,-0.0,-0.0,-1.0,0.2086091856033057,1.0,0
39.346168518066406,6.687595367431641,-1.2750799655914307,-0.0,-0.0,-1.0,0.2050892386531318,1.0,0
39.25800323486328,8.070622444152832,-1.2447116374969482,-0.0,-0.0,-1.0,0.22901053362097107,1.0,0
39.34992980957031,7.659257411956787,-1.2621004581451416,-0.0,-0.0,-1.0,0.24937548478670102,1.0,0
39.50225830078125,7.3607048988342285,-1.2892813682556152,-0.0,-0.0,-1.0,0.17893346600081392,2.0,0
39.887939453125,7.572875022888184,-1.34769606590271,-0.0,-0.0,-1.0,0.16730290062721656,2.0,0
39.033809661865234,7.900602340698242,-0.6523571014404297,0.09955192293601194,0.5498096073368507,-0.829336367416647,0.16097754656959656,3.0,0
39.08759307861328,7.8391289710998535,-0.7467098236083984,0.9454990913795088,0.05686871871808193,0.32062036278422296,0.20593425489645953,5.0,0
40.016380310058594,7.811215877532959,-0.8589537143707275,-0.9542782873941875,-0.25368074667607365,0.15811081232441357,0.16231411605220636,8.0,0
39.47425842285156,6.642755508422852,-1.097691535949707,-0.0,-0.0,-1.0,0.026313840804355865,1.0,0
39.63734436035156,6.534769058227539,-1.0889933109283447,-0.0,-0.0,-1.0,0.05926431082015774,1.0,0
39.23703384399414,7.930095672607422,-1.26589035987854,-0.0,-0.0,-1.0,0.17051323674990385,2.0,0
39.50271987915039,8.019668579101562,-1.2875721454620361,-0.0,-0.0,-1.0,0.190167042205379,1.0,0
39.4786376953125,7.9014434814453125,-1.270460844039917,-0.0,-0.0,-1.0,0.17078895412477801,2.0,0
38.71171569824219,7.951099395751953,-0.7951278686523438,-0.0,-0.0,-1.0,0.24451833549112445,1.0,0
38.620845794677734,7.239696502685547,-1.3932387828826904,-0.0,-0.0,-1.0,0.04467418185168043,1.0,0
38.84255599975586,6.986785888671875,-1.371802568435669,0.19405935699691293,0.03536865572097379,-0.9803519899273095,0.12131511380283413,3.0,0
38.033660888671875,6.809762954711914,-1.3172192573547363,-0.0,-0.0,-1.0,0.12781179053877423,1.0,0
39.117698669433594,6.535335540771484,-1.329094648361206,0.659740354547891,-0.21446636516783285,-0.7202408227757718,0.10063455105178953,3.0,0
38.97642517089844,6.615440368652344,-1.3325626850128174,0.512860059026793,0.21804127678058252,-0.8303207581862131,0.08946690421757444,3.0,0
37.74913024902344,6.508647918701172,-1.269455909729004,0.038059567605084534,-0.6929265438203592,-0.7200029681764412,0.2251650365810345,3.0,0
39.709014892578125,6.462459564208984,-1.3475067615509033,0.8276299874365768,0.12432510419762606,-0.5473315926949409,0.11012465545513482,3.0,0
39.35634231567383,6.3836212158203125,-1.321624517440796,0.06105358376731376,0.9041130522410583,0.4229090312070972,0.11321526262857469,4.0,0
38.08001708984375,5.735132217407227,-1.3423619270324707,-0.0,-0.0,-1.0,0.01237942628357151,2.0,0
37.948638916015625,5.669227600097656,-1.3262019157409668,0.7198442853964215,-0.6940671664698487,-0.009745419982254954,0.02006845493419233,4.0,0
38.505943298339844,6.446081161499023,-1.385486125946045,-0.027968412065441088,0.2343043601187055,-0.971760893819,0.0799271803734006,3.0,0
38.265132904052734,6.647653579711914,-1.3950371742248535,-0.017504468189819846,0.46624213620071503,-0.8844839535143562,0.036406431348049044,3.0,0
