x,y,z,nx,ny,nz,curvature,density,label
34.91176986694336,2.316983222961426,-0.8997864723205566,-0.0,-0.0,-1.0,0.03063194005369816,1.0,0
34.50505065917969,1.876194953918457,-0.9747267961502075,-0.0,-0.0,-1.0,0.027767603664143433,1.0,0
34.2109375,2.698542594909668,-0.9572612047195435,-0.0,-0.0,-1.0,0.04920125244112548,1.0,0
34.595149993896484,2.2083663940429688,-0.946330189704895,-0.0,-0.0,-1.0,0.16035173415854806,1.0,0
34.66642761230469,1.9206857681274414,-0.9564098119735718,-0.0,-0.0,-1.0,0.020095782900283115,1.0,0
34.95747375488281,1.7340974807739258,-0.9396268129348755,-0.0,-0.0,-1.0,0.217482353889352,1.0,0
34.378604888916016,2.8232364654541016,-0.9334925413131714,-0.0,-0.0,-1.0,0.12312181280098311,1.0,0
34.64584732055664,2.598146438598633,-0.9189850091934204,-0.0,-0.0,-1.0,0.08725256658627506,1.0,0
34.685890197753906,2.6964216232299805,-0.9666589498519897,-0.0,-0.0,-1.0,0.09768922460615749,1.0,0
34.95283889770508,2.3898820877075195,-0.9600635766983032,-0.0,-0.0,-1.0,0.04933520883459496,1.0,0
34.87877655029297,2.8808956146240234,-0.935958743095398,-0.0,-0.0,-1.0,0.12387425958255202,1.0,0
33.28876495361328,1.1358251571655273,-0.6679760217666626,0.44709808608105306,0.7459945469006785,-0.49355388501875924,0.1195957761595739,4.0,0
33.82627868652344,1.2929058074951172,-0.6191117763519287,-0.0,-0.0,-1.0,0.17137741067393483,2.0,0
33.979183197021484,2.5297412872314453,-0.9026404619216919,-0.0,-0.0,-1.0,0.14260806389546812,2.0,0
33.91346740722656,2.369630813598633,-0.9196187257766724,-0.0,-0.0,-1.0,0.09584795241115415,1.0,0
33.97667694091797,1.8658447265625,-0.9500554800033569,-0.0,-0.0,-1.0,0.06162317948920975,2.0,0
34.028846740722656,2.7231149673461914,-0.8848563432693481,-0.0,-0.0,-1.0,0.07590388529996243,1.0,0
34.135650634765625,2.3018321990966797,-0.9049547910690308,-0.532724258327565,-0.80367212964246,0.2651715909091686,0.19907216728850224,4.0,0
34.15138244628906,1.768829345703125,-0.9420887231826782,-0.0,-0.0,-1.0,0.05349707362726304,1.0,0
34.37993621826172,1.6249322891235352,-0.9332529306411743,-0.0,-0.0,-1.0,0.06972119743182667,2.0,0
34.60785675048828,1.4477720260620117,-0.9273244142532349,-0.0,-0.0,-1.0,0.049991490944443,1.0,0
34.76789855957031,1.3063879013061523,-0.9247609376907349,0.7747747560159763,-0.631271902095193,0.03492653812648913,0.16944111228126923,3.0,0
35.12554168701172,1.2225112915039062,-0.9017254114151001,-0.0,-0.0,-1.0,0.10017799697380804,2.0,0
34.02190017700195,2.484971046447754,-0.9442384243011475,-0.0,-0.0,-1.0,0.05672760886464075,1.0,0
33.97984313964844,1.9720211029052734,-0.9736976623535156,-0.0,-0.0,-1.0,0.07544823693998942,2.0,0
34.203643798828125,2.352558135986328,-0.9315285682678223,-0.5989490813147799,-0.6573887338267874,-0.4572745899673343,0.16651298863037253,3.0,0
34.045379638671875,1.9301376342773438,-0.968980073928833,-0.0,-0.0,-1.0,0.08355867596047713,1.0,0
34.241920471191406,1.8063364028930664,-0.9549529552459717,-0.0,-0.0,-1.0,0.0520264205089497,2.0,0
34.5228157043457,1.536850929260254,-0.9402656555175781,-0.0,-0.0,-1.0,0.049581594928144984,1.0,0
34.66654586791992,1.3448572158813477,-0.9359924793243408,-0.0,-0.0,-1.0,0.048251592437361,2.0,0
34.9945068359375,1.2320852279663086,-0.9092550277709961,0.07879165045803187,-0.2967735096445465,-0.9516918407716637,0.10834782853002076,5.0,0
33.95565414428711,2.4432315826416016,-0.9232332706451416,-0.0,-0.0,-1.0,0.10646650128296528,1.0,0
33.99053955078125,2.342831611633301,-0.9241044521331787,-0.0,-0.0,-1.0,0.09863382562779155,2.0,0
33.99858093261719,1.8629207611083984,-0.945950984954834,-0.0,-0.0,-1.0,0.060972931801047285,2.0,0
34.339298248291016,1.6433982849121094,-0.9211018085479736,-0.5402116805391554,0.11915376352845959,-0.8330508512966454,0.08998345676373165,4.0,0
34.20691680908203,1.6651744842529297,-0.9337751865386963,-0.0,-0.0,-1.0,0.080260333306095,1.0,0
34.574317932128906,1.3703022003173828,-0.9107563495635986,-0.0,-0.0,-1.0,0.05322753810242416,1.0,0
34.023136138916016,2.601740837097168,-0.9088232517242432,-0.8407493544886137,-0.49342948448895,-0.22286288781210004,0.12458936977970578,3.0,0
34.19129943847656,2.3437423706054688,-0.9026858806610107,0.6204190407790338,-0.7838410051252969,0.02595173448901057,0.18580103040706267,3.0,0
35.013084411621094,1.0919837951660156,-0.8808262348175049,-0.0,-0.0,-1.0,0.04706266264871125,1.0,0
35.12321090698242,0.9579477310180664,-0.8770570755004883,0.3286163503740204,-0.7818024071775291,-0.529902151720749,0.06671749009066609,3.0,0
33.66981506347656,2.2036361694335938,-0.8997502326965332,-0.0,-0.0,-1.0,0.08521449043483995,1.0,0
33.56965255737305,1.9881258010864258,-0.9222617149353027,-0.0,-0.0,-1.0,0.05703356873923815,1.0,0
33.79442596435547,1.7993698120117188,-0.9115159511566162,-0.0,-0.0,-1.0,0.04806773897204357,2.0,0
34.074398040771484,1.5118389129638672,-0.9020693302154541,-0.0,-0.0,-1.0,0.034560715645367245,2.0,0
34.258323669433594,1.3213844299316406,-0.8964157104492188,0.806517822006383,0.30255504948499673,-0.5079266136138284,0.0821574487288953,3.0,0
34.30680847167969,1.0988311767578125,-0.9061393737792969,-0.0,-0.0,-1.0,0.0625625525177421,1.0,0
33.99095153808594,2.5018482208251953,-0.8506853580474854,-0.0,-0.0,-1.0,0.23746644960143515,1.0,0
34.2554817199707,1.6045598983764648,-0.8787827491760254,0.453327549140749,0.8909716915493969,0.02576000868881761,0.07896708449901504,4.0,0
35.038597106933594,1.702528953552246,-0.7976372241973877,-0.0,-0.0,-1.0,0.09766271857808984,2.0,0
34.92710494995117,1.276310920715332,-0.8359737396240234,-0.0,-0.0,-1.0,0.20175021940196292,2.0,0
34.80402374267578,1.0721931457519531,-0.8610954284667969,0.5618914517390672,0.707985440909412,-0.4278254456234099,0.052325821608839,5.0,0
35.01554870605469,0.8941402435302734,-0.8533103466033936,-0.6427012843366752,0.10621439891525021,-0.7587183671001122,0.04614463702743636,6.0,0
34.901248931884766,0.6525421142578125,-0.8803620338439941,-0.0,-0.0,-1.0,0.042028289428279915,2.0,0
34.206695556640625,2.9527149200439453,-0.8906267881393433,-0.0,-0.0,-1.0,0.10867278498223613,1.0,0
34.02958679199219,2.6013174057006836,-0.9322208166122437,-0.8444872293766855,-0.4912375618023007,-0.2133705164595625,0.11225833223404492,4.0,0
34.17070007324219,2.3833208084106445,-0.9326032400131226,-0.0,-0.0,-1.0,0.17238309643174765,2.0,0
34.08640670776367,2.3369102478027344,-0.9444366693496704,0.5019401879900628,0.18598776554750987,-0.8446683365363857,0.14359222550185863,4.0,0
34.26380920410156,1.9109220504760742,-0.9562419652938843,-0.0,-0.0,-1.0,0.04532674121029853,1.0,0
34.536163330078125,1.618387222290039,-0.9502502679824829,-0.0,-0.0,-1.0,0.0426830612023564,1.0,0
35.027503967285156,1.382802963256836,-0.919601321220398,-0.0,-0.0,-1.0,0.09463235881092412,1.0,0
34.833709716796875,1.4358396530151367,-0.9345051050186157,-0.0,-0.0,-1.0,0.09343343162984656,1.0,0
33.83720397949219,2.466790199279785,-0.9085861444473267,-0.6870061402854766,-0.7040838212319966,0.17969011071676105,0.17344303900319483,3.0,0
33.71467590332031,2.0217819213867188,-0.9446326494216919,0.3681782108107678,-0.7329824425330455,-0.5719978531624681,0.05473050682993857,4.0,0
34.28899002075195,1.7268486022949219,-0.8968619108200073,0.3640706005307515,0.793300255429349,-0.4879828916723491,0.08648846732653676,3.0,0
33.927398681640625,1.7381591796875,-0.935900092124939,-0.0,-0.0,-1.0,0.046219113313139576,1.0,0
34.334983825683594,1.4575443267822266,-0.9066945314407349,-0.0,-0.0,-1.0,0.06194981088846818,2.0,0
34.82661056518555,1.2074766159057617,-0.8681157827377319,-0.11107375597868503,0.16758534159246424,-0.9795804071213985,0.15466133797487547,6.0,0
34.465576171875,1.1969785690307617,-0.907319188117981,-0.0,-0.0,-1.0,0.0502714835058993,2.0,0
34.91580581665039,0.8866825103759766,-0.8776775598526001,-0.0,-0.0,-1.0,0.06218993376250122,1.0,0
34.841426849365234,0.8319997787475586,-0.8888732194900513,0.48862738787765675,0.6870182892435199,0.537818878490487,0.05532308381076148,3.0,0
33.894065856933594,2.6816205978393555,-0.9282269477844238,-0.0,-0.0,-1.0,0.06214385562090975,1.0,0
34.03014373779297,2.403069496154785,-0.9264271259307861,-0.0,-0.0,-1.0,0.0969199176693868,2.0,0
33.860355377197266,2.5203704833984375,-0.9403750896453857,-0.0,-0.0,-1.0,0.11209116639335925,2.0,0
34.10052490234375,1.871267318725586,-0.9466872215270996,-0.0,-0.0,-1.0,0.06584358046811221,1.0,0
33.909969329833984,1.9785346984863281,-0.9629793167114258,-0.0,-0.0,-1.0,0.0398860657341485,1.0,0
34.28753662109375,1.6593599319458008,-0.9370486736297607,-0.0,-0.0,-1.0,0.09364356652508948,2.0,0
34.749027252197266,1.2842369079589844,-0.9065022468566895,0.3094328045111833,-0.7478036132580947,-0.5874019879864901,0.16333541487440728,3.0,0
34.45980453491211,1.436995506286621,-0.9300951957702637,-0.0,-0.0,-1.0,0.04455787351970869,2.0,0
35.0947265625,0.9535140991210938,-0.8881802558898926,0.3286163503740204,-0.7818024071775291,-0.529902151720749,0.08373739845769444,3.0,0
34.93158721923828,1.0114545822143555,-0.9026157855987549,0.4919916601909841,0.8411598759188452,0.22448667988705315,0.04131642524278007,4.0,0
34.171817779541016,3.0681724548339844,-0.6020456552505493,-0.0,-0.0,-1.0,0.07071346474305686,1.0,0
33.861907958984375,2.518589973449707,-0.6607881784439087,-0.0,-0.0,-1.0,0.13759268757083587,1.0,0
33.48587417602539,1.934438705444336,-0.7288597822189331,-0.0,-0.0,-1.0,0.06994895855567378,1.0,0
33.28998947143555,1.9622879028320312,-0.7475584745407104,-0.0,-0.0,-1.0,0.11374045436875936,1.0,0
34.177825927734375,0.7551603317260742,-0.7245343923568726,-0.0,-0.0,-1.0,0.15281203588083214,1.0,0
34.0955696105957,0.6559715270996094,-0.7384215593338013,-0.0,-0.0,-1.0,0.09484140830667159,1.0,0
34.78864669799805,3.006951332092285,-0.6200954914093018,-0.0,-0.0,-1.0,0.16459821893427765,1.0,0
34.66058349609375,3.0862932205200195,-0.6134800910949707,0.5249453466289277,-0.8400181643829071,-0.13711989848087885,0.16520669680979994,3.0,0
33.686275482177734,2.8049068450927734,-0.7060067653656006,-0.0,-0.0,-1.0,0.12209298433057811,1.0,0
33.72233200073242,2.619450569152832,-0.733604907989502,-0.0,-0.0,-1.0,0.12226578989698857,1.0,0
34.84984588623047,1.6124467849731445,-0.8492987155914307,-0.0,-0.0,-1.0,0.17625248055428472,1.0,0
34.45073699951172,1.6212339401245117,-0.864335298538208,-0.0,-0.0,-1.0,0.04817440712520262,1.0,0
34.139461517333984,1.8086423873901367,-0.8463959693908691,-0.0,-0.0,-1.0,0.05365864415341106,1.0,0
33.65912628173828,2.0577468872070312,-0.8270738124847412,-0.0,-0.0,-1.0,0.0438300566942944,1.0,0
33.88706588745117,1.752528190612793,-0.8667724132537842,-0.0,-0.0,-1.0,0.04825317239509364,2.0,0
33.77845764160156,1.784637451171875,-0.8663253784179688,-0.0,-0.0,-1.0,0.04922310483458328,1.0,0
33.45353698730469,2.792666435241699,-0.5799381732940674,-0.0,-0.0,-1.0,0.1150880957918679,1.0,0
33.348915100097656,2.9985532760620117,-0.5739192962646484,-0.0,-0.0,-1.0,0.09385133745400921,2.0,0
35.11505126953125,2.5404815673828125,-1.0528134107589722,-0.0,-0.0,-1.0,0.04283640931927936,1.0,0
34.774742126464844,2.7346763610839844,-1.0479084253311157,-0.0,-0.0,-1.0,0.08292934330609351,1.0,0
34.432918548583984,2.8781566619873047,-1.0521575212478638,-0.0,-0.0,-1.0,0.08782440123887218,2.0,0
33.68682861328125,1.2070369720458984,-0.7727946043014526,-0.5667516147826503,-0.511420887885861,-0.6459421665871455,0.1815824472909973,4.0,0
33.357540130615234,0.9770298004150391,-0.8189178705215454,-0.7119052512437155,-0.533376723141518,-0.4568371531108637,0.13051074426825257,3.0,0
33.04838562011719,3.096869468688965,-0.5659856796264648,-0.026894314016943418,0.2838809765581424,-0.9584822831027988,0.08480378671182759,4.0,0
33.74723434448242,3.0633621215820312,-0.6456382274627686,-0.0,-0.0,-1.0,0.11663135784971537,1.0,0
33.14629364013672,2.2674331665039062,-0.7738533020019531,-0.0,-0.0,-1.0,0.06571115362137166,2.0,0
33.33223342895508,2.1372108459472656,-0.7668337821960449,-0.7653875378506704,0.4128419639319524,-0.4937037874269314,0.09608673562370314,3.0,0
33.1375846862793,2.14663028717041,-0.7851781845092773,0.320150124537545,0.8957576367274588,0.3084187964489717,0.06573676694146831,4.0,0
33.680965423583984,0.939666748046875,-0.8404905796051025,-0.0,-0.0,-1.0,0.18363755039255442,2.0,0
33.37164306640625,1.0298728942871094,-0.8615286350250244,-0.0,-0.0,-1.0,0.237691696877031,1.0,0
33.049686431884766,1.0730600357055664,-0.8884201049804688,-0.0,-0.0,-1.0,0.15420718627650762,2.0,0
32.74006271362305,1.218545913696289,-0.9054219722747803,-0.0,-0.0,-1.0,0.0600524869651779,2.0,0
33.43814468383789,0.8054056167602539,-0.8756153583526611,-0.0,-0.0,-1.0,0.0783610292383857,1.0,0
35.15655517578125,3.099440574645996,-0.9661136865615845,-0.0,-0.0,-1.0,0.16732503638984,2.0,0
33.83736801147461,3.0643701553344727,-0.6234060525894165,-0.0,-0.0,-1.0,0.10488850880119169,1.0,0
33.38648986816406,2.109015464782715,-0.7597173452377319,-0.39960278721380166,0.8768808608711788,-0.26720323405374663,0.24939382717392194,4.0,0
33.23391342163086,2.329148292541504,-0.7529436349868774,-0.0,-0.0,-1.0,0.08666302443925361,2.0,0
33.16442108154297,2.141592025756836,-0.7777632474899292,0.1401767580149968,0.9776111859947216,0.15692942850338476,0.049672542404805085,3.0,0
33.68119812011719,1.183767318725586,-0.824421763420105,-0.5338370227261704,-0.17387503604001323,-0.8275176765537661,0.21444972427666448,3.0,0
33.624332427978516,0.890254020690918,-0.8594328165054321,-0.47878765982066934,-0.5047461192098974,0.7183270369031055,0.1651154534816123,4.0,0
33.253910064697266,1.0633411407470703,-0.8759609460830688,-0.06034096441144408,-0.9783525615706041,0.1979526036255498,0.22315948337579936,4.0,0
32.85210418701172,1.1567840576171875,-0.9041992425918579,-0.0,-0.0,-1.0,0.12533974152199356,2.0,0
33.93782043457031,2.9960641860961914,-0.8029752969741821,-0.0,-0.0,-1.0,0.09623670863009208,1.0,0
32.88499450683594,2.979907989501953,-0.7649507522583008,-0.0,-0.0,-1.0,0.1733017501192266,2.0,0
32.835601806640625,2.45721435546875,-0.7725491523742676,-0.0,-0.0,-1.0,0.1477415177722731,1.0,0
32.96808624267578,2.2688684463500977,-0.7962708473205566,-0.04991034354375377,0.8401976232100393,-0.5399786213912041,0.08605670131924571,3.0,0
33.10176086425781,2.648448944091797,-0.8040604591369629,-0.33727979480807585,0.441157137359241,-0.8316385754468235,0.14021551506908692,3.0,0
33.6756591796875,1.2495803833007812,-0.9240498542785645,-0.7494508105745957,-0.5813128395368607,-0.3168577995231828,0.22783017507245834,3.0,0
33.58876037597656,0.8258047103881836,-0.9256942272186279,-0.0,-0.0,-1.0,0.13932125860303682,2.0,0
33.91075134277344,1.5251836776733398,-0.947869062423706,-0.1971716410874556,0.7949434524623475,-0.5737492931046826,0.057042848554948185,3.0,0
33.87080001831055,1.3187904357910156,-0.9485838413238525,0.37451321678019833,0.5433027045464047,-0.7513734235980869,0.1181447388719577,3.0,0
33.81898498535156,1.0299921035766602,-0.9503939151763916,-0.0,-0.0,-1.0,0.1171291143360455,2.0,0
32.94963455200195,2.8726844787597656,-0.7380197048187256,-0.2945087243247792,-0.9273341141085705,-0.2309026896921389,0.05762932374257899,3.0,0
33.12947463989258,2.5645065307617188,-0.7719519138336182,-0.07691841647092046,0.44368103614125454,-0.8928777606012088,0.14047797574045187,3.0,0
33.816619873046875,1.191960334777832,-0.9097034931182861,-0.9813543201033902,-0.021410921714951715,0.19101117989722144,0.1629416404158203,3.0,0
33.72685241699219,0.8970804214477539,-0.9084713459014893,-0.0,-0.0,-1.0,0.16852026317072863,2.0,0
34.084861755371094,1.3681087493896484,-0.9391157627105713,-0.0,-0.0,-1.0,0.024616878826873606,1.0,0
32.736942291259766,0.8420019149780273,-0.8536195755004883,0.41631998887470695,0.8058656746139545,-0.421020404900237,0.06904895160401002,3.0,0
33.09126663208008,1.059779167175293,-0.8954384326934814,-0.0,-0.0,-1.0,0.1399551463478734,2.0,0
33.402103424072266,1.4322748184204102,-0.9275760650634766,-0.0,-0.0,-1.0,0.03973750630029786,1.0,0
33.60160446166992,1.592458724975586,-0.9512894153594971,-0.0,-0.0,-1.0,0.05448312663977363,1.0,0
33.48647689819336,0.7894620895385742,-0.8821581602096558,-0.0,-0.0,-1.0,0.05739563522959834,1.0,0
32.989990234375,2.270432472229004,-0.7958618402481079,-0.04991034354375377,0.8401976232100393,-0.5399786213912041,0.06441664151965826,3.0,0
33.09089660644531,2.101480484008789,-0.8123253583908081,-0.16134354754815564,0.3174769884059703,-0.934439201605568,0.09169485960824905,4.0,0
33.11541748046875,1.6039762496948242,-0.8190606832504272,-0.0,-0.0,-1.0,0.05478416923515452,1.0,0
33.57936477661133,1.051590919494629,-0.8942064046859741,-0.0,-0.0,-1.0,0.21989777222143678,2.0,0
33.641441345214844,1.0432262420654297,-0.9037994146347046,-0.5527936585840735,-0.7920764198489084,0.25890947481421134,0.20026028498510617,4.0,0
33.786563873291016,1.3754405975341797,-0.9239004850387573,-0.8727286645783284,-0.2122106485630023,-0.43967183064167065,0.21921907865552095,3.0,0
33.74509811401367,1.0853471755981445,-0.6915644407272339,-0.0,-0.0,-1.0,0.1456254956717612,1.0,0
34.94742965698242,0.6695356369018555,-0.8619037866592407,-0.0,-0.0,-1.0,0.04264490330285129,1.0,0
32.86589431762695,3.119018077850342,-0.5470199584960938,0.7317571401544177,0.584019839400528,0.35135781622102785,0.0842203399397887,5.0,0
34.92938995361328,0.9403972625732422,-0.8561698198318481,-0.0,-0.0,-1.0,0.04630123329690521,2.0,0
34.95188522338867,0.8111410140991211,-0.8607949018478394,-0.1421107348517377,0.7332143468309885,-0.6649821506184258,0.04861959121604522,4.0,0
32.71712875366211,1.1636285781860352,-0.9063160419464111,-0.0,-0.0,-1.0,0.11194113307114471,1.0,0
32.97633361816406,1.2116985321044922,-0.9462981224060059,-0.0,-0.0,-1.0,0.07500256653119643,1.0,0
32.98176574707031,1.4629478454589844,-0.9379012584686279,-0.37062933460357556,-0.9279835497977332,0.038476325657593416,0.03598250731336886,3.0,0
33.059898376464844,1.3385047912597656,-0.9552249908447266,-0.0,-0.0,-1.0,0.05086578812287059,1.0,0
33.00828552246094,1.6973543167114258,-0.933892011642456,-0.0,-0.0,-1.0,0.05632648691116652,1.0,0
33.68950653076172,1.0976448059082031,-0.5269467830657959,-0.7759146568128039,-0.6170557635778396,-0.1311435472237883,0.11780802134746586,4.0,0
33.75536346435547,1.378676414489746,-0.5321427583694458,-0.7407672492672717,0.32367574097982266,-0.588640719891313,0.206192692796257,4.0,0
33.39484405517578,0.9234123229980469,-0.8777081966400146,-0.4595106532326913,0.10563624676615636,-0.881867871585548,0.21616509016621213,3.0,0
33.49737548828125,1.1064529418945312,-0.8920471668243408,-0.0,-0.0,-1.0,0.2432384858138329,1.0,0
33.63322830200195,1.2851085662841797,-0.9132804870605469,-0.7505905756023256,0.6606356708874617,0.01320220315111284,0.1887717426002924,4.0,0
33.689300537109375,1.5747795104980469,-0.9186789989471436,-0.0,-0.0,-1.0,0.10069376715391067,2.0,0
33.07646179199219,2.146231174468994,-0.7974774837493896,-0.2518007084506024,0.23062841484809504,-0.9398973015646066,0.09016082763728675,3.0,0
32.78097152709961,2.9492645263671875,-0.7334988117218018,-0.44709288491612736,-0.4311870867028333,-0.7836999735345778,0.19643032344297331,3.0,0
32.882484436035156,2.5898056030273438,-0.7559471130371094,-0.0,-0.0,-1.0,0.0852935455958356,2.0,0
33.707950592041016,0.9574413299560547,-0.6686100959777832,-0.9324196792648738,0.13602762425678191,0.33479848739002044,0.11938866733668707,3.0,0
34.81597137451172,0.8530387878417969,-0.832170844078064,-0.0,-0.0,-1.0,0.13362045090136182,2.0,0
35.01335906982422,0.9183492660522461,-0.8581322431564331,0.14953109844687984,-0.5414227845010006,-0.8273462509859174,0.04754279705908183,6.0,0
33.768123626708984,1.2777061462402344,-0.6614786386489868,0.5036188317619823,-0.16876970129230087,-0.8472808626544114,0.18507469220895906,12.0,0
34.88652038574219,1.1800651550292969,-0.8282915353775024,0.5415064458397466,0.08804344222664517,-0.8360736339551015,0.2259793213038793,6.0,0
33.35562515258789,1.3136863708496094,-0.9680143594741821,-0.0,-0.0,-1.0,0.050721218778909186,1.0,0
32.82856750488281,1.0196475982666016,-0.9160038232803345,-0.2728908354327193,0.8199264167062469,0.5032407605948536,0.09621120426571025,3.0,0
33.043792724609375,1.1352882385253906,-0.9369217157363892,-0.0,-0.0,-1.0,0.11059821677775877,1.0,0
33.140472412109375,1.3799514770507812,-0.9272104501724243,-0.0,-0.0,-1.0,0.05664989266391866,2.0,0
34.93244171142578,1.211233139038086,-0.7552043199539185,-0.0,-0.0,-1.0,0.16841634343922643,1.0,0
34.89703369140625,1.5965309143066406,-0.7265032529830933,0.6434934559004744,0.1357373294208295,-0.7533203499275494,0.1467227471295207,4.0,0
33.01180648803711,2.343594551086426,-0.8139592409133911,-0.0,-0.0,-1.0,0.14277194144307587,2.0,0
32.941551208496094,2.643070697784424,-0.7751690149307251,-0.9409798242680982,-0.30492979332742365,0.14688359834124978,0.07157228835856493,3.0,0
32.80723190307617,2.9131054878234863,-0.7285856008529663,-0.19929978090365438,-0.4072683283908682,-0.89129798946338,0.12528833697223354,5.0,0
33.32439422607422,1.113072395324707,-0.7853705883026123,-0.8835290028367493,-0.4588103451404823,-0.09417838572820678,0.16896271777596855,4.0,0
33.70106887817383,0.8574028015136719,-0.8708324432373047,-0.5204314135316579,-0.3045536561800291,0.7977457078021901,0.17203516601526042,3.0,0
34.03562545776367,0.9580440521240234,-0.9137160778045654,-0.0,-0.0,-1.0,0.10197866024327805,1.0,0
34.26169967651367,1.0774145126342773,-0.9387021064758301,0.8972927694485983,-0.4413723820346409,0.007490412026822606,0.07499993150468404,3.0,0
33.7004280090332,1.2331666946411133,-0.8321533203125,-0.338167542642722,0.7993143637021918,-0.4967285587545207,0.19702159591141116,3.0,0
34.2442626953125,1.333984375,-0.9112372398376465,0.7209375946078505,0.213946505159449,-0.6591478419983677,0.07702268392559812,4.0,0
34.363075256347656,1.3461875915527344,-0.9301478862762451,0.8143136724694666,0.5410903456193638,0.2100344750435208,0.0667731023070419,3.0,0
34.22309112548828,1.6209783554077148,-0.8808660507202148,0.453327549140749,0.8909716915493969,0.02576000868881761,0.07990704589712197,4.0,0
35.02752685546875,2.1560215950012207,-0.9766433238983154,-0.0,-0.0,-1.0,0.026876774487980464,1.0,0
32.71635818481445,2.6370835304260254,-0.5333389043807983,-0.0,-0.0,-1.0,0.15009271466381827,2.0,0
33.09733581542969,3.0792479515075684,-0.5565066337585449,0.5374966399014247,-0.8426590815839613,0.03198490767148206,0.04616851809264564,3.0,0
33.80910110473633,3.0498275756835938,-0.6848889589309692,-0.0,-0.0,-1.0,0.10779817268952123,2.0,0
33.764060974121094,0.8713741302490234,-0.8688900470733643,-0.0,-0.0,-1.0,0.1653708086055174,2.0,0
34.206565856933594,0.8088846206665039,-0.9451858997344971,-0.0,-0.0,-1.0,0.062021983567401906,2.0,0
34.36417770385742,0.91259765625,-0.955761194229126,-0.40372745991921716,0.29575642950835096,-0.8657553190778844,0.07364660499303262,3.0,0
34.55144500732422,1.2172651290893555,-0.9456379413604736,0.41696362205309817,0.4478797717502448,-0.79091405850529,0.04032974235102547,3.0,0
32.842010498046875,1.7206296920776367,-0.9559812545776367,-0.0,-0.0,-1.0,0.0231457847338104,1.0,0
34.96619415283203,1.5551071166992188,-0.9726288318634033,0.20951582176962621,-0.7224684760335368,-0.6588948486412509,0.11760833373960677,4.0,0
35.15491485595703,1.7936201095581055,-0.976550817489624,-0.0,-0.0,-1.0,0.21576456660930912,2.0,0
33.34235382080078,1.072279930114746,-0.7779567241668701,-0.8972097329509438,-0.43208557845361695,-0.0911962060093488,0.18353389795758268,7.0,0
33.77751922607422,1.1184606552124023,-0.8360545635223389,-0.9659961743804157,0.09531353388794624,-0.24034708515019018,0.2150031610822323,3.0,0
32.804752349853516,2.569027900695801,-0.802365779876709,-0.0,-0.0,-1.0,0.10384661474771041,2.0,0
32.92967224121094,2.4717040061950684,-0.5174731016159058,-0.6752610204714531,-0.03779485489479007,-0.7366098717607127,0.1536584881719296,3.0,0
34.16996765136719,2.289238452911377,-0.7431868314743042,-0.0,-0.0,-1.0,0.167328278780637,1.0,0
32.72380065917969,3.0670089721679688,-0.7040289640426636,0.09265809598437337,-0.13929773136527454,-0.9859059890704787,0.1512805321568644,6.0,0
34.60174560546875,2.9029388427734375,-0.7458862066268921,-0.0,-0.0,-1.0,0.12520215883130725,1.0,0
34.7330436706543,3.120598793029785,-0.7458673715591431,-0.0,-0.0,-1.0,0.12330966788111926,2.0,0
32.728668212890625,1.5050239562988281,-0.9680413007736206,-0.0,-0.0,-1.0,0.014651148672972236,1.0,0
32.83244323730469,1.563187599182129,-0.9706834554672241,-0.0,-0.0,-1.0,0.03759781956112369,1.0,0
33.04962921142578,1.6902751922607422,-0.9766172170639038,-0.0,-0.0,-1.0,0.055147195005492936,1.0,0
33.11050033569336,1.1362495422363281,-0.7462172508239746,-0.0,-0.0,-1.0,0.1424032253544104,1.0,0
33.33040237426758,1.061849594116211,-0.7873533964157104,-0.9912892609551783,0.031485599155205615,-0.12788376816771468,0.21334282598206,9.0,0
33.7423210144043,0.8857660293579102,-0.8722494840621948,-0.5489572327352907,-0.8354294649651118,-0.026524812830977622,0.1617741094429691,3.0,0
34.198509216308594,0.7881612777709961,-0.9527369737625122,-0.9116301703027089,0.23039487460395466,0.34036544235583327,0.061709396922373316,3.0,0
34.382171630859375,0.9368810653686523,-0.9558566808700562,-0.0,-0.0,-1.0,0.07223870486252389,2.0,0
33.77629852294922,1.0860671997070312,-0.8439944982528687,-0.9659961743804157,0.09531353388794624,-0.24034708515019018,0.1726395995030901,3.0,0
34.58156967163086,1.1863832473754883,-0.9472442865371704,-0.0,-0.0,-1.0,0.029418197273146846,2.0,0
34.83280944824219,1.2918939590454102,-0.9704898595809937,-0.0,-0.0,-1.0,0.14648977015342837,2.0,0
32.902347564697266,1.7369823455810547,-0.945534348487854,-0.0,-0.0,-1.0,0.0351233142867628,2.0,0
35.03860092163086,1.493128776550293,-0.9740892648696899,-0.0,-0.0,-1.0,0.08457557391655396,1.0,0
32.87974548339844,2.3673157691955566,-0.8157716989517212,-0.0,-0.0,-1.0,0.10631658905355683,1.0,0
33.01348876953125,2.2226991653442383,-0.8650401830673218,-0.0,-0.0,-1.0,0.140591256534822,2.0,0
32.999263763427734,2.4880380630493164,-0.8104995489120483,-0.0,-0.0,-1.0,0.1750936897576753,1.0,0
34.09366989135742,2.337864398956299,-0.6932934522628784,0.5163534112039758,-0.6978727278011945,-0.49633941061468995,0.1125202317811415,4.0,0
33.265769958496094,0.6427001953125,-0.9061189889907837,-0.0,-0.0,-1.0,0.04086463464710871,1.0,0
33.4485969543457,0.8801002502441406,-0.8779596090316772,-0.0,-0.0,-1.0,0.16357651635613113,2.0,0
33.75535583496094,0.9549961090087891,-0.8988200426101685,-0.0,-0.0,-1.0,0.1503794991160311,2.0,0
34.11250686645508,1.0122699737548828,-0.9321473836898804,-0.0,-0.0,-1.0,0.11138793129361949,1.0,0
33.68765640258789,1.2246417999267578,-0.8371764421463013,0.5271997028584771,-0.3279173873061124,-0.7839200599603682,0.19658742553557054,3.0,0
34.31241226196289,1.2136869430541992,-0.9199599027633667,-0.0,-0.0,-1.0,0.08851727230833292,2.0,0
34.59760284423828,1.3006677627563477,-0.9436284303665161,0.23934689843590118,-0.9438247560685714,-0.22783303544748681,0.019808689585199872,3.0,0
34.805965423583984,1.3832769393920898,-0.9586097002029419,-0.0,-0.0,-1.0,0.09558695095606382,2.0,0
35.0118293762207,1.5533056259155273,-0.9593063592910767,0.20951582176962621,-0.7224684760335368,-0.6588948486412509,0.1857402908094859,4.0,0
33.65896987915039,1.1096782684326172,-0.5173344612121582,-0.449371475733508,-0.7366776786455348,-0.5053427298205797,0.09004109547640703,3.0,0
33.7249755859375,1.3264551162719727,-0.48892438411712646,-0.0,-0.0,-1.0,0.21948719711429074,2.0,0
32.911338806152344,2.460155487060547,-0.500074028968811,-0.0,-0.0,-1.0,0.18922129658757153,2.0,0
34.084678649902344,2.3385801315307617,-0.6754539012908936,0.5163534112039758,-0.6978727278011945,-0.49633941061468995,0.13981470637733412,4.0,0
34.84791564941406,3.1316351890563965,-0.6560015678405762,-0.0,-0.0,-1.0,0.12076735689026044,1.0,0
34.418609619140625,0.7600765228271484,-0.9164690971374512,-0.0,-0.0,-1.0,0.06421436306670526,2.0,0
33.659912109375,0.9174861907958984,-0.8055446147918701,0.3925302467872291,-0.8425909663796936,-0.3687281772966247,0.18711840284095377,4.0,0
34.61029815673828,0.9643135070800781,-0.8970944881439209,-0.0,-0.0,-1.0,0.08288757507667534,2.0,0
34.772438049316406,1.1401748657226562,-0.8812379837036133,0.6140258520469953,0.6207974038836657,-0.48742469813219635,0.08867507395203654,3.0,0
34.99823760986328,1.174595832824707,-0.9034674167633057,-0.0,-0.0,-1.0,0.1176361578196584,2.0,0
33.09861373901367,1.1906967163085938,-0.6990683078765869,-0.17077614520507742,0.10289666662872432,-0.9799223358131968,0.11963508565120007,5.0,0
33.2370491027832,1.1158695220947266,-0.7262462377548218,0.2143533115149309,0.569863793479614,-0.7932893007746963,0.1431480848706544,8.0,0
33.71479797363281,1.3032445907592773,-0.7296725511550903,0.7618452880863894,-0.49679314849280737,0.41567815029319205,0.22923335917272003,5.0,0
32.89693069458008,2.4633359909057617,-0.4106649160385132,-0.0,-0.0,-1.0,0.20680449688054228,2.0,0
33.12765121459961,1.1365509033203125,-0.6584993600845337,-0.0,-0.0,-1.0,0.11173216384426861,1.0,0
33.75422668457031,1.2918930053710938,-0.6512057781219482,0.3272259442470673,0.14556297355001946,-0.9336672866406381,0.23412310777351983,13.0,0
33.71680450439453,1.405965805053711,-0.6238672733306885,-0.7635889248644349,0.08690359566164504,0.6398278822351009,0.20170146887087065,4.0,0
33.683746337890625,1.041611671447754,-0.6600162982940674,-0.9054864042770646,-0.02717594216773997,0.42350423827476413,0.15475212478345024,3.0,0
33.7381591796875,1.3111810684204102,-0.6014080047607422,0.4189039306301002,-0.8711836703784704,0.25604395983609674,0.11017391580352505,10.0,0
32.895076751708984,0.6447439193725586,-0.8873878717422485,-0.0,-0.0,-1.0,0.03497891838114184,1.0,0
32.807281494140625,0.7684745788574219,-0.8612381219863892,-0.0,-0.0,-1.0,0.04479125926676977,2.0,0
33.3779296875,0.9386053085327148,-0.8058294057846069,-0.7119052512437155,-0.533376723141518,-0.4568371531108637,0.11252220286305391,3.0,0
33.71845626831055,1.1398983001708984,-0.7533236742019653,-0.2841756777035691,0.7850774686658907,-0.5503612926023,0.2567497688067833,3.0,0
34.6249885559082,0.6625890731811523,-0.8715792894363403,-0.0,-0.0,-1.0,0.12625819091397703,2.0,0
34.93164825439453,0.7196903228759766,-0.8652437925338745,-0.0,-0.0,-1.0,0.050678075882175974,2.0,0
33.80305099487305,1.2468557357788086,-0.7272462844848633,0.6001154443096114,-0.4877336860097726,-0.6340168018533878,0.23857354860909089,3.0,0
33.18891906738281,1.1734161376953125,-0.6652216911315918,-0.19131214678646385,-0.5380865956675848,-0.8208912705436839,0.10123039213712975,4.0,0
33.736183166503906,1.3173847198486328,-0.6039248704910278,0.29443725655350916,-0.9529257299668527,0.07238269904047594,0.12549975520284598,13.0,0
33.01715087890625,0.6579732894897461,-0.873083233833313,-0.0,-0.0,-1.0,0.038153453529361114,1.0,0
33.34156799316406,1.0912790298461914,-0.752975583076477,-0.9508394078562162,-0.3009939636588503,0.07284953197224282,0.1343764672123061,6.0,0
33.41057586669922,1.506742000579834,-0.9692124128341675,-0.0,-0.0,-1.0,0.030615169032382792,2.0,0
33.15715789794922,1.655693531036377,-0.9574288129806519,-0.0,-0.0,-1.0,0.0629090660332445,1.0,0
33.35179901123047,1.5597753524780273,-0.9618371725082397,-0.0,-0.0,-1.0,0.02618561857039651,1.0,0
33.767757415771484,1.5035285949707031,-0.9380091428756714,-0.0,-0.0,-1.0,0.13468220588921156,2.0,0
34.16038513183594,1.4043564796447754,-0.9324659109115601,-0.0,-0.0,-1.0,0.049998145199597666,2.0,0
34.56122589111328,1.2895846366882324,-0.935930609703064,-0.366011369947578,0.11837086969593837,-0.9230514689206255,0.03357833252191906,4.0,0
34.96715545654297,1.2639331817626953,-0.9210594892501831,-0.2106657675210822,-0.2964280651249595,-0.9315311785447796,0.17607933589723784,4.0,0
33.22627258300781,2.2389135360717773,-0.8069285154342651,-0.0,-0.0,-1.0,0.06482801646404453,2.0,0
35.177677154541016,1.305382251739502,-0.9006913900375366,-0.0,-0.0,-1.0,0.08428576133771348,2.0,0
33.196720123291016,2.5153794288635254,-0.7429646253585815,0.5615151947503864,0.698398034832763,-0.4437802057394744,0.07877270646824844,3.0,0
33.725364685058594,1.284348487854004,-0.6818681955337524,0.44621597680403224,-0.7518314662794392,-0.48542841733558645,0.23188646446914232,13.0,0
34.81931686401367,0.8354930877685547,-0.7210091352462769,-0.0,-0.0,-1.0,0.1272587404562639,1.0,0
34.09233856201172,2.3576531410217285,-0.692885160446167,0.5882674875511396,-0.2931413366844732,-0.7536640629730927,0.09919195947463538,5.0,0
33.37266540527344,3.0840964317321777,-0.5854965448379517,-0.6229187203194814,-0.4945574808975276,-0.6061230617323775,0.10283670024920817,3.0,0
32.71464157104492,0.834752082824707,-0.8895480632781982,-0.0,-0.0,-1.0,0.06904895160401002,2.0,0
32.83203125,0.852360725402832,-0.8726303577423096,-0.0,-0.0,-1.0,0.05537478387709828,1.0,0
33.148033142089844,0.6790447235107422,-0.8751962184906006,-0.0,-0.0,-1.0,0.04102288517763106,2.0,0
33.68333435058594,1.0147147178649902,-0.750983715057373,-0.0,-0.0,-1.0,0.17701674192542377,2.0,0
33.19465637207031,1.9300389289855957,-0.9093596935272217,-0.0,-0.0,-1.0,0.07369879685728056,1.0,0
33.327152252197266,1.6051759719848633,-0.9701159000396729,-0.0,-0.0,-1.0,0.029456596098046964,1.0,0
33.742557525634766,1.501023292541504,-0.94606614112854,-0.0,-0.0,-1.0,0.12363611818867194,2.0,0
33.99026107788086,1.3604989051818848,-0.9538974761962891,-0.0,-0.0,-1.0,0.024522150662231103,2.0,0
33.25160598754883,2.2768239974975586,-0.8199169635772705,-0.0,-0.0,-1.0,0.11886748518779233,2.0,0
33.8064079284668,1.578892707824707,-0.9193868637084961,0.36720125046664776,0.8933411545101201,0.25904598687155095,0.10002202435580781,3.0,0
34.216514587402344,1.3497142791748047,-0.9337320327758789,-0.0,-0.0,-1.0,0.05936377718898292,2.0,0
34.54302978515625,1.2578177452087402,-0.9271101951599121,-0.5390970236141882,0.25983058384157065,-0.8011631961285239,0.0399119747147587,4.0,0
34.95976638793945,1.191446304321289,-0.9105052947998047,-0.3542007561506473,-0.905796974471239,-0.2325374494163454,0.14509086310277083,3.0,0
33.185245513916016,2.5652503967285156,-0.7619063854217529,-0.6424139804116357,0.5262339172693979,-0.5571195043139155,0.09684616502338535,3.0,0
33.24161911010742,2.505819320678711,-0.7677044868469238,-0.38581728992351655,0.9202840644085656,0.06497891651701027,0.12357811135474009,3.0,0
35.0199089050293,1.2381196022033691,-0.8941969871520996,0.5405447945449773,0.528115623600505,-0.6549085533105962,0.08927682349589387,4.0,0
33.740657806396484,1.2968225479125977,-0.6851062774658203,0.38816813472859246,-0.916991831263144,-0.09193193448410976,0.2822337077948736,13.0,0
34.054901123046875,2.332709312438965,-0.7052301168441772,0.5163534112039758,-0.6978727278011945,-0.49633941061468995,0.1494606876044544,4.0,0
32.743080139160156,0.7225918769836426,-0.8566102981567383,-0.0,-0.0,-1.0,0.047318663582336905,1.0,0
32.88524627685547,1.7610974311828613,-0.9342288970947266,-0.0,-0.0,-1.0,0.02938131337505091,2.0,0
33.070831298828125,1.634079933166504,-0.9378957748413086,-0.0,-0.0,-1.0,0.05556610315243516,1.0,0
33.36993408203125,1.380228042602539,-0.9585862159729004,-0.0,-0.0,-1.0,0.04015202641606702,2.0,0
33.68441390991211,1.2531113624572754,-0.9512350559234619,-0.7494508105745957,-0.5813128395368607,-0.3168577995231828,0.15134942809755683,3.0,0
33.032657623291016,2.491239547729492,-0.7476394176483154,-0.0,-0.0,-1.0,0.12269710200847808,2.0,0
33.080020904541016,2.2298312187194824,-0.7994132041931152,-0.0,-0.0,-1.0,0.08014007390449887,2.0,0
33.429622650146484,2.1702327728271484,-0.7638936042785645,0.08026092052412925,-0.34425345920116407,-0.9354398646971657,0.11613399001906156,3.0,0
33.91614532470703,1.2433185577392578,-0.9275791645050049,-0.0,-0.0,-1.0,0.04779633440192108,2.0,0
34.21328353881836,1.0637383460998535,-0.9415132999420166,0.49469769584960244,-0.23198910016427288,-0.8375292515047247,0.06960401439569688,3.0,0
34.51510238647461,1.101806640625,-0.902857780456543,-0.0,-0.0,-1.0,0.041445948155795505,2.0,0
34.7692756652832,1.0632128715515137,-0.8908517360687256,0.22793774401751754,0.7872329504230959,-0.5729822568111095,0.06154002507007373,4.0,0
35.093387603759766,0.8680305480957031,-0.916513204574585,-0.0,-0.0,-1.0,0.059391355248195464,1.0,0
33.22180938720703,1.1795244216918945,-0.7100329399108887,-0.8115587686580532,0.5745078019061569,-0.10636329518767412,0.1364368409300365,3.0,0
33.669097900390625,1.0528349876403809,-0.6906156539916992,-0.8440977326897233,0.22510471991948164,0.4866486234831447,0.15369593553282482,3.0,0
33.08173751831055,2.5216727256774902,-0.7334463596343994,0.09735283754321847,0.855070499755381,-0.509290551130066,0.16382351381080365,4.0,0
33.14628601074219,2.4481406211853027,-0.7403171062469482,-0.0,-0.0,-1.0,0.11820658989120031,2.0,0
33.67699432373047,1.4412760734558105,-0.6077516078948975,-0.0,-0.0,-1.0,0.14009607260607862,1.0,0
33.733375549316406,1.3674445152282715,-0.6176449060440063,-0.9538832471491843,-0.048724523102331496,-0.29619701493529416,0.21189017319742523,9.0,0
33.28065872192383,3.0700154304504395,-0.5815410614013672,-0.0,-0.0,-1.0,0.03334779093335959,2.0,0
34.11394500732422,2.3429746627807617,-0.6351519823074341,-0.0,-0.0,-1.0,0.10364120503549232,1.0,0
32.85124206542969,1.4904766082763672,-0.9545110464096069,-0.0,-0.0,-1.0,0.019920918722306225,2.0,0
32.72981262207031,1.958524227142334,-0.8733566999435425,-0.0,-0.0,-1.0,0.046661364579330455,1.0,0
33.11865234375,1.424837589263916,-0.9265927076339722,0.6584538150469917,0.32940118238767163,-0.6767077910676557,0.06172110016189788,3.0,0
33.382965087890625,1.236257553100586,-0.9297980070114136,-0.0,-0.0,-1.0,0.11534432710530693,2.0,0
33.63163375854492,1.221489429473877,-0.8974891901016235,-0.0,-0.0,-1.0,0.21158379492641555,2.0,0
33.840091705322266,1.002565860748291,-0.9212990999221802,-0.7431035676647408,-0.6691661247061887,0.003712851954420049,0.09916693303313211,4.0,0
34.10129165649414,0.7834486961364746,-0.9410418272018433,-0.9267815469988068,0.28714328412991347,0.24212537769012682,0.05865188348907758,3.0,0
34.43553161621094,0.7702264785766602,-0.9051584005355835,-0.0,-0.0,-1.0,0.0669529968492031,2.0,0
34.63003158569336,0.6576318740844727,-0.9120041131973267,-0.0,-0.0,-1.0,0.12625819091397703,2.0,0
34.62295913696289,0.7493486404418945,-0.8896342515945435,-0.0,-0.0,-1.0,0.15847776003953934,1.0,0
33.08917236328125,1.321885585784912,-0.6516926288604736,-0.0,-0.0,-1.0,0.17039351133938604,1.0,0
33.208396911621094,1.1686882972717285,-0.6662248373031616,0.4349974345674944,0.8159294385837116,0.38083642574229715,0.11984916262611517,4.0,0
33.7598991394043,1.402082920074463,-0.550240159034729,-0.7407672492672717,0.32367574097982266,-0.588640719891313,0.1617242160995603,4.0,0
33.7027473449707,1.0872583389282227,-0.6213446855545044,-0.0,-0.0,-1.0,0.09513279720895451,1.0,0
33.16203308105469,3.0555825233459473,-0.568088173866272,-0.0,-0.0,-1.0,0.05121077372829319,1.0,0
33.684783935546875,1.2197833061218262,-0.46719205379486084,-0.0,-0.0,-1.0,0.18880811889399632,1.0,0
32.72964096069336,2.676452159881592,-0.5091689825057983,0.8890557162247898,-0.41655269818525403,0.1899046684065731,0.11281773206616377,3.0,0
32.746368408203125,2.753506898880005,-0.563767671585083,-0.0,-0.0,-1.0,0.15106283572075793,1.0,0
33.02489471435547,3.096118450164795,-0.5533319711685181,0.27607020543184746,-0.9252738303248315,-0.26010301918438516,0.07182675721360043,5.0,0
32.719703674316406,3.056610107421875,-0.6932621002197266,0.9368365124379585,0.2658215781340856,-0.22732408046968355,0.08609196815135185,6.0,0
32.95243453979492,2.962174415588379,-0.6383103132247925,-0.0,-0.0,-1.0,0.10521703389126638,2.0,0
33.427146911621094,3.0645575523376465,-0.591576337814331,-0.338503812359771,0.16165565101559648,-0.926974983218331,0.08147556647124511,4.0,0
33.21480941772461,2.9410128593444824,-0.5950926542282104,-0.15356443757065308,-0.16521386660507717,-0.9742291012872736,0.09902142233654283,3.0,0
32.77138900756836,2.6203036308288574,-0.596721887588501,-0.0,-0.0,-1.0,0.14549978957790366,1.0,0
32.950225830078125,2.457930564880371,-0.535608172416687,-0.0,-0.0,-1.0,0.1382026388624832,2.0,0
32.90032196044922,2.939932346343994,-0.7263520956039429,0.8444437576781819,0.05819353511650275,-0.532473710702225,0.1513553745905269,5.0,0
33.417747497558594,2.9939327239990234,-0.6606898307800293,-0.0,-0.0,-1.0,0.0880961408926225,1.0,0
33.129188537597656,2.9151816368103027,-0.6857833862304688,-0.0,-0.0,-1.0,0.13411611817732996,1.0,0
34.749969482421875,3.0682854652404785,-0.5128628015518188,-0.0,-0.0,-1.0,0.17177388664736004,2.0,0
32.87890625,2.9266419410705566,-0.7469925880432129,-0.20102220165257728,0.9052493941226015,-0.3743175241468307,0.11460858603186301,3.0,0
33.52259063720703,3.0874428749084473,-0.6996679306030273,-0.0,-0.0,-1.0,0.06895610991313923,1.0,0
33.2971305847168,2.918605327606201,-0.6887173652648926,0.9949347089567334,0.06966754149475103,-0.07246625818445981,0.16074666382208297,3.0,0
33.043785095214844,2.889204978942871,-0.7156256437301636,-0.0,-0.0,-1.0,0.13342213536361897,2.0,0
32.71857833862305,2.7220239639282227,-0.7247092723846436,-0.0,-0.0,-1.0,0.09049267142654274,1.0,0
34.79288101196289,3.0121870040893555,-0.5510369539260864,-0.0,-0.0,-1.0,0.17177388664735999,1.0,0
32.94176483154297,3.0714356899261475,-0.5743974447250366,0.17403724878292065,-0.41858745015986093,-0.8913448168945273,0.07670826508592739,6.0,0
32.75640869140625,3.1111268997192383,-0.6507018804550171,0.928947231289638,-0.31136815955041475,0.20026709838988307,0.06642317980667113,5.0,0
33.38664627075195,3.06613826751709,-0.5852121114730835,0.6376733184078489,0.7446222015437926,-0.19725748644550256,0.10568303532217058,6.0,0
33.04773712158203,2.9992213249206543,-0.597266674041748,-0.0,-0.0,-1.0,0.06393517164893786,2.0,0
34.68729019165039,3.072385311126709,-0.5169618129730225,-0.0,-0.0,-1.0,0.16520669680979988,2.0,0
32.7418327331543,2.683152198791504,-0.5515494346618652,0.6268706773446798,-0.7769988853012205,0.05749683579192246,0.13307546604514775,3.0,0
32.981327056884766,3.0876855850219727,-0.5698829889297485,0.3435762147994657,-0.44170985979449895,-0.8287628034512625,0.07401892372920583,5.0,0
32.90848159790039,2.564523220062256,-0.4503765106201172,-0.0,-0.0,-1.0,0.12544173171634998,1.0,0
32.84513473510742,3.0929832458496094,-0.5660152435302734,0.633871398571235,0.44410061303384657,-0.6332311549318368,0.06306847297143876,10.0,0
33.20858383178711,3.1128759384155273,-0.5807768106460571,-0.0,-0.0,-1.0,0.031190772026633812,2.0,0
32.94826889038086,3.037661552429199,-0.5559917688369751,0.34809143839267287,-0.39907459633606873,-0.8482757906936422,0.07933361281194316,4.0,0
32.83861541748047,2.7449564933776855,-0.7428673505783081,-0.0,-0.0,-1.0,0.0456108106741582,2.0,0
32.76950454711914,2.1169772148132324,-0.8825935125350952,-0.0,-0.0,-1.0,0.06213016975467345,1.0,0
33.018611907958984,2.0136823654174805,-0.884971022605896,-0.0,-0.0,-1.0,0.09727265652978313,2.0,0
32.800209045410156,2.999692916870117,-0.6207013130187988,0.01121320384139691,0.9771112409956724,-0.21243325252772535,0.08463052629003368,3.0,0
33.404476165771484,2.9756879806518555,-0.5949734449386597,0.9057827403190096,0.18869101643796182,-0.3794118180233646,0.07905078034142217,4.0,0
34.69842529296875,2.9571380615234375,-0.5824002027511597,-0.0,-0.0,-1.0,0.16923588951059268,1.0,0
33.08981704711914,2.9027814865112305,-0.5893213748931885,-0.0,-0.0,-1.0,0.12604572312751727,2.0,0
32.8807373046875,2.9366073608398438,-0.6042506694793701,-0.0,-0.0,-1.0,0.0798302439164353,1.0,0
33.290916442871094,2.9071874618530273,-0.5838760137557983,-0.0,-0.0,-1.0,0.09372327344801008,1.0,0
32.86311340332031,2.5938148498535156,-0.7811828851699829,-0.39676709973403773,-0.9036916601780431,0.16098835949624515,0.08062549828333022,3.0,0
35.11305618286133,3.0841541290283203,-0.9683705568313599,-0.0,-0.0,-1.0,0.1368800499676288,2.0,0
33.80755615234375,2.486978530883789,-0.9428337812423706,-0.0,-0.0,-1.0,0.14471647957111095,2.0,0
33.35444259643555,2.5142345428466797,-0.8578099012374878,-0.0,-0.0,-1.0,0.05674836618100987,1.0,0
33.062896728515625,2.3831281661987305,-0.7741283178329468,0.991893579911351,0.09336604727841202,-0.08619691030570491,0.12087545032385975,3.0,0
34.24806594848633,2.303694725036621,-0.997623085975647,-0.0,-0.0,-1.0,0.09737473629901576,1.0,0
33.96499252319336,2.181830406188965,-0.9122968912124634,-0.0,-0.0,-1.0,0.09275492811041981,1.0,0
33.54441452026367,2.261686325073242,-0.8425630331039429,-0.0,-0.0,-1.0,0.08544106165974273,1.0,0
33.15495681762695,1.931990623474121,-0.8537465333938599,-0.0,-0.0,-1.0,0.08998758763272965,1.0,0
32.75168991088867,1.943354606628418,-0.9398070573806763,-0.8332876177315759,0.4844991714659054,-0.2662560778350156,0.04634231432888921,3.0,0
34.500335693359375,1.9678783416748047,-0.9843405485153198,-0.0,-0.0,-1.0,0.022651629488205562,1.0,0
33.18230438232422,1.7091312408447266,-0.967117428779602,-0.0,-0.0,-1.0,0.05112404347096892,2.0,0
32.95663070678711,1.7541656494140625,-0.932616114616394,-0.0,-0.0,-1.0,0.05592784490042516,1.0,0
34.68645095825195,1.6812524795532227,-0.9683898687362671,-0.28684092902126546,-0.2564474631355692,-0.9230151570204839,0.057609287233814734,3.0,0
34.66411209106445,1.6384296417236328,-0.9547637701034546,-0.0,-0.0,-1.0,0.06274716961353007,1.0,0
33.56450653076172,1.2975921630859375,-0.9469908475875854,-0.0,-0.0,-1.0,0.1067303539052456,1.0,0
33.4710807800293,1.3139653205871582,-0.9307335615158081,-0.0,-0.0,-1.0,0.0876956079570596,1.0,0
34.876869201660156,1.0941734313964844,-0.8960129022598267,-0.4618575291895121,0.4930196068960913,-0.7373054251441408,0.06626448682954579,5.0,0
34.69525909423828,1.121985912322998,-0.8588906526565552,0.5917921384608357,-0.7220661949897031,-0.3583329107255477,0.06219044420797776,3.0,0
33.80727005004883,0.8858199119567871,-0.9017058610916138,-0.0,-0.0,-1.0,0.11908682578180467,1.0,0
33.423248291015625,0.9880580902099609,-0.8411668539047241,-0.0,-0.0,-1.0,0.17212422605570618,2.0,0
34.92768478393555,1.0076851844787598,-0.8910948038101196,0.4919916601909841,0.8411598759188452,0.22448667988705315,0.039612962436394214,4.0,0
34.07345199584961,0.6620144844055176,-0.9101406335830688,-0.0,-0.0,-1.0,0.10852922549312242,1.0,0
33.28099060058594,3.0437774658203125,-0.5994318723678589,0.5190300124207587,0.4860110131064193,-0.7031366448605697,0.052183061560224495,3.0,0
32.809993743896484,2.417433738708496,-0.40497303009033203,-0.0,-0.0,-1.0,0.20210735185293024,2.0,0
33.638919830322266,1.2446818351745605,-0.6503936052322388,-0.0,-0.0,-1.0,0.1921210549804997,2.0,0
34.67674255371094,1.0307507514953613,-0.8364385366439819,-0.0,-0.0,-1.0,0.06929460742767249,2.0,0
33.561378479003906,1.0596818923950195,-0.5959707498550415,-0.0,-0.0,-1.0,0.10946526690521592,1.0,0
35.00569152832031,0.7593536376953125,-0.8614917993545532,-0.0,-0.0,-1.0,0.05746989782296621,2.0,0
34.7677116394043,0.8915715217590332,-0.8302518129348755,-0.0,-0.0,-1.0,0.11778964287785008,2.0,0
34.62382507324219,1.8575801849365234,-1.0083893537521362,-0.0,-0.0,-1.0,0.021588724204917142,2.0,0
34.36579895019531,1.9636225700378418,-1.0035821199417114,-0.0,-0.0,-1.0,0.03479489296199094,2.0,0
34.02650833129883,2.1732192039489746,-1.014907956123352,-0.0,-0.0,-1.0,0.08905931815082227,2.0,0
33.65921401977539,2.266141414642334,-0.9998801946640015,-0.0,-0.0,-1.0,0.10375082707509231,1.0,0
33.15420150756836,2.2421631813049316,-0.9490183591842651,-0.0,-0.0,-1.0,0.1126147097782162,1.0,0
32.82506561279297,2.3696446418762207,-0.9510921239852905,-0.0,-0.0,-1.0,0.08149802616969933,1.0,0
34.7226448059082,1.7043251991271973,-0.9860481023788452,-0.0,-0.0,-1.0,0.04975261680259441,2.0,0
34.30307388305664,1.743506908416748,-0.9479094743728638,0.882986477532758,-0.402230306518681,-0.24196210656253564,0.08582181470353857,3.0,0
33.6873893737793,1.8637266159057617,-0.9117370843887329,-0.0,-0.0,-1.0,0.04745952471805758,1.0,0
35.04246520996094,1.3226580619812012,-0.94129478931427,-0.0,-0.0,-1.0,0.11553693076333946,1.0,0
34.78958511352539,1.333646297454834,-0.91315758228302,0.7825505712515172,-0.42427702074097656,-0.45563539492129557,0.11197557071574114,4.0,0
33.74089050292969,1.4531993865966797,-0.8247408866882324,-0.0,-0.0,-1.0,0.20780342111886066,2.0,0
33.65312194824219,1.31221342086792,-0.7843760251998901,-0.0,-0.0,-1.0,0.11640714882992362,1.0,0
33.10760498046875,1.2956199645996094,-0.8696603775024414,-0.0,-0.0,-1.0,0.16916535535419605,1.0,0
34.12297439575195,0.7813529968261719,-0.9939266443252563,-0.0,-0.0,-1.0,0.06166043057321677,2.0,0
33.825347900390625,0.8236536979675293,-0.9684950113296509,-0.0,-0.0,-1.0,0.08309096091330315,2.0,0
