x,y,z,nx,ny,nz,curvature,density,label
42.166404724121094,-8.87724494934082,-0.18901562690734863,-0.0,-0.0,-1.0,0.09172365204101308,1.0,0
42.566131591796875,-8.823698997497559,-0.2481396198272705,-0.0,-0.0,-1.0,0.10672342438632816,1.0,0
41.40259552001953,-8.148492813110352,-0.2010798454284668,-0.0,-0.0,-1.0,0.17934636816166863,1.0,0
42.02189254760742,-8.323805809020996,-0.25176024436950684,-0.0,-0.0,-1.0,0.14678590483468282,1.0,0
40.76100158691406,-7.8852434158325195,-0.16375112533569336,0.15041129940211542,0.40271526245647327,-0.9028825274623389,0.18795345012642453,3.0,0
41.789146423339844,-7.911685943603516,-0.28449225425720215,-0.0,-0.0,-1.0,0.028000037014902945,1.0,0
40.533226013183594,-7.210186004638672,-0.24326181411743164,-0.3699049038992754,-0.10887629153996634,-0.9226680417201911,0.16116355297551446,3.0,0
40.716087341308594,-7.140318870544434,-0.2755751609802246,-0.0,-0.0,-1.0,0.24396877572716721,1.0,0
41.72984313964844,-7.447309494018555,-0.34796571731567383,-0.0,-0.0,-1.0,0.08815309055788889,1.0,0
41.8656005859375,-7.544803619384766,-0.3495509624481201,-0.8824370795100528,-0.3937356390949455,-0.257443289312935,0.047029983440089615,3.0,0
41.638092041015625,-6.974123001098633,-0.41016197204589844,-0.0,-0.0,-1.0,0.1710763742587198,2.0,0
40.22682189941406,-9.241588592529297,-0.28380250930786133,-0.0,-0.0,-1.0,0.14237950453041426,2.0,0
40.46038818359375,-9.207539558410645,-0.3247337341308594,-0.0,-0.0,-1.0,0.15935852809352946,2.0,0
40.75277328491211,-9.187061309814453,-0.37218713760375977,-0.0,-0.0,-1.0,0.12107936575056988,2.0,0
40.720584869384766,-9.15455436706543,-0.3732900619506836,-0.0,-0.0,-1.0,0.1149948348440686,2.0,0
40.339866638183594,-8.699315071105957,-0.401566743850708,-0.0,-0.0,-1.0,0.21871000603538993,2.0,0
41.216941833496094,-8.820869445800781,-0.015225410461425781,-0.0,-0.0,-1.0,0.144021456097676,1.0,0
41.12896728515625,-8.7075834274292,-0.02229452133178711,0.7344163220415888,-0.3325227372887761,0.5916597798607617,0.20061683177773118,4.0,0
41.20551300048828,-8.767189979553223,-0.022275447845458984,0.26721971876804357,0.8131181176280722,-0.5171388098823255,0.1488153011153912,3.0,0
42.17778778076172,-8.710650444030762,-0.1526188850402832,0.9988617525458752,0.03157455648056397,0.03575257590773763,0.03469125094889422,3.0,0
42.529354095458984,-8.787330627441406,-0.18567204475402832,-0.0,-0.0,-1.0,0.0755287241094328,1.0,0
41.43014144897461,-8.166234016418457,-0.14515972137451172,-0.0,-0.0,-1.0,0.23931080462185234,2.0,0
41.965248107910156,-8.259398460388184,-0.1960916519165039,-0.0,-0.0,-1.0,0.08678757656053084,2.0,0
42.2056770324707,-8.341784477233887,-0.21320009231567383,-0.0,-0.0,-1.0,0.053258098189132956,2.0,0
40.88917541503906,-7.934078216552734,-0.11779999732971191,0.7519913360395619,-0.2525520185957355,-0.608873146414468,0.21940687028999661,5.0,0
42.37653732299805,-8.073022842407227,-0.2763962745666504,-0.0,-0.0,-1.0,0.1024427405948692,1.0,0
40.54355239868164,-7.142735481262207,-0.20883512496948242,-0.0,-0.0,-1.0,0.1750010990693336,2.0,0
40.636680603027344,-7.151690483093262,-0.21789169311523438,0.3449307884147375,0.7495230042193393,-0.5650115196609748,0.22278681263493424,3.0,0
42.025028228759766,-7.48137092590332,-0.32686853408813477,-0.11157676041875868,-0.1485633604784405,-0.9825881916946732,0.12149351976706448,4.0,0
42.21773910522461,-7.577739715576172,-0.3348658084869385,-0.0,-0.0,-1.0,0.1238965555710809,2.0,0
41.6577033996582,-6.932533264160156,-0.3720977306365967,-0.0,-0.0,-1.0,0.15454399215290032,2.0,0
41.93899154663086,-7.182503700256348,-0.36466002464294434,-0.0,-0.0,-1.0,0.14653347198286598,2.0,0
40.81641387939453,-9.225268363952637,-0.13341331481933594,-0.0,-0.0,-1.0,0.21387982842460912,2.0,0
41.68049240112305,-9.131278038024902,-0.28824758529663086,-0.0,-0.0,-1.0,0.14126240569125426,1.0,0
41.96100616455078,-9.216739654541016,-0.32123517990112305,-0.0,-0.0,-1.0,0.13694082504175337,1.0,0
42.2901725769043,-9.301403999328613,-0.36344146728515625,-0.0,-0.0,-1.0,0.09654930280577917,1.0,0
40.289302825927734,-8.670480728149414,-0.14627528190612793,-0.0,-0.0,-1.0,0.10490879409763935,2.0,0
41.37769317626953,-8.87629508972168,-0.2803637981414795,-0.0,-0.0,-1.0,0.11817709464232248,2.0,0
41.52301025390625,-8.930832862854004,-0.2949538230895996,-0.0,-0.0,-1.0,0.08280506067284063,1.0,0
41.787437438964844,-9.12545108795166,-0.30678486824035645,-0.0,-0.0,-1.0,0.16374746438806403,2.0,0
42.67609405517578,-9.22074031829834,-0.44155001640319824,-0.0,-0.0,-1.0,0.08292034110782918,1.0,0
40.82185363769531,-8.29747486114502,-0.29109811782836914,-0.0,-0.0,-1.0,0.1321675213749049,2.0,0
41.24974822998047,-8.34394359588623,-0.3487553596496582,-0.0,-0.0,-1.0,0.0360790262122167,1.0,0
40.410858154296875,-7.6745147705078125,-0.33973240852355957,-0.0,-0.0,-1.0,0.06288312224970731,1.0,0
41.15580749511719,-7.954427719116211,-0.4006311893463135,-0.0,-0.0,-1.0,0.061914652685363905,1.0,0
41.27042770385742,-7.971319198608398,-0.41520190238952637,-0.0,-0.0,-1.0,0.06263684135413243,2.0,0
40.55939865112305,-7.327747344970703,-0.42313194274902344,-0.0,-0.0,-1.0,0.23630952042606224,1.0,0
41.06901550292969,-7.5423383712768555,-0.45911240577697754,-0.0,-0.0,-1.0,0.04706294258012028,1.0,0
40.4903564453125,-7.1811017990112305,-0.43981289863586426,-0.0,-0.0,-1.0,0.2353285831255867,1.0,0
40.74076843261719,-7.116070747375488,-0.48705363273620605,-0.0,-0.0,-1.0,0.1533638313373775,2.0,0
41.0628776550293,-7.204565048217773,-0.5176892280578613,-0.0,-0.0,-1.0,0.07470952184685353,2.0,0
42.5750617980957,-7.002756118774414,-0.22699308395385742,0.6003769596440397,-0.640502239425309,-0.4788573771173867,0.16641686149186521,5.0,0
40.579124450683594,-9.252657890319824,-0.09141802787780762,-0.1435201115543733,-0.12931339657195076,-0.9811625874677681,0.14200337778376934,3.0,0
42.602752685546875,-7.803886413574219,-0.11905694007873535,-0.9068743128500183,-0.4213639155825137,0.0056063658263854205,0.14859436308724575,3.0,0
42.49121856689453,-7.396119117736816,-0.1605689525604248,-0.2895195969371864,-0.5023574186613756,-0.814748689416073,0.06038268738901922,3.0,0
42.69630432128906,-7.60042667388916,-0.15968012809753418,-0.0,-0.0,-1.0,0.16215489883681974,1.0,0
42.561553955078125,-7.170767784118652,-0.2014930248260498,0.0610606357628026,-0.6938241945551165,-0.7175511032743147,0.10710664023326831,5.0,0
42.690128326416016,-8.878338813781738,-0.259981632232666,-0.0,-0.0,-1.0,0.08550655472845561,1.0,0
42.24633026123047,-7.280605316162109,-0.23700523376464844,0.6399818322335261,-0.15631896230013384,-0.7523214980554711,0.1168431286331622,6.0,0
42.17828369140625,-7.22285270690918,-0.23620939254760742,0.23476823174908587,-0.6109430404155881,-0.7560638059907142,0.19780779043997807,6.0,0
42.45159912109375,-7.710102081298828,-0.21587586402893066,-0.0,-0.0,-1.0,0.21062217431580288,1.0,0
42.700645446777344,-8.20579719543457,-0.19420385360717773,-0.0,-0.0,-1.0,0.05595635992752514,1.0,0
42.083412170410156,-7.966714859008789,-0.15723538398742676,-0.6324650608460924,0.617953722574044,-0.4670344136847202,0.16548524715975615,3.0,0
41.06606674194336,-8.736858367919922,0.010290145874023438,0.8895378210974553,0.009344484468795407,-0.4567659635384451,0.2344409124107909,3.0,1
41.2922248840332,-7.690868377685547,-0.40138769149780273,0.7973661642070117,0.25100385042047746,-0.5488207970293141,0.09588652674821195,3.0,0
41.261680603027344,-8.08952522277832,-0.35884666442871094,-0.0,-0.0,-1.0,0.02893811731852637,2.0,0
40.97974395751953,-7.902360916137695,-0.34894728660583496,-0.6063901192305431,0.017514153389883946,-0.7949743880972538,0.17441331067850566,3.0,0
42.61021423339844,-8.959314346313477,-0.41817450523376465,-0.0,-0.0,-1.0,0.09289693425221024,1.0,0
42.29100036621094,-9.018342971801758,-0.37819337844848633,-0.0,-0.0,-1.0,0.07655443266242738,1.0,0
40.734310150146484,-8.221199035644531,-0.2925715446472168,-0.0,-0.0,-1.0,0.17922897904690469,1.0,0
41.73950958251953,-8.986730575561523,-0.32216572761535645,-0.0,-0.0,-1.0,0.16578647842757643,2.0,0
41.28378677368164,-8.68936538696289,-0.3026413917541504,-0.0,-0.0,-1.0,0.13360144503101523,2.0,0
40.316192626953125,-9.282548904418945,-0.35907459259033203,-0.0,-0.0,-1.0,0.18855922966562488,2.0,0
41.742061614990234,-6.893529891967773,-0.48079752922058105,-0.05114265089269264,-0.9930561648443087,0.10594282762122557,0.1585497837855878,3.0,0
41.56150817871094,-7.872608184814453,-0.36145806312561035,-0.0,-0.0,-1.0,0.04404362816024372,1.0,0
42.29002380371094,-9.13142204284668,-0.3048534393310547,-0.0,-0.0,-1.0,0.102091081714626,1.0,0
41.96145248413086,-9.017168045043945,-0.28377199172973633,-0.0,-0.0,-1.0,0.19105896588371257,1.0,0
41.93646240234375,-8.642587661743164,-0.3184797763824463,-0.0,-0.0,-1.0,0.09088444414565441,1.0,0
41.53411865234375,-8.195367813110352,-0.3255493640899658,-0.0,-0.0,-1.0,0.09268404353561946,2.0,0
40.76650619506836,-9.135215759277344,-0.15709400177001953,-0.0,-0.0,-1.0,0.19163026280580409,2.0,0
40.68186569213867,-9.313019752502441,-0.34882307052612305,-0.0,-0.0,-1.0,0.17196132354493446,1.0,0
40.47127151489258,-8.793245315551758,-0.40364527702331543,-0.0,-0.0,-1.0,0.18270583600600104,1.0,0
40.28895568847656,-8.46299934387207,-0.4357931613922119,-0.0,-0.0,-1.0,0.1402607285124844,1.0,0
40.248565673828125,-9.312862396240234,-0.3143644332885742,-0.0,-0.0,-1.0,0.2174435667154885,2.0,0
42.526466369628906,-8.071659088134766,-0.24654340744018555,-0.0,-0.0,-1.0,0.06194802637683536,1.0,0
42.20750045776367,-7.59647274017334,-0.2793729305267334,-0.0,-0.0,-1.0,0.18316770881026828,2.0,0
42.161964416503906,-7.2323455810546875,-0.32054710388183594,-0.0,-0.0,-1.0,0.21813107661762268,2.0,0
42.025909423828125,-6.943603515625,-0.3463118076324463,0.9289360226836081,-0.3568236857473742,0.09876600149048557,0.16384313940204137,3.0,0
42.592647552490234,-8.839241027832031,-0.1618051528930664,-0.0,-0.0,-1.0,0.1067234243863282,1.0,0
42.243011474609375,-8.507437705993652,-0.17296504974365234,-0.4703698838499825,0.4939793081710618,-0.7312568737904576,0.06210307651818503,3.0,0
42.21209716796875,-7.811127662658691,-0.2536907196044922,-0.0,-0.0,-1.0,0.16683405950301647,2.0,0
42.18279266357422,-8.872725486755371,-0.12540674209594727,-0.0,-0.0,-1.0,0.05218939092532707,1.0,0
40.756736755371094,-9.274177551269531,0.03302359580993652,-0.0,-0.0,-1.0,0.23828660281528805,1.0,1
40.68730163574219,-9.230934143066406,0.033167362213134766,0.14795440994889955,0.12896139978506466,-0.9805500751833889,0.2639449857188862,3.0,1
42.673583984375,-9.178380012512207,-0.3214704990386963,-0.0,-0.0,-1.0,0.07780791640401971,1.0,0
42.21631622314453,-9.226886749267578,-0.27048254013061523,-0.0,-0.0,-1.0,0.100113861398217,1.0,0
42.02116394042969,-9.106527328491211,-0.2632448673248291,-0.0,-0.0,-1.0,0.14951839787072088,1.0,0
41.64696502685547,-7.168209075927734,-0.4363892078399658,-0.1797110855143882,-0.49863427308779146,-0.8479786479891166,0.1037924357612444,3.0,0
41.807708740234375,-6.92494010925293,-0.47872161865234375,-0.0,-0.0,-1.0,0.10266018380530594,1.0,0
41.741050720214844,-9.061286926269531,-0.24013924598693848,-0.5708231126893082,0.7951117717157363,-0.20483711699482618,0.1565584887248666,4.0,0
41.54771423339844,-8.51188850402832,-0.27928948402404785,-0.1296394696753422,0.988971260305602,-0.07162020798521133,0.13856768042453196,4.0,0
41.52903747558594,-8.318399429321289,-0.29830217361450195,0.1711410361858544,0.7174540324236858,-0.6752558456557223,0.10471267170516411,3.0,0
41.518638610839844,-7.8073225021362305,-0.3532400131225586,-0.0,-0.0,-1.0,0.04366999297242825,1.0,0
41.446624755859375,-7.48029899597168,-0.38271522521972656,-0.0,-0.0,-1.0,0.08938819771139626,1.0,0
41.19335174560547,-7.027151107788086,-0.4106299877166748,-0.0,-0.0,-1.0,0.08627155173061068,1.0,0
41.26990509033203,-8.564855575561523,-0.24677062034606934,-0.0,-0.0,-1.0,0.08544396344845372,1.0,0
41.058292388916016,-8.46825122833252,-0.23688459396362305,-0.0,-0.0,-1.0,0.1173312493962116,1.0,0
41.06064987182617,-8.0518217086792,-0.2828662395477295,-0.0,-0.0,-1.0,0.17208512665478654,1.0,0
40.872318267822266,-9.248051643371582,-0.13503384590148926,-0.0,-0.0,-1.0,0.19754643520371623,1.0,0
40.457664489746094,-8.6126708984375,-0.1639254093170166,-0.0,-0.0,-1.0,0.1450761839670231,1.0,0
42.07688903808594,-9.039931297302246,-0.2573862075805664,-0.0,-0.0,-1.0,0.13168730120686473,1.0,0
41.62786865234375,-7.227155685424805,-0.413938045501709,-0.1625891719170504,-0.9285749341402005,0.33363655804160625,0.05777853024645812,3.0,0
41.70661163330078,-8.8346586227417,-0.2416691780090332,-0.0,-0.0,-1.0,0.0722821225586393,1.0,0
41.5140380859375,-8.378549575805664,-0.2723104953765869,-0.7649130213121025,-0.6398592217958623,-0.07408269777744615,0.15031688117570008,3.0,0
41.47245407104492,-8.150806427001953,-0.29360127449035645,0.693485247674164,-0.5508203376252405,-0.46440840530369326,0.19291974386993813,3.0,0
41.451515197753906,-7.714064598083496,-0.3409848213195801,-0.0,-0.0,-1.0,0.08002997829696369,1.0,0
41.57630920410156,-7.103524208068848,-0.4233522415161133,-0.0,-0.0,-1.0,0.07920442153343187,2.0,0
40.84183883666992,-9.059263229370117,-0.1300663948059082,-0.0,-0.0,-1.0,0.1310853471243762,2.0,0
40.859336853027344,-7.883101463317871,-0.26419973373413086,-0.0,-0.0,-1.0,0.2471794962167909,2.0,0
40.30882263183594,-8.569031715393066,-0.13225150108337402,-0.0,-0.0,-1.0,0.19129735776192466,1.0,0
42.10784149169922,-9.278223037719727,-0.4113287925720215,-0.0,-0.0,-1.0,0.11627518127900519,1.0,0
41.88338851928711,-9.309527397155762,-0.38068461418151855,-0.0,-0.0,-1.0,0.11995300013559618,1.0,0
41.62105941772461,-9.043147087097168,-0.3728659152984619,-0.0,-0.0,-1.0,0.09343410861659066,1.0,0
41.412933349609375,-9.208107948303223,-0.33202075958251953,-0.0,-0.0,-1.0,0.06860415291032892,1.0,0
41.25079345703125,-8.845000267028809,-0.3464689254760742,-0.0,-0.0,-1.0,0.12990439547389435,2.0,0
41.07124328613281,-8.020068168640137,-0.4063124656677246,-0.0,-0.0,-1.0,0.1184700175596022,1.0,0
41.17164993286133,-7.478937149047852,-0.47362256050109863,-0.0,-0.0,-1.0,0.054580120204324616,1.0,0
41.00749969482422,-7.148379325866699,-0.489612340927124,0.946438399623766,0.15638286599260562,0.2824867340983348,0.07432493691632774,3.0,0
40.944034576416016,-8.429970741271973,-0.35025811195373535,-0.0,-0.0,-1.0,0.1595352760666365,1.0,0
40.818504333496094,-8.042853355407715,-0.374431848526001,-0.0,-0.0,-1.0,0.19349965053509094,2.0,0
40.85697555541992,-8.530576705932617,-0.3298959732055664,-0.0,-0.0,-1.0,0.1291988337752501,1.0,0
40.45598602294922,-9.009507179260254,-0.2350480556488037,-0.0,-0.0,-1.0,0.10489308715702682,1.0,0
40.23371124267578,-9.321144104003906,-0.1781625747680664,-0.8367292677013449,0.41482748887634796,-0.3574944573619497,0.19179572124691077,3.0,0
40.23377990722656,-8.64757251739502,-0.2445693016052246,-0.0,-0.0,-1.0,0.11104393016568949,2.0,0
41.02888488769531,-9.314979553222656,-0.38236379623413086,-0.0,-0.0,-1.0,0.07727997158572661,2.0,0
40.77880859375,-9.316632270812988,-0.3489394187927246,-0.0,-0.0,-1.0,0.1586237121420362,2.0,0
40.77104187011719,-7.509862899780273,-0.5230567455291748,-0.0,-0.0,-1.0,0.07097216530579385,1.0,0
40.384483337402344,-9.23144245147705,-0.3046441078186035,-0.0,-0.0,-1.0,0.1487105926241695,1.0,0
40.35637664794922,-8.822492599487305,-0.3395521640777588,-0.42580242504405774,-0.7046025398150899,-0.5676509100783016,0.19974222540294426,3.0,0
40.2506217956543,-8.427626609802246,-0.3643350601196289,-0.0,-0.0,-1.0,0.13368439591813988,1.0,0
40.309417724609375,-7.972583770751953,-0.4174361228942871,-0.0,-0.0,-1.0,0.06297897329332085,1.0,0
41.15852355957031,-9.247673034667969,-0.4002227783203125,-0.0,-0.0,-1.0,0.05248265459034446,1.0,0
40.89984130859375,-7.662450790405273,-0.5164575576782227,-0.0,-0.0,-1.0,0.04867434063500465,1.0,0
40.796363830566406,-7.452628135681152,-0.5242440700531006,-0.0,-0.0,-1.0,0.0805546058187439,1.0,0
40.859764099121094,-9.261899948120117,-0.3576662540435791,-0.0,-0.0,-1.0,0.21946308179599974,1.0,0
40.392066955566406,-7.767817497253418,-0.43866848945617676,-0.0,-0.0,-1.0,0.060316275096200744,2.0,0
40.63956832885742,-7.456599235534668,-0.5032622814178467,-0.1258320323329612,-0.6932630525101184,-0.7096144302811981,0.1470764683940039,3.0,0
40.325923919677734,-9.312681198120117,-0.2795870304107666,-0.0,-0.0,-1.0,0.21889561718457484,1.0,0
40.40032196044922,-8.990160942077637,-0.31971240043640137,-0.0,-0.0,-1.0,0.17267715193921138,2.0,0
40.337318420410156,-8.647478103637695,-0.3437936305999756,0.3897606833861617,0.3979641725178896,-0.8304884870234521,0.24879780951043032,4.0,0
40.240020751953125,-8.368843078613281,-0.3579721450805664,-0.0,-0.0,-1.0,0.14131692421587125,1.0,0
42.63025665283203,-7.701766014099121,-0.14242005348205566,-0.0,-0.0,-1.0,0.20896202923194582,2.0,0
42.629905700683594,-7.265496253967285,-0.17174243927001953,-0.4172338666825788,0.4412301062173663,-0.7945010345245093,0.12043798615223915,4.0,0
42.697471618652344,-7.005136489868164,-0.1980149745941162,0.8954552018201137,-0.22043829730602474,-0.38673885066556185,0.08769258289829361,3.0,0
42.47267532348633,-7.653632164001465,-0.12623357772827148,0.1926479594568154,-0.9082405454225487,0.371464500817611,0.200929796028131,5.0,0
42.11161804199219,-7.6397905349731445,-0.32805776596069336,-0.9724806186738286,0.2149474083122747,-0.08988358005555518,0.23068309878161541,3.0,0
42.01070022583008,-7.2229156494140625,-0.33659839630126953,-0.0,-0.0,-1.0,0.17928258137191053,1.0,0
42.11307907104492,-6.91117000579834,-0.36815929412841797,0.08953717955957188,0.9695059663892148,0.22812556764254047,0.16419739837100922,3.0,0
42.000518798828125,-8.005792617797852,-0.29386329650878906,0.04297171998866866,0.8021313438750868,-0.5955994782186788,0.1334471215555023,4.0,0
42.25590515136719,-9.261387825012207,-0.27350640296936035,-0.0,-0.0,-1.0,0.100113861398217,1.0,0
42.017913818359375,-8.978704452514648,-0.2512848377227783,-0.0,-0.0,-1.0,0.20544271137114908,1.0,0
41.83489227294922,-8.573261260986328,-0.24331378936767578,-0.0,-0.0,-1.0,0.08932841109639071,2.0,0
41.7403564453125,-8.318476676940918,-0.2420806884765625,-0.0,-0.0,-1.0,0.24816150943767587,1.0,0
41.873374938964844,-9.137504577636719,-0.22392845153808594,-0.0,-0.0,-1.0,0.1653271361006266,1.0,0
41.65721893310547,-8.716724395751953,-0.21166419982910156,-0.0,-0.0,-1.0,0.0771979196916273,2.0,0
41.60377502441406,-8.4935302734375,-0.2145218849182129,-0.6726721150401269,0.20700168277658476,-0.7103960367112873,0.1909553626095663,3.0,0
41.79023742675781,-9.082387924194336,-0.21441340446472168,-0.0,-0.0,-1.0,0.1469899589585522,2.0,0
41.556453704833984,-8.594522476196289,-0.20310735702514648,-0.0,-0.0,-1.0,0.11159062026664145,1.0,0
40.90289306640625,-8.01734733581543,-0.14071059226989746,0.9868630001733446,-0.12333785155571121,0.10435129736848825,0.19956282149899682,4.0,0
40.967124938964844,-9.043753623962402,-0.09935331344604492,-0.0,-0.0,-1.0,0.12408043154442373,2.0,0
40.25524139404297,-8.678476333618164,-0.01665949821472168,0.9969867392423907,-0.07373915795541264,0.02408273985351719,0.12492360457937854,3.0,0
40.992610931396484,-7.376099586486816,-0.4816458225250244,-0.0,-0.0,-1.0,0.04283954702411576,2.0,0
41.12620162963867,-7.244333267211914,-0.5091073513031006,0.7779207468630888,-0.5521972829090704,-0.2998624223670158,0.059962986425511525,3.0,0
41.002532958984375,-7.667056083679199,-0.4665353298187256,-0.0,-0.0,-1.0,0.08133660785254432,1.0,0
41.18986129760742,-9.283943176269531,-0.41472363471984863,-0.0,-0.0,-1.0,0.05248265459034438,1.0,0
40.68096160888672,-7.986817359924316,-0.4009068012237549,-0.28001969510691516,-0.5256980349165145,-0.8032624393292305,0.2060638314033765,3.0,0
40.77196502685547,-9.324970245361328,-0.34902286529541016,-0.0,-0.0,-1.0,0.1463296902131285,2.0,0
40.72480010986328,-9.255474090576172,-0.34487032890319824,-0.0,-0.0,-1.0,0.1565451962283357,2.0,0
40.696712493896484,-8.632287979125977,-0.36977100372314453,-0.0,-0.0,-1.0,0.06341627990736173,1.0,0
40.37782287597656,-8.376764297485352,-0.3347461223602295,-0.0,-0.0,-1.0,0.11268311545179746,2.0,0
40.34857940673828,-8.939316749572754,-0.3022041320800781,-0.0,-0.0,-1.0,0.19573601603309151,1.0,0
40.26646041870117,-8.61410903930664,-0.30576062202453613,-0.6945257263248025,-0.31241391090359516,-0.6480984213427202,0.16706333155192757,4.0,0
41.01300048828125,-7.595640182495117,-0.47865796089172363,-0.0,-0.0,-1.0,0.0527624524059786,1.0,0
41.03305435180664,-7.2990336418151855,-0.5001053810119629,-0.0,-0.0,-1.0,0.05108713802632153,1.0,0
40.99835205078125,-7.725430488586426,-0.46862316131591797,-0.0,-0.0,-1.0,0.08179321260599845,2.0,0
40.930198669433594,-7.53865385055542,-0.4700345993041992,-0.0,-0.0,-1.0,0.04455955669563525,2.0,0
40.771522521972656,-7.511072635650635,-0.4485282897949219,-0.0,-0.0,-1.0,0.08506131175880041,1.0,0
41.07005310058594,-9.28943157196045,-0.3946957588195801,0.055018266805143594,-0.5045600792866871,-0.8616217944713157,0.03344896264290281,3.0,0
40.69813537597656,-7.983539581298828,-0.409038782119751,-0.3423806994645025,0.5005034907310942,-0.7951551498922634,0.19335486977011518,4.0,0
40.40991973876953,-8.98549747467041,-0.3107893466949463,-0.0,-0.0,-1.0,0.1840832650330144,2.0,0
40.32878112792969,-8.610170364379883,-0.31873178482055664,0.06084528983115837,0.5661473717368058,-0.82205535347741,0.20882188542204205,3.0,0
40.413909912109375,-8.306024551391602,-0.3483409881591797,-0.0,-0.0,-1.0,0.08582174517767827,1.0,0
40.25360107421875,-9.16696548461914,-0.2782175540924072,-0.0,-0.0,-1.0,0.22502349764529805,1.0,0
40.31309509277344,-8.85355281829834,-0.30322790145874023,-0.42739157254593935,0.23835240980857111,-0.8720805997470394,0.18804955336790774,3.0,0
41.489952087402344,-7.529986381530762,-0.4236869812011719,-0.0,-0.0,-1.0,0.04976776368803785,1.0,0
41.486961364746094,-7.2925848960876465,-0.4356203079223633,-0.18042366201531818,-0.832654954666811,0.5235771468024484,0.07172000749592435,4.0,0
41.31732177734375,-7.8255743980407715,-0.3842933177947998,0.31478880749416954,0.9160046931353526,0.24868335052915677,0.08924798863646241,3.0,0
41.38468933105469,-8.88231086730957,-0.34663963317871094,-0.0,-0.0,-1.0,0.09581598095313203,2.0,0
41.26091003417969,-8.7846097946167,-0.33265066146850586,-0.0,-0.0,-1.0,0.21688722805376948,1.0,0
41.08446502685547,-8.34686279296875,-0.32614994049072266,-0.5396148617676138,0.39179536318034275,-0.7451927229582308,0.08763913480110408,3.0,0
40.9765625,-8.01966667175293,-0.32584452629089355,0.9432085322084419,-0.02665281897907263,-0.33113032481134297,0.24524739706049606,3.0,0
40.717979431152344,-7.234340667724609,-0.3292689323425293,-0.0,-0.0,-1.0,0.20168974981830393,1.0,0
41.28117370605469,-9.308822631835938,-0.3149852752685547,-0.0,-0.0,-1.0,0.05781545041138387,2.0,0
41.09046173095703,-8.698331832885742,-0.31151533126831055,-0.0,-0.0,-1.0,0.14613479882689112,1.0,0
40.72638702392578,-8.539682388305664,-0.2656557559967041,-0.0,-0.0,-1.0,0.10975273386411305,1.0,0
40.389381408691406,-9.206711769104004,-0.1887216567993164,-0.0,-0.0,-1.0,0.14019271018020418,1.0,0
41.69776153564453,-6.941310405731201,-0.44565725326538086,-0.8438861229927839,0.49173880025584954,0.21459068885472563,0.1849370485713257,3.0,0
41.56495666503906,-7.528363227844238,-0.3908085823059082,-0.0,-0.0,-1.0,0.105327206097834,1.0,0
41.599151611328125,-7.222273349761963,-0.41434407234191895,-0.1625891719170504,-0.9285749341402005,0.33363655804160625,0.05983082796949926,3.0,0
42.03461837768555,-9.304468154907227,-0.36020851135253906,-0.0,-0.0,-1.0,0.10508634343293008,1.0,0
41.4383544921875,-8.396984100341797,-0.32354307174682617,-0.0,-0.0,-1.0,0.04030877367534915,2.0,0
41.415382385253906,-8.065715789794922,-0.3388206958770752,-0.0,-0.0,-1.0,0.07807778042011088,1.0,0
41.67137145996094,-9.230894088745117,-0.313356876373291,-0.0,-0.0,-1.0,0.1122228959194785,1.0,0
41.37663269042969,-8.904169082641602,-0.28856849670410156,0.9270184395923017,0.07300481352560445,-0.3678411475867618,0.1034391427213014,3.0,0
41.369415283203125,-8.657243728637695,-0.30022501945495605,-0.0,-0.0,-1.0,0.08741899087539799,2.0,0
40.839111328125,-7.934443473815918,-0.2676692008972168,-0.1248858668760137,0.89963542671712,-0.4184012658323731,0.2825828567107748,6.0,0
40.46012878417969,-7.360897541046143,-0.25144433975219727,-0.0,-0.0,-1.0,0.17975670416980777,2.0,0
40.572303771972656,-9.273405075073242,-0.15929388999938965,0.3979046989421123,-0.5568944200276101,-0.729068210459007,0.1406892398467704,3.0,0
40.984344482421875,-7.7911834716796875,-0.4382894039154053,-0.41647502229543043,0.24223526434217313,-0.8762822790135025,0.0965473489109045,3.0,0
40.96989440917969,-7.50034236907959,-0.4522366523742676,-0.0,-0.0,-1.0,0.10587525923931981,2.0,0
40.794471740722656,-8.02695083618164,-0.3986546993255615,-0.12275381948382878,-0.8811235213885493,-0.4566758586327663,0.1886780673799379,3.0,0
40.303245544433594,-8.348278999328613,-0.3117716312408447,-0.0,-0.0,-1.0,0.14035026417104698,1.0,0
40.37249755859375,-9.102714538574219,-0.2863655090332031,-0.0,-0.0,-1.0,0.14158737829768825,1.0,0
40.28633499145508,-8.801665306091309,-0.28752660751342773,-0.28554772464483863,0.018911899351959516,-0.9581778733685393,0.1978522126299081,5.0,0
40.32366943359375,-8.464868545532227,-0.3089320659637451,-0.0,-0.0,-1.0,0.1843515088081182,2.0,0
40.23004913330078,-9.239217758178711,-0.25987672805786133,-0.7940707423468143,-0.5849803143778514,0.1650747949844835,0.12121899636496232,3.0,0
42.155601501464844,-7.381015777587891,-0.23778533935546875,-0.23869064891711014,0.2241319321451101,-0.9448765269136643,0.08512507812479649,5.0,0
42.23384094238281,-7.105885028839111,-0.2584409713745117,-0.0,-0.0,-1.0,0.08602829812485646,2.0,0
42.31159973144531,-8.379461288452148,-0.22390222549438477,-0.0,-0.0,-1.0,0.0697990616092796,1.0,0
42.15968322753906,-7.952470779418945,-0.21788501739501953,-0.0,-0.0,-1.0,0.2252019430445382,2.0,0
42.087646484375,-7.52287483215332,-0.22376275062561035,-0.0,-0.0,-1.0,0.10376593280497508,2.0,0
42.36438751220703,-9.251803398132324,-0.207319974899292,-0.0,-0.0,-1.0,0.10203295319412925,1.0,0
42.05571746826172,-8.753185272216797,-0.1800079345703125,0.4732487915212367,0.8679421214318301,-0.1507051929035739,0.1669512372896419,4.0,0
42.15447998046875,-8.48306941986084,-0.20047426223754883,0.8267150346517411,-0.31003782215832654,-0.4694878063508069,0.07213162340376356,3.0,0
41.84881591796875,-8.206860542297363,-0.16941547393798828,0.7255757043790674,0.6509810336699127,-0.2230775448512746,0.11355816539271124,3.0,0
41.93517303466797,-8.979203224182129,-0.15832090377807617,0.09169510615647386,0.994455768539809,-0.05147554686305676,0.18834181284836068,4.0,0
41.11553955078125,-8.834955215454102,-0.05584526062011719,0.6588752389252466,-0.5842540414061056,0.4738466361934332,0.15403099840167067,4.0,0
41.10044860839844,-8.667571067810059,-0.05860328674316406,-0.0,-0.0,-1.0,0.2074825307861295,1.0,0
40.86461639404297,-7.934667587280273,-0.05145978927612305,-0.0,-0.0,-1.0,0.19457628785230097,2.0,0
40.559326171875,-9.248176574707031,0.027071237564086914,-0.0,-0.0,-1.0,0.24005561193514025,1.0,1
42.264015197753906,-7.377280235290527,-0.23553991317749023,-0.0,-0.0,-1.0,0.07581461989904452,2.0,0
42.33189392089844,-7.092376708984375,-0.2412123680114746,-0.0,-0.0,-1.0,0.13188284851362275,2.0,0
42.200252532958984,-8.379737854003906,-0.2420635223388672,-0.0,-0.0,-1.0,0.061875383139088476,2.0,0
42.0781135559082,-7.9809651374816895,-0.21954751014709473,-0.819204380811195,0.46722709960055697,0.3325703231778171,0.15764295352412627,3.0,0
42.11228942871094,-7.661054611206055,-0.21940088272094727,-0.8888575057900842,-0.3443762682934986,0.30222064826360695,0.23649781346187582,7.0,0
42.01603317260742,-8.828751564025879,-0.22665929794311523,-0.0,-0.0,-1.0,0.20115880719674278,2.0,0
41.9800910949707,-8.606082916259766,-0.21756219863891602,-0.0,-0.0,-1.0,0.04248999245803772,1.0,0
41.803680419921875,-8.219088554382324,-0.18764805793762207,-0.7881060626264534,0.38091352029963205,-0.4835222064232111,0.16664040144942804,4.0,0
41.86358642578125,-9.05693244934082,-0.2116224765777588,-0.0,-0.0,-1.0,0.12337767289068803,1.0,0
41.81481170654297,-8.746929168701172,-0.19876313209533691,0.7209110184195517,0.5963431143706647,-0.35307533681068826,0.1082056459715144,3.0,0
40.94139862060547,-7.929072380065918,-0.07086324691772461,0.2703033715050518,-0.6963034518244214,-0.6649041963549313,0.19304879137888442,6.0,0
42.059913635253906,-9.18613338470459,-0.12817621231079102,-0.0,-0.0,-1.0,0.0922221682727999,1.0,0
41.94611358642578,-8.953930854797363,-0.07055354118347168,-0.0,-0.0,-1.0,0.1513953546415978,1.0,0
41.1580924987793,-8.774826049804688,0.05824565887451172,0.3716597921755406,-0.3598189585470538,-0.8558033161598214,0.25948813921807345,5.0,1
40.66742706298828,-9.249141693115234,0.02777385711669922,0.14795440994889955,0.12896139978506466,-0.9805500751833889,0.2639449857188862,3.0,1
42.69977569580078,-7.266791820526123,-0.1435680389404297,-0.0,-0.0,-1.0,0.16232673022784777,1.0,0
42.44718933105469,-7.642161846160889,-0.11459684371948242,0.04696664548649403,-0.9039029619165452,0.425151231505029,0.16460897685236706,4.0,0
41.07744598388672,-8.003252983093262,0.04893898963928223,-0.0,-0.0,-1.0,0.17061289614043051,1.0,1
41.10330581665039,-8.794639587402344,0.03822827339172363,-0.0,-0.0,-1.0,0.25948813921807345,1.0,1
41.1514892578125,-8.71074390411377,0.03338313102722168,0.8141074228806309,0.2977307606133185,-0.49858349169950716,0.22173942110626266,3.0,1
42.55742263793945,-7.838735580444336,-0.036089181900024414,-0.8517477342283851,0.2523016869366916,-0.4592054616462134,0.16916073140489102,3.0,0
42.572853088378906,-7.082925319671631,-0.22203445434570312,-0.47898552442087017,-0.082059111009463,-0.8739789297778296,0.16905938302339465,3.0,0
42.44140625,-7.905523777008057,-0.21617484092712402,-0.0,-0.0,-1.0,0.14391954441049626,1.0,0
42.455322265625,-7.56674337387085,-0.21339726448059082,-0.0,-0.0,-1.0,0.15214626351821073,1.0,0
42.45619201660156,-7.318277359008789,-0.21068716049194336,-0.0,-0.0,-1.0,0.1112284813807747,2.0,0
42.16532897949219,-8.46615982055664,-0.1925370693206787,0.8267150346517411,-0.31003782215832654,-0.4694878063508069,0.07038009391532932,3.0,0
42.15776062011719,-8.074044227600098,-0.18534207344055176,-0.49674416866238724,0.622505229994585,-0.6047581909567677,0.09482092467322181,6.0,0
42.196502685546875,-7.742789268493652,-0.1851942539215088,-0.0,-0.0,-1.0,0.14963218315376747,1.0,0
42.13439178466797,-9.098094940185547,-0.2009446620941162,-0.0,-0.0,-1.0,0.105297155463472,2.0,0
42.14759063720703,-8.660240173339844,-0.19393205642700195,0.1530034456205272,0.19154390331878413,-0.9694848522435257,0.05403985135651899,3.0,0
41.87798309326172,-8.341437339782715,-0.15674042701721191,-0.0,-0.0,-1.0,0.1681328307430763,2.0,0
41.88882827758789,-8.925074577331543,-0.1687171459197998,0.3770221806305335,-0.2554699863845231,-0.890274879668796,0.17587100897636737,5.0,0
40.9376220703125,-7.973215103149414,-0.04057478904724121,0.9458996018291501,0.3244306049742474,0.004327333532251519,0.15199377559347324,7.0,0
42.676082611083984,-7.172518730163574,-0.17409348487854004,-0.0,-0.0,-1.0,0.07488675564682604,1.0,0
42.490604400634766,-7.658878326416016,-0.16158318519592285,-0.0,-0.0,-1.0,0.24614731765976117,2.0,0
42.52140426635742,-7.413434982299805,-0.16061878204345703,0.04329770708041314,-0.7904038228475122,-0.6110540936689788,0.06555588523838596,5.0,0
42.30472183227539,-8.585586547851562,-0.16037201881408691,-0.0,-0.0,-1.0,0.0739861696591085,2.0,0
42.38580322265625,-8.394606590270996,-0.16502046585083008,-0.0,-0.0,-1.0,0.05124265137519989,1.0,0
42.19041442871094,-7.873169898986816,-0.1318960189819336,0.35531144493928274,-0.6584399429875183,0.6634836988003192,0.226512943447269,3.0,0
42.50918960571289,-9.263635635375977,-0.2005903720855713,-0.0,-0.0,-1.0,0.09121171929926686,1.0,0
42.235260009765625,-8.727004051208496,-0.15600872039794922,-0.08285490563396031,0.01876964984598688,-0.9963848477656848,0.030374851107092336,3.0,0
41.95016860961914,-8.976588249206543,-0.13045573234558105,-0.0,-0.0,-1.0,0.17151304068528736,2.0,0
41.18131637573242,-8.769943237304688,-0.039107561111450195,0.15532402297791922,0.9147731519736763,-0.37291356681421495,0.18577610386065602,3.0,0
40.94206237792969,-7.973512649536133,0.006493330001831055,0.9644693698005938,0.25670701183276134,0.06245274047101435,0.1678800860790405,9.0,1
42.67084503173828,-7.644947052001953,-0.22394990921020508,-0.0,-0.0,-1.0,0.15113137289561684,1.0,0
42.446144104003906,-7.306424140930176,-0.19154119491577148,-0.0,-0.0,-1.0,0.11734290059645974,2.0,0
42.631065368652344,-7.072357177734375,-0.20746803283691406,0.7197628066492828,-0.05949059832681552,-0.6916663725200642,0.0959479202365312,4.0,0
42.50794219970703,-8.342632293701172,-0.22294044494628906,-0.0,-0.0,-1.0,0.03374794559295523,1.0,0
42.51518249511719,-7.72734260559082,-0.2085113525390625,-0.0,-0.0,-1.0,0.24144341782349765,2.0,0
42.45183181762695,-7.466513633728027,-0.19560480117797852,0.26274375750518086,-0.6740925677121531,-0.6903368221725501,0.043071404346446386,4.0,0
42.178924560546875,-8.69717025756836,-0.19628334045410156,0.8700005752310856,0.13673422252011425,-0.4737116754835157,0.055482535532735244,6.0,0
42.206138610839844,-8.549612045288086,-0.19514799118041992,-0.0,-0.0,-1.0,0.06885384644923981,2.0,0
42.15928649902344,-8.036107063293457,-0.17641210556030273,-0.0,-0.0,-1.0,0.15862249740740675,2.0,0
42.08845138549805,-7.765438079833984,-0.16194748878479004,0.6347636873513471,-0.7696307048441948,0.06887408352311254,0.15210551909005463,3.0,0
42.18075180053711,-9.11133098602295,-0.2087421417236328,0.30016568572411034,0.9321986950785067,0.2022526983941235,0.11787055233449904,3.0,0
42.003753662109375,-8.972420692443848,-0.1851506233215332,0.08659438735301705,0.9633942980737289,-0.25371802954851946,0.16793249076536731,3.0,0
40.945037841796875,-7.996583938598633,-0.04072761535644531,0.8619562915525115,0.02199706316047404,-0.5065051635130245,0.12308000244921179,9.0,0
42.53666305541992,-7.021714210510254,-0.24790740013122559,0.09956472275521638,-0.8379582568929158,-0.5365750885828217,0.19193684147493853,7.0,0
42.293907165527344,-7.45087194442749,-0.23366808891296387,-0.0,-0.0,-1.0,0.07302225517173128,2.0,0
42.091644287109375,-8.038558959960938,-0.22968816757202148,-0.5479581044058278,0.7958675256857476,-0.2575593084608236,0.11793452121489312,3.0,0
42.13193893432617,-7.681453704833984,-0.22323250770568848,-0.27316593215416324,-0.8676166601635095,0.415477682333317,0.191707655758652,6.0,0
41.94782638549805,-8.849608421325684,-0.24149131774902344,-0.673890052721236,0.26928897941782026,-0.68800846099992,0.1735163763748784,3.0,0
41.84544372558594,-8.718032836914062,-0.22627663612365723,-0.0,-0.0,-1.0,0.1167927636617626,1.0,0
41.824398040771484,-8.192384719848633,-0.20659327507019043,0.7147520631309171,-0.6492921190475885,-0.25990235164921,0.11497577341177648,5.0,0
41.715126037597656,-9.004470825195312,-0.22292160987854004,-0.0,-0.0,-1.0,0.11388984363042219,2.0,0
41.64793014526367,-8.573291778564453,-0.20079255104064941,-0.0,-0.0,-1.0,0.11178151589905641,1.0,0
41.56594467163086,-8.396265029907227,-0.18631291389465332,-0.0,-0.0,-1.0,0.17021497690573528,2.0,0
40.864776611328125,-9.01785659790039,-0.13553929328918457,-0.0,-0.0,-1.0,0.11375090472718523,2.0,0
40.767452239990234,-7.938554286956787,-0.46697378158569336,-0.0,-0.0,-1.0,0.19580811777391188,1.0,0
40.41707229614258,-8.065184593200684,-0.43456339836120605,-0.0,-0.0,-1.0,0.06491502626785069,1.0,0
40.22822570800781,-8.727259635925293,-0.44161295890808105,-0.0,-0.0,-1.0,0.1766403616432121,2.0,0
42.61335372924805,-7.634750843048096,-0.1317300796508789,-0.0,-0.0,-1.0,0.21586185418418313,2.0,0
42.57972717285156,-7.345539569854736,-0.11854743957519531,-0.0,-0.0,-1.0,0.07692455325885508,2.0,0
42.48225021362305,-8.22169017791748,-0.14423799514770508,-0.0,-0.0,-1.0,0.03898792016554236,1.0,0
42.216609954833984,-7.6943159103393555,-0.10356521606445312,-0.0,-0.0,-1.0,0.09519732747172219,2.0,0
42.18648147583008,-8.533757209777832,-0.13433265686035156,-0.0,-0.0,-1.0,0.07264114517108668,1.0,0
42.0997200012207,-7.830974578857422,-0.09983301162719727,-0.0,-0.0,-1.0,0.2202873854382936,2.0,0
40.91011047363281,-7.944586753845215,-0.013665199279785156,0.8656878351816875,0.4906732785325062,-0.09911763593127755,0.17213653265471787,7.0,0
42.635013580322266,-7.038619041442871,-0.19333577156066895,0.8971409397326352,0.07720243928919472,-0.43494587895902886,0.0930723420744346,3.0,0
42.44878387451172,-7.213661193847656,-0.18857312202453613,-0.0,-0.0,-1.0,0.1756020192775321,1.0,0
42.166996002197266,-7.827810287475586,-0.19994544982910156,-0.690582014255847,-0.09391587076313086,-0.717130595362616,0.19542231432882673,3.0,0
42.2701416015625,-7.567537307739258,-0.19376277923583984,-0.0,-0.0,-1.0,0.0971593756049806,1.0,0
42.082122802734375,-8.037134170532227,-0.20502853393554688,-0.0,-0.0,-1.0,0.16299541445894408,2.0,0
41.69145584106445,-8.26206111907959,-0.1892383098602295,-0.0,-0.0,-1.0,0.14237245562335799,2.0,0
40.97504806518555,-7.9230546951293945,-0.11935567855834961,0.5385975866047716,-0.5165909252695865,-0.6656173492575354,0.1960615952654574,6.0,0
42.21855163574219,-6.870558261871338,-0.34174585342407227,-0.011394423913893982,0.7677026829086729,0.6407048913177548,0.12822824818198622,3.0,0
42.021976470947266,-7.404348850250244,-0.3405487537384033,0.2672308352761642,-0.40800594550364916,-0.8729941747292915,0.06981445193700836,3.0,0
42.024051666259766,-7.166395664215088,-0.33380746841430664,-0.0,-0.0,-1.0,0.15486994772374746,2.0,0
42.477699279785156,-7.766882419586182,-0.10259032249450684,-0.0,-0.0,-1.0,0.16933405318183173,2.0,0
42.688472747802734,-7.202670574188232,-0.12185263633728027,-0.0,-0.0,-1.0,0.08325400874997047,1.0,0
41.130374908447266,-8.698396682739258,0.006279945373535156,0.7061671782090664,0.663190730793181,-0.24800397377915415,0.20061683177773112,3.0,1
42.491573333740234,-7.009241580963135,-0.23299956321716309,-0.24124601842922666,-0.6354663849301906,-0.7334731298526215,0.12487445039946042,5.0,0
41.78200149536133,-8.799097061157227,-0.21742510795593262,-0.0,-0.0,-1.0,0.10086980488388955,2.0,0
41.63145446777344,-8.934738159179688,-0.20970463752746582,-0.0,-0.0,-1.0,0.07767306905145496,1.0,0
42.27230453491211,-7.459648609161377,-0.22483468055725098,-0.0,-0.0,-1.0,0.11028364339666605,2.0,0
42.41531753540039,-7.1127800941467285,-0.22909235954284668,-0.0,-0.0,-1.0,0.17673183226185,2.0,0
42.02950668334961,-7.958718776702881,-0.21683049201965332,-0.0,-0.0,-1.0,0.1257434325487084,1.0,0
42.09846878051758,-7.655918598175049,-0.21569061279296875,-0.9461651468813862,-0.0631645747458613,0.31746141706371117,0.2162048553247938,5.0,0
42.20148849487305,-7.292553424835205,-0.21630644798278809,-0.0,-0.0,-1.0,0.08608473622632952,1.0,0
41.829402923583984,-8.198148727416992,-0.20713496208190918,0.7147520631309171,-0.6492921190475885,-0.25990235164921,0.11404520494066248,5.0,0
41.507442474365234,-8.389970779418945,-0.18774676322937012,-0.0,-0.0,-1.0,0.14697589580961168,2.0,0
40.820465087890625,-7.860484600067139,-0.12517523765563965,-0.0,-0.0,-1.0,0.15989165389846788,1.0,0
40.643795013427734,-9.12363052368164,-0.1430656909942627,-0.0,-0.0,-1.0,0.15703143590811958,1.0,0
42.12300109863281,-7.079443454742432,-0.07753419876098633,-0.0,-0.0,-1.0,0.22442060548265758,1.0,0
41.89965057373047,-7.388362407684326,-0.08557438850402832,-0.0,-0.0,-1.0,0.1462172705538852,1.0,0
41.0296745300293,-8.275476455688477,-0.09958529472351074,-0.0,-0.0,-1.0,0.08875629838005017,1.0,0
40.95867156982422,-8.03018569946289,-0.08028411865234375,-0.5413817989329708,0.7924524406285425,-0.280935717070591,0.12964962227695143,5.0,0
40.82296371459961,-8.44940185546875,-0.10100269317626953,-0.0,-0.0,-1.0,0.20073340787473934,1.0,0
40.670936584472656,-8.231430053710938,-0.0794684886932373,-0.0,-0.0,-1.0,0.1183052874985437,1.0,0
40.228424072265625,-8.509849548339844,-0.07665896415710449,-0.0,-0.0,-1.0,0.14203132186057693,1.0,0
42.55463409423828,-6.870856285095215,-0.32277917861938477,0.6085893166549246,0.6142583586683142,-0.5023004205250085,0.1108096412262482,3.0,0
42.111328125,-7.733055114746094,-0.31583690643310547,-0.9210436012701549,-0.2605462024015349,0.28947255651173953,0.17210165635061628,5.0,0
42.21417999267578,-7.306177139282227,-0.3104848861694336,-0.0,-0.0,-1.0,0.11797138490733636,1.0,0
41.90087890625,-8.052873611450195,-0.3107926845550537,-0.0,-0.0,-1.0,0.13361663192279585,2.0,0
41.52778625488281,-8.511842727661133,-0.29940009117126465,-0.5202589961192923,0.6796743981825396,0.5170815113810867,0.12255932598502274,3.0,0
41.64301300048828,-8.209217071533203,-0.2975425720214844,-0.0,-0.0,-1.0,0.14004314838323564,2.0,0
41.30322265625,-8.748044967651367,-0.29172515869140625,-0.2602863381589153,0.805964416439853,-0.5316694288753023,0.16541990494737147,3.0,0
40.81468200683594,-7.916393280029297,-0.22965168952941895,0.2511613656755743,-0.1502276901001088,-0.9562162985011112,0.21172364153079515,8.0,0
40.502227783203125,-9.16146469116211,-0.2511141300201416,0.7602488672648241,-0.1681895107901998,-0.6274822294557079,0.12054425337018033,3.0,0
42.529544830322266,-6.984807968139648,-0.26796793937683105,-0.2414414302007101,-0.8175185944597902,-0.5228473806906989,0.15678924927465207,4.0,0
42.08889389038086,-7.860692977905273,-0.2563130855560303,-0.3351509884647466,-0.9420651258468359,0.013678947119163195,0.1542236279662236,4.0,0
42.19036865234375,-7.471242904663086,-0.2543299198150635,-0.0,-0.0,-1.0,0.09135331990524719,1.0,0
41.88852310180664,-8.109394073486328,-0.24825048446655273,-0.0,-0.0,-1.0,0.11589039291375487,1.0,0
41.55978012084961,-8.817529678344727,-0.24383783340454102,-0.5524274051403114,0.6340056773150979,-0.5411661142220253,0.05755055077777095,5.0,0
41.590354919433594,-8.412736892700195,-0.2351367473602295,-0.9700583050676946,-0.0007534366220896565,-0.2428709885977494,0.1648652025411244,3.0,0
41.36674118041992,-8.933334350585938,-0.2336711883544922,-0.0,-0.0,-1.0,0.09929599863635262,1.0,0
40.9024543762207,-7.932384490966797,-0.17433643341064453,-0.7018087792225767,0.7093338236466648,-0.06565031635048972,0.16278010841125864,6.0,0
42.23505783081055,-8.078262329101562,-0.20075345039367676,-0.0,-0.0,-1.0,0.11784590817122367,2.0,0
42.30623245239258,-7.795330047607422,-0.20712685585021973,0.295168124094619,-0.6602233493140597,-0.6906380437964512,0.18840156893777418,5.0,0
42.377967834472656,-7.401115417480469,-0.21410799026489258,-0.0,-0.0,-1.0,0.10155598304806364,1.0,0
42.4776611328125,-7.050739288330078,-0.22324109077453613,-0.0,-0.0,-1.0,0.17769703227118222,2.0,0
41.07478332519531,-7.738838195800781,-0.11453723907470703,-0.0,-0.0,-1.0,0.10789200043297939,1.0,0
40.697208404541016,-9.269235610961914,-0.18434596061706543,-0.0,-0.0,-1.0,0.19858187891414775,1.0,0
40.87825393676758,-7.936891555786133,-0.20855927467346191,0.5337598331154355,-0.5624748544866683,-0.6314447550045716,0.1640908437094709,8.0,0
41.24833679199219,-8.777425765991211,-0.24422860145568848,-0.0,-0.0,-1.0,0.2203607925400013,1.0,0
41.642642974853516,-8.449968338012695,-0.2873880863189697,0.0011501585221997675,-0.12817446076850963,-0.9917509691157732,0.1341402214983371,5.0,0
41.45280075073242,-8.785442352294922,-0.26581764221191406,0.600093158352013,-0.3599131757778486,-0.7143883448101669,0.08333125849253871,4.0,0
41.746925354003906,-8.02247428894043,-0.3004584312438965,0.6629696787379801,0.5672890267320337,-0.4885226353235656,0.043329023743952845,3.0,0
42.119468688964844,-7.151142120361328,-0.34477972984313965,0.9783471549252394,0.18688272550881274,-0.08894768887434444,0.10160028974459727,3.0,0
41.99524688720703,-7.444707870483398,-0.3298685550689697,0.025961247535295315,-0.23223686772709914,-0.9723127330723982,0.06557801143152713,6.0,0
41.98493957519531,-7.843374252319336,-0.3267087936401367,-0.8365312532599956,0.052039630814516194,-0.5454423334725222,0.056547769514002505,3.0,0
40.925865173339844,-8.972631454467773,-0.23058652877807617,-0.042394500469582166,-0.3315504430074788,-0.9424844879739289,0.22590239772636508,3.0,0
41.56229019165039,-8.452198028564453,-0.29580092430114746,-0.0,-0.0,-1.0,0.21837652874860225,2.0,0
41.5382080078125,-8.814577102661133,-0.2935905456542969,0.6904145967341259,-0.40104550167312053,-0.6020715822925125,0.06312026169475196,3.0,0
41.82579040527344,-7.9612274169921875,-0.32300376892089844,-0.0,-0.0,-1.0,0.039172615827022784,2.0,0
41.6816291809082,-8.189125061035156,-0.30806469917297363,-0.0,-0.0,-1.0,0.10995452809470195,2.0,0
42.12220764160156,-7.400909423828125,-0.3540797233581543,-0.0,-0.0,-1.0,0.08721242235076457,1.0,0
42.10718536376953,-7.670026779174805,-0.35240602493286133,-0.9933493544639502,0.10076285069617381,0.05571272660383709,0.18597474619304302,3.0,0
42.012062072753906,-7.963376998901367,-0.34243106842041016,-0.0,-0.0,-1.0,0.09756641229610687,1.0,0
42.28205871582031,-6.918846130371094,-0.37120676040649414,-0.0,-0.0,-1.0,0.11186141065624057,2.0,0
42.110694885253906,-7.109138488769531,-0.35303258895874023,0.9620060909318301,0.27042395807756775,-0.03761866435322868,0.1942911963030736,4.0,0
40.852455139160156,-7.926759719848633,-0.22184324264526367,0.23830731427416735,-0.8479407536258544,-0.4735040678852205,0.23717148299002444,8.0,0
40.66879653930664,-9.175273895263672,-0.09714674949645996,-0.0,-0.0,-1.0,0.1742395915396855,2.0,0
41.69207000732422,-8.33242416381836,-0.2005476951599121,-0.09147475836276377,0.972003612390929,-0.2164286165955371,0.16008792134404648,3.0,0
41.86085891723633,-8.876462936401367,-0.21807217597961426,-0.0,-0.0,-1.0,0.1601568955208454,1.0,0
42.16602325439453,-7.870561599731445,-0.24868988990783691,0.27700407843363045,-0.8177162231444545,-0.5045878703828537,0.18759489331712145,3.0,0
42.04875946044922,-8.123828887939453,-0.23681998252868652,-0.31848963346997333,0.8292192972586767,-0.4593035057845609,0.08715192158987277,4.0,0
41.937339782714844,-8.384178161621094,-0.22557568550109863,0.5512852169025193,-0.8119260186900675,-0.1919915357479024,0.14572151882640647,3.0,0
42.365234375,-7.160139083862305,-0.2688920497894287,-0.0,-0.0,-1.0,0.16366260782231865,1.0,0
42.24796676635742,-7.5867156982421875,-0.25698018074035645,-0.0,-0.0,-1.0,0.12066031814210003,2.0,0
42.57318115234375,-7.090551376342773,-0.2901723384857178,-0.2542041085786553,0.4589949375822488,-0.85129543547208,0.15204395375519955,4.0,0
42.69791793823242,-7.790807723999023,-0.06892156600952148,-0.0,-0.0,-1.0,0.11743946613607115,1.0,0
40.25669860839844,-8.558382034301758,-0.1261587142944336,-0.0,-0.0,-1.0,0.13530859726703967,1.0,0
40.44535827636719,-9.18881607055664,-0.16060423851013184,-0.0,-0.0,-1.0,0.09233247363709517,1.0,0
40.925079345703125,-7.913246154785156,-0.1712169647216797,-0.31917761104788234,0.8887357848377215,-0.3290506911626931,0.18525234901704055,6.0,0
40.69785690307617,-9.096406936645508,-0.18111133575439453,-0.0,-0.0,-1.0,0.11964570674047438,1.0,0
41.452232360839844,-8.800470352172852,-0.2427687644958496,0.7585325725556563,-0.5542586820463922,-0.34267426187021144,0.085918282849985,3.0,0
41.33751678466797,-8.86050033569336,-0.23369884490966797,-0.0,-0.0,-1.0,0.15972024921502886,1.0,0
41.70258331298828,-8.164405822753906,-0.2501640319824219,-0.0,-0.0,-1.0,0.128637712394019,2.0,0
41.52007293701172,-8.627290725708008,-0.2446432113647461,-0.0,-0.0,-1.0,0.09603638711850572,1.0,0
42.18816375732422,-7.414636611938477,-0.27835845947265625,0.8266633178636528,0.4824456818143147,0.28960994975549187,0.08694502822463518,3.0,0
42.095245361328125,-7.874364852905273,-0.2801694869995117,-0.3351509884647466,-0.9420651258468359,0.013678947119163195,0.1542087694752177,4.0,0
42.34544372558594,-7.025703430175781,-0.28472018241882324,-0.0,-0.0,-1.0,0.09975721714466756,2.0,0
40.2487907409668,-8.593544960021973,-0.29812192916870117,-0.0,-0.0,-1.0,0.13542279145291147,2.0,0
40.259334564208984,-9.19516658782959,-0.32667112350463867,-0.0,-0.0,-1.0,0.1578102913962696,1.0,0
40.458213806152344,-8.469691276550293,-0.31189489364624023,-0.0,-0.0,-1.0,0.1983426203967701,1.0,0
40.3541259765625,-8.837689399719238,-0.3190007209777832,-0.2744189992569425,-0.5079045976623995,-0.8165336077101875,0.23797199385172696,4.0,0
40.37921905517578,-9.080782890319824,-0.3324549198150635,-0.0,-0.0,-1.0,0.16595045558307941,1.0,0
40.975982666015625,-8.3698148727417,-0.35552501678466797,-0.0,-0.0,-1.0,0.15589379229209568,2.0,0
40.98209762573242,-9.048958778381348,-0.3867182731628418,-0.0,-0.0,-1.0,0.0812955775520835,1.0,0
