x,y,z,nx,ny,nz,curvature,density,label
44.54187774658203,27.705730438232422,-2.5085854530334473,-0.0,-0.0,-1.0,0.07461593853722943,2.0,0
45.06814193725586,28.087757110595703,-2.5840725898742676,-0.0,-0.0,-1.0,0.13506882173599555,1.0,0
44.84642791748047,26.119850158691406,-2.25028133392334,-0.6905258946970714,-0.25077050724696565,-0.6784453857517999,0.17619024949269507,3.0,0
43.933067321777344,25.84262466430664,-2.1241960525512695,-0.0,-0.0,-1.0,0.17127933376026866,1.0,0
44.790740966796875,25.943374633789062,-2.3791840076446533,-0.0,-0.0,-1.0,0.11968678995834227,1.0,0
44.68464660644531,27.096271514892578,-2.4589502811431885,-0.0,-0.0,-1.0,0.11793188511104834,2.0,0
45.08705139160156,26.71546173095703,-2.48862624168396,-0.0,-0.0,-1.0,0.023847790599707257,1.0,0
45.09539031982422,26.45949363708496,-2.468597173690796,-0.0,-0.0,-1.0,0.029546387358181308,2.0,0
44.872833251953125,27.572505950927734,-2.5285370349884033,-0.0,-0.0,-1.0,0.16511524515742132,2.0,0
44.839534759521484,27.409074783325195,-2.5093905925750732,-0.0,-0.0,-1.0,0.1317382410835701,1.0,0
45.05509567260742,26.962202072143555,-2.504427194595337,-0.0,-0.0,-1.0,0.03442917611604314,1.0,0
44.9744873046875,27.873825073242188,-2.5701792240142822,-0.0,-0.0,-1.0,0.034994477368914846,2.0,0
44.04283142089844,25.891023635864258,-2.259467840194702,-0.0,-0.0,-1.0,0.1543626215277062,2.0,0
45.180965423583984,27.06422996520996,-2.4250073432922363,-0.0,-0.0,-1.0,0.03972600722603075,1.0,0
45.157371520996094,27.359535217285156,-2.4531188011169434,-0.0,-0.0,-1.0,0.08388466087217414,2.0,0
45.06736755371094,28.00109100341797,-2.5094056129455566,-0.0,-0.0,-1.0,0.12166366827860747,2.0,0
43.98971939086914,25.964580535888672,-2.13283109664917,-0.0,-0.0,-1.0,0.13565348957074358,1.0,0
44.88311004638672,26.046710968017578,-2.2738661766052246,-0.0,-0.0,-1.0,0.15701092276891512,1.0,0
45.01094055175781,25.741294860839844,-2.261279582977295,-0.0,-0.0,-1.0,0.16762740906297446,2.0,0
44.60602569580078,26.63549041748047,-2.294632911682129,-0.0,-0.0,-1.0,0.18198408991714454,1.0,0
44.45849609375,27.225387573242188,-2.3359599113464355,-0.0,-0.0,-1.0,0.13821451180170422,1.0,0
45.19281005859375,26.66458511352539,-2.3844175338745117,-0.0,-0.0,-1.0,0.022702014528085575,1.0,0
45.16911315917969,26.956775665283203,-2.411827564239502,-0.0,-0.0,-1.0,0.03196587011640878,1.0,0
44.77677917480469,27.614948272705078,-2.4248032569885254,-0.0,-0.0,-1.0,0.21211923214737774,1.0,0
44.19476318359375,25.78791046142578,-2.4297285079956055,-0.0,-0.0,-1.0,0.16193061324268804,2.0,0
43.31134033203125,26.454288482666016,-2.3749685287475586,-0.0,-0.0,-1.0,0.17229385264024333,1.0,0
44.23065948486328,25.983394622802734,-2.4595913887023926,-0.0,-0.0,-1.0,0.044451401506367685,1.0,0
43.13872528076172,26.571617126464844,-2.3631463050842285,-0.0,-0.0,-1.0,0.20863454024025407,1.0,0
44.18736267089844,26.401437759399414,-2.5051069259643555,0.06937820198409007,0.774739952655844,-0.6284621475063354,0.07980995803673553,3.0,0
44.241371154785156,26.711795806884766,-2.5528268814086914,-0.0,-0.0,-1.0,0.026091858723322415,1.0,0
42.71345520019531,27.87991714477539,-2.470015525817871,-0.0,-0.0,-1.0,0.05474166408033001,1.0,0
43.8558349609375,27.41887664794922,-2.5841755867004395,-0.0,-0.0,-1.0,0.1200069586881478,1.0,0
44.1473503112793,27.257898330688477,-2.608349323272705,-0.0,-0.0,-1.0,0.06505891308292977,1.0,0
44.4188232421875,27.032447814941406,-2.6214280128479004,-0.0,-0.0,-1.0,0.18955737337837186,2.0,0
42.73448181152344,27.99256134033203,-2.488433361053467,-0.0,-0.0,-1.0,0.042183826281960886,2.0,0
43.237037658691406,28.050514221191406,-2.5728931427001953,-0.0,-0.0,-1.0,0.03538870289171651,2.0,0
43.40742111206055,27.888065338134766,-2.5772104263305664,-0.0,-0.0,-1.0,0.015372511780536426,2.0,0
43.7620849609375,27.679786682128906,-2.604027271270752,-0.0,-0.0,-1.0,0.11389972780767338,2.0,0
44.80865478515625,27.505779266357422,-2.161963939666748,-0.0,-0.0,-1.0,0.12295052050859916,2.0,0
44.90708923339844,27.646072387695312,-2.193187713623047,-0.0,-0.0,-1.0,0.13467119218183637,1.0,0
43.74609375,25.756084442138672,-2.467505693435669,-0.0,-0.0,-1.0,0.1680284356076698,1.0,0
43.78486633300781,25.98732566833496,-2.502589464187622,-0.0,-0.0,-1.0,0.07042488285686867,1.0,0
43.83924102783203,26.191112518310547,-2.5373647212982178,-0.0,-0.0,-1.0,0.04960739142647702,1.0,0
43.576934814453125,26.695547103881836,-2.5537350177764893,-0.0,-0.0,-1.0,0.01667185136741565,1.0,0
43.82126235961914,26.451759338378906,-2.5664913654327393,-0.0,-0.0,-1.0,0.0450335051097264,1.0,0
43.53986358642578,26.947786331176758,-2.5794126987457275,-0.0,-0.0,-1.0,0.026828234541163915,1.0,0
42.75926208496094,27.446643829345703,-2.5078279972076416,-0.0,-0.0,-1.0,0.031416454332405426,1.0,0
43.050071716308594,27.469715118408203,-2.5615479946136475,0.5064847898328575,-0.2975814841402128,-0.8092702996927998,0.03332064040574046,3.0,0
43.445465087890625,27.172962188720703,-2.591815710067749,-0.0,-0.0,-1.0,0.08147696839128665,1.0,0
43.784996032714844,25.67685890197754,-2.4611902236938477,-0.0,-0.0,-1.0,0.13600287214625498,1.0,0
43.8335075378418,26.125478744506836,-2.527744770050049,-0.0,-0.0,-1.0,0.053020810077102506,1.0,0
43.380714416503906,26.537277221679688,-2.4990453720092773,-0.0,-0.0,-1.0,0.09001335458959471,1.0,0
43.75633239746094,26.43567657470703,-2.554104804992676,-0.0,-0.0,-1.0,0.03687161251525636,1.0,0
43.46775817871094,26.96519660949707,-2.5726003646850586,-0.0,-0.0,-1.0,0.012752607826995669,1.0,0
43.300682067871094,27.17824363708496,-2.5716075897216797,-0.0,-0.0,-1.0,0.06362475023953885,1.0,0
44.609344482421875,27.61815071105957,-2.015528678894043,-0.0,-0.0,-1.0,0.20686587259163322,1.0,0
44.71085739135742,27.50542449951172,-2.6076982021331787,-0.0,-0.0,-1.0,0.09229098650694541,1.0,0
44.4675178527832,28.056869506835938,-2.6439201831817627,-0.0,-0.0,-1.0,0.023247109811154257,1.0,0
44.01874542236328,25.898529052734375,-2.264214277267456,-0.0,-0.0,-1.0,0.18330916095552385,2.0,0
44.61220932006836,25.88372230529785,-2.368932008743286,-0.0,-0.0,-1.0,0.11310009243006865,2.0,0
44.86210632324219,25.930326461791992,-2.4200847148895264,-0.0,-0.0,-1.0,0.07260894390243613,1.0,0
43.1010627746582,26.499069213867188,-2.1833999156951904,-0.0,-0.0,-1.0,0.18664778620831873,1.0,0
45.009422302246094,26.43288803100586,-2.5132577419281006,-0.0,-0.0,-1.0,0.029268229829057843,2.0,0
44.660736083984375,26.902828216552734,-2.514946699142456,-0.0,-0.0,-1.0,0.16761722687325656,1.0,0
44.87907409667969,26.7091121673584,-2.527251958847046,-0.0,-0.0,-1.0,0.012971751256122767,1.0,0
44.383941650390625,27.065338134765625,-2.488510847091675,-0.950902790254863,0.3092582790660162,0.011966633387970268,0.14420870011403758,3.0,0
44.52501678466797,27.003849029541016,-2.504862070083618,-0.0,-0.0,-1.0,0.12434920381099082,2.0,0
43.62250518798828,27.476184844970703,-2.4134347438812256,-0.0,-0.0,-1.0,0.21971762717410107,2.0,0
44.22874450683594,27.596946716308594,-2.5363290309906006,-0.00018027762033966493,-0.9420539116548492,-0.3354614657986476,0.09166586470295161,3.0,0
44.591102600097656,27.57506561279297,-2.5965306758880615,-0.0,-0.0,-1.0,0.06769494156647178,1.0,0
44.947879791259766,25.652111053466797,-2.316012144088745,-0.0,-0.0,-1.0,0.11394789197812054,2.0,0
44.048397064208984,26.022180557250977,-2.2010915279388428,-0.0,-0.0,-1.0,0.12672970160706018,1.0,0
44.86103820800781,25.90066909790039,-2.3331968784332275,-0.0,-0.0,-1.0,0.15653122199504815,2.0,0
45.1092643737793,26.443096160888672,-2.4520976543426514,-0.0,-0.0,-1.0,0.028544461579566763,2.0,0
44.6307487487793,26.950210571289062,-2.4357802867889404,-0.0,-0.0,-1.0,0.2066007464967202,1.0,0
44.96532440185547,26.780384063720703,-2.4724833965301514,-0.0,-0.0,-1.0,0.025119210105924227,2.0,0
44.55803298950195,27.042762756347656,-2.4358017444610596,-0.0,-0.0,-1.0,0.19597527937340342,2.0,0
44.436134338378906,27.610431671142578,-2.4956228733062744,-0.0,-0.0,-1.0,0.0505264275647996,1.0,0
44.839515686035156,27.5128173828125,-2.5533430576324463,-0.0,-0.0,-1.0,0.15392256194430654,1.0,0
44.49420166015625,27.975669860839844,-2.559312582015991,-0.0,-0.0,-1.0,0.06614131269431865,1.0,0
44.73409652709961,26.04912567138672,-2.212656259536743,-0.0,-0.0,-1.0,0.12069271617984728,1.0,0
45.11846923828125,25.9881591796875,-2.2745306491851807,-0.0,-0.0,-1.0,0.23096981950315973,1.0,0
44.729942321777344,27.149555206298828,-2.3754723072052,-0.0,-0.0,-1.0,0.14876089421602154,1.0,0
44.88957977294922,27.503915786743164,-2.458130121231079,-0.0,-0.0,-1.0,0.1911036237388668,2.0,0
45.14348602294922,27.923349380493164,-2.5679972171783447,-0.0,-0.0,-1.0,0.03513448479215008,2.0,0
44.66531753540039,25.928340911865234,-2.461491584777832,-0.0,-0.0,-1.0,0.08715240277686775,1.0,0
44.15693664550781,26.352924346923828,-2.438265800476074,-0.0,-0.0,-1.0,0.11595012921317717,1.0,0
44.43750762939453,26.13913345336914,-2.454221725463867,-0.0,-0.0,-1.0,0.045681716434202754,2.0,0
44.65840148925781,26.195783615112305,-2.507081985473633,-0.0,-0.0,-1.0,0.056863165842131275,1.0,0
44.353675842285156,26.6335391998291,-2.5266714096069336,-0.5814450903032815,-0.4771135488999285,-0.6590024798271429,0.054518503579041096,3.0,0
44.634613037109375,26.531063079833984,-2.5621042251586914,-0.0,-0.0,-1.0,0.09126708448346771,2.0,0
44.357444763183594,27.072439193725586,-2.6076793670654297,-0.0,-0.0,-1.0,0.19541768005371135,1.0,0
44.59635925292969,26.948610305786133,-2.6302642822265625,-0.0,-0.0,-1.0,0.13739637283803055,1.0,0
43.81107711791992,27.63721466064453,-2.6114206314086914,-0.0,-0.0,-1.0,0.08993121769909526,1.0,0
43.96747589111328,27.41564178466797,-2.5985002517700195,-0.0,-0.0,-1.0,0.0934471217525393,1.0,0
44.2658805847168,27.298137664794922,-2.632190227508545,-0.0,-0.0,-1.0,0.08006220238242491,1.0,0
42.749393463134766,27.9556884765625,-2.480252265930176,-0.8189663194970456,-0.4183447810800209,-0.3927872346100019,0.042183826281960886,3.0,0
43.234859466552734,27.99183464050293,-2.5747218132019043,-0.0,-0.0,-1.0,0.03629808427955048,2.0,0
43.651859283447266,27.840042114257812,-2.6211695671081543,-0.0,-0.0,-1.0,0.0337496676574003,1.0,0
43.471763610839844,25.704757690429688,-2.1902079582214355,-0.0,-0.0,-1.0,0.06709224673337108,1.0,0
44.886451721191406,27.492782592773438,-2.0507125854492188,0.7063575909230532,-0.28848548397802143,-0.6464016392919713,0.15036866772474736,3.0,0
42.81058120727539,25.938175201416016,-2.459113597869873,-0.0,-0.0,-1.0,0.03969882917470014,1.0,0
42.97673034667969,25.873157501220703,-2.4781970977783203,-0.0,-0.0,-1.0,0.04590767576628048,1.0,0
44.85150146484375,26.17654800415039,-2.194713592529297,-0.0,-0.0,-1.0,0.20230021993121863,1.0,0
45.046749114990234,26.144203186035156,-2.2205734252929688,-0.0,-0.0,-1.0,0.1313263480212866,1.0,0
44.5116081237793,27.132049560546875,-2.2834105491638184,-0.788546433104694,0.6083841172398516,-0.0897958168744553,0.16554266707501591,3.0,0
44.576751708984375,26.976591110229492,-2.269911289215088,-0.0,-0.0,-1.0,0.19542248770195325,1.0,0
44.840492248535156,27.56498908996582,-2.398669719696045,-0.0,-0.0,-1.0,0.20700769841904873,2.0,0
44.30979919433594,26.87519645690918,-2.627319812774658,-0.0,-0.0,-1.0,0.06689369033645216,1.0,0
43.84821701049805,27.359230041503906,-2.622697591781616,-0.0,-0.0,-1.0,0.11508935794070173,1.0,0
44.10343551635742,27.250682830810547,-2.6486899852752686,-0.0,-0.0,-1.0,0.054643593481980696,2.0,0
43.68960189819336,27.57394790649414,-2.6294806003570557,-0.0,-0.0,-1.0,0.17140152067631306,1.0,0
43.3807373046875,27.96164894104004,-2.639695405960083,-0.0,-0.0,-1.0,0.01772247320184762,1.0,0
44.22978210449219,25.778736114501953,-2.4554283618927,-0.13061454379454335,0.8639282181114665,-0.4863824368746162,0.14713251361055008,3.0,0
43.337196350097656,25.883747100830078,-2.3170807361602783,-0.0,-0.0,-1.0,0.10039601032345749,1.0,0
44.11343765258789,25.917030334472656,-2.454901695251465,-0.0,-0.0,-1.0,0.15363764439106048,2.0,0
44.33210372924805,25.990970611572266,-2.5031611919403076,-0.4634409838996555,0.8011073293587048,0.37874727892076415,0.05014330389534052,3.0,0
43.269588470458984,26.38028335571289,-2.3788764476776123,-0.0,-0.0,-1.0,0.17229385264024338,2.0,0
44.17390060424805,26.380847930908203,-2.531975269317627,0.06937820198409007,0.774739952655844,-0.6284621475063354,0.08058158355972488,3.0,0
44.35177230834961,26.2615966796875,-2.5451812744140625,-0.0,-0.0,-1.0,0.12027055636970767,1.0,0
44.21607971191406,26.654037475585938,-2.578939914703369,-0.0,-0.0,-1.0,0.023626908882045806,1.0,0
42.7669563293457,27.709396362304688,-2.501376152038574,-0.0,-0.0,-1.0,0.05300216897777014,1.0,0
43.360206604003906,27.674728393554688,-2.5914084911346436,-0.0,-0.0,-1.0,0.018437745123851646,1.0,0
42.79737091064453,27.93850326538086,-2.542752742767334,-0.0,-0.0,-1.0,0.04218382628196085,1.0,0
43.17463684082031,27.94654083251953,-2.6042001247406006,-0.0,-0.0,-1.0,0.03311786454680108,2.0,0
44.60639190673828,27.098745346069336,-2.0545666217803955,0.4890976365370681,-0.49717095410648815,-0.7166620851745247,0.11159227996434358,3.0,0
44.856536865234375,27.604881286621094,-2.153409957885742,-0.0,-0.0,-1.0,0.25801353684871736,2.0,0
43.317405700683594,25.798084259033203,-2.3198487758636475,-0.0,-0.0,-1.0,0.0612927554616652,2.0,0
44.30641174316406,26.128265380859375,-2.5437769889831543,-0.9551593369264637,-0.21940141482273529,-0.1988307326747561,0.08880299360324152,3.0,0
43.187721252441406,26.49231719970703,-2.415499448776245,-0.0,-0.0,-1.0,0.19540805605748138,2.0,0
43.97056579589844,26.52208137512207,-2.55181884765625,-0.0,-0.0,-1.0,0.04339010477683921,1.0,0
44.224090576171875,26.287147521972656,-2.5558271408081055,-0.0,-0.0,-1.0,0.1344066176373626,1.0,0
43.729881286621094,26.999561309814453,-2.5925674438476562,-0.0,-0.0,-1.0,0.046774198607912605,1.0,0
43.84913635253906,26.77897071838379,-2.5747859477996826,-0.0,-0.0,-1.0,0.004285495690956727,1.0,0
43.18809127807617,27.3275203704834,-2.5608060359954834,-0.0,-0.0,-1.0,0.02783116118863065,1.0,0
43.59160614013672,27.20909881591797,-2.605983257293701,-0.0,-0.0,-1.0,0.13191920803707893,1.0,0
43.05852508544922,27.51572608947754,-2.573176383972168,-0.0,-0.0,-1.0,0.04387645748124751,2.0,0
44.466552734375,27.082279205322266,-2.1063661575317383,-0.0,-0.0,-1.0,0.116345965753055,2.0,0
44.90425491333008,27.596839904785156,-2.242682933807373,-0.40945161002510133,-0.852357508822845,-0.32532453980781406,0.1254433376861651,3.0,0
44.14906692504883,25.80544090270996,-2.1914103031158447,-0.0,-0.0,-1.0,0.0888649136232734,1.0,0
44.99477005004883,25.702369689941406,-2.313166856765747,-0.0,-0.0,-1.0,0.134509630695198,1.0,0
44.629085540771484,25.943675994873047,-2.292539119720459,-0.0,-0.0,-1.0,0.17338911735716514,1.0,0
44.954166412353516,26.018535614013672,-2.358139991760254,-0.0,-0.0,-1.0,0.12934936431018804,1.0,0
45.13861846923828,26.51835823059082,-2.4709370136260986,-0.0,-0.0,-1.0,0.033068906085145004,1.0,0
44.578521728515625,26.948978424072266,-2.4539852142333984,-0.969527245190196,0.1928934177047777,0.15102665407165683,0.24111356356411548,3.0,0
44.99494934082031,26.789596557617188,-2.4933483600616455,-0.0,-0.0,-1.0,0.02463978462421142,2.0,0
44.46403884887695,27.073280334472656,-2.4573545455932617,-0.0,-0.0,-1.0,0.08634313918076443,2.0,0
44.69908905029297,27.05329132080078,-2.491030216217041,-0.0,-0.0,-1.0,0.12569140858573669,1.0,0
43.66146469116211,27.482954025268555,-2.4056344032287598,0.25104310373341654,-0.46928144628062046,-0.8466122396024416,0.1905312222205241,3.0,0
43.861663818359375,27.59878921508789,-2.456721067428589,-0.0,-0.0,-1.0,0.12045894067120026,1.0,0
44.26076126098633,27.58974838256836,-2.516131639480591,-0.0,-0.0,-1.0,0.10294570889082758,2.0,0
44.696372985839844,27.596057891845703,-2.5846121311187744,-0.0,-0.0,-1.0,0.09939086573708548,1.0,0
43.96393585205078,28.108444213867188,-2.5637736320495605,-0.0,-0.0,-1.0,0.015479252797768484,1.0,0
44.252281188964844,28.02182388305664,-2.5917165279388428,-0.0,-0.0,-1.0,0.017281877368378135,1.0,0
43.1316032409668,26.53188133239746,-2.1555235385894775,-0.0,-0.0,-1.0,0.18664778620831882,1.0,0
43.5875244140625,26.133060455322266,-2.563154935836792,-0.0,-0.0,-1.0,0.02028332699352584,1.0,0
43.71757507324219,25.67552375793457,-2.4984548091888428,-0.0,-0.0,-1.0,0.10516646338703564,1.0,0
43.10132598876953,25.96905517578125,-2.4380548000335693,-0.0,-0.0,-1.0,0.04554330829364967,1.0,0
43.34239196777344,26.103031158447266,-2.510582208633423,-0.0,-0.0,-1.0,0.05325097724453885,1.0,0
43.62129211425781,25.920673370361328,-2.5276381969451904,-0.0,-0.0,-1.0,0.04832036292115336,1.0,0
45.05225372314453,26.120525360107422,-2.2799103260040283,-0.0,-0.0,-1.0,0.1434958134802495,1.0,0
42.94136428833008,26.426673889160156,-2.5012481212615967,-0.0,-0.0,-1.0,0.16554893215226407,1.0,0
43.18354034423828,26.25505828857422,-2.51117205619812,-0.0,-0.0,-1.0,0.09805151106701707,1.0,0
42.79343795776367,26.70693588256836,-2.5319278240203857,-0.0,-0.0,-1.0,0.10622170019905508,1.0,0
44.10564422607422,27.219200134277344,-2.309924364089966,-0.0,-0.0,-1.0,0.14146776885518472,1.0,0
44.639400482177734,27.213191986083984,-2.3955774307250977,-0.0,-0.0,-1.0,0.1284634665362151,2.0,0
44.88859939575195,27.215002059936523,-2.4368622303009033,-0.0,-0.0,-1.0,0.08224331665653067,1.0,0
44.72669982910156,27.374767303466797,-2.437883138656616,-0.0,-0.0,-1.0,0.1682900046104426,1.0,0
45.002601623535156,27.721649169921875,-2.54321551322937,-0.0,-0.0,-1.0,0.05279840311108349,1.0,0
44.51799774169922,28.06291961669922,-2.525322675704956,-0.0,-0.0,-1.0,0.1191977837051626,2.0,0
44.971073150634766,27.889175415039062,-2.567352533340454,-0.0,-0.0,-1.0,0.03499447736891488,2.0,0
44.2509880065918,25.782480239868164,-2.0873022079467773,-0.0,-0.0,-1.0,0.1055508462359111,1.0,0
43.8769416809082,25.858089447021484,-2.0370659828186035,-0.0,-0.0,-1.0,0.14056996178779185,2.0,0
44.24973678588867,25.849056243896484,-2.0982253551483154,-0.0,-0.0,-1.0,0.07595518535644041,1.0,0
44.65095901489258,26.057788848876953,-2.2010700702667236,-0.7217694438760932,0.44222018288707926,-0.5324379585774415,0.07768022441789817,3.0,0
44.667335510253906,26.14630889892578,-2.470999240875244,-0.0,-0.0,-1.0,0.08985363817538398,2.0,0
44.70843505859375,26.397335052490234,-2.5289158821105957,-0.0,-0.0,-1.0,0.044063269079633836,1.0,0
44.60706329345703,26.62124252319336,-2.556637763977051,-0.0,-0.0,-1.0,0.10070283494118265,1.0,0
43.88511657714844,27.28371810913086,-2.575385570526123,-0.0,-0.0,-1.0,0.0454755099173045,1.0,0
44.117149353027344,27.196760177612305,-2.595747470855713,-0.0,-0.0,-1.0,0.16637483843055526,1.0,0
44.447975158691406,27.014375686645508,-2.610274076461792,-0.9203701651340161,-0.3903394598575514,-0.023534341063618066,0.18820908731386327,6.0,0
42.92093276977539,27.791547775268555,-2.5316357612609863,-0.0,-0.0,-1.0,0.05576478098458015,1.0,0
43.30616760253906,27.640113830566406,-2.55861759185791,-0.0,-0.0,-1.0,0.028773279055950604,1.0,0
43.69464874267578,27.494226455688477,-2.589369773864746,-0.0,-0.0,-1.0,0.1914064690306257,1.0,0
43.05644607543945,27.88809585571289,-2.5740578174591064,-0.0,-0.0,-1.0,0.04435403772492638,1.0,0
43.179176330566406,27.880329132080078,-2.591449737548828,0.5226076681891796,-0.5979868934179322,-0.6076947428193192,0.034088697898572336,3.0,0
43.427913665771484,25.727582931518555,-2.1679301261901855,-0.0,-0.0,-1.0,0.08753393868083822,1.0,0
44.769264221191406,25.679712295532227,-2.3966689109802246,-0.0,-0.0,-1.0,0.03540662417424727,2.0,0
43.9862060546875,25.99618911743164,-2.320230007171631,-0.0,-0.0,-1.0,0.2650420742980668,1.0,0
44.42938232421875,26.0211124420166,-2.4034156799316406,-0.0,-0.0,-1.0,0.03182140644126622,2.0,0
44.703426361083984,25.871471405029297,-2.4225873947143555,-0.0,-0.0,-1.0,0.07685876415123938,1.0,0
43.08953857421875,26.437164306640625,-2.2629337310791016,-0.0,-0.0,-1.0,0.15274594453186258,1.0,0
44.068885803222656,26.252948760986328,-2.387279510498047,-0.0,-0.0,-1.0,0.10754662885514245,1.0,0
42.81602478027344,27.734575271606445,-2.502777099609375,-0.0,-0.0,-1.0,0.053002168977770166,1.0,0
44.83370590209961,27.46945571899414,-2.205477476119995,-0.0,-0.0,-1.0,0.10317937770760474,1.0,0
44.485618591308594,26.984113693237305,-2.066861152648926,-0.0,-0.0,-1.0,0.10279182246556753,1.0,0
44.35921096801758,27.080326080322266,-2.065876007080078,-0.0,-0.0,-1.0,0.10785579298099637,1.0,0
42.88972091674805,25.833118438720703,-2.488265037536621,-0.0,-0.0,-1.0,0.04590767576628048,1.0,0
42.74541091918945,25.921371459960938,-2.4834065437316895,-0.0,-0.0,-1.0,0.039698829174700134,1.0,0
44.05274963378906,25.783781051635742,-2.224316120147705,-0.0,-0.0,-1.0,0.13305452276040267,1.0,0
44.8200569152832,25.795856475830078,-2.3663578033447266,-0.0,-0.0,-1.0,0.04722169117354733,2.0,0
43.97347640991211,26.084457397460938,-2.274801731109619,-0.0,-0.0,-1.0,0.16208688954376588,1.0,0
44.55720901489258,26.028610229492188,-2.3670248985290527,-0.0,-0.0,-1.0,0.20110559432317332,1.0,0
44.81123352050781,25.988487243652344,-2.4049081802368164,-0.0,-0.0,-1.0,0.1213437521441774,2.0,0
43.13548278808594,26.43707275390625,-2.209379196166992,-0.0,-0.0,-1.0,0.19540805605748146,2.0,0
44.604286193847656,26.543827056884766,-2.485069751739502,-0.0,-0.0,-1.0,0.15070524955876388,1.0,0
44.848167419433594,26.475637435913086,-2.5142736434936523,-0.0,-0.0,-1.0,0.04364307889932946,1.0,0
44.461090087890625,26.7110595703125,-2.49582576751709,-0.0,-0.0,-1.0,0.11703856313294081,2.0,0
44.04338836669922,27.406856536865234,-2.577195167541504,-0.0,-0.0,-1.0,0.0914090402218223,1.0,0
44.35664749145508,27.203210830688477,-2.585176944732666,-0.0,-0.0,-1.0,0.14699611793394396,1.0,0
43.74930191040039,27.678390502929688,-2.589789867401123,-0.0,-0.0,-1.0,0.10352602928614812,2.0,0
43.8590202331543,27.4860782623291,-2.564307689666748,-0.0,-0.0,-1.0,0.1405891628844829,1.0,0
42.85029220581055,27.987382888793945,-2.519470691680908,-0.0,-0.0,-1.0,0.04533616547637654,1.0,0
43.26693344116211,27.989139556884766,-2.584040641784668,-0.0,-0.0,-1.0,0.03760318524811668,2.0,0
43.58314514160156,27.916542053222656,-2.6171560287475586,-0.0,-0.0,-1.0,0.01760617753321699,1.0,0
44.591732025146484,27.12981414794922,-2.086124897003174,-0.8119469359476075,-0.5561353951600212,-0.17735725374367786,0.12321900601217713,5.0,0
44.780704498291016,27.515979766845703,-2.187519073486328,-0.0,-0.0,-1.0,0.17612064761371157,2.0,0
44.673011779785156,25.82111358642578,-2.3830695152282715,0.6535569808139882,-0.37914048015979346,-0.6550692857503743,0.09088061591981209,3.0,0
43.985740661621094,26.144227981567383,-2.3573718070983887,-0.0,-0.0,-1.0,0.19911956283289511,1.0,0
44.5345458984375,26.033870697021484,-2.414846897125244,-0.0,-0.0,-1.0,0.0971133635159202,1.0,0
44.82483673095703,26.048969268798828,-2.4657793045043945,-0.0,-0.0,-1.0,0.11078232470142745,1.0,0
43.156150817871094,26.43848991394043,-2.31439471244812,-0.0,-0.0,-1.0,0.19540805605748152,1.0,0
44.05295944213867,26.305805206298828,-2.41003155708313,-0.0,-0.0,-1.0,0.10232766852386668,1.0,0
44.498321533203125,26.564441680908203,-2.546342372894287,-0.0,-0.0,-1.0,0.11634626625388945,1.0,0
44.77759552001953,26.33351707458496,-2.5307300090789795,-0.0,-0.0,-1.0,0.0841839310291548,1.0,0
44.46467590332031,26.906475067138672,-2.6307387351989746,-0.0,-0.0,-1.0,0.12032164369992868,1.0,0
43.01750946044922,27.436250686645508,-2.5696218013763428,-0.0,-0.0,-1.0,0.03625681100833227,2.0,0
43.26150131225586,27.452289581298828,-2.606015205383301,-0.0,-0.0,-1.0,0.04516830725677374,1.0,0
43.75352478027344,27.342971801757812,-2.6433441638946533,-0.0,-0.0,-1.0,0.2108077657152063,1.0,0
44.11925506591797,27.212379455566406,-2.6603736877441406,-0.0,-0.0,-1.0,0.0451509410678115,2.0,0
42.90340805053711,27.58717155456543,-2.596989154815674,-0.93888255085321,-0.17446244003370295,0.2967531174576878,0.040555060963806594,3.0,0
43.35263442993164,27.500463485717773,-2.6314914226531982,-0.0,-0.0,-1.0,0.059334551072383376,1.0,0
43.587730407714844,27.46088981628418,-2.652365207672119,-0.0,-0.0,-1.0,0.15952146166837786,1.0,0
43.853355407714844,25.819042205810547,-2.251938581466675,-0.0,-0.0,-1.0,0.09579050332614977,1.0,0
43.93543243408203,25.715240478515625,-2.2376670837402344,-0.0,-0.0,-1.0,0.07608040370626437,1.0,0
44.294960021972656,27.042415618896484,-2.1468112468719482,-0.0,-0.0,-1.0,0.12973209800496524,1.0,0
44.40932846069336,26.967077255249023,-2.143937349319458,-0.0,-0.0,-1.0,0.12037532091890692,1.0,0
44.6354866027832,27.200124740600586,-2.227447032928467,-0.0,-0.0,-1.0,0.12822857195022436,1.0,0
44.89616012573242,27.56003761291504,-2.344994068145752,-0.0,-0.0,-1.0,0.202928661014254,1.0,0
44.80867385864258,27.946706771850586,-2.423999786376953,-0.0,-0.0,-1.0,0.18529766671128825,1.0,0
44.39741516113281,25.706680297851562,-2.4646947383880615,-0.0,-0.0,-1.0,0.020587477068150565,1.0,0
43.90065002441406,26.181961059570312,-2.526261806488037,-0.0,-0.0,-1.0,0.061920053831497734,1.0,0
44.08203887939453,25.908422470092773,-2.4728829860687256,-0.0,-0.0,-1.0,0.17386459812982658,2.0,0
44.768211364746094,26.147933959960938,-2.19136905670166,-0.0,-0.0,-1.0,0.13650599334478608,1.0,0
44.94021224975586,26.109691619873047,-2.2063214778900146,-0.36181007380858526,-0.3215038518157802,-0.8750592801394903,0.2295177436970551,3.0,0
43.1435546875,26.528682708740234,-2.523489475250244,-0.0,-0.0,-1.0,0.20863454024025418,1.0,0
43.52909851074219,26.421443939208984,-2.5439186096191406,-0.0,-0.0,-1.0,0.041922267299694456,1.0,0
43.71104049682617,26.31625747680664,-2.538196086883545,-0.0,-0.0,-1.0,0.04131442352385514,1.0,0
44.39777374267578,27.056629180908203,-2.3785641193389893,-0.0,-0.0,-1.0,0.18010583141707284,2.0,0
44.56950378417969,26.991485595703125,-2.383922815322876,-0.0,-0.0,-1.0,0.20827105432920254,1.0,0
43.73320007324219,27.50680923461914,-2.4174203872680664,-0.0,-0.0,-1.0,0.18694234888960098,2.0,0
44.35390853881836,27.372570037841797,-2.4573099613189697,-0.0,-0.0,-1.0,0.12923889674127367,1.0,0
44.67733383178711,27.28815460205078,-2.4766948223114014,-0.2635871000476532,-0.9545904342508172,-0.13884863530227673,0.17893740872542596,3.0,0
45.11649703979492,27.205245971679688,-2.5143778324127197,-0.0,-0.0,-1.0,0.07829962951445175,1.0,0
43.937164306640625,27.694622039794922,-2.492828607559204,-0.0,-0.0,-1.0,0.0585864644321914,1.0,0
44.26832580566406,27.65443992614746,-2.5223276615142822,-0.2857790802681858,-0.18305206555719933,-0.940649912866797,0.08310280766284131,3.0,0
44.650299072265625,27.67084503173828,-2.574946880340576,-0.0,-0.0,-1.0,0.1058924065255562,1.0,0
44.19163513183594,27.966449737548828,-2.5972683429718018,-0.0,-0.0,-1.0,0.018162210313476406,1.0,0
43.9674186706543,25.85918617248535,-2.004756450653076,-0.0,-0.0,-1.0,0.15595649824343086,1.0,0
44.68064880371094,27.53304100036621,-2.0476107597351074,-0.13721138143517067,0.02475958059460848,-0.9902322959656643,0.14893810126912255,3.0,0
43.29707717895508,25.761722564697266,-2.2724671363830566,-0.0,-0.0,-1.0,0.06129275546166517,1.0,0
44.26199722290039,25.796363830566406,-2.4327685832977295,-0.0,-0.0,-1.0,0.133320725118078,2.0,0
44.17256546020508,26.19564437866211,-2.539381265640259,-0.0,-0.0,-1.0,0.10536470045444732,1.0,0
44.386592864990234,25.990800857543945,-2.5119051933288574,-0.0,-0.0,-1.0,0.0561536275787996,1.0,0
43.32932662963867,26.519210815429688,-2.5138309001922607,-0.0,-0.0,-1.0,0.13522056623174564,1.0,0
43.740684509277344,26.531660079956055,-2.5767951011657715,-0.0,-0.0,-1.0,0.019757430174234255,1.0,0
44.05889129638672,26.43145751953125,-2.593646287918091,-0.0,-0.0,-1.0,0.06449166817772672,1.0,0
43.575469970703125,26.794084548950195,-2.6345279216766357,-0.0,-0.0,-1.0,0.0074904636257048475,1.0,0
44.519229888916016,27.03943634033203,-2.3823177814483643,-0.4595983198055427,0.6282426741940297,-0.6277583346746234,0.14243860974353387,3.0,0
44.25059127807617,27.478288650512695,-2.465902090072632,-0.0,-0.0,-1.0,0.09361170987227287,2.0,0
44.49101257324219,27.366039276123047,-2.4673120975494385,-0.0,-0.0,-1.0,0.15534141694558481,1.0,0
44.930641174316406,27.200580596923828,-2.484055995941162,-0.0,-0.0,-1.0,0.08482458640046453,1.0,0
45.20691680908203,27.23089027404785,-2.532252073287964,-0.0,-0.0,-1.0,0.07362546399882011,1.0,0
44.2531623840332,27.690994262695312,-2.524834394454956,-0.2857790802681858,-0.18305206555719933,-0.940649912866797,0.06426834426661214,3.0,0
44.49590301513672,27.60757827758789,-2.5340545177459717,-0.0,-0.0,-1.0,0.03537492477378584,1.0,0
44.24981689453125,28.117115020751953,-2.6422231197357178,-0.0,-0.0,-1.0,0.013648884212475157,1.0,0
43.839080810546875,25.868656158447266,-1.9701974391937256,-0.0,-0.0,-1.0,0.14056996178779185,1.0,0
43.933067321777344,25.799945831298828,-1.9646074771881104,-0.0,-0.0,-1.0,0.17975782555721595,2.0,0
44.63374710083008,25.962186813354492,-2.1096394062042236,-0.0,-0.0,-1.0,0.1464233246596596,1.0,0
44.90317916870117,26.093852996826172,-2.185190200805664,-0.5057841083593088,0.8183069830183961,-0.2730496608210844,0.21198746731946036,3.0,0
44.67841720581055,27.485078811645508,-2.0485007762908936,-0.0,-0.0,-1.0,0.13323958857646875,2.0,0
44.611270904541016,27.700469970703125,-2.0919406414031982,-0.0,-0.0,-1.0,0.20427026040740537,1.0,0
44.86863708496094,27.508464813232422,-2.077178478240967,0.7063575909230532,-0.28848548397802143,-0.6464016392919713,0.15036866772474752,3.0,0
44.44677734375,26.095088958740234,-2.505490779876709,-0.0,-0.0,-1.0,0.06324202187381288,2.0,0
44.372615814208984,26.352014541625977,-2.576033592224121,-0.0,-0.0,-1.0,0.08527611134494412,1.0,0
44.97932434082031,27.182863235473633,-2.46553635597229,-0.0,-0.0,-1.0,0.07827379501223326,2.0,0
45.17573165893555,27.307125091552734,-2.5276200771331787,-0.0,-0.0,-1.0,0.054706016116084416,1.0,0
44.89643096923828,27.5340576171875,-2.5537030696868896,-0.0,-0.0,-1.0,0.16511524515742138,1.0,0
44.91637420654297,26.111591339111328,-2.1564717292785645,-0.0,-0.0,-1.0,0.16324054878440855,2.0,0
43.1092414855957,28.02058982849121,-2.5203237533569336,-0.0,-0.0,-1.0,0.035936504630888655,2.0,0
43.29582214355469,28.080018997192383,-2.5352625846862793,-0.0,-0.0,-1.0,0.036492965458697485,1.0,0
43.614952087402344,27.435855865478516,-2.3200855255126953,-0.0,-0.0,-1.0,0.21348044242849704,1.0,0
44.789276123046875,27.314376831054688,-2.0532474517822266,-0.0,-0.0,-1.0,0.09307671646276497,1.0,0
43.38549041748047,26.111892700195312,-2.540059804916382,-0.0,-0.0,-1.0,0.05140398227675021,1.0,0
43.31572341918945,26.009300231933594,-2.5254647731781006,-0.0,-0.0,-1.0,0.05727164657268739,1.0,0
43.97758483886719,26.271114349365234,-2.5116145610809326,-0.0,-0.0,-1.0,0.07508982564455265,1.0,0
43.68744659423828,26.009265899658203,-2.484327793121338,-0.0,-0.0,-1.0,0.06650124840504226,1.0,0
44.224021911621094,26.327882766723633,-2.4993152618408203,-0.0,-0.0,-1.0,0.1203547345678649,2.0,0
44.076969146728516,25.838726043701172,-2.4050052165985107,-0.0,-0.0,-1.0,0.19240221176395175,1.0,0
44.39454650878906,25.79637336730957,-2.362793207168579,-0.0,-0.0,-1.0,0.026713811501976274,1.0,0
43.79446792602539,25.82088851928711,-1.8667762279510498,-0.0,-0.0,-1.0,0.16691128066291538,1.0,0
42.89659118652344,27.230941772460938,-2.587413787841797,-0.0,-0.0,-1.0,0.020675462947326168,1.0,0
42.81729507446289,27.127500534057617,-2.5738003253936768,-0.0,-0.0,-1.0,0.01780345282058183,1.0,0
43.62302780151367,27.57518768310547,-2.591963529586792,-0.0,-0.0,-1.0,0.15971376126699674,1.0,0
43.45982360839844,27.569683074951172,-2.6053707599639893,-0.0,-0.0,-1.0,0.11439424230882297,1.0,0
44.42195510864258,27.751895904541016,-2.563239574432373,-0.0,-0.0,-1.0,0.03725319300063,1.0,0
43.945152282714844,27.434120178222656,-2.533973455429077,-0.0,-0.0,-1.0,0.10421973972868474,2.0,0
43.79383850097656,27.417369842529297,-2.5434353351593018,-0.0,-0.0,-1.0,0.1836888838363836,1.0,0
44.56550979614258,27.707778930664062,-2.542512893676758,-0.0,-0.0,-1.0,0.0747836982125302,2.0,0
45.17469024658203,27.67520523071289,-2.4907374382019043,-0.0,-0.0,-1.0,0.04335111307696616,2.0,0
44.98182678222656,27.307472229003906,-2.4240944385528564,-0.0,-0.0,-1.0,0.07598253061931953,1.0,0
44.865108489990234,27.77493667602539,-1.9173808097839355,-0.0,-0.0,-1.0,0.17554804449045516,1.0,0
44.74748992919922,26.090679168701172,-2.1788227558135986,-0.0,-0.0,-1.0,0.16676758725624294,1.0,0
44.895748138427734,26.017051696777344,-2.1509010791778564,-0.0,-0.0,-1.0,0.21512616532528572,2.0,0
43.393463134765625,28.02884292602539,-2.613929271697998,-0.0,-0.0,-1.0,0.029719082980121044,1.0,0
43.18837356567383,27.90342140197754,-2.6062636375427246,-0.4823939553538537,-0.2130610756424513,-0.849647603353382,0.03262725866441255,4.0,0
43.66612243652344,28.0423641204834,-2.5940656661987305,-0.0,-0.0,-1.0,0.0149855539424532,1.0,0
42.91077423095703,27.595291137695312,-2.5689101219177246,-0.0,-0.0,-1.0,0.04055506096380661,2.0,0
43.79486846923828,27.778789520263672,-2.5294036865234375,-0.0,-0.0,-1.0,0.06119905725576681,1.0,0
43.73052978515625,27.46512222290039,-2.470465660095215,-0.0,-0.0,-1.0,0.2340474700362669,1.0,0
44.964324951171875,27.483259201049805,-2.380042552947998,-0.0,-0.0,-1.0,0.20021774205261547,2.0,0
44.738861083984375,27.22553253173828,-2.3421664237976074,-0.0,-0.0,-1.0,0.13809358511113157,1.0,0
44.390960693359375,26.914518356323242,-2.303802490234375,-0.0,-0.0,-1.0,0.21175284800625674,1.0,0
44.786590576171875,26.208881378173828,-2.1271615028381348,-0.0,-0.0,-1.0,0.11695930554547816,2.0,0
44.43431854248047,26.091259002685547,-2.4924731254577637,-0.0,-0.0,-1.0,0.06448892985321056,2.0,0
43.88003158569336,25.8519287109375,-2.4878764152526855,-0.0,-0.0,-1.0,0.1266450009791698,2.0,0
43.735286712646484,25.820438385009766,-2.494507312774658,-0.0,-0.0,-1.0,0.09836857013039177,2.0,0
44.64928436279297,27.01653289794922,-2.077486991882324,-0.0,-0.0,-1.0,0.1684402973356244,1.0,0
44.406192779541016,26.920372009277344,-2.0753378868103027,-0.0,-0.0,-1.0,0.18365200200310142,1.0,0
44.6680908203125,25.696025848388672,-2.383035659790039,0.9447602786523206,0.030757122986001133,-0.32631582135473225,0.04160417727353921,3.0,0
44.31563949584961,25.968120574951172,-2.474975824356079,-0.0,-0.0,-1.0,0.025720528603391943,2.0,0
43.84318923950195,25.837345123291016,-2.4871459007263184,-0.0,-0.0,-1.0,0.12664500097916986,2.0,0
43.663883209228516,25.773521423339844,-2.4894797801971436,-0.0,-0.0,-1.0,0.08218536002910294,1.0,0
44.46138000488281,25.891944885253906,-2.4452638626098633,-0.0,-0.0,-1.0,0.05173768176610554,1.0,0
44.671783447265625,25.6630859375,-2.3754494190216064,0.9447602786523206,0.030757122986001133,-0.32631582135473225,0.03731726208512228,3.0,0
44.58498001098633,26.447620391845703,-2.5360188484191895,-0.0,-0.0,-1.0,0.05661543340208363,1.0,0
44.3417854309082,26.19179916381836,-2.490096092224121,-0.0,-0.0,-1.0,0.09519486169123223,1.0,0
43.719722747802734,26.22334098815918,-2.5386428833007812,-0.0,-0.0,-1.0,0.05101382570145687,1.0,0
44.8536491394043,27.43918228149414,-2.1468400955200195,-0.0,-0.0,-1.0,0.13183302626478619,1.0,0
45.17926788330078,25.725080490112305,-2.331758499145508,-0.0,-0.0,-1.0,0.19847912963175587,2.0,0
44.43938064575195,26.13671112060547,-2.4711198806762695,-0.0,-0.0,-1.0,0.0819688319884758,2.0,0
44.6802978515625,25.68132972717285,-2.34907865524292,0.9447602786523206,0.030757122986001133,-0.32631582135473225,0.05867226406636922,3.0,0
43.228084564208984,25.716690063476562,-2.457914352416992,-0.0,-0.0,-1.0,0.05206070738458277,1.0,0
44.42210388183594,26.97372817993164,-2.0722994804382324,-0.0,-0.0,-1.0,0.12231665274186301,1.0,0
43.99924087524414,25.860553741455078,-1.8717080354690552,-0.0,-0.0,-1.0,0.125766188232568,1.0,0
44.545005798339844,27.10639190673828,-2.5343918800354004,-0.0,-0.0,-1.0,0.09470161300504014,1.0,0
44.13751983642578,27.44845199584961,-2.6417012214660645,-0.0,-0.0,-1.0,0.09665024535938686,1.0,0
44.6214485168457,27.000877380371094,-2.504788637161255,-0.0,-0.0,-1.0,0.18648035941334715,2.0,0
43.593387603759766,27.559085845947266,-2.70754337310791,-0.0,-0.0,-1.0,0.09333929287755907,1.0,0
43.48906326293945,27.515052795410156,-2.705582857131958,-0.0,-0.0,-1.0,0.10902798400511528,1.0,0
42.8621826171875,26.99079132080078,-2.6392922401428223,-0.0,-0.0,-1.0,0.01436411400183404,1.0,0
45.161102294921875,26.090778350830078,-2.258507013320923,-0.0,-0.0,-1.0,0.13155457757198524,1.0,0
44.880104064941406,26.10171127319336,-2.2778525352478027,-0.6905258946970714,-0.25077050724696565,-0.6784453857517999,0.13354537891987356,3.0,0
44.66510009765625,25.99976921081543,-2.2676775455474854,-0.0,-0.0,-1.0,0.14703809324321632,1.0,0
43.34605026245117,25.835100173950195,-2.332454204559326,-0.0,-0.0,-1.0,0.0623063061119171,2.0,0
45.05109786987305,27.600326538085938,-2.4636428356170654,-0.0,-0.0,-1.0,0.19670345521085558,1.0,0
44.867549896240234,27.32748031616211,-2.4142863750457764,-0.21039756179552802,0.5720642842083223,-0.7927643538427527,0.11715424436555893,3.0,0
44.404624938964844,27.103145599365234,-2.3982818126678467,-1.8776628807292312e-05,0.8633168444066723,-0.5046622888736024,0.09466778061374989,3.0,0
44.25577926635742,27.407276153564453,-2.4790353775024414,-0.0,-0.0,-1.0,0.09660508506762128,2.0,0
43.94316864013672,27.524349212646484,-2.531297206878662,-0.0,-0.0,-1.0,0.09850309912040561,2.0,0
43.336891174316406,27.606945037841797,-2.6033694744110107,-0.0,-0.0,-1.0,0.03914499949114075,2.0,0
45.1561164855957,25.66118621826172,-2.0136735439300537,-0.0,-0.0,-1.0,0.18214415387139052,1.0,0
44.80961990356445,26.16616439819336,-2.1543304920196533,-0.0,-0.0,-1.0,0.18848962586117982,2.0,0
44.46355056762695,26.060344696044922,-2.1575381755828857,-0.0,-0.0,-1.0,0.20077594332585066,1.0,0
43.021541595458984,26.399248123168945,-2.365463972091675,-0.0,-0.0,-1.0,0.11180105647019316,1.0,0
44.22739791870117,27.383573532104492,-2.6110193729400635,-0.0,-0.0,-1.0,0.09083008787274982,1.0,0
44.174224853515625,27.215347290039062,-2.5732674598693848,-0.0,-0.0,-1.0,0.19990340420922567,1.0,0
43.65365982055664,27.32174301147461,-2.6412036418914795,-0.0,-0.0,-1.0,0.18371144991913269,1.0,0
45.020423889160156,27.171648025512695,-2.504643678665161,-0.0,-0.0,-1.0,0.07278487558520819,1.0,0
44.525638580322266,26.97510528564453,-2.4881200790405273,-0.0,-0.0,-1.0,0.17937212264316613,2.0,0
45.096923828125,26.021564483642578,-2.2125651836395264,-0.0,-0.0,-1.0,0.24483926736445666,1.0,0
44.927040100097656,26.039901733398438,-2.2279727458953857,-0.0,-0.0,-1.0,0.2648707122524448,2.0,0
44.59397506713867,26.479022979736328,-2.359809637069702,-0.0,-0.0,-1.0,0.19041592199104576,1.0,0
44.60431671142578,25.92679786682129,-2.221759796142578,-0.0,-0.0,-1.0,0.1445195997529854,1.0,0
42.94401931762695,26.728548049926758,-2.5606026649475098,-0.0,-0.0,-1.0,0.10899809781791943,1.0,0
43.26437759399414,26.393014907836914,-2.447995185852051,-0.0,-0.0,-1.0,0.17625346261510702,2.0,0
42.82841873168945,26.458513259887695,-2.506614923477173,-0.0,-0.0,-1.0,0.1516327222342616,1.0,0
43.24155807495117,25.76003646850586,-2.295874834060669,-0.0,-0.0,-1.0,0.06370344646479396,1.0,0
44.917625427246094,27.58127212524414,-2.2187230587005615,-0.40945161002510133,-0.852357508822845,-0.32532453980781406,0.1254433376861651,3.0,0
44.61872863769531,27.099002838134766,-2.113980770111084,-0.8381439875930361,-0.47332288224714686,-0.27107214021897996,0.11045557910189836,4.0,0
44.91289138793945,27.63482666015625,-2.0272445678710938,-0.0,-0.0,-1.0,0.14228700815659842,1.0,0
44.939884185791016,27.57779312133789,-2.2376227378845215,-0.40945161002510133,-0.852357508822845,-0.32532453980781406,0.12434934192445468,3.0,0
44.61613845825195,27.11127281188965,-2.119096279144287,-0.8381439875930361,-0.47332288224714686,-0.27107214021897996,0.11367257439144614,4.0,0
44.31046676635742,26.997861862182617,-2.0903687477111816,-0.0,-0.0,-1.0,0.12305449575125181,1.0,0
44.73199462890625,27.837793350219727,-2.2162556648254395,-0.0,-0.0,-1.0,0.18499439539381526,1.0,0
44.87468719482422,27.574962615966797,-2.156484603881836,0.7684484165340283,0.5063885722577003,-0.39122582355099217,0.17970544790430054,3.0,0
44.642608642578125,27.252138137817383,-2.0717363357543945,-0.0,-0.0,-1.0,0.11175923005535648,1.0,0
44.73291015625,27.546831130981445,-2.0633859634399414,-0.0,-0.0,-1.0,0.18337051473780322,1.0,0
44.877952575683594,27.847373962402344,-1.933348298072815,-0.0,-0.0,-1.0,0.16735168672993625,1.0,0
44.77954864501953,27.89532470703125,-2.2111427783966064,-0.0,-0.0,-1.0,0.11566014086923183,2.0,0
44.65725326538086,27.10030746459961,-2.0331027507781982,-0.0,-0.0,-1.0,0.11267516701389552,2.0,0
44.72822570800781,27.434711456298828,-2.1242589950561523,-0.0,-0.0,-1.0,0.15103332530951974,1.0,0
44.6285400390625,27.115001678466797,-2.0507287979125977,0.3778453825818818,-0.3087161866559251,-0.8728844041212876,0.11267516701389556,3.0,0
44.28990936279297,26.971649169921875,-1.9792110919952393,-0.0,-0.0,-1.0,0.12559597042414686,1.0,0
44.741939544677734,28.124229431152344,-2.6070282459259033,-0.0,-0.0,-1.0,0.11565410469198377,1.0,0
44.914649963378906,27.900653839111328,-2.592216730117798,-0.0,-0.0,-1.0,0.034405317791599034,1.0,0
44.768699645996094,27.94633674621582,-2.5777649879455566,-0.0,-0.0,-1.0,0.031583665704439934,1.0,0
44.49620056152344,28.069751739501953,-2.558838129043579,-0.0,-0.0,-1.0,0.06009225186125597,2.0,0
44.80296325683594,27.203636169433594,-2.446355104446411,-0.0,-0.0,-1.0,0.13655243478000637,1.0,0
44.86033248901367,27.1463680267334,-2.4453675746917725,-0.0,-0.0,-1.0,0.07524578465213166,1.0,0
44.6232795715332,27.184341430664062,-2.4136698246002197,-0.0,-0.0,-1.0,0.13645579896788115,2.0,0
44.459617614746094,27.063703536987305,-2.3652615547180176,-0.0,-0.0,-1.0,0.14468877682136932,1.0,0
44.05823516845703,27.213319778442383,-2.329676628112793,-0.0,-0.0,-1.0,0.15631526592065106,1.0,0
45.12299728393555,26.27033233642578,-2.3354485034942627,-0.0,-0.0,-1.0,0.06671960198164968,2.0,0
44.94412612915039,26.16449546813965,-2.2861154079437256,-0.0,-0.0,-1.0,0.21282709400835115,1.0,0
44.676422119140625,26.072040557861328,-2.2237508296966553,-0.0,-0.0,-1.0,0.06596770861068862,2.0,0
44.52422332763672,25.97085189819336,-2.179978132247925,-0.0,-0.0,-1.0,0.15990893175735862,1.0,0
44.033592224121094,25.842975616455078,-2.074566125869751,-0.0,-0.0,-1.0,0.15292618284287188,1.0,0
44.97416687011719,28.08913230895996,-2.6101956367492676,-0.0,-0.0,-1.0,0.11071935180700367,1.0,0
44.962318420410156,27.99989128112793,-2.592813730239868,-0.0,-0.0,-1.0,0.10144196243591969,1.0,0
44.84873580932617,27.576820373535156,-2.5013351440429688,-0.0,-0.0,-1.0,0.2210935793381707,2.0,0
44.980926513671875,27.225814819335938,-2.463982105255127,-0.0,-0.0,-1.0,0.08717350153449498,2.0,0
44.72324752807617,27.188671112060547,-2.41451096534729,-0.0,-0.0,-1.0,0.1828330848540599,1.0,0
44.547664642333984,27.07630157470703,-2.366241931915283,-0.2524027464362928,0.5643904888176067,-0.7859747004348417,0.22978438954179708,4.0,0
44.16630172729492,27.12342643737793,-2.3119864463806152,-0.0,-0.0,-1.0,0.07655229493989289,1.0,0
45.172969818115234,26.2247257232666,-2.3348336219787598,-0.0,-0.0,-1.0,0.05695881407843957,1.0,0
44.94353485107422,27.828685760498047,-1.961601734161377,-0.0,-0.0,-1.0,0.14233378555505963,1.0,0
44.79503631591797,26.11312484741211,-2.2498459815979004,-0.0,-0.0,-1.0,0.13327855369896277,1.0,0
44.197269439697266,25.767805099487305,-2.089362859725952,-0.0,-0.0,-1.0,0.10758181210878144,1.0,0
43.90940475463867,25.858280181884766,-2.0544629096984863,-0.0,-0.0,-1.0,0.14295343352692613,2.0,0
44.865821838378906,27.559646606445312,-2.1937224864959717,-0.0,-0.0,-1.0,0.1615871202885871,2.0,0
44.08549118041992,27.943988800048828,-2.5968828201293945,-0.0,-0.0,-1.0,0.020410913025621757,2.0,0
44.57981491088867,27.428852081298828,-2.604365348815918,-0.0,-0.0,-1.0,0.06851591036160401,1.0,0
44.35113525390625,27.37110137939453,-2.5548043251037598,-0.0,-0.0,-1.0,0.09206101312419626,1.0,0
44.086246490478516,27.488143920898438,-2.5259900093078613,-0.0,-0.0,-1.0,0.10503202450325452,2.0,0
43.880393981933594,27.469127655029297,-2.4869890213012695,-0.0,-0.0,-1.0,0.1259895571453361,1.0,0
43.115570068359375,27.839279174804688,-2.4170188903808594,-0.0,-0.0,-1.0,0.041954774660805556,1.0,0
44.71135711669922,26.66775131225586,-2.51755428314209,-0.0,-0.0,-1.0,0.1263313228017215,1.0,0
44.45847702026367,26.989360809326172,-2.5173935890197754,-0.0,-0.0,-1.0,0.18582381445771098,1.0,0
44.71604919433594,26.5670166015625,-2.5042290687561035,-0.0,-0.0,-1.0,0.12180940815096503,1.0,0
44.41109848022461,26.675872802734375,-2.463075637817383,-0.0,-0.0,-1.0,0.12465040776760138,1.0,0
44.65993118286133,26.095317840576172,-2.428341865539551,-0.0,-0.0,-1.0,0.19313966146261444,2.0,0
44.64822769165039,25.779197692871094,-2.3835363388061523,-0.0,-0.0,-1.0,0.08478807190713518,2.0,0
44.10572052001953,25.825952529907227,-2.286116123199463,-0.0,-0.0,-1.0,0.16295398409127246,1.0,0
44.897708892822266,27.526790618896484,-2.0535888671875,0.7645645623305234,-0.08067648203406402,-0.6394781741974799,0.13991410949949662,4.0,0
43.133766174316406,26.433565139770508,-2.196514129638672,-0.0,-0.0,-1.0,0.19540805605748146,2.0,0
43.39384460449219,25.708662033081055,-2.1363463401794434,-0.0,-0.0,-1.0,0.0707313829080279,1.0,0
45.132720947265625,27.983154296875,-2.5174925327301025,-0.0,-0.0,-1.0,0.09474509138001566,2.0,0
45.04016876220703,28.030139923095703,-2.510265350341797,-0.0,-0.0,-1.0,0.12605965309757117,2.0,0
44.86396408081055,27.569725036621094,-2.4182136058807373,-0.0,-0.0,-1.0,0.25662082231733246,2.0,0
45.141510009765625,27.3470516204834,-2.429884195327759,-0.0,-0.0,-1.0,0.0817285558378025,2.0,0
44.6124267578125,27.292207717895508,-2.340874671936035,-0.0,-0.0,-1.0,0.18137388778955787,1.0,0
42.95209884643555,26.052913665771484,-2.4778378009796143,-0.0,-0.0,-1.0,0.04599088802625261,1.0,0
43.06561279296875,25.908872604370117,-2.474949836730957,-0.0,-0.0,-1.0,0.06443401359911202,1.0,0
42.7164421081543,26.02616310119629,-2.431117057800293,-0.0,-0.0,-1.0,0.06272283132423373,1.0,0
44.60296630859375,27.207138061523438,-2.3275222778320312,-0.0,-0.0,-1.0,0.1403953619477673,2.0,0
45.15178680419922,26.283466339111328,-2.2901504039764404,-0.0,-0.0,-1.0,0.07230062928614271,1.0,0
44.63498306274414,26.05953025817871,-2.177966833114624,-0.0,-0.0,-1.0,0.13936465013717522,2.0,0
44.93486785888672,25.682209014892578,-2.1788926124572754,-0.0,-0.0,-1.0,0.1611120597605897,1.0,0
44.78293991088867,27.51490592956543,-2.3647708892822266,-0.0,-0.0,-1.0,0.1453054266166855,1.0,0
44.56230545043945,27.232593536376953,-2.2972631454467773,-0.0,-0.0,-1.0,0.14158487794287627,1.0,0
42.944091796875,25.94683265686035,-2.4753451347351074,-0.0,-0.0,-1.0,0.04590767576628047,1.0,0
45.173179626464844,26.77242660522461,-2.4663350582122803,-0.0,-0.0,-1.0,0.02976079345900578,2.0,0
42.74687957763672,27.938262939453125,-2.456451416015625,-0.0,-0.0,-1.0,0.05303896245959244,2.0,0
45.09429931640625,27.023662567138672,-2.493725538253784,-0.0,-0.0,-1.0,0.0395483244795359,2.0,0
43.545433044433594,28.118392944335938,-2.533546209335327,-0.0,-0.0,-1.0,0.019999181499109977,1.0,0
44.572593688964844,27.49835968017578,-2.5838623046875,-0.0,-0.0,-1.0,0.06694395386553932,1.0,0
44.6146240234375,25.856430053710938,-2.409174919128418,0.20391996876890128,0.6244263947619119,-0.7539949097055837,0.10637296869378915,5.0,0
44.44133377075195,27.081893920898438,-2.5262718200683594,-0.0,-0.0,-1.0,0.12794115759319952,2.0,0
44.39984130859375,27.47330093383789,-2.5656847953796387,-0.0,-0.0,-1.0,0.08670094839585031,1.0,0
44.51860046386719,27.14954376220703,-2.033224582672119,-0.0,-0.0,-1.0,0.08128803683101883,1.0,0
44.81709289550781,27.59412956237793,-2.1053433418273926,-0.0,-0.0,-1.0,0.19523460004390272,1.0,0
44.954551696777344,26.069894790649414,-2.1271376609802246,-0.0,-0.0,-1.0,0.20362369908006514,1.0,0
44.850624084472656,26.3217716217041,-2.151435375213623,-0.0,-0.0,-1.0,0.15194937648859047,1.0,0
44.28734588623047,27.124563217163086,-2.214282989501953,-0.0,-0.0,-1.0,0.11054512603331174,1.0,0
44.60319519042969,27.292421340942383,-2.2578678131103516,-0.0,-0.0,-1.0,0.11350405254450169,1.0,0
44.8638801574707,27.329143524169922,-2.5080089569091797,-0.0,-0.0,-1.0,0.09053727184126197,2.0,0
44.450843811035156,27.58639144897461,-2.5662689208984375,-0.0,-0.0,-1.0,0.04655402931242332,1.0,0
44.860008239746094,27.814895629882812,-2.6142778396606445,-0.0,-0.0,-1.0,0.04819893653883415,1.0,0
44.84673309326172,26.10045623779297,-2.2434234619140625,-0.6905258946970714,-0.25077050724696565,-0.6784453857517999,0.21528611460887617,3.0,0
