x,y,z,nx,ny,nz,curvature,density,label
7.619652271270752,30.090559005737305,-1.6143579483032227,-0.0,-0.0,-1.0,0.06451551258284428,1.0,0
6.669970512390137,29.606943130493164,-1.5428228378295898,-0.0,-0.0,-1.0,0.0866587314981036,1.0,0
7.41173791885376,30.4229736328125,-1.6494362354278564,-0.0,-0.0,-1.0,0.15103726872567858,2.0,0
6.697746753692627,30.207168579101562,-1.6346685886383057,-0.0,-0.0,-1.0,0.10410741075919812,1.0,0
7.203118801116943,30.267345428466797,-1.6545031070709229,-0.0,-0.0,-1.0,0.18789871966156638,2.0,0
7.249026298522949,30.18960952758789,-1.8456087112426758,-0.0,-0.0,-1.0,0.12113490710762094,1.0,0
6.616769790649414,30.13831329345703,-1.76649808883667,-0.0,-0.0,-1.0,0.05452199078906245,1.0,0
5.501192092895508,29.768775939941406,-1.738882064819336,-0.0,-0.0,-1.0,0.08994125098639649,1.0,0
6.25678825378418,29.31024169921875,-1.5628929138183594,-0.0,-0.0,-1.0,0.070679076243726,1.0,0
5.900073051452637,30.07097816467285,-1.5462406873703003,0.050662194186840856,0.09167556205543773,-0.9944993380601087,0.09849066935152374,5.0,0
7.375744819641113,30.469200134277344,-1.6116628646850586,-0.0,-0.0,-1.0,0.11873857081445068,2.0,0
6.582894802093506,30.2784423828125,-1.6206531524658203,-0.0,-0.0,-1.0,0.06186366111350093,1.0,0
6.2497053146362305,29.22012710571289,-1.6041831970214844,-0.0,-0.0,-1.0,0.09714867545039103,1.0,0
5.465398788452148,29.623783111572266,-1.7516212463378906,-0.0,-0.0,-1.0,0.10884082902276923,1.0,0
6.681174278259277,29.157962799072266,-1.5636835098266602,-0.8407104177624298,-0.28957119258482883,-0.45755274875222984,0.12426309330544275,3.0,0
7.537166595458984,29.94457244873047,-1.8226943016052246,-0.0,-0.0,-1.0,0.06109610247624613,2.0,0
6.176124572753906,29.2554988861084,-1.661618709564209,-0.0,-0.0,-1.0,0.08959290837987753,2.0,0
5.552861213684082,29.591590881347656,-1.7703523635864258,-0.0,-0.0,-1.0,0.1150349500029088,2.0,0
6.846074104309082,29.49658966064453,-1.8362338542938232,-0.0,-0.0,-1.0,0.07071232767448324,1.0,0
5.469536781311035,29.071884155273438,-1.735290288925171,-0.0,-0.0,-1.0,0.04457823407111023,1.0,0
6.936485290527344,30.40777015686035,-1.5190386772155762,-0.0,-0.0,-1.0,0.09814073502178113,1.0,0
7.2999348640441895,30.39815902709961,-1.567669153213501,-0.026078607014704967,0.5697219918127575,-0.8214236168391295,0.14782227149599075,3.0,0
6.464590072631836,29.305950164794922,-1.617671251296997,-0.0,-0.0,-1.0,0.11064924010502343,2.0,0
5.871502876281738,29.772647857666016,-1.6531047821044922,-0.0,-0.0,-1.0,0.14140131128760128,1.0,0
6.441186904907227,29.42450523376465,-1.5996880531311035,-0.0,-0.0,-1.0,0.08879011888648419,1.0,0
7.2111005783081055,30.444135665893555,-1.7681665420532227,-0.0,-0.0,-1.0,0.12264961748507808,1.0,0
6.192009449005127,29.879650115966797,-1.615595817565918,-0.0,-0.0,-1.0,0.06228335755460109,1.0,0
5.45158576965332,28.427125930786133,-1.7070903778076172,-0.0,-0.0,-1.0,0.048730641450577324,1.0,0
5.872814178466797,30.178115844726562,-1.535743236541748,-0.0,-0.0,-1.0,0.12380141623805098,1.0,0
7.703306674957275,29.66398811340332,-1.75697660446167,-0.0,-0.0,-1.0,0.07849211553963076,1.0,0
6.492983341217041,29.424482345581055,-1.6201090812683105,-0.0,-0.0,-1.0,0.09041412033997917,1.0,0
7.20997953414917,30.297645568847656,-1.541027545928955,-0.04066654943706028,-0.2629758159553335,-0.9639449942706847,0.2021863711354232,3.0,0
5.7481560707092285,29.141502380371094,-1.6743168830871582,-0.0,-0.0,-1.0,0.026744332893825596,1.0,0
5.589144706726074,28.393138885498047,-1.6388659477233887,-0.02057287816556912,0.7986036908726684,-0.6015055291587408,0.043990828372856006,3.0,0
7.594205856323242,28.425609588623047,-1.4080944061279297,-0.0,-0.0,-1.0,0.05184208979462402,1.0,0
6.911774158477783,28.964031219482422,-1.5745792388916016,-0.0,-0.0,-1.0,0.08053871690839004,1.0,0
6.40596866607666,30.602638244628906,-1.701672077178955,-0.0,-0.0,-1.0,0.02804239896333064,1.0,0
5.618279457092285,30.03362464904785,-1.5235137939453125,-0.0,-0.0,-1.0,0.114697835688872,1.0,0
5.476633548736572,28.712890625,-1.750272274017334,-0.0,-0.0,-1.0,0.025387924048794714,1.0,0
5.999578475952148,28.412662506103516,-1.707418441772461,-0.0,-0.0,-1.0,0.05312344295078911,1.0,0
5.21643590927124,28.607128143310547,-1.7154507637023926,-0.0,-0.0,-1.0,0.06947007096837964,1.0,0
6.769465446472168,29.84210968017578,-1.775312900543213,-0.0,-0.0,-1.0,0.07942496518608967,1.0,0
6.906774997711182,30.052837371826172,-1.8218331336975098,-0.21796621655284085,0.7035303463964061,-0.6764139118476147,0.04352744511432426,4.0,0
6.090426445007324,29.335268020629883,-1.6682157516479492,-0.0,-0.0,-1.0,0.04101492560082569,1.0,0
5.470396041870117,29.38844108581543,-1.6895928382873535,-0.0,-0.0,-1.0,0.04374391374732243,2.0,0
5.700682640075684,29.56958770751953,-1.7266011238098145,-0.0,-0.0,-1.0,0.09772271573139776,2.0,0
5.365708351135254,29.460290908813477,-1.7076172828674316,-0.0,-0.0,-1.0,0.04818608795723482,1.0,0
7.479351043701172,30.1584415435791,-1.6358599662780762,-0.0,-0.0,-1.0,0.08384923558303593,1.0,0
7.18357515335083,30.284582138061523,-1.677785873413086,-0.0,-0.0,-1.0,0.16274671852464517,2.0,0
7.23400354385376,30.411075592041016,-1.7051506042480469,-0.0,-0.0,-1.0,0.14244885536607177,1.0,0
6.804068088531494,30.171218872070312,-1.6682729721069336,-0.0,-0.0,-1.0,0.09649235998722594,1.0,0
5.7038068771362305,30.19594955444336,-1.730431079864502,-0.0,-0.0,-1.0,0.10080681655116308,1.0,0
5.628848552703857,30.43541145324707,-1.7904763221740723,-0.0,-0.0,-1.0,0.054974686578563255,1.0,0
5.317219257354736,30.3431339263916,-1.7869071960449219,-0.0,-0.0,-1.0,0.050119941389790035,1.0,0
6.584997653961182,29.606054306030273,-1.5467405319213867,-0.0,-0.0,-1.0,0.09505733162489631,1.0,0
6.357872009277344,29.675317764282227,-1.5742363929748535,-0.0,-0.0,-1.0,0.05463690663685166,1.0,0
6.190512657165527,29.96356773376465,-1.6500229835510254,-0.0,-0.0,-1.0,0.063738818869541,2.0,0
6.058603286743164,29.94171714782715,-1.651888370513916,-0.0,-0.0,-1.0,0.07629187049556957,2.0,0
5.301905632019043,29.509260177612305,-1.594369888305664,-0.0,-0.0,-1.0,0.08374687546389048,1.0,0
5.669358253479004,29.796443939208984,-1.6395025253295898,-0.0,-0.0,-1.0,0.15319823791262405,1.0,0
6.180270195007324,28.92763900756836,-1.7581846714019775,-0.0,-0.0,-1.0,0.06828219932380575,1.0,0
5.589503765106201,28.75631332397461,-1.75673508644104,-0.0,-0.0,-1.0,0.034410985521998304,1.0,0
5.308226585388184,28.644466400146484,-1.7513740062713623,-0.0,-0.0,-1.0,0.0444190385085196,1.0,0
6.109814643859863,28.419391632080078,-1.666130781173706,-0.0,-0.0,-1.0,0.057002687374318566,1.0,0
5.449769020080566,28.54315948486328,-1.7244455814361572,-0.0,-0.0,-1.0,0.04568350593045265,1.0,0
6.62192440032959,30.041738510131836,-1.7930161952972412,-0.0,-0.0,-1.0,0.06520661755617872,1.0,0
5.8126678466796875,29.85300636291504,-1.7938411235809326,-0.0,-0.0,-1.0,0.12389216568963696,1.0,0
5.318854808807373,29.961959838867188,-1.8373820781707764,-0.0,-0.0,-1.0,0.049021898899000785,1.0,0
5.2254533767700195,29.995235443115234,-1.8480989933013916,-0.0,-0.0,-1.0,0.04602151816482594,1.0,0
6.237064361572266,28.14814567565918,-1.4658277034759521,-0.0,-0.0,-1.0,0.1281683786677903,1.0,0
5.716426849365234,29.594804763793945,-1.7516591548919678,-0.0,-0.0,-1.0,0.09700026590014581,2.0,0
5.501463413238525,29.58177947998047,-1.759704351425171,-0.0,-0.0,-1.0,0.1258212987194485,1.0,0
6.078813076019287,28.27450942993164,-1.640273094177246,-0.0,-0.0,-1.0,0.14092635586859806,1.0,0
6.147092819213867,28.34906005859375,-1.6511907577514648,-0.0,-0.0,-1.0,0.05323462281663742,1.0,0
7.256562232971191,30.412059783935547,-1.5920696258544922,-0.0,-0.0,-1.0,0.15864214951117375,2.0,0
6.049210548400879,30.0036563873291,-1.574882984161377,-0.0,-0.0,-1.0,0.06816232871832259,2.0,0
7.237425804138184,30.30683135986328,-1.6319406032562256,-0.0,-0.0,-1.0,0.1963072116877234,1.0,0
7.027782440185547,30.588787078857422,-1.7001731395721436,-0.0,-0.0,-1.0,0.06233779696603791,1.0,0
6.4659423828125,30.501964569091797,-1.7078468799591064,-0.0,-0.0,-1.0,0.035319354953730356,1.0,0
6.501548767089844,30.624839782714844,-1.731881856918335,-0.6217854083103825,0.6100484019157898,-0.49114545028156553,0.038632799346043196,3.0,0
6.190359592437744,30.153717041015625,-1.64872145652771,-0.7697559101164942,0.6304387651979076,-0.10011394596391092,0.0679059173455025,3.0,0
6.279668807983398,30.629825592041016,-1.7439801692962646,-0.0,-0.0,-1.0,0.027329055610278857,2.0,0
5.734836578369141,30.23485565185547,-1.6907637119293213,-0.0,-0.0,-1.0,0.11427192931382667,1.0,0
6.037315368652344,29.939117431640625,-1.6119945049285889,-0.20705604031871774,0.8739091114217364,-0.439784789575088,0.06703104268008675,4.0,0
5.857270240783691,29.898101806640625,-1.613386869430542,-0.0,-0.0,-1.0,0.13243375061768187,1.0,0
7.529743671417236,30.49258804321289,-1.6904103755950928,-0.0,-0.0,-1.0,0.12459964480560788,1.0,0
7.275636672973633,30.227313995361328,-1.6419107913970947,-0.0,-0.0,-1.0,0.1456655455790895,1.0,0
7.172083854675293,30.351425170898438,-1.675161600112915,-0.0,-0.0,-1.0,0.1946183662821237,1.0,0
6.594532489776611,30.149173736572266,-1.6601760387420654,-0.0,-0.0,-1.0,0.07599004729209227,1.0,0
6.753299713134766,30.560222625732422,-1.7441394329071045,-0.0,-0.0,-1.0,0.04241812966310923,1.0,0
6.214751720428467,29.924789428710938,-1.6324641704559326,-0.0,-0.0,-1.0,0.062283357554601106,2.0,0
6.398580074310303,30.592926025390625,-1.771641492843628,-0.0,-0.0,-1.0,0.028042398963330634,1.0,0
6.008515357971191,29.934165954589844,-1.647876501083374,-0.0,-0.0,-1.0,0.06493940183990217,2.0,0
6.619009017944336,29.409469604492188,-1.4919497966766357,-0.0,-0.0,-1.0,0.08020859631433477,1.0,0
6.421809196472168,29.390037536621094,-1.4993388652801514,-0.0,-0.0,-1.0,0.0879042773001261,1.0,0
6.39265775680542,29.601287841796875,-1.5486986637115479,-0.0,-0.0,-1.0,0.05381150097490963,1.0,0
5.832171440124512,29.738697052001953,-1.6157925128936768,-0.0,-0.0,-1.0,0.14339514554925056,1.0,0
7.568127632141113,29.86742401123047,-1.748685359954834,-0.0,-0.0,-1.0,0.08934035861195062,1.0,0
7.329203128814697,30.030189514160156,-1.8016395568847656,-0.0,-0.0,-1.0,0.05981820274124705,1.0,0
7.09466552734375,30.103431701660156,-1.8329901695251465,-0.0,-0.0,-1.0,0.10347709010152709,1.0,0
6.668532848358154,29.620758056640625,-1.7395048141479492,-0.0,-0.0,-1.0,0.07904343598130965,1.0,0
6.720599174499512,29.71209716796875,-1.7587413787841797,-0.0,-0.0,-1.0,0.061828865585894136,1.0,0
6.872825622558594,30.049354553222656,-1.8327221870422363,-0.4852769122700659,0.7463378363431625,0.4555064790540721,0.04320954220726967,6.0,0
5.913964748382568,29.52630615234375,-1.7692365646362305,-0.0,-0.0,-1.0,0.05004232564802817,1.0,0
5.574559688568115,29.350128173828125,-1.7526817321777344,-0.0,-0.0,-1.0,0.019849544673844585,2.0,0
5.273789882659912,29.320602416992188,-1.7704353332519531,-0.0,-0.0,-1.0,0.03929355945202217,1.0,0
6.603114128112793,29.172698974609375,-1.6331238746643066,-0.0,-0.0,-1.0,0.16379007416197522,1.0,0
6.748216152191162,29.254806518554688,-1.643998146057129,-0.0,-0.0,-1.0,0.11197211313288229,1.0,0
6.448662757873535,29.161434173583984,-1.640821933746338,-0.0,-0.0,-1.0,0.13882241094437414,2.0,0
6.245196342468262,29.25979232788086,-1.6792922019958496,-0.0,-0.0,-1.0,0.09869281775442447,1.0,0
6.02386474609375,28.220928192138672,-1.4407081604003906,-0.0,-0.0,-1.0,0.13849194807123172,1.0,0
6.142820358276367,29.30736541748047,-1.6983790397644043,-0.0,-0.0,-1.0,0.06808831224570641,1.0,0
6.728940486907959,28.846633911132812,-1.847965955734253,-0.0,-0.0,-1.0,0.07175398465567158,1.0,0
6.621066570281982,28.808719635009766,-1.8457953929901123,-0.0,-0.0,-1.0,0.05906590252224175,1.0,0
7.259124755859375,30.378477096557617,-1.5800244808197021,0.3805078907536715,0.3941548853921218,-0.8365737692491412,0.18399840597845796,4.0,0
6.570001602172852,28.761722564697266,-1.8366820812225342,-0.0,-0.0,-1.0,0.08358365843833171,1.0,0
6.077592849731445,28.258378982543945,-1.737670660018921,-0.0,-0.0,-1.0,0.052113520079669365,1.0,0
7.188584327697754,29.65907096862793,-1.4075634479522705,-0.0,-0.0,-1.0,0.10948659484789595,1.0,0
7.62207555770874,29.464662551879883,-1.7852811813354492,-0.0,-0.0,-1.0,0.09908670770559028,1.0,0
7.40731143951416,29.634437561035156,-1.8449444770812988,-0.0,-0.0,-1.0,0.06684601740085439,1.0,0
7.174164295196533,29.443588256835938,-1.8013973236083984,-0.0,-0.0,-1.0,0.049900121399998026,1.0,0
7.267565727233887,29.587326049804688,-1.8382511138916016,-0.0,-0.0,-1.0,0.09724261594787226,1.0,0
6.6296186447143555,29.131364822387695,-1.742703914642334,-0.0,-0.0,-1.0,0.13691828064554543,1.0,0
6.286235809326172,29.018524169921875,-1.732919692993164,-0.0,-0.0,-1.0,0.10636575867962972,1.0,0
5.908758640289307,28.855369567871094,-1.7134499549865723,-0.0,-0.0,-1.0,0.039499856076359245,1.0,0
5.385422706604004,28.33350944519043,-1.6068625450134277,-0.0,-0.0,-1.0,0.048730641450577275,1.0,0
5.497833251953125,28.663860321044922,-1.6914620399475098,-0.0,-0.0,-1.0,0.05450937216739131,1.0,0
5.655728340148926,28.8160343170166,-1.7218961715698242,-0.0,-0.0,-1.0,0.03068597355934704,2.0,0
5.270868301391602,30.15814781188965,-1.8607406616210938,-0.0,-0.0,-1.0,0.03876276800101939,2.0,0
7.694692611694336,29.8209285736084,-1.6312968730926514,-0.0,-0.0,-1.0,0.0819025563758856,1.0,0
7.457204818725586,29.925750732421875,-1.668921947479248,-0.0,-0.0,-1.0,0.08209319462555088,2.0,0
7.385122776031494,30.067550659179688,-1.7107806205749512,-0.0,-0.0,-1.0,0.07304897475221593,1.0,0
7.157163143157959,29.49457550048828,-1.5637145042419434,-0.0,-0.0,-1.0,0.059977475717512004,1.0,0
6.983070373535156,30.19143295288086,-1.7624549865722656,-0.0,-0.0,-1.0,0.08012998735719236,1.0,0
6.435937881469727,29.542236328125,-1.6147608757019043,-0.0,-0.0,-1.0,0.10063749467852076,1.0,0
6.51866340637207,29.794931411743164,-1.6785778999328613,-0.0,-0.0,-1.0,0.06880801545131274,1.0,0
6.692584037780762,30.059947967529297,-1.7411351203918457,-0.0,-0.0,-1.0,0.06556113899570633,1.0,0
6.3379387855529785,29.400482177734375,-1.582270860671997,-0.0,-0.0,-1.0,0.0831516928574393,1.0,0
6.1477251052856445,29.78278160095215,-1.6977534294128418,-0.0,-0.0,-1.0,0.07145551004347686,2.0,0
5.85332727432251,29.897457122802734,-1.7482833862304688,-0.0,-0.0,-1.0,0.2061911565636082,1.0,0
5.690861701965332,30.063444137573242,-1.804185390472412,-0.0,-0.0,-1.0,0.15331621565665068,1.0,0
5.438425064086914,29.810863494873047,-1.7549099922180176,-0.0,-0.0,-1.0,0.07813184266100177,1.0,0
5.519146919250488,30.030792236328125,-1.8078203201293945,-0.0,-0.0,-1.0,0.06476466214135049,1.0,0
7.359251022338867,30.481952667236328,-1.7071852684020996,-0.0,-0.0,-1.0,0.10983555039560618,1.0,0
6.231008529663086,29.044334411621094,-1.5560948848724365,-0.0,-0.0,-1.0,0.14016555825299426,2.0,0
7.410484313964844,30.460285186767578,-1.6566370725631714,-0.0,-0.0,-1.0,0.14226559685366633,2.0,0
6.200508117675781,30.16591453552246,-1.6499412059783936,-0.0,-0.0,-1.0,0.0544097194817044,2.0,0
5.445148468017578,29.537334442138672,-1.7273147106170654,-0.0,-0.0,-1.0,0.08568880470199375,2.0,0
5.525604248046875,29.291370391845703,-1.7098183631896973,-0.0,-0.0,-1.0,0.037515167843379826,2.0,0
6.364418029785156,29.04553985595703,-1.5932466983795166,-0.0,-0.0,-1.0,0.1424633440934822,1.0,0
6.0328521728515625,30.066240310668945,-1.5574820041656494,-0.0,-0.0,-1.0,0.0651189995153342,1.0,0
5.301181793212891,29.542675018310547,-1.7273235321044922,-0.0,-0.0,-1.0,0.05187692372094089,2.0,0
5.240720748901367,29.29242706298828,-1.7175419330596924,-0.0,-0.0,-1.0,0.06112859565773507,1.0,0
6.523969650268555,29.185394287109375,-1.563507080078125,-0.0,-0.0,-1.0,0.13626691370390676,2.0,0
6.087730407714844,29.145030975341797,-1.6102163791656494,-0.0,-0.0,-1.0,0.10003705945579694,1.0,0
6.166536331176758,30.129802703857422,-1.6161428689956665,-0.0,-0.0,-1.0,0.06696907453074159,2.0,0
7.27530574798584,30.31324005126953,-1.539340615272522,0.894524986234339,0.22596817221500173,-0.3856986312501857,0.18134783363287946,3.0,0
6.135677337646484,29.904335021972656,-1.5969539880752563,-0.0,-0.0,-1.0,0.07211741805638443,1.0,0
6.082887649536133,29.85030746459961,-1.5964957475662231,-0.0,-0.0,-1.0,0.07357642177768982,1.0,0
6.51275634765625,29.28097915649414,-1.5030804872512817,-0.0,-0.0,-1.0,0.09655603860955005,1.0,0
6.226007461547852,29.205251693725586,-1.5223313570022583,-0.0,-0.0,-1.0,0.09885484804590183,1.0,0
6.32779598236084,30.624542236328125,-1.6847898960113525,-0.0,-0.0,-1.0,0.02691815558319634,2.0,0
5.896149635314941,29.878267288208008,-1.665344476699829,-0.0,-0.0,-1.0,0.1435308079386714,1.0,0
7.275603294372559,30.276458740234375,-1.560199499130249,0.8200168301116872,0.17157912124375477,-0.5460155707365877,0.18638110997048865,5.0,0
6.4245195388793945,29.282588958740234,-1.5604832172393799,-0.0,-0.0,-1.0,0.10240493376178102,2.0,0
6.340579032897949,30.482135772705078,-1.6940040588378906,-0.0,-0.0,-1.0,0.03094449493314797,1.0,0
6.030764579772949,30.033626556396484,-1.6698932647705078,-0.0,-0.0,-1.0,0.06816232871832273,1.0,0
6.183636665344238,29.658084869384766,-1.6175851821899414,-0.0,-0.0,-1.0,0.04808358690400387,1.0,0
7.203640937805176,30.409299850463867,-1.6208877563476562,-0.0,-0.0,-1.0,0.20727047935297843,2.0,0
7.155106544494629,30.18319320678711,-1.5989410877227783,-0.0,-0.0,-1.0,0.0966142015492139,1.0,0
5.992267608642578,29.00368881225586,-1.5655348300933838,-0.0,-0.0,-1.0,0.057162278607915624,1.0,0
5.772374153137207,29.3677978515625,-1.2683950662612915,-0.0,-0.0,-1.0,0.1389179845278225,1.0,0
6.174930572509766,29.156635284423828,-1.2470074892044067,-0.0,-0.0,-1.0,0.15185929706225737,1.0,0
6.435920715332031,29.05799102783203,-1.563321590423584,-0.0,-0.0,-1.0,0.12578911051880007,1.0,0
6.194080352783203,30.564308166503906,-1.6546943187713623,-0.0,-0.0,-1.0,0.031379998848176646,2.0,0
6.281044006347656,28.908946990966797,-1.5754008293151855,-0.0,-0.0,-1.0,0.11276304750214343,1.0,0
5.25651741027832,28.966747283935547,-1.4515849351882935,-0.0,-0.0,-1.0,0.045381724990205555,1.0,0
5.30616569519043,29.525074005126953,-1.725411057472229,-0.0,-0.0,-1.0,0.05187692372094087,2.0,0
7.344797134399414,30.399822235107422,-1.5679398775100708,-0.0,-0.0,-1.0,0.15419513037839877,2.0,0
7.261711120605469,30.31374168395996,-1.5705758333206177,0.8223626183581105,0.15925953108580468,-0.5462198510540628,0.19630721168772336,4.0,0
6.6627655029296875,29.203781127929688,-1.5588561296463013,-0.0,-0.0,-1.0,0.127424534344901,2.0,0
6.446018218994141,29.12944793701172,-1.5772184133529663,-0.0,-0.0,-1.0,0.135502041130554,1.0,0
7.501908302307129,30.325077056884766,-1.7460198402404785,-0.0,-0.0,-1.0,0.09221532639194514,1.0,0
7.033222198486328,30.17087173461914,-1.8012886047363281,-0.0,-0.0,-1.0,0.10224995673138038,2.0,0
6.850893974304199,30.036834716796875,-1.8183672428131104,-0.6786579694729631,0.7260314875922136,-0.11091275623422449,0.04154515430916433,4.0,0
7.286879539489746,30.355192184448242,-1.602470874786377,-0.0,-0.0,-1.0,0.17086341007392622,2.0,0
6.505353927612305,30.629688262939453,-1.7306768894195557,-0.6217854083103825,0.6100484019157898,-0.49114545028156553,0.0386327993460432,3.0,0
6.433743476867676,30.628921508789062,-1.7409703731536865,-0.0,-0.0,-1.0,0.02896699477107845,1.0,0
6.350394248962402,29.135353088378906,-1.670480489730835,-0.0,-0.0,-1.0,0.15609929321036295,2.0,0
5.994061470031738,29.15066909790039,-1.724452018737793,-0.0,-0.0,-1.0,0.0664401461928777,1.0,0
5.914402008056641,29.11916732788086,-1.7347679138183594,-0.0,-0.0,-1.0,0.03640969224874859,1.0,0
6.487231254577637,29.197708129882812,-1.653435468673706,-0.0,-0.0,-1.0,0.14506994501600912,1.0,0
6.435488700866699,29.155967712402344,-1.6589093208312988,-0.0,-0.0,-1.0,0.13882241094437414,2.0,0
7.429721832275391,30.55834197998047,-1.8005189895629883,-0.0,-0.0,-1.0,0.10415840708404316,1.0,0
7.015201568603516,30.146623611450195,-1.8218169212341309,-0.0,-0.0,-1.0,0.10915798443128331,2.0,0
6.900389671325684,30.07061195373535,-1.8315925598144531,-0.3247959386404562,0.4299108975361995,-0.8424275745856638,0.04352744511432431,5.0,0
6.816418647766113,28.609439849853516,-1.7208707332611084,-0.0,-0.0,-1.0,0.07380073040893567,1.0,0
7.673733711242676,30.452085494995117,-1.710547924041748,-0.0,-0.0,-1.0,0.10943491284714746,2.0,0
7.327086448669434,30.571334838867188,-1.7809324264526367,-0.0,-0.0,-1.0,0.09249923209835771,2.0,0
6.935558319091797,30.101253509521484,-1.8257827758789062,-0.0,-0.0,-1.0,0.04451282858580117,2.0,0
6.84133243560791,30.021156311035156,-1.838991403579712,-0.6786579694729631,0.7260314875922136,-0.11091275623422449,0.037559170203836444,4.0,0
7.653729438781738,29.718006134033203,-1.788097620010376,-0.0,-0.0,-1.0,0.07703988454123799,2.0,0
7.505659103393555,29.610668182373047,-1.8095901012420654,-0.0,-0.0,-1.0,0.09702006182014186,1.0,0
5.863773345947266,30.06210708618164,-1.5432806015014648,-0.10409896174742493,0.09563670211783935,-0.9899580937449485,0.11980095151117255,3.0,0
5.3353376388549805,29.639389038085938,-1.6221590042114258,-0.0,-0.0,-1.0,0.0807847248768368,1.0,0
6.539010047912598,30.231204986572266,-1.6263799667358398,-0.0,-0.0,-1.0,0.04763095636782043,1.0,0
6.06751823425293,30.32114028930664,-1.7140171527862549,-0.0,-0.0,-1.0,0.04312306308302085,1.0,0
6.100555419921875,29.992794036865234,-1.6816911697387695,-0.0,-0.0,-1.0,0.0740946220131216,1.0,0
5.437093734741211,29.51836395263672,-1.7631819248199463,-0.0,-0.0,-1.0,0.049424114437541536,2.0,0
5.503538131713867,29.176790237426758,-1.7271432876586914,-0.0,-0.0,-1.0,0.018438909411354072,1.0,0
6.477931976318359,29.545625686645508,-1.5805997848510742,-0.0,-0.0,-1.0,0.1006374946785208,1.0,0
6.473938941955566,29.31024169921875,-1.5629563331604004,-0.0,-0.0,-1.0,0.09462187707898292,2.0,0
6.34072208404541,29.271320343017578,-1.5836012363433838,-0.0,-0.0,-1.0,0.10052325779260231,1.0,0
6.246659278869629,29.0684871673584,-1.5850739479064941,-0.0,-0.0,-1.0,0.1515076186884432,2.0,0
7.703408241271973,30.48128890991211,-1.8617745637893677,-0.0,-0.0,-1.0,0.10807788117969484,1.0,0
6.003931999206543,30.195514678955078,-1.5416845083236694,-0.0,-0.0,-1.0,0.12568665368150858,2.0,0
7.172107696533203,30.07945442199707,-1.8973277807235718,-0.0,-0.0,-1.0,0.09537280704713086,2.0,0
5.920231819152832,30.102237701416016,-1.5460172891616821,0.5319785238889875,-0.3375144063371559,-0.7765841072516043,0.12442996237255256,3.0,0
7.662056922912598,29.760704040527344,-1.7726751565933228,-0.05176829879285716,0.34817845043726986,-0.9359977616913381,0.08764174171405825,3.0,0
7.064380645751953,28.693878173828125,-1.7479571104049683,-0.0,-0.0,-1.0,0.07247545821457994,1.0,0
7.03254508972168,28.794536590576172,-1.765419602394104,-0.0,-0.0,-1.0,0.0731063641626627,1.0,0
7.082380294799805,28.580772399902344,-1.7317086458206177,-0.0,-0.0,-1.0,0.055897106981775496,1.0,0
7.000840187072754,28.429988861083984,-1.7300077676773071,-0.0,-0.0,-1.0,0.06205661305521309,1.0,0
5.712409973144531,29.578739166259766,-1.5318771600723267,-0.0,-0.0,-1.0,0.19141989127892817,1.0,0
7.658058166503906,28.326034545898438,-1.5960084199905396,-0.0,-0.0,-1.0,0.045147192218441046,1.0,0
7.430538177490234,30.63024139404297,-1.7932378053665161,-0.0,-0.0,-1.0,0.06416544186497147,1.0,0
7.153753280639648,30.192258834838867,-1.7584882974624634,-0.0,-0.0,-1.0,0.10226236042579073,2.0,0
7.458662033081055,29.923011779785156,-1.675702452659607,-0.0,-0.0,-1.0,0.08209319462555091,2.0,0
6.622403144836426,29.799877166748047,-1.769830346107483,-0.0,-0.0,-1.0,0.06541036184119607,1.0,0
6.4242706298828125,29.753894805908203,-1.7907744646072388,-0.0,-0.0,-1.0,0.056273726238146325,1.0,0
6.477540016174316,29.27280044555664,-1.7118202447891235,-0.0,-0.0,-1.0,0.10628973936192118,1.0,0
6.122283935546875,29.15071678161621,-1.7462657690048218,-0.0,-0.0,-1.0,0.10816356162677235,1.0,0
6.375078201293945,29.098800659179688,-1.701245665550232,-0.0,-0.0,-1.0,0.1455540701093377,1.0,0
6.652852535247803,30.61762046813965,-1.5869693756103516,-0.0,-0.0,-1.0,0.038070678359334094,1.0,0
5.858386993408203,28.281829833984375,-1.17399263381958,-0.0,-0.0,-1.0,0.1286345767678607,2.0,0
6.996808052062988,28.99957275390625,-1.7614818811416626,-0.0,-0.0,-1.0,0.07764632863503627,1.0,0
6.975403785705566,28.95153045654297,-1.7528499364852905,-0.0,-0.0,-1.0,0.06854290354403089,1.0,0
5.215405464172363,29.420211791992188,-1.6927835941314697,-0.0,-0.0,-1.0,0.04465835719625009,1.0,0
7.471667289733887,29.914037704467773,-1.7445108890533447,-0.0,-0.0,-1.0,0.06686406352883238,1.0,0
5.727048397064209,29.982852935791016,-1.8481025695800781,-0.0,-0.0,-1.0,0.13621493437454002,2.0,0
5.582026958465576,29.594520568847656,-1.809009075164795,-0.0,-0.0,-1.0,0.10965332122531575,2.0,0
5.293158054351807,30.154542922973633,-1.9039101600646973,-0.0,-0.0,-1.0,0.03876276800101936,2.0,0
7.640164375305176,29.844173431396484,-1.7139840126037598,-0.0,-0.0,-1.0,0.09399902998026424,1.0,0
5.823399066925049,29.556133270263672,-1.8023838996887207,-0.0,-0.0,-1.0,0.1013070621350462,1.0,0
5.667823314666748,28.802568435668945,-1.7096853256225586,-0.0,-0.0,-1.0,0.030525564511721927,2.0,0
5.415781497955322,28.579187393188477,-1.6984772682189941,-0.0,-0.0,-1.0,0.045683505930452666,1.0,0
5.562098503112793,28.833005905151367,-1.7221250534057617,-0.0,-0.0,-1.0,0.03192666778392422,1.0,0
7.409678936004639,30.332874298095703,-1.6687335968017578,-0.0,-0.0,-1.0,0.09253488685789707,1.0,0
7.27224063873291,30.278377532958984,-1.668166160583496,-0.0,-0.0,-1.0,0.19643184457518034,1.0,0
7.113187313079834,30.427509307861328,-1.7000932693481445,-0.0,-0.0,-1.0,0.18025558727795246,1.0,0
6.668606758117676,30.245031356811523,-1.6982402801513672,-0.0,-0.0,-1.0,0.07573695400685788,1.0,0
6.529681205749512,30.62692642211914,-1.7649054527282715,-0.6217854083103825,0.6100484019157898,-0.49114545028156553,0.03863279934604319,3.0,0
5.966555595397949,29.90234375,-1.689039707183838,-0.0,-0.0,-1.0,0.1340077173006986,1.0,0
6.544355392456055,29.424551010131836,-1.58040189743042,-0.0,-0.0,-1.0,0.08535362351485729,1.0,0
7.617902755737305,29.781597137451172,-1.799001932144165,-0.8976889112144256,-0.19374677278633867,-0.3957484134112707,0.08764174171405828,3.0,0
6.066157341003418,28.371103286743164,-1.6353099346160889,-0.0,-0.0,-1.0,0.054482219853989884,1.0,0
5.7068562507629395,28.483858108520508,-1.6735708713531494,-0.0,-0.0,-1.0,0.036720775742962605,2.0,0
5.853264808654785,28.2573184967041,-1.155073642730713,-0.0,-0.0,-1.0,0.10966304204631529,2.0,0
7.254146099090576,30.280689239501953,-1.5790157318115234,0.67709091753472,0.09932733394300626,-0.7291652557025506,0.1963072116877234,4.0,0
7.163809776306152,30.390029907226562,-1.6075334548950195,-0.03374549596773621,-0.5212179642489593,-0.8527561640035576,0.218410567597002,3.0,0
6.040635108947754,29.972217559814453,-1.5937228202819824,0.23572681988158628,0.45142509834407635,-0.8606092301233793,0.05506685296132563,3.0,0
7.4990925788879395,29.97217559814453,-1.7127141952514648,-0.0,-0.0,-1.0,0.08255287084822407,1.0,0
7.342543125152588,29.95055389404297,-1.7150297164916992,-0.0,-0.0,-1.0,0.07882977408879822,1.0,0
7.070652008056641,30.233928680419922,-1.7951340675354004,-0.0,-0.0,-1.0,0.11446337512779378,1.0,0
7.1419358253479,29.572004318237305,-1.6359777450561523,-0.0,-0.0,-1.0,0.057750783599669446,1.0,0
6.806553840637207,29.98467254638672,-1.7506117820739746,-0.0,-0.0,-1.0,0.07391524730698477,1.0,0
6.804287433624268,30.038856506347656,-1.7635149955749512,-0.0,-0.0,-1.0,0.07617136363219394,1.0,0
6.597057342529297,29.441999435424805,-1.6351442337036133,-0.0,-0.0,-1.0,0.11404631240428026,1.0,0
6.432816028594971,29.279172897338867,-1.6067142486572266,-0.7434098922896182,-0.25072046319404584,-0.6200653041266714,0.10298461463606513,4.0,0
6.229296684265137,29.4450740814209,-1.65818452835083,-0.0,-0.0,-1.0,0.04964696615548914,1.0,0
5.91588020324707,29.77765464782715,-1.7562322616577148,-0.0,-0.0,-1.0,0.09450558619996022,2.0,0
5.734790802001953,30.017946243286133,-1.8245577812194824,-0.0,-0.0,-1.0,0.14507442931913272,2.0,0
5.553832530975342,29.67342758178711,-1.756913185119629,-0.0,-0.0,-1.0,0.11120827048235558,1.0,0
5.460905075073242,29.900442123413086,-1.8165669441223145,-0.0,-0.0,-1.0,0.06016166247144317,1.0,0
6.525994300842285,29.19576072692871,-1.5815949440002441,-0.0,-0.0,-1.0,0.12444939078261118,2.0,0
6.90069580078125,29.09343719482422,-1.7752869129180908,-0.0,-0.0,-1.0,0.09876105073322038,1.0,0
6.759276390075684,29.030284881591797,-1.7633540630340576,-0.0,-0.0,-1.0,0.10047982886045231,1.0,0
6.261441230773926,28.799400329589844,-1.7217133045196533,-0.0,-0.0,-1.0,0.08969292622530571,2.0,0
6.063610076904297,28.644607543945312,-1.6900346279144287,-0.0,-0.0,-1.0,0.04984299619397107,2.0,0
5.833321571350098,28.79914093017578,-1.7410643100738525,-0.0,-0.0,-1.0,0.03129447266628755,2.0,0
5.564000129699707,28.66000747680664,-1.7186486721038818,-0.0,-0.0,-1.0,0.05397656655847185,1.0,0
5.232064723968506,28.489917755126953,-1.6932885646820068,-0.0,-0.0,-1.0,0.07486108762321812,1.0,0
7.419904708862305,29.893108367919922,-1.809758186340332,-0.0,-0.0,-1.0,0.05406504868069546,1.0,0
7.1864705085754395,30.074012756347656,-1.8595590591430664,-0.0,-0.0,-1.0,0.09646673715000847,2.0,0
6.937029838562012,30.047893524169922,-1.8556385040283203,-0.6699304899734655,-0.5275103228873929,-0.5224231980407744,0.04451282858580113,3.0,0
5.844471454620361,29.909278869628906,-1.8442168235778809,-0.0,-0.0,-1.0,0.19187551352006663,1.0,0
5.2205095291137695,29.85057830810547,-1.851872444152832,-0.0,-0.0,-1.0,0.036285287193320116,1.0,0
7.611591815948486,29.758148193359375,-1.7732067108154297,-0.8976889112144256,-0.19374677278633867,-0.3957484134112707,0.08764174171405824,3.0,0
6.942978382110596,29.154836654663086,-1.6195082664489746,-0.0,-0.0,-1.0,0.09980537252869182,1.0,0
6.671784400939941,29.484180450439453,-1.7108831405639648,-0.0,-0.0,-1.0,0.08579834922468205,1.0,0
6.705155372619629,29.106204986572266,-1.6103458404541016,-0.0,-0.0,-1.0,0.13177298241931856,1.0,0
6.422956466674805,29.21068572998047,-1.6437315940856934,-0.0,-0.0,-1.0,0.13308824956048368,1.0,0
6.10062313079834,29.487483978271484,-1.7250871658325195,-0.0,-0.0,-1.0,0.013337084089860122,1.0,0
5.934398651123047,29.813697814941406,-1.8161368370056152,-0.0,-0.0,-1.0,0.09885746481752024,1.0,0
5.649851322174072,29.626914978027344,-1.7762422561645508,-0.0,-0.0,-1.0,0.09803768194021688,1.0,0
5.2933244705200195,29.77385711669922,-1.8287625312805176,-0.0,-0.0,-1.0,0.03881737107420444,1.0,0
7.671092987060547,29.347267150878906,-1.7966573238372803,-0.0,-0.0,-1.0,0.08695695674100459,1.0,0
7.032906532287598,29.488739013671875,-1.8337090015411377,-0.0,-0.0,-1.0,0.06492580265178687,1.0,0
6.729445457458496,29.302730560302734,-1.7809555530548096,-0.0,-0.0,-1.0,0.11361115692598116,1.0,0
6.4313249588012695,29.135953903198242,-1.7354185581207275,-0.0,-0.0,-1.0,0.13440774148828616,1.0,0
6.199200630187988,29.10750961303711,-1.7300093173980713,-0.0,-0.0,-1.0,0.13389890141513544,2.0,0
6.043701171875,29.215290069580078,-1.7636373043060303,-0.0,-0.0,-1.0,0.08311317520626335,1.0,0
5.72259521484375,29.412160873413086,-1.8268635272979736,-0.0,-0.0,-1.0,0.07610680334331642,1.0,0
5.597012996673584,29.165409088134766,-1.7588279247283936,-0.0,-0.0,-1.0,0.014907516683152565,1.0,0
5.30286169052124,29.260421752929688,-1.7945067882537842,-0.0,-0.0,-1.0,0.03706876399938908,1.0,0
6.459423542022705,29.077136993408203,-1.7180378437042236,-0.0,-0.0,-1.0,0.1415899736106221,1.0,0
5.521890163421631,29.066417694091797,-1.7322814464569092,-0.0,-0.0,-1.0,0.0203447135616712,1.0,0
6.016341686248779,30.18752670288086,-1.5532019138336182,-0.0,-0.0,-1.0,0.10717909645966414,2.0,0
5.937417030334473,30.097734451293945,-1.532287836074829,0.5319785238889875,-0.3375144063371559,-0.7765841072516043,0.09485461255851782,3.0,0
5.859829902648926,30.105857849121094,-1.5386393070220947,-0.0,-0.0,-1.0,0.14295487830100415,2.0,0
6.157952308654785,30.55695152282715,-1.62117338180542,-0.0,-0.0,-1.0,0.031292920490864504,2.0,0
5.9283447265625,30.0435848236084,-1.5457262992858887,-0.0,-0.0,-1.0,0.06943596182315306,2.0,0
5.734958648681641,29.897104263305664,-1.537233829498291,-0.0,-0.0,-1.0,0.2195177601643497,1.0,0
6.8609819412231445,30.38093376159668,-1.5208444595336914,-0.0,-0.0,-1.0,0.07214225124625058,1.0,0
5.533585071563721,29.531667709350586,-1.79502272605896,-0.0,-0.0,-1.0,0.11126910289441366,1.0,0
5.253250598907471,29.37331199645996,-1.7807233333587646,-0.0,-0.0,-1.0,0.043430639656219655,1.0,0
7.087658882141113,30.241836547851562,-1.8566877841949463,-0.0,-0.0,-1.0,0.09763553707283468,1.0,0
6.8508076667785645,30.025632858276367,-1.8208134174346924,-0.6786579694729631,0.7260314875922136,-0.11091275623422449,0.04154515430916435,4.0,0
6.60959005355835,29.84709930419922,-1.7944896221160889,-0.0,-0.0,-1.0,0.07264118164246322,1.0,0
5.835067272186279,29.506999969482422,-1.7682840824127197,-0.0,-0.0,-1.0,0.08574743400507981,1.0,0
5.494587421417236,29.26740264892578,-1.7392847537994385,-0.0,-0.0,-1.0,0.037042186837703966,2.0,0
7.385436058044434,29.880584716796875,-1.7589399814605713,-0.0,-0.0,-1.0,0.05257568193221935,1.0,0
6.534345626831055,29.663436889648438,-1.7576549053192139,-0.0,-0.0,-1.0,0.09516712215470705,1.0,0
6.364083766937256,29.097959518432617,-1.6413562297821045,-0.0,-0.0,-1.0,0.14511053074875263,2.0,0
6.164225101470947,29.222305297851562,-1.6823184490203857,-0.0,-0.0,-1.0,0.08496556607488934,2.0,0
7.626931190490723,29.686206817626953,-1.7025020122528076,-0.0,-0.0,-1.0,0.08085567282702973,2.0,0
6.511841297149658,29.150897979736328,-1.643829584121704,-0.0,-0.0,-1.0,0.14755845151459418,1.0,0
6.307987213134766,29.01074981689453,-1.6254808902740479,-0.0,-0.0,-1.0,0.11538097206829977,1.0,0
7.381235122680664,30.505884170532227,-1.5938794612884521,-0.0,-0.0,-1.0,0.07613975998492768,2.0,0
7.216322898864746,30.325284957885742,-1.5488355159759521,-0.04066654943706028,-0.2629758159553335,-0.9639449942706847,0.20218637113542315,3.0,0
5.215584754943848,30.566444396972656,-1.8487226963043213,-0.0,-0.0,-1.0,0.04651539517729291,1.0,0
5.7261857986450195,30.519927978515625,-1.8573753833770752,-0.0,-0.0,-1.0,0.0434493678134733,1.0,0
5.982654571533203,29.76693344116211,-1.6998131275177002,-0.0,-0.0,-1.0,0.10444508496349848,1.0,0
6.824410915374756,29.940914154052734,-1.776477575302124,-0.0,-0.0,-1.0,0.07393844415131813,1.0,0
6.167385101318359,29.717012405395508,-1.6964390277862549,-0.0,-0.0,-1.0,0.07417589571877052,1.0,0
7.501701831817627,29.85173225402832,-1.7915232181549072,-0.0,-0.0,-1.0,0.06118544209109751,1.0,0
6.961210250854492,29.924564361572266,-1.7795555591583252,-0.0,-0.0,-1.0,0.061937913306180405,1.0,0
6.469092845916748,29.247360229492188,-1.6048223972320557,-0.0,-0.0,-1.0,0.10854258534585214,2.0,0
6.69484806060791,29.173627853393555,-1.5987217426300049,-0.0,-0.0,-1.0,0.12578450201532335,2.0,0
5.9628190994262695,29.759830474853516,-1.6531620025634766,-0.0,-0.0,-1.0,0.10356183915830551,1.0,0
7.115291118621826,30.182270050048828,-1.7781620025634766,-0.0,-0.0,-1.0,0.09123265879788157,2.0,0
6.855709075927734,29.996082305908203,-1.7306694984436035,-0.0,-0.0,-1.0,0.07617136363219394,1.0,0
6.15286922454834,29.76650047302246,-1.6602964401245117,-0.0,-0.0,-1.0,0.06345981600528382,2.0,0
7.306084632873535,30.0615291595459,-1.7608494758605957,-0.0,-0.0,-1.0,0.07842442065921337,1.0,0
6.501693248748779,29.30213165283203,-1.576770305633545,-0.0,-0.0,-1.0,0.10216167415870861,2.0,0
7.616992950439453,29.70278549194336,-1.7002177238464355,-0.0,-0.0,-1.0,0.077039884541238,2.0,0
5.604667663574219,30.239627838134766,-1.7960355281829834,-0.0,-0.0,-1.0,0.0829511778711164,1.0,0
5.898127555847168,29.760717391967773,-1.7193419933319092,-0.0,-0.0,-1.0,0.10439339474346168,2.0,0
6.084781169891357,29.689285278320312,-1.7177488803863525,-0.0,-0.0,-1.0,0.05762502937445078,1.0,0
7.06974983215332,29.95482635498047,-1.8425967693328857,-0.0,-0.0,-1.0,0.06015025606540172,1.0,0
6.260276794433594,29.132951736450195,-1.6181647777557373,-0.0,-0.0,-1.0,0.14170326655318918,1.0,0
6.490570545196533,29.016611099243164,-1.6112005710601807,-0.0,-0.0,-1.0,0.10651089647836891,1.0,0
6.57874870300293,30.52452278137207,-1.753392219543457,-0.0,-0.0,-1.0,0.04062906217069819,1.0,0
7.106603622436523,30.479463577270508,-1.7697458267211914,-0.0,-0.0,-1.0,0.22630258639554657,1.0,0
6.808553695678711,30.42875862121582,-1.7462596893310547,-0.0,-0.0,-1.0,0.08833108818577723,1.0,0
6.403738975524902,29.873550415039062,-1.6240930557250977,-0.0,-0.0,-1.0,0.06668601653630914,1.0,0
6.297865867614746,29.87678337097168,-1.6198620796203613,-0.0,-0.0,-1.0,0.06787620168779308,1.0,0
7.391940116882324,30.220767974853516,-1.7353515625,-0.0,-0.0,-1.0,0.1129833322208344,1.0,0
7.58656644821167,30.088836669921875,-1.7203154563903809,-0.0,-0.0,-1.0,0.0739586318054465,1.0,0
5.280282020568848,28.483613967895508,-1.6656241416931152,-0.0,-0.0,-1.0,0.043645851627583526,1.0,0
5.677128791809082,28.50526237487793,-1.687330722808838,-0.0,-0.0,-1.0,0.040652913768923646,2.0,0
5.603478908538818,28.383575439453125,-1.6520533561706543,-0.0,-0.0,-1.0,0.04399082837285592,2.0,0
5.728477478027344,28.214509963989258,-1.6269445419311523,-0.0,-0.0,-1.0,0.09666615478758582,1.0,0
5.444951057434082,28.375286102294922,-1.6926584243774414,-0.0,-0.0,-1.0,0.048730641450577435,1.0,0
7.6691975593566895,30.479795455932617,-1.640657901763916,-0.0,-0.0,-1.0,0.10342484252871777,1.0,0
7.125855922698975,30.39448356628418,-1.6087536811828613,-0.012934409681558078,-0.36525451545698945,-0.930817833941996,0.18108184202175354,3.0,0
6.832242012023926,30.623083114624023,-1.667813777923584,-0.0,-0.0,-1.0,0.042847257730108466,1.0,0
6.297577857971191,30.599451065063477,-1.655625820159912,-0.0,-0.0,-1.0,0.027329055610278864,2.0,0
7.266601085662842,30.261457443237305,-1.574242115020752,0.5220937961345371,-0.054051037571247774,-0.8511736329182781,0.18638110997048865,4.0,0
6.085514545440674,30.13498878479004,-1.525468349456787,-0.0,-0.0,-1.0,0.08985025528330097,1.0,0
7.060149669647217,30.1562557220459,-1.8538918495178223,-0.0,-0.0,-1.0,0.10277095795083316,1.0,0
5.541600704193115,30.25661277770996,-1.8030476570129395,-0.0,-0.0,-1.0,0.06337147039662738,1.0,0
7.50076150894165,29.92251968383789,-1.8154826164245605,-0.0,-0.0,-1.0,0.06089752798637562,2.0,0
7.248367786407471,30.022018432617188,-1.8278241157531738,-0.0,-0.0,-1.0,0.07371414036505887,1.0,0
6.246936321258545,29.926115036010742,-1.7458844184875488,-0.0,-0.0,-1.0,0.06532585034766068,1.0,0
5.911612510681152,29.93040657043457,-1.730069637298584,-0.0,-0.0,-1.0,0.13694377442596226,1.0,0
7.6143107414245605,29.748411178588867,-1.7746071815490723,0.11790750339097486,-0.6519771017724639,-0.7490151396390364,0.0876417417140583,4.0,0
6.388499736785889,29.4333438873291,-1.616884708404541,-0.0,-0.0,-1.0,0.06838272214262944,1.0,0
7.6177849769592285,30.45566177368164,-1.629655361175537,-0.0,-0.0,-1.0,0.10342484252871781,1.0,0
7.101722240447998,30.327163696289062,-1.5350117683410645,-0.0,-0.0,-1.0,0.15807847553315607,2.0,0
7.009205341339111,30.403949737548828,-1.542487621307373,-0.0,-0.0,-1.0,0.0986175865510603,1.0,0
7.122175216674805,30.42218017578125,-1.6195707321166992,-0.0,-0.0,-1.0,0.1407092904182508,2.0,0
7.227495193481445,30.239389419555664,-1.5897712707519531,-0.0,-0.0,-1.0,0.1869830475596361,2.0,0
7.692858695983887,29.773691177368164,-1.5416746139526367,-0.0,-0.0,-1.0,0.08764174171405825,1.0,0
5.48457145690918,28.34348487854004,-1.6486144065856934,-0.0,-0.0,-1.0,0.045838147264707724,1.0,0
7.116745471954346,28.539470672607422,-1.7173333168029785,-0.0,-0.0,-1.0,0.05589710698177545,1.0,0
7.2555623054504395,28.379283905029297,-1.6951842308044434,-0.0,-0.0,-1.0,0.04463314287999507,1.0,0
6.881153583526611,28.622310638427734,-1.7030768394470215,-0.0,-0.0,-1.0,0.06502727285429401,1.0,0
6.448360919952393,28.754642486572266,-1.6724228858947754,-0.0,-0.0,-1.0,0.08740469405409024,1.0,0
6.167221546173096,29.091503143310547,-1.723543643951416,-0.0,-0.0,-1.0,0.13337595184615528,2.0,0
5.8558268547058105,29.21167755126953,-1.710289478302002,-0.0,-0.0,-1.0,0.02154369979804306,1.0,0
5.429900646209717,29.39223861694336,-1.6979718208312988,-0.0,-0.0,-1.0,0.040724019928874304,2.0,0
7.521291255950928,30.074892044067383,-1.739616870880127,-0.0,-0.0,-1.0,0.07736120795696515,1.0,0
7.314157009124756,30.527891159057617,-1.800961971282959,-0.0,-0.0,-1.0,0.1062337473529701,2.0,0
7.2347235679626465,30.074020385742188,-1.677680492401123,-0.0,-0.0,-1.0,0.07815307991990474,1.0,0
6.854635715484619,30.524860382080078,-1.7026515007019043,-0.0,-0.0,-1.0,0.07943193532156197,1.0,0
6.694865703582764,29.92337989807129,-1.5271954536437988,-0.0,-0.0,-1.0,0.07578815904134156,1.0,0
6.663500785827637,28.26068115234375,-1.745328426361084,-0.0,-0.0,-1.0,0.04175613604914862,1.0,0
5.839391708374023,28.80805206298828,-1.7093729972839355,-0.0,-0.0,-1.0,0.03129447266628755,2.0,0
5.372300148010254,29.203990936279297,-1.7196755409240723,-0.0,-0.0,-1.0,0.04840568630330503,1.0,0
5.392072677612305,29.046161651611328,-1.6797833442687988,-0.0,-0.0,-1.0,0.04403791374609539,1.0,0
6.463993072509766,28.251815795898438,-1.6935381889343262,-0.0,-0.0,-1.0,0.061968720660727214,2.0,0
6.220976829528809,28.286701202392578,-1.649167537689209,-0.0,-0.0,-1.0,0.12562234123525706,1.0,0
5.969240188598633,28.484668731689453,-1.6483588218688965,-0.0,-0.0,-1.0,0.050769618379412795,1.0,0
5.699311256408691,28.837791442871094,-1.6874051094055176,-0.0,-0.0,-1.0,0.03631538834677839,1.0,0
5.488557815551758,28.831775665283203,-1.6405739784240723,-0.0,-0.0,-1.0,0.05666720712961214,1.0,0
5.421090126037598,28.897945404052734,-1.6446166038513184,-0.0,-0.0,-1.0,0.04682568422450395,1.0,0
5.545195579528809,28.207950592041016,-1.572242259979248,-0.0,-0.0,-1.0,0.08854080451092418,1.0,0
5.3366193771362305,28.54700469970703,-1.6339201927185059,-0.0,-0.0,-1.0,0.07486108762321825,1.0,0
7.662729263305664,30.423049926757812,-1.6759486198425293,0.4871448056141808,-0.7390588404244913,-0.4652762284423397,0.10943491284714742,3.0,0
7.670047760009766,29.825965881347656,-1.514951229095459,-0.0,-0.0,-1.0,0.08807083487595417,1.0,0
7.619348526000977,29.997783660888672,-1.5515475273132324,-0.0,-0.0,-1.0,0.08252950414339368,1.0,0
7.574857711791992,30.459854125976562,-1.668750286102295,-0.0,-0.0,-1.0,0.11758623285202842,1.0,0
7.122648239135742,30.349899291992188,-1.5506300926208496,-0.0,-0.0,-1.0,0.17771348307408885,2.0,0
5.337518215179443,29.830596923828125,-1.8150510787963867,-0.0,-0.0,-1.0,0.033593303704309754,1.0,0
6.496431827545166,28.245750427246094,-1.6928339004516602,-0.0,-0.0,-1.0,0.052224504095392095,2.0,0
6.235001087188721,28.388439178466797,-1.6562414169311523,-0.0,-0.0,-1.0,0.060795555720261095,1.0,0
6.0785746574401855,28.6402587890625,-1.6820354461669922,-0.0,-0.0,-1.0,0.050958123278093806,2.0,0
5.9698920249938965,28.778465270996094,-1.6900444030761719,-0.0,-0.0,-1.0,0.053838464241081775,1.0,0
5.837167263031006,29.11898422241211,-1.7495317459106445,-0.0,-0.0,-1.0,0.019895069931269226,1.0,0
5.6735520362854,29.32862091064453,-1.7634077072143555,-0.0,-0.0,-1.0,0.01423586266907492,1.0,0
5.547788143157959,29.356571197509766,-1.7360191345214844,-0.0,-0.0,-1.0,0.022371275273373237,2.0,0
7.663520336151123,30.408889770507812,-1.652627944946289,-0.0,-0.0,-1.0,0.1079848343639615,2.0,0
7.2767462730407715,30.45580291748047,-1.5600709915161133,-0.0,-0.0,-1.0,0.13403901496606893,1.0,0
5.6150736808776855,28.41649627685547,-1.6087417602539062,-0.0,-0.0,-1.0,0.0498087476215224,2.0,0
5.928360462188721,28.75308609008789,-1.701970100402832,-0.0,-0.0,-1.0,0.046641898460571214,1.0,0
6.247943878173828,28.784564971923828,-1.717087745666504,-0.0,-0.0,-1.0,0.08950728268976638,2.0,0
5.326535701751709,28.80565643310547,-1.702911376953125,-0.0,-0.0,-1.0,0.053509873966707124,1.0,0
6.9020514488220215,28.483854293823242,-1.4490385055541992,-0.0,-0.0,-1.0,0.07410836326162155,1.0,0
7.327448844909668,28.66826820373535,-1.4830856323242188,-0.0,-0.0,-1.0,0.05297869396038166,1.0,0
7.435538291931152,28.801359176635742,-1.5150327682495117,-0.0,-0.0,-1.0,0.05381063469876311,1.0,0
6.017209053039551,28.48567008972168,-1.4843149185180664,-0.0,-0.0,-1.0,0.14017843320711998,1.0,0
6.330780506134033,28.59336280822754,-1.5007877349853516,-0.0,-0.0,-1.0,0.05428419553284355,1.0,0
6.9651079177856445,28.81996726989746,-1.537393569946289,-0.0,-0.0,-1.0,0.08102434337364638,1.0,0
5.360700607299805,28.462081909179688,-1.5056324005126953,-0.0,-0.0,-1.0,0.050540373403887624,1.0,0
5.7994794845581055,28.646162033081055,-1.5367774963378906,-0.0,-0.0,-1.0,0.04450178095962433,1.0,0
5.644882678985596,28.785730361938477,-1.5810937881469727,-0.0,-0.0,-1.0,0.03347155914856995,1.0,0
7.583883285522461,29.147663116455078,-1.5797901153564453,-0.0,-0.0,-1.0,0.06835420694129853,1.0,0
6.795410633087158,28.999122619628906,-1.592421531677246,-0.0,-0.0,-1.0,0.10228475814572763,1.0,0
7.1162943840026855,29.14067840576172,-1.609415054321289,-0.0,-0.0,-1.0,0.0735707130507997,1.0,0
7.377544403076172,29.291492462158203,-1.6333999633789062,-0.0,-0.0,-1.0,0.06165309214460613,1.0,0
6.56297492980957,28.97103500366211,-1.6010627746582031,-0.0,-0.0,-1.0,0.10844812820841489,1.0,0
6.239110946655273,28.72136688232422,-1.555032730102539,-0.0,-0.0,-1.0,0.04664815114523705,1.0,0
6.28948974609375,30.60851287841797,-1.714820384979248,-0.0,-0.0,-1.0,0.027329055610278857,2.0,0
7.183387756347656,30.334177017211914,-1.5498719215393066,-0.04066654943706028,-0.2629758159553335,-0.9639449942706847,0.1824819406075501,3.0,0
6.938551902770996,30.561569213867188,-1.6449570655822754,-0.0,-0.0,-1.0,0.0870558466571204,1.0,0
6.519467830657959,30.398717880249023,-1.6466336250305176,-0.0,-0.0,-1.0,0.0423760160682518,1.0,0
6.652779579162598,30.574260711669922,-1.6823210716247559,-0.0,-0.0,-1.0,0.038070678359334094,1.0,0
5.905885696411133,29.945091247558594,-1.5881524085998535,-0.0,-0.0,-1.0,0.07849965707895534,1.0,0
6.214212417602539,30.580860137939453,-1.7373194694519043,-0.0,-0.0,-1.0,0.03137999884817663,1.0,0
6.332837104797363,30.623422622680664,-1.7353405952453613,-0.0,-0.0,-1.0,0.027280117793382255,1.0,0
5.534958839416504,30.53280258178711,-1.8085179328918457,-0.0,-0.0,-1.0,0.04911637042796475,1.0,0
5.236330509185791,30.356082916259766,-1.79506254196167,-0.0,-0.0,-1.0,0.049118034053250735,1.0,0
5.4349446296691895,30.63664436340332,-1.8520922660827637,-0.0,-0.0,-1.0,0.04560517201871298,1.0,0
5.643674373626709,29.60688591003418,-1.521315097808838,-0.0,-0.0,-1.0,0.09775123623769208,1.0,0
