x,y,z,nx,ny,nz,curvature,density,label
54.339019775390625,5.627880096435547,-1.8082592487335205,-0.21042351504493645,-0.977553992700154,-0.010494554403174367,0.11843703545945242,3.0,0
55.189090728759766,4.017062664031982,-1.712489128112793,-0.0,-0.0,-1.0,0.031011996981088853,1.0,0
54.41838073730469,5.58744478225708,-1.5844011306762695,0.16716367913649882,-0.8734688401814776,0.45728381734932816,0.1286167846934016,7.0,0
55.1183967590332,3.8764142990112305,-1.7239103317260742,-0.11492800948882688,-0.8509331529396059,-0.5125468972330212,0.03188031484420715,3.0,0
54.38388442993164,5.586206436157227,-1.5245099067687988,-0.0,-0.0,-1.0,0.09341899158938172,2.0,0
53.397071838378906,3.1896610260009766,-1.5145070552825928,-0.0,-0.0,-1.0,0.21876849105290214,2.0,0
53.32516860961914,3.4224681854248047,-1.502424716949463,-0.0,-0.0,-1.0,0.09196993233344525,1.0,0
53.18834686279297,4.083538055419922,-1.4830045700073242,-0.0,-0.0,-1.0,0.042667422055329376,1.0,0
54.90278625488281,3.853902816772461,-1.4398677349090576,-0.0,-0.0,-1.0,0.09134175059132701,1.0,0
53.603206634521484,4.0457916259765625,-1.8122787475585938,-0.0,-0.0,-1.0,0.033370767949362445,1.0,0
53.83335494995117,4.207616806030273,-1.8230228424072266,-0.0,-0.0,-1.0,0.019130496373210615,1.0,0
53.496498107910156,3.2379913330078125,-1.5261118412017822,-0.0,-0.0,-1.0,0.22116243028710478,1.0,0
53.86638641357422,5.568742752075195,-1.5563747882843018,-0.0,-0.0,-1.0,0.12262994123488478,1.0,0
54.64128112792969,3.4593734741210938,-1.6411736011505127,-0.0,-0.0,-1.0,0.025806655068716596,1.0,0
54.45465850830078,5.606794357299805,-1.6165657043457031,-0.37128759093958413,-0.5328834272608914,-0.7603819946349115,0.12674030045177595,3.0,0
52.71101760864258,5.163555145263672,-1.6037898063659668,-0.0,-0.0,-1.0,0.05129033911976683,1.0,0
52.790504455566406,4.065256118774414,-1.6118178367614746,-0.0,-0.0,-1.0,0.033598012565297215,2.0,0
52.92156982421875,3.664430618286133,-1.6261224746704102,-0.0,-0.0,-1.0,0.014647745093985117,2.0,0
52.81595993041992,5.421966552734375,-1.6156079769134521,-0.0,-0.0,-1.0,0.12076349541198482,1.0,0
53.25080490112305,4.400264739990234,-1.6621301174163818,-0.0,-0.0,-1.0,0.056922334172460835,1.0,0
53.752567291259766,5.611658096313477,-1.7187740802764893,-0.0,-0.0,-1.0,0.13180647746165794,2.0,0
54.531593322753906,5.616796493530273,-1.4977905750274658,-0.0,-0.0,-1.0,0.07548794758918381,1.0,0
52.927032470703125,3.6325292587280273,-1.654599666595459,-0.0,-0.0,-1.0,0.014211542445318252,2.0,0
52.88328552246094,3.2147016525268555,-1.6413297653198242,-0.0,-0.0,-1.0,0.03979722433936543,1.0,0
53.177040100097656,4.908329010009766,-1.7107162475585938,-0.0,-0.0,-1.0,0.08457946380887517,1.0,0
53.112998962402344,4.789377212524414,-1.7004117965698242,-0.0,-0.0,-1.0,0.13035971081035883,1.0,0
54.2215576171875,3.376713752746582,-1.8071584701538086,-0.0,-0.0,-1.0,0.023858825341709577,1.0,0
54.13444519042969,5.26273250579834,-1.8355226516723633,-0.0,-0.0,-1.0,0.17387722341533485,1.0,0
54.045562744140625,5.150121688842773,-1.8221855163574219,-0.0,-0.0,-1.0,0.10522449932074601,1.0,0
54.17644500732422,5.393266677856445,-1.8435258865356445,-0.0,-0.0,-1.0,0.16730764681889543,1.0,0
54.80036163330078,3.802745819091797,-1.8862528800964355,-0.0,-0.0,-1.0,0.032186133713726445,1.0,0
55.02838134765625,5.520282745361328,-1.950953483581543,-0.0,-0.0,-1.0,0.14259164776676106,1.0,0
54.41688537597656,5.454594612121582,-1.5027122497558594,-0.4006446716010898,0.03934650834769132,-0.9153882779446653,0.10691138493167002,3.0,0
54.53360366821289,5.390398979187012,-1.4783785343170166,-0.0,-0.0,-1.0,0.21834138086542457,2.0,0
53.59990692138672,3.196542739868164,-1.0742406845092773,-0.0,-0.0,-1.0,0.09133507580544262,2.0,0
54.58375549316406,4.958183288574219,-1.0193064212799072,-0.0,-0.0,-1.0,0.21877596665947208,1.0,0
52.739601135253906,3.821199417114258,-1.5679547786712646,-0.0,-0.0,-1.0,0.01654133490134558,1.0,0
52.92958450317383,3.5613021850585938,-1.5929980278015137,-0.0,-0.0,-1.0,0.030750875637259308,1.0,0
53.16712188720703,4.097220420837402,-1.6346309185028076,-0.0,-0.0,-1.0,0.03693246660505989,1.0,0
52.767906188964844,5.302995681762695,-1.5931947231292725,-0.0,-0.0,-1.0,0.07883065735734571,1.0,0
53.513702392578125,5.2790374755859375,-1.7045934200286865,0.4480821185320097,-0.8490899084077679,-0.27976551340712913,0.11523285853853778,3.0,0
53.887489318847656,5.478513717651367,-1.7644665241241455,-0.0,-0.0,-1.0,0.10635399151064052,1.0,0
54.36585998535156,5.410367965698242,-1.835254430770874,-0.0,-0.0,-1.0,0.1669972430779929,1.0,0
54.42858123779297,5.562618255615234,-1.8477165699005127,-0.0,-0.0,-1.0,0.19285079470529468,1.0,0
52.85103988647461,3.308760643005371,-1.569659948348999,-0.0,-0.0,-1.0,0.04416231936740518,2.0,0
52.877464294433594,3.7630157470703125,-1.5777690410614014,0.6682917408224225,0.1539577466972093,-0.7277933507393798,0.016642849160199494,3.0,0
53.186180114746094,4.021151542663574,-1.627399206161499,-0.0,-0.0,-1.0,0.04426377051881022,2.0,0
54.25944519042969,4.3412017822265625,-1.7954790592193604,-0.0,-0.0,-1.0,0.015260926212902684,1.0,0
53.6279182434082,5.52248477935791,-1.716439962387085,-0.0,-0.0,-1.0,0.14077008726532575,1.0,0
54.29167556762695,5.483116149902344,-1.8186180591583252,-0.0,-0.0,-1.0,0.14138214982143868,1.0,0
54.37971496582031,5.6194047927856445,-1.8347642421722412,-0.0,-0.0,-1.0,0.14962397376464914,2.0,0
52.89986038208008,5.2761430740356445,-1.6000432968139648,-0.3179835762793942,-0.9454052217281913,-0.07138215425186,0.12066060785477231,3.0,0
53.25048828125,3.1877145767211914,-0.5522425174713135,-0.0,-0.0,-1.0,0.03315253855334407,1.0,0
53.47637939453125,3.1573915481567383,-1.4594089984893799,0.5727079054971215,0.09858652072169778,-0.813809776860103,0.1801805953443372,5.0,0
54.53070068359375,3.332911491394043,-1.6233141422271729,-0.0,-0.0,-1.0,0.03634566999657308,1.0,0
54.73300552368164,3.3533401489257812,-1.6547410488128662,-0.0,-0.0,-1.0,0.029656872776445905,2.0,0
55.091270446777344,3.3009538650512695,-1.7090861797332764,-0.0,-0.0,-1.0,0.018722526483240826,1.0,0
55.00823974609375,3.813185691833496,-1.7048017978668213,-0.0,-0.0,-1.0,0.039834104841719446,1.0,0
55.06303405761719,3.611079216003418,-1.7098147869110107,-0.0,-0.0,-1.0,0.09437478360068406,1.0,0
55.06056213378906,3.906661033630371,-1.7145569324493408,-0.0,-0.0,-1.0,0.02815208108711527,2.0,0
54.322784423828125,5.372105598449707,-1.6286046504974365,-0.0,-0.0,-1.0,0.18931413477447342,1.0,0
54.36932373046875,5.563288688659668,-1.640165090560913,-0.5375013096637552,-0.7388978978164569,0.4063523578277461,0.17274338960759558,3.0,0
53.346805572509766,3.7932214736938477,-1.4483253955841064,-0.0,-0.0,-1.0,0.04459109769447814,1.0,0
53.67596435546875,5.411203384399414,-1.528188943862915,-0.0,-0.0,-1.0,0.08484129962305641,1.0,0
53.7247314453125,5.4995317459106445,-1.5376896858215332,-0.0,-0.0,-1.0,0.11145773545079592,2.0,0
52.989646911621094,5.597164154052734,-1.7338943481445312,-0.0,-0.0,-1.0,0.09806425693549187,1.0,0
53.40757369995117,3.1698083877563477,-1.4526602029800415,-0.36893617958961095,-0.6309038377951834,-0.6825294446726318,0.1784993041733684,3.0,0
54.595909118652344,3.3118276596069336,-1.6064151525497437,0.0064378431167554685,0.8772199112307336,-0.4800456035798554,0.026099606790201516,6.0,0
52.940032958984375,4.681947708129883,-1.3966552019119263,-0.0,-0.0,-1.0,0.14901860627919417,2.0,0
53.74078369140625,5.430224418640137,-1.5077756643295288,-0.7710035091613467,-0.6163446315308486,-0.16022760075589862,0.12953506862599562,3.0,0
54.46320343017578,5.585239410400391,-1.6056321859359741,-0.38547411518086705,-0.5296108295050921,-0.755593856378184,0.19255938981700307,4.0,0
53.475860595703125,3.2214927673339844,-1.281778335571289,-0.0,-0.0,-1.0,0.16235712612758516,1.0,0
55.129905700683594,4.9292449951171875,-1.2959015369415283,-0.0,-0.0,-1.0,0.18228199788999355,1.0,0
52.93647766113281,3.4060850143432617,-1.5981488227844238,-0.0,-0.0,-1.0,0.04503800694471805,2.0,0
52.8585319519043,3.797366142272949,-1.5878870487213135,0.6682917408224225,0.1539577466972093,-0.7277933507393798,0.016642849160199397,3.0,0
53.18986511230469,3.9928207397460938,-1.6358611583709717,-0.0,-0.0,-1.0,0.045734910511220736,2.0,0
53.31526184082031,4.113962173461914,-1.6544139385223389,-0.0,-0.0,-1.0,0.05437253525958103,2.0,0
54.372032165527344,4.203131675720215,-1.8075883388519287,-0.0,-0.0,-1.0,0.01247875532395172,1.0,0
53.285091400146484,5.177800178527832,-1.6574432849884033,-0.0,-0.0,-1.0,0.11557202455251608,1.0,0
53.60026550292969,5.430373191833496,-1.7061083316802979,-0.0,-0.0,-1.0,0.13755280625033273,1.0,0
54.43364334106445,5.431756973266602,-1.8288600444793701,-0.0,-0.0,-1.0,0.13639154516317958,1.0,0
53.70818328857422,5.609392166137695,-1.723968267440796,-0.0,-0.0,-1.0,0.12956092407838943,2.0,0
53.518184661865234,3.366532325744629,-0.7998995780944824,0.5518534590256814,0.7207551934128881,0.41948743834558544,0.08326688837987421,3.0,0
53.40779113769531,5.636388778686523,-1.7726757526397705,-0.0,-0.0,-1.0,0.08980589705351374,1.0,0
53.56513977050781,3.252760887145996,-0.9430460929870605,-0.0,-0.0,-1.0,0.06456318765259983,2.0,0
53.40362548828125,3.146512985229492,-1.3674654960632324,-0.0,-0.0,-1.0,0.12434225153421438,1.0,0
54.433956146240234,5.416847229003906,-1.5118062496185303,-0.4006446716010898,0.03934650834769132,-0.9153882779446653,0.11135673200588554,3.0,0
54.55982208251953,5.529685020446777,-1.5306923389434814,-0.0,-0.0,-1.0,0.11021181479746955,2.0,0
52.99021530151367,4.733064651489258,-1.3040590286254883,-0.0,-0.0,-1.0,0.14007021495850688,2.0,0
53.86676025390625,5.461198806762695,-1.4301197528839111,-0.0,-0.0,-1.0,0.11816922410669711,2.0,0
53.87615966796875,5.544748306274414,-1.4318323135375977,-0.0,-0.0,-1.0,0.11654901077094668,1.0,0
54.636146545410156,3.2737884521484375,-1.57825767993927,-0.0,-0.0,-1.0,0.02493810616285869,2.0,0
55.15993118286133,3.7494869232177734,-1.6556607484817505,-0.0,-0.0,-1.0,0.10572749575726285,1.0,0
53.480995178222656,3.1760644912719727,-1.4084006547927856,-0.0,-0.0,-1.0,0.14090743165293768,2.0,0
54.76062774658203,4.739842414855957,-1.5959995985031128,-0.6559374391762708,-0.594411780503348,-0.4652103944299988,0.14650189460116644,3.0,0
53.745975494384766,5.526552200317383,-1.443184494972229,-0.0,-0.0,-1.0,0.13864319610333398,1.0,0
54.429893493652344,5.471678733825684,-1.547869324684143,-0.0,-0.0,-1.0,0.14262187398469386,1.0,0
54.52592468261719,5.547817230224609,-1.5630284547805786,-0.0,-0.0,-1.0,0.19262559445860095,2.0,0
53.304100036621094,3.187920570373535,-0.6011039018630981,-0.0,-0.0,-1.0,0.03315253855334394,2.0,0
53.977210998535156,5.488055229187012,-1.386857032775879,-0.0,-0.0,-1.0,0.1373445392831971,1.0,0
54.627967834472656,5.4215803146362305,-1.4854092597961426,-0.0,-0.0,-1.0,0.1487571795139728,1.0,0
53.38751983642578,3.1476783752441406,-0.5953506231307983,-0.0,-0.0,-1.0,0.05462707585069886,1.0,0
52.97883987426758,5.501247406005859,-1.7065880298614502,-0.0,-0.0,-1.0,0.09789441898958631,1.0,0
53.53697967529297,5.427026748657227,-1.8038198947906494,-0.0,-0.0,-1.0,0.13361062013982372,1.0,0
54.24603271484375,5.524510383605957,-1.9205031394958496,-0.0,-0.0,-1.0,0.12643299380445933,1.0,0
53.041011810302734,5.611719131469727,-1.7119972705841064,-0.0,-0.0,-1.0,0.07931911200258826,1.0,0
53.899200439453125,5.591472625732422,-1.8583931922912598,-0.0,-0.0,-1.0,0.11899309241112668,1.0,0
53.435890197753906,3.215603828430176,-1.1722099781036377,-0.0,-0.0,-1.0,0.1024158860217775,1.0,0
52.72750473022461,5.3931989669799805,-1.670011043548584,-0.0,-0.0,-1.0,0.0766261213470382,2.0,0
54.581787109375,5.429548263549805,-1.2661786079406738,-0.0,-0.0,-1.0,0.13119345270975855,2.0,0
54.6107063293457,5.327598571777344,-1.2723495960235596,-0.0,-0.0,-1.0,0.09076588877926177,1.0,0
54.66521453857422,3.2103309631347656,-1.5706827640533447,-0.0,-0.0,-1.0,0.03048928830972727,1.0,0
54.68441390991211,5.026498794555664,-1.5142700672149658,-0.0,-0.0,-1.0,0.14402413464389363,1.0,0
53.783477783203125,5.50666618347168,-1.3572096824645996,-0.0,-0.0,-1.0,0.16249792571304403,2.0,0
54.56022262573242,5.397850036621094,-1.48429536819458,-0.1677085453581768,-0.17173615460145275,-0.9707628634308949,0.14875717951397274,3.0,0
53.45347595214844,3.1470909118652344,-1.3040320873260498,-0.8671177770216536,0.46199966341583293,-0.18618021317176248,0.11542458841367292,3.0,0
54.85282516479492,4.830828666687012,-1.4673683643341064,-0.0,-0.0,-1.0,0.19391244443252284,1.0,0
53.39268112182617,5.19293212890625,-1.7334113121032715,0.207403275721359,-0.9049799434188391,-0.3714770292086507,0.1305442832706341,3.0,0
53.55918502807617,5.368708610534668,-1.75364351272583,-0.0,-0.0,-1.0,0.14191290472696264,1.0,0
53.81073760986328,5.514337539672852,-1.7923963069915771,-0.0,-0.0,-1.0,0.0970271498701351,1.0,0
54.25125503540039,5.338181495666504,-1.8876736164093018,-0.0,-0.0,-1.0,0.16346026250861306,2.0,0
53.535728454589844,3.1667537689208984,-1.254838466644287,-0.0,-0.0,-1.0,0.12080652813942894,2.0,0
52.8648796081543,5.442030906677246,-1.6182482242584229,-0.0,-0.0,-1.0,0.14051210365634226,2.0,0
53.27006530761719,5.226029396057129,-1.708254337310791,-0.0,-0.0,-1.0,0.10355925824704713,1.0,0
53.92144775390625,5.547722816467285,-1.2092065811157227,-0.0,-0.0,-1.0,0.15016158562313842,2.0,0
53.415565490722656,5.189875602722168,-1.7131882905960083,-0.0,-0.0,-1.0,0.1305442832706341,2.0,0
54.28776550292969,5.217114448547363,-1.8825668096542358,-0.0,-0.0,-1.0,0.19622189603070367,1.0,0
52.800289154052734,5.528983116149902,-1.5695267915725708,-0.0,-0.0,-1.0,0.1439272007541562,2.0,0
52.84031295776367,5.488656997680664,-1.5802515745162964,-0.3686698138896736,-0.6057124992536046,-0.7051205120931494,0.14392720075415613,3.0,0
53.53882598876953,5.300405502319336,-1.7292066812515259,0.4480821185320097,-0.8490899084077679,-0.27976551340712913,0.1124620176376245,3.0,0
53.70997619628906,5.479607582092285,-1.7502421140670776,0.20176470005963476,-0.09197439893959408,-0.9751060023143875,0.1146998656288898,4.0,0
54.164798736572266,5.32871150970459,-1.8506239652633667,-0.0,-0.0,-1.0,0.17977938781347655,1.0,0
53.691307067871094,3.2135744094848633,-1.2909430265426636,-0.0,-0.0,-1.0,0.0892865700056553,1.0,0
53.96862030029297,5.560218811035156,-1.2193878889083862,-0.0,-0.0,-1.0,0.14336279383580847,2.0,0
53.09227752685547,3.9761886596679688,-1.6332952976226807,-0.0,-0.0,-1.0,0.04004893332986089,1.0,0
53.25774383544922,4.299990653991699,-1.63588547706604,-0.0,-0.0,-1.0,0.029515146703405243,1.0,0
53.52239227294922,4.326624870300293,-1.683452844619751,-0.0,-0.0,-1.0,0.04790660764906298,1.0,0
53.79377746582031,4.428426742553711,-1.726660966873169,-0.0,-0.0,-1.0,0.015974846965159783,1.0,0
54.16980743408203,4.839689254760742,-1.7672176361083984,-0.0,-0.0,-1.0,0.08504562372593667,1.0,0
52.8761100769043,5.185314178466797,-1.489650011062622,-0.0,-0.0,-1.0,0.06550269703090826,1.0,0
53.325714111328125,5.147906303405762,-1.5787241458892822,-0.0,-0.0,-1.0,0.12115052201867951,1.0,0
53.47678756713867,5.17812442779541,-1.6055614948272705,-0.0,-0.0,-1.0,0.15049143297680564,1.0,0
54.53984451293945,5.09559440612793,-1.8216021060943604,-0.0,-0.0,-1.0,0.13708618100134076,1.0,0
54.600833892822266,4.957463264465332,-1.8438799381256104,-0.0,-0.0,-1.0,0.1440242499003348,1.0,0
53.634483337402344,5.393746376037598,-1.619692087173462,-0.0,-0.0,-1.0,0.12131219355734219,1.0,0
53.85829544067383,5.539294242858887,-1.6529312133789062,-0.0,-0.0,-1.0,0.10609139615718069,1.0,0
53.535667419433594,3.1967039108276367,-1.1820666790008545,-0.6833462245954126,0.6668048775947802,-0.2973368334852009,0.11106672934796942,3.0,0
53.792945861816406,3.2853622436523438,-1.217895746231079,-0.0,-0.0,-1.0,0.10702472815956247,1.0,0
54.5228385925293,5.095037460327148,-1.2419607639312744,-0.0,-0.0,-1.0,0.0696333053338137,1.0,0
54.585052490234375,5.418217658996582,-1.2375743389129639,-0.0,-0.0,-1.0,0.0985237740317907,2.0,0
53.287315368652344,5.609036445617676,-1.8049461841583252,-0.0,-0.0,-1.0,0.03297785403391734,1.0,0
53.859046936035156,5.618587493896484,-1.9254271984100342,-0.0,-0.0,-1.0,0.1250053993644903,1.0,0
53.361541748046875,3.1967267990112305,-1.5312721729278564,-0.0,-0.0,-1.0,0.1552026551012055,2.0,0
54.148136138916016,3.2932186126708984,-1.6591315269470215,-0.0,-0.0,-1.0,0.02115161663731355,1.0,0
53.45543670654297,3.4416208267211914,-1.5237760543823242,-0.0,-0.0,-1.0,0.1035072694823903,1.0,0
54.36458969116211,3.4769954681396484,-1.68121337890625,-0.0,-0.0,-1.0,0.021650692428706087,1.0,0
54.62851333618164,3.6892318725585938,-1.7102890014648438,-0.0,-0.0,-1.0,0.02199519883947908,2.0,0
53.427955627441406,3.856019973754883,-1.4797041416168213,-0.0,-0.0,-1.0,0.04703768389606159,1.0,0
54.845008850097656,3.7784299850463867,-1.7425086498260498,-0.0,-0.0,-1.0,0.09309149158804349,1.0,0
55.091087341308594,3.996980667114258,-1.7701480388641357,-0.0,-0.0,-1.0,0.026708115467736427,1.0,0
53.01171875,4.67454719543457,-1.3299891948699951,-0.9812975629427264,0.09212560889783551,-0.16902060569016147,0.14207919578509917,3.0,0
54.77091598510742,4.784544944763184,-1.6445746421813965,-0.0,-0.0,-1.0,0.23186349076569704,2.0,0
54.59242248535156,5.09951114654541,-1.5849895477294922,-0.0,-0.0,-1.0,0.1552516958025251,2.0,0
52.74141311645508,5.539864540100098,-1.7001714706420898,-0.0,-0.0,-1.0,0.1252675065402679,2.0,0
53.084877014160156,5.63187313079834,-1.7600953578948975,-0.0,-0.0,-1.0,0.051641579040450726,1.0,0
53.90096664428711,5.487187385559082,-1.4215645790100098,-0.0,-0.0,-1.0,0.11816922410669706,2.0,0
54.50858688354492,5.5339860916137695,-1.5344085693359375,0.18011873670168196,-0.9239652979523598,-0.33740979367646884,0.11181102016895823,3.0,0
52.72682571411133,4.045583724975586,-1.6336241960525513,-0.0,-0.0,-1.0,0.02185830300639324,1.0,0
52.85523223876953,4.167551040649414,-1.6391066312789917,-0.0,-0.0,-1.0,0.02879218293484729,1.0,0
52.87721252441406,4.2699127197265625,-1.6289950609207153,-0.0,-0.0,-1.0,0.047586647596502496,1.0,0
53.401939392089844,4.439760208129883,-1.700585961341858,-0.0,-0.0,-1.0,0.03611449043054122,1.0,0
53.67438888549805,4.499853134155273,-1.7430208921432495,-0.0,-0.0,-1.0,0.02643207881758671,1.0,0
53.48958206176758,4.931679725646973,-1.6529303789138794,-0.0,-0.0,-1.0,0.0811520789544255,1.0,0
54.011024475097656,4.964906692504883,-1.7482749223709106,-0.0,-0.0,-1.0,0.09110454798371148,1.0,0
54.588356018066406,4.875344276428223,-1.8725486993789673,-0.0,-0.0,-1.0,0.1409905650596334,1.0,0
53.972537994384766,5.096383094787598,-1.7245720624923706,-0.0,-0.0,-1.0,0.1336827378443322,1.0,0
54.44403076171875,5.554136276245117,-1.7633687257766724,-0.0,-0.0,-1.0,0.159067557223607,1.0,0
53.474971771240234,3.1794071197509766,-1.3239554166793823,-0.8671177770216536,0.46199966341583293,-0.18618021317176248,0.1432413183789761,3.0,0
52.7863883972168,4.507224082946777,-1.5807543992996216,-0.0,-0.0,-1.0,0.10628818446290551,1.0,0
52.71429443359375,4.891811370849609,-1.5160754919052124,-0.0,-0.0,-1.0,0.05100740641224918,1.0,0
52.87209701538086,5.285305023193359,-1.4924463033676147,-0.0,-0.0,-1.0,0.1044058702564294,1.0,0
53.03348159790039,5.251678466796875,-1.5267268419265747,-0.0,-0.0,-1.0,0.10492149405169915,1.0,0
53.514617919921875,5.266714096069336,-1.615238070487976,-0.0,-0.0,-1.0,0.10311240151595495,1.0,0
52.947853088378906,5.4517669677734375,-1.484723448753357,-0.0,-0.0,-1.0,0.12770876094136516,1.0,0
53.81552505493164,5.497057914733887,-1.6448191404342651,-0.0,-0.0,-1.0,0.12987187536524966,1.0,0
53.59352111816406,3.357809066772461,-0.7747267484664917,-0.0,-0.0,-1.0,0.08326688837987421,1.0,0
53.08770751953125,3.226167678833008,-1.5527503490447998,-0.0,-0.0,-1.0,0.043682417099908125,1.0,0
53.165767669677734,3.352534294128418,-1.5464143753051758,-0.0,-0.0,-1.0,0.04251910196076664,1.0,0
53.3261833190918,3.7353811264038086,-1.5168206691741943,-0.0,-0.0,-1.0,0.04119189933643939,1.0,0
53.84848403930664,3.562715530395508,-1.6245315074920654,-0.0,-0.0,-1.0,0.044002592939277115,1.0,0
54.086307525634766,3.5641698837280273,-1.6634297370910645,-0.0,-0.0,-1.0,0.016535401379306685,1.0,0
54.509822845458984,3.712733268737793,-1.7152554988861084,-0.0,-0.0,-1.0,0.01989142519643312,1.0,0
54.81249237060547,3.821786880493164,-1.7533140182495117,-0.0,-0.0,-1.0,0.09182544790063032,2.0,0
54.96940994262695,4.002715110778809,-1.7576110363006592,-0.0,-0.0,-1.0,0.04023807293508937,1.0,0
54.6883544921875,4.840583801269531,-1.5999183654785156,-0.0,-0.0,-1.0,0.20453787280755073,2.0,0
52.90312957763672,5.4880828857421875,-1.6657843589782715,-0.0,-0.0,-1.0,0.118875702223056,2.0,0
53.50514602661133,5.357759475708008,-1.8016157150268555,-0.0,-0.0,-1.0,0.13105409821363864,1.0,0
53.59960174560547,5.266324043273926,-1.8347113132476807,-0.0,-0.0,-1.0,0.09597172932598094,2.0,0
53.02984619140625,5.565512657165527,-1.6764278411865234,-0.0,-0.0,-1.0,0.0977842021868008,1.0,0
53.49131774902344,5.595870018005371,-1.760258674621582,-0.0,-0.0,-1.0,0.18548469244856727,1.0,0
53.68754959106445,5.542823791503906,-1.8070464134216309,-0.0,-0.0,-1.0,0.16272835307414862,1.0,0
53.46660232543945,3.2268762588500977,-1.0750341415405273,-0.0,-0.0,-1.0,0.12188636110743152,1.0,0
53.55659484863281,3.276378631591797,-1.0820457935333252,-0.0,-0.0,-1.0,0.1358056404277669,1.0,0
53.06132888793945,4.706717491149902,-1.338057041168213,-0.12976038770078488,-0.0675429997595119,-0.9892422276506537,0.1433936028697271,3.0,0
54.52961349487305,5.228473663330078,-1.522090196609497,-0.0,-0.0,-1.0,0.1656718925145915,2.0,0
53.598636627197266,5.5687150955200195,-1.3120460510253906,-0.0,-0.0,-1.0,0.130652391800595,1.0,0
54.4918098449707,5.478933334350586,-1.4838347434997559,-0.0,-0.0,-1.0,0.13672854173870141,2.0,0
54.60713195800781,4.719128608703613,-1.087752103805542,-0.0,-0.0,-1.0,0.17460564606661227,1.0,0
54.65888595581055,3.251755714416504,-1.604042887687683,-0.0,-0.0,-1.0,0.03048928830972729,2.0,0
53.03541946411133,4.46673583984375,-1.694053053855896,-0.0,-0.0,-1.0,0.11947497598473392,1.0,0
53.298336029052734,4.441143989562988,-1.7325211763381958,-0.0,-0.0,-1.0,0.04934985166457506,1.0,0
53.55376434326172,4.447502136230469,-1.7644237279891968,-0.0,-0.0,-1.0,0.03506264498480672,1.0,0
54.52018356323242,4.627050399780273,-1.864967942237854,-0.0,-0.0,-1.0,0.07779242003480416,1.0,0
52.73914337158203,4.954028129577637,-1.5612002611160278,-0.0,-0.0,-1.0,0.0464062514189275,1.0,0
52.844173431396484,5.129176139831543,-1.5399061441421509,-0.0,-0.0,-1.0,0.0655026970309082,1.0,0
53.445003509521484,5.112814903259277,-1.6218973398208618,-0.0,-0.0,-1.0,0.13662659330635069,2.0,0
54.6221809387207,4.777092933654785,-1.8522926568984985,-0.0,-0.0,-1.0,0.12950000346724866,1.0,0
53.08806228637695,5.362405776977539,-1.5260530710220337,-0.0,-0.0,-1.0,0.08609296579282161,1.0,0
53.55693054199219,5.304875373840332,-1.6005293130874634,-0.0,-0.0,-1.0,0.09962005311540538,1.0,0
53.74575424194336,5.373014450073242,-1.614223599433899,-0.0,-0.0,-1.0,0.13436207646798218,1.0,0
54.32576370239258,5.460399627685547,-1.6826139688491821,-0.0,-0.0,-1.0,0.21952373773511052,1.0,0
53.880760192871094,5.607941627502441,-1.5895746946334839,-0.0,-0.0,-1.0,0.09034654414450985,1.0,0
54.413124084472656,5.570760726928711,-1.675744652748108,-0.0,-0.0,-1.0,0.19254880866996799,1.0,0
53.445709228515625,3.139603614807129,-1.4843417406082153,0.9258295385911929,0.01098816530871077,-0.3777815846427233,0.1823813001148393,6.0,0
53.21467208862305,3.534926414489746,-1.3944891691207886,-0.0,-0.0,-1.0,0.054486264644966906,1.0,0
53.490379333496094,3.226067543029785,-1.4748862981796265,-0.0,-0.0,-1.0,0.22116243028710478,2.0,0
52.86763381958008,5.357077598571777,-1.4983710050582886,-0.0,-0.0,-1.0,0.10518800290215034,1.0,0
53.521217346191406,3.2445316314697266,-0.9620646238327026,-0.383364682655745,0.7256418230093065,0.5713803153697107,0.071476580226675,3.0,0
54.252349853515625,5.120383262634277,-1.9173047542572021,-0.0,-0.0,-1.0,0.13754320964311456,1.0,0
54.25033950805664,5.3009033203125,-1.8786468505859375,-0.0,-0.0,-1.0,0.1710853659135546,2.0,0
54.37005615234375,5.345675468444824,-1.888279676437378,-0.0,-0.0,-1.0,0.12640739633487183,1.0,0
52.95360565185547,3.4692773818969727,-1.6151235103607178,0.49939874206194784,0.3067650686149054,-0.8102444625572187,0.04551566022175836,4.0,0
52.744895935058594,3.679692268371582,-1.5511469841003418,-0.0,-0.0,-1.0,0.012750498120633396,1.0,0
53.055877685546875,3.7154741287231445,-1.578561544418335,-0.0,-0.0,-1.0,0.03085878325805347,2.0,0
53.25712203979492,3.952448844909668,-1.5559031963348389,-0.0,-0.0,-1.0,0.055423460941273546,1.0,0
53.595970153808594,3.816617965698242,-1.6225781440734863,-0.0,-0.0,-1.0,0.02660884148139169,1.0,0
53.984127044677734,3.6792373657226562,-1.6969776153564453,-0.0,-0.0,-1.0,0.014031391765090863,1.0,0
54.31495666503906,3.7383337020874023,-1.728687047958374,-0.0,-0.0,-1.0,0.013983347687396726,1.0,0
54.576683044433594,3.8087711334228516,-1.7506344318389893,-0.0,-0.0,-1.0,0.02125781672132142,1.0,0
54.85442352294922,3.921566963195801,-1.7684543132781982,-0.0,-0.0,-1.0,0.09284071513455176,1.0,0
52.85844421386719,5.418613433837891,-1.6459417343139648,-0.0,-0.0,-1.0,0.13222169590032493,2.0,0
53.3810920715332,5.204035758972168,-1.7669320106506348,-0.0,-0.0,-1.0,0.1305442832706341,2.0,0
53.605316162109375,5.264249801635742,-1.7864627838134766,-0.0,-0.0,-1.0,0.09672888705808266,2.0,0
54.77824020385742,4.7320556640625,-1.6108834743499756,-0.6559374391762708,-0.594411780503348,-0.4652103944299988,0.18922867417290412,3.0,0
53.684051513671875,5.448733329772949,-1.7579915523529053,0.2853999291597479,0.0009140845989719716,-0.9584080784743818,0.14302082845699585,3.0,0
54.620994567871094,5.269892692565918,-1.4916470050811768,-0.0,-0.0,-1.0,0.11985589632690127,1.0,0
54.91010284423828,5.078327178955078,-1.5686733722686768,-0.0,-0.0,-1.0,0.16661212588430505,1.0,0
53.41410446166992,3.1417579650878906,-1.234001874923706,-0.0,-0.0,-1.0,0.10660933686311469,1.0,0
53.71746063232422,3.2741994857788086,-1.2443535327911377,-0.0,-0.0,-1.0,0.11245294306613418,1.0,0
52.96842956542969,4.611543655395508,-1.394836187362671,-0.0,-0.0,-1.0,0.13622614962204987,1.0,0
53.74737548828125,5.392248153686523,-1.3456757068634033,-0.0,-0.0,-1.0,0.1569428475624676,1.0,0
52.74201202392578,3.4315948486328125,-1.6071844100952148,-0.0,-0.0,-1.0,0.03646404920374604,2.0,0
53.05133056640625,3.734079360961914,-1.580650806427002,-0.0,-0.0,-1.0,0.03220661512373145,2.0,0
53.17521667480469,3.883037567138672,-1.5649867057800293,-0.0,-0.0,-1.0,0.04023392203340481,1.0,0
53.499759674072266,3.888826370239258,-1.6054792404174805,-0.0,-0.0,-1.0,0.04340160480624292,1.0,0
53.86259841918945,3.7679080963134766,-1.6787402629852295,-0.0,-0.0,-1.0,0.01480751140928263,1.0,0
54.133262634277344,3.66201114654541,-1.7374951839447021,-0.0,-0.0,-1.0,0.014647930134966375,1.0,0
54.393898010253906,3.8090858459472656,-1.7452247142791748,-0.0,-0.0,-1.0,0.01733021610948699,1.0,0
52.88406753540039,5.2843122482299805,-1.6378862857818604,-0.0,-0.0,-1.0,0.12066060785477228,2.0,0
53.330078125,5.016664505004883,-1.7669613361358643,-0.0,-0.0,-1.0,0.12350778543352818,1.0,0
54.63594436645508,3.8866920471191406,-1.7652082443237305,-0.0,-0.0,-1.0,0.05856746724243543,1.0,0
54.85029220581055,4.002098083496094,-1.7749316692352295,-0.0,-0.0,-1.0,0.09204041365193517,2.0,0
53.101016998291016,5.349875450134277,-1.6533842086791992,-0.0,-0.0,-1.0,0.0718482317113728,1.0,0
53.49507141113281,5.277688026428223,-1.7303378582000732,0.4480821185320097,-0.8490899084077679,-0.27976551340712913,0.11523285853853778,3.0,0
54.2425537109375,4.987931251525879,-1.918675184249878,-0.0,-0.0,-1.0,0.11236195394459743,1.0,0
55.20606994628906,4.135973930358887,-1.8044748306274414,-0.0,-0.0,-1.0,0.02121186008348355,2.0,0
53.750484466552734,5.514252662658691,-1.715458631515503,-0.0,-0.0,-1.0,0.11268804740121068,2.0,0
54.346351623535156,5.117055892944336,-1.906630516052246,-0.0,-0.0,-1.0,0.15067866940020946,1.0,0
53.37360763549805,3.138789176940918,-1.2713770866394043,-0.0,-0.0,-1.0,0.10802784226079698,1.0,0
53.64256286621094,3.1962480545043945,-1.292250394821167,-0.0,-0.0,-1.0,0.0947795705469725,1.0,0
53.3203125,3.9882497787475586,-1.561666488647461,-0.0,-0.0,-1.0,0.05542346094127352,1.0,0
52.97394561767578,4.673462867736816,-1.3758928775787354,-0.0,-0.0,-1.0,0.14705914148311267,2.0,0
53.68880081176758,5.445453643798828,-1.3158299922943115,-0.0,-0.0,-1.0,0.14932108986490422,1.0,0
54.68767547607422,4.873612403869629,-1.5796334743499756,-0.0,-0.0,-1.0,0.20453787280755076,2.0,0
54.988182067871094,4.9487457275390625,-1.6131887435913086,-0.0,-0.0,-1.0,0.188714545298759,1.0,0
53.537105560302734,3.3478708267211914,-0.792726993560791,0.5518534590256814,0.7207551934128881,0.41948743834558544,0.08326688837987421,3.0,0
53.604488372802734,3.5614442825317383,-0.770298957824707,-0.0,-0.0,-1.0,0.09816390669097753,1.0,0
53.460540771484375,3.1385765075683594,-1.4782410860061646,0.5727079054971215,0.09858652072169778,-0.813809776860103,0.18238130011483925,5.0,0
54.56801223754883,4.87794303894043,-1.2423845529556274,-0.0,-0.0,-1.0,0.09317970450724956,1.0,0
55.186893463134766,4.931787490844727,-1.319966435432434,-0.0,-0.0,-1.0,0.1833928764318304,1.0,0
53.48366165161133,3.2513914108276367,-1.0249451398849487,0.31220613388618174,0.9466302151251378,-0.08011595206935378,0.08910580713987153,4.0,0
53.627586364746094,3.2271299362182617,-1.4271506071090698,-0.0,-0.0,-1.0,0.10320393171240866,2.0,0
53.502140045166016,3.1452207565307617,-1.4173136949539185,-0.0,-0.0,-1.0,0.14326780073008397,2.0,0
53.73950958251953,3.1479902267456055,-1.0428258180618286,-0.0,-0.0,-1.0,0.08537636731994307,1.0,0
53.72654342651367,3.1855831146240234,-1.1222641468048096,-0.0,-0.0,-1.0,0.08645666480137693,1.0,0
53.34303665161133,3.1768274307250977,-0.7441043853759766,-0.0,-0.0,-1.0,0.033152538553343935,1.0,0
53.53096389770508,3.3507728576660156,-0.9838366508483887,-0.0,-0.0,-1.0,0.07631649280967724,1.0,0
53.781620025634766,3.1931066513061523,-1.0408120155334473,-0.0,-0.0,-1.0,0.09413216303015848,1.0,0
53.33278274536133,3.2117795944213867,-0.6604800224304199,-0.0,-0.0,-1.0,0.033152538553344,1.0,0
53.60713577270508,3.1988277435302734,-1.0965075492858887,-0.0,-0.0,-1.0,0.08909874019739857,2.0,0
53.76314163208008,3.258793354034424,-1.135787844657898,-0.0,-0.0,-1.0,0.10786096971010907,1.0,0
53.33563995361328,4.414238452911377,-1.6060662269592285,-0.0,-0.0,-1.0,0.06613237677617773,1.0,0
55.03479766845703,4.257093906402588,-1.7586698532104492,-0.0,-0.0,-1.0,0.017177569940260127,1.0,0
53.48988342285156,3.3085479736328125,-1.2104343175888062,0.3937470709471295,0.7877008164041956,-0.4738044617315456,0.1678998468079277,3.0,0
53.14935302734375,4.176127910614014,-1.7418924570083618,-0.0,-0.0,-1.0,0.03192031932406898,1.0,0
54.37489318847656,5.604791641235352,-1.9328364133834839,-0.0,-0.0,-1.0,0.1734526159620944,1.0,0
53.53080749511719,3.3604373931884766,-0.8060332536697388,0.5518534590256814,0.7207551934128881,0.41948743834558544,0.08326688837987421,3.0,0
53.51763916015625,3.3208746910095215,-0.9042611122131348,-0.0,-0.0,-1.0,0.11337417354424106,1.0,0
54.55609130859375,5.039976596832275,-1.0873243808746338,-0.0,-0.0,-1.0,0.07371325599968793,1.0,0
52.712074279785156,5.54583215713501,-1.7012428045272827,-0.0,-0.0,-1.0,0.1252675065402679,2.0,0
52.76175308227539,5.631618976593018,-1.7104092836380005,-0.0,-0.0,-1.0,0.12397366444979772,1.0,0
53.45525360107422,3.139248847961426,-1.3317711353302002,-0.8671177770216536,0.46199966341583293,-0.18618021317176248,0.11768479546738055,3.0,0
53.0169563293457,4.724042892456055,-1.3334195613861084,-0.6780368171318855,-0.30748567064791876,-0.66762162709117,0.14311371129245895,5.0,0
54.4477424621582,5.4312424659729,-1.517221450805664,-0.4006446716010898,0.03934650834769132,-0.9153882779446653,0.1216284969784936,3.0,0
54.59830856323242,5.601099014282227,-1.5403187274932861,-0.0,-0.0,-1.0,0.11879430118444309,1.0,0
54.63928985595703,3.3278989791870117,-1.588607668876648,-0.001934902314528212,0.6863802609564926,-0.727240258458187,0.02563499670135191,5.0,0
54.772056579589844,4.755059719085693,-1.631557583808899,-0.7480160244260899,-0.4252874984525183,-0.5095120909868448,0.20918153434419448,4.0,0
53.75065612792969,5.491191864013672,-1.5293127298355103,-0.0,-0.0,-1.0,0.10802914629637503,2.0,0
54.40032196044922,5.559164047241211,-1.606662392616272,-0.541768123518773,-0.5053825701712732,0.6716217373686065,0.11436974786222566,5.0,0
53.500404357910156,3.254551410675049,-0.9887539148330688,0.29451447265429226,0.953098066147476,-0.06975171469652573,0.07683030528459588,4.0,0
53.517478942871094,3.243755340576172,-1.0258028507232666,0.31220613388618174,0.9466302151251378,-0.08011595206935378,0.09335348603540182,4.0,0
55.12913513183594,4.960413932800293,-1.2480790615081787,-0.0,-0.0,-1.0,0.16220013320018525,1.0,0
54.58417892456055,3.306943893432617,-1.6257603168487549,-0.2773745694652203,0.9499579478191903,-0.14367757510877047,0.02480678664849516,4.0,0
54.60010528564453,3.385490894317627,-1.6285252571105957,-0.0,-0.0,-1.0,0.026099606790201506,1.0,0
55.10133361816406,3.576939582824707,-1.6975345611572266,-0.0,-0.0,-1.0,0.08509363190181582,1.0,0
55.13616943359375,3.862783908843994,-1.7052662372589111,-0.11492800948882688,-0.8509331529396059,-0.5125468972330212,0.03188031484420703,3.0,0
53.48994445800781,3.2209529876708984,-1.4790830612182617,-0.7256325522485207,0.47229708140062554,-0.5003927117951946,0.22116243028710478,3.0,0
53.41041564941406,3.6846418380737305,-1.4717204570770264,-0.0,-0.0,-1.0,0.05793458473875977,1.0,0
53.007080078125,4.6794352531433105,-1.427753210067749,-0.0,-0.0,-1.0,0.14705914148311267,1.0,0
52.989341735839844,5.428657531738281,-1.4365181922912598,-0.0,-0.0,-1.0,0.12767242464664058,1.0,0
53.752685546875,5.423814296722412,-1.540388822555542,-0.0,-0.0,-1.0,0.09481665778870589,2.0,0
53.754425048828125,5.580826282501221,-1.5434963703155518,-0.0,-0.0,-1.0,0.11877109862496914,1.0,0
53.82923126220703,5.485536098480225,-1.5519378185272217,-0.0,-0.0,-1.0,0.12494562696557313,1.0,0
53.41106414794922,3.1457266807556152,-1.4322867393493652,-0.0,-0.0,-1.0,0.1614108776628754,2.0,0
54.554710388183594,3.2138867378234863,-1.590301513671875,-0.0,-0.0,-1.0,0.022793853549377945,2.0,0
54.60581970214844,3.316392421722412,-1.5981836318969727,0.03591764873720569,0.819146466968847,-0.5724587217971671,0.026099606790201506,5.0,0
54.869171142578125,3.7589282989501953,-1.6390056610107422,-0.0,-0.0,-1.0,0.10371291830817955,1.0,0
55.193023681640625,3.70900297164917,-1.6834437847137451,-0.0,-0.0,-1.0,0.0926397308130567,1.0,0
55.04932403564453,3.9535889625549316,-1.6662676334381104,-0.0,-0.0,-1.0,0.088219555900275,1.0,0
54.5926628112793,5.0795979499816895,-1.6189491748809814,-0.03865841222098331,0.8618691340841866,-0.5056551422437295,0.15813242501481126,3.0,0
54.914154052734375,4.8539838790893555,-1.6603169441223145,-0.0,-0.0,-1.0,0.2338836582954494,1.0,0
53.716575622558594,5.4591169357299805,-1.5024285316467285,-0.0,-0.0,-1.0,0.10221609467783475,2.0,0
54.273399353027344,5.49580717086792,-1.5816454887390137,-0.0,-0.0,-1.0,0.17273121130240524,2.0,0
54.399513244628906,5.579923152923584,-1.6011013984680176,0.22452652098044992,-0.8668418977140385,0.4451662225999852,0.11808150503480261,5.0,0
54.83293151855469,4.95622444152832,-1.5294982194900513,-0.0,-0.0,-1.0,0.21043553075135993,1.0,0
54.641822814941406,5.0736002922058105,-1.5031744241714478,-0.0,-0.0,-1.0,0.1442452778651018,1.0,0
53.79881286621094,5.548053741455078,-1.387325644493103,-0.0,-0.0,-1.0,0.1129458538130994,1.0,0
54.563838958740234,5.495808124542236,-1.4932743310928345,-0.19552443845205889,-0.5010916761786577,-0.8430168005635892,0.1297019696982067,4.0,0
52.876747131347656,3.36185884475708,-1.6162879467010498,-0.0,-0.0,-1.0,0.03373741053510449,1.0,0
52.847293853759766,3.7601284980773926,-1.606083631515503,0.6682917408224225,0.1539577466972093,-0.7277933507393798,0.01546162834261352,3.0,0
52.775779724121094,4.053127288818359,-1.591062307357788,-0.0,-0.0,-1.0,0.03359801256529722,2.0,0
53.18907928466797,4.1535868644714355,-1.658707618713379,-0.0,-0.0,-1.0,0.0333396833244806,1.0,0
53.57057571411133,4.3398261070251465,-1.7208549976348877,-0.0,-0.0,-1.0,0.04790660764906298,1.0,0
54.16593933105469,4.5927886962890625,-1.8193655014038086,-0.0,-0.0,-1.0,0.02908990264936342,1.0,0
52.79157257080078,5.1409382820129395,-1.5879199504852295,-0.0,-0.0,-1.0,0.07481578216029862,1.0,0
52.8905029296875,5.179814338684082,-1.6045253276824951,-0.0,-0.0,-1.0,0.0987737431293551,1.0,0
52.85472869873047,5.379538536071777,-1.598618745803833,-0.0,-0.0,-1.0,0.11318690047009548,1.0,0
52.94285202026367,5.262687683105469,-1.6133496761322021,-0.0,-0.0,-1.0,0.12066060785477228,2.0,0
53.725372314453125,5.4375386238098145,-1.7456974983215332,0.2853999291597479,0.0009140845989719716,-0.9584080784743818,0.14339261091453862,3.0,0
53.746681213378906,5.499021053314209,-1.7495355606079102,-0.43710059806488893,0.8382869009288011,-0.32591124390315623,0.09702714987013498,3.0,0
52.829193115234375,5.512109756469727,-1.5945839881896973,-0.6469376262605095,-0.6536106903036236,-0.3927655448855439,0.1439272007541561,4.0,0
54.56009292602539,5.063304424285889,-1.1930263042449951,-0.0,-0.0,-1.0,0.07371325599968796,1.0,0
53.72032928466797,4.089141368865967,-1.671042799949646,-0.0,-0.0,-1.0,0.029533159537669284,1.0,0
54.17167282104492,4.00705099105835,-1.7461875677108765,-0.0,-0.0,-1.0,0.012584141463917769,1.0,0
54.404869079589844,4.445259094238281,-1.7629820108413696,-0.0,-0.0,-1.0,0.08800168793252625,1.0,0
54.56625747680664,4.263770580291748,-1.7967191934585571,-0.0,-0.0,-1.0,0.021031536153940582,1.0,0
54.70568084716797,4.431382656097412,-1.8114515542984009,-0.0,-0.0,-1.0,0.04783637380403917,1.0,0
54.86478805541992,4.4536848068237305,-1.835825800895691,-0.0,-0.0,-1.0,0.038800904580860184,1.0,0
54.94919967651367,4.9751057624816895,-1.8280574083328247,-0.0,-0.0,-1.0,0.1612239693767712,1.0,0
54.406517028808594,5.627588272094727,-1.7169445753097534,-0.0,-0.0,-1.0,0.11128371185551689,1.0,0
52.86339569091797,3.2957730293273926,-1.5788918733596802,-0.0,-0.0,-1.0,0.043868598599890465,2.0,0
52.71882629394531,3.8567957878112793,-1.5254780054092407,-0.0,-0.0,-1.0,0.015465258625207307,1.0,0
53.03282165527344,3.526817798614502,-1.5922991037368774,-0.0,-0.0,-1.0,0.025619156303260435,1.0,0
53.204551696777344,3.9510278701782227,-1.5967096090316772,-0.0,-0.0,-1.0,0.044756213107155496,1.0,0
53.44709014892578,5.332430362701416,-1.5733057260513306,-0.0,-0.0,-1.0,0.11332054611479812,2.0,0
53.45405960083008,5.109593391418457,-1.5832632780075073,-0.0,-0.0,-1.0,0.1353360612316104,2.0,0
53.6932373046875,5.457088470458984,-1.6081312894821167,-0.0,-0.0,-1.0,0.11160875267113357,1.0,0
53.48740768432617,3.257183074951172,-1.0380409955978394,0.20799200852840186,0.8711606798470558,0.4447677981562252,0.14146761725601528,3.0,0
54.5797119140625,3.236140727996826,-1.5875144004821777,-0.0,-0.0,-1.0,0.022793853549377973,2.0,0
55.14594650268555,3.8055639266967773,-1.643503189086914,-0.0,-0.0,-1.0,0.10064406029689525,2.0,0
54.74074935913086,4.676846027374268,-1.5455994606018066,-0.0,-0.0,-1.0,0.18252306520428152,1.0,0
54.51424026489258,5.243968963623047,-1.4902737140655518,-0.0,-0.0,-1.0,0.15771340980357437,2.0,0
54.603675842285156,5.48006010055542,-1.495570421218872,-0.2081279983761106,-0.39609768104877346,-0.8943094337866163,0.19384551280899256,3.0,0
53.00531005859375,4.688884735107422,-1.2849669456481934,-0.0,-0.0,-1.0,0.14207919578509917,2.0,0
53.797569274902344,5.489323616027832,-1.373013973236084,-0.0,-0.0,-1.0,0.16249792571304397,2.0,0
54.365631103515625,3.4012060165405273,-1.674342393875122,-0.0,-0.0,-1.0,0.030887620682312624,1.0,0
54.54599380493164,3.6065673828125,-1.6924164295196533,-0.0,-0.0,-1.0,0.015213735179602231,1.0,0
54.65713119506836,3.6721930503845215,-1.7068068981170654,-0.0,-0.0,-1.0,0.022498763375002173,2.0,0
54.95091247558594,3.852616786956787,-1.7449240684509277,-0.0,-0.0,-1.0,0.12424931714821971,1.0,0
54.744415283203125,4.7410736083984375,-1.673114538192749,-0.0,-0.0,-1.0,0.20995903233937263,1.0,0
53.35405731201172,3.30594539642334,-1.5203282833099365,-0.0,-0.0,-1.0,0.12516529525609682,1.0,0
53.36758041381836,3.8299970626831055,-1.4944713115692139,-0.0,-0.0,-1.0,0.04703768389606159,1.0,0
54.20109939575195,3.322934627532959,-1.6524970531463623,-0.0,-0.0,-1.0,0.02115161663731355,1.0,0
54.28717041015625,3.3606486320495605,-1.6640772819519043,-0.0,-0.0,-1.0,0.022367338636370204,1.0,0
53.660823822021484,5.545871257781982,-1.4678335189819336,-0.0,-0.0,-1.0,0.14869230288635493,1.0,0
53.83827209472656,5.453741073608398,-1.4998271465301514,-0.0,-0.0,-1.0,0.14221689239879587,1.0,0
54.54542922973633,5.0720672607421875,-1.628173828125,-0.0,-0.0,-1.0,0.17469774468994076,2.0,0
54.45048522949219,5.57879114151001,-1.5949029922485352,-0.38547411518086705,-0.5296108295050921,-0.755593856378184,0.15034254843984587,4.0,0
53.46406555175781,3.2972006797790527,-0.9362444877624512,-0.0,-0.0,-1.0,0.07764730499409579,1.0,0
52.8616943359375,5.6054511070251465,-1.6725510358810425,-0.0,-0.0,-1.0,0.13792266876825302,1.0,0
53.82151794433594,5.583894729614258,-1.854174017906189,-0.0,-0.0,-1.0,0.12962813660646055,1.0,0
53.67186737060547,5.3720574378967285,-1.25015127658844,-0.0,-0.0,-1.0,0.13403609398820832,1.0,0
54.741050720214844,5.0709123611450195,-1.4226614236831665,-0.0,-0.0,-1.0,0.12487100513310787,1.0,0
54.70173263549805,4.770449638366699,-1.426590085029602,-0.0,-0.0,-1.0,0.18731589741695728,1.0,0
53.53935241699219,3.4648618698120117,-0.7180047035217285,-0.0,-0.0,-1.0,0.05610832510259377,1.0,0
53.546112060546875,3.4028515815734863,-0.7211726903915405,-0.0,-0.0,-1.0,0.05610832510259367,1.0,0
54.55703353881836,3.2067275047302246,-1.6432549953460693,-0.0,-0.0,-1.0,0.036345669996573085,1.0,0
54.699440002441406,3.332091808319092,-1.6631882190704346,-0.0,-0.0,-1.0,0.029656872776445874,2.0,0
55.09440612792969,3.873541831970215,-1.7137620449066162,-0.3913063878544791,-0.7627444030398894,-0.5148789046519608,0.0318803148442071,4.0,0
53.443931579589844,3.1406638622283936,-1.5296026468276978,-0.0,-0.0,-1.0,0.17997211339086003,2.0,0
55.184669494628906,5.003416061401367,-1.1702122688293457,-0.0,-0.0,-1.0,0.17077838818717384,1.0,0
53.4599494934082,3.194394588470459,-0.9156157970428467,-0.0,-0.0,-1.0,0.0952797109616839,1.0,0
53.405677795410156,3.2986936569213867,-1.2091715335845947,-0.0,-0.0,-1.0,0.10668278623209931,1.0,0
53.5062370300293,3.418708324432373,-1.227398157119751,-0.0,-0.0,-1.0,0.1768693304040501,1.0,0
53.454627990722656,3.3071842193603516,-1.2419999837875366,-0.0,-0.0,-1.0,0.1464908553022462,2.0,0
52.722572326660156,5.280372619628906,-1.6565072536468506,-0.0,-0.0,-1.0,0.0708901258515467,1.0,0
52.785552978515625,5.601932525634766,-1.6756527423858643,-0.0,-0.0,-1.0,0.12397366444979774,2.0,0
53.538360595703125,3.1789660453796387,-1.2280349731445312,-0.3804116526159312,0.8551067931400291,-0.3522489842139958,0.11795218491298705,3.0,0
54.67366409301758,5.334263801574707,-1.6173151731491089,-0.0,-0.0,-1.0,0.12365607888492458,2.0,0
54.51822280883789,5.580027103424072,-1.608758807182312,-0.0,-0.0,-1.0,0.1785289337486038,1.0,0
54.38725280761719,5.5748820304870605,-1.595368504524231,-0.1236662983247605,-0.8894967583746607,0.43988880810907394,0.1110260805206203,6.0,0
53.32624816894531,3.1727309226989746,-0.6145322322845459,-0.0,-0.0,-1.0,0.03315253855334399,2.0,0
55.07756042480469,4.190593242645264,-1.8009530305862427,-0.0,-0.0,-1.0,0.022560150320145467,1.0,0
54.803977966308594,3.8168845176696777,-1.7630983591079712,-0.0,-0.0,-1.0,0.08495359401550712,2.0,0
54.83422088623047,3.9726290702819824,-1.769865870475769,-0.0,-0.0,-1.0,0.08258161497647314,2.0,0
54.776363372802734,4.7813897132873535,-1.7835849523544312,-0.0,-0.0,-1.0,0.18417700660000128,1.0,0
54.34895324707031,5.625235557556152,-1.7610973119735718,-0.0,-0.0,-1.0,0.11843703545945247,2.0,0
53.641082763671875,4.356563568115234,-1.651605486869812,-0.0,-0.0,-1.0,0.047418758035821296,1.0,0
53.71760559082031,5.56505823135376,-1.6914242506027222,-0.0,-0.0,-1.0,0.1361413547160624,1.0,0
53.131103515625,3.89924955368042,-1.5870591402053833,-0.0,-0.0,-1.0,0.03862912078300156,1.0,0
52.743770599365234,5.5614519119262695,-1.5866488218307495,-0.0,-0.0,-1.0,0.14099947108857844,1.0,0
52.789798736572266,5.601072311401367,-1.6813709735870361,-0.0,-0.0,-1.0,0.1239736644497977,2.0,0
53.46392059326172,3.296544075012207,-1.3446303606033325,-0.0,-0.0,-1.0,0.10886768660718509,2.0,0
53.7949104309082,4.351428031921387,-1.619702696800232,-0.0,-0.0,-1.0,0.02272428942503178,1.0,0
54.993736267089844,3.9166016578674316,-1.7140499353408813,-0.0,-0.0,-1.0,0.11082311603080955,1.0,0
53.12510681152344,4.002492904663086,-1.5433412790298462,-0.0,-0.0,-1.0,0.03918001268712607,1.0,0
52.864280700683594,5.635196685791016,-1.564078450202942,-0.0,-0.0,-1.0,0.11147515554285582,1.0,0
53.923126220703125,4.484772682189941,-1.6253966093063354,-0.0,-0.0,-1.0,0.017970654943278975,1.0,0
55.10870361328125,3.9305996894836426,-1.7137914896011353,-0.0,-0.0,-1.0,0.028152081087115362,1.0,0
53.557899475097656,3.2244372367858887,-1.170966386795044,-0.0,-0.0,-1.0,0.1556913794934216,2.0,0
53.56261444091797,3.315521717071533,-0.9999151229858398,-0.0,-0.0,-1.0,0.11107186043617061,1.0,0
53.642913818359375,3.351085662841797,-1.0187419652938843,-0.0,-0.0,-1.0,0.11462888356874913,1.0,0
52.94896697998047,3.226048707962036,-1.4064452648162842,-0.0,-0.0,-1.0,0.04870815248095962,1.0,0
53.529296875,3.4766783714294434,-1.4495728015899658,-0.0,-0.0,-1.0,0.1806347180291543,1.0,0
53.08794403076172,4.98067569732666,-1.3733665943145752,-0.0,-0.0,-1.0,0.06775217090806063,1.0,0
54.55217742919922,5.439013481140137,-1.490187644958496,-0.0,-0.0,-1.0,0.1798830527109863,2.0,0
53.51423645019531,3.281003952026367,-1.2359881401062012,-0.0,-0.0,-1.0,0.17034977217850517,2.0,0
54.526832580566406,5.526710510253906,-1.5047450065612793,-0.18641309465485698,-0.8172851728767601,-0.5452477458339499,0.07018253200344343,4.0,0
54.45892333984375,5.46502685546875,-1.4675970077514648,-0.0,-0.0,-1.0,0.12494543254087663,2.0,0
54.63068389892578,5.39848518371582,-1.5483150482177734,-0.0,-0.0,-1.0,0.19272293524454098,1.0,0
54.40734100341797,5.593374252319336,-1.5548200607299805,0.3673872415958136,-0.9136470550729361,0.17399906169048904,0.07016302528359575,5.0,0
54.85472869873047,5.145046234130859,-1.5290238857269287,-0.0,-0.0,-1.0,0.13845651423804053,1.0,0
54.65294647216797,5.3468170166015625,-1.6243903636932373,-0.0,-0.0,-1.0,0.17513540488162882,2.0,0
54.477149963378906,5.384563446044922,-1.617142915725708,-0.0,-0.0,-1.0,0.1828215540450136,2.0,0
54.28114318847656,5.606325149536133,-1.627361536026001,-0.0,-0.0,-1.0,0.13161077322962927,1.0,0
53.3834228515625,3.2117462158203125,-1.330817461013794,-0.0,-0.0,-1.0,0.11466311331680056,1.0,0
54.56245803833008,5.279870986938477,-1.696615219116211,-0.0,-0.0,-1.0,0.18308108699882064,1.0,0
54.72920227050781,5.106287002563477,-1.7129840850830078,-0.0,-0.0,-1.0,0.15946086882834598,1.0,0
54.62504577636719,3.2233142852783203,-1.543565273284912,-0.0,-0.0,-1.0,0.02301039686644362,1.0,0
54.666019439697266,5.262634754180908,-1.672802209854126,-0.0,-0.0,-1.0,0.14370461348014474,1.0,0
55.06425476074219,3.8642587661743164,-1.6747009754180908,-0.0,-0.0,-1.0,0.10791611434621756,1.0,0
54.705780029296875,5.20587158203125,-1.6691393852233887,-0.0,-0.0,-1.0,0.12961472271245447,1.0,0
52.80377960205078,3.785006523132324,-1.636235237121582,-0.0,-0.0,-1.0,0.015477609655492492,1.0,0
53.569435119628906,3.2962560653686523,-1.4648778438568115,-0.0,-0.0,-1.0,0.1693360828038121,1.0,0
54.44859313964844,5.629070281982422,-1.5718519687652588,-0.0,-0.0,-1.0,0.13329001695512466,1.0,0
54.36906051635742,3.795778274536133,-1.847249984741211,-0.0,-0.0,-1.0,0.017330216109487,1.0,0
54.50637435913086,4.328651428222656,-1.7900104522705078,-0.0,-0.0,-1.0,0.030875681432433657,1.0,0
54.73423767089844,4.675021648406982,-1.7999944686889648,-0.0,-0.0,-1.0,0.17166244541314238,1.0,0
54.41267395019531,4.526311874389648,-1.7614469528198242,-0.0,-0.0,-1.0,0.10530196081018015,1.0,0
54.751983642578125,4.964187145233154,-1.782099723815918,-0.0,-0.0,-1.0,0.17192844092258272,1.0,0
52.76315689086914,3.462164878845215,-1.5868844985961914,-0.0,-0.0,-1.0,0.03646404920374604,2.0,0
52.93373107910156,3.61370849609375,-1.6017475128173828,-0.0,-0.0,-1.0,0.014211542445318255,1.0,0
