x,y,z,nx,ny,nz,curvature,density,label
13.24393367767334,22.595306396484375,-1.2243297100067139,-0.0,-0.0,-1.0,0.02828188219797752,1.0,0
15.089953422546387,22.738534927368164,-0.916085958480835,-0.0,-0.0,-1.0,0.11726408672839188,1.0,0
13.728375434875488,21.9266357421875,-1.0724279880523682,-0.0,-0.0,-1.0,0.10744325243839256,1.0,0
13.242794036865234,21.729534149169922,-1.1458749771118164,-0.35193175409356936,0.9175824473003416,-0.18489589737725357,0.10391932984094597,5.0,0
15.174264907836914,21.6527099609375,-1.150336503982544,-0.0,-0.0,-1.0,0.1745394936123756,1.0,0
14.491379737854004,21.453264236450195,-1.272667407989502,0.9937112520870557,0.10331293876412052,-0.043178515021911494,0.13443442671933015,3.0,0
14.481087684631348,21.395902633666992,-1.2686185836791992,-0.0,-0.0,-1.0,0.17585493722144355,1.0,0
12.881720542907715,20.773475646972656,-1.1435439586639404,-0.0,-0.0,-1.0,0.0354586301410809,1.0,0
14.597966194152832,21.142169952392578,-1.2158730030059814,-0.0,-0.0,-1.0,0.08787572729090588,1.0,0
14.467963218688965,20.96285057067871,-1.226327896118164,-0.0,-0.0,-1.0,0.06437562453550641,1.0,0
13.503938674926758,23.13254165649414,-0.7901177406311035,-0.0,-0.0,-1.0,0.2055762427285532,1.0,0
13.594520568847656,23.053741455078125,-1.105845332145691,0.8474703761168925,0.472090555781471,-0.24274362761200213,0.22636288668792728,3.0,0
12.980125427246094,22.76889419555664,-1.1601539850234985,-0.0,-0.0,-1.0,0.09149612903462466,1.0,0
13.45074462890625,22.906526565551758,-1.1068145036697388,-0.0,-0.0,-1.0,0.19507037109699615,2.0,0
13.207751274108887,22.77159881591797,-1.12539541721344,-0.40652514955710933,-0.8316222130181571,0.37834084843214194,0.19424931995520311,3.0,0
12.91559886932373,22.360294342041016,-1.1186000108718872,-0.0,-0.0,-1.0,0.14080109990516415,1.0,0
12.936302185058594,22.718746185302734,-1.1898446083068848,-0.0,-0.0,-1.0,0.07790738966581776,1.0,0
13.59825325012207,23.036067962646484,-1.127185344696045,-0.06535578072755772,0.9943360844177587,-0.08381153351568824,0.18526360798442967,5.0,0
13.38784408569336,22.796356201171875,-1.1275684833526611,-0.0,-0.0,-1.0,0.21399508506779433,2.0,0
13.112783432006836,22.69637680053711,-1.158381462097168,-0.0,-0.0,-1.0,0.12051683785552984,2.0,0
12.952425956726074,22.61634063720703,-1.176619291305542,-0.0,-0.0,-1.0,0.07413619239649777,2.0,0
13.489816665649414,23.050678253173828,-1.1804873943328857,-0.0,-0.0,-1.0,0.23105153499264172,1.0,0
13.356613159179688,22.80701446533203,-1.1561634540557861,0.4373208082772033,0.8872201139065714,-0.14693869513298394,0.17443845761535384,3.0,0
13.147658348083496,22.642013549804688,-1.1554300785064697,-0.0,-0.0,-1.0,0.09293348762562952,1.0,0
12.867772102355957,22.182430267333984,-1.1204233169555664,-0.0,-0.0,-1.0,0.15825399456761025,1.0,0
12.77647590637207,22.77470588684082,-1.1505869626998901,-0.0,-0.0,-1.0,0.0935585467623586,1.0,0
13.467544555664062,23.13412094116211,-1.1573799848556519,-0.0,-0.0,-1.0,0.15239872516300895,2.0,0
13.004058837890625,22.6673641204834,-1.1111472845077515,-0.0,-0.0,-1.0,0.0843403155377505,2.0,0
13.739883422851562,21.812719345092773,-1.3006080389022827,-0.0,-0.0,-1.0,0.09734451515002969,1.0,0
13.517816543579102,21.62624740600586,-1.287356972694397,-0.0,-0.0,-1.0,0.02402311700781269,2.0,0
13.018522262573242,20.880537033081055,-1.2024341821670532,-0.0,-0.0,-1.0,0.03577537055118839,1.0,0
12.925779342651367,20.867860794067383,-1.2122641801834106,-0.0,-0.0,-1.0,0.0354586301410809,1.0,0
14.596454620361328,22.35447120666504,-1.3314067125320435,-0.9722670522519246,0.23238361599561339,0.026355912470582905,0.05437872422448674,3.0,0
14.381223678588867,22.064552307128906,-1.287786841392517,-0.0,-0.0,-1.0,0.08119883683684716,2.0,0
14.050901412963867,21.818763732910156,-1.2685235738754272,-0.0,-0.0,-1.0,0.0941936911670584,1.0,0
13.22201156616211,20.724552154541016,-1.1462124586105347,-0.0,-0.0,-1.0,0.03237722045881212,2.0,0
15.02524185180664,22.561189651489258,-1.3413070440292358,0.0542340875788693,0.8862810486157676,-0.4599614838320949,0.2059060219430827,3.0,0
13.507281303405762,22.91122055053711,-1.1128889322280884,0.476199551910227,0.6030152259517504,-0.6400051750031859,0.26352122323796956,4.0,0
13.31566047668457,22.76177978515625,-1.1013859510421753,-0.8354001314125931,-0.19216421794912322,-0.5149558561428583,0.11748903906363586,3.0,0
13.106278419494629,22.642757415771484,-1.0977405309677124,-0.0,-0.0,-1.0,0.1206169034374656,1.0,0
14.388248443603516,21.31175994873047,-1.1254757642745972,-0.0,-0.0,-1.0,0.14299727800692438,1.0,0
14.121620178222656,20.908672332763672,-1.071466326713562,-0.0,-0.0,-1.0,0.22443748435209546,1.0,0
14.313360214233398,20.97591781616211,-1.063472867012024,-0.0,-0.0,-1.0,0.1740554515249298,1.0,0
14.262228012084961,20.926368713378906,-1.0590068101882935,-0.0,-0.0,-1.0,0.206737451253742,1.0,0
13.202194213867188,22.60405731201172,-1.1587820053100586,-0.0,-0.0,-1.0,0.06388977776229425,1.0,0
12.97342586517334,22.483699798583984,-1.14764404296875,-0.0,-0.0,-1.0,0.08220180413065364,1.0,0
13.649160385131836,22.85491943359375,-1.1878385543823242,0.22858138170328451,0.6856100917449905,-0.6911507462457395,0.13334885314135353,3.0,0
13.450582504272461,22.61111068725586,-1.147994041442871,-0.0,-0.0,-1.0,0.10317835922970078,1.0,0
13.093767166137695,23.115726470947266,-0.7946946620941162,-0.0,-0.0,-1.0,0.09409735322507046,2.0,0
12.90864086151123,23.06938934326172,-0.7926149368286133,-0.0,-0.0,-1.0,0.16588453540317946,1.0,0
14.938676834106445,22.55200958251953,-1.084235668182373,-0.0,-0.0,-1.0,0.15755058667820046,1.0,0
14.846056938171387,22.455989837646484,-0.647514820098877,-0.0,-0.0,-1.0,0.06591467941526646,1.0,0
13.235966682434082,20.7962646484375,-0.9393290281295776,-0.0,-0.0,-1.0,0.03380142335074233,1.0,0
13.369277000427246,22.463428497314453,-1.2015901803970337,-0.0,-0.0,-1.0,0.05052121626832714,1.0,0
13.661243438720703,22.541542053222656,-1.197409987449646,-0.0,-0.0,-1.0,0.09600264365060232,1.0,0
14.21159839630127,22.269874572753906,-1.1268242597579956,-0.8503192946286915,0.09189037999811507,-0.5181826466082848,0.12617025983156946,3.0,0
14.356730461120605,22.344894409179688,-1.1308296918869019,-0.6072269092218003,-0.7405741257409978,-0.2877941017461895,0.06329190290059265,3.0,0
14.266472816467285,22.650493621826172,-1.1824675798416138,-0.0,-0.0,-1.0,0.019070384196766692,1.0,0
13.357471466064453,22.816360473632812,-0.9410673379898071,-0.0,-0.0,-1.0,0.13642908748019122,1.0,0
13.411294937133789,22.83040428161621,-0.8369989395141602,-0.0,-0.0,-1.0,0.18000162802174258,1.0,0
13.150049209594727,22.827098846435547,-0.8443050384521484,-0.0,-0.0,-1.0,0.11859677723063716,1.0,0
14.34174919128418,22.847524642944336,-1.3444162607192993,-0.0,-0.0,-1.0,0.022304594613621616,2.0,0
14.999528884887695,22.62897300720215,-1.3034557104110718,-0.0,-0.0,-1.0,0.23276107327519974,2.0,0
14.605478286743164,22.38907241821289,-1.3036080598831177,-0.0,-0.0,-1.0,0.05474439559621849,2.0,0
12.774118423461914,21.508106231689453,-0.6144270896911621,-0.0,-0.0,-1.0,0.1967958878565189,1.0,0
13.650901794433594,23.061203002929688,-1.0452176332473755,-0.0,-0.0,-1.0,0.13733440812831324,2.0,0
13.450946807861328,22.92988395690918,-1.0434900522232056,-0.11857353808427726,-0.4492736693263362,-0.8854905341765241,0.10061974785170866,7.0,0
13.631668090820312,23.040973663330078,-1.0329442024230957,-0.0,-0.0,-1.0,0.16888604621232087,2.0,0
13.400779724121094,22.842586517333984,-1.0519232749938965,0.8484824247157036,-0.12035467769441871,-0.5153565042818745,0.22985125221447347,5.0,0
13.552658081054688,22.831085205078125,-1.0370960235595703,-0.0,-0.0,-1.0,0.15870550636533978,2.0,0
14.293449401855469,23.130290985107422,-1.0409419536590576,-0.0,-0.0,-1.0,0.15117446032028622,1.0,0
14.757429122924805,22.790449142456055,-1.0098044872283936,-0.0,-0.0,-1.0,0.17385087594456078,1.0,0
15.189962387084961,20.724319458007812,-0.8716118335723877,-0.0,-0.0,-1.0,0.09886677621402538,1.0,0
13.09916877746582,21.065032958984375,-0.9410014152526855,-0.0,-0.0,-1.0,0.0362500547845768,1.0,0
15.102408409118652,22.710569381713867,-1.1301418542861938,-0.0,-0.0,-1.0,0.14156742038201137,2.0,0
14.423649787902832,22.35761833190918,-1.1536914110183716,-0.0,-0.0,-1.0,0.06751946478623999,1.0,0
14.230838775634766,22.257568359375,-1.1605793237686157,-0.890491128231187,0.14582684931130652,-0.4309989333646727,0.10726108418234633,4.0,0
15.135771751403809,22.60165786743164,-1.1148817539215088,0.27885379369208674,0.3861602291189683,-0.8792729037052814,0.17427246056403267,6.0,0
13.57178020477295,22.93746566772461,-1.1447160243988037,-0.0,-0.0,-1.0,0.1545910871481344,2.0,0
13.372114181518555,22.85144805908203,-1.1375465393066406,-0.0,-0.0,-1.0,0.23321026883244336,2.0,0
13.132452964782715,22.832721710205078,-1.1362073421478271,0.22593850912383823,-0.35840582622626704,-0.9058129242961618,0.14764755893142847,6.0,0
13.647317886352539,22.982236862182617,-0.879194974899292,-0.0,-0.0,-1.0,0.22145765139856044,1.0,0
13.449567794799805,22.926681518554688,-0.862572193145752,-0.0,-0.0,-1.0,0.18000779887014715,2.0,0
13.25219440460205,23.05919075012207,-0.8668899536132812,-0.0,-0.0,-1.0,0.1346400250961195,2.0,0
13.349749565124512,23.13707160949707,-0.826287031173706,-0.0,-0.0,-1.0,0.23578581684323316,1.0,0
13.165262222290039,23.06882667541504,-0.8351261615753174,-0.0,-0.0,-1.0,0.08127741213431063,1.0,0
15.073486328125,22.58618927001953,-1.2696644067764282,0.7782453867357942,0.6198643236752142,0.10051038881192192,0.2616784442151058,6.0,0
14.47482681274414,22.211772918701172,-1.2804456949234009,-0.0,-0.0,-1.0,0.07531934255038636,2.0,0
14.266935348510742,21.951322555541992,-1.2744535207748413,-0.0,-0.0,-1.0,0.12851083705288602,2.0,0
14.310885429382324,22.058574676513672,-1.2796915769577026,-0.0,-0.0,-1.0,0.09177582194871638,1.0,0
13.395753860473633,22.872583389282227,-1.0800551176071167,-0.5481984828632807,-0.5994346515627964,-0.5832293904564366,0.22428896975054935,4.0,0
13.139503479003906,22.780162811279297,-1.0920182466506958,-0.5232252801219983,-0.7682271941378874,-0.36886621481003823,0.21024849820035071,4.0,0
12.837075233459473,22.919511795043945,-1.1221140623092651,-0.0,-0.0,-1.0,0.16636682173875542,2.0,0
13.459107398986816,23.026090621948242,-1.1083626747131348,-0.0,-0.0,-1.0,0.10539568218837209,1.0,0
13.14755916595459,22.797222137451172,-1.1180150508880615,-0.6606270748176798,-0.4938555049440291,-0.5654012807328206,0.15681249850284998,6.0,0
13.12832260131836,22.825897216796875,-1.1213951110839844,0.22593850912383823,-0.35840582622626704,-0.9058129242961618,0.13679846257082515,6.0,0
12.819698333740234,22.906810760498047,-1.1509761810302734,-0.0,-0.0,-1.0,0.14082371846711392,2.0,0
15.129854202270508,21.231199264526367,-1.2338907718658447,-0.0,-0.0,-1.0,0.0477577293205717,1.0,0
15.186866760253906,22.51262092590332,-1.3458659648895264,-0.0,-0.0,-1.0,0.1937452925316475,1.0,0
15.144872665405273,20.678497314453125,-1.1831109523773193,-0.0,-0.0,-1.0,0.09886677621402534,1.0,0
15.03235149383545,21.18658447265625,-1.2375836372375488,-0.0,-0.0,-1.0,0.04617167495786868,1.0,0
14.557024955749512,22.547670364379883,-1.366661548614502,-0.0,-0.0,-1.0,0.05065984506083628,1.0,0
14.303560256958008,21.181936264038086,-1.3136775493621826,-0.0,-0.0,-1.0,0.12951384517616918,1.0,0
14.271303176879883,21.73169708251953,-1.3515832424163818,-0.07573596422474027,0.3051616694690991,-0.9492841614657759,0.03919027215627825,3.0,0
14.28093147277832,22.058685302734375,-1.3707611560821533,-0.0,-0.0,-1.0,0.07373272071103834,1.0,0
14.324418067932129,22.208112716674805,-1.374544382095337,-0.0,-0.0,-1.0,0.09693211567453221,1.0,0
13.974653244018555,21.90412712097168,-1.4010188579559326,-0.0,-0.0,-1.0,0.040298412073796516,1.0,0
13.315818786621094,22.883827209472656,-0.7849690914154053,-0.0,-0.0,-1.0,0.19416755782677259,2.0,0
13.031601905822754,22.896039962768555,-0.8163635730743408,-0.0,-0.0,-1.0,0.14489153894536372,1.0,0
13.477560043334961,22.928058624267578,-1.0233241319656372,-0.12081188284219635,0.9463566427478318,0.299689161784632,0.1596431902014635,6.0,0
13.549835205078125,23.082801818847656,-1.0281327962875366,-0.0,-0.0,-1.0,0.2112368387044807,2.0,0
13.213279724121094,22.8461856842041,-1.0406347513198853,0.10816265375444119,-0.8286563358938439,0.5492080819833098,0.13145189221141526,6.0,0
15.071585655212402,22.574594497680664,-1.2197750806808472,0.7031593644769599,0.1880094219533074,-0.6857254300411653,0.19053132099837125,5.0,0
15.093520164489746,22.78445053100586,-1.2456456422805786,-0.0,-0.0,-1.0,0.2243930285752251,1.0,0
14.329317092895508,21.058609008789062,-1.0650602579116821,0.4492555191839906,-0.8557086999393592,0.25677246606833537,0.15611260683546113,4.0,0
14.436175346374512,21.295135498046875,-1.0890098810195923,-0.0,-0.0,-1.0,0.18295714295421311,1.0,0
14.314794540405273,22.315181732177734,-1.2228845357894897,-0.0,-0.0,-1.0,0.09877535774807948,1.0,0
14.071186065673828,22.304515838623047,-1.233596682548523,-0.9190541320367572,0.08266558603604769,0.3853646367681904,0.11369438360754265,3.0,0
13.607213020324707,22.418609619140625,-1.2712599039077759,-0.0,-0.0,-1.0,0.06703109550256345,1.0,0
13.182927131652832,22.341344833374023,-1.2835806608200073,-0.0,-0.0,-1.0,0.010554494208638592,2.0,0
13.502218246459961,23.021928787231445,-0.977420449256897,-0.0,-0.0,-1.0,0.19596135185726862,2.0,0
13.316404342651367,22.901458740234375,-0.9721039533615112,0.07308904363477821,-0.8534594875576509,-0.5160086189187012,0.1440553833248437,8.0,0
13.03028678894043,22.908100128173828,-0.9854182004928589,-0.0,-0.0,-1.0,0.13041191551797998,1.0,0
13.382389068603516,22.871906280517578,-1.0642693042755127,-0.5981395938735148,-0.5992409942333968,-0.5321083132887485,0.17195924527884437,3.0,0
13.511421203613281,23.09136962890625,-1.0829288959503174,-0.0,-0.0,-1.0,0.2730345387582416,2.0,0
13.254215240478516,22.825008392333984,-1.0661234855651855,0.962798797909139,0.2116941437392745,-0.16794065693337057,0.1636579276319855,6.0,0
12.922860145568848,22.921772003173828,-1.0967028141021729,-0.0,-0.0,-1.0,0.17644216791620623,1.0,0
15.064708709716797,20.99985122680664,-1.229561448097229,-0.0,-0.0,-1.0,0.03671478468768961,1.0,0
15.054587364196777,21.620758056640625,-1.3173655271530151,-0.0,-0.0,-1.0,0.10636031640696719,2.0,0
13.4945650100708,22.928773880004883,-1.0251432657241821,-0.2712925118660367,0.750266230837704,0.6029104045129768,0.20006661966857078,4.0,0
13.531058311462402,23.070613861083984,-1.038511872291565,-0.0,-0.0,-1.0,0.227584066615816,2.0,0
13.304289817810059,22.865747451782227,-1.0318175554275513,-0.0,-0.0,-1.0,0.11388636493481487,1.0,0
15.034855842590332,22.7103271484375,-1.114171028137207,-0.0,-0.0,-1.0,0.2169426240593813,2.0,0
14.462594032287598,21.448740005493164,-1.0379302501678467,-0.0,-0.0,-1.0,0.1494906971058994,2.0,0
14.205038070678711,22.32110595703125,-1.15932035446167,-0.23488278905643498,-0.41427752233591,-0.8793203113156718,0.13517114852155626,3.0,0
14.202035903930664,22.5673770904541,-1.186284065246582,-0.0,-0.0,-1.0,0.029275370031471626,2.0,0
13.717714309692383,22.54058074951172,-1.235532283782959,-0.0,-0.0,-1.0,0.10276261689563872,1.0,0
14.021860122680664,22.84288787841797,-1.2354729175567627,-0.0,-0.0,-1.0,0.043901916385500124,1.0,0
13.983551025390625,23.010967254638672,-1.2578685283660889,0.2750610706931482,0.8792970815294032,0.38881621597229293,0.05155285595005827,3.0,0
13.455318450927734,22.439987182617188,-1.253399133682251,-0.0,-0.0,-1.0,0.06592639506176289,2.0,0
13.088056564331055,21.851009368896484,-1.2321887016296387,-0.0,-0.0,-1.0,0.12068352564118923,2.0,0
13.220885276794434,22.34414291381836,-1.2689545154571533,-0.0,-0.0,-1.0,0.01072046758710243,2.0,0
15.093775749206543,22.727542877197266,-0.5606715679168701,-0.0,-0.0,-1.0,0.14739057512029835,2.0,0
14.979580879211426,22.638504028320312,-1.0398480892181396,-0.0,-0.0,-1.0,0.22990499066362044,2.0,0
14.946822166442871,22.744029998779297,-1.0539085865020752,-0.0,-0.0,-1.0,0.2704264915874303,1.0,0
14.036399841308594,22.361366271972656,-1.1390035152435303,-0.0,-0.0,-1.0,0.11599143414141266,2.0,0
13.784513473510742,22.708389282226562,-1.2036287784576416,-0.0,-0.0,-1.0,0.07985962100876552,1.0,0
13.845821380615234,23.100147247314453,-1.2308387756347656,0.8997028498367805,-0.20292436567018124,-0.3864666658496307,0.042111219546780175,3.0,0
13.427616119384766,22.552001953125,-1.2375600337982178,-0.0,-0.0,-1.0,0.07218133215572647,1.0,0
13.63512897491455,22.74408721923828,-1.226844072341919,-0.0,-0.0,-1.0,0.16025218279045195,1.0,0
13.021598815917969,21.71505355834961,-1.2207915782928467,-0.0,-0.0,-1.0,0.0898719016176954,2.0,0
13.087038040161133,22.01490592956543,-1.2372639179229736,-0.0,-0.0,-1.0,0.10196005308160264,1.0,0
13.175912857055664,22.44204330444336,-1.2619802951812744,-0.0,-0.0,-1.0,0.02529931242677131,2.0,0
12.84504222869873,22.069747924804688,-1.2751085758209229,-0.0,-0.0,-1.0,0.07654160968804843,1.0,0
12.859845161437988,22.274831771850586,-1.2905795574188232,-0.0,-0.0,-1.0,0.06334069926057984,1.0,0
15.013825416564941,22.518096923828125,-1.2643117904663086,-0.0,-0.0,-1.0,0.14858754487945308,1.0,0
15.000432968139648,22.66451644897461,-1.2800352573394775,0.8333253347367209,0.28921488215372604,-0.4710877183993853,0.2026645010607237,3.0,0
15.111954689025879,21.730823516845703,-1.176802635192871,-0.0,-0.0,-1.0,0.1963588721316528,1.0,0
14.681927680969238,22.319721221923828,-1.3024847507476807,-0.33841855336347687,-0.4971908983960347,-0.7989205800901087,0.03426939752034286,4.0,0
14.742210388183594,22.66396713256836,-1.3234128952026367,-0.0,-0.0,-1.0,0.09933520971775249,2.0,0
14.629239082336426,21.059833526611328,-1.203411340713501,0.5716854183775352,0.6326777172228097,-0.5223932317174841,0.05692474548717922,3.0,0
14.470856666564941,21.33156394958496,-1.2537035942077637,-0.0,-0.0,-1.0,0.13631431746956524,1.0,0
14.468001365661621,21.788087844848633,-1.2927350997924805,-0.0,-0.0,-1.0,0.05434012567246187,1.0,0
14.61109447479248,22.20621109008789,-1.3044822216033936,-0.0,-0.0,-1.0,0.03286387047690574,1.0,0
14.474519729614258,20.83817481994629,-1.212768316268921,-0.0,-0.0,-1.0,0.11658857276067548,1.0,0
14.527120590209961,20.91305160522461,-1.209468126296997,-0.0,-0.0,-1.0,0.07908822907658032,1.0,0
14.335577011108398,21.68081283569336,-1.3066143989562988,-0.0,-0.0,-1.0,0.03533605469179167,1.0,0
14.67350959777832,20.838665008544922,-1.1775436401367188,-0.0,-0.0,-1.0,0.06757310671134079,1.0,0
13.420112609863281,22.874971389770508,-1.0257949829101562,0.8739723465435377,-0.3951470624782558,-0.28289774918155014,0.23463568255913453,4.0,0
13.487707138061523,23.135906219482422,-1.0327463150024414,-0.0,-0.0,-1.0,0.2332751185045825,2.0,0
13.0674409866333,22.7177677154541,-1.0671923160552979,-0.0,-0.0,-1.0,0.12122450110135385,2.0,0
15.00549602508545,22.75628662109375,-1.0730286836624146,-0.0,-0.0,-1.0,0.24597672424287456,1.0,0
15.199206352233887,21.372100830078125,-1.3332675695419312,-0.0,-0.0,-1.0,0.07400403697552654,1.0,0
14.99955940246582,22.5775146484375,-1.0551263093948364,-0.8629769566505016,-0.3329240726218343,-0.38004254256481584,0.2602730510764104,3.0,0
14.888784408569336,22.742008209228516,-1.0889884233474731,-0.0,-0.0,-1.0,0.28217580337051734,1.0,0
14.333301544189453,22.364784240722656,-1.1325782537460327,-0.6072269092218003,-0.7405741257409978,-0.2877941017461895,0.061135155616603494,3.0,0
14.049665451049805,22.983436584472656,-1.2383261919021606,-0.0,-0.0,-1.0,0.06235826087545399,2.0,0
13.904468536376953,22.727109909057617,-1.2350784540176392,-0.0,-0.0,-1.0,0.059666145404750855,2.0,0
13.995429039001465,21.695749282836914,-1.1218897104263306,-0.0,-0.0,-1.0,0.14723540481766162,1.0,0
13.562249183654785,22.467636108398438,-1.2633036375045776,-0.0,-0.0,-1.0,0.07581209212431309,1.0,0
13.329453468322754,21.755062103271484,-1.2349969148635864,-0.0,-0.0,-1.0,0.05408101391222357,1.0,0
13.249135971069336,22.0228328704834,-1.2720633745193481,-0.0,-0.0,-1.0,0.022703406503495855,2.0,0
13.328841209411621,22.287334442138672,-1.28337824344635,-0.0,-0.0,-1.0,0.014437796987497838,2.0,0
13.126999855041504,21.685646057128906,-1.2620059251785278,-0.0,-0.0,-1.0,0.05051801991229565,1.0,0
13.350934982299805,23.081485748291016,-0.8382633924484253,0.14695081748654837,-0.962411971360216,0.2284045853799319,0.24029508911429723,3.0,0
15.04527759552002,22.769752502441406,-0.6040248870849609,-0.0,-0.0,-1.0,0.14739057512029835,1.0,0
15.16130542755127,21.977813720703125,-1.4036177396774292,-0.0,-0.0,-1.0,0.10443946412275872,1.0,0
15.104084968566895,21.25350570678711,-1.3211668729782104,-0.0,-0.0,-1.0,0.13505387024856225,1.0,0
14.081789016723633,22.949264526367188,-1.2727917432785034,-0.0,-0.0,-1.0,0.06343063357232098,1.0,0
13.769486427307129,22.506376266479492,-1.2761205434799194,-0.0,-0.0,-1.0,0.08713348369749241,2.0,0
13.603592872619629,21.967050552368164,-1.2485235929489136,-0.0,-0.0,-1.0,0.0638426839008928,1.0,0
13.63813304901123,22.271848678588867,-1.2736905813217163,-0.0,-0.0,-1.0,0.030224160614728615,1.0,0
13.332853317260742,21.706010818481445,-1.2693527936935425,-0.0,-0.0,-1.0,0.05373494966417347,1.0,0
13.330171585083008,21.939067840576172,-1.2924836874008179,-0.0,-0.0,-1.0,0.05118704127854486,1.0,0
13.29836654663086,21.484050750732422,-1.2541481256484985,-0.0,-0.0,-1.0,0.03689975786379883,2.0,0
15.078670501708984,22.607370376586914,-1.0741981267929077,-0.7337196772491853,0.35254720104435555,-0.5808320809434874,0.22683398928949394,3.0,0
15.14794921875,21.85489273071289,-0.9787431955337524,-0.0,-0.0,-1.0,0.17888237136244897,1.0,0
14.358723640441895,22.355588912963867,-1.1625550985336304,-0.6072269092218003,-0.7405741257409978,-0.2877941017461895,0.07440573726140062,3.0,0
14.288981437683105,22.55148696899414,-1.1952768564224243,-0.0,-0.0,-1.0,0.029015263370481457,2.0,0
14.466093063354492,21.416574478149414,-1.046507477760315,-0.0,-0.0,-1.0,0.08732667885512412,2.0,0
14.133527755737305,22.230812072753906,-1.186510443687439,-0.0,-0.0,-1.0,0.11637181324548614,2.0,0
14.136049270629883,22.278356552124023,-1.1910775899887085,-0.8262600640626182,0.547027124136005,0.13437124690472335,0.11874725510895853,5.0,0
13.52959156036377,23.07006072998047,-0.8977769613265991,-0.0,-0.0,-1.0,0.16874261511984445,1.0,0
14.291916847229004,21.06099510192871,-1.0413883924484253,0.15322397901468227,-0.92939899226514,0.33576766585162793,0.185828421448581,3.0,0
13.653983116149902,21.851760864257812,-1.2284196615219116,-0.0,-0.0,-1.0,0.08917726473725338,1.0,0
13.244950294494629,22.88729476928711,-0.9211488962173462,-0.0,-0.0,-1.0,0.10620655196114964,2.0,0
13.371325492858887,21.38617515563965,-1.2322245836257935,-0.0,-0.0,-1.0,0.01874262451196997,2.0,0
13.338454246520996,21.51077651977539,-1.2496925592422485,-0.0,-0.0,-1.0,0.033957875836563865,2.0,0
13.340370178222656,21.326953887939453,-1.232108473777771,-0.0,-0.0,-1.0,0.013232860493232678,1.0,0
15.106788635253906,22.802032470703125,-0.663474440574646,-0.6823601677237672,0.5311321674556755,-0.5022780327645522,0.14012551667762901,3.0,0
15.12279987335205,22.567964553833008,-1.1159108877182007,-0.8677851040031216,0.22013619026306416,-0.4455211229636094,0.23831981667927246,6.0,0
15.095440864562988,22.73287582397461,-1.1390126943588257,-0.0,-0.0,-1.0,0.1459655206679144,2.0,0
15.181720733642578,21.93692970275879,-1.229101538658142,-0.0,-0.0,-1.0,0.1597858512911743,1.0,0
14.5750732421875,22.58739471435547,-1.2299662828445435,-0.0,-0.0,-1.0,0.06349034784644156,1.0,0
14.308488845825195,23.001928329467773,-1.3271936178207397,-0.0,-0.0,-1.0,0.1134049274368493,2.0,0
14.448657035827637,22.30952262878418,-1.2287789583206177,-0.0,-0.0,-1.0,0.06203274950075686,1.0,0
14.47108268737793,21.444488525390625,-1.1441453695297241,-0.0,-0.0,-1.0,0.16541892280346204,1.0,0
14.152825355529785,21.93743133544922,-1.2565511465072632,-0.0,-0.0,-1.0,0.10033344326453987,1.0,0
14.166374206542969,22.114582061767578,-1.2699419260025024,-0.0,-0.0,-1.0,0.06860528904610791,1.0,0
14.348132133483887,20.984485626220703,-1.1327985525131226,0.4490132742951957,-0.8276180728978828,-0.33680172938912023,0.11518693759944135,3.0,0
14.189746856689453,21.357229232788086,-1.1980046033859253,-0.0,-0.0,-1.0,0.050824202424199806,1.0,0
13.982329368591309,21.584209442138672,-1.262527585029602,-0.0,-0.0,-1.0,0.10115727418457068,1.0,0
12.94414234161377,22.812788009643555,-1.1356478929519653,-0.0,-0.0,-1.0,0.09670651809748951,1.0,0
13.95675277709961,20.92537498474121,-1.215175747871399,-0.0,-0.0,-1.0,0.09280798687584939,2.0,0
14.005606651306152,21.09526824951172,-1.2173982858657837,-0.0,-0.0,-1.0,0.0891428314770954,1.0,0
15.046247482299805,22.579618453979492,-0.7405580282211304,-0.0,-0.0,-1.0,0.11844097685032347,2.0,0
15.13110637664795,22.75540542602539,-0.7405115365982056,-0.0,-0.0,-1.0,0.10241784100690743,1.0,0
14.530223846435547,21.481096267700195,-0.7504512071609497,-0.0,-0.0,-1.0,0.07004342791002571,1.0,0
13.50166130065918,22.950881958007812,-1.0443331003189087,-0.714977663782485,-0.13576642875751269,-0.6858384774234899,0.22721805567883455,4.0,0
13.256141662597656,22.8096923828125,-1.0783451795578003,0.5359252863937009,-0.768205215837763,-0.3502068442556281,0.19168921198888147,4.0,0
13.115391731262207,22.80103302001953,-1.1034244298934937,-0.2281502593544803,-0.808642935703707,-0.5422582979475498,0.13920340735562675,7.0,0
15.064891815185547,22.55842399597168,-1.2340433597564697,0.7939311230050418,0.598710002763757,0.10592310661312437,0.1780131496976559,6.0,0
14.890043258666992,22.820205688476562,-1.3077447414398193,-0.0,-0.0,-1.0,0.1218175837656355,1.0,0
14.61983871459961,22.580642700195312,-1.340341567993164,-0.0,-0.0,-1.0,0.06809039631969681,1.0,0
15.202836990356445,21.286483764648438,-1.3816704750061035,-0.0,-0.0,-1.0,0.11742858891405632,2.0,0
14.502347946166992,22.15648651123047,-1.3180100917816162,-0.0,-0.0,-1.0,0.06931921626104529,2.0,0
14.589055061340332,22.321800231933594,-1.3163113594055176,-0.0,-0.0,-1.0,0.0398053977991567,2.0,0
13.658266067504883,23.014652252197266,-1.211944580078125,-0.0,-0.0,-1.0,0.1182956223200172,2.0,0
14.414310455322266,21.441265106201172,-1.2619349956512451,-0.0,-0.0,-1.0,0.1512146968356901,1.0,0
14.304628372192383,21.775894165039062,-1.323897361755371,-0.0,-0.0,-1.0,0.04101802185989057,2.0,0
13.483268737792969,22.724687576293945,-1.2210040092468262,-0.0,-0.0,-1.0,0.12841066368150678,1.0,0
14.390557289123535,20.949695587158203,-1.2203736305236816,-0.0,-0.0,-1.0,0.19135467701174558,1.0,0
14.432915687561035,21.182777404785156,-1.2316734790802002,-0.0,-0.0,-1.0,0.15073859712239418,1.0,0
13.669416427612305,22.022478103637695,-1.119048833847046,-0.0,-0.0,-1.0,0.07331691720789608,1.0,0
13.188895225524902,22.44394302368164,-1.2582902908325195,-0.0,-0.0,-1.0,0.02408349179552266,2.0,0
14.24433708190918,20.78720474243164,-1.243018627166748,-0.0,-0.0,-1.0,0.24119714404550358,1.0,0
13.082330703735352,21.76290512084961,-1.225724458694458,-0.0,-0.0,-1.0,0.11967447853572385,2.0,0
12.915283203125,22.13228988647461,-1.291313886642456,-0.0,-0.0,-1.0,0.06460569326219948,1.0,0
12.882396697998047,21.578580856323242,-1.256225347518921,-0.0,-0.0,-1.0,0.04905983500360241,1.0,0
15.070474624633789,22.647096633911133,-0.8872172832489014,-0.0,-0.0,-1.0,0.11323723086891546,2.0,0
13.326470375061035,22.94951629638672,-0.8653364181518555,-0.0,-0.0,-1.0,0.23412170016169426,2.0,0
13.845620155334473,21.72650909423828,-1.0563197135925293,-0.0,-0.0,-1.0,0.12375015184011473,1.0,0
14.798185348510742,22.690750122070312,-1.382932424545288,-0.0,-0.0,-1.0,0.07372202085978731,1.0,0
15.099552154541016,22.779125213623047,-1.315880537033081,-0.0,-0.0,-1.0,0.2543423475180586,2.0,0
14.92601490020752,22.950618743896484,-1.0493760108947754,-0.0,-0.0,-1.0,0.21890681753109703,1.0,0
14.993636131286621,22.610109329223633,-1.156846523284912,-0.0,-0.0,-1.0,0.1656158908997688,1.0,0
14.774909019470215,22.629304885864258,-1.3806147575378418,-0.0,-0.0,-1.0,0.058057331678704645,2.0,0
14.772682189941406,21.92379379272461,-1.2885634899139404,-0.0,-0.0,-1.0,0.040886756399585736,1.0,0
14.704973220825195,22.27162742614746,-1.3516838550567627,-0.0,-0.0,-1.0,0.03100381693912398,1.0,0
14.2163724899292,22.428325653076172,-1.1586344242095947,-0.0,-0.0,-1.0,0.08804742715780718,2.0,0
14.14004898071289,22.598180770874023,-1.1955130100250244,-0.0,-0.0,-1.0,0.04983744754687389,1.0,0
13.971002578735352,23.026378631591797,-1.283843755722046,-0.0,-0.0,-1.0,0.05155285595005822,2.0,0
14.482128143310547,21.806812286376953,-1.3561482429504395,-0.0,-0.0,-1.0,0.03711032586094388,1.0,0
14.183173179626465,22.32674789428711,-1.1561379432678223,-0.1828906100350615,-0.9136100886847283,0.36313582942817146,0.14272745468731124,3.0,0
13.683444023132324,22.440641403198242,-1.2914133071899414,-0.0,-0.0,-1.0,0.07741440112152727,1.0,0
13.249740600585938,22.876554489135742,-1.0629422664642334,-0.23621810612807154,-0.5771401469301481,-0.7817354137678003,0.18896763925307364,4.0,0
14.605298042297363,21.052610397338867,-1.2383594512939453,0.5716854183775352,0.6326777172228097,-0.5223932317174841,0.06402586471990719,3.0,0
14.49206829071045,21.430713653564453,-1.3107776641845703,-0.0,-0.0,-1.0,0.12968023737291237,2.0,0
14.431575775146484,21.658533096313477,-1.3532915115356445,-0.0,-0.0,-1.0,0.03523961614328888,1.0,0
13.595321655273438,22.158376693725586,-1.2861135005950928,-0.0,-0.0,-1.0,0.041285359314481,2.0,0
13.05372428894043,22.82979965209961,-1.1014809608459473,0.003929607627001172,0.40215969641780225,-0.9155611048756055,0.1641305144921753,3.0,0
14.524028778076172,20.850404739379883,-1.242692232131958,-0.0,-0.0,-1.0,0.08217959060362634,1.0,0
13.532021522521973,21.603845596313477,-1.2528355121612549,-0.0,-0.0,-1.0,0.01687175147994125,2.0,0
13.484601974487305,21.815059661865234,-1.282907485961914,-0.0,-0.0,-1.0,0.04495015207479307,1.0,0
12.859505653381348,22.365079879760742,-1.1082143783569336,-0.0,-0.0,-1.0,0.1513472272410597,1.0,0
13.56640625,21.09412384033203,-1.2035315036773682,-0.0,-0.0,-1.0,0.0067559119824714894,1.0,0
13.446443557739258,21.29082679748535,-1.2499065399169922,-0.0,-0.0,-1.0,0.004181379576826564,1.0,0
14.953813552856445,22.612852096557617,-0.6793702840805054,-0.0,-0.0,-1.0,0.1274773458486152,1.0,0
13.528463363647461,23.13191795349121,-1.0254685878753662,-0.0,-0.0,-1.0,0.21361113115166963,2.0,0
13.42031478881836,22.959569931030273,-1.0334396362304688,-0.7056557492205605,-0.5980455402974092,-0.37998880946989655,0.17989102214427183,4.0,0
13.013578414916992,21.835805892944336,-1.0367910861968994,-0.0,-0.0,-1.0,0.12914950439789297,2.0,0
13.603044509887695,22.90514373779297,-1.233933448791504,0.3311583171515289,0.7118740974011032,-0.6193298300830766,0.0732078241464231,4.0,0
13.342148780822754,22.529991149902344,-1.2512779235839844,-0.0,-0.0,-1.0,0.03837971729917801,1.0,0
13.121164321899414,22.210769653320312,-1.2706303596496582,-0.0,-0.0,-1.0,0.03130417391511631,1.0,0
12.988164901733398,21.706924438476562,-1.2520551681518555,-0.0,-0.0,-1.0,0.07975590974844284,2.0,0
12.9286527633667,21.85976791381836,-1.2836253643035889,-0.0,-0.0,-1.0,0.07500318753541976,1.0,0
12.882121086120605,21.514429092407227,-1.2620244026184082,-0.0,-0.0,-1.0,0.018435795086137068,1.0,0
12.85947322845459,21.627487182617188,-1.278787612915039,-0.0,-0.0,-1.0,0.07391831743760968,1.0,0
15.073762893676758,22.704051971435547,-0.8508427143096924,0.017325954281375414,0.3466591174598111,-0.9378311508956313,0.14564962616661145,3.0,0
13.85456657409668,23.070785522460938,-1.1950626373291016,0.9628655190628306,-0.03876956351292146,-0.2671832950333596,0.04211121954678012,3.0,0
13.5437593460083,22.822500228881836,-1.0674419403076172,0.9229937452611829,0.20169497398199418,-0.3277219609350859,0.1290772426172598,3.0,0
13.293466567993164,22.893815994262695,-0.9644970893859863,0.4386035950218311,-0.6594430826845759,-0.6105421419798874,0.1333847952218585,6.0,0
14.470359802246094,21.495227813720703,-0.8385021686553955,-0.0,-0.0,-1.0,0.1006406334894255,1.0,0
13.075116157531738,22.899324417114258,-1.012974500656128,-0.0,-0.0,-1.0,0.16523742487853468,2.0,0
13.102531433105469,21.7468204498291,-1.2256016731262207,-0.0,-0.0,-1.0,0.1196744785357238,2.0,0
12.895918846130371,21.271940231323242,-1.2364554405212402,-0.0,-0.0,-1.0,0.02887968439422867,2.0,0
13.025856018066406,20.684804916381836,-1.1535224914550781,-0.0,-0.0,-1.0,0.035219482551405945,1.0,0
15.109916687011719,22.720977783203125,-0.5591849088668823,-0.0,-0.0,-1.0,0.14739057512029835,2.0,0
13.264116287231445,22.963302612304688,-0.867633581161499,-0.0,-0.0,-1.0,0.23956361265408235,1.0,0
12.933183670043945,22.98710823059082,-0.958294153213501,-0.0,-0.0,-1.0,0.14528330952963692,2.0,0
15.132062911987305,22.588912963867188,-0.824284553527832,-0.46156946484344646,0.879292221869153,-0.11746836886814437,0.1457479990404323,3.0,0
15.109612464904785,22.70395851135254,-0.850214958190918,0.017325954281375414,0.3466591174598111,-0.9378311508956313,0.08419321155135272,3.0,0
14.756552696228027,21.90151023864746,-1.358752965927124,-0.0,-0.0,-1.0,0.041060707647701096,2.0,0
14.980302810668945,21.940860748291016,-1.3796796798706055,-0.0,-0.0,-1.0,0.060190305705180344,2.0,0
15.045995712280273,21.808055877685547,-1.3432559967041016,-0.0,-0.0,-1.0,0.10072471917675165,1.0,0
15.172648429870605,21.759014129638672,-1.0115103721618652,-0.0,-0.0,-1.0,0.1963588721316528,1.0,0
14.312215805053711,23.05388069152832,-1.3096449375152588,-0.0,-0.0,-1.0,0.11374259244501021,2.0,0
15.00801944732666,22.613048553466797,-1.223653793334961,-0.0,-0.0,-1.0,0.13244122149315207,2.0,0
15.087722778320312,22.544435501098633,-1.2097063064575195,0.7252577558491005,0.13544864513726354,-0.6750221123127791,0.16478593630695443,4.0,0
15.067739486694336,22.802024841308594,-0.9190266132354736,-0.0,-0.0,-1.0,0.13635706583771426,1.0,0
14.884440422058105,22.091724395751953,-1.3302046060562134,-0.0,-0.0,-1.0,0.058256077015155304,1.0,0
15.187463760375977,21.81610870361328,-1.2655562162399292,-0.0,-0.0,-1.0,0.17722120924350543,1.0,0
15.15038013458252,21.577577590942383,-1.1987098455429077,-0.0,-0.0,-1.0,0.10928193089537748,1.0,0
15.009391784667969,22.182445526123047,-1.3594211339950562,-0.0,-0.0,-1.0,0.07451961594234872,1.0,0
14.852962493896484,23.040054321289062,-1.1967798471450806,-0.0,-0.0,-1.0,0.21543781065093487,2.0,0
15.072521209716797,22.440685272216797,-1.0635014772415161,-0.0,-0.0,-1.0,0.12003517278922861,1.0,0
14.969457626342773,22.70410919189453,-1.1217652559280396,-0.0,-0.0,-1.0,0.19111092414004327,1.0,0
15.105990409851074,22.612407684326172,-1.1056517362594604,-0.4125286030629575,0.4721350343375269,-0.7790434269063741,0.21677630311372426,7.0,0
12.932599067687988,22.598411560058594,-1.1807469129562378,-0.0,-0.0,-1.0,0.06360471993265095,2.0,0
13.206469535827637,22.962604522705078,-1.0979965925216675,-0.0,-0.0,-1.0,0.12014354571554235,1.0,0
13.44524097442627,22.784202575683594,-1.0877054929733276,-0.08283823984302574,0.7291173942054622,-0.6793567924785513,0.2179223256667384,4.0,0
13.120903015136719,22.893457412719727,-0.9799623489379883,-0.0769035585545001,-0.7488627925979985,-0.6582479476185107,0.12599064132246895,3.0,0
13.530210494995117,22.837148666381836,-1.0965855121612549,-0.5494007246283392,0.6156868412106564,0.5648792413763314,0.18466909965196524,3.0,0
13.233624458312988,22.824594497680664,-1.1113207340240479,0.8291268286120477,0.40868954892290515,-0.3814728754143864,0.15432476352312693,3.0,0
12.903423309326172,22.93813133239746,-1.1397998332977295,-0.0,-0.0,-1.0,0.14927948522101273,2.0,0
13.385257720947266,22.602737426757812,-1.2358722686767578,-0.0,-0.0,-1.0,0.05017858064765374,1.0,0
13.184537887573242,22.55152130126953,-1.2433209419250488,-0.0,-0.0,-1.0,0.0239380867064258,1.0,0
14.640884399414062,22.338621139526367,-1.3078067302703857,-0.0,-0.0,-1.0,0.05164895748153142,2.0,0
14.537199974060059,22.1155948638916,-1.2881853580474854,-0.0,-0.0,-1.0,0.037612736757365255,2.0,0
13.524471282958984,22.94486427307129,-0.9200873374938965,-0.0,-0.0,-1.0,0.22187587384481366,2.0,0
13.337003707885742,22.924699783325195,-0.9299955368041992,-0.0,-0.0,-1.0,0.16459034869886693,2.0,0
13.137554168701172,22.992277145385742,-0.9499964714050293,-0.0,-0.0,-1.0,0.11359336547363602,1.0,0
14.763761520385742,22.617084503173828,-1.2206721305847168,-0.0,-0.0,-1.0,0.14108802720380353,1.0,0
14.653090476989746,22.462459564208984,-1.2040529251098633,-0.0,-0.0,-1.0,0.06972748216437213,1.0,0
13.602522850036621,22.278167724609375,-1.2191457748413086,-0.0,-0.0,-1.0,0.07416374126990917,1.0,0
13.43626594543457,22.288188934326172,-1.227196216583252,-0.0,-0.0,-1.0,0.04918705712849092,1.0,0
14.766448020935059,22.798725128173828,-1.3434572219848633,-0.0,-0.0,-1.0,0.10918717093440719,2.0,0
15.190643310546875,22.594005584716797,-1.2942142486572266,-0.0,-0.0,-1.0,0.18734260012771276,1.0,0
14.670157432556152,22.509784698486328,-1.3056368827819824,-0.0,-0.0,-1.0,0.06613046445004106,2.0,0
13.705903053283691,21.885448455810547,-1.2620787620544434,-0.0,-0.0,-1.0,0.10712683616975086,1.0,0
13.534992218017578,22.183719635009766,-1.3147039413452148,-0.0,-0.0,-1.0,0.04850289453184819,1.0,0
14.927437782287598,22.700820922851562,-1.2980287075042725,-0.0,-0.0,-1.0,0.1554945013832762,2.0,0
14.63050651550293,22.55730438232422,-1.286618947982788,-0.20098688756882685,0.24779431902033314,-0.9477353251233414,0.0689849744898916,3.0,0
13.652609825134277,22.331069946289062,-1.291459321975708,-0.0,-0.0,-1.0,0.060327517885610506,1.0,0
13.846240043640137,22.501617431640625,-1.3097379207611084,-0.0,-0.0,-1.0,0.08829149399660503,1.0,0
13.360769271850586,22.254749298095703,-1.2925541400909424,0.31673476105834536,0.5315624160794962,-0.7855701680620526,0.015757759822602427,3.0,0
13.45706558227539,22.309528350830078,-1.2967631816864014,-0.0,-0.0,-1.0,0.020571878721715325,1.0,0
14.063899040222168,23.068199157714844,-1.197028398513794,-0.0,-0.0,-1.0,0.05956271344631393,2.0,0
13.925573348999023,23.09780502319336,-1.2077391147613525,0.5932179832196056,0.763279608575733,-0.25592315940012006,0.0592142157015166,5.0,0
13.690975189208984,22.849239349365234,-1.1796438694000244,-0.0,-0.0,-1.0,0.1361011203279918,2.0,0
13.450821876525879,22.822128295898438,-1.1866261959075928,-0.0,-0.0,-1.0,0.19824871374039332,2.0,0
13.066588401794434,22.72193145751953,-1.1895992755889893,-0.8667800242306202,-0.027716251624269737,-0.4979198720584127,0.13066928654459906,3.0,0
12.73254108428955,22.829975128173828,-1.2231948375701904,-0.0,-0.0,-1.0,0.10601912477128667,2.0,0
13.435856819152832,22.901391983032227,-1.0362968444824219,0.8701753494600868,-0.3933234154952706,0.29680221025988096,0.19642320409632869,5.0,0
13.245656967163086,22.8425350189209,-1.0357346534729004,-0.6615936057961648,0.17081186508135823,-0.730148757115327,0.1334847010182123,7.0,0
13.113183975219727,22.913095474243164,-1.0530004501342773,-0.0,-0.0,-1.0,0.16486409428202947,2.0,0
15.170674324035645,22.720516204833984,-0.8827874660491943,-0.0,-0.0,-1.0,0.07836533494936819,1.0,0
13.571295738220215,22.979015350341797,-0.9910268783569336,0.4959292040748124,0.8130426925957037,-0.30498492513967096,0.27366257413643275,3.0,0
13.306032180786133,22.925395965576172,-0.9955236911773682,-0.12102687194047473,-0.8547344608495822,-0.5047588510412446,0.1153361364612492,8.0,0
13.517387390136719,22.987791061401367,-0.9962961673736572,0.16366280124726473,0.7765660086171442,-0.6084075293323841,0.24971233092969386,4.0,0
13.260825157165527,22.918331146240234,-0.9964990615844727,-0.1978086687318441,0.11779303284725039,-0.9731374681858581,0.07301991417508216,6.0,0
13.090740203857422,22.989107131958008,-1.0149431228637695,-0.0,-0.0,-1.0,0.16463142269780312,2.0,0
15.013099670410156,23.016828536987305,-1.2846174240112305,-0.0,-0.0,-1.0,0.2374462359507051,1.0,0
14.159940719604492,22.318389892578125,-1.1888666152954102,-0.7809732647736267,0.44168841493004884,0.4415791025687285,0.14109485060854587,3.0,0
13.872425079345703,22.728130340576172,-1.2660646438598633,-0.0,-0.0,-1.0,0.05923993934057491,2.0,0
13.496935844421387,22.620105743408203,-1.2600712776184082,-0.0,-0.0,-1.0,0.06402260801081758,1.0,0
12.77320384979248,22.713077545166016,-1.3024063110351562,-0.0,-0.0,-1.0,0.04707151590505762,1.0,0
15.172306060791016,22.6751766204834,-0.7399015426635742,-0.0,-0.0,-1.0,0.08488879875123301,2.0,0
15.111851692199707,22.54232406616211,-1.1275815963745117,-0.8849774539065814,0.4424595737656599,-0.14506699024979822,0.2463914840630502,4.0,0
13.937898635864258,23.026506423950195,-1.231907844543457,-0.0,-0.0,-1.0,0.05921421570151659,2.0,0
13.616715431213379,22.84580421447754,-1.207611083984375,0.15415466599359517,0.7765265625428344,-0.6109360331637127,0.13024824255228956,3.0,0
13.301499366760254,22.741174697875977,-1.1973626613616943,-0.0,-0.0,-1.0,0.10843464138412677,1.0,0
13.070417404174805,22.6868896484375,-1.1943142414093018,-0.8667800242306202,-0.027716251624269737,-0.4979198720584127,0.1073987809601253,3.0,0
12.84357738494873,22.83026695251465,-1.2266366481781006,-0.0,-0.0,-1.0,0.08028758191130884,2.0,0
15.161407470703125,22.034006118774414,-1.3816428184509277,-0.0,-0.0,-1.0,0.08167890598931023,1.0,0
14.099584579467773,21.619234085083008,-1.2963738441467285,-0.7790493751950723,0.4057315680877839,-0.4779790431234359,0.05972034349373948,4.0,0
13.934537887573242,21.670394897460938,-1.306960105895996,-0.0,-0.0,-1.0,0.11349206947577811,2.0,0
15.182010650634766,22.647172927856445,-0.751702070236206,-0.0,-0.0,-1.0,0.0899277778764946,2.0,0
15.147905349731445,21.668079376220703,-1.3375022411346436,-0.0,-0.0,-1.0,0.14580886856944872,2.0,0
15.0958251953125,21.862117767333984,-1.375394344329834,-0.0,-0.0,-1.0,0.09197583136670347,1.0,0
14.16507339477539,21.716983795166016,-1.324033498764038,-0.0,-0.0,-1.0,0.05682585947951315,1.0,0
13.957141876220703,21.67453956604004,-1.3116264343261719,-0.0,-0.0,-1.0,0.10997208536179569,2.0,0
13.763946533203125,21.715572357177734,-1.3169095516204834,-0.0,-0.0,-1.0,0.07647243606291441,1.0,0
12.844513893127441,21.773832321166992,-1.319403886795044,-0.0,-0.0,-1.0,0.0716060870711332,1.0,0
14.748340606689453,21.052837371826172,-1.2015964984893799,-0.0,-0.0,-1.0,0.03404975574141976,1.0,0
15.050647735595703,22.54816436767578,-0.793926477432251,-0.0,-0.0,-1.0,0.11538332410427177,1.0,0
13.376489639282227,23.07856559753418,-0.867009162902832,0.14695081748654837,-0.962411971360216,0.2284045853799319,0.221434173243309,3.0,0
14.875687599182129,20.888254165649414,-1.232708215713501,-0.0,-0.0,-1.0,0.03289429137485818,1.0,0
13.820062637329102,20.695066452026367,-1.1869475841522217,-0.0,-0.0,-1.0,0.04478203749131433,1.0,0
13.934765815734863,20.910226821899414,-1.2343478202819824,-0.0,-0.0,-1.0,0.0670617013620275,2.0,0
13.745610237121582,20.638994216918945,-1.1747221946716309,-0.0,-0.0,-1.0,0.029268752515648908,1.0,0
15.136381149291992,22.639623641967773,-0.9112100601196289,-0.0,-0.0,-1.0,0.08208188559652904,2.0,0
13.550313949584961,22.991689682006836,-0.9913570880889893,0.14556122824117154,0.989058841911107,-0.023969482063261615,0.27701058006584645,4.0,0
13.314290046691895,22.906984329223633,-0.9794847965240479,0.07308904363477821,-0.8534594875576509,-0.5160086189187012,0.16374789043661495,8.0,0
13.065227508544922,22.97931480407715,-0.9976272583007812,0.5710705372603545,-0.6832631477189648,0.4550053982562644,0.1544638518648113,3.0,0
15.136037826538086,22.618806838989258,-1.0815317630767822,0.05941366536611312,0.8229389615696819,-0.5650145855625118,0.15549248056874215,5.0,0
13.955462455749512,23.133377075195312,-1.1772067546844482,-0.0,-0.0,-1.0,0.060515561559935246,2.0,0
13.528153419494629,22.85824966430664,-1.1215851306915283,-0.0,-0.0,-1.0,0.2048647911219694,2.0,0
13.633784294128418,23.043867111206055,-1.1590092182159424,0.2793616080331122,0.8850415812126203,0.3723687573922099,0.13257037011273595,5.0,0
13.134909629821777,22.85017967224121,-1.121140956878662,0.8210799277585746,-0.5456843138501151,0.16750039358133814,0.1652394461481265,4.0,0
12.931495666503906,22.986486434936523,-1.1500904560089111,-0.0,-0.0,-1.0,0.10726429434166708,1.0,0
12.842134475708008,23.03976058959961,-1.1616055965423584,-0.0,-0.0,-1.0,0.15806330221193193,2.0,0
15.13228988647461,22.627994537353516,-1.0930604934692383,0.05941366536611312,0.8229389615696819,-0.5650145855625118,0.14673388906951962,5.0,0
13.499053955078125,22.80353546142578,-1.1426475048065186,-0.0,-0.0,-1.0,0.184629290281099,2.0,0
13.574272155761719,22.941686630249023,-1.1718223094940186,0.2739999046598895,0.9461294652209515,0.17251981708513334,0.11422852510160107,3.0,0
13.170989990234375,22.78138542175293,-1.143383502960205,-0.35277410740809567,-0.887756329517846,0.29570107971298143,0.17167550976001072,4.0,0
12.953287124633789,22.911624908447266,-1.1766541004180908,-0.0,-0.0,-1.0,0.0817654799625424,2.0,0
12.872894287109375,22.96631622314453,-1.1905694007873535,-0.0,-0.0,-1.0,0.14929641602172947,1.0,0
15.184712409973145,21.735395431518555,-1.369795322418213,-0.0,-0.0,-1.0,0.15739478223706246,2.0,0
14.246158599853516,21.76435089111328,-1.3390800952911377,-0.0,-0.0,-1.0,0.04300074541860654,2.0,0
15.103158950805664,22.578887939453125,-0.9630746841430664,-0.0,-0.0,-1.0,0.14449840705778078,2.0,0
15.111112594604492,22.854629516601562,-1.0221505165100098,-0.0,-0.0,-1.0,0.20091574698494252,1.0,0
14.017772674560547,21.676389694213867,-1.309570550918579,-0.0,-0.0,-1.0,0.08119877948173695,1.0,0
13.865822792053223,21.731210708618164,-1.3187735080718994,-0.0,-0.0,-1.0,0.09141769090679647,2.0,0
13.613643646240234,22.936115264892578,-1.0093300342559814,-0.07083636959093838,0.5543173485501138,-0.8292855273303328,0.18236325197745418,3.0,0
13.667320251464844,21.710691452026367,-1.3080236911773682,-0.0,-0.0,-1.0,0.06702024219005091,1.0,0
13.43409538269043,22.922571182250977,-1.0043692588806152,-0.4525626464762788,-0.5591316416429726,-0.6946645653320899,0.16081357261820176,6.0,0
13.20999526977539,21.7109375,-1.2974879741668701,-0.0,-0.0,-1.0,0.06756135297085654,1.0,0
12.990568161010742,23.05133628845215,-1.029320240020752,-0.0,-0.0,-1.0,0.12278249296078667,1.0,0
13.244237899780273,22.87557601928711,-0.9923036098480225,0.9135180376387766,-0.3814234578192835,-0.1414246821943747,0.0563943371782967,5.0,0
13.108495712280273,22.911664962768555,-0.9992268085479736,0.47848968354665006,-0.46321628274511834,-0.7459747302283243,0.1439792008760628,3.0,0
15.124418258666992,22.55793571472168,-1.156184434890747,-0.8403822484131502,0.46466155171767826,-0.2790113239769621,0.2255011689545874,5.0,0
15.040453910827637,22.69093132019043,-1.1798646450042725,-0.0,-0.0,-1.0,0.24184328829192334,1.0,0
13.653158187866211,22.759578704833984,-1.1150012016296387,-0.3743833696366739,0.8543316286911797,0.36049210914715707,0.17645934733327887,4.0,0
13.464531898498535,22.973434448242188,-1.1558194160461426,-0.7587687888467093,-0.5288641440414726,-0.3802270929581148,0.2681505568980054,3.0,0
13.088757514953613,22.888565063476562,-1.1210882663726807,-0.0,-0.0,-1.0,0.16767628107041815,2.0,0
14.595921516418457,22.036869049072266,-1.3674249649047852,-0.0,-0.0,-1.0,0.0385256058934483,1.0,0
14.306760787963867,21.945396423339844,-1.3238871097564697,-0.0,-0.0,-1.0,0.07513320663143973,1.0,0
13.88987922668457,21.946706771850586,-1.299708366394043,-0.0,-0.0,-1.0,0.06280708033111536,1.0,0
13.523301124572754,21.887319564819336,-1.2639415264129639,-0.0,-0.0,-1.0,0.06341912512645025,1.0,0
13.461944580078125,22.071014404296875,-1.3121976852416992,-0.0,-0.0,-1.0,0.03635299448161476,1.0,0
13.161153793334961,22.041536331176758,-1.2903451919555664,-0.0,-0.0,-1.0,0.01369293847380368,1.0,0
15.108858108520508,22.6060791015625,-0.9986791610717773,-0.0,-0.0,-1.0,0.14769492022467262,2.0,0
14.990763664245605,22.79785919189453,-1.0377748012542725,-0.0,-0.0,-1.0,0.23374214799883694,1.0,0
13.566886901855469,22.931791305541992,-1.0082263946533203,-0.0,-0.0,-1.0,0.24764646181104846,2.0,0
13.293191909790039,22.909992218017578,-0.9943749904632568,-0.008852889690014656,-0.4219615616429827,-0.906570497446256,0.07207759274409273,8.0,0
13.043580055236816,22.959815979003906,-0.9997384548187256,-0.0,-0.0,-1.0,0.15063410766474358,2.0,0
15.062070846557617,22.351205825805664,-1.3729057312011719,-0.0,-0.0,-1.0,0.09256823655324824,1.0,0
14.960517883300781,22.43423843383789,-1.387364387512207,-0.0,-0.0,-1.0,0.08232340761335614,1.0,0
14.570699691772461,22.26875877380371,-1.3110811710357666,-0.0,-0.0,-1.0,0.03536106815482628,1.0,0
14.73676872253418,22.420223236083984,-1.3657755851745605,-0.0,-0.0,-1.0,0.061060944678193334,1.0,0
