x,y,z,nx,ny,nz,curvature,density,label
6.801033020019531,2.9642324447631836,0.11833155155181885,-0.515402402011931,-0.8567892344372873,-0.016509747202765213,0.20759094987972204,3.0,1
7.071590900421143,3.0230627059936523,0.08467614650726318,-0.0,-0.0,-1.0,0.10653920832023941,1.0,1
7.427185535430908,1.5646908283233643,0.05202317237854004,-0.0,-0.0,-1.0,0.1406210372939188,1.0,1
7.502379417419434,2.897132396697998,-0.058371543884277344,-0.0,-0.0,-1.0,0.10707877798549215,1.0,0
6.994050979614258,0.9966113567352295,0.1902790069580078,-0.0,-0.0,-1.0,0.2012303934604369,1.0,1
6.910810470581055,1.085799217224121,0.21027100086212158,-0.0,-0.0,-1.0,0.1496922573932038,1.0,1
7.005539894104004,2.062396764755249,0.13682138919830322,0.8784099991760452,-0.012911715318129515,0.47773335759090957,0.10691559397646216,3.0,1
6.711361885070801,2.8853189945220947,0.14589786529541016,-0.0,-0.0,-1.0,0.21847909510806693,2.0,1
7.69893217086792,1.040517807006836,0.39990198612213135,-0.0,-0.0,-1.0,0.09452080390205246,1.0,1
6.058669090270996,1.8050994873046875,-0.024789810180664062,-0.0,-0.0,-1.0,0.03197587199898875,1.0,0
6.297440528869629,1.740121841430664,-0.029311656951904297,-0.0,-0.0,-1.0,0.07347090120046397,2.0,0
6.620057106018066,2.034564971923828,0.006640195846557617,-0.0,-0.0,-1.0,0.0726653507065185,2.0,1
6.627799987792969,1.8676776885986328,-0.011894464492797852,-0.0,-0.0,-1.0,0.09419542728903729,1.0,0
6.774656295776367,3.048460006713867,0.12068867683410645,-0.0,-0.0,-1.0,0.21667948002791698,1.0,1
6.913448333740234,2.0979690551757812,0.01628589630126953,-0.0,-0.0,-1.0,0.22725015376146343,1.0,1
7.464276313781738,1.8344764709472656,-0.010213851928710938,-0.0,-0.0,-1.0,0.10008759865590178,1.0,0
6.31005859375,1.7895584106445312,-0.020639657974243164,-0.0,-0.0,-1.0,0.06966426716624445,1.0,0
6.422532081604004,1.697854995727539,-0.030909299850463867,-0.0,-0.0,-1.0,0.11306735476778032,1.0,0
6.798755645751953,2.9652671813964844,0.135728120803833,-0.515402402011931,-0.8567892344372873,-0.016509747202765213,0.19958727242436436,3.0,1
7.183863639831543,1.7893314361572266,-0.01146078109741211,-0.0,-0.0,-1.0,0.1583895443656897,1.0,0
7.464868545532227,2.0645084381103516,0.02667093276977539,0.48342762340962003,-0.12320502582395243,-0.8666707878636766,0.08840925829816458,3.0,1
7.6620988845825195,1.8159408569335938,-0.005238771438598633,-0.0,-0.0,-1.0,0.08776918571993982,1.0,0
6.104707717895508,2.213359832763672,-0.07668638229370117,-0.0,-0.0,-1.0,0.019658508069578536,1.0,0
6.464752197265625,2.0492706298828125,-0.08493423461914062,-0.0,-0.0,-1.0,0.035063175732700944,1.0,0
6.74238395690918,2.9795608520507812,0.0369720458984375,0.24226632720933147,-0.9472222952306775,-0.2099451121565551,0.1764759288048451,3.0,1
6.953805923461914,3.0572471618652344,0.053235530853271484,-0.0,-0.0,-1.0,0.1636461605268172,1.0,1
7.426337242126465,2.158519744873047,-0.044765472412109375,-0.0,-0.0,-1.0,0.08782743200882351,2.0,0
6.706421852111816,1.0893211364746094,0.0007169246673583984,-0.0,-0.0,-1.0,0.11517863010722804,1.0,1
6.767024040222168,0.9859580993652344,-0.008711576461791992,-0.0,-0.0,-1.0,0.21265439585740026,1.0,0
7.181286811828613,0.8420791625976562,-0.011739969253540039,-0.0,-0.0,-1.0,0.11730535304345201,1.0,0
7.105504035949707,1.0632801055908203,0.010926485061645508,-0.0,-0.0,-1.0,0.14830476637207965,1.0,1
7.526777267456055,0.7222499847412109,-0.015562772750854492,-0.0,-0.0,-1.0,0.1564286940856648,1.0,0
7.091392517089844,1.8897819519042969,0.10260128974914551,-0.0,-0.0,-1.0,0.1832761328038517,1.0,1
7.5164337158203125,0.9892253875732422,0.014804601669311523,-0.0,-0.0,-1.0,0.16770707883269942,1.0,1
7.4387006759643555,1.874786376953125,0.11269068717956543,-0.0,-0.0,-1.0,0.158813522079869,1.0,1
7.011507034301758,1.6049613952636719,0.16853642463684082,-0.0,-0.0,-1.0,0.10819036576203209,1.0,1
7.429843902587891,0.9784183502197266,0.11765670776367188,-0.0,-0.0,-1.0,0.20866189754731584,1.0,1
7.163975715637207,2.0110626220703125,0.21627187728881836,-0.0,-0.0,-1.0,0.09783875626024029,1.0,1
7.212954521179199,2.1836252212524414,-0.0557403564453125,-0.0,-0.0,-1.0,0.026594735282475405,1.0,0
7.531994819641113,1.994049072265625,-0.058034658432006836,-0.0,-0.0,-1.0,0.10013471108143542,1.0,0
6.633382797241211,3.049449920654297,-0.0007252693176269531,-0.0,-0.0,-1.0,0.14080328328829206,2.0,0
7.500283241271973,2.2315263748168945,-0.03352165222167969,-0.0,-0.0,-1.0,0.07778307199877332,1.0,0
6.885235786437988,1.0986623764038086,0.4002346992492676,-0.0,-0.0,-1.0,0.12377810448613963,2.0,1
6.42706298828125,1.1395759582519531,0.07314872741699219,-0.0,-0.0,-1.0,0.15498481399917197,1.0,1
7.300358772277832,0.9706487655639648,0.1372852325439453,-0.0,-0.0,-1.0,0.23041176447618,1.0,1
6.793501853942871,1.6960906982421875,0.14131832122802734,-0.0,-0.0,-1.0,0.1537261516091878,2.0,1
7.686793327331543,1.5301647186279297,0.20802617073059082,-0.0,-0.0,-1.0,0.1543221567733044,2.0,1
6.9603729248046875,2.131631851196289,0.18372130393981934,0.8769718270469025,-0.4777593751556609,0.051637137961842425,0.07059944804980378,4.0,1
7.702610015869141,1.3587207794189453,0.11297047138214111,-0.0,-0.0,-1.0,0.11846340092710028,1.0,1
7.443117141723633,2.891873359680176,0.12195467948913574,-0.0,-0.0,-1.0,0.09656105153956702,1.0,1
7.48619270324707,2.81272029876709,0.12271785736083984,-0.0,-0.0,-1.0,0.19893562875212037,1.0,1
7.034788131713867,1.9950056076049805,0.09349870681762695,0.7206351642644747,0.38497201265917164,0.5766120962091068,0.16468633610805955,3.0,1
7.173828125,1.7572269439697266,0.20472216606140137,-0.0,-0.0,-1.0,0.22200908541863826,1.0,1
6.9764862060546875,2.0422792434692383,0.25357067584991455,0.45700951087731795,0.8507954887214562,0.2594018954034316,0.1387528275809,11.0,1
6.975282669067383,2.0208044052124023,0.2000802755355835,0.9161151161598056,-0.23649761930724006,0.3237313237941508,0.08023748394591934,5.0,1
7.024848937988281,1.9969406127929688,0.1046285629272461,0.7206351642644747,0.38497201265917164,0.5766120962091068,0.1621761398505245,3.0,1
7.6672515869140625,1.6726198196411133,0.08974838256835938,-0.0,-0.0,-1.0,0.12127756363488983,1.0,1
6.907863616943359,1.6905546188354492,0.08314216136932373,-0.0,-0.0,-1.0,0.16584801539518607,2.0,1
6.436643600463867,1.0909957885742188,0.03855609893798828,-0.0,-0.0,-1.0,0.10218932009494365,1.0,1
6.851898193359375,0.8828182220458984,0.02897047996520996,-0.0,-0.0,-1.0,0.2355755634183373,2.0,1
7.606863021850586,1.9703178405761719,-0.019439101219177246,-0.0,-0.0,-1.0,0.11180793978858335,1.0,0
7.440053939819336,2.0196151733398438,-0.020975947380065918,0.9309776542614109,0.3356095592696026,-0.14369005182260866,0.07760854397320595,3.0,0
6.925481796264648,2.0017614364624023,-0.036278605461120605,-0.0,-0.0,-1.0,0.22938122519630658,1.0,0
7.449117660522461,1.7303199768066406,-0.03841757774353027,-0.0,-0.0,-1.0,0.09790072909357062,1.0,0
6.956962585449219,2.3187074661254883,0.14684820175170898,-0.0,-0.0,-1.0,0.02776587573935001,1.0,1
6.754072189331055,1.9240474700927734,0.11278724670410156,-0.0,-0.0,-1.0,0.0939902436853754,1.0,1
7.6028594970703125,1.6719093322753906,0.09441649913787842,-0.0,-0.0,-1.0,0.14175591652744618,1.0,1
7.006091117858887,1.4097003936767578,0.07013821601867676,-0.0,-0.0,-1.0,0.09347852164170577,1.0,1
6.508302688598633,0.8150548934936523,0.017758727073669434,-0.0,-0.0,-1.0,0.07294879715106846,1.0,1
7.186272621154785,1.1935977935791016,0.05219841003417969,-0.0,-0.0,-1.0,0.08177555246909514,1.0,1
6.8667755126953125,1.126265525817871,0.3995961546897888,-0.0,-0.0,-1.0,0.12456929767418327,2.0,1
6.291241645812988,1.4433622360229492,0.047026634216308594,-0.0,-0.0,-1.0,0.14784194848250462,1.0,1
6.992815971374512,2.1307153701782227,0.12220573425292969,-0.0,-0.0,-1.0,0.07250310714159465,2.0,1
6.862672805786133,1.9011907577514648,0.09760522842407227,-0.0,-0.0,-1.0,0.11164309890615125,1.0,1
6.48137092590332,1.1577634811401367,0.0177156925201416,-0.0,-0.0,-1.0,0.1238257602161873,1.0,1
7.2698564529418945,1.6215925216674805,0.06968808174133301,-0.0,-0.0,-1.0,0.27139631576682693,1.0,1
7.438237190246582,2.0493907928466797,0.11576509475708008,-0.0,-0.0,-1.0,0.07376994147163456,1.0,1
6.362287521362305,1.0611886978149414,0.08149349689483643,-0.0,-0.0,-1.0,0.06790125521092127,2.0,1
6.512883186340332,0.8396415710449219,0.07646048069000244,-0.0,-0.0,-1.0,0.1310234093881552,1.0,1
6.4463043212890625,1.188436508178711,0.092124342918396,-0.0,-0.0,-1.0,0.1760655862497791,1.0,1
6.991850852966309,2.044692039489746,0.16151297092437744,0.6713665521813357,0.5761455732400456,0.46617939792320845,0.14091350397007657,6.0,1
6.82203483581543,1.680933952331543,0.1352076530456543,-0.0,-0.0,-1.0,0.17221084933747768,2.0,1
6.9357805252075195,1.1029014587402344,0.10974526405334473,-0.0,-0.0,-1.0,0.12681082047376319,1.0,1
6.942082405090332,2.053670883178711,0.2706536054611206,0.2602853902905427,-0.94053021213624,0.21829895936595492,0.10602150081537573,8.0,1
6.9829301834106445,2.0603981018066406,0.23739171028137207,0.9707015926787561,-0.06367275410509826,0.2316985074522448,0.13489938733836046,11.0,1
7.194151878356934,1.6740007400512695,0.22868132591247559,-0.0,-0.0,-1.0,0.1980815280532014,1.0,1
7.646639823913574,1.4103403091430664,0.2348172664642334,-0.0,-0.0,-1.0,0.17037350333614543,1.0,1
7.549574851989746,2.19942569732666,-0.03203725814819336,-0.0,-0.0,-1.0,0.09338618527028394,1.0,0
7.300389289855957,1.7978506088256836,0.2415529489517212,-0.0,-0.0,-1.0,0.20550039128648975,1.0,1
7.581846237182617,1.4326286315917969,0.2589637041091919,-0.0,-0.0,-1.0,0.20871639714507614,1.0,1
6.979233741760254,2.1415185928344727,0.21977639198303223,0.8045555736526941,0.3416588310661969,-0.4857567004775784,0.09203631572560209,4.0,1
7.468790054321289,2.084183931350708,0.026061296463012695,-0.0,-0.0,-1.0,0.08840925829816462,2.0,1
7.251775741577148,2.6722445487976074,0.08163285255432129,-0.0,-0.0,-1.0,0.059094112655268455,1.0,1
7.529058456420898,3.0930137634277344,0.09114837646484375,-0.0,-0.0,-1.0,0.10693871280796374,1.0,1
7.610113143920898,1.3492525815963745,0.09548556804656982,-0.0,-0.0,-1.0,0.12215076039453877,1.0,1
7.40123176574707,2.739300012588501,0.06140744686126709,-0.0,-0.0,-1.0,0.10124606858816475,1.0,1
7.239721298217773,2.889803886413574,0.09007525444030762,-0.0,-0.0,-1.0,0.08469817188475887,2.0,1
7.467082977294922,2.957029342651367,0.10812568664550781,-0.0,-0.0,-1.0,0.10455855391019149,2.0,1
7.22184944152832,2.747295379638672,0.08166015148162842,-0.0,-0.0,-1.0,0.06731480560077878,1.0,1
7.490013122558594,2.704965114593506,0.31014376878738403,-0.0,-0.0,-1.0,0.1507495653735174,1.0,1
6.970586776733398,2.460937976837158,0.3321160078048706,-0.0,-0.0,-1.0,0.11651305069074586,1.0,1
6.671195983886719,2.323289394378662,0.34440624713897705,-0.0,-0.0,-1.0,0.16750110548564653,1.0,1
6.6565704345703125,2.231383800506592,0.3526604175567627,-0.0,-0.0,-1.0,0.15888201330871787,1.0,1
7.390840530395508,2.653465747833252,-0.21565163135528564,-0.0,-0.0,-1.0,0.09697288765833867,1.0,0
7.627693176269531,2.862044334411621,-0.030840158462524414,-0.0,-0.0,-1.0,0.09706950975402888,1.0,0
7.472532272338867,2.8300299644470215,-0.031717777252197266,-0.0,-0.0,-1.0,0.10847196119896871,1.0,0
7.580041885375977,1.8225603103637695,0.0816645622253418,-0.0,-0.0,-1.0,0.09694764449385838,1.0,1
7.245481491088867,2.7394237518310547,-0.028200864791870117,-0.0,-0.0,-1.0,0.12166217355189003,1.0,0
6.753437042236328,2.718686580657959,-0.04014754295349121,-0.0,-0.0,-1.0,0.08504717298642038,1.0,0
7.419651508331299,1.4515304565429688,0.08617997169494629,-0.0,-0.0,-1.0,0.12852241238688877,1.0,1
7.285571575164795,0.9139976501464844,0.04318571090698242,-0.019320173611200007,-0.9217057538050792,-0.38740835599434803,0.1816031414666682,3.0,1
7.508551597595215,1.217672348022461,0.18629789352416992,-0.0,-0.0,-1.0,0.17698089065609418,1.0,1
6.812183380126953,2.8923559188842773,0.06554770469665527,-0.0,-0.0,-1.0,0.1784881775944541,1.0,1
6.698754787445068,1.9638042449951172,-0.035195350646972656,-0.0,-0.0,-1.0,0.09156233094609716,1.0,0
6.249151229858398,1.447195053100586,-0.0672382116317749,-0.0,-0.0,-1.0,0.07787934167660795,1.0,0
7.316160202026367,0.8714771270751953,0.1795365810394287,-0.0,-0.0,-1.0,0.19610130537041032,1.0,1
6.166774749755859,1.4990215301513672,-0.047670602798461914,-0.0,-0.0,-1.0,0.0656066257118683,1.0,0
6.846470355987549,2.950387954711914,0.08653450012207031,-0.0,-0.0,-1.0,0.2715651118013825,2.0,1
6.601308822631836,1.7458114624023438,-0.02472102642059326,-0.0,-0.0,-1.0,0.10142514845607312,1.0,0
6.36090087890625,1.5169496536254883,-0.04589986801147461,-0.0,-0.0,-1.0,0.0755957182186057,1.0,0
7.641173839569092,2.0333728790283203,-0.0002281665802001953,-0.0,-0.0,-1.0,0.09727635088900775,1.0,0
7.578132152557373,1.580282211303711,-0.04292452335357666,-0.0,-0.0,-1.0,0.0881998026804305,1.0,0
7.366103172302246,1.2361087799072266,-0.0745551586151123,-0.7541742988600446,-0.600828866078145,-0.2650015106111868,0.08401083507118327,3.0,0
7.294373989105225,1.6739997863769531,0.09173321723937988,-0.0,-0.0,-1.0,0.2706638892064529,1.0,1
7.134403705596924,1.1234588623046875,0.03232443332672119,-0.0,-0.0,-1.0,0.09944543827831678,1.0,1
7.288570880889893,0.9733810424804688,-0.00014543533325195312,-0.0,-0.0,-1.0,0.13911293751959244,2.0,0
7.658500671386719,1.8800020217895508,0.08924365043640137,-0.0,-0.0,-1.0,0.09225351600156731,2.0,1
7.625913143157959,1.5819644927978516,0.052455782890319824,-0.0,-0.0,-1.0,0.1028715455577505,1.0,1
7.537356376647949,0.9112634658813477,-0.029410719871520996,-0.0,-0.0,-1.0,0.1653428987172764,2.0,0
6.03938627243042,1.414473533630371,0.009496092796325684,-0.0,-0.0,-1.0,0.04865590526414883,1.0,1
6.741140842437744,1.2712793350219727,-0.026534318923950195,-0.0,-0.0,-1.0,0.07846575821064393,2.0,0
6.9715118408203125,1.3867883682250977,-0.02074134349822998,-0.0,-0.0,-1.0,0.10617212396561648,1.0,0
7.312244415283203,1.7234773635864258,0.0067054033279418945,-0.0,-0.0,-1.0,0.19319257406168752,2.0,1
7.149199485778809,1.3543977737426758,-0.030774712562561035,-0.0,-0.0,-1.0,0.12448118249617186,1.0,0
7.519721508026123,2.1289587020874023,0.04712784290313721,-0.0,-0.0,-1.0,0.09360699904999495,2.0,1
6.031895637512207,1.517104148864746,0.053859710693359375,-0.0,-0.0,-1.0,0.051103866692097086,1.0,1
6.715131759643555,1.2960052490234375,0.02980053424835205,-0.0,-0.0,-1.0,0.1548434027320619,1.0,1
7.106507778167725,1.5494918823242188,0.05250394344329834,-0.0,-0.0,-1.0,0.08729987257698553,1.0,1
7.189659118652344,1.245065689086914,0.01991891860961914,-0.0,-0.0,-1.0,0.0671232454303275,1.0,1
6.645290851593018,2.980886459350586,0.19588816165924072,-0.0,-0.0,-1.0,0.16533103341084937,1.0,1
7.242269992828369,2.0353946685791016,0.10130298137664795,-0.0,-0.0,-1.0,0.08307259916675128,1.0,1
7.381139278411865,2.0453672409057617,0.1010812520980835,-0.0,-0.0,-1.0,0.11310580853484561,1.0,1
7.6266584396362305,1.877690315246582,0.0806359052658081,-0.0,-0.0,-1.0,0.10894119179724392,2.0,1
6.178134918212891,1.2515344619750977,0.008276939392089844,-0.0,-0.0,-1.0,0.04214020584303066,1.0,1
6.530592918395996,0.9880037307739258,0.006058335304260254,-0.0,-0.0,-1.0,0.10705637534484903,2.0,1
6.507369041442871,1.2621793746948242,0.023436307907104492,-0.0,-0.0,-1.0,0.15273841304003308,1.0,1
6.658440589904785,1.0339365005493164,0.014337539672851562,-0.0,-0.0,-1.0,0.09983932024036363,2.0,1
6.962228775024414,0.955754280090332,0.020984888076782227,-0.0,-0.0,-1.0,0.18081729159776855,1.0,1
7.341848373413086,0.8138532638549805,0.024751663208007812,-0.0,-0.0,-1.0,0.10780439624175046,2.0,1
6.72196102142334,1.6294832229614258,0.05695629119873047,-0.0,-0.0,-1.0,0.12489442543740376,1.0,1
7.675127029418945,0.825535774230957,0.03666043281555176,-0.0,-0.0,-1.0,0.14327233487717395,1.0,1
6.895937919616699,2.022772789001465,0.09036719799041748,-0.0,-0.0,-1.0,0.14962175968809543,1.0,1
7.260180473327637,1.9561395645141602,0.10146737098693848,-0.0,-0.0,-1.0,0.21684782783152615,1.0,1
7.539506435394287,1.6820497512817383,0.09358036518096924,-0.0,-0.0,-1.0,0.12580473991100993,1.0,1
6.769369125366211,2.982771873474121,0.14469563961029053,-0.515402402011931,-0.8567892344372873,-0.016509747202765213,0.22651522574066169,3.0,1
6.087552070617676,1.559596061706543,-0.04691910743713379,-0.0,-0.0,-1.0,0.05882630454390841,1.0,0
6.307892799377441,1.6018218994140625,-0.03398549556732178,-0.0,-0.0,-1.0,0.11265128227331343,1.0,0
6.635170936584473,1.291879653930664,-0.043946266174316406,-0.0,-0.0,-1.0,0.10593130270769617,1.0,0
6.894659996032715,1.1950445175170898,-0.04150831699371338,-0.0,-0.0,-1.0,0.07920908543391894,1.0,0
7.160458564758301,1.1782417297363281,-0.03287100791931152,-0.0,-0.0,-1.0,0.04863628417702849,1.0,0
6.839106559753418,1.72314453125,-0.0020456314086914062,0.3204932711756019,-0.4976942059810237,-0.8059680765787689,0.16635673047830285,3.0,0
7.070850372314453,1.3831844329833984,-0.019627094268798828,-0.0,-0.0,-1.0,0.10354953127746455,1.0,0
6.929758071899414,2.051187515258789,0.026975512504577637,-0.0,-0.0,-1.0,0.17352438100096,2.0,1
7.403940200805664,1.890608787536621,0.0336378812789917,-0.0,-0.0,-1.0,0.11578128285319358,1.0,1
7.694488525390625,2.067776679992676,0.05899202823638916,-0.0,-0.0,-1.0,0.09615892111745372,1.0,1
6.111357688903809,1.6725387573242188,-0.041243553161621094,-0.0,-0.0,-1.0,0.04200520778088239,1.0,0
6.232736587524414,1.734633445739746,-0.031000375747680664,-0.0,-0.0,-1.0,0.061544376125453416,1.0,0
6.817333221435547,1.5674285888671875,-0.01833510398864746,-0.0,-0.0,-1.0,0.18230806587281265,1.0,0
7.022838592529297,1.330465316772461,-0.0293503999710083,-0.0,-0.0,-1.0,0.09643186242954409,1.0,0
6.644319534301758,2.027130126953125,0.010186553001403809,-0.0,-0.0,-1.0,0.06929795885326215,2.0,1
6.835474014282227,1.8120784759521484,0.001843094825744629,-0.0,-0.0,-1.0,0.13276552894386118,2.0,1
7.362876892089844,1.6302099227905273,0.008949518203735352,-0.0,-0.0,-1.0,0.09889559483356192,2.0,1
7.302389144897461,1.2766456604003906,-0.02295064926147461,-0.0,-0.0,-1.0,0.08378571356314223,1.0,0
6.9783430099487305,2.070157051086426,0.02841508388519287,-0.0,-0.0,-1.0,0.23662212403536498,1.0,1
7.428316116333008,1.9933490753173828,0.041358351707458496,-0.18309368414029306,-0.6529898980953942,-0.7349019634028076,0.08254666093762202,3.0,1
7.3833723068237305,2.906428337097168,0.11103641986846924,-0.0,-0.0,-1.0,0.10069526001667836,2.0,1
7.342939376831055,1.6951475143432617,0.34028160572052,-0.0,-0.0,-1.0,0.19041133042905564,1.0,1
6.755205154418945,1.2970046997070312,-0.05271410942077637,-0.0,-0.0,-1.0,0.06863489782778252,2.0,0
6.195452690124512,1.8787059783935547,-0.04796433448791504,-0.0,-0.0,-1.0,0.04190318908475673,1.0,0
6.268453598022461,1.7995100021362305,-0.048407793045043945,-0.0,-0.0,-1.0,0.05038125056352123,1.0,0
6.778535842895508,1.3486804962158203,-0.048020362854003906,-0.0,-0.0,-1.0,0.09396969125513858,1.0,0
6.823024749755859,1.741602897644043,-0.019838809967041016,-0.0,-0.0,-1.0,0.17156344267787355,2.0,0
7.114099502563477,1.4103775024414062,-0.02551448345184326,-0.0,-0.0,-1.0,0.09980631925685875,1.0,0
6.851081848144531,2.0804548263549805,0.003134489059448242,0.4670031597695499,-0.87972935766126,-0.08935494409468141,0.176464670893073,4.0,1
7.0351409912109375,2.054987907409668,0.012249946594238281,-0.0,-0.0,-1.0,0.24720817744371143,1.0,1
7.398907661437988,2.014002799987793,0.030333518981933594,-0.0,-0.0,-1.0,0.08046893115948209,2.0,1
7.67894172668457,1.845041275024414,0.03444111347198486,-0.0,-0.0,-1.0,0.08742132194100082,1.0,1
7.201352119445801,2.982882022857666,0.0779191255569458,-0.0,-0.0,-1.0,0.09784047238150766,1.0,1
7.242606163024902,2.8551602363586426,0.07306599617004395,-0.0,-0.0,-1.0,0.0846981718847589,2.0,1
7.427508354187012,2.931046962738037,0.08880436420440674,-0.31416282693863073,-0.9159895082497779,0.24952943502973363,0.10168499534128442,3.0,1
6.246189117431641,2.0305662155151367,-0.07515358924865723,-0.0,-0.0,-1.0,0.010615175228297717,1.0,0
6.394301414489746,2.0251312255859375,-0.0645531415939331,-0.0,-0.0,-1.0,0.014388442175830553,1.0,0
6.728198051452637,2.1022210121154785,-0.036791324615478516,-0.0,-0.0,-1.0,0.08085592379795412,1.0,0
7.070440292358398,2.079801082611084,-0.013248443603515625,-0.0,-0.0,-1.0,0.18571125573670008,2.0,0
7.36271858215332,2.097095489501953,0.00835716724395752,-0.0,-0.0,-1.0,0.07910799556103161,1.0,1
7.4335832595825195,2.051297187805176,0.011098146438598633,0.8952339564047596,0.006559553851824369,-0.445548129334134,0.07760854397320589,4.0,1
7.452517509460449,2.7977914810180664,0.04711771011352539,-0.0,-0.0,-1.0,0.09718869287137,2.0,1
7.499686241149902,3.132565975189209,0.06466090679168701,-0.0,-0.0,-1.0,0.10693871280796381,1.0,1
7.513557434082031,2.8908634185791016,0.055649638175964355,-0.0,-0.0,-1.0,0.097331946568167,1.0,1
7.039680480957031,2.132451057434082,0.35561126470565796,0.17242579927808768,0.39994117929266915,-0.9001757588656238,0.12179417424237259,3.0,1
6.5580902099609375,1.4271254539489746,0.010299086570739746,-0.0,-0.0,-1.0,0.16212303794038072,1.0,1
6.774913787841797,1.123765468597412,0.01349794864654541,-0.0,-0.0,-1.0,0.13343706113292622,2.0,1
7.39154052734375,1.0055432319641113,0.047655463218688965,-0.0,-0.0,-1.0,0.2143152265861797,2.0,1
6.829218864440918,2.957754135131836,0.0743938684463501,-0.0,-0.0,-1.0,0.23364083161932486,2.0,1
6.961326599121094,2.102842330932617,0.25498056411743164,0.35950439032304726,0.9314342327797575,0.05645231035519085,0.11817086111567686,8.0,1
6.737396240234375,2.8658995628356934,0.2670743465423584,-0.0,-0.0,-1.0,0.18714101548549558,2.0,1
6.933467864990234,2.261518716812134,0.3242514729499817,-0.0,-0.0,-1.0,0.053728324476127375,1.0,1
7.206472396850586,1.843794822692871,0.33524787425994873,-0.0,-0.0,-1.0,0.12661095856688187,1.0,1
6.752494812011719,2.8799045085906982,0.22291338443756104,0.7422749608087318,-0.6687976564790085,0.041684256555461895,0.16642056338766645,3.0,1
6.929117202758789,2.0969643592834473,0.22861874103546143,0.763393110873524,0.3086367892566787,-0.567427784469682,0.0792113899769474,4.0,1
5.932363510131836,2.9561209678649902,-0.05049610137939453,-0.0,-0.0,-1.0,0.052925698829169684,1.0,0
6.344997406005859,0.7119659185409546,0.04020261764526367,-0.0,-0.0,-1.0,0.1472676200899279,1.0,1
7.0324859619140625,2.0223870277404785,0.07809484004974365,0.7206351642644747,0.38497201265917164,0.5766120962091068,0.20010056777697674,3.0,1
7.170246124267578,3.1356992721557617,0.056215882301330566,-0.0,-0.0,-1.0,0.08088366905413723,1.0,1
7.194633483886719,2.7967662811279297,0.07003724575042725,-0.0,-0.0,-1.0,0.06188398896208699,1.0,1
7.393854141235352,2.9410953521728516,0.08331930637359619,0.10291052165533823,-0.9398648949269903,-0.3256737690028215,0.10150987387750349,4.0,1
6.636541366577148,2.4743523597717285,-0.06389737129211426,-0.0,-0.0,-1.0,0.08155697677722401,1.0,0
7.350048065185547,2.6851096153259277,-0.01720130443572998,-0.0,-0.0,-1.0,0.09760058831541095,2.0,0
7.451698303222656,2.0065035820007324,0.023844599723815918,0.9744200606862915,0.141427879948312,0.17465308501555177,0.08439601413332146,4.0,1
7.665006637573242,2.815744400024414,0.0010756254196166992,-0.0,-0.0,-1.0,0.10173874039570029,1.0,1
6.587188720703125,2.64839506149292,-0.03236401081085205,-0.0,-0.0,-1.0,0.08026835991335192,1.0,0
6.510959625244141,2.600679874420166,-0.03547263145446777,-0.0,-0.0,-1.0,0.053349229446533086,1.0,0
7.461864471435547,2.80269193649292,0.022699832916259766,-0.0,-0.0,-1.0,0.09082432604760328,2.0,1
6.117282867431641,1.7945270538330078,-0.015491962432861328,-0.0,-0.0,-1.0,0.056517711696889586,1.0,0
6.40673828125,1.2177410125732422,0.030908942222595215,-0.0,-0.0,-1.0,0.08175758656007083,1.0,1
7.350994110107422,2.735727310180664,-0.0037240982055664062,-0.0,-0.0,-1.0,0.09140910828187385,1.0,0
6.936534881591797,1.9637260437011719,0.05308890342712402,-0.0,-0.0,-1.0,0.1470781416318952,2.0,1
7.474720001220703,2.9358577728271484,0.06369471549987793,-0.0,-0.0,-1.0,0.09794649235615943,2.0,1
6.640535354614258,3.1207656860351562,0.003160715103149414,-0.0,-0.0,-1.0,0.13015983593932706,1.0,1
7.565995216369629,3.1214447021484375,-0.034619808197021484,-0.0,-0.0,-1.0,0.12978166534317365,1.0,0
6.965248107910156,2.054319381713867,0.19935297966003418,0.917009107697993,-0.031977408001052844,0.3975823710584571,0.11248794877921935,10.0,1
6.953466415405273,2.0555171966552734,0.30256080627441406,0.739459807484697,-0.6284974936618215,-0.2412262290371914,0.1818292363955518,4.0,1
6.521079063415527,3.0783023834228516,0.035573482513427734,-0.0,-0.0,-1.0,0.16713853236837364,1.0,1
6.963957786560059,2.0532569885253906,0.24616289138793945,0.5283266446381271,-0.8191772684888587,0.22320295552825986,0.11423126826763401,11.0,1
6.967127799987793,2.1782760620117188,0.23538970947265625,-0.0,-0.0,-1.0,0.09378417790327002,2.0,1
6.757572174072266,3.1119384765625,-0.0018229484558105469,-0.0,-0.0,-1.0,0.16623824748179641,1.0,0
6.710944175720215,2.978199005126953,0.006836414337158203,0.24226632720933147,-0.9472222952306775,-0.2099451121565551,0.177399893385402,3.0,1
5.973348617553711,3.0931358337402344,-0.08616209030151367,-0.0,-0.0,-1.0,0.06786975284751634,1.0,0
6.960208892822266,2.0656051635742188,0.24228906631469727,0.8877769565115202,0.33176897999627925,0.31903200372277835,0.10323663457951952,15.0,1
6.588299751281738,2.9294376373291016,0.11223101615905762,-0.0,-0.0,-1.0,0.1392292741086688,1.0,1
7.406983375549316,2.9154539108276367,-0.0548863410949707,-0.0,-0.0,-1.0,0.10132342697740708,1.0,0
6.9832563400268555,2.7040863037109375,-0.08204460144042969,-0.0,-0.0,-1.0,0.07528945350848637,1.0,0
6.866365432739258,2.097137451171875,-0.025306224822998047,0.5168721847788748,-0.8301158990086812,-0.2091667727315252,0.19227474059016764,3.0,0
7.2438459396362305,1.075657844543457,0.1418766975402832,-0.0,-0.0,-1.0,0.17340508296721707,1.0,1
6.680749893188477,1.7277088165283203,-0.006227970123291016,-0.0,-0.0,-1.0,0.18275081706972884,1.0,0
6.678930282592773,2.0179452896118164,-0.040041208267211914,-0.0,-0.0,-1.0,0.08961737293705051,2.0,0
6.449887275695801,2.4315195083618164,-0.11749839782714844,-0.0,-0.0,-1.0,0.03746779324995902,1.0,0
6.257663726806641,1.9697208404541016,-0.08897829055786133,-0.0,-0.0,-1.0,0.01198381217002421,1.0,0
7.254729270935059,2.901884078979492,0.1484208106994629,-0.0,-0.0,-1.0,0.09271714770942162,1.0,1
7.545938491821289,1.3748140335083008,0.36943745613098145,-0.0,-0.0,-1.0,0.16016834376336603,1.0,1
7.041847229003906,1.9452295303344727,0.2394864559173584,-0.0,-0.0,-1.0,0.16149084252187385,1.0,1
6.750483512878418,2.9582767486572266,0.08170533180236816,-0.0,-0.0,-1.0,0.19533588155839207,1.0,1
5.955638885498047,3.0549516677856445,-0.02635478973388672,-0.0,-0.0,-1.0,0.06786975284751628,1.0,0
7.583682060241699,1.2105121612548828,0.9742982387542725,-0.0,-0.0,-1.0,0.16816656887497947,1.0,1
7.693136215209961,1.3324060440063477,1.5501924753189087,-0.0,-0.0,-1.0,0.11790303621202546,1.0,2
7.563793182373047,1.2703380584716797,1.5440336465835571,-0.0,-0.0,-1.0,0.11986059705719672,1.0,2
7.369047164916992,0.9498329162597656,-0.01049947738647461,-0.0,-0.0,-1.0,0.1407022477821387,1.0,0
7.35115909576416,1.2455062866210938,-0.05333209037780762,-0.0,-0.0,-1.0,0.08401083507118334,2.0,0
7.3771772384643555,0.7687454223632812,0.015107393264770508,-0.0,-0.0,-1.0,0.16245490696090928,1.0,1
7.43759822845459,0.9648447036743164,0.547142505645752,-0.0,-0.0,-1.0,0.22643855663077475,1.0,1
7.380919456481934,1.201772689819336,0.5138301849365234,-0.0,-0.0,-1.0,0.10110914521196031,1.0,1
7.635038375854492,0.9784889221191406,1.1112151145935059,-0.0,-0.0,-1.0,0.15057959105896085,1.0,2
7.435588836669922,1.0757932662963867,1.6199078559875488,-0.0,-0.0,-1.0,0.10876142860579138,1.0,2
7.378711700439453,0.9832973480224609,1.61922287940979,-0.0,-0.0,-1.0,0.2013719417015077,1.0,2
5.829176902770996,3.038694381713867,-0.05329394340515137,-0.0,-0.0,-1.0,0.05991310701723863,1.0,0
7.551357269287109,0.8015890121459961,-0.013783931732177734,-0.0,-0.0,-1.0,0.19262277360570448,1.0,0
6.988081932067871,1.9488706588745117,0.2571842670440674,-0.0,-0.0,-1.0,0.14785052860230688,1.0,1
6.471924781799316,3.0459423065185547,0.04161977767944336,-0.0,-0.0,-1.0,0.16713853236837362,1.0,1
7.180794715881348,0.7568035125732422,0.43336009979248047,-0.0,-0.0,-1.0,0.151891038451151,2.0,1
7.12828254699707,0.9808292388916016,0.39816927909851074,-0.0,-0.0,-1.0,0.20965490505206633,1.0,1
7.3187360763549805,0.8833408355712891,0.9393846988677979,-0.0,-0.0,-1.0,0.12147661480195132,1.0,1
7.184412002563477,0.6733264923095703,0.941472053527832,-0.0,-0.0,-1.0,0.14256025077242807,1.0,1
7.321202278137207,0.8592681884765625,1.4357563257217407,-0.0,-0.0,-1.0,0.11627746793843231,1.0,2
7.321084976196289,0.9346981048583984,1.430609941482544,-0.0,-0.0,-1.0,0.16281069884698574,1.0,2
7.169145584106445,0.7798290252685547,1.4247252941131592,-0.0,-0.0,-1.0,0.14359068262822697,1.0,2
6.9832353591918945,0.7302055358886719,1.4078396558761597,-0.0,-0.0,-1.0,0.14018403599553259,1.0,2
6.935027122497559,0.7109251022338867,1.4038320779800415,-0.0,-0.0,-1.0,0.13835419849743127,1.0,2
7.376375198364258,0.8621730804443359,0.009331941604614258,-0.0,-0.0,-1.0,0.12436656650763266,1.0,1
7.381171226501465,1.204660415649414,-0.046135902404785156,-0.0,-0.0,-1.0,0.09884878268007594,2.0,0
7.271221160888672,0.7823944091796875,0.002144336700439453,-0.0,-0.0,-1.0,0.1604805651476668,2.0,1
5.813536643981934,3.1237001419067383,-0.09470319747924805,-0.0,-0.0,-1.0,0.06786975284751634,1.0,0
6.941779136657715,2.035533905029297,0.23908114433288574,0.3192243178581275,-0.9322577376346604,0.17026845130063925,0.13636867894802648,9.0,1
6.817622184753418,0.8301076889038086,0.38181400299072266,-0.0,-0.0,-1.0,0.20097883507736058,1.0,1
6.923907279968262,0.7968778610229492,0.8691003322601318,-0.0,-0.0,-1.0,0.10708362534921985,1.0,1
6.821759223937988,0.6451177597045898,0.8700637817382812,-0.0,-0.0,-1.0,0.09481843269293838,1.0,1
6.8789520263671875,1.1357650756835938,1.2957725524902344,-0.0,-0.0,-1.0,0.06726478709173142,1.0,2
6.884834289550781,0.8892002105712891,1.3161985874176025,-0.0,-0.0,-1.0,0.15081703785047318,2.0,2
6.807934761047363,0.7081222534179688,1.321187138557434,-0.0,-0.0,-1.0,0.1842906013428087,2.0,2
6.8259124755859375,0.8332204818725586,1.7715165615081787,-0.0,-0.0,-1.0,0.08428941441420458,2.0,2
6.786227226257324,0.8095550537109375,1.7689356803894043,-0.0,-0.0,-1.0,0.10029712671546666,2.0,2
7.517221450805664,2.749711036682129,-0.06864237785339355,-0.0,-0.0,-1.0,0.13608296658560742,1.0,0
7.092852592468262,2.4362993240356445,-0.0938577651977539,-0.0,-0.0,-1.0,0.06040956744320948,1.0,0
7.246880531311035,2.584047317504883,-0.0899207592010498,-0.0,-0.0,-1.0,0.06335442347477273,1.0,0
6.85130500793457,1.8208494186401367,-0.03910422325134277,-0.0,-0.0,-1.0,0.10895554450206046,2.0,0
6.951310157775879,1.957331657409668,-0.04170370101928711,-0.0,-0.0,-1.0,0.1707441723017423,1.0,0
6.7238359451293945,1.610274314880371,-0.030916690826416016,-0.0,-0.0,-1.0,0.1704580292967804,1.0,0
6.647800445556641,0.8987607955932617,0.06413435935974121,-0.0,-0.0,-1.0,0.15739518606046085,1.0,1
6.510707855224609,1.4091615676879883,-0.0425565242767334,-0.0,-0.0,-1.0,0.09614577430613074,1.0,0
7.50645637512207,0.9470977783203125,0.2317650318145752,-0.0,-0.0,-1.0,0.24439603560110143,1.0,1
6.545182228088379,2.945345878601074,0.21979928016662598,-0.0,-0.0,-1.0,0.16509008031866015,2.0,1
6.791682243347168,0.7316999435424805,0.5569024085998535,-0.0,-0.0,-1.0,0.1664433242178999,2.0,1
6.746337890625,0.985011100769043,0.5166168212890625,-0.0,-0.0,-1.0,0.24029636850049896,1.0,1
6.874079704284668,0.894740104675293,0.9840669631958008,-0.0,-0.0,-1.0,0.18755664819678441,1.0,1
6.8829193115234375,0.9761228561401367,0.9771103858947754,-0.0,-0.0,-1.0,0.17608337109891656,2.0,1
6.744872093200684,0.7688102722167969,0.9766499996185303,-0.32824729080229553,0.2299505055254012,-0.9161749183914422,0.14973120772242626,3.0,1
6.746947288513184,1.1000890731811523,1.379298448562622,-0.0,-0.0,-1.0,0.11486377831067227,2.0,2
6.656426429748535,0.7719688415527344,1.3923662900924683,-0.0,-0.0,-1.0,0.12228016646819137,2.0,2
6.713703155517578,0.921259880065918,1.3886373043060303,-0.0,-0.0,-1.0,0.19311635612726008,1.0,2
7.589030742645264,3.085533618927002,0.0038521289825439453,-0.0,-0.0,-1.0,0.12139380889914983,1.0,1
7.324306488037109,2.8474230766296387,-0.0011436939239501953,-0.0,-0.0,-1.0,0.11757056559322304,1.0,0
7.45674991607666,1.1373505592346191,-0.07796525955200195,-0.0,-0.0,-1.0,0.10268227689624589,1.0,0
6.893292427062988,2.753386974334717,-0.06603312492370605,-0.0,-0.0,-1.0,0.15008301800547083,1.0,0
7.34163761138916,0.8069181442260742,-0.04062914848327637,-0.0,-0.0,-1.0,0.14354161029292628,1.0,0
7.392084121704102,1.0635604858398438,-0.07831239700317383,-0.0,-0.0,-1.0,0.08042309757244324,2.0,0
6.5390520095825195,2.5750203132629395,-0.10417580604553223,-0.0,-0.0,-1.0,0.060698531427135015,2.0,0
6.264764785766602,2.1591296195983887,-0.08879828453063965,-0.0,-0.0,-1.0,0.02166438789161672,1.0,0
6.331494331359863,2.4074912071228027,-0.11693906784057617,-0.0,-0.0,-1.0,0.03394253723567631,1.0,0
6.067483901977539,1.7587532997131348,-0.06400227546691895,-0.0,-0.0,-1.0,0.039824336560733475,1.0,0
6.140155792236328,1.928576946258545,-0.07636117935180664,-0.0,-0.0,-1.0,0.036814563414376424,1.0,0
6.945759296417236,2.2075839042663574,0.040210723876953125,-0.0,-0.0,-1.0,0.20083944872158158,1.0,1
7.295523643493652,1.0478582382202148,0.30826830863952637,-0.0,-0.0,-1.0,0.15113257206920014,1.0,1
6.88478946685791,1.719316005706787,0.11170744895935059,-0.0,-0.0,-1.0,0.19315516941066532,2.0,1
6.522824287414551,2.9476075172424316,0.2974059581756592,-0.0,-0.0,-1.0,0.1712010040131411,1.0,1
6.750291347503662,0.6528749465942383,0.25742030143737793,-0.0,-0.0,-1.0,0.13181053266709478,1.0,1
6.684521675109863,0.9003539085388184,0.20429635047912598,-0.0,-0.0,-1.0,0.20972469767006785,1.0,1
6.772801876068115,0.7216620445251465,0.6553452014923096,-0.0,-0.0,-1.0,0.11023342471526397,1.0,1
6.783795356750488,0.9245896339416504,0.6302831172943115,-0.0,-0.0,-1.0,0.2518471017349064,1.0,1
6.769590377807617,0.7918186187744141,1.044801950454712,0.32726892299759186,0.33215692494677934,-0.8846280739666222,0.11959812493587492,4.0,2
6.732087135314941,0.7919940948486328,1.0387639999389648,0.13341690361412956,0.5679461259843173,-0.8121804773628974,0.1020618718929134,3.0,2
6.531700134277344,0.6997156143188477,1.0163538455963135,-0.0,-0.0,-1.0,0.0756745922062742,2.0,2
6.667234420776367,0.9670491218566895,1.4104276895523071,0.30589955773564365,-0.40793329260100575,-0.8602417621604058,0.11420722196590005,3.0,2
6.581446647644043,0.7481198310852051,1.417245626449585,-0.0,-0.0,-1.0,0.12376595731149617,2.0,2
7.649085998535156,2.931206703186035,-0.05481863021850586,-0.0,-0.0,-1.0,0.09706950975402892,1.0,0
7.498142242431641,2.4239625930786133,0.019583702087402344,-0.0,-0.0,-1.0,0.059595164112168204,1.0,1
7.315768718719482,2.727522850036621,-0.0817570686340332,-0.0,-0.0,-1.0,0.10122539143417035,1.0,0
7.080383777618408,2.073948383331299,-0.0014903545379638672,-0.0,-0.0,-1.0,0.21419580627708956,2.0,0
6.934251308441162,2.3014402389526367,-0.07868790626525879,-0.0,-0.0,-1.0,0.13855005303729775,1.0,0
7.087991237640381,2.5655155181884766,-0.09745144844055176,-0.0,-0.0,-1.0,0.0919009763066879,1.0,0
6.769386291503906,1.8183069229125977,-0.022922992706298828,-0.0,-0.0,-1.0,0.12116957421027125,1.0,0
6.474590301513672,1.5304021835327148,-0.038663625717163086,-0.0,-0.0,-1.0,0.08217062495824728,1.0,0
6.6360063552856445,2.8894948959350586,0.17119932174682617,-0.0,-0.0,-1.0,0.17965697314055357,1.0,1
7.24989128112793,1.0635786056518555,0.23035407066345215,-0.0,-0.0,-1.0,0.1850040740117217,1.0,1
6.538233280181885,2.8171138763427734,0.164473295211792,-0.0,-0.0,-1.0,0.25612908109057964,1.0,1
6.683138847351074,0.6411232948303223,0.1692028045654297,-0.0,-0.0,-1.0,0.13550473473650007,1.0,1
6.683364391326904,0.8707523345947266,0.12945795059204102,-0.0,-0.0,-1.0,0.2142252286215232,1.0,1
6.760739803314209,0.7008800506591797,0.5496609210968018,-0.0,-0.0,-1.0,0.14089005243323882,2.0,1
6.748722076416016,0.8702120780944824,0.5215411186218262,-0.0,-0.0,-1.0,0.22018097947467433,1.0,1
6.761194229125977,0.9555354118347168,1.066248893737793,-0.0,-0.0,-1.0,0.14601286216607898,1.0,2
6.713418483734131,1.1965489387512207,1.2148401737213135,-0.0,-0.0,-1.0,0.10616597759505733,2.0,2
6.668609619140625,0.8868618011474609,1.421628713607788,-0.0,-0.0,-1.0,0.15367201922205137,2.0,2
6.62653923034668,3.031679630279541,-0.037230730056762695,-0.0,-0.0,-1.0,0.12054776802107288,2.0,0
6.319497108459473,3.010765552520752,-0.10424423217773438,-0.0,-0.0,-1.0,0.07760447009964347,1.0,0
5.893104553222656,2.7236647605895996,-0.15221953392028809,-0.0,-0.0,-1.0,0.022322340398077952,1.0,0
5.961324691772461,2.8311314582824707,-0.15546774864196777,-0.0,-0.0,-1.0,0.035819388928489494,1.0,0
6.9533185958862305,2.09395170211792,0.21775531768798828,0.8578481612318041,0.5009737348846608,0.11455064044747301,0.0844871879407774,9.0,1
6.376249313354492,3.088456630706787,0.3019096851348877,-0.0,-0.0,-1.0,0.17840984731068849,1.0,1
6.7908034324646,0.6876492500305176,0.4235382080078125,-0.0,-0.0,-1.0,0.18689069381135975,2.0,1
6.686130523681641,0.9511218070983887,0.3534862995147705,-0.0,-0.0,-1.0,0.1662964432440179,1.0,1
6.790770053863525,0.818293571472168,0.7411031723022461,-0.0,-0.0,-1.0,0.09806573454799897,2.0,1
6.812403678894043,1.025345802307129,0.716480016708374,-0.0,-0.0,-1.0,0.1970815413586576,2.0,1
6.755795478820801,0.8254384994506836,1.0660457611083984,0.13341690361412956,0.5679461259843173,-0.8121804773628974,0.11530590243658422,3.0,2
6.633350849151611,0.8110089302062988,1.3752111196517944,-0.2202609488229458,-0.4985966423470302,-0.8383832671659681,0.10909391804390532,3.0,2
6.696582317352295,1.101705551147461,1.3579416275024414,-0.0,-0.0,-1.0,0.10508917925824936,2.0,2
6.700779914855957,0.9850525856018066,1.6993801593780518,0.19031671332387476,-0.11462032197243956,-0.9750085796650881,0.13166827402725045,6.0,2
6.597879886627197,2.8577487468719482,0.3053460121154785,-0.0,-0.0,-1.0,0.21570882930670604,2.0,1
6.783284664154053,1.0460636615753174,0.664250373840332,0.25554322041224115,-0.14965637318819694,-0.9551442992896394,0.1990149952597733,3.0,1
6.760049819946289,0.8202641010284424,0.6926822662353516,-0.0,-0.0,-1.0,0.07532619353997258,1.0,1
6.766263484954834,1.0057346820831299,0.6660153865814209,-0.0,-0.0,-1.0,0.19482045504965595,2.0,1
6.841396331787109,0.9449312686920166,0.9963841438293457,-0.0,-0.0,-1.0,0.23616656098239744,1.0,1
6.786313533782959,1.1366455554962158,1.1104474067687988,-0.0,-0.0,-1.0,0.04763953667709978,1.0,2
6.738501071929932,0.8112761974334717,0.989591121673584,-0.0,-0.0,-1.0,0.15288549827412687,2.0,1
6.75516939163208,1.0657336711883545,1.408363699913025,-0.0,-0.0,-1.0,0.12074839938742238,2.0,2
6.681467533111572,0.8769514560699463,1.4135653972625732,-0.0,-0.0,-1.0,0.15367201922205131,2.0,2
6.675951957702637,0.9921224117279053,1.4016376733779907,0.9678867574950619,-0.22801623470848673,0.10584810520297305,0.10251311346530419,4.0,2
6.84719705581665,0.8023803234100342,1.0547940731048584,-0.0,-0.0,-1.0,0.11913388393921469,1.0,2
6.843898296356201,0.9278831481933594,0.9051649570465088,-0.0,-0.0,-1.0,0.2092057132095341,1.0,1
6.76349401473999,0.7359371185302734,0.9074313640594482,-0.0,-0.0,-1.0,0.11435242673825001,2.0,1
6.816191673278809,0.8419549465179443,0.7749316692352295,-0.0,-0.0,-1.0,0.11593293580091489,2.0,1
6.7632975578308105,1.049738883972168,1.272843599319458,-0.0,-0.0,-1.0,0.09820339814303602,1.0,2
6.667532444000244,0.6840243339538574,1.2865314483642578,-0.0,-0.0,-1.0,0.15931283209979774,2.0,2
6.75480318069458,0.8502893447875977,1.2904843091964722,-0.0,-0.0,-1.0,0.17753555761270576,1.0,2
6.77543830871582,0.9187588691711426,1.5491981506347656,0.9126222718178432,-0.19205748485655372,-0.36088018994205495,0.18141297325948813,3.0,2
6.677464485168457,0.8602375984191895,1.5352578163146973,-0.0,-0.0,-1.0,0.08555137876674336,1.0,2
6.83452844619751,0.950576663017273,0.8260754346847534,-0.0,-0.0,-1.0,0.1765250236658929,1.0,1
6.763391017913818,0.7641535997390747,0.8249731063842773,-0.0,-0.0,-1.0,0.09281504768343721,2.0,1
6.793238162994385,1.0106648206710815,1.1649384498596191,-0.0,-0.0,-1.0,0.16060896431549776,1.0,2
6.731329441070557,1.2038108110427856,1.251814603805542,-0.0,-0.0,-1.0,0.11183820380737054,2.0,2
6.729218006134033,0.8063279390335083,1.1661934852600098,-0.0,-0.0,-1.0,0.1067580543134153,1.0,2
6.766226768493652,0.9458543062210083,1.5114833116531372,0.9126222718178432,-0.19205748485655372,-0.36088018994205495,0.22167908775194622,3.0,2
6.665589332580566,0.9128807783126831,1.4940617084503174,-0.0,-0.0,-1.0,0.1180829216127069,1.0,2
6.675092697143555,0.9601632356643677,1.7238831520080566,-0.43440761168754066,-0.4045831691342024,-0.8047375262539036,0.14141028353022722,4.0,2
6.911231994628906,0.9328590035438538,1.0597615242004395,-0.0,-0.0,-1.0,0.16720072881377956,2.0,2
6.8282470703125,1.1695992946624756,1.1303861141204834,-0.0,-0.0,-1.0,0.04978016418089167,1.0,2
6.759429931640625,0.7379482388496399,1.0255128145217896,-0.0,-0.0,-1.0,0.14592026603667216,2.0,2
6.771674633026123,0.9769076704978943,1.4325603246688843,-0.0,-0.0,-1.0,0.17455705813350275,1.0,2
6.748472690582275,1.1565542221069336,1.3194860219955444,-0.0,-0.0,-1.0,0.07786185591189451,2.0,2
6.690487861633301,0.8236964344978333,1.4193873405456543,-0.0,-0.0,-1.0,0.19612663624816942,1.0,2
6.7339396476745605,1.0057964324951172,1.728844165802002,0.7342041271239055,-0.44349766723528317,-0.5140565327579119,0.14046466773955155,3.0,2
6.710460186004639,0.951210081577301,1.725642204284668,0.3511698560464305,-0.5298762551720614,-0.7719526451856755,0.14141028353022725,4.0,2
6.826975345611572,0.9154297709465027,1.0346201658248901,-0.0,-0.0,-1.0,0.20774241425578627,1.0,2
6.780578136444092,1.113255262374878,1.0143463611602783,-0.7602309955191804,-0.48662120176075147,-0.43040520378921715,0.04521706817108937,3.0,2
6.682402610778809,0.7825120687484741,0.9923715591430664,-0.0,-0.0,-1.0,0.13898553565837912,1.0,1
6.7420334815979,0.9294893145561218,1.2863905429840088,-0.0,-0.0,-1.0,0.133117538250138,1.0,2
6.699199676513672,1.1252937316894531,1.3634244203567505,-0.0,-0.0,-1.0,0.11761370559498503,2.0,2
6.659546852111816,0.8270020484924316,1.3588175773620605,0.5230763304074525,-0.8522745290799839,0.004390859706882685,0.08276773430121498,3.0,2
6.67954158782959,0.9757186770439148,1.3617463111877441,0.9780663380271438,0.20828021406338243,0.0023644973850994707,0.08573179833489511,3.0,2
6.730013847351074,0.951775848865509,1.5545514822006226,-0.0,-0.0,-1.0,0.08059622125214905,2.0,2
6.769114971160889,1.024272084236145,1.56135892868042,-0.0,-0.0,-1.0,0.07526767199234609,2.0,2
7.049098968505859,0.9924237728118896,1.611913800239563,-0.0,-0.0,-1.0,0.1025434611357206,1.0,2
7.055841445922852,0.9110798835754395,1.028438687324524,-0.0,-0.0,-1.0,0.07248091891682099,1.0,2
7.230663776397705,0.9534912109375,0.07307624816894531,-0.0,-0.0,-1.0,0.18308891205834305,2.0,1
7.133633613586426,0.8119440078735352,0.04415702819824219,-0.0,-0.0,-1.0,0.11297707321726491,1.0,1
6.483417510986328,0.6487436294555664,0.001556396484375,-0.0,-0.0,-1.0,0.17656471156692116,1.0,1
6.998828887939453,2.020575523376465,0.28152918815612793,-0.0,-0.0,-1.0,0.21087397317669196,2.0,1
7.027169704437256,0.9798154830932617,0.5252878665924072,0.1040318157909804,-0.7536622960393708,-0.6489765210174364,0.11604615913505874,5.0,1
6.98976469039917,0.8679084777832031,0.5066788196563721,-0.0,-0.0,-1.0,0.2204084759063823,1.0,1
7.080638885498047,0.9531536102294922,0.9668058156967163,-0.0,-0.0,-1.0,0.07496544433413607,1.0,1
6.997060298919678,0.8815469741821289,0.956554651260376,-0.0,-0.0,-1.0,0.08995683316624732,1.0,1
6.9646711349487305,0.8400745391845703,1.3959298133850098,-0.0,-0.0,-1.0,0.11140198070446829,2.0,2
7.28784704208374,0.7463054656982422,0.3411576747894287,-0.0,-0.0,-1.0,0.12454146639113091,2.0,1
7.376595497131348,0.7416496276855469,0.33918094635009766,-0.0,-0.0,-1.0,0.14367408677144042,1.0,1
7.198737144470215,0.8410377502441406,0.35092902183532715,-0.0,-0.0,-1.0,0.11812522992475928,1.0,1
7.105889797210693,0.9358596801757812,0.36072564125061035,-0.0,-0.0,-1.0,0.07991010172767816,1.0,1
7.558761119842529,0.7086067199707031,1.2300965785980225,-0.0,-0.0,-1.0,0.16986360890737004,1.0,2
7.151309490203857,0.9410610198974609,1.2485544681549072,-0.0,-0.0,-1.0,0.040155471910250325,1.0,2
7.415711879730225,0.8653659820556641,1.2405600547790527,-0.0,-0.0,-1.0,0.116200657087987,1.0,2
6.9783830642700195,0.9265270233154297,1.2502738237380981,-0.0,-0.0,-1.0,0.10060550637463636,2.0,2
7.320099830627441,0.7748374938964844,0.446197509765625,-0.0,-0.0,-1.0,0.15421297823228264,2.0,1
7.183528423309326,0.8726062774658203,0.4555063247680664,-0.0,-0.0,-1.0,0.08522449770361036,1.0,1
7.454587936401367,0.7419719696044922,1.35416579246521,-0.0,-0.0,-1.0,0.1098344581130001,2.0,2
7.046243667602539,0.9059600830078125,1.3653953075408936,-0.0,-0.0,-1.0,0.07244409309288065,2.0,2
7.2254719734191895,0.9118862152099609,1.3642253875732422,-0.0,-0.0,-1.0,0.1082046229854946,1.0,2
7.119142532348633,0.7823486328125,0.3495311737060547,-0.0,-0.0,-1.0,0.20033709100458433,2.0,1
7.255457878112793,0.7557201385498047,0.347078800201416,-0.0,-0.0,-1.0,0.14379302994571613,2.0,1
7.518716335296631,0.680450439453125,1.2673366069793701,-0.0,-0.0,-1.0,0.14884489141808052,1.0,2
7.0243682861328125,0.8986530303955078,1.279412031173706,-0.0,-0.0,-1.0,0.04951898735058275,1.0,2
7.1159443855285645,0.9223499298095703,1.2804514169692993,-0.0,-0.0,-1.0,0.051168321809685134,1.0,2
7.296835899353027,0.9535160064697266,1.2816001176834106,-0.0,-0.0,-1.0,0.06941521797878757,1.0,2
6.956223011016846,0.7523574829101562,0.4303591251373291,-0.0,-0.0,-1.0,0.14949622628168693,2.0,1
7.181771755218506,0.7200069427490234,0.4265451431274414,-0.9594605015902218,-0.07575428661157937,0.2714716079965102,0.1413080200909792,3.0,1
6.968769073486328,0.9002132415771484,0.4423236846923828,-0.0,-0.0,-1.0,0.19616109452916308,1.0,1
6.964146614074707,0.8634300231933594,1.3646674156188965,-0.8581093456236809,0.38688675013628715,0.33758997840913463,0.09350899921626463,4.0,2
7.2622528076171875,0.7659454345703125,1.3578555583953857,-0.0,-0.0,-1.0,0.10660043170700201,1.0,2
6.967747688293457,0.8820571899414062,1.36552095413208,-0.807423792969303,0.18181233817989292,-0.5612584896753227,0.08792164757245136,3.0,2
6.948990821838379,0.7630062103271484,0.4715414047241211,-0.0,-0.0,-1.0,0.1503687699837552,2.0,1
7.080827713012695,0.6995372772216797,0.4666123390197754,-0.0,-0.0,-1.0,0.17993562418746553,1.0,1
6.862920761108398,0.8538227081298828,1.404534935951233,-0.0,-0.0,-1.0,0.17868701147295873,1.0,2
7.128655433654785,0.7615013122558594,1.3998260498046875,-0.0,-0.0,-1.0,0.10697646878268081,1.0,2
6.439055442810059,0.7632942199707031,0.3896493911743164,-0.0,-0.0,-1.0,0.12001207276213456,1.0,1
6.703466415405273,0.6646842956542969,0.37839722633361816,-0.0,-0.0,-1.0,0.19383716373094512,2.0,1
6.5445356369018555,0.8484249114990234,0.395845890045166,-0.0,-0.0,-1.0,0.13089553666591539,1.0,1
6.795287132263184,0.6902885437011719,0.3795351982116699,-0.0,-0.0,-1.0,0.22580715973740628,2.0,1
6.464357376098633,0.8215980529785156,1.319126844406128,-0.0,-0.0,-1.0,0.16335128788765726,1.0,2
6.897472381591797,0.6676177978515625,1.3043898344039917,-0.0,-0.0,-1.0,0.14160747550060218,1.0,2
6.648016929626465,0.8197059631347656,1.316174864768982,-0.0,-0.0,-1.0,0.11356217883040592,2.0,2
6.819706916809082,0.7445716857910156,1.309596300125122,-0.0,-0.0,-1.0,0.1727256024051467,2.0,2
7.032497882843018,0.9652023315429688,0.47531867027282715,-0.0,-0.0,-1.0,0.12695098632059929,1.0,1
7.230080604553223,0.7856731414794922,0.45792078971862793,-0.6311608832042234,0.48516558115393627,0.6051861683617926,0.15981213095507785,3.0,1
7.038636684417725,0.8928070068359375,1.3807885646820068,-0.23169845145393764,-0.680055189651322,-0.6955866348788998,0.07584091081283549,3.0,2
7.256200790405273,0.8395366668701172,1.3743757009506226,-0.0,-0.0,-1.0,0.12318554315219558,1.0,2
6.956728458404541,0.9870128631591797,0.5776997804641724,-0.0,-0.0,-1.0,0.07378323400866964,1.0,1
7.167736530303955,0.9065933227539062,0.5688121318817139,-0.0,-0.0,-1.0,0.09344882201373055,2.0,1
7.003820419311523,0.8984508514404297,1.4690130949020386,-0.0,-0.0,-1.0,0.18673055114380563,2.0,2
