x,y,z,nx,ny,nz,curvature,density
58.725791931152344,7.321070671081543,-2.0111184120178223,-0.0,-0.0,-1.0,0.01674161692657438,2.0
58.704498291015625,7.112022399902344,-2.0449790954589844,-0.0,-0.0,-1.0,0.01795966515317107,1.0
58.82447052001953,7.401030540466309,-1.9765264987945557,-0.8858981352679197,-0.14471361089240306,-0.44072946889367953,0.018930341863325994,3.0
57.8505859375,8.128546714782715,-2.093059539794922,-0.0,-0.0,-1.0,0.05812499121987661,1.0
57.826133728027344,7.342721939086914,-1.9856367111206055,-0.0,-0.0,-1.0,0.08740721079723403,1.0
58.09991455078125,7.5786237716674805,-2.0246481895446777,-0.0,-0.0,-1.0,0.10673755666823112,1.0
58.06626510620117,6.253063201904297,-1.6738530397415161,-0.0,-0.0,-1.0,0.1956264787346082,1.0
58.63860321044922,6.4870100021362305,-1.7436820268630981,-0.0,-0.0,-1.0,0.09532839516192977,1.0
59.493072509765625,7.483417510986328,-2.0627996921539307,-0.0,-0.0,-1.0,0.004791439306087031,2.0
58.372276306152344,6.804373741149902,-1.9141027927398682,-0.0,-0.0,-1.0,0.15134018063765775,2.0
57.9721794128418,6.691740989685059,-1.8794350624084473,-0.0,-0.0,-1.0,0.07456998938204716,1.0
58.46092987060547,6.224950790405273,-1.5769312381744385,-0.0,-0.0,-1.0,0.1467704276876516,2.0
58.71764373779297,6.355917930603027,-1.6094944477081299,-0.0,-0.0,-1.0,0.08993407724711225,1.0
58.46942138671875,6.548525810241699,-1.6522029638290405,-0.0,-0.0,-1.0,0.07960948886870664,2.0
58.33823776245117,6.278541564941406,-1.5891753435134888,-0.0,-0.0,-1.0,0.18848642988245748,1.0
58.64154815673828,6.453551769256592,-1.6296006441116333,-0.0,-0.0,-1.0,0.07923778314186579,2.0
58.58837890625,6.375741004943848,-1.624219536781311,-0.0,-0.0,-1.0,0.09289512774470977,1.0
58.258724212646484,6.563617706298828,-1.7171390056610107,-0.0,-0.0,-1.0,0.10477059185020302,1.0
58.260894775390625,5.880374908447266,-1.8538994789123535,-0.0,-0.0,-1.0,0.14206819606149484,2.0
58.6123046875,6.030914306640625,-1.7239224910736084,-0.0,-0.0,-1.0,0.08614257320158815,1.0
58.33576583862305,5.842421531677246,-2.2275390625,-0.0,-0.0,-1.0,0.19865576817128952,1.0
58.04475402832031,6.199382305145264,-2.210282802581787,-0.0,-0.0,-1.0,0.17607485277379087,1.0
58.26805114746094,6.349001884460449,-1.8341631889343262,-0.0,-0.0,-1.0,0.20622661527483765,1.0
58.058536529541016,5.966548919677734,-1.7607522010803223,-0.0,-0.0,-1.0,0.17299246395700907,1.0
58.03683090209961,6.148237228393555,-1.7821240425109863,-0.0,-0.0,-1.0,0.22522657680860167,1.0
58.199615478515625,5.896306991577148,-1.8451423645019531,-0.0,-0.0,-1.0,0.1358539043094015,1.0
57.97367858886719,6.140939712524414,-1.8270273208618164,-0.0,-0.0,-1.0,0.10121481141932884,1.0
58.1854248046875,6.422353744506836,-1.8649401664733887,-0.0,-0.0,-1.0,0.167817221309137,1.0
58.397457122802734,7.819581031799316,-2.148660182952881,-0.0,-0.0,-1.0,0.016635489975853048,1.0
57.826725006103516,6.445206165313721,-1.9145894050598145,-0.0,-0.0,-1.0,0.08764917964215137,1.0
58.048728942871094,6.265496253967285,-1.8580536842346191,-0.0,-0.0,-1.0,0.13594667728116708,2.0
58.14617156982422,6.636735916137695,-1.9016304016113281,-0.0,-0.0,-1.0,0.1366066937592995,2.0
58.15461730957031,6.55048942565918,-1.8344805240631104,-0.0,-0.0,-1.0,0.11784415355720415,2.0
57.90179443359375,6.259971618652344,-1.8105041980743408,-0.0,-0.0,-1.0,0.10720174484798231,2.0
58.229454040527344,6.328113555908203,-1.6592249870300293,-0.0,-0.0,-1.0,0.2861770441302912,1.0
58.51622009277344,7.152482986450195,-2.036287546157837,-0.0,-0.0,-1.0,0.027441460892373586,1.0
58.833152770996094,7.544628143310547,-2.0700643062591553,-0.0,-0.0,-1.0,0.014020355140858596,1.0
59.510284423828125,7.4489288330078125,-2.1404483318328857,-0.0,-0.0,-1.0,0.004791439306087055,2.0
59.55498504638672,7.607011795043945,-2.1455061435699463,-0.0,-0.0,-1.0,0.007404242024787612,1.0
57.965110778808594,6.280267715454102,-1.8736670017242432,-0.0,-0.0,-1.0,0.06538177522537378,2.0
58.254249572753906,6.835720062255859,-1.9115016460418701,-0.0,-0.0,-1.0,0.13853947680472206,1.0
58.36450958251953,6.960663795471191,-1.9249694347381592,-0.0,-0.0,-1.0,0.041420005356214505,1.0
58.771888732910156,7.476986885070801,-1.9756906032562256,-0.0,-0.0,-1.0,0.01643676194265243,2.0
58.147003173828125,7.743839263916016,-2.0290658473968506,-0.0,-0.0,-1.0,0.0672873656575441,2.0
58.437767028808594,7.81673526763916,-2.066544771194458,-0.0,-0.0,-1.0,0.015477826353444406,1.0
58.43701934814453,7.7615203857421875,-2.044144868850708,-0.0,-0.0,-1.0,0.01614594499875618,1.0
58.20219039916992,6.360650062561035,-1.5463597774505615,-0.0,-0.0,-1.0,0.18919952695002112,1.0
57.988731384277344,6.296953201293945,-1.7766766548156738,-0.0,-0.0,-1.0,0.1589658324211646,1.0
58.331390380859375,5.987827301025391,-1.8033466339111328,-0.0,-0.0,-1.0,0.1958013045169835,2.0
58.09209442138672,6.481331825256348,-1.799835205078125,-0.0,-0.0,-1.0,0.12012174061375472,2.0
58.20995330810547,6.662097930908203,-1.824718952178955,-0.0,-0.0,-1.0,0.12549209569747943,2.0
58.81297302246094,7.479805946350098,-1.947413444519043,-0.0,-0.0,-1.0,0.0157328579808843,2.0
59.570518493652344,7.436554908752441,-2.0415115356445312,-0.0,-0.0,-1.0,0.004649355855360007,1.0
57.711021423339844,7.718812942504883,-2.080998420715332,-0.0,-0.0,-1.0,0.07771462230395361,1.0
58.10088348388672,7.8175811767578125,-2.1373677253723145,-0.0,-0.0,-1.0,0.05464178208829719,1.0
58.264015197753906,5.883230209350586,-1.895676851272583,-0.0,-0.0,-1.0,0.16739614567222633,2.0
57.97113800048828,6.327078819274902,-1.869797706604004,-0.0,-0.0,-1.0,0.08901846928402764,2.0
58.297061920166016,6.755929946899414,-1.9198098182678223,-0.0,-0.0,-1.0,0.10707122189089593,2.0
59.485164642333984,7.477733612060547,-2.0848681926727295,-0.0,-0.0,-1.0,0.004791439306087032,2.0
58.07331085205078,5.734184265136719,-1.6880066394805908,-0.0,-0.0,-1.0,0.16058819778924233,1.0
58.16788864135742,6.118417739868164,-1.713592290878296,-0.0,-0.0,-1.0,0.20431592231289983,2.0
58.184051513671875,6.4385223388671875,-1.727388858795166,-0.0,-0.0,-1.0,0.23088644813978984,1.0
58.159767150878906,6.362259864807129,-1.5894567966461182,-0.0,-0.0,-1.0,0.2605492210289573,1.0
58.34022521972656,6.54212760925293,-1.6181309223175049,-0.0,-0.0,-1.0,0.15771935082505484,2.0
57.739280700683594,6.986628532409668,-2.019925355911255,-0.0,-0.0,-1.0,0.05667590659429894,1.0
57.797569274902344,7.529228210449219,-2.0394811630249023,-0.0,-0.0,-1.0,0.10648051444943399,1.0
58.12944030761719,7.826333045959473,-2.096392869949341,-0.0,-0.0,-1.0,0.060085183969753125,1.0
57.72966766357422,6.511556625366211,-1.964812994003296,-0.0,-0.0,-1.0,0.07114087423099925,1.0
57.80844497680664,6.738652229309082,-1.9788689613342285,-0.0,-0.0,-1.0,0.04574264456870492,1.0
58.043304443359375,7.164515495300293,-2.0200891494750977,-0.0,-0.0,-1.0,0.08338184764582911,1.0
57.908905029296875,7.433276176452637,-2.0012753009796143,-0.0,-0.0,-1.0,0.11242612003235346,1.0
58.13313674926758,7.686269760131836,-2.040696859359741,-0.0,-0.0,-1.0,0.06352289623570113,1.0
58.24599075317383,7.807316780090332,-2.060736894607544,-0.0,-0.0,-1.0,0.06838582827429761,1.0
58.46961975097656,7.849281311035156,-2.097834587097168,-0.0,-0.0,-1.0,0.014939189853487612,1.0
58.12810516357422,5.681703567504883,-1.780118703842163,-0.0,-0.0,-1.0,0.1518462716812537,2.0
58.33350372314453,6.0248212814331055,-1.8088555335998535,-0.0,-0.0,-1.0,0.2095582034263513,2.0
58.060916900634766,6.332788467407227,-1.766416072845459,-0.0,-0.0,-1.0,0.18318501554299474,1.0
58.24382781982422,6.50636100769043,-1.793569564819336,-0.0,-0.0,-1.0,0.1616711725563059,1.0
58.28347396850586,6.662023544311523,-1.7993113994598389,-0.0,-0.0,-1.0,0.09258895597397676,1.0
57.75843048095703,6.906185150146484,-1.993833303451538,-0.0,-0.0,-1.0,0.06078983775333724,1.0
57.87157440185547,7.279035568237305,-2.011554479598999,-0.0,-0.0,-1.0,0.08718129470447573,1.0
57.99755859375,7.56110954284668,-2.0327036380767822,-0.0,-0.0,-1.0,0.1107794430982819,1.0
58.154335021972656,7.734647750854492,-2.059990882873535,-0.0,-0.0,-1.0,0.0672873656575441,2.0
58.37118911743164,7.841172218322754,-2.098130941390991,-0.0,-0.0,-1.0,0.017610125912749547,1.0
57.73075485229492,6.353602409362793,-1.9336521625518799,-0.0,-0.0,-1.0,0.09108127261336729,1.0
57.916900634765625,6.855295181274414,-1.9635522365570068,-0.0,-0.0,-1.0,0.05389600676239477,1.0
57.9884033203125,6.819792747497559,-1.976578712463379,-0.0,-0.0,-1.0,0.06296704221186449,1.0
58.250221252441406,7.1146440505981445,-2.022784948348999,-0.0,-0.0,-1.0,0.062437312314713354,1.0
58.418373107910156,7.27412223815918,-2.0530498027801514,-0.0,-0.0,-1.0,0.008280137268696284,2.0
58.27274703979492,7.6931657791137695,-2.0267674922943115,-0.0,-0.0,-1.0,0.07096862092327998,2.0
58.354652404785156,7.656715393066406,-2.0416924953460693,-0.0,-0.0,-1.0,0.017298177382023234,1.0
58.5309944152832,7.770635604858398,-2.0742244720458984,-0.0,-0.0,-1.0,0.009327351627115666,1.0
59.09190368652344,6.93806266784668,-2.081460952758789,-0.0,-0.0,-1.0,0.004846045256450387,2.0
59.27556228637695,7.200651168823242,-2.1133604049682617,-0.0,-0.0,-1.0,0.00651810783090381,1.0
59.448768615722656,7.235921859741211,-2.1449332237243652,-0.0,-0.0,-1.0,0.005637217872135517,2.0
59.484291076660156,7.409030914306641,-2.1505942344665527,-0.0,-0.0,-1.0,0.005720470848444891,2.0
59.77674102783203,8.024066925048828,-2.203749895095825,-0.0,-0.0,-1.0,0.007338078008698889,1.0
57.895103454589844,6.173526763916016,-1.875093698501587,-0.0,-0.0,-1.0,0.12926188522375423,2.0
58.034507751464844,6.5035858154296875,-1.8947186470031738,-0.0,-0.0,-1.0,0.09648691527317094,1.0
58.16868591308594,6.684175491333008,-1.9162616729736328,-0.0,-0.0,-1.0,0.13063895141319853,1.0
58.41756820678711,6.899713516235352,-1.9587767124176025,-0.0,-0.0,-1.0,0.07244399272798718,2.0
58.854469299316406,6.942385673522949,-2.037959337234497,-0.0,-0.0,-1.0,0.009013462308947211,1.0
58.791358947753906,7.404108047485352,-2.0225911140441895,-0.0,-0.0,-1.0,0.01797547853400003,1.0
59.211402893066406,7.617596626281738,-2.099078893661499,-0.0,-0.0,-1.0,0.011718425022376522,2.0
59.26046371459961,8.060571670532227,-2.107060670852661,-0.0,-0.0,-1.0,0.005943991786635381,1.0
57.818275451660156,6.158699989318848,-1.8937753438949585,0.3595657285142492,0.9214770450024874,-0.1469440111454058,0.11630230169238219,4.0
57.959877014160156,6.546238899230957,-1.9121705293655396,-0.0,-0.0,-1.0,0.048839400877289475,1.0
58.094276428222656,6.705935478210449,-1.9345461130142212,-0.0,-0.0,-1.0,0.13151691802604845,1.0
58.27201843261719,6.903476715087891,-1.9650801420211792,-0.0,-0.0,-1.0,0.11218815029690578,1.0
58.540611267089844,7.089687347412109,-2.013702869415283,-0.0,-0.0,-1.0,0.02557267204540514,1.0
58.69871520996094,7.3387651443481445,-2.040985584259033,-0.0,-0.0,-1.0,0.016741616926574367,2.0
58.94158935546875,7.469730377197266,-2.0866522789001465,-0.0,-0.0,-1.0,0.015550779208032958,1.0
58.91926574707031,7.630132675170898,-2.0807137489318848,-0.0,-0.0,-1.0,0.013711606854499294,1.0
58.77674865722656,8.031204223632812,-2.0494909286499023,-0.0,-0.0,-1.0,0.01304053346795189,2.0
58.14363098144531,5.887223243713379,-1.875596284866333,-0.0,-0.0,-1.0,0.1277339860473529,1.0
58.00407409667969,6.179595947265625,-1.8411107063293457,-0.0,-0.0,-1.0,0.133854860352946,1.0
58.12883758544922,6.524875640869141,-1.8566806316375732,-0.0,-0.0,-1.0,0.11579744181455395,2.0
58.25115203857422,6.648256301879883,-1.877598524093628,-0.0,-0.0,-1.0,0.11994752245209256,1.0
58.38209915161133,6.787777900695801,-1.9001750946044922,-0.0,-0.0,-1.0,0.14797769125635624,2.0
58.7935676574707,6.807655334472656,-1.9804596900939941,-0.0,-0.0,-1.0,0.022531289300365125,1.0
59.17999267578125,6.902318000793457,-2.0549778938293457,-0.0,-0.0,-1.0,0.004049824702875649,1.0
58.79252624511719,7.3468217849731445,-1.9709954261779785,-0.0,-0.0,-1.0,0.018235916735824375,1.0
59.498111724853516,7.281970977783203,-2.112565040588379,-0.0,-0.0,-1.0,0.005637217872135517,1.0
59.74266052246094,7.958255767822266,-2.154675006866455,-0.0,-0.0,-1.0,0.007338078008698889,1.0
57.84528350830078,7.333493232727051,-1.7841191291809082,-0.0,-0.0,-1.0,0.09735599337480554,1.0
58.08784484863281,6.332493782043457,-1.608973503112793,-0.0,-0.0,-1.0,0.1541337817251759,2.0
58.379638671875,6.538028717041016,-1.6582348346710205,0.4159753133737056,-0.9078340004468466,-0.05293360271436303,0.09313338643224653,3.0
58.066314697265625,5.729769706726074,-1.932561993598938,-0.0,-0.0,-1.0,0.20612887969196902,1.0
59.07870101928711,7.039826393127441,-2.0691404342651367,-0.0,-0.0,-1.0,0.004846045256450409,1.0
59.41438674926758,7.375640869140625,-2.124749183654785,-0.0,-0.0,-1.0,0.0070827721610699146,1.0
59.590782165527344,7.802521705627441,-2.1452364921569824,-0.0,-0.0,-1.0,0.007338078008698874,1.0
57.97056579589844,5.955197334289551,-1.8985873460769653,-0.0,-0.0,-1.0,0.09149479032155695,1.0
57.88040542602539,6.205007553100586,-1.8643933534622192,-0.0,-0.0,-1.0,0.14578410229889752,2.0
58.0749626159668,6.583982467651367,-1.8815828561782837,-0.0,-0.0,-1.0,0.13719097220943252,2.0
58.31325912475586,6.786328315734863,-1.9198302030563354,0.5630932846081611,-0.3005499872609958,-0.7698023499487435,0.14251713738282568,3.0
58.42467498779297,6.909233093261719,-1.9365767240524292,-0.0,-0.0,-1.0,0.04737232021252376,2.0
58.669029235839844,7.01143741607666,-1.9830328226089478,-0.0,-0.0,-1.0,0.02415642542867977,1.0
58.953636169433594,7.020744323730469,-2.043276786804199,-0.0,-0.0,-1.0,0.009040640870775597,1.0
58.842491149902344,7.369403839111328,-2.0023646354675293,-0.8858981352679197,-0.14471361089240306,-0.44072946889367953,0.01693411461472089,3.0
58.96149444580078,7.426145553588867,-2.0253734588623047,-0.0,-0.0,-1.0,0.015835688994191452,1.0
59.226768493652344,7.612480163574219,-2.0733232498168945,-0.0,-0.0,-1.0,0.011718425022376522,2.0
57.85563278198242,7.102499008178711,-2.012286424636841,-0.0,-0.0,-1.0,0.0629929718816289,1.0
58.077327728271484,7.27386474609375,-2.048870086669922,-0.0,-0.0,-1.0,0.06549638808093956,1.0
58.06135559082031,7.612312316894531,-2.0186355113983154,-0.0,-0.0,-1.0,0.08027116813957949,1.0
58.14619827270508,7.4693403244018555,-2.0494747161865234,-0.0,-0.0,-1.0,0.034418651033915636,1.0
58.21904373168945,7.761455535888672,-2.044278860092163,-0.0,-0.0,-1.0,0.07247700162938667,1.0
57.752044677734375,6.10634708404541,-1.5226895809173584,-0.0,-0.0,-1.0,0.16482824123285944,1.0
57.93117904663086,6.159004211425781,-1.5534377098083496,-0.0,-0.0,-1.0,0.24589308754708653,1.0
58.21831130981445,6.446291923522949,-1.5903115272521973,-0.0,-0.0,-1.0,0.19535087629792897,2.0
58.602760314941406,6.500253677368164,-1.6626696586608887,-0.0,-0.0,-1.0,0.05538125953618533,2.0
58.36418914794922,6.559820175170898,-1.6117758750915527,-0.0,-0.0,-1.0,0.1375932558110092,2.0
58.46575164794922,6.542306900024414,-1.6329395771026611,-0.0,-0.0,-1.0,0.0727729998892249,2.0
58.73558807373047,7.809479713439941,-2.1274867057800293,-0.0,-0.0,-1.0,0.01579941680039591,1.0
58.1248779296875,5.703132629394531,-1.751325011253357,-0.0,-0.0,-1.0,0.1513679868055182,2.0
58.14451599121094,6.387247085571289,-1.6708914041519165,-0.0,-0.0,-1.0,0.1389845056010662,2.0
58.261138916015625,6.485684394836426,-1.6789568662643433,-0.0,-0.0,-1.0,0.16160574086399307,2.0
58.38404846191406,6.5420989990234375,-1.6933878660202026,-0.0,-0.0,-1.0,0.1378345523037887,2.0
57.73147201538086,7.197537422180176,-2.0022811889648438,-0.0,-0.0,-1.0,0.07487375068075434,1.0
58.04263687133789,7.236240386962891,-2.0595173835754395,-0.0,-0.0,-1.0,0.06730592127277402,1.0
58.24177551269531,7.530800819396973,-2.0604286193847656,-0.0,-0.0,-1.0,0.013492885380580443,1.0
58.39945983886719,7.70363712310791,-2.070308208465576,-0.0,-0.0,-1.0,0.017053954086935313,1.0
58.589088439941406,8.09906005859375,-2.060070037841797,-0.0,-0.0,-1.0,0.01373343108829142,1.0
58.976158142089844,6.747645378112793,-2.045027732849121,-0.0,-0.0,-1.0,0.03224781920428884,1.0
59.102684020996094,6.795843124389648,-2.0649712085723877,-0.0,-0.0,-1.0,0.01449744028360851,1.0
59.30716323852539,6.881410598754883,-2.096848249435425,-0.0,-0.0,-1.0,0.005137194376102028,1.0
57.73261642456055,5.829272270202637,-1.9270985126495361,-0.0,-0.0,-1.0,0.14296570633627476,1.0
57.81639099121094,6.17002010345459,-1.8931963443756104,0.3595657285142492,0.9214770450024874,-0.1469440111454058,0.12528253985943097,4.0
58.07353973388672,6.541495323181152,-1.8905236721038818,-0.0,-0.0,-1.0,0.11516068652945192,2.0
58.26201629638672,6.71821403503418,-1.9035465717315674,-0.0,-0.0,-1.0,0.1360814258813125,1.0
58.47795867919922,6.750089645385742,-1.9428520202636719,-0.0,-0.0,-1.0,0.10033245647670594,1.0
58.77976989746094,6.727145195007324,-2.0073204040527344,-0.0,-0.0,-1.0,0.02062814367861476,1.0
57.87890625,6.4164581298828125,-1.9018659591674805,-0.0,-0.0,-1.0,0.07286803455513234,1.0
58.106964111328125,6.629149436950684,-1.9181280136108398,-0.0,-0.0,-1.0,0.14160218240735603,2.0
58.30957794189453,6.816205978393555,-1.934187889099121,-0.0,-0.0,-1.0,0.14251713738282568,2.0
58.641754150390625,6.837469100952148,-2.004596471786499,-0.0,-0.0,-1.0,0.024236999860506116,1.0
57.78132247924805,7.906466960906982,-2.084980010986328,-0.0,-0.0,-1.0,0.0824489311641587,1.0
58.887733459472656,7.0037641525268555,-2.036174774169922,-0.0,-0.0,-1.0,0.007175346174209627,1.0
59.08349609375,6.959051132202148,-2.0867114067077637,-0.0,-0.0,-1.0,0.004846045256450387,2.0
58.82225036621094,7.388042449951172,-1.967799186706543,-0.8858981352679197,-0.14471361089240306,-0.44072946889367953,0.018930341863325997,3.0
59.44218444824219,7.237955093383789,-2.131208896636963,-0.0,-0.0,-1.0,0.0067292857453791505,2.0
58.37093734741211,6.159523963928223,-1.5682852268218994,-0.0,-0.0,-1.0,0.12879513727416175,2.0
58.54293441772461,6.271567344665527,-1.586623191833496,-0.0,-0.0,-1.0,0.1018528974686033,1.0
58.645294189453125,6.332236289978027,-1.598567247390747,-0.0,-0.0,-1.0,0.09359831779431059,1.0
57.791316986083984,5.869711875915527,-1.6131130456924438,-0.0,-0.0,-1.0,0.15348105184745436,1.0
57.930694580078125,5.801872253417969,-1.6522823572158813,-0.0,-0.0,-1.0,0.18140428257387062,1.0
57.968570709228516,6.130517959594727,-1.60848867893219,-0.0,-0.0,-1.0,0.2789184107354046,1.0
58.22108459472656,6.431035995483398,-1.6158496141433716,-0.0,-0.0,-1.0,0.19825127064855375,2.0
58.40998458862305,6.55080509185791,-1.6388837099075317,-0.0,-0.0,-1.0,0.12566167649823803,2.0
58.62427520751953,6.482521057128906,-1.695719599723816,-0.0,-0.0,-1.0,0.08146599226302043,2.0
58.22419738769531,6.203901290893555,-1.576151728630066,-0.0,-0.0,-1.0,0.11826507365336447,1.0
58.42440414428711,6.3381147384643555,-1.5989547967910767,-0.0,-0.0,-1.0,0.07304283275212642,1.0
58.60027313232422,6.440324306488037,-1.6222914457321167,-0.0,-0.0,-1.0,0.0469112450813926,2.0
58.58008575439453,6.147967338562012,-1.5841656923294067,-0.0,-0.0,-1.0,0.1333365429141045,1.0
58.762752532958984,6.254767417907715,-1.606765627861023,-0.0,-0.0,-1.0,0.12095721247569975,1.0
58.73231887817383,6.2032036781311035,-1.580509066581726,-0.0,-0.0,-1.0,0.12720942001326702,1.0
58.10462188720703,6.652791500091553,-1.7389588356018066,-0.0,-0.0,-1.0,0.13247736454839507,1.0
58.293243408203125,6.482274532318115,-1.7574348449707031,-0.0,-0.0,-1.0,0.15986232968053404,1.0
58.088783264160156,6.33562707901001,-1.6919242143630981,-0.0,-0.0,-1.0,0.1648707060721494,2.0
58.28308868408203,6.172760963439941,-1.7022038698196411,-0.0,-0.0,-1.0,0.22985867511503166,1.0
58.185691833496094,6.591495037078857,-1.7088984251022339,-0.0,-0.0,-1.0,0.1516416427799117,1.0
58.02442932128906,6.428317070007324,-1.797945261001587,-0.0,-0.0,-1.0,0.11202283712150035,1.0
58.20994567871094,6.279828071594238,-1.806551456451416,-0.0,-0.0,-1.0,0.18896663309972156,1.0
58.25428009033203,6.792730331420898,-1.8380100727081299,-0.0,-0.0,-1.0,0.1311799018653598,2.0
58.22444152832031,6.659834384918213,-1.8281865119934082,-0.0,-0.0,-1.0,0.12549209569747938,2.0
58.14253234863281,5.738653659820557,-1.9406383037567139,-0.0,-0.0,-1.0,0.18635424626518535,1.0
57.90718460083008,5.929479598999023,-1.9219872951507568,-0.0,-0.0,-1.0,0.13255437961834132,2.0
57.777801513671875,6.315271377563477,-1.923215627670288,-0.0,-0.0,-1.0,0.10775244653997358,1.0
57.906166076660156,6.716696739196777,-1.9543511867523193,-0.0,-0.0,-1.0,0.0864279621364465,2.0
58.39189147949219,7.2643656730651855,-2.032445192337036,-0.0,-0.0,-1.0,0.04877264320451371,2.0
58.61296081542969,7.996161460876465,-2.090303659439087,-0.0,-0.0,-1.0,0.009884363810156628,1.0
58.46895980834961,6.244968891143799,-1.6065601110458374,-0.0,-0.0,-1.0,0.15260025945817712,2.0
58.131046295166016,6.230503082275391,-1.625251054763794,-0.0,-0.0,-1.0,0.23852422757197744,1.0
58.250343322753906,6.500865936279297,-1.6483147144317627,-0.0,-0.0,-1.0,0.12617886164908437,2.0
57.810523986816406,5.663332939147949,-1.946064829826355,-0.0,-0.0,-1.0,0.1126488995128582,1.0
57.881980895996094,6.730627059936523,-1.9670096635818481,-0.0,-0.0,-1.0,0.06217466368925636,2.0
57.978572845458984,7.177539825439453,-1.986925721168518,-0.0,-0.0,-1.0,0.08105760365745554,1.0
58.29203796386719,7.27054500579834,-2.0324807167053223,-0.0,-0.0,-1.0,0.04614138373430916,1.0
58.445472717285156,7.5451507568359375,-2.05867862701416,-0.0,-0.0,-1.0,0.011362745361109748,1.0
58.28546905517578,7.846214771270752,-2.041637420654297,-0.0,-0.0,-1.0,0.06288639920420706,1.0
58.77009582519531,7.937579154968262,-2.1117095947265625,-0.0,-0.0,-1.0,0.013853040694234863,1.0
58.43834686279297,8.12748908996582,-2.0687408447265625,-0.0,-0.0,-1.0,0.01514600002695401,1.0
58.21070861816406,6.088098526000977,-1.7007277011871338,-0.0,-0.0,-1.0,0.19227324906021642,1.0
58.08716583251953,5.666934967041016,-1.6762580871582031,-0.0,-0.0,-1.0,0.15688995068524006,1.0
58.12889099121094,6.34096097946167,-1.6947476863861084,-0.0,-0.0,-1.0,0.18548052435375054,2.0
57.72142028808594,7.140542030334473,-1.9328408241271973,-0.0,-0.0,-1.0,0.07215633658721952,1.0
57.84688949584961,6.65372371673584,-1.960968255996704,-0.0,-0.0,-1.0,0.034708494858590754,1.0
58.290931701660156,7.16416072845459,-2.0203166007995605,-0.0,-0.0,-1.0,0.057181046282899224,1.0
58.30364990234375,7.68409538269043,-2.015110731124878,-0.0,-0.0,-1.0,0.018236729113087387,2.0
58.33876037597656,7.425074100494385,-2.0239832401275635,-0.0,-0.0,-1.0,0.03331057363965624,1.0
58.588409423828125,7.842494010925293,-2.0573928356170654,-0.0,-0.0,-1.0,0.012813039816270003,1.0
58.75829315185547,8.010007858276367,-2.082007646560669,-0.0,-0.0,-1.0,0.013918101778683571,2.0
57.81801223754883,6.074548721313477,-1.8692508935928345,-0.0,-0.0,-1.0,0.09022153023203867,1.0
57.8978157043457,5.959834098815918,-1.8838611841201782,-0.0,-0.0,-1.0,0.11885401921704791,2.0
57.91973876953125,6.3340044021606445,-1.880092978477478,-0.0,-0.0,-1.0,0.08530867149912875,1.0
58.1069221496582,5.791571617126465,-1.9196356534957886,-0.0,-0.0,-1.0,0.19845569509601382,1.0
58.204566955566406,6.7206525802612305,-1.9178129434585571,-0.0,-0.0,-1.0,0.11133411653564206,1.0
58.14034652709961,6.546578884124756,-1.910542607307434,-0.0,-0.0,-1.0,0.12274841147882766,1.0
58.766510009765625,7.274519920349121,-1.997871994972229,-0.0,-0.0,-1.0,0.017275535305263816,1.0
59.619285583496094,7.601184844970703,-2.1270275115966797,-0.0,-0.0,-1.0,0.005774212349253875,1.0
59.699195861816406,7.849176406860352,-2.1376805305480957,-0.0,-0.0,-1.0,0.007338078008698906,1.0
57.7864990234375,6.180306434631348,-1.8623346090316772,0.3595657285142492,0.9214770450024874,-0.1469440111454058,0.1125817675701384,4.0
58.32178497314453,6.203325271606445,-1.4918631315231323,-0.0,-0.0,-1.0,0.07891064459773589,2.0
58.050987243652344,6.558205604553223,-1.489707112312317,-0.0,-0.0,-1.0,0.1932482528618025,1.0
58.02471160888672,6.375082015991211,-1.4779762029647827,-0.0,-0.0,-1.0,0.17176388019397587,1.0
58.35523986816406,6.189310073852539,-1.4612135887145996,-0.0,-0.0,-1.0,0.08233176997369149,2.0
58.143798828125,6.396243095397949,-1.465778112411499,-0.0,-0.0,-1.0,0.21261251374030332,2.0
58.39397430419922,6.096241474151611,-1.8561111688613892,-0.0,-0.0,-1.0,0.2156357016030695,1.0
58.0703125,6.295289516448975,-1.8421932458877563,-0.0,-0.0,-1.0,0.16355163760292937,2.0
58.02448654174805,6.453428745269775,-1.8494430780410767,-0.0,-0.0,-1.0,0.10056137691284671,1.0
58.13726043701172,6.1441144943237305,-1.7054460048675537,-0.17087294720654161,-0.4461171296504944,-0.8785112079793603,0.24449387053325639,4.0
58.1154670715332,6.427032470703125,-1.711003065109253,-0.0,-0.0,-1.0,0.1007914175840277,2.0
58.661354064941406,7.4508795738220215,-2.0889859199523926,-0.0,-0.0,-1.0,0.017136076846066103,1.0
58.31325912475586,7.7710161209106445,-2.066560745239258,-0.0,-0.0,-1.0,0.07103065620643971,1.0
57.970829010009766,6.862402439117432,-1.9978681802749634,-0.0,-0.0,-1.0,0.05208693789144644,1.0
58.07474136352539,6.127628803253174,-1.585782527923584,-0.0,-0.0,-1.0,0.18848870873636758,1.0
58.104827880859375,6.298994541168213,-1.5887060165405273,-0.0,-0.0,-1.0,0.2015148890140215,2.0
58.03118133544922,6.541638374328613,-1.8401037454605103,-0.0,-0.0,-1.0,0.11235365327767179,1.0
57.88737487792969,6.32864236831665,-1.8339513540267944,-0.0,-0.0,-1.0,0.07412451362328855,1.0
57.81681823730469,6.620906829833984,-2.014279365539551,-0.0,-0.0,-1.0,0.03623937428862416,1.0
58.404441833496094,6.2026591300964355,-2.036477565765381,-0.0,-0.0,-1.0,0.18693741837547506,1.0
58.099632263183594,6.609772682189941,-1.8370450735092163,-0.0,-0.0,-1.0,0.1332245174274445,1.0
58.17167663574219,6.240000247955322,-1.8281697034835815,-0.0,-0.0,-1.0,0.20040249008259747,1.0
58.27288818359375,6.817133903503418,-1.858883261680603,-0.0,-0.0,-1.0,0.15779344197198836,2.0
58.236209869384766,7.928601264953613,-2.034745693206787,-0.0,-0.0,-1.0,0.06288639920420706,1.0
58.126007080078125,6.463259696960449,-1.6429259777069092,-0.0,-0.0,-1.0,0.1697562443164525,1.0
58.36927032470703,6.643970489501953,-1.6685330867767334,-0.0,-0.0,-1.0,0.09738471570633384,1.0
57.810523986816406,7.225551605224609,-1.7391695976257324,-0.0,-0.0,-1.0,0.09034525558180212,1.0
58.13385009765625,6.7453837394714355,-1.7755939960479736,-0.0,-0.0,-1.0,0.12608972082586167,1.0
58.36467742919922,6.379027366638184,-1.8023765087127686,-0.0,-0.0,-1.0,0.15628107773640212,1.0
58.30683898925781,6.988839626312256,-1.786320447921753,-0.0,-0.0,-1.0,0.05617998353902793,1.0
58.052574157714844,6.2318267822265625,-1.8169116973876953,-0.0,-0.0,-1.0,0.15333011952420061,1.0
58.035926818847656,6.291013717651367,-1.5654537677764893,-0.0,-0.0,-1.0,0.17230801167117255,1.0
58.3720588684082,6.144731521606445,-1.5721347332000732,-0.0,-0.0,-1.0,0.12879513727416173,2.0
57.9521598815918,6.208065032958984,-1.781142234802246,-0.0,-0.0,-1.0,0.14053548251165154,1.0
58.218040466308594,6.086711883544922,-1.7864456176757812,-0.0,-0.0,-1.0,0.17937690969868803,1.0
58.678951263427734,6.133188247680664,-1.8228187561035156,-0.0,-0.0,-1.0,0.16366163581638762,1.0
57.857147216796875,6.458406448364258,-1.801164150238037,-0.0,-0.0,-1.0,0.060757962404729596,1.0
57.82425308227539,6.16802978515625,-1.8546438217163086,0.3595657285142492,0.9214770450024874,-0.1469440111454058,0.12528253985943108,4.0
58.10100173950195,5.992250442504883,-1.8548436164855957,-0.0,-0.0,-1.0,0.05447003420614233,1.0
58.459754943847656,5.885297775268555,-1.8684873580932617,-0.0,-0.0,-1.0,0.14204408446994718,1.0
59.01360321044922,6.023881912231445,-1.9228057861328125,-0.0,-0.0,-1.0,0.16272903813801395,1.0
57.77020263671875,6.459428787231445,-1.8828392028808594,-0.0,-0.0,-1.0,0.07664710394587838,1.0
58.2319450378418,6.129159927368164,-1.6046974658966064,-0.0,-0.0,-1.0,0.13361553561648906,1.0
58.46784591674805,6.096578598022461,-1.6223242282867432,-0.0,-0.0,-1.0,0.10860500165604751,1.0
58.33782196044922,6.236394882202148,-1.851362705230713,-0.0,-0.0,-1.0,0.21894325254538988,1.0
57.97211456298828,6.238935470581055,-1.8219056129455566,-0.0,-0.0,-1.0,0.13701058212001443,1.0
57.742340087890625,6.356527328491211,-1.8115344047546387,-0.0,-0.0,-1.0,0.10722752645184458,1.0
58.319183349609375,5.988954544067383,-1.7001688480377197,-0.0,-0.0,-1.0,0.07943343714803379,1.0
58.102294921875,6.122833251953125,-1.695284128189087,0.4835966900437754,-0.8633529148833055,-0.14406937822176072,0.24776874777252697,3.0
58.01525115966797,5.8348541259765625,-1.8893373012542725,-0.0,-0.0,-1.0,0.1548964264607892,1.0
58.09873580932617,6.182975769042969,-1.8714878559112549,-0.0,-0.0,-1.0,0.12095514153105098,1.0
58.16313171386719,6.734090328216553,-2.089726686477661,-0.0,-0.0,-1.0,0.0701614557717055,1.0
57.804351806640625,6.242885589599609,-2.0699212551116943,-0.0,-0.0,-1.0,0.22670956517276733,1.0
58.11355972290039,6.395304203033447,-1.6731414794921875,-0.14978767758448389,-0.7540819698231876,-0.6394716838386417,0.13771051557851893,3.0
58.1136474609375,6.692768096923828,-1.822403907775879,-0.0,-0.0,-1.0,0.12688835383563168,1.0
59.44178009033203,7.4798479080200195,-2.1152660846710205,-0.0,-0.0,-1.0,0.006417359999369877,1.0
57.89739227294922,6.381856918334961,-1.9430181980133057,-0.0,-0.0,-1.0,0.10247925451992615,1.0
58.181182861328125,6.7978105545043945,-1.9761550426483154,-0.0,-0.0,-1.0,0.0900483025350435,1.0
58.0566520690918,7.879031658172607,-2.0893259048461914,-0.0,-0.0,-1.0,0.06493151049269821,1.0
57.92303466796875,6.14968204498291,-1.688544750213623,-0.0,-0.0,-1.0,0.16657522589153156,1.0
58.11341857910156,6.133206367492676,-1.7201075553894043,0.4835966900437754,-0.8633529148833055,-0.14406937822176072,0.24241036979985445,3.0
58.418643951416016,7.156750679016113,-2.0573978424072266,-0.0,-0.0,-1.0,0.020680298547626007,1.0
58.5489387512207,7.514251708984375,-2.0579910278320312,-0.0,-0.0,-1.0,0.013394063565265507,1.0
58.840328216552734,7.785278797149658,-2.091917037963867,-0.0,-0.0,-1.0,0.015582067956113974,1.0
58.17158508300781,6.988251686096191,-2.0254735946655273,-0.0,-0.0,-1.0,0.04836808493265929,1.0
58.30302429199219,7.343667984008789,-2.026102066040039,-0.0,-0.0,-1.0,0.030998572923734917,1.0
57.8105354309082,8.092867851257324,-1.8971405029296875,-0.0,-0.0,-1.0,0.07927057690097121,1.0
57.76054382324219,6.342442512512207,-2.0052523612976074,-0.0,-0.0,-1.0,0.08227371040300782,1.0
57.904701232910156,7.526844501495361,-1.7426691055297852,-0.0,-0.0,-1.0,0.10632180310769267,1.0
58.15738296508789,7.344665050506592,-1.7624835968017578,-0.0,-0.0,-1.0,0.10027446826518466,1.0
58.072021484375,7.787515163421631,-1.7811546325683594,-0.0,-0.0,-1.0,0.10193507469452107,1.0
58.29757308959961,5.9019317626953125,-1.8269343376159668,-0.0,-0.0,-1.0,0.1181582000607335,1.0
57.91305160522461,6.287651538848877,-1.7856154441833496,-0.0,-0.0,-1.0,0.12473519869549643,2.0
58.07666778564453,6.522580146789551,-1.8076701164245605,-0.0,-0.0,-1.0,0.12326895997499517,2.0
58.156517028808594,6.60516357421875,-1.5061488151550293,-0.0,-0.0,-1.0,0.17545232178681747,1.0
58.126861572265625,6.3926286697387695,-1.4951934814453125,-0.0,-0.0,-1.0,0.24257862405665442,2.0
