x,y,z,nx,ny,nz,curvature,density,label
46.38070297241211,24.01491355895996,-2.379772901535034,-0.0,-0.0,-1.0,0.12769328717687944,1.0,0
47.316444396972656,23.767223358154297,-2.5297887325286865,-0.0,-0.0,-1.0,0.07059538445232533,1.0,0
46.12523651123047,24.247089385986328,-2.3588922023773193,0.7351249352185728,-0.4581006502108945,0.49973505369970284,0.17236078955736017,4.0,0
46.30029296875,24.227603912353516,-2.389777421951294,-0.0,-0.0,-1.0,0.19495301713380808,2.0,0
46.40550231933594,24.558801651000977,-2.449706792831421,-0.0,-0.0,-1.0,0.17537843309790546,1.0,0
46.840362548828125,24.854310989379883,-2.5679690837860107,-0.0,-0.0,-1.0,0.15379891943544668,1.0,0
47.64006423950195,25.199115753173828,-1.9163553714752197,-0.0,-0.0,-1.0,0.2088447668660903,2.0,0
47.527854919433594,23.165489196777344,-2.3613736629486084,-0.23161484292872844,-0.6805171562472393,-0.6951625454440644,0.21603557814871596,4.0,0
47.55739974975586,23.29445457458496,-2.3824899196624756,-0.0,-0.0,-1.0,0.1888932149122566,1.0,0
47.647178649902344,23.444366455078125,-2.4179203510284424,-0.0,-0.0,-1.0,0.1070479584089595,2.0,0
46.19979476928711,23.981605529785156,-2.205507516860962,-0.0,-0.0,-1.0,0.24476223431507926,2.0,0
47.67342758178711,23.6549072265625,-2.4484994411468506,-0.09247778921999067,0.30091015430333434,-0.9491580150523549,0.1067127010196027,3.0,0
45.98999786376953,24.134288787841797,-2.184950113296509,-0.0,-0.0,-1.0,0.17449620484571343,1.0,0
46.20198059082031,24.330656051635742,-2.2508037090301514,-0.0,-0.0,-1.0,0.17955741332235214,1.0,0
46.43985366821289,24.54477882385254,-2.3239710330963135,-0.0,-0.0,-1.0,0.2729907536505136,1.0,0
46.52587127685547,24.70063018798828,-2.360743284225464,-0.0,-0.0,-1.0,0.25244683281771046,1.0,0
46.718936920166016,25.190410614013672,-2.4622933864593506,-0.0,-0.0,-1.0,0.20893957229334617,2.0,0
47.030662536621094,25.122201919555664,-2.512140989303589,-0.0,-0.0,-1.0,0.152263902269704,1.0,0
46.849365234375,25.541622161865234,-2.534247636795044,-0.0,-0.0,-1.0,0.16225981798969932,2.0,0
46.92664337158203,25.407344818115234,-2.530613660812378,-0.0,-0.0,-1.0,0.1417786689082354,1.0,0
45.91337966918945,23.424636840820312,-2.3089771270751953,-0.0,-0.0,-1.0,0.2522995480203244,1.0,0
47.034873962402344,23.459575653076172,-2.548011302947998,-0.0,-0.0,-1.0,0.05830178066419953,1.0,0
46.04889678955078,24.135189056396484,-2.44449520111084,-0.0,-0.0,-1.0,0.23896327951393395,2.0,0
46.196678161621094,24.222131729125977,-2.4883365631103516,-0.0,-0.0,-1.0,0.16595955596697679,1.0,0
47.14581298828125,24.037870407104492,-2.6562819480895996,-0.0,-0.0,-1.0,0.0429037530313095,1.0,0
46.192588806152344,24.545425415039062,-2.537750244140625,-0.0,-0.0,-1.0,0.16345947153934137,1.0,0
47.322166442871094,25.257320404052734,-2.1099905967712402,-0.0,-0.0,-1.0,0.1605785470068895,2.0,0
47.35779571533203,25.355079650878906,-2.1300048828125,-0.0,-0.0,-1.0,0.1686703709489595,1.0,0
46.999542236328125,25.622432708740234,-2.459949016571045,-0.0,-0.0,-1.0,0.14153306041943894,1.0,0
47.583656311035156,23.314544677734375,-2.269587993621826,-0.0,-0.0,-1.0,0.19851210884711207,1.0,0
46.164085388183594,23.918394088745117,-2.1035566329956055,-0.0,-0.0,-1.0,0.1475316086327147,1.0,0
45.94889831542969,24.25420570373535,-2.110142707824707,-0.0,-0.0,-1.0,0.14218777552052025,1.0,0
46.223060607910156,24.333311080932617,-2.165383815765381,-0.0,-0.0,-1.0,0.12716118887612468,1.0,0
46.79553985595703,24.822654724121094,-2.32211971282959,-0.0,-0.0,-1.0,0.17535490553918545,1.0,0
46.700660705566406,25.10202407836914,-2.342799663543701,-0.0,-0.0,-1.0,0.2691926477787109,1.0,0
47.068321228027344,25.18408966064453,-2.4135308265686035,-0.0,-0.0,-1.0,0.11510497983076567,1.0,0
45.42164993286133,25.55605697631836,-2.19720458984375,-0.0,-0.0,-1.0,0.08714895800524106,1.0,0
46.75859069824219,25.382484436035156,-2.3890438079833984,-0.0,-0.0,-1.0,0.1709141597129072,1.0,0
46.07279586791992,23.727434158325195,-2.519512176513672,-0.0,-0.0,-1.0,0.18318184700666437,1.0,0
45.978790283203125,24.006067276000977,-2.5358669757843018,-0.0,-0.0,-1.0,0.1492155982801518,1.0,0
46.54911804199219,23.841821670532227,-2.6214709281921387,-0.0,-0.0,-1.0,0.1234797597036969,1.0,0
45.83074951171875,24.237464904785156,-2.5370099544525146,-0.0,-0.0,-1.0,0.11409765769423183,2.0,0
45.672725677490234,23.67935562133789,-2.439709424972534,-0.0,-0.0,-1.0,0.07951386991646515,1.0,0
45.382850646972656,24.151756286621094,-2.444413900375366,-0.0,-0.0,-1.0,0.11875829664030688,1.0,0
47.306190490722656,25.283344268798828,-2.2330873012542725,-0.0,-0.0,-1.0,0.23867182348185714,1.0,0
47.31462860107422,25.441495895385742,-2.2516872882843018,-0.0,-0.0,-1.0,0.15124321480898958,2.0,0
45.811988830566406,24.241901397705078,-1.895599126815796,-0.0,-0.0,-1.0,0.12988936991416739,2.0,0
46.11834716796875,24.252887725830078,-1.9429876804351807,-0.0,-0.0,-1.0,0.1805927165611082,1.0,0
45.617774963378906,23.705623626708984,-2.4092347621917725,-0.0,-0.0,-1.0,0.08637731297320232,1.0,0
45.95903778076172,23.91874122619629,-2.502983570098877,-0.0,-0.0,-1.0,0.18879181368107356,1.0,0
46.12748718261719,23.76690673828125,-2.5130438804626465,-0.0,-0.0,-1.0,0.12372791155893285,1.0,0
46.60475158691406,23.86612319946289,-2.616300582885742,-0.0,-0.0,-1.0,0.12634856301039982,2.0,0
45.63331985473633,24.367469787597656,-2.50716233253479,-0.0,-0.0,-1.0,0.16532651717513364,1.0,0
45.86064147949219,24.2244815826416,-2.528348922729492,-0.0,-0.0,-1.0,0.14160253792326202,2.0,0
45.99718475341797,24.24985122680664,-1.945549488067627,-0.0,-0.0,-1.0,0.11125369215097188,1.0,0
47.23121643066406,25.273582458496094,-2.26387882232666,-0.0,-0.0,-1.0,0.28051640727878524,2.0,0
47.45721435546875,25.32426643371582,-2.3047332763671875,-0.0,-0.0,-1.0,0.21102113574158535,2.0,0
45.31228256225586,25.565343856811523,-2.014723300933838,-0.0,-0.0,-1.0,0.10642523051056642,1.0,0
47.329620361328125,25.477622985839844,-2.305020332336426,-0.0,-0.0,-1.0,0.13534201375515578,1.0,0
47.482608795166016,23.192399978637695,-2.377572774887085,0.6098114622549109,-0.7342279053437135,0.2983946439149167,0.19351181121916364,5.0,0
47.5545539855957,23.550731658935547,-2.4388527870178223,-0.0,-0.0,-1.0,0.12115912262127078,2.0,0
47.59835433959961,23.48929214477539,-2.438525438308716,-0.0,-0.0,-1.0,0.08244030600562725,2.0,0
46.1441535949707,24.02865982055664,-2.253100872039795,-0.0,-0.0,-1.0,0.21423968898063522,1.0,0
46.300804138183594,24.47216033935547,-2.3455491065979004,-0.0,-0.0,-1.0,0.21673213089511315,2.0,0
45.44828796386719,24.967893600463867,-2.272991418838501,-0.0,-0.0,-1.0,0.06329477851548261,1.0,0
46.334537506103516,24.623035430908203,-2.3737947940826416,-0.0,-0.0,-1.0,0.23507243357758661,1.0,0
46.75312805175781,24.937641143798828,-2.4937193393707275,-0.0,-0.0,-1.0,0.2401901574912129,1.0,0
45.8170280456543,25.110244750976562,-2.358064889907837,-0.0,-0.0,-1.0,0.01908598341371361,1.0,0
46.16832733154297,25.26431655883789,-2.4420158863067627,-0.0,-0.0,-1.0,0.06187553128057355,1.0,0
46.92543029785156,25.18346405029297,-2.5605180263519287,-0.0,-0.0,-1.0,0.08895337598406115,2.0,0
46.529239654541016,25.424686431884766,-2.528618574142456,-0.0,-0.0,-1.0,0.09602667668656875,1.0,0
47.25120544433594,25.181842803955078,-1.9845600128173828,-0.0,-0.0,-1.0,0.17944327312964747,2.0,0
45.74468994140625,24.362327575683594,-1.6619508266448975,-0.7466038433703837,-0.3170917628335902,-0.5848380245911321,0.12359469738664265,3.0,0
45.66569900512695,23.462528228759766,-2.5082168579101562,-0.0,-0.0,-1.0,0.08167369199747057,1.0,0
45.529396057128906,23.29376983642578,-2.451186418533325,-0.0,-0.0,-1.0,0.1497463115908579,1.0,0
45.2794189453125,23.636425018310547,-2.4526798725128174,-0.0,-0.0,-1.0,0.08669009438025144,1.0,0
45.47376251220703,23.494916915893555,-2.471574068069458,-0.0,-0.0,-1.0,0.07594445004848764,1.0,0
47.68563461303711,23.461605072021484,-2.362076759338379,-0.18533284977227946,0.35968681773788963,-0.9144818904389939,0.10777000703308183,3.0,0
46.2139892578125,23.94457244873047,-2.1511614322662354,-0.0,-0.0,-1.0,0.20213084757280333,2.0,0
46.296241760253906,23.989891052246094,-2.172924041748047,-0.0,-0.0,-1.0,0.2082613831433237,1.0,0
46.15835189819336,24.37757110595703,-2.2039077281951904,-0.0,-0.0,-1.0,0.18936061907995355,1.0,0
46.40498733520508,24.276500701904297,-2.2345826625823975,-0.0,-0.0,-1.0,0.2505649023592809,1.0,0
46.88290023803711,25.13153648376465,-2.4486899375915527,-0.0,-0.0,-1.0,0.1494967527845838,1.0,0
46.123992919921875,25.531085968017578,-2.372734785079956,-0.0,-0.0,-1.0,0.03035164950845248,1.0,0
46.87676239013672,25.542016983032227,-2.5095362663269043,-0.0,-0.0,-1.0,0.14346040448315608,2.0,0
46.05693817138672,23.950897216796875,-2.122929096221924,-0.0,-0.0,-1.0,0.16568796843902553,2.0,0
46.013946533203125,24.19397735595703,-2.1503117084503174,-0.0,-0.0,-1.0,0.19393579430709249,1.0,0
47.107975006103516,24.81418800354004,-1.8524374961853027,-0.0,-0.0,-1.0,0.14721604220973644,2.0,0
47.38154602050781,25.05040168762207,-1.9244511127471924,-0.28106456589821976,-0.8079045017301396,-0.5179701013385041,0.14026478987274454,3.0,0
47.51347351074219,25.340919494628906,-1.981790542602539,-0.0,-0.0,-1.0,0.21911134270664798,2.0,0
46.3680534362793,24.48751449584961,-1.697390079498291,-0.0,-0.0,-1.0,0.10845727840164841,1.0,0
47.30846405029297,23.49898338317871,-2.50454044342041,-0.0,-0.0,-1.0,0.07756438871670703,2.0,0
47.3909912109375,23.50628089904785,-2.5228254795074463,0.4715583056795258,-0.7283578470296063,0.4971193126554752,0.07624480142508434,3.0,0
47.33259582519531,23.839162826538086,-2.5647287368774414,-0.0,-0.0,-1.0,0.06969102932866736,1.0,0
47.43878936767578,23.993558883666992,-2.6119954586029053,-0.0,-0.0,-1.0,0.0844069087116083,1.0,0
47.350616455078125,24.347423553466797,-2.653003692626953,-0.0,-0.0,-1.0,0.12950646506900548,2.0,0
47.45643615722656,24.222713470458984,-2.653679132461548,-0.0,-0.0,-1.0,0.10465580688768368,2.0,0
46.35026931762695,24.79429054260254,-2.530578136444092,-0.0,-0.0,-1.0,0.11538195491153055,1.0,0
46.64046096801758,24.869571685791016,-2.60109806060791,-0.0,-0.0,-1.0,0.15293095531541093,1.0,0
46.37042236328125,24.93496322631836,-2.559715986251831,-0.0,-0.0,-1.0,0.13038646840143508,1.0,0
45.68408966064453,23.427593231201172,-2.158966541290283,-0.0,-0.0,-1.0,0.2047019482678393,1.0,0
46.08380126953125,23.621219635009766,-2.272871971130371,-0.0,-0.0,-1.0,0.12717101985941753,1.0,0
46.134708404541016,23.98891830444336,-2.3460781574249268,-0.0,-0.0,-1.0,0.2196831354349942,1.0,0
46.20806884765625,23.93326187133789,-2.351294994354248,-0.0,-0.0,-1.0,0.20014274526794967,1.0,0
46.10840606689453,24.22488021850586,-2.3818302154541016,-0.0,-0.0,-1.0,0.2188844449712538,2.0,0
47.321895599365234,25.461715698242188,-2.2557902336120605,-0.0,-0.0,-1.0,0.15820021257188896,2.0,0
46.00996017456055,23.9360294342041,-1.798900842666626,-0.0,-0.0,-1.0,0.1607726874992348,1.0,0
46.3118896484375,24.073734283447266,-1.8712036609649658,-0.0,-0.0,-1.0,0.2040817652552247,1.0,0
45.80135726928711,24.26801872253418,-1.814880609512329,-0.0,-0.0,-1.0,0.11366064133879558,1.0,0
45.92747497558594,24.295530319213867,-1.840306043624878,0.3690374900708513,0.1384551333688559,-0.9190438003523109,0.10818326965683547,3.0,0
46.55116271972656,24.351608276367188,-1.9541888236999512,-0.0,-0.0,-1.0,0.09599459427382766,1.0,0
47.56597137451172,23.984182357788086,-2.5711193084716797,-0.0,-0.0,-1.0,0.08407292770653212,2.0,0
47.32105255126953,24.46278953552246,-2.6034302711486816,-0.0,-0.0,-1.0,0.14999776743778773,1.0,0
47.52324676513672,24.298240661621094,-2.616853713989258,-0.0,-0.0,-1.0,0.12771622970441954,1.0,0
46.75981140136719,25.04605484008789,-2.5945658683776855,-0.0,-0.0,-1.0,0.1256857741044926,1.0,0
46.004310607910156,23.443889617919922,-2.145963668823242,-0.0,-0.0,-1.0,0.23913547659033468,1.0,0
47.40685272216797,23.553524017333984,-2.463481903076172,-0.0,-0.0,-1.0,0.13031371557985355,2.0,0
46.06180953979492,24.053525924682617,-2.2679696083068848,-0.0,-0.0,-1.0,0.1961132162733522,1.0,0
46.2323112487793,23.944461822509766,-2.283389091491699,-0.0,-0.0,-1.0,0.19470771090804598,1.0,0
47.42395782470703,23.80385971069336,-2.5097475051879883,-0.0,-0.0,-1.0,0.07072338281634241,1.0,0
45.53673553466797,24.561683654785156,-2.2568297386169434,-0.0,-0.0,-1.0,0.13600590855760156,1.0,0
46.09459686279297,24.353097915649414,-2.329925060272217,-0.0,-0.0,-1.0,0.27561002750436003,2.0,0
46.24441909790039,24.467681884765625,-2.381855010986328,-0.0,-0.0,-1.0,0.15467989707522672,2.0,0
45.601470947265625,25.071834564208984,-2.368760108947754,-0.0,-0.0,-1.0,0.04321206188515988,2.0,0
45.9031982421875,25.11345672607422,-2.436096668243408,-0.0,-0.0,-1.0,0.013943125430015007,1.0,0
46.35688400268555,25.106853485107422,-2.52488374710083,-0.0,-0.0,-1.0,0.08978716362201597,1.0,0
46.63688659667969,25.111417770385742,-2.582026958465576,-0.0,-0.0,-1.0,0.08689410679450126,1.0,0
45.81534194946289,24.319026947021484,-1.7842940092086792,-0.0,-0.0,-1.0,0.07311776672558923,1.0,0
47.23565673828125,25.233139038085938,-2.1812515258789062,0.03882539947808231,-0.6489055553886776,-0.7598777326261631,0.20422830973141534,3.0,0
47.463523864746094,25.27930450439453,-2.2285690307617188,-0.0,-0.0,-1.0,0.17293268019146427,2.0,0
47.48595428466797,25.358976364135742,-2.2454357147216797,-0.0,-0.0,-1.0,0.19724319906708407,1.0,0
46.375579833984375,23.188201904296875,-2.535885810852051,-0.0,-0.0,-1.0,0.07155503871445668,1.0,0
45.21672058105469,23.163372039794922,-2.263214588165283,-0.0,-0.0,-1.0,0.18618411561867185,1.0,0
45.563621520996094,23.68143081665039,-2.4692533016204834,-0.0,-0.0,-1.0,0.06915565011051912,1.0,0
47.618858337402344,23.4783935546875,-2.401262044906616,-0.7069801400869961,-0.6813036140662541,0.18974843077831305,0.12522044778467417,3.0,0
45.23500442504883,24.074514389038086,-2.4973411560058594,-0.0,-0.0,-1.0,0.08636871666094911,1.0,0
45.45378112792969,23.909412384033203,-2.502314805984497,-0.0,-0.0,-1.0,0.07191522817283813,1.0,0
46.142601013183594,23.951034545898438,-2.202411413192749,-0.0,-0.0,-1.0,0.20581070206502217,2.0,0
46.28135681152344,23.911502838134766,-2.2209720611572266,-0.0,-0.0,-1.0,0.22092149128671723,1.0,0
46.94089889526367,24.061431884765625,-2.384460926055908,-0.0,-0.0,-1.0,0.058934268162383306,1.0,0
46.13425827026367,24.246109008789062,-2.266667366027832,0.6733903190014565,-0.4893603265735293,-0.5541407303663618,0.2563972081076325,3.0,0
46.39616012573242,24.283082962036133,-2.32572078704834,-0.0,-0.0,-1.0,0.20457718139965722,1.0,0
45.282920837402344,24.94385528564453,-2.270906448364258,-0.0,-0.0,-1.0,0.06577079916176827,1.0,0
46.292545318603516,24.573291778564453,-2.370979070663452,-0.0,-0.0,-1.0,0.24697840438108096,1.0,0
47.551963806152344,24.646228790283203,-2.6330161094665527,-0.0,-0.0,-1.0,0.1290714639038421,2.0,0
45.60726547241211,25.08717918395996,-2.3633999824523926,-0.0,-0.0,-1.0,0.04321206188515988,2.0,0
46.08392333984375,25.213191986083984,-2.4801418781280518,-0.0,-0.0,-1.0,0.0218190461819273,2.0,0
46.44393539428711,25.281034469604492,-2.5623879432678223,-0.0,-0.0,-1.0,0.08251069475015822,1.0,0
46.72577667236328,25.166114807128906,-2.588632106781006,-0.0,-0.0,-1.0,0.11191751940425768,2.0,0
46.212486267089844,25.35717010498047,-2.537435293197632,-0.0,-0.0,-1.0,0.018511190263052472,1.0,0
46.295501708984375,24.42456817626953,-1.86818265914917,-0.0,-0.0,-1.0,0.11032347891697093,2.0,0
47.26744842529297,25.24900245666504,-2.193173885345459,0.03882539947808231,-0.6489055553886776,-0.7598777326261631,0.1804584894422234,3.0,0
45.32909393310547,25.584482192993164,-1.9599039554595947,-0.0,-0.0,-1.0,0.08714895800524095,1.0,0
47.4380989074707,23.181285858154297,-2.4127187728881836,-0.0,-0.0,-1.0,0.17320786917387707,2.0,0
47.424434661865234,23.608097076416016,-2.5073702335357666,-0.0,-0.0,-1.0,0.06556024467295062,1.0,0
47.486289978027344,24.010242462158203,-2.615262031555176,-0.0,-0.0,-1.0,0.08309995836384028,1.0,0
46.20915603637695,24.56209945678711,-2.4825692176818848,-0.0,-0.0,-1.0,0.18941834192437254,1.0,0
46.57670593261719,24.33548355102539,-2.500058650970459,-0.0,-0.0,-1.0,0.11666355484533823,1.0,0
47.084529876708984,24.44314956665039,-2.6333062648773193,-0.0,-0.0,-1.0,0.0955859776678846,2.0,0
47.40583801269531,24.31244659423828,-2.6701996326446533,-0.0,-0.0,-1.0,0.13060559110786932,1.0,0
46.31682586669922,24.858570098876953,-2.5809648036956787,-0.0,-0.0,-1.0,0.11528572129777301,1.0,0
46.206600189208984,25.03640365600586,-2.6056735515594482,-0.0,-0.0,-1.0,0.05541934496654181,1.0,0
45.84461975097656,23.361661911010742,-2.104276180267334,-0.0,-0.0,-1.0,0.24685485539895477,1.0,0
45.289703369140625,24.256168365478516,-2.2208733558654785,-0.0,-0.0,-1.0,0.1569969877825635,2.0,0
45.991065979003906,24.125049591064453,-2.326273202896118,-0.0,-0.0,-1.0,0.2022736179433961,2.0,0
46.1943473815918,24.018449783325195,-2.3411784172058105,0.8838959230730935,0.46575304722020877,-0.04245110339972192,0.17606059136427493,3.0,0
46.44297409057617,23.93800926208496,-2.3729920387268066,-0.0,-0.0,-1.0,0.1140295012092686,1.0,0
45.31988525390625,24.344707489013672,-2.25022292137146,-0.0,-0.0,-1.0,0.1722120044517337,1.0,0
46.17495346069336,24.336915969848633,-2.417858362197876,-0.0,-0.0,-1.0,0.2231503873442896,1.0,0
47.4225959777832,25.344385147094727,-2.425445556640625,-0.0,-0.0,-1.0,0.2429223949395224,1.0,0
45.74827194213867,24.24102020263672,-1.8782329559326172,-0.0,-0.0,-1.0,0.1538123879168464,2.0,0
46.1957893371582,24.005760192871094,-1.9035422801971436,-0.0,-0.0,-1.0,0.24436527731849703,1.0,0
46.436363220214844,24.118717193603516,-1.9722263813018799,-0.0,-0.0,-1.0,0.18881094635851853,1.0,0
45.897987365722656,24.276763916015625,-1.9124953746795654,-0.40097924370158616,0.7021747785959714,-0.5883589265271685,0.15778645522062285,3.0,0
46.10629653930664,24.30939292907715,-1.9565260410308838,-0.0,-0.0,-1.0,0.10791025286477302,2.0,0
47.519901275634766,25.332183837890625,-1.9438035488128662,-0.0,-0.0,-1.0,0.22024953948291376,2.0,0
47.589149475097656,24.122968673706055,-2.637233018875122,-0.0,-0.0,-1.0,0.07789198263882935,2.0,0
47.346717834472656,24.390056610107422,-2.648775815963745,-0.0,-0.0,-1.0,0.11369086536872346,2.0,0
47.50010681152344,24.23615837097168,-2.644909381866455,-0.0,-0.0,-1.0,0.1061949868194764,2.0,0
47.4031982421875,23.244211196899414,-2.3801238536834717,-0.0,-0.0,-1.0,0.14175250277091037,1.0,0
46.27043151855469,23.821863174438477,-2.2630467414855957,-0.0,-0.0,-1.0,0.22308188619982627,2.0,0
47.41142272949219,23.66579246520996,-2.4835360050201416,-0.17565248150404372,-0.6331066323396496,-0.7538714730171311,0.0736630182743969,4.0,0
47.48704147338867,23.54587173461914,-2.472379207611084,-0.0,-0.0,-1.0,0.10475403879254247,1.0,0
45.46642303466797,24.175045013427734,-2.186749219894409,-0.0,-0.0,-1.0,0.09982537453459724,1.0,0
46.17021560668945,24.00442123413086,-2.289010763168335,-0.0,-0.0,-1.0,0.16024144497599419,1.0,0
46.23670959472656,23.84119415283203,-2.260668992996216,0.18912467890619478,0.9819361321199931,0.005769598413765976,0.22308188619982622,4.0,0
47.55879211425781,23.95713233947754,-2.589296340942383,-0.0,-0.0,-1.0,0.03333590743950709,2.0,0
45.23225021362305,24.397119522094727,-2.201443672180176,-0.0,-0.0,-1.0,0.1374764330543149,1.0,0
45.50107192993164,24.425241470336914,-2.2625749111175537,-0.0,-0.0,-1.0,0.253417574184382,1.0,0
46.123268127441406,24.388256072998047,-2.3808019161224365,0.7089068082757728,0.5767005490399699,0.40603893152905196,0.22704170967212703,3.0,0
46.26179504394531,24.349742889404297,-2.399939775466919,-0.0,-0.0,-1.0,0.1153903227746096,1.0,0
47.03270721435547,24.41693115234375,-2.585275411605835,-0.0,-0.0,-1.0,0.09636466435182696,1.0,0
47.09075164794922,24.45868492126465,-2.608968734741211,-0.0,-0.0,-1.0,0.09558597766788461,2.0,0
45.20977783203125,24.72222137451172,-2.2881436347961426,-0.0,-0.0,-1.0,0.06324158740982573,1.0,0
46.249332427978516,24.920860290527344,-2.5509278774261475,-0.0,-0.0,-1.0,0.10745934793952097,1.0,0
46.385406494140625,24.864980697631836,-2.5640478134155273,-0.0,-0.0,-1.0,0.10476645734077865,1.0,0
47.509429931640625,24.873661041259766,-2.339381456375122,-0.0,-0.0,-1.0,0.21120065510938357,1.0,0
46.039554595947266,25.107622146606445,-2.559462070465088,-0.0,-0.0,-1.0,0.054886827693567786,1.0,0
46.28651809692383,25.058961868286133,-2.5962061882019043,-0.0,-0.0,-1.0,0.05429226840011265,1.0,0
47.189537048339844,25.486230850219727,-2.421726942062378,-0.0,-0.0,-1.0,0.20025064314010638,2.0,0
45.84583282470703,23.28363800048828,-2.030073881149292,-0.0,-0.0,-1.0,0.14448009551130217,1.0,0
46.133541107177734,23.849592208862305,-1.8361289501190186,-0.0,-0.0,-1.0,0.18980887248617034,2.0,0
46.0804557800293,24.04221534729004,-1.8715112209320068,-0.0,-0.0,-1.0,0.16208236140587762,1.0,0
46.36431884765625,23.95220947265625,-1.9043643474578857,-0.0,-0.0,-1.0,0.1897848190258127,1.0,0
46.11909484863281,24.333736419677734,-1.9477710723876953,-0.0,-0.0,-1.0,0.08354094259851817,2.0,0
47.0203857421875,24.713485717773438,-2.2076256275177,-0.0,-0.0,-1.0,0.17172829230259148,2.0,0
47.40044403076172,25.02301788330078,-1.891993761062622,-0.0,-0.0,-1.0,0.11470613338729867,2.0,0
45.3465690612793,25.579429626464844,-2.121415376663208,0.05586937046546504,-0.985914932787347,-0.15763996558840518,0.08714895800524095,4.0,0
46.438873291015625,24.580669403076172,-1.6422500610351562,-0.0,-0.0,-1.0,0.15238453935931862,1.0,0
47.06932830810547,24.832565307617188,-1.7978379726409912,-0.6686879390752396,-0.6183440576311221,0.41292501320165653,0.11411963820069718,3.0,0
47.09688949584961,24.803680419921875,-1.7964599132537842,-0.6686879390752396,-0.6183440576311221,0.41292501320165653,0.1472160422097364,3.0,0
47.6749153137207,23.55365753173828,-2.3986880779266357,-0.0,-0.0,-1.0,0.1262841276545843,2.0,0
46.2934684753418,24.334901809692383,-2.304605007171631,-0.0,-0.0,-1.0,0.22351180834678366,1.0,0
47.65663146972656,24.482465744018555,-2.639571189880371,-0.0,-0.0,-1.0,0.1082863546223889,1.0,0
45.519107818603516,24.990863800048828,-2.344862222671509,-0.0,-0.0,-1.0,0.05089841953287462,1.0,0
47.28706741333008,24.69863510131836,-2.6170499324798584,-0.0,-0.0,-1.0,0.09762982950011924,1.0,0
47.528297424316406,24.619993209838867,-2.6482999324798584,-0.0,-0.0,-1.0,0.11312136030298935,2.0,0
45.77196502685547,25.14164161682129,-2.4369919300079346,-0.0,-0.0,-1.0,0.02949724018182109,1.0,0
45.99775695800781,25.152576446533203,-2.4832043647766113,-0.0,-0.0,-1.0,0.057463409332604305,1.0,0
46.36328887939453,25.151260375976562,-2.55397891998291,-0.0,-0.0,-1.0,0.0936550767217468,1.0,0
47.58509826660156,25.369613647460938,-2.4069793224334717,-0.0,-0.0,-1.0,0.18008389157512963,1.0,0
45.99357986450195,24.065258026123047,-2.166273832321167,-0.0,-0.0,-1.0,0.1883443215459981,2.0,0
46.41637420654297,24.05738639831543,-2.0526909828186035,-0.0,-0.0,-1.0,0.22608242448764024,1.0,0
45.2479362487793,24.596866607666016,-2.1764981746673584,-0.0,-0.0,-1.0,0.08335127227457942,1.0,0
46.12432098388672,24.294723510742188,-2.258383274078369,-0.0,-0.0,-1.0,0.2552744062155587,1.0,0
46.253395080566406,24.34711456298828,-1.9024851322174072,-0.0,-0.0,-1.0,0.15406586341436415,1.0,0
46.58815383911133,24.40911102294922,-1.9797837734222412,-0.0,-0.0,-1.0,0.09841710266146513,1.0,0
47.49638748168945,24.85183334350586,-2.2618610858917236,-0.0,-0.0,-1.0,0.16803765609066032,1.0,0
47.19411087036133,25.287063598632812,-2.3133111000061035,-0.0,-0.0,-1.0,0.1936314755623482,2.0,0
46.97933578491211,25.55024528503418,-2.3411598205566406,-0.0,-0.0,-1.0,0.08865879540050203,1.0,0
46.29554748535156,23.770343780517578,-1.7651188373565674,0.21938932943978642,-0.2570106842688686,-0.9411768326407153,0.17809553435197203,3.0,0
46.165870666503906,24.11785316467285,-1.8282546997070312,-0.0,-0.0,-1.0,0.1279295319218855,1.0,0
46.27912139892578,23.97163200378418,-1.8123273849487305,-0.0,-0.0,-1.0,0.16532593935266454,1.0,0
45.91629409790039,24.335086822509766,-1.838836431503296,-0.6531993808430105,-0.15711173271733053,-0.7407067383984473,0.14786374299363406,3.0,0
47.5562858581543,25.276203155517578,-1.9312419891357422,-0.0,-0.0,-1.0,0.20546626844374816,1.0,0
47.333229064941406,24.448944091796875,-2.303534507751465,-0.0,-0.0,-1.0,0.1555703543370959,1.0,0
47.13333511352539,24.74658966064453,-2.3471217155456543,-0.0,-0.0,-1.0,0.21733766916041186,1.0,0
45.56434631347656,25.429824829101562,-2.264688730239868,-0.0,-0.0,-1.0,0.05670112410820539,2.0,0
45.748146057128906,25.47270393371582,-2.3081154823303223,-0.0,-0.0,-1.0,0.0280456758385711,1.0,0
47.15553665161133,25.24158477783203,-2.494129180908203,-0.0,-0.0,-1.0,0.2184525799695603,1.0,0
47.424293518066406,25.15353012084961,-2.5219733715057373,-0.0,-0.0,-1.0,0.17623153967708224,1.0,0
45.92445755004883,25.56911849975586,-2.3672385215759277,-0.0,-0.0,-1.0,0.010773634323038078,1.0,0
46.18119812011719,25.6062068939209,-2.422515869140625,-0.0,-0.0,-1.0,0.03187599404708344,1.0,0
47.69978332519531,25.39968490600586,-2.6477551460266113,-0.0,-0.0,-1.0,0.1663047749621356,1.0,0
46.3131103515625,23.855302810668945,-1.9278028011322021,-0.0,-0.0,-1.0,0.1976209411175359,1.0,0
45.84363555908203,24.199098587036133,-1.9393417835235596,-0.9235437803375279,0.24094355263553474,0.29835061629437915,0.13793103465886558,6.0,0
46.169334411621094,24.10355567932129,-1.9722249507904053,-0.0,-0.0,-1.0,0.20859893635297344,1.0,0
46.4367790222168,23.916475296020508,-1.9699060916900635,-0.0,-0.0,-1.0,0.13556416173129301,1.0,0
45.73118209838867,24.335857391357422,-1.9598703384399414,-0.0,-0.0,-1.0,0.1421641856065494,1.0,0
46.16331481933594,24.331932067871094,-2.03806734085083,-0.0,-0.0,-1.0,0.13231862315537515,2.0,0
47.11330032348633,25.311458587646484,-2.083991527557373,-0.0,-0.0,-1.0,0.14181049801083437,1.0,0
47.487449645996094,25.317306518554688,-2.151031017303467,-0.0,-0.0,-1.0,0.12905273318736568,1.0,0
45.739768981933594,24.374324798583984,-1.6097030639648438,0.6861674060308319,0.3044052509573891,-0.6606903466000457,0.12359469738664264,3.0,0
46.332359313964844,24.46237564086914,-1.7301602363586426,0.4638528107024509,0.14198318004276844,-0.8744606032225689,0.10845727840164839,4.0,0
47.4939079284668,24.9542293548584,-2.3561272621154785,-0.0,-0.0,-1.0,0.20380029705872343,1.0,0
46.901126861572266,25.47842788696289,-2.401200294494629,-0.0,-0.0,-1.0,0.1341004290754571,1.0,0
47.24373245239258,25.255218505859375,-2.3972201347351074,-0.0,-0.0,-1.0,0.20683705356263143,1.0,0
47.4837760925293,25.27077293395996,-2.4479384422302246,-0.0,-0.0,-1.0,0.1533837252712293,1.0,0
46.05862045288086,24.229167938232422,-1.8686884641647339,-0.0,-0.0,-1.0,0.1423484164916203,1.0,0
46.366172790527344,24.139860153198242,-1.8967427015304565,-0.0,-0.0,-1.0,0.1536885102777912,1.0,0
46.162391662597656,24.34099769592285,-1.9211105108261108,-0.0,-0.0,-1.0,0.18060714051717716,1.0,0
46.58220672607422,24.648387908935547,-2.0905919075012207,-0.0,-0.0,-1.0,0.10924330766946509,1.0,0
46.51176452636719,24.80556869506836,-2.1256747245788574,-0.0,-0.0,-1.0,0.1196333273537982,1.0,0
46.89115524291992,24.85232925415039,-2.2095260620117188,-0.0,-0.0,-1.0,0.1431825566587167,1.0,0
47.174598693847656,24.868091583251953,-2.268310070037842,-0.0,-0.0,-1.0,0.18655532462429025,1.0,0
47.40745544433594,24.88375473022461,-2.318227767944336,-0.0,-0.0,-1.0,0.2164224156637669,1.0,0
47.32780456542969,25.231964111328125,-2.002129077911377,-0.10493924794381587,-0.5918840466535686,-0.79916270530974,0.17380536277159914,3.0,0
47.570255279541016,25.372915267944336,-2.081450939178467,-0.0,-0.0,-1.0,0.09751170812008375,1.0,0
46.232994079589844,23.860977172851562,-1.7876075506210327,-0.0,-0.0,-1.0,0.16795315241901593,1.0,0
46.320709228515625,24.5594482421875,-1.6539438962936401,-0.0,-0.0,-1.0,0.07193967534822826,1.0,0
46.996063232421875,24.838157653808594,-1.840643286705017,-0.0,-0.0,-1.0,0.1255822201106359,1.0,0
47.55752182006836,25.46474838256836,-2.3653738498687744,-0.0,-0.0,-1.0,0.11913463037768693,1.0,0
47.13087463378906,24.93018913269043,-2.1234452724456787,-0.0,-0.0,-1.0,0.12366200292606566,1.0,0
47.20345687866211,25.296918869018555,-2.250389575958252,-0.0,-0.0,-1.0,0.2694809756804796,2.0,0
47.49417495727539,25.331478118896484,-2.312788724899292,-0.0,-0.0,-1.0,0.18609577485346349,2.0,0
47.651466369628906,25.220125198364258,-1.9170799255371094,-0.0,-0.0,-1.0,0.20884476686609027,2.0,0
45.27170181274414,24.46622657775879,-2.48079514503479,-0.0,-0.0,-1.0,0.09727614281895124,1.0,0
45.716976165771484,24.535545349121094,-2.449882984161377,-0.0,-0.0,-1.0,0.15974118576780447,1.0,0
46.39488220214844,25.19904136657715,-2.56020188331604,-0.0,-0.0,-1.0,0.09893461534592389,1.0,0
46.282527923583984,25.06604766845703,-2.5347397327423096,-0.0,-0.0,-1.0,0.12830732643398743,2.0,0
46.26460266113281,24.50548553466797,-2.3864970207214355,-0.0,-0.0,-1.0,0.18748400341659757,2.0,0
46.12922668457031,24.147598266601562,-2.3048155307769775,-0.0,-0.0,-1.0,0.19862537952485146,1.0,0
45.95328140258789,23.920177459716797,-2.2631146907806396,-0.0,-0.0,-1.0,0.1653509251885152,1.0,0
45.82749557495117,23.41613006591797,-2.1452388763427734,-0.0,-0.0,-1.0,0.2559734065149525,1.0,0
46.24873352050781,24.088542938232422,-2.277052640914917,-0.0,-0.0,-1.0,0.16794458639249882,1.0,0
45.920616149902344,23.411073684692383,-2.133378744125366,-0.0,-0.0,-1.0,0.2325070235244669,1.0,0
45.358158111572266,24.9603271484375,-2.409221649169922,-0.0,-0.0,-1.0,0.0604645140454052,1.0,0
46.24189758300781,25.55759620666504,-2.4843292236328125,-0.0,-0.0,-1.0,0.032422598364300906,1.0,0
45.3155517578125,24.744434356689453,-2.3595449924468994,-0.0,-0.0,-1.0,0.07584085026780218,1.0,0
46.47163772583008,25.40117645263672,-2.426743268966675,-0.0,-0.0,-1.0,0.10244306302449628,1.0,0
47.04328155517578,25.475574493408203,-2.406717538833618,-0.0,-0.0,-1.0,0.11175012025409242,1.0,0
46.66068649291992,25.011079788208008,-2.3123791217803955,-0.0,-0.0,-1.0,0.23293027545196124,1.0,0
47.53253173828125,25.392297744750977,-2.3558220863342285,-0.0,-0.0,-1.0,0.2122070329279675,2.0,0
47.44666290283203,25.14445686340332,-2.295550584793091,-0.0,-0.0,-1.0,0.29054660504522795,1.0,0
46.8516960144043,24.84605598449707,-2.2560229301452637,-0.0,-0.0,-1.0,0.19918467762685094,1.0,0
46.469993591308594,24.515119552612305,-2.1994516849517822,-0.0,-0.0,-1.0,0.18878886360232347,1.0,0
46.35743713378906,24.395263671875,-2.177995204925537,-0.0,-0.0,-1.0,0.18827481037345764,1.0,0
46.066776275634766,23.965662002563477,-2.0942463874816895,-0.0,-0.0,-1.0,0.1297935152189978,2.0,0
45.71533966064453,23.372295379638672,-1.9796364307403564,-0.0,-0.0,-1.0,0.272081016401063,1.0,0
47.01811981201172,24.692167282104492,-2.2046778202056885,-0.0,-0.0,-1.0,0.15088327711931154,2.0,0
46.382545471191406,24.08465576171875,-2.0968050956726074,-0.0,-0.0,-1.0,0.2057468083247766,1.0,0
46.27870178222656,23.976314544677734,-2.0781352519989014,-0.0,-0.0,-1.0,0.1733441413286835,1.0,0
45.567962646484375,24.2982234954834,-1.726130723953247,-0.0,-0.0,-1.0,0.11700551280654767,2.0,0
46.13692855834961,25.48198699951172,-2.419595241546631,-0.0,-0.0,-1.0,0.029712754158931806,1.0,0
45.87571716308594,25.30337905883789,-2.395139694213867,-0.0,-0.0,-1.0,0.013244330870466028,1.0,0
45.40467071533203,24.89868927001953,-2.3354930877685547,-0.0,-0.0,-1.0,0.07778404802719203,1.0,0
46.672271728515625,25.15494155883789,-2.301302433013916,-0.0,-0.0,-1.0,0.19105644608124003,1.0,0
47.66395568847656,25.450542449951172,-2.320765972137451,-0.0,-0.0,-1.0,0.1269606399763587,1.0,0
47.39598083496094,25.213207244873047,-2.2737231254577637,-0.0,-0.0,-1.0,0.13901785016210483,1.0,0
47.1982421875,24.948179244995117,-2.2174315452575684,-0.0,-0.0,-1.0,0.17748738464450484,1.0,0
46.512699127197266,24.48801040649414,-2.146273612976074,-0.0,-0.0,-1.0,0.15802603027030043,1.0,0
47.12554168701172,24.633615493774414,-2.1425156593322754,-0.0,-0.0,-1.0,0.15469298138684642,1.0,0
46.321834564208984,24.236684799194336,-2.09818696975708,-0.0,-0.0,-1.0,0.22967004707073546,1.0,0
45.85463333129883,23.995990753173828,-2.0772438049316406,-0.0,-0.0,-1.0,0.11986436865797281,2.0,0
46.45841979980469,24.25925064086914,-2.0935230255126953,-0.0,-0.0,-1.0,0.23148065221237227,1.0,0
46.265655517578125,23.944175720214844,-2.0307321548461914,-0.0,-0.0,-1.0,0.2062512289281882,1.0,0
46.059898376464844,23.870159149169922,-2.0292015075683594,-0.0,-0.0,-1.0,0.11568962192855185,1.0,0
45.77206039428711,24.28337287902832,-1.6531256437301636,-0.0,-0.0,-1.0,0.0909573422603794,1.0,0
46.417388916015625,24.49239158630371,-1.653356671333313,-0.0,-0.0,-1.0,0.176211138166414,1.0,0
47.43175506591797,25.167770385742188,-2.6056575775146484,-0.0,-0.0,-1.0,0.18404114351933865,1.0,0
47.03622817993164,25.005313873291016,-2.583402156829834,-0.0,-0.0,-1.0,0.05335145373100813,1.0,0
46.72504425048828,24.94815444946289,-2.5874156951904297,-0.0,-0.0,-1.0,0.21844083257996075,1.0,0
47.185760498046875,24.890121459960938,-2.543200969696045,-0.0,-0.0,-1.0,0.14623855189797083,2.0,0
46.47776794433594,24.38054656982422,-2.4511055946350098,0.0922717618867005,-0.26350075467499956,-0.9602360513144826,0.10976646220331351,3.0,0
46.22563171386719,24.20615005493164,-2.423318386077881,-0.0,-0.0,-1.0,0.21997935728346205,2.0,0
45.851680755615234,24.305543899536133,-2.4802703857421875,-0.0,-0.0,-1.0,0.12544062906756412,1.0,0
45.50307846069336,25.376575469970703,-2.2441701889038086,-0.0,-0.0,-1.0,0.05877578699350241,1.0,0
45.361328125,25.367521286010742,-2.252653121948242,-0.0,-0.0,-1.0,0.074108371627222,1.0,0
47.603214263916016,25.213001251220703,-2.082958698272705,-0.0,-0.0,-1.0,0.14703277810313484,1.0,0
46.21122360229492,24.086101531982422,-2.3922014236450195,-0.0,-0.0,-1.0,0.15105123527684364,1.0,0
46.18378829956055,23.886993408203125,-2.3412270545959473,-0.0,-0.0,-1.0,0.21528376051430412,2.0,0
46.03489685058594,23.874345779418945,-2.350041389465332,-0.0,-0.0,-1.0,0.19886924697507635,2.0,0
46.03443145751953,23.282943725585938,-2.1929330825805664,-0.0,-0.0,-1.0,0.11899857792275378,2.0,0
45.858646392822266,24.13883399963379,-1.9326952695846558,-0.25415608262333134,0.26813793392431673,-0.9292506303771663,0.14133061705966454,3.0,0
46.21703338623047,23.79905128479004,-1.8284188508987427,-0.0,-0.0,-1.0,0.1515799502803907,2.0,0
47.65845489501953,25.290721893310547,-2.6363766193389893,-0.0,-0.0,-1.0,0.14516066953138548,1.0,0
47.278221130371094,25.098621368408203,-2.601116418838501,-0.0,-0.0,-1.0,0.11339307310919633,1.0,0
46.77360153198242,24.98305892944336,-2.5971877574920654,-0.0,-0.0,-1.0,0.1479206920052375,1.0,0
46.59754943847656,24.93197250366211,-2.593967914581299,-0.0,-0.0,-1.0,0.11459824836799924,1.0,0
47.25714111328125,24.974262237548828,-2.5679826736450195,-0.0,-0.0,-1.0,0.14010160147905987,1.0,0
46.91508102416992,24.878299713134766,-2.5601537227630615,-0.0,-0.0,-1.0,0.1165342235230055,1.0,0
46.59736251831055,24.56747817993164,-2.4946365356445312,-0.0,-0.0,-1.0,0.13170096577968438,2.0,0
45.80284118652344,24.406082153320312,-2.5084903240203857,-0.0,-0.0,-1.0,0.11412143833304858,1.0,0
46.456581115722656,24.402050018310547,-2.4590423107147217,-0.0,-0.0,-1.0,0.08179617930262105,2.0,0
46.222450256347656,24.28350067138672,-2.4433109760284424,-0.0,-0.0,-1.0,0.15699096089757544,1.0,0
45.563758850097656,25.4295654296875,-2.2537729740142822,-0.0,-0.0,-1.0,0.0567011241082054,2.0,0
45.23397445678711,25.411304473876953,-2.2734296321868896,-0.0,-0.0,-1.0,0.08579812019425392,2.0,0
47.52424621582031,25.186996459960938,-2.0876665115356445,-0.0,-0.0,-1.0,0.1607608876837575,1.0,0
47.19845199584961,25.030948638916016,-2.0645761489868164,-0.0,-0.0,-1.0,0.10704673561245501,1.0,0
46.24577713012695,24.181943893432617,-2.4141833782196045,0.2293649415656705,-0.17073970669467822,-0.9582482330473621,0.19004396067910323,3.0,0
45.931884765625,24.091644287109375,-2.41365122795105,-0.0,-0.0,-1.0,0.18527709896805522,1.0,0
46.11145782470703,23.86349105834961,-2.338202476501465,-0.0,-0.0,-1.0,0.2592721765165051,1.0,0
46.00408172607422,23.30205726623535,-2.1957082748413086,-0.0,-0.0,-1.0,0.16498084977155922,2.0,0
45.66686248779297,23.20985984802246,-2.1998977661132812,-0.0,-0.0,-1.0,0.13096514554233774,1.0,0
47.68812942504883,25.11502456665039,-2.619776725769043,-0.0,-0.0,-1.0,0.16469474948500154,1.0,0
47.36363220214844,25.097206115722656,-2.6210360527038574,-0.0,-0.0,-1.0,0.1310530363805883,1.0,0
47.471046447753906,24.987010955810547,-2.587705612182617,-0.0,-0.0,-1.0,0.1936070809238622,2.0,0
47.2180290222168,24.858394622802734,-2.557551383972168,-0.0,-0.0,-1.0,0.15803337467491893,2.0,0
46.86723327636719,24.95599937438965,-2.5952744483947754,-0.0,-0.0,-1.0,0.12002866489091692,1.0,0
46.64284896850586,24.974626541137695,-2.608140468597412,-0.0,-0.0,-1.0,0.12629012600969697,1.0,0
46.60642623901367,24.572120666503906,-2.4971656799316406,-0.0,-0.0,-1.0,0.13170096577968438,2.0,0
45.66306686401367,24.48428726196289,-2.517930030822754,-0.0,-0.0,-1.0,0.08574743833568552,1.0,0
47.693603515625,25.332059860229492,-2.1534605026245117,-0.0,-0.0,-1.0,0.11203790555003512,1.0,0
47.33601760864258,25.280006408691406,-2.146658420562744,-0.0,-0.0,-1.0,0.19269986184524954,2.0,0
45.645877838134766,25.40495491027832,-2.232422351837158,-0.0,-0.0,-1.0,0.03868587700504876,2.0,0
45.329227447509766,25.490257263183594,-2.268138885498047,-0.0,-0.0,-1.0,0.10145353056804862,1.0,0
47.23565673828125,25.00102424621582,-2.080695629119873,-0.0,-0.0,-1.0,0.10928748331067842,1.0,0
46.51596450805664,24.39262580871582,-2.4507498741149902,-0.0,-0.0,-1.0,0.1615776885814273,2.0,0
46.293460845947266,24.191402435302734,-2.4044551849365234,0.11912091917858345,0.3536731144953277,-0.9277529491719357,0.1498526338733686,3.0,0
46.138832092285156,24.037418365478516,-2.369091510772705,-0.0,-0.0,-1.0,0.21911618147281656,1.0,0
46.173072814941406,23.86355972290039,-2.319246292114258,-0.47571529983247973,-0.47617731791261514,-0.7395607584308689,0.23058214751084707,3.0,0
46.02216339111328,23.924882888793945,-2.3439087867736816,-0.0,-0.0,-1.0,0.29059743009214806,1.0,0
46.07884216308594,23.250930786132812,-2.1546592712402344,-0.0,-0.0,-1.0,0.1189985779227538,1.0,0
45.9825439453125,23.377817153930664,-2.1949610710144043,-0.0,-0.0,-1.0,0.2656790861020322,1.0,0
46.310123443603516,24.389265060424805,-1.960105538368225,-0.0,-0.0,-1.0,0.13124539825913828,1.0,0
45.84214401245117,24.154430389404297,-1.923681378364563,-0.9896580099377942,-0.1433216137490749,0.00599486432921337,0.1490313537850701,4.0,0
46.25534439086914,23.819978713989258,-1.8251744508743286,-0.0,-0.0,-1.0,0.1863804214026084,2.0,0
46.09317398071289,23.837827682495117,-1.8363319635391235,-0.0,-0.0,-1.0,0.16458625297475354,2.0,0
47.579349517822266,25.28559684753418,-1.9806833267211914,-0.0,-0.0,-1.0,0.23602397937751238,1.0,0
47.154396057128906,25.315998077392578,-1.995152235031128,-0.0,-0.0,-1.0,0.16312148272970262,1.0,0
45.34764862060547,25.591033935546875,-2.13018798828125,0.11524264654055791,-0.6058301150124736,-0.7872032800759285,0.08714895800524095,3.0,0
45.2993278503418,25.58283233642578,-2.1309499740600586,0.03605971334044179,-0.7915393351053359,-0.610053422295792,0.08714895800524106,6.0,0
47.12586212158203,24.826309204101562,-1.8786802291870117,-0.0,-0.0,-1.0,0.11846116688461772,2.0,0
46.38477325439453,24.444141387939453,-1.8097543716430664,-0.0,-0.0,-1.0,0.10765239039587628,1.0,0
45.63739776611328,24.348220825195312,-1.8212244510650635,-0.0,-0.0,-1.0,0.11287476612459438,1.0,0
47.670265197753906,25.50594711303711,-2.3505332469940186,-0.0,-0.0,-1.0,0.11576533430855489,1.0,0
47.508209228515625,25.426250457763672,-2.338062047958374,-0.0,-0.0,-1.0,0.1733559583861869,2.0,0
47.104427337646484,25.24472427368164,-2.3065125942230225,-0.0,-0.0,-1.0,0.1646506231659367,1.0,0
46.7998161315918,25.542572021484375,-2.4001495838165283,-0.0,-0.0,-1.0,0.16358968650983044,1.0,0
45.37652587890625,25.177318572998047,-2.3911023139953613,-0.0,-0.0,-1.0,0.04342567674642921,1.0,0
47.39149856567383,24.85333251953125,-2.1851234436035156,-0.0,-0.0,-1.0,0.13979728778930944,1.0,0
47.112091064453125,25.109066009521484,-2.2648518085479736,-0.0,-0.0,-1.0,0.13288995333428957,1.0,0
47.02171325683594,24.85429573059082,-2.205345392227173,-0.0,-0.0,-1.0,0.15241938742509492,1.0,0
46.542354583740234,25.143306732177734,-2.3062267303466797,-0.0,-0.0,-1.0,0.17895561131994678,1.0,0
46.3666877746582,24.515878677368164,-2.1481618881225586,-0.0,-0.0,-1.0,0.18921345164061312,1.0,0
46.28164291381836,24.01754379272461,-2.02009654045105,-0.0,-0.0,-1.0,0.2588133029661865,1.0,0
46.1786994934082,24.279605865478516,-2.0965042114257812,-0.3400903982754684,-0.561787717046602,-0.7541439398260785,0.1321456177808178,3.0,0
45.236759185791016,24.986343383789062,-2.3514039516448975,-0.0,-0.0,-1.0,0.06570857717781552,1.0,0
46.0317268371582,24.02318572998047,-2.0376217365264893,-0.0,-0.0,-1.0,0.1890183041009299,1.0,0
45.79536819458008,24.226585388183594,-2.1078855991363525,-0.0,-0.0,-1.0,0.165672832685754,2.0,0
47.70014953613281,25.175899505615234,-1.9055395126342773,-0.0,-0.0,-1.0,0.20884476686609021,1.0,0
47.12138366699219,25.264638900756836,-1.9369885921478271,-0.0,-0.0,-1.0,0.21615087963034843,1.0,0
47.06334686279297,24.81989097595215,-1.8265037536621094,-0.6686879390752396,-0.6183440576311221,0.41292501320165653,0.1255822201106359,3.0,0
45.31242752075195,25.578969955444336,-2.0889551639556885,0.31158748119779767,-0.9270358845339589,-0.20860898913314435,0.08714895800524099,4.0,0
46.33467102050781,24.4222412109375,-1.7487876415252686,0.35363240502514104,0.4104710392512108,-0.8405103497591004,0.13873926774497766,3.0,0
45.24878692626953,25.51835060119629,-2.077554225921631,-0.0,-0.0,-1.0,0.11420777608007998,1.0,0
45.58045959472656,24.331218719482422,-1.7613365650177002,-0.0,-0.0,-1.0,0.11766756543523371,2.0,0
47.51911163330078,25.539180755615234,-1.8603090047836304,-0.0,-0.0,-1.0,0.1944357502808911,1.0,0
47.60109329223633,25.34783172607422,-2.1162869930267334,-0.0,-0.0,-1.0,0.09506584781667111,1.0,0
47.32963562011719,25.358671188354492,-2.0744664669036865,-0.0,-0.0,-1.0,0.14503893458032588,1.0,0
47.15934371948242,25.20403289794922,-2.0211219787597656,-0.0,-0.0,-1.0,0.19941900004257804,1.0,0
47.10575485229492,24.846115112304688,-1.9520602226257324,-0.0,-0.0,-1.0,0.13252049716001324,1.0,0
47.45377731323242,25.28656768798828,-2.182021141052246,-0.0,-0.0,-1.0,0.1877562304742149,2.0,0
47.52791213989258,25.215839385986328,-2.184746265411377,-0.0,-0.0,-1.0,0.13871535419993974,1.0,0
47.26543045043945,25.163354873657227,-2.1302905082702637,-0.0,-0.0,-1.0,0.1509052211990369,2.0,0
47.16969299316406,25.30774688720703,-2.1351253986358643,-0.0,-0.0,-1.0,0.17347336580665945,2.0,0
46.28128433227539,24.411773681640625,-1.8438470363616943,-0.0,-0.0,-1.0,0.07189535926225121,2.0,0
46.32776641845703,23.77089500427246,-1.7577590942382812,0.21938932943978642,-0.2570106842688686,-0.9411768326407153,0.19140273185213558,3.0,0
45.69514083862305,24.113815307617188,-1.6962642669677734,-0.0,-0.0,-1.0,0.09006826430339125,1.0,0
46.799190521240234,25.57158660888672,-2.533809185028076,-0.0,-0.0,-1.0,0.15890705936498414,1.0,0
46.72795867919922,25.189023971557617,-2.462838649749756,-0.0,-0.0,-1.0,0.20893957229334614,2.0,0
47.55117416381836,25.210262298583984,-2.0509471893310547,-0.0,-0.0,-1.0,0.12036737123340618,1.0,0
46.06013107299805,25.582630157470703,-2.3931424617767334,-0.0,-0.0,-1.0,0.03350284022049555,1.0,0
45.987430572509766,25.512248992919922,-2.3683576583862305,-0.0,-0.0,-1.0,0.013865994128512556,1.0,0
45.607566833496094,25.360763549804688,-2.272737979888916,-0.0,-0.0,-1.0,0.0398720796677372,1.0,0
45.562252044677734,24.947998046875,-2.19925594329834,-0.0,-0.0,-1.0,0.051106800387008836,1.0,0
46.146034240722656,24.33053970336914,-2.221750497817993,-0.0,-0.0,-1.0,0.1941066228098922,1.0,0
47.60520935058594,23.573467254638672,-2.4281044006347656,-0.0,-0.0,-1.0,0.12059163361748881,2.0,0
46.33823776245117,23.892763137817383,-2.1998393535614014,-0.0,-0.0,-1.0,0.17705961786225385,1.0,0
46.10695266723633,23.989002227783203,-2.1655547618865967,-0.0,-0.0,-1.0,0.18392180569029914,1.0,0
45.80167770385742,24.20440673828125,-2.1343681812286377,-0.0,-0.0,-1.0,0.12370345453031274,2.0,0
47.490482330322266,23.217548370361328,-2.360520839691162,0.9385768270363309,-0.020935745409738263,-0.34443465899144343,0.17836423298418205,7.0,0
47.31208419799805,25.158647537231445,-2.003161668777466,-0.0,-0.0,-1.0,0.17717642335438782,2.0,0
46.31816101074219,24.486282348632812,-1.7503268718719482,0.5096746628778539,-0.3574627187629103,-0.7825932166297984,0.07193967534822825,3.0,0
45.718196868896484,23.420467376708984,-2.007053852081299,-0.0,-0.0,-1.0,0.2720810164010631,1.0,0
45.720130920410156,24.367340087890625,-1.6333165168762207,-0.7421990033685372,0.6144213086048796,-0.2676323876720032,0.12359469738664264,4.0,0
46.862281799316406,25.35753631591797,-2.5279228687286377,-0.0,-0.0,-1.0,0.14205073494916248,1.0,0
46.72404479980469,25.423847198486328,-2.5094685554504395,-0.0,-0.0,-1.0,0.13414205464801404,1.0,0
46.05563735961914,25.477611541748047,-2.3867385387420654,-0.0,-0.0,-1.0,0.022211725715906638,1.0,0
46.775970458984375,25.119949340820312,-2.478895664215088,-0.0,-0.0,-1.0,0.23246148499713626,1.0,0
45.72443389892578,25.33965301513672,-2.30348539352417,-0.0,-0.0,-1.0,0.02246337231073484,1.0,0
46.359893798828125,24.57718276977539,-2.3239235877990723,-0.0,-0.0,-1.0,0.2327476484375654,1.0,0
47.690460205078125,23.831954956054688,-2.511871337890625,-0.0,-0.0,-1.0,0.02320143506043815,1.0,0
47.55198669433594,23.540647506713867,-2.450190305709839,-0.0,-0.0,-1.0,0.06663038746952832,2.0,0
47.34736633300781,25.182445526123047,-2.0029709339141846,-0.0795124230847745,0.12580805551793028,-0.9888630379086809,0.1511412122396496,3.0,0
47.09456253051758,24.760822296142578,-1.9141101837158203,-0.0,-0.0,-1.0,0.10063129549657945,2.0,0
45.46944808959961,25.192604064941406,-2.2336294651031494,-0.0,-0.0,-1.0,0.04564311582758604,1.0,0
45.40353012084961,24.805402755737305,-2.165675640106201,-0.0,-0.0,-1.0,0.07073727415473029,1.0,0
46.1485481262207,24.2316837310791,-2.2365634441375732,0.6733903190014565,-0.4893603265735293,-0.5541407303663618,0.23886933586282136,3.0,0
45.233848571777344,24.53867530822754,-2.0953280925750732,-0.0,-0.0,-1.0,0.0822477194729184,1.0,0
46.09012985229492,23.879629135131836,-2.1801671981811523,-0.0,-0.0,-1.0,0.16864889715593112,1.0,0
46.30572509765625,24.45587921142578,-1.7445387840270996,0.4638528107024509,0.14198318004276844,-0.8744606032225689,0.07193967534822822,4.0,0
45.72956848144531,24.34555435180664,-1.6335525512695312,-0.7421990033685372,0.6144213086048796,-0.2676323876720032,0.12359469738664264,4.0,0
47.213165283203125,25.428356170654297,-2.305140733718872,-0.0,-0.0,-1.0,0.18566885288341686,1.0,0
47.102718353271484,25.21807098388672,-2.2615106105804443,-0.0,-0.0,-1.0,0.16788322009139267,1.0,0
45.941558837890625,24.22593116760254,-1.9391534328460693,-0.0,-0.0,-1.0,0.09713849765367659,1.0,0
46.18509292602539,23.920007705688477,-1.952566146850586,-0.0,-0.0,-1.0,0.22790107672911608,1.0,0
45.65740966796875,24.13400650024414,-1.8766710758209229,-0.0,-0.0,-1.0,0.13476529836992676,1.0,0
46.1402473449707,24.724679946899414,-2.5565285682678223,-0.0,-0.0,-1.0,0.11108090570607339,1.0,0
46.516441345214844,24.09313201904297,-2.570580005645752,-0.0,-0.0,-1.0,0.0686326394672903,1.0,0
46.08872604370117,24.444276809692383,-2.5154762268066406,-0.0,-0.0,-1.0,0.14394283684504292,1.0,0
46.521209716796875,24.03110122680664,-2.565493106842041,-0.0,-0.0,-1.0,0.07083011687331243,1.0,0
46.09409713745117,24.06398582458496,-2.4770936965942383,-0.0,-0.0,-1.0,0.16656671286477956,1.0,0
45.62565231323242,23.382144927978516,-1.7996994256973267,-0.0,-0.0,-1.0,0.20666006981474075,1.0,0
47.49510192871094,23.665618896484375,-1.9850331544876099,-0.0,-0.0,-1.0,0.16899935118108728,1.0,0
46.26964569091797,23.715532302856445,-1.9409458637237549,-0.0,-0.0,-1.0,0.12373016926928951,1.0,0
46.30995178222656,23.442846298217773,-2.121302366256714,-0.0,-0.0,-1.0,0.16865243029042265,1.0,0
46.16469955444336,23.803436279296875,-2.155991792678833,-0.0,-0.0,-1.0,0.13792598109234042,1.0,0
45.263240814208984,24.376575469970703,-2.163849115371704,-0.0,-0.0,-1.0,0.1042642683896945,1.0,0
45.24878692626953,25.104785919189453,-2.2558608055114746,-0.0,-0.0,-1.0,0.0487884654005487,1.0,0
47.43040466308594,24.185768127441406,-2.295443296432495,-0.0,-0.0,-1.0,0.1375941959859793,1.0,0
47.4285888671875,24.77594566345215,-2.3694307804107666,-0.0,-0.0,-1.0,0.2525568745973798,1.0,0
