x,y,z,nx,ny,nz,curvature,density,label
12.927040100097656,28.80062484741211,-1.0480064153671265,-0.0,-0.0,-1.0,0.16658500214498204,1.0,0
14.049264907836914,28.847490310668945,-1.0420631170272827,-0.0,-0.0,-1.0,0.16335081127889353,2.0,0
14.61767578125,28.644752502441406,-1.0098754167556763,-0.0,-0.0,-1.0,0.23860674126717657,1.0,0
14.453958511352539,28.324817657470703,-0.9639889001846313,-0.0,-0.0,-1.0,0.21902087866118528,1.0,0
13.044357299804688,29.20132064819336,-1.2081303596496582,-0.0,-0.0,-1.0,0.1681630822885275,1.0,0
12.94363784790039,28.725326538085938,-1.1347534656524658,-0.0,-0.0,-1.0,0.16745883456843805,1.0,0
12.899520874023438,28.446208953857422,-1.0923430919647217,-0.0,-0.0,-1.0,0.1035983292638329,1.0,0
13.631179809570312,28.409122467041016,-1.1006746292114258,-0.0,-0.0,-1.0,0.09962551473280688,1.0,0
14.456469535827637,28.52715301513672,-0.7538121938705444,-0.0,-0.0,-1.0,0.1794152857270963,1.0,0
14.583146095275879,28.3385009765625,-0.7335809469223022,-0.0,-0.0,-1.0,0.22266561272938434,1.0,0
14.571619987487793,28.71041488647461,-0.7473157644271851,-0.19127928583697343,-0.6066789001307564,-0.7715911786340179,0.23538033192900706,3.0,0
13.934239387512207,28.87057876586914,-0.8225044012069702,-0.0,-0.0,-1.0,0.15712795531644716,1.0,0
14.632453918457031,28.576831817626953,-1.2374149560928345,-0.0,-0.0,-1.0,0.1610924289914433,1.0,0
14.821741104125977,28.90665054321289,-0.650994062423706,-0.0,-0.0,-1.0,0.16313869443123027,1.0,0
14.434484481811523,28.16634750366211,-0.6530212163925171,-0.0,-0.0,-1.0,0.12387103979959911,1.0,0
14.818929672241211,29.089946746826172,-1.0285223722457886,-0.0,-0.0,-1.0,0.14899720846584508,1.0,0
14.753639221191406,28.902074813842773,-1.041245937347412,-0.0,-0.0,-1.0,0.16533533378261372,1.0,0
14.442493438720703,28.44290542602539,-0.7841778993606567,-0.0,-0.0,-1.0,0.2075933060380837,1.0,0
14.115617752075195,28.63330078125,-0.8019798994064331,-0.0,-0.0,-1.0,0.07621759392083972,1.0,0
14.598974227905273,28.542543411254883,-0.7546261548995972,-0.742870740953462,0.1852440559283092,-0.6432944131410467,0.18118822784077807,5.0,0
14.404075622558594,28.646547317504883,-0.7690439224243164,-0.0,-0.0,-1.0,0.13882206865327715,2.0,0
14.580533981323242,28.524673461914062,-0.809019923210144,-0.0,-0.0,-1.0,0.24929468053473708,1.0,0
14.593932151794434,28.32369613647461,-1.0047988891601562,-0.0,-0.0,-1.0,0.209038021327886,1.0,0
14.560887336730957,28.662391662597656,-1.0239694118499756,0.07201839886194153,0.5179183294344468,-0.8523930749725701,0.14162777247102207,3.0,0
14.639663696289062,28.76217269897461,-1.0243349075317383,-0.0,-0.0,-1.0,0.19170775115652625,2.0,0
14.165321350097656,28.86853790283203,-1.0581696033477783,-0.0,-0.0,-1.0,0.2308796065607879,1.0,0
14.557546615600586,28.568811416625977,-0.686477541923523,-0.0,-0.0,-1.0,0.08516642571941838,1.0,0
14.375589370727539,28.710250854492188,-0.7017929553985596,-0.0,-0.0,-1.0,0.08786471754254382,1.0,0
14.945893287658691,30.164838790893555,-1.462899088859558,-0.0,-0.0,-1.0,0.11870734390055053,2.0,0
14.969825744628906,30.169879913330078,-1.4766509532928467,-0.0,-0.0,-1.0,0.124904535142503,2.0,0
14.63311767578125,28.793560028076172,-0.994671106338501,0.13304784090112828,0.6952800801221123,-0.7063171258131414,0.22944059601399155,3.0,0
14.57507610321045,28.454832077026367,-0.9763052463531494,-0.8914415034375472,0.37015367150762934,-0.261377706429656,0.12398299716663537,4.0,0
14.563580513000488,28.658309936523438,-0.8526694774627686,0.187493526202188,-0.7792523676987426,-0.5980066262744694,0.179526715346328,3.0,0
14.486671447753906,28.594213485717773,-0.8570969104766846,-0.0,-0.0,-1.0,0.2166580417376525,1.0,0
14.34083366394043,28.682462692260742,-0.8744947910308838,-0.0,-0.0,-1.0,0.23550468817416997,2.0,0
14.988845825195312,30.122669219970703,-1.4360495805740356,-0.0,-0.0,-1.0,0.2081582750947383,2.0,0
14.57095718383789,30.135395050048828,-1.4698292016983032,-0.0,-0.0,-1.0,0.13995918794099538,1.0,0
14.757895469665527,28.453340530395508,-1.3264638185501099,-0.0,-0.0,-1.0,0.18053366012300504,1.0,0
14.844435691833496,28.179553985595703,-1.108984112739563,-0.0,-0.0,-1.0,0.12266032681638893,1.0,0
14.79220199584961,28.562637329101562,-1.1488510370254517,-0.0,-0.0,-1.0,0.15193712239740848,2.0,0
14.648066520690918,28.177043914794922,-1.1130605936050415,-0.0,-0.0,-1.0,0.13141539488443896,1.0,0
14.577129364013672,28.515186309814453,-0.7359049320220947,-0.6021572111827043,0.761531044112608,-0.2397439506503314,0.14961979268833234,6.0,0
14.582197189331055,28.959232330322266,-0.7735480070114136,-0.0,-0.0,-1.0,0.14042450558818725,1.0,0
14.42481517791748,28.452190399169922,-0.7335361242294312,-0.0,-0.0,-1.0,0.15965341962816343,1.0,0
14.14172649383545,28.819828033447266,-0.7703143358230591,-0.0,-0.0,-1.0,0.16484660638909532,1.0,0
14.006207466125488,28.889156341552734,-0.959491491317749,-0.0,-0.0,-1.0,0.23863793617788862,1.0,0
14.0147123336792,29.043010711669922,-0.9740307331085205,-0.45854644544866136,0.41670952975932574,-0.7849129411432582,0.1640271340942708,3.0,0
14.569934844970703,28.426204681396484,-0.9000380039215088,-0.0,-0.0,-1.0,0.21801852869427185,2.0,0
14.665599822998047,28.782482147216797,-0.9318950176239014,-0.0,-0.0,-1.0,0.21387012414001527,2.0,0
14.733325004577637,29.057289123535156,-0.9567010402679443,-0.0,-0.0,-1.0,0.23366102980033188,1.0,0
14.354822158813477,28.57928466796875,-0.9204363822937012,-0.0,-0.0,-1.0,0.18284631357163666,1.0,0
14.586454391479492,28.36272430419922,-0.8454474210739136,-0.0,-0.0,-1.0,0.19521705358091335,2.0,0
14.590646743774414,28.812084197998047,-0.8867164850234985,-0.0,-0.0,-1.0,0.2441418648988624,2.0,0
14.60478401184082,29.024822235107422,-0.9058209657669067,-0.0,-0.0,-1.0,0.2433612363346442,2.0,0
14.22681713104248,28.15882110595703,-0.8411282300949097,-0.0,-0.0,-1.0,0.08521043568038948,1.0,0
14.30705451965332,28.627864837646484,-0.8809415102005005,-0.0,-0.0,-1.0,0.16385029713631755,1.0,0
13.960556030273438,29.00176239013672,-0.9291428327560425,0.6363934057999259,-0.14906579696311573,-0.7568241679743862,0.20732524156033688,4.0,0
15.117635726928711,30.093080520629883,-1.2086079120635986,-0.0,-0.0,-1.0,0.1974816945517953,1.0,0
14.664855003356934,28.770750045776367,-1.1217987537384033,-0.0,-0.0,-1.0,0.17151056597172337,1.0,0
14.49735164642334,30.11927032470703,-1.2553455829620361,-0.0,-0.0,-1.0,0.1946492840910102,1.0,0
13.226349830627441,28.712682723999023,-1.223860502243042,-0.0,-0.0,-1.0,0.20361744847406132,1.0,0
14.540184020996094,28.34697723388672,-0.9672820568084717,-0.0,-0.0,-1.0,0.22041512282200776,1.0,0
14.60978889465332,28.798938751220703,-0.9937708377838135,-0.0,-0.0,-1.0,0.22442337718896407,2.0,0
14.079307556152344,28.54745864868164,-1.0270440578460693,-0.7752418969238769,-0.13160164010314168,-0.6178033745262589,0.14558120713341705,3.0,0
14.020966529846191,28.825244903564453,-1.0530431270599365,-0.0,-0.0,-1.0,0.12019290266241389,2.0,0
13.078717231750488,28.866859436035156,-1.1491153240203857,-0.0,-0.0,-1.0,0.22748043249437866,1.0,0
14.964445114135742,28.457401275634766,-1.2252326011657715,-0.0,-0.0,-1.0,0.15707994164492464,1.0,0
14.774825096130371,29.367473602294922,-1.32259202003479,0.5252142687841062,-0.8238657567465583,-0.21306146232014272,0.16572535601881871,3.0,0
14.599242210388184,30.088115692138672,-1.4031214714050293,-0.0,-0.0,-1.0,0.13001830645061394,1.0,0
14.655586242675781,28.152420043945312,-1.2399139404296875,-0.0,-0.0,-1.0,0.09654367327417798,2.0,0
14.621082305908203,28.90688705444336,-1.3045506477355957,-0.0,-0.0,-1.0,0.14245464611595512,2.0,0
14.601765632629395,29.306415557861328,-1.339191198348999,-0.0,-0.0,-1.0,0.17183280484047453,1.0,0
14.403191566467285,30.14113998413086,-1.4317145347595215,-0.0,-0.0,-1.0,0.17017820722061489,1.0,0
12.722025871276855,30.146041870117188,-0.9018712043762207,-0.0,-0.0,-1.0,0.11540545044512088,1.0,0
13.766188621520996,30.457748413085938,-1.4575258493423462,-0.0,-0.0,-1.0,0.10153933289042988,1.0,0
14.629873275756836,30.102476119995117,-1.3363200426101685,-0.0,-0.0,-1.0,0.12094149104070684,1.0,0
14.392440795898438,30.235607147216797,-1.3730560541152954,-0.0,-0.0,-1.0,0.17137000985955175,1.0,0
14.692179679870605,28.45656394958496,-1.1644142866134644,-0.0,-0.0,-1.0,0.1818637388183408,1.0,0
14.7128324508667,28.761873245239258,-1.1926637887954712,-0.0,-0.0,-1.0,0.23944187320405622,2.0,0
14.16288948059082,28.467296600341797,-1.2200390100479126,-0.0,-0.0,-1.0,0.15239423146634073,1.0,0
12.727831840515137,30.232297897338867,-0.8280881643295288,-0.0,-0.0,-1.0,0.15132462152412643,1.0,0
14.862884521484375,30.147066116333008,-1.4697221517562866,-0.0,-0.0,-1.0,0.07292441050586816,1.0,0
15.116082191467285,28.52142906188965,-1.2579854726791382,-0.0,-0.0,-1.0,0.1725436732697758,1.0,0
14.967360496520996,29.423355102539062,-1.375949740409851,-0.0,-0.0,-1.0,0.10722810676339681,1.0,0
14.995511054992676,29.487030029296875,-1.3802951574325562,-0.6842591495936345,-0.7258887404025153,-0.06982086188415,0.10187604631447088,3.0,0
14.935452461242676,28.32883071899414,-1.2557789087295532,-0.0,-0.0,-1.0,0.1994904722430507,1.0,0
14.614221572875977,29.195186614990234,-1.3873034715652466,-0.0,-0.0,-1.0,0.19040281523977784,1.0,0
14.40295696258545,28.34521484375,-1.3156532049179077,-0.0,-0.0,-1.0,0.1212721494813655,1.0,0
14.794486045837402,28.181713104248047,-1.254616379737854,-0.0,-0.0,-1.0,0.12036605459862165,1.0,0
12.87132740020752,30.333354949951172,-1.0251787900924683,0.12639380711734968,-0.015973117365069216,-0.99185153377107,0.051663028220391,5.0,0
14.564797401428223,28.70507049560547,-0.7414222955703735,-0.19127928583697343,-0.6066789001307564,-0.7715911786340179,0.17827042181691924,3.0,0
14.464482307434082,29.069902420043945,-0.7802129983901978,-0.21248900962220213,-0.01762716809165895,-0.9770044543065521,0.1263257603414447,5.0,0
14.46138858795166,28.64844512939453,-0.7459611892700195,-0.0,-0.0,-1.0,0.14572803345864185,1.0,0
14.305213928222656,28.77246856689453,-0.7699817419052124,0.6976999221631047,-0.3496657931578642,-0.625258867757091,0.17462669168839826,3.0,0
15.200027465820312,29.497188568115234,-1.434921383857727,-0.0,-0.0,-1.0,0.09402307899189762,1.0,0
14.98872184753418,30.085189819335938,-1.5324498414993286,-0.0,-0.0,-1.0,0.28162117646247703,1.0,0
14.853288650512695,30.20201873779297,-1.5642050504684448,-0.0,-0.0,-1.0,0.11170634644307126,1.0,0
14.638609886169434,30.16674041748047,-1.5887058973312378,-0.0,-0.0,-1.0,0.11601080953536932,1.0,0
14.17926025390625,30.573293685913086,-1.6981996297836304,-0.0,-0.0,-1.0,0.1076588254940809,1.0,0
15.089155197143555,28.432785034179688,-1.326280951499939,-0.0,-0.0,-1.0,0.14910705495393461,1.0,0
15.030989646911621,28.425018310546875,-1.3334790468215942,-0.0,-0.0,-1.0,0.1511111201698158,1.0,0
14.739076614379883,29.284629821777344,-1.4724737405776978,-0.0,-0.0,-1.0,0.124021080419654,2.0,0
14.844514846801758,28.37528419494629,-1.3539777994155884,-0.0,-0.0,-1.0,0.19327007022629247,1.0,0
15.197065353393555,28.411575317382812,-1.3089150190353394,-0.0,-0.0,-1.0,0.13261690670008724,1.0,0
14.033974647521973,29.08124542236328,-0.9649850130081177,-0.45854644544866136,0.41670952975932574,-0.7849129411432582,0.18074217235294052,3.0,0
13.323904037475586,28.745134353637695,-1.0263413190841675,-0.0,-0.0,-1.0,0.13718116073622696,1.0,0
14.674997329711914,28.879175186157227,-0.8706334829330444,0.931924616536389,0.34241803243776003,0.11944203680010512,0.1374960844876447,3.0,0
14.664665222167969,28.455970764160156,-0.8364788293838501,-0.0,-0.0,-1.0,0.20971717073292734,1.0,0
14.69629192352295,28.700260162353516,-0.8530415296554565,-0.0,-0.0,-1.0,0.19851957378213086,1.0,0
14.17656421661377,28.537944793701172,-0.9029229879379272,-0.0,-0.0,-1.0,0.15926345263721442,1.0,0
14.014479637145996,28.960559844970703,-0.9574517011642456,-0.0,-0.0,-1.0,0.2278095566652254,1.0,0
14.722339630126953,30.213577270507812,-1.3923556804656982,-0.0,-0.0,-1.0,0.13657841397591514,1.0,0
14.674066543579102,30.409191131591797,-1.422166109085083,-0.0,-0.0,-1.0,0.12415227495672161,1.0,0
14.391951560974121,30.02147674560547,-1.411926031112671,-0.0,-0.0,-1.0,0.12087629757003275,2.0,0
14.560567855834961,30.22323989868164,-1.4142134189605713,-0.0,-0.0,-1.0,0.19169579345696902,1.0,0
13.919512748718262,30.46306800842285,-1.5263075828552246,-0.0,-0.0,-1.0,0.11783412539852062,1.0,0
14.772638320922852,28.649450302124023,-1.1999268531799316,-0.0,-0.0,-1.0,0.19597120986947453,1.0,0
14.604846954345703,28.783416748046875,-1.2380211353302002,-0.0,-0.0,-1.0,0.20006690323580914,1.0,0
14.666555404663086,28.2421875,-1.1671092510223389,-0.0,-0.0,-1.0,0.2145159678696734,1.0,0
12.843130111694336,30.267385482788086,-1.0488038063049316,0.6428466200482522,0.24062059038097355,-0.7272207055476694,0.048035421366669905,3.0,0
14.453412055969238,28.792938232421875,-0.7345679998397827,-0.0,-0.0,-1.0,0.08289883325693326,1.0,0
13.797210693359375,29.108036041259766,-0.8381757736206055,-0.0,-0.0,-1.0,0.16975157168795432,2.0,0
14.802560806274414,29.988178253173828,-1.6515796184539795,-0.0,-0.0,-1.0,0.15659089715062313,1.0,0
15.147581100463867,29.415695190429688,-1.5165860652923584,-0.0,-0.0,-1.0,0.08568264322767709,1.0,0
14.913126945495605,29.68448829650879,-1.5905139446258545,-0.0,-0.0,-1.0,0.06527955986918385,1.0,0
14.865087509155273,29.31710433959961,-1.543863296508789,-0.0,-0.0,-1.0,0.11553628871186264,1.0,0
15.14515495300293,28.43447494506836,-1.3736965656280518,-0.0,-0.0,-1.0,0.1604705635487271,1.0,0
14.254302978515625,30.02373504638672,-1.2018406391143799,-0.0,-0.0,-1.0,0.1437785377571677,1.0,0
14.733970642089844,28.756793975830078,-0.9944868087768555,-0.0,-0.0,-1.0,0.14825630557333722,2.0,0
14.638692855834961,28.90326690673828,-1.023702621459961,-0.0,-0.0,-1.0,0.12702378608845807,1.0,0
14.563039779663086,28.418392181396484,-0.9800505638122559,-0.0,-0.0,-1.0,0.1882668385557057,2.0,0
14.269893646240234,28.627975463867188,-1.0439410209655762,-0.0,-0.0,-1.0,0.12793157766889798,1.0,0
13.90019416809082,29.02488136291504,-1.1389832496643066,-0.0,-0.0,-1.0,0.15529983409183412,2.0,0
13.210083961486816,28.87417984008789,-1.2218375205993652,-0.0,-0.0,-1.0,0.14124157437593807,2.0,0
13.543171882629395,28.508190155029297,-1.1347744464874268,-0.0,-0.0,-1.0,0.15964938447051394,1.0,0
13.026002883911133,28.8720703125,-1.2486965656280518,-0.0,-0.0,-1.0,0.26592693371248494,1.0,0
12.79944896697998,30.41124725341797,-0.8738143444061279,-0.9903196781564849,0.08364683998505724,-0.11077066947775473,0.1493304661601324,5.0,0
15.128193855285645,28.461820602416992,-1.500227451324463,0.5469379641047571,-0.8182178806772399,-0.1771393890725292,0.23925890233263053,3.0,0
14.671745300292969,30.170570373535156,-1.3769035339355469,-0.0,-0.0,-1.0,0.1754787077264027,2.0,0
14.331562042236328,30.01275634765625,-1.3917620182037354,-0.0,-0.0,-1.0,0.11867050299726901,1.0,0
14.861204147338867,28.77912712097168,-1.138310194015503,-0.0,-0.0,-1.0,0.1388075499278109,1.0,0
14.720163345336914,28.84838104248047,-1.1659765243530273,-0.0,-0.0,-1.0,0.20952322712652838,2.0,0
15.146032333374023,28.339624404907227,-1.4750761985778809,-0.0,-0.0,-1.0,0.18927896154576768,1.0,0
14.74863052368164,28.590564727783203,-1.1231496334075928,-0.0,-0.0,-1.0,0.1744163458720085,1.0,0
14.612689971923828,28.689971923828125,-1.1550192832946777,-0.0,-0.0,-1.0,0.2065603627218265,1.0,0
14.097051620483398,28.85393524169922,-1.2446620464324951,-0.0,-0.0,-1.0,0.24155154950293448,1.0,0
14.424434661865234,28.458436965942383,-1.1438038349151611,-0.0,-0.0,-1.0,0.22793850266120083,1.0,0
13.542574882507324,28.3466854095459,-1.2444393634796143,-0.0,-0.0,-1.0,0.07864712464193487,1.0,0
13.018450736999512,28.876358032226562,-1.3922014236450195,-0.0,-0.0,-1.0,0.17994166451389593,1.0,0
14.450583457946777,29.036624908447266,-0.7606425285339355,-0.8733263757266176,0.11087090468756722,-0.4743508026281513,0.1577434813195697,4.0,0
14.842559814453125,28.18189811706543,-1.0495398044586182,-0.0,-0.0,-1.0,0.17917023160242793,1.0,0
14.379958152770996,28.84649085998535,-0.74515700340271,-0.0,-0.0,-1.0,0.18154306799806028,2.0,0
14.244821548461914,28.853069305419922,-0.7603862285614014,-0.0,-0.0,-1.0,0.2534819777844262,1.0,0
13.709632873535156,29.11063003540039,-0.8492906093597412,-0.0,-0.0,-1.0,0.19681233563359407,2.0,0
14.630533218383789,28.24711799621582,-1.0859956741333008,-0.0,-0.0,-1.0,0.16716843533277367,1.0,0
14.607887268066406,28.636829376220703,-0.6957738399505615,-0.0,-0.0,-1.0,0.15540839263373304,1.0,0
15.08326244354248,30.26434326171875,-1.4792120456695557,-0.0,-0.0,-1.0,0.12490453514250296,1.0,0
14.86122989654541,30.050495147705078,-1.475940227508545,-0.0,-0.0,-1.0,0.0871482388027623,1.0,0
14.543678283691406,30.048357009887695,-1.525275707244873,-0.0,-0.0,-1.0,0.13311619121859158,1.0,0
14.946764945983887,29.512741088867188,-1.3717291355133057,-0.0,-0.0,-1.0,0.11924326155562363,2.0,0
14.64895248413086,29.68975830078125,-1.4486289024353027,-0.0,-0.0,-1.0,0.05521841261801288,1.0,0
15.041763305664062,28.35131072998047,-1.1634347438812256,-0.0,-0.0,-1.0,0.1335596126749399,1.0,0
14.92588996887207,28.48606300354004,-1.2050399780273438,-0.0,-0.0,-1.0,0.19305752487563244,1.0,0
13.142549514770508,29.495441436767578,-1.2025554180145264,-0.0,-0.0,-1.0,0.11162097516956831,1.0,0
14.722156524658203,28.156028747558594,-1.18626070022583,-0.0,-0.0,-1.0,0.19884163221037982,1.0,0
14.293781280517578,28.332904815673828,-1.289802074432373,-0.0,-0.0,-1.0,0.1905989260923189,1.0,0
13.16787052154541,29.016956329345703,-1.1406853199005127,-0.0,-0.0,-1.0,0.14153897699661153,1.0,0
13.906133651733398,28.138935089111328,-1.3313770294189453,-0.0,-0.0,-1.0,0.18225866669976604,1.0,0
13.144287109375,28.81873321533203,-1.121152400970459,-0.0,-0.0,-1.0,0.17713079058163705,1.0,0
14.59075927734375,29.02447509765625,-0.9143643379211426,-0.0,-0.0,-1.0,0.24081546235278967,2.0,0
12.825727462768555,30.282554626464844,-0.8504972457885742,0.2503846693113111,0.7727733977077882,-0.5832056182591402,0.171013295231249,4.0,0
14.573387145996094,28.67511749267578,-0.8714964389801025,0.8769656812487227,0.41067470808125656,0.24955455927379494,0.1628885558774954,4.0,0
13.97414493560791,29.017623901367188,-1.0084912776947021,-0.0,-0.0,-1.0,0.1908999196309994,2.0,0
14.422532081604004,28.49422836303711,-0.8715174198150635,-0.0,-0.0,-1.0,0.19804498923667777,1.0,0
14.09391975402832,28.537601470947266,-0.9291486740112305,0.738266100653705,0.38339369025299913,-0.5549526492411407,0.17827361968045707,3.0,0
12.79688835144043,30.269763946533203,-0.9537186622619629,-0.0,-0.0,-1.0,0.10229357805575529,1.0,0
14.639884948730469,28.87963104248047,-0.934929609298706,-0.0,-0.0,-1.0,0.16406998787740198,1.0,0
14.08425521850586,28.990684509277344,-1.0330073833465576,-0.0,-0.0,-1.0,0.22033958666549097,1.0,0
13.962462425231934,29.056575775146484,-1.0614831447601318,-0.0,-0.0,-1.0,0.1965374885557416,1.0,0
14.518487930297852,28.575878143310547,-0.9048359394073486,-0.0,-0.0,-1.0,0.08729947514890182,1.0,0
14.121086120605469,28.70167350769043,-0.9835290908813477,-0.0,-0.0,-1.0,0.18279845051334803,1.0,0
13.005767822265625,29.122478485107422,-1.2245404720306396,-0.0,-0.0,-1.0,0.11194540711625357,1.0,0
13.154521942138672,28.880844116210938,-1.1649861335754395,-0.0,-0.0,-1.0,0.14241553940444301,2.0,0
12.839786529541016,30.322416305541992,-1.2068226337432861,-0.0,-0.0,-1.0,0.09482688987322785,1.0,0
12.859842300415039,30.451202392578125,-0.7737390995025635,0.7719371164229054,0.09066263398854948,-0.6292005841438392,0.1921383101605918,3.0,0
14.553619384765625,29.114933013916016,-0.817965030670166,-0.0,-0.0,-1.0,0.1294621842881835,1.0,0
13.945954322814941,29.14154052734375,-0.883429765701294,-0.0,-0.0,-1.0,0.12281021080844237,1.0,0
14.605304718017578,28.770198822021484,-0.7523684501647949,-0.0,-0.0,-1.0,0.2428730742068962,1.0,0
14.310152053833008,28.836565017700195,-0.7930474281311035,0.6608223138716414,0.05516023116872411,-0.7485126708257803,0.22653195243422822,4.0,0
14.581328392028809,28.532989501953125,-0.7130844593048096,-0.5836211476908818,0.7890270482133916,-0.19189234782981804,0.14369301081138186,5.0,0
12.868461608886719,30.30302619934082,-1.1665202379226685,-0.0,-0.0,-1.0,0.11317723628504388,1.0,0
13.683871269226074,29.024677276611328,-0.8654266595840454,0.29882476005561165,0.6924947947033526,-0.6566237294573414,0.19384377586792045,4.0,0
14.418214797973633,29.003353118896484,-0.8080581426620483,-0.0,-0.0,-1.0,0.1679109583425872,1.0,0
14.245721817016602,28.92007064819336,-0.8037523031234741,-0.2456394047503023,0.17985395739218432,-0.9525302288349109,0.16672312517369053,3.0,0
14.591255187988281,28.692806243896484,-0.7383382320404053,0.2438774146878665,-0.22189007280711093,-0.9440808239736773,0.193248141946665,4.0,0
12.900874137878418,30.36520004272461,-1.2403477430343628,-0.0,-0.0,-1.0,0.09150180731164557,1.0,0
15.196063995361328,30.259872436523438,-1.5768386125564575,-0.0,-0.0,-1.0,0.20773277117230313,1.0,0
14.782073020935059,30.120668411254883,-1.549984335899353,-0.0,-0.0,-1.0,0.1415784214824233,1.0,0
13.383373260498047,29.488216400146484,-1.4532057046890259,-0.0,-0.0,-1.0,0.16830102270320013,1.0,0
13.170782089233398,29.373367309570312,-1.4387801885604858,-0.0,-0.0,-1.0,0.12155519156349118,1.0,0
13.158504486083984,28.8436279296875,-1.315980315208435,-0.0,-0.0,-1.0,0.11118970204550963,1.0,0
12.882354736328125,30.27461814880371,-1.2233299016952515,0.8084273487522889,-0.42332765163851105,-0.40894855562474897,0.0845304591001774,4.0,0
14.213550567626953,28.95928955078125,-0.9018179178237915,-0.0,-0.0,-1.0,0.14199569985216928,1.0,0
13.777888298034668,28.810094833374023,-1.2719916105270386,-0.0,-0.0,-1.0,0.19484214056174715,1.0,0
13.276555061340332,28.720598220825195,-1.2796162366867065,0.6329825401396936,-0.6595891588167894,-0.4053088272535659,0.25693252301602454,3.0,0
13.46214485168457,28.45755386352539,-1.2065867185592651,-0.0,-0.0,-1.0,0.14805043987086858,1.0,0
15.142086029052734,28.562746047973633,-1.165798306465149,-0.0,-0.0,-1.0,0.1460660175178643,1.0,0
14.807894706726074,28.34469985961914,-1.1204603910446167,-0.0,-0.0,-1.0,0.13682862849528535,1.0,0
12.866308212280273,30.344390869140625,-0.7976664304733276,-0.27449871694844197,0.5372027918499133,-0.7975359645949002,0.18458053649679398,3.0,0
14.667412757873535,28.75240707397461,-0.8467823266983032,-0.0,-0.0,-1.0,0.18489293998954184,2.0,0
14.340981483459473,28.71156883239746,-0.847457766532898,-0.0,-0.0,-1.0,0.21095689065522133,2.0,0
14.701704978942871,28.51041603088379,-0.7965067625045776,-0.0,-0.0,-1.0,0.17723177175051158,2.0,0
14.542325973510742,28.475963592529297,-0.7935250997543335,-0.11394521741873449,0.9268451508462145,-0.3577353124591635,0.2216000467686877,4.0,0
12.907320022583008,30.337108612060547,-0.9541516304016113,-0.0,-0.0,-1.0,0.07105445219672367,1.0,0
13.276605606079102,30.364089965820312,-1.042973279953003,-0.0,-0.0,-1.0,0.09779645203228064,1.0,0
12.914217948913574,30.32306671142578,-1.0089147090911865,0.3381386866871976,-0.07351509700346222,-0.9382205279559965,0.1432194134587301,3.0,0
14.399106979370117,28.967222213745117,-0.8745133876800537,-0.0,-0.0,-1.0,0.19012215186327713,1.0,0
14.496892929077148,28.72967529296875,-0.83902907371521,-0.0,-0.0,-1.0,0.23306383186415927,1.0,0
14.747297286987305,28.63892364501953,-0.8481676578521729,-0.0,-0.0,-1.0,0.1640808926847517,1.0,0
14.670597076416016,28.516986846923828,-0.8164947032928467,-0.0,-0.0,-1.0,0.19345605164608146,2.0,0
14.78853702545166,28.303401947021484,-0.7884600162506104,-0.0,-0.0,-1.0,0.2298680960188299,1.0,0
13.046529769897461,30.292362213134766,-1.2915852069854736,-0.0,-0.0,-1.0,0.0947745625393859,1.0,0
12.902019500732422,30.561111450195312,-0.8561995029449463,-0.0,-0.0,-1.0,0.14953750792600395,1.0,0
13.484938621520996,29.40163803100586,-1.1495692729949951,-0.0,-0.0,-1.0,0.16989654557126257,1.0,0
13.653352737426758,28.95136260986328,-1.0732786655426025,-0.0,-0.0,-1.0,0.1494065537566478,1.0,0
13.641027450561523,28.596025466918945,-0.9974477291107178,-0.0,-0.0,-1.0,0.12732914096589523,1.0,0
14.747262954711914,28.2874755859375,-1.0202102661132812,-0.0,-0.0,-1.0,0.17956283587683303,1.0,0
14.847346305847168,28.43051528930664,-1.3199259042739868,-0.0,-0.0,-1.0,0.218961534176172,2.0,0
14.910820960998535,28.34023666381836,-1.3083161115646362,-0.0,-0.0,-1.0,0.1965446353598797,1.0,0
14.632491111755371,28.339879989624023,-0.8795418739318848,-0.0,-0.0,-1.0,0.2020594260242535,1.0,0
13.799147605895996,29.012178421020508,-0.9790835380554199,-0.9247681526383943,0.3412207814390527,0.16844061915076666,0.1332032485254501,4.0,0
14.06831169128418,28.334157943725586,-1.3834822177886963,-0.0,-0.0,-1.0,0.17355417843229246,1.0,0
14.657286643981934,28.491281509399414,-0.8860816955566406,-0.0,-0.0,-1.0,0.22001689359934318,1.0,0
13.731684684753418,29.07098960876465,-1.0069622993469238,-0.0,-0.0,-1.0,0.1762599363110468,2.0,0
14.436338424682617,28.968109130859375,-0.7009456157684326,0.4791350703559939,-0.3278043735084909,-0.814232078134768,0.17827362059271548,3.0,0
13.67818546295166,28.91811752319336,-1.1564719676971436,-0.0,-0.0,-1.0,0.16242155640315142,1.0,0
14.714228630065918,28.577587127685547,-0.9039602279663086,-0.0,-0.0,-1.0,0.23010994440862448,1.0,0
13.890981674194336,28.997997283935547,-0.9892373085021973,-0.9979725000850427,-0.012551047849557984,0.06239679696817246,0.18696580650941402,3.0,0
13.764740943908691,28.953048706054688,-0.9903793334960938,-0.0,-0.0,-1.0,0.11285586631428604,2.0,0
13.84358024597168,29.044130325317383,-1.2681658267974854,-0.0,-0.0,-1.0,0.15476550731346897,1.0,0
13.960185050964355,28.997169494628906,-1.0837061405181885,-0.0,-0.0,-1.0,0.16293857452284013,2.0,0
13.724536895751953,28.945831298828125,-1.0873119831085205,-0.0,-0.0,-1.0,0.16415915845946996,2.0,0
14.656814575195312,28.369644165039062,-0.8160965442657471,-0.0,-0.0,-1.0,0.25775227111975624,1.0,0
13.848426818847656,28.99072265625,-0.9254181385040283,0.5716825222934789,0.4726143348390178,-0.670682327341968,0.12581315891060035,3.0,0
13.73654842376709,28.99803924560547,-0.9313046932220459,0.08716642949025992,0.9936790738883196,0.07073833251053652,0.15575585518626284,3.0,0
14.439751625061035,28.928728103637695,-0.7763724327087402,-0.5251269681863313,0.7762890569224858,-0.3487362432925911,0.18168110759747505,4.0,0
14.65829086303711,28.57176399230957,-0.724177360534668,-0.0,-0.0,-1.0,0.08032829059129024,2.0,0
14.321688652038574,28.796937942504883,-0.765282392501831,0.7113829059161553,-0.27983590575610684,-0.6446907995465313,0.19480972211391162,4.0,0
14.457914352416992,28.95340347290039,-0.7526645660400391,-0.5251269681863313,0.7762890569224858,-0.3487362432925911,0.17791978716997425,4.0,0
14.654632568359375,28.589765548706055,-0.7357110977172852,-0.0,-0.0,-1.0,0.08155236828355612,2.0,0
14.471214294433594,28.951627731323242,-0.7859907150268555,-0.6195085875037742,0.7309633976071876,-0.28618459316957484,0.1987964425994791,3.0,0
14.310429573059082,28.164913177490234,-0.698958158493042,-0.0,-0.0,-1.0,0.115089219094823,1.0,0
12.893205642700195,30.295547485351562,-1.014331340789795,0.3140456925923025,-0.10594109824147066,-0.9434785565489086,0.05166302822039101,4.0,0
14.61834716796875,28.5284423828125,-0.7676858901977539,-0.0,-0.0,-1.0,0.22251658538158506,2.0,0
13.9312162399292,29.03082275390625,-0.9571943283081055,0.6363934057999259,-0.14906579696311573,-0.7568241679743862,0.2497565407370256,4.0,0
13.182859420776367,30.263769149780273,-1.1299574375152588,-0.0,-0.0,-1.0,0.04742116678870695,1.0,0
14.7095947265625,28.303834915161133,-0.856942892074585,-0.0,-0.0,-1.0,0.16416875880894752,1.0,0
14.007013320922852,28.158401489257812,-0.8381142616271973,-0.0,-0.0,-1.0,0.1598674136401314,1.0,0
13.858062744140625,28.949350357055664,-0.9463586807250977,-0.8544728748712634,0.062046853352772685,-0.5157773687340864,0.11721579421772242,3.0,0
13.678686141967773,28.977933883666992,-0.9510824680328369,-0.0,-0.0,-1.0,0.16942669461647267,2.0,0
14.250556945800781,28.398094177246094,-1.0978584289550781,-0.0,-0.0,-1.0,0.17967099868515585,1.0,0
13.902477264404297,28.997467041015625,-1.197524070739746,-0.0,-0.0,-1.0,0.14357251907068833,1.0,0
13.22347640991211,28.917098999023438,-1.2035722732543945,-0.0,-0.0,-1.0,0.1438736577335365,2.0,0
12.969794273376465,29.37706184387207,-1.281327247619629,-0.0,-0.0,-1.0,0.14098641514307075,2.0,0
14.500223159790039,28.79047203063965,-0.7570016384124756,-0.0,-0.0,-1.0,0.12489701577689355,1.0,0
14.429953575134277,28.833290100097656,-0.7657513618469238,-0.0,-0.0,-1.0,0.2589656094980804,2.0,0
14.359925270080566,29.32411766052246,-0.8419463634490967,-0.0,-0.0,-1.0,0.15348948640014,1.0,0
13.248430252075195,30.3124942779541,-1.0325450897216797,-0.0,-0.0,-1.0,0.07239014447096453,2.0,0
12.897794723510742,30.23252296447754,-1.034783124923706,-0.0,-0.0,-1.0,0.1074217139103683,2.0,0
12.847442626953125,30.421438217163086,-0.9553043842315674,-0.0,-0.0,-1.0,0.11044526456142557,1.0,0
14.161918640136719,29.109100341796875,-1.0312473773956299,-0.0,-0.0,-1.0,0.1805807118589511,2.0,0
14.094625473022461,28.357051849365234,-0.907529354095459,-0.0,-0.0,-1.0,0.12596937727418267,1.0,0
13.79572868347168,29.02480697631836,-1.012714147567749,-0.9247681526383943,0.3412207814390527,0.16844061915076666,0.12096139241621072,4.0,0
13.539264678955078,29.088171005249023,-1.0204534530639648,-0.0,-0.0,-1.0,0.1320101942997628,2.0,0
12.822120666503906,29.298826217651367,-1.0509629249572754,-0.0,-0.0,-1.0,0.21817728241658574,1.0,0
14.573291778564453,28.31543731689453,-0.8930099010467529,-0.9156774883132726,-0.17056336329289995,-0.36392702084141915,0.25487262070610806,4.0,0
14.113506317138672,28.50578498840332,-0.9250729084014893,-0.7425724670914269,-0.252518767902123,-0.620338942010692,0.16417120235681684,5.0,0
14.020468711853027,28.83949089050293,-0.9844951629638672,-0.0,-0.0,-1.0,0.2065521176507017,1.0,0
13.888575553894043,29.037206649780273,-1.0198338031768799,0.32305932878070726,-0.5698078308588331,-0.7556134633393653,0.2036259471892437,3.0,0
13.705244064331055,29.03981590270996,-1.020570993423462,0.244840654245459,0.20593307544067652,-0.9474410918195393,0.19855151587669892,3.0,0
12.849950790405273,29.339204788208008,-1.0790290832519531,-0.0,-0.0,-1.0,0.2008064821291086,1.0,0
12.884923934936523,30.297914505004883,-1.2520489692687988,0.8084273487522889,-0.42332765163851105,-0.40894855562474897,0.08181586612024405,4.0,0
12.945060729980469,30.252443313598633,-1.2691261768341064,-0.0,-0.0,-1.0,0.12264623792140698,1.0,0
14.581490516662598,28.291885375976562,-0.9050586223602295,-0.9156774883132726,-0.17056336329289995,-0.36392702084141915,0.2620496546846831,4.0,0
14.124074935913086,28.495559692382812,-0.93904709815979,-0.7074243828420279,-0.3113034876863799,-0.6345398971813133,0.1698027791573985,5.0,0
13.979944229125977,28.99393081665039,-1.0313782691955566,-0.0,-0.0,-1.0,0.1770232774651101,2.0,0
13.666702270507812,29.018951416015625,-1.0350661277770996,-0.0,-0.0,-1.0,0.1442396933318217,2.0,0
13.515644073486328,29.115060806274414,-1.0529224872589111,-0.0,-0.0,-1.0,0.12196258056887865,2.0,0
14.115887641906738,29.15716552734375,-1.1786251068115234,-0.0,-0.0,-1.0,0.23293098858439568,2.0,0
13.856359481811523,28.974132537841797,-1.1389801502227783,-0.0,-0.0,-1.0,0.1511865476451556,1.0,0
13.55832290649414,29.109561920166016,-1.1642992496490479,-0.0,-0.0,-1.0,0.11065795592505125,2.0,0
13.359204292297363,29.39052963256836,-1.2209830284118652,-0.0,-0.0,-1.0,0.1657076072277497,1.0,0
13.204427719116211,28.95258331298828,-1.1307125091552734,0.1836667790434649,0.5057209631467781,-0.8429192260885346,0.15652719280133812,4.0,0
12.890613555908203,29.36516571044922,-1.2152817249298096,-0.9980131542864669,0.03078441490186637,0.054973299612867794,0.13514517321788014,4.0,0
14.262216567993164,28.537689208984375,-1.0553710460662842,-0.0,-0.0,-1.0,0.1579974239743906,1.0,0
13.280143737792969,28.861080169677734,-1.1122229099273682,-0.0,-0.0,-1.0,0.12447222598825897,2.0,0
14.729576110839844,28.251279830932617,-1.33012056350708,-0.0,-0.0,-1.0,0.15465713037287981,2.0,0
13.631708145141602,28.99661636352539,-1.449239730834961,-0.0,-0.0,-1.0,0.2869080526052295,1.0,0
14.63835334777832,28.399200439453125,-0.7130374908447266,-0.0,-0.0,-1.0,0.11753943712032096,2.0,0
14.547706604003906,28.513072967529297,-0.7310168743133545,-0.2333877479906821,0.7795463552287263,-0.5812380227905317,0.13651006678069622,6.0,0
14.285654067993164,28.870681762695312,-0.7892141342163086,0.3706898211378484,-0.025674297658825014,-0.9284017917607206,0.15901207459939462,4.0,0
14.036995887756348,29.19168472290039,-1.3190803527832031,-0.0,-0.0,-1.0,0.23650611139836036,1.0,0
13.83535385131836,28.9300537109375,-1.2520992755889893,-0.0,-0.0,-1.0,0.12147881311495262,1.0,0
13.527158737182617,29.14348602294922,-1.2783477306365967,-0.0,-0.0,-1.0,0.13852138017211205,1.0,0
13.577299118041992,29.543750762939453,-1.365293025970459,-0.0,-0.0,-1.0,0.18717955388522922,1.0,0
12.87644100189209,30.24072265625,-1.4775254726409912,-0.0,-0.0,-1.0,0.15637848350370348,1.0,0
13.5387544631958,28.915828704833984,-1.2312755584716797,-0.0,-0.0,-1.0,0.26605062267052443,1.0,0
13.040284156799316,29.364704132080078,-1.2987725734710693,-0.0,-0.0,-1.0,0.1685645941061699,1.0,0
12.760330200195312,29.458351135253906,-1.3049383163452148,-0.0,-0.0,-1.0,0.1981791603657896,1.0,0
13.568695068359375,28.82501983642578,-1.2140281200408936,-0.0,-0.0,-1.0,0.1669492368752213,1.0,0
13.155375480651855,28.924911499023438,-1.2116193771362305,-0.0,-0.0,-1.0,0.16130984468584514,1.0,0
13.169708251953125,28.847057342529297,-1.1960020065307617,-0.0,-0.0,-1.0,0.12596184246029896,2.0,0
14.94268798828125,30.129344940185547,-1.5547113418579102,-0.0,-0.0,-1.0,0.09704564621836953,1.0,0
12.835201263427734,30.300189971923828,-1.4389901161193848,-0.0,-0.0,-1.0,0.06687416775066019,2.0,0
14.313714981079102,28.55593490600586,-1.1832196712493896,-0.0,-0.0,-1.0,0.10969981767310445,1.0,0
14.061309814453125,28.903358459472656,-1.2329990863800049,-0.0,-0.0,-1.0,0.21107324644388636,1.0,0
13.781578063964844,28.937084197998047,-1.2180695533752441,-0.0,-0.0,-1.0,0.15851731894283916,1.0,0
13.57493782043457,29.12824058532715,-1.2418558597564697,-0.0,-0.0,-1.0,0.1172244141781566,1.0,0
13.19723892211914,29.381141662597656,-1.267838954925537,-0.0,-0.0,-1.0,0.21652518614089883,1.0,0
13.927104949951172,28.23843002319336,-1.086524486541748,-0.0,-0.0,-1.0,0.1402546704431024,2.0,0
13.46721363067627,28.74378204345703,-1.154283046722412,-0.0,-0.0,-1.0,0.21717893385001885,1.0,0
13.207769393920898,28.87894058227539,-1.1634585857391357,-0.0,-0.0,-1.0,0.14045352689247936,1.0,0
12.891763687133789,29.343730926513672,-1.2396039962768555,-0.9933175548564213,0.05915306840863558,-0.09910171397056508,0.14656463648015589,3.0,0
12.76484489440918,29.41907501220703,-1.2474079132080078,-0.0,-0.0,-1.0,0.19817916036578948,2.0,0
12.88218879699707,30.354137420654297,-0.7965672016143799,-0.27449871694844197,0.5372027918499133,-0.7975359645949002,0.16635009687400434,3.0,0
13.623703002929688,28.894580841064453,-1.4178564548492432,-0.0,-0.0,-1.0,0.21640438525427566,1.0,0
13.883243560791016,28.186058044433594,-1.2837603092193604,-0.0,-0.0,-1.0,0.1529743582536055,1.0,0
13.626283645629883,28.595935821533203,-1.3510117530822754,-0.0,-0.0,-1.0,0.1661702150159636,1.0,0
13.484777450561523,28.812326431274414,-1.3870289325714111,-0.0,-0.0,-1.0,0.1691985669374211,1.0,0
12.834075927734375,29.460071563720703,-1.4812915325164795,-0.0,-0.0,-1.0,0.13339786073563262,1.0,0
13.022774696350098,28.560943603515625,-1.2903814315795898,-0.0,-0.0,-1.0,0.1139948467765071,1.0,0
14.556374549865723,28.35012435913086,-0.7830426692962646,0.3085838821344434,0.915898960216607,0.2567198519027583,0.22209891327904682,3.0,0
14.263495445251465,28.700448989868164,-0.8248224258422852,-0.0,-0.0,-1.0,0.1634227238858505,2.0,0
14.278340339660645,28.882644653320312,-0.8604481220245361,-0.0,-0.0,-1.0,0.19445695878151786,1.0,0
14.111132621765137,29.159000396728516,-0.8999807834625244,-0.0,-0.0,-1.0,0.14158472721542273,2.0,0
13.687027931213379,29.041200637817383,-0.8460402488708496,-0.9077399395844452,0.38057112383730307,-0.17656109929551206,0.18876254914501947,3.0,0
13.121811866760254,30.28662872314453,-1.0510454177856445,-0.0,-0.0,-1.0,0.08334217845035706,1.0,0
12.805166244506836,30.31664276123047,-1.0379564762115479,-0.0,-0.0,-1.0,0.056505154382269246,2.0,0
14.337883949279785,28.209392547607422,-0.7386560440063477,-0.0,-0.0,-1.0,0.12885106004836755,1.0,0
14.223542213439941,28.490943908691406,-1.2942655086517334,-0.0,-0.0,-1.0,0.1696974612608386,1.0,0
14.343657493591309,28.93337631225586,-1.4096224308013916,-0.0,-0.0,-1.0,0.12197397981662099,1.0,0
14.105378150939941,28.96731185913086,-1.3971679210662842,-0.0,-0.0,-1.0,0.21309569180488774,1.0,0
13.952754974365234,28.214460372924805,-1.2046797275543213,-0.0,-0.0,-1.0,0.1815052977347379,1.0,0
13.62051010131836,28.69692611694336,-1.2918283939361572,-0.0,-0.0,-1.0,0.182793332514149,1.0,0
13.74296760559082,28.93425178527832,-1.3591375350952148,-0.0,-0.0,-1.0,0.22439547724393302,1.0,0
13.549590110778809,28.464872360229492,-1.230067491531372,-0.0,-0.0,-1.0,0.12869209294019895,1.0,0
13.192095756530762,28.90697479248047,-1.3098361492156982,-0.0,-0.0,-1.0,0.2076315864817194,1.0,0
13.121710777282715,29.36009979248047,-1.416574478149414,-0.0,-0.0,-1.0,0.15121113580173162,1.0,0
12.935327529907227,29.416728973388672,-1.4180176258087158,-0.0,-0.0,-1.0,0.1018825738714877,2.0,0
12.779413223266602,29.78545379638672,-1.5003407001495361,-0.0,-0.0,-1.0,0.05503326494173511,1.0,0
13.151413917541504,28.50210952758789,-1.2076315879821777,-0.0,-0.0,-1.0,0.13244175989904508,1.0,0
13.084569931030273,28.4896240234375,-1.1995124816894531,-0.0,-0.0,-1.0,0.11339725201490955,1.0,0
14.569231033325195,28.464691162109375,-0.7381813526153564,0.9003144865396945,0.36444646411944215,-0.23793402471610248,0.19021746681372886,3.0,0
14.494891166687012,28.90618133544922,-0.8224496841430664,-0.0,-0.0,-1.0,0.20918483483399097,1.0,0
14.296634674072266,29.447858810424805,-0.9205436706542969,-0.0,-0.0,-1.0,0.14129416013993626,1.0,0
14.28905200958252,28.889163970947266,-0.8045265674591064,0.30887322055982447,-0.6398192588834198,-0.7037248393959629,0.15349035947531278,3.0,0
13.208823204040527,30.331661224365234,-1.0461316108703613,-0.0,-0.0,-1.0,0.07668776975124292,2.0,0
12.86668586730957,30.28912353515625,-1.0207884311676025,0.5698001034757783,0.02472874092747305,-0.8214111829352793,0.05166302822039101,4.0,0
15.11246109008789,30.227691650390625,-1.5846376419067383,-0.0,-0.0,-1.0,0.20773277117230302,1.0,0
14.551542282104492,28.687301635742188,-1.1795356273651123,-0.0,-0.0,-1.0,0.12947282206773392,1.0,0
14.654333114624023,28.302465438842773,-1.1078686714172363,-0.0,-0.0,-1.0,0.21481019530857093,1.0,0
14.35141372680664,28.594928741455078,-1.136110782623291,-0.0,-0.0,-1.0,0.12986316792528352,2.0,0
14.075153350830078,28.978666305541992,-1.1908397674560547,-0.0,-0.0,-1.0,0.23843651902338003,1.0,0
13.754045486450195,28.961227416992188,-1.152878999710083,-0.0,-0.0,-1.0,0.1769703878351585,1.0,0
13.542352676391602,29.07977294921875,-1.1580734252929688,-0.0,-0.0,-1.0,0.11065795592505108,2.0,0
13.354145050048828,29.477373123168945,-1.231764554977417,-0.0,-0.0,-1.0,0.1647879463547792,1.0,0
12.910778045654297,30.357585906982422,-1.4009201526641846,-0.0,-0.0,-1.0,0.19497638410557752,1.0,0
13.28012466430664,29.25479507446289,-1.1727418899536133,-0.0,-0.0,-1.0,0.11076515091694838,1.0,0
13.080018997192383,29.435871124267578,-1.1964433193206787,-0.0,-0.0,-1.0,0.15101770854924196,2.0,0
12.783693313598633,30.22233009338379,-1.357926845550537,-0.0,-0.0,-1.0,0.10077131422106193,1.0,0
12.71471118927002,30.44168472290039,-1.4052200317382812,-0.0,-0.0,-1.0,0.0808016096977162,1.0,0
12.789311408996582,29.45974349975586,-1.1757259368896484,-0.0,-0.0,-1.0,0.10796228730103144,2.0,0
14.48552131652832,28.16973876953125,-1.0588364601135254,-0.0,-0.0,-1.0,0.12104593239480889,1.0,0
14.222612380981445,28.16014862060547,-1.0256049633026123,-0.0,-0.0,-1.0,0.1734448171055149,1.0,0
13.983495712280273,28.441797256469727,-1.060495376586914,-0.0,-0.0,-1.0,0.20295847730683206,2.0,0
13.648693084716797,28.815412521362305,-1.1085293292999268,-0.0,-0.0,-1.0,0.17850705802090666,2.0,0
13.282551765441895,28.870086669921875,-1.0837152004241943,-0.0,-0.0,-1.0,0.12447222598825895,2.0,0
13.198424339294434,28.978740692138672,-1.1005980968475342,-0.0,-0.0,-1.0,0.1714697132104337,2.0,0
12.879472732543945,30.33521270751953,-0.8083796501159668,-0.27449871694844197,0.5372027918499133,-0.7975359645949002,0.17424373262023418,3.0,0
12.841273307800293,29.33513832092285,-1.1507771015167236,-0.0,-0.0,-1.0,0.2399237330630333,1.0,0
13.81165885925293,30.543155670166016,-1.196800947189331,-0.0,-0.0,-1.0,0.09905292065851246,1.0,0
14.610078811645508,28.961986541748047,-0.9159774780273438,-0.0,-0.0,-1.0,0.217068759546554,1.0,0
14.511177062988281,28.23383331298828,-0.7482666969299316,-0.0,-0.0,-1.0,0.17171424297953375,1.0,0
14.500619888305664,28.474811553955078,-0.7988486289978027,-0.0,-0.0,-1.0,0.20911148709639568,2.0,0
14.354976654052734,28.896270751953125,-0.8744418621063232,-0.0,-0.0,-1.0,0.19692508857035276,2.0,0
14.184564590454102,29.036235809326172,-0.8875899314880371,-0.0,-0.0,-1.0,0.15580705572245152,1.0,0
14.016199111938477,28.182849884033203,-0.6824028491973877,-0.0,-0.0,-1.0,0.11196034237424896,1.0,0
13.846744537353516,29.08165740966797,-0.8639051914215088,-0.0,-0.0,-1.0,0.12403109641597912,2.0,0
12.853340148925781,30.242774963378906,-1.0479214191436768,0.3015018474077497,0.09105311248646852,-0.9491079847500178,0.046426659038059676,3.0,0
14.546493530273438,30.48113250732422,-1.5386145114898682,-0.0,-0.0,-1.0,0.12964626034386462,1.0,0
13.782537460327148,30.383073806762695,-1.40693998336792,-0.0,-0.0,-1.0,0.11153881306770838,2.0,0
13.843307495117188,30.46055793762207,-1.4331939220428467,-0.0,-0.0,-1.0,0.12259402389683403,1.0,0
14.831672668457031,28.29850196838379,-1.1185858249664307,-0.0,-0.0,-1.0,0.18979004011608105,1.0,0
14.358448028564453,28.604530334472656,-1.1032304763793945,-0.0,-0.0,-1.0,0.1324335206406088,2.0,0
14.231273651123047,29.024433135986328,-1.1719439029693604,-0.0,-0.0,-1.0,0.22403344934794048,1.0,0
13.910518646240234,28.47116470336914,-1.003122091293335,-0.0,-0.0,-1.0,0.1383321321173308,1.0,0
13.817092895507812,29.014667510986328,-1.1057896614074707,-0.0,-0.0,-1.0,0.13459740377890717,2.0,0
13.566774368286133,29.46216583251953,-1.1674251556396484,-0.0,-0.0,-1.0,0.16221412350751466,1.0,0
13.516973495483398,29.637414932250977,-1.1997179985046387,-0.0,-0.0,-1.0,0.14051365390841666,1.0,0
13.547672271728516,29.06117057800293,-1.0752928256988525,-0.0,-0.0,-1.0,0.11068096844769465,1.0,0
13.422931671142578,29.21483612060547,-1.0911340713500977,-0.0,-0.0,-1.0,0.13644627001790988,1.0,0
13.438226699829102,29.62096405029297,-1.1847357749938965,-0.0,-0.0,-1.0,0.16521954071678785,1.0,0
12.869010925292969,30.26584243774414,-1.256474256515503,0.8084273487522889,-0.42332765163851105,-0.40894855562474897,0.08181586612024407,4.0,0
14.452180862426758,28.884143829345703,-0.6967735290527344,-0.0,-0.0,-1.0,0.14433043669713894,1.0,0
14.42792797088623,28.991592407226562,-0.7153489589691162,0.4791350703559939,-0.3278043735084909,-0.814232078134768,0.1816923648815349,3.0,0
12.796887397766113,30.402353286743164,-0.8277831077575684,-0.9953630146440254,-0.037334376972928,-0.08864882049300389,0.1917699857074201,6.0,0
14.505955696105957,30.119152069091797,-1.3047218322753906,-0.0,-0.0,-1.0,0.1640398306314036,2.0,0
14.495516777038574,30.278911590576172,-1.3402845859527588,-0.0,-0.0,-1.0,0.1710105913035775,1.0,0
14.3775634765625,29.058258056640625,-1.043278694152832,-0.0,-0.0,-1.0,0.09759284936922241,2.0,0
13.147480010986328,30.333148956298828,-1.150200366973877,-0.0,-0.0,-1.0,0.0747953187668559,1.0,0
14.373950004577637,28.81623077392578,-0.9895055294036865,-0.0,-0.0,-1.0,0.19980499326694487,2.0,0
14.322120666503906,28.95315170288086,-1.0107407569885254,-0.0,-0.0,-1.0,0.19073150146128467,1.0,0
14.15488052368164,28.14232635498047,-0.8067617416381836,-0.0,-0.0,-1.0,0.09474129324094052,1.0,0
14.196990966796875,28.597946166992188,-0.9118406772613525,-0.0,-0.0,-1.0,0.15205584652125373,1.0,0
13.925104141235352,28.982547760009766,-0.9511730670928955,0.6363934057999259,-0.14906579696311573,-0.7568241679743862,0.17898517255762153,4.0,0
13.958324432373047,29.465682983398438,-1.0664069652557373,-0.0,-0.0,-1.0,0.185934834747047,1.0,0
13.736839294433594,29.08704948425293,-0.943958044052124,-0.0,-0.0,-1.0,0.1960585023654647,2.0,0
14.44994831085205,30.03955078125,-1.24336576461792,-0.0,-0.0,-1.0,0.13639711683931735,1.0,0
14.442974090576172,30.21768569946289,-1.2806267738342285,-0.0,-0.0,-1.0,0.16349442082970678,1.0,0
14.682561874389648,28.6771183013916,-1.0088181495666504,-0.0,-0.0,-1.0,0.2039293097315269,1.0,0
14.48985767364502,28.45384979248047,-0.9267706871032715,-0.0,-0.0,-1.0,0.18925604980931576,1.0,0
14.418922424316406,28.790468215942383,-0.9787266254425049,-0.0,-0.0,-1.0,0.14225278150684836,1.0,0
14.368029594421387,29.063058853149414,-1.0233142375946045,-0.0,-0.0,-1.0,0.13261054375222175,2.0,0
13.949264526367188,29.011749267578125,-0.9316632747650146,0.6363934057999259,-0.14906579696311573,-0.7568241679743862,0.2066161607264993,4.0,0
14.023427963256836,29.479450225830078,-1.0437357425689697,-0.0,-0.0,-1.0,0.1675460642083607,1.0,0
13.742443084716797,29.100557327270508,-0.9105632305145264,-0.0,-0.0,-1.0,0.20003126371551988,2.0,0
12.827792167663574,30.324230194091797,-1.019134283065796,-0.22015695473882696,0.9673816488990243,-0.12531424760788643,0.04555630308830886,3.0,0
14.593584060668945,28.645862579345703,-0.906134843826294,0.6089322314622788,0.7450824314037617,-0.27212810935261417,0.251164520613885,4.0,0
14.505224227905273,28.429969787597656,-0.8479113578796387,0.6012874587532251,0.18263113562050276,-0.7778812635923646,0.25987837932771235,5.0,0
14.43295669555664,28.873878479003906,-0.9123344421386719,-0.0,-0.0,-1.0,0.2515986728265607,2.0,0
14.300186157226562,29.097576141357422,-0.925112247467041,-0.0,-0.0,-1.0,0.1810870683187804,1.0,0
14.091407775878906,29.143842697143555,-0.8888440132141113,-0.0,-0.0,-1.0,0.1417279210973005,2.0,0
14.248217582702637,28.296207427978516,-0.7665948867797852,-0.0,-0.0,-1.0,0.13107314307449772,1.0,0
12.802327156066895,30.407773971557617,-0.8899986743927002,-0.0,-0.0,-1.0,0.11670910987719224,2.0,0
14.498103141784668,28.43619728088379,-0.8536357879638672,0.5348252942368,0.8041342876431413,-0.25948015739392827,0.25892561193811753,4.0,0
14.577033996582031,28.662052154541016,-0.911759614944458,0.6089322314622788,0.7450824314037617,-0.27212810935261417,0.20204379626540134,4.0,0
14.30353832244873,28.264142990112305,-0.7764122486114502,-0.0,-0.0,-1.0,0.13660575576087777,1.0,0
14.379010200500488,28.847511291503906,-0.8958292007446289,-0.0,-0.0,-1.0,0.19244589490673988,2.0,0
14.296060562133789,29.010772705078125,-0.905040979385376,-0.0,-0.0,-1.0,0.15683896627725094,1.0,0
14.136491775512695,29.109249114990234,-0.8846685886383057,-0.0,-0.0,-1.0,0.12621325390810767,1.0,0
12.831243515014648,30.303619384765625,-0.8264927864074707,-0.0,-0.0,-1.0,0.17297262886295733,2.0,0
12.721433639526367,30.509965896606445,-0.8484981060028076,-0.0,-0.0,-1.0,0.1781904661779102,1.0,0
14.637205123901367,28.439708709716797,-0.7319951057434082,0.9981958869355022,0.00019542665961175764,-0.060041095205426005,0.1318498545823448,3.0,0
14.572063446044922,28.538372039794922,-0.7306087017059326,-0.5836211476908818,0.7890270482133916,-0.19189234782981804,0.15952186350442205,5.0,0
14.417980194091797,28.929656982421875,-0.755190372467041,-0.35890700682138016,0.8024230141637628,-0.4767631139201723,0.18011374274151914,4.0,0
13.507411003112793,29.353710174560547,-1.5365941524505615,-0.0,-0.0,-1.0,0.2022110222939997,1.0,0
13.788482666015625,29.051149368286133,-1.4719016551971436,-0.0,-0.0,-1.0,0.21475135110436083,1.0,0
15.140230178833008,29.701841354370117,-1.666776418685913,-0.0,-0.0,-1.0,0.08506750929173122,1.0,0
13.854762077331543,28.895145416259766,-1.4369852542877197,-0.0,-0.0,-1.0,0.1814203032128778,1.0,0
12.895589828491211,29.38140296936035,-1.1953051090240479,-0.8556635249694605,0.5117025475235945,0.07746247410650396,0.13514517321788017,4.0,0
13.108752250671387,29.333396911621094,-1.1967737674713135,-0.0,-0.0,-1.0,0.20823395059841118,1.0,0
13.156341552734375,28.937057495117188,-1.1179983615875244,-0.0,-0.0,-1.0,0.13704151097256217,2.0,0
