x,y,z,nx,ny,nz,curvature,density,label
11.151237487792969,-19.636653900146484,1.1024012565612793,-0.0,-0.0,-1.0,0.2529070495643259,1.0,2
11.716545104980469,-21.162023544311523,1.410658359527588,-0.0,-0.0,-1.0,0.15962112931322642,1.0,2
11.557878494262695,-20.722904205322266,1.287123203277588,-0.0,-0.0,-1.0,0.15959813524287944,1.0,2
11.537389755249023,-19.406070709228516,1.0856270790100098,-0.0,-0.0,-1.0,0.17444496041715646,1.0,2
11.568142890930176,-19.550006866455078,1.1377959251403809,-0.0,-0.0,-1.0,0.22037787907329437,1.0,2
11.586211204528809,-19.528409957885742,1.014451026916504,-0.0,-0.0,-1.0,0.1884902106944326,1.0,2
12.581071853637695,-20.4898738861084,1.6025538444519043,-0.0,-0.0,-1.0,0.1623988790311652,1.0,2
12.049131393432617,-19.39099884033203,1.2764315605163574,-0.0,-0.0,-1.0,0.128973255786257,2.0,2
11.911531448364258,-19.624340057373047,1.4440546035766602,-0.0,-0.0,-1.0,0.16432225125670352,1.0,2
12.390740394592285,-21.654922485351562,1.6360456943511963,-0.0,-0.0,-1.0,0.19979980628873734,2.0,2
12.698973655700684,-21.661725997924805,1.6315460205078125,-0.0,-0.0,-1.0,0.1703411016323433,1.0,2
12.361418724060059,-21.163124084472656,1.643033742904663,-0.0,-0.0,-1.0,0.18665380265642176,1.0,2
11.269196510314941,-19.727584838867188,1.0668895244598389,-0.0,-0.0,-1.0,0.19970296504410928,1.0,2
11.619399070739746,-21.67266845703125,1.8000595569610596,-0.0,-0.0,-1.0,0.08091862376888373,1.0,2
12.238299369812012,-21.631210327148438,1.7602858543395996,-0.0,-0.0,-1.0,0.13714943296152235,1.0,2
12.550622940063477,-21.638050079345703,1.7392520904541016,-0.0,-0.0,-1.0,0.24902079449226402,1.0,2
12.398155212402344,-21.116390228271484,1.7628659009933472,-0.0,-0.0,-1.0,0.16693596778162054,1.0,2
12.162399291992188,-21.265594482421875,1.1821484565734863,-0.0,-0.0,-1.0,0.08281590466968043,1.0,2
11.499876976013184,-21.073678970336914,1.2837328910827637,-0.0,-0.0,-1.0,0.1644298560649227,1.0,2
11.500086784362793,-20.712697982788086,1.3022472858428955,-0.0,-0.0,-1.0,0.1728582660182455,2.0,2
11.406808853149414,-20.356901168823242,1.3333513736724854,-0.0,-0.0,-1.0,0.13840686601873237,1.0,2
11.675095558166504,-20.299043655395508,1.298964500427246,-0.0,-0.0,-1.0,0.21429844671022774,1.0,2
11.887760162353516,-20.244901657104492,1.2719969749450684,-0.0,-0.0,-1.0,0.21200501535242364,1.0,2
11.783404350280762,-19.888416290283203,1.3045074939727783,-0.0,-0.0,-1.0,0.10088491933746639,1.0,2
11.215432167053223,-19.660497665405273,1.395380973815918,-0.0,-0.0,-1.0,0.2362699439058973,1.0,2
11.776352882385254,-19.711767196655273,1.3143272399902344,-0.0,-0.0,-1.0,0.16799017367419106,1.0,2
11.791574478149414,-19.57700538635254,1.3188982009887695,-0.0,-0.0,-1.0,0.16445073265298527,1.0,2
12.157761573791504,-21.817520141601562,2.0318565368652344,0.4971865267277095,-0.753321470005521,-0.43047917541869274,0.18961223720283604,3.0,3
12.618234634399414,-21.679901123046875,1.9783358573913574,-0.0,-0.0,-1.0,0.20299677042346004,1.0,2
12.352352142333984,-21.550823211669922,2.013408660888672,-0.0,-0.0,-1.0,0.24025565251088588,2.0,3
11.32511043548584,-20.597166061401367,1.2730965614318848,-0.0,-0.0,-1.0,0.11557635343416718,1.0,2
11.522063255310059,-20.278291702270508,1.2853913307189941,-0.0,-0.0,-1.0,0.2414822801414012,1.0,2
11.807413101196289,-20.23373794555664,1.2649548053741455,-0.0,-0.0,-1.0,0.17607711684737318,2.0,2
11.762876510620117,-19.437639236450195,1.3400468826293945,-0.0,-0.0,-1.0,0.140695597103241,1.0,2
11.89939022064209,-19.407262802124023,1.3306262493133545,-0.0,-0.0,-1.0,0.15375209740339305,1.0,2
12.318548202514648,-21.79011344909668,1.939657211303711,-0.0,-0.0,-1.0,0.14660922105901014,1.0,2
12.277663230895996,-21.51203155517578,1.958805799484253,0.7174849788140523,-0.680063103377948,0.150762994796978,0.17972297849900437,3.0,2
12.358312606811523,-20.382396697998047,2.0186028480529785,-0.0,-0.0,-1.0,0.0658991243035748,1.0,3
11.648629188537598,-21.556968688964844,1.4660258293151855,-0.0,-0.0,-1.0,0.08695854738878074,1.0,2
12.439950942993164,-21.5968074798584,1.4489355087280273,-0.0,-0.0,-1.0,0.14067551618604213,1.0,2
12.512946128845215,-20.49469757080078,1.5780506134033203,-0.0,-0.0,-1.0,0.221498766741493,1.0,2
12.678291320800781,-20.474754333496094,1.576838493347168,-0.726886013488281,-0.658394584616526,-0.19532868284700636,0.134475035784915,3.0,2
11.239988327026367,-20.374597549438477,1.1876730918884277,-0.0,-0.0,-1.0,0.11926584512683365,1.0,2
11.606404304504395,-20.183486938476562,1.1629326343536377,-0.0,-0.0,-1.0,0.15498518951794457,1.0,2
11.775259017944336,-20.00419807434082,1.1610448360443115,-0.0,-0.0,-1.0,0.1525765596934192,1.0,2
11.920893669128418,-19.964452743530273,1.1466593742370605,-0.0,-0.0,-1.0,0.24085473497282836,1.0,2
11.225128173828125,-19.573410034179688,1.2778074741363525,-0.0,-0.0,-1.0,0.22629271225923053,1.0,2
11.849469184875488,-19.583173751831055,1.1971912384033203,-0.0,-0.0,-1.0,0.1572014885938623,1.0,2
12.470661163330078,-21.856904983520508,1.7098402976989746,-0.0,-0.0,-1.0,0.11127274692474654,1.0,2
12.486491203308105,-21.460784912109375,1.7380311489105225,-0.0,-0.0,-1.0,0.18366143170023008,2.0,2
12.502222061157227,-21.068105697631836,1.7658724784851074,-0.0,-0.0,-1.0,0.13396193323015065,1.0,2
12.313764572143555,-21.82762336730957,1.31473970413208,-0.0,-0.0,-1.0,0.13461641680536565,1.0,2
11.852005958557129,-21.677478790283203,1.3750295639038086,-0.0,-0.0,-1.0,0.20601488034366536,2.0,2
12.279059410095215,-21.47283172607422,1.3564119338989258,-0.0,-0.0,-1.0,0.10985824073791825,1.0,2
12.356056213378906,-21.454578399658203,1.3508822917938232,-0.0,-0.0,-1.0,0.09614545729477438,1.0,2
12.593610763549805,-21.429420471191406,1.330209732055664,-0.0,-0.0,-1.0,0.2586059584928901,1.0,2
12.311233520507812,-20.618698120117188,1.44508695602417,-0.0,-0.0,-1.0,0.22955337011596302,1.0,2
12.581308364868164,-20.47796630859375,1.4330615997314453,-0.0,-0.0,-1.0,0.23271246813043037,2.0,2
12.668853759765625,-21.700838088989258,2.1098549365997314,-0.0,-0.0,-1.0,0.15371350309458678,1.0,3
12.514070510864258,-21.555892944335938,2.1340279579162598,-0.0,-0.0,-1.0,0.1982856915600151,1.0,3
11.873262405395508,-21.44158172607422,1.4614214897155762,-0.0,-0.0,-1.0,0.10148417197452167,1.0,2
12.013113021850586,-21.541696548461914,1.4427433013916016,-0.0,-0.0,-1.0,0.12054452547052544,1.0,2
11.51996898651123,-21.12344741821289,1.5169148445129395,-0.0,-0.0,-1.0,0.16173646618482174,1.0,2
12.201921463012695,-20.794036865234375,1.534710168838501,-0.0,-0.0,-1.0,0.12795645773928765,1.0,2
12.2439546585083,-20.55277442932129,1.5649023056030273,-0.0,-0.0,-1.0,0.2050730279067997,1.0,2
12.42642593383789,-20.512685775756836,1.5622622966766357,-0.0,-0.0,-1.0,0.16588909038981262,1.0,2
11.807378768920898,-20.21164894104004,1.6281390190124512,-0.0,-0.0,-1.0,0.16732187273496116,1.0,2
12.491058349609375,-20.311880111694336,1.5858097076416016,-0.0,-0.0,-1.0,0.2589324374978934,1.0,2
11.359233856201172,-20.187381744384766,1.648331642150879,-0.0,-0.0,-1.0,0.13213045813339705,1.0,2
12.662290573120117,-19.679107666015625,1.6607613563537598,-0.0,-0.0,-1.0,0.25574940524516676,1.0,2
12.151477813720703,-21.779064178466797,2.2021608352661133,-0.0,-0.0,-1.0,0.15225490788420498,1.0,3
12.467154502868652,-21.734914779663086,2.196815013885498,-0.0,-0.0,-1.0,0.1400258747438206,1.0,3
12.23414421081543,-21.48171043395996,2.229124069213867,-0.0,-0.0,-1.0,0.14534809565506515,1.0,3
12.385607719421387,-21.45109748840332,2.22741436958313,-0.0,-0.0,-1.0,0.17255786265919232,1.0,3
11.610288619995117,-21.686702728271484,1.4883999824523926,-0.0,-0.0,-1.0,0.17361845942557982,1.0,2
12.31641960144043,-21.53990936279297,1.4975566864013672,-0.0,-0.0,-1.0,0.09867926326615316,1.0,2
12.512038230895996,-21.3822021484375,1.5152099132537842,-0.0,-0.0,-1.0,0.168598636466532,2.0,2
12.459665298461914,-20.900362014770508,1.5818290710449219,-0.0,-0.0,-1.0,0.11513383445891484,1.0,2
12.452217102050781,-20.584705352783203,1.624861240386963,-0.0,-0.0,-1.0,0.1286651839602906,1.0,2
11.954126358032227,-21.73515510559082,1.2310590744018555,-0.0,-0.0,-1.0,0.1684934520278921,2.0,2
11.802654266357422,-21.406587600708008,1.2836830615997314,-0.0,-0.0,-1.0,0.11481368461860193,1.0,2
12.678829193115234,-20.537368774414062,1.3848094940185547,-0.0,-0.0,-1.0,0.15660825628921682,1.0,2
11.399576187133789,-20.960529327392578,1.3598153591156006,-0.0,-0.0,-1.0,0.15227674414489928,1.0,2
12.487659454345703,-20.52356719970703,1.3934478759765625,-0.0,-0.0,-1.0,0.23514885362620336,1.0,2
12.623615264892578,-20.33948516845703,1.4156560897827148,-0.0,-0.0,-1.0,0.16308231411565755,1.0,2
11.789815902709961,-20.39457893371582,1.4338042736053467,-0.0,-0.0,-1.0,0.19499583206004137,1.0,2
11.94305419921875,-19.546092987060547,1.554330587387085,-0.0,-0.0,-1.0,0.13144575026767583,1.0,2
12.08819580078125,-19.562847137451172,1.5472633838653564,-0.0,-0.0,-1.0,0.14156147237471386,1.0,2
11.79317855834961,-19.51715660095215,1.5631203651428223,-0.0,-0.0,-1.0,0.18266288397243433,1.0,2
12.357287406921387,-21.51656150817871,2.0324885845184326,-0.0,-0.0,-1.0,0.20821942503812332,2.0,3
12.343851089477539,-20.568037033081055,2.1394686698913574,-0.0,-0.0,-1.0,0.0703735026412934,1.0,3
12.654809951782227,-21.573030471801758,1.3071765899658203,-0.0,-0.0,-1.0,0.2268543800744072,1.0,2
12.273494720458984,-21.597261428833008,1.3455431461334229,-0.0,-0.0,-1.0,0.10938344440886538,1.0,2
12.445600509643555,-21.363447189331055,1.3561196327209473,-0.0,-0.0,-1.0,0.20418406050705593,1.0,2
12.638994216918945,-20.68745994567871,1.4184722900390625,-0.3632113885672946,-0.5241583539126287,-0.7702827449960316,0.21102673234790395,3.0,2
12.268625259399414,-20.669523239135742,1.461733102798462,-0.0,-0.0,-1.0,0.17372681511713872,1.0,2
12.69003677368164,-20.46454429626465,1.440152645111084,-0.0,-0.0,-1.0,0.1458248569252179,1.0,2
12.453636169433594,-20.532445907592773,1.458378553390503,-0.0,-0.0,-1.0,0.28363753050956225,1.0,2
12.446979522705078,-20.246543884277344,1.4944806098937988,-0.0,-0.0,-1.0,0.12449385801543736,1.0,2
12.576125144958496,-21.66229248046875,2.0957069396972656,-0.0,-0.0,-1.0,0.18734963394414675,1.0,3
12.327816009521484,-21.598283767700195,2.125978469848633,-0.0,-0.0,-1.0,0.21246750527842106,1.0,3
12.698909759521484,-20.66961097717285,1.3269109725952148,-0.0,-0.0,-1.0,0.15643453332002147,1.0,2
12.68948745727539,-20.469125747680664,1.3561506271362305,-0.0,-0.0,-1.0,0.11237031452721596,1.0,2
12.415203094482422,-20.421892166137695,1.3656847476959229,-0.0,-0.0,-1.0,0.23353889976854023,1.0,2
12.575634956359863,-20.301910400390625,1.3816328048706055,-0.0,-0.0,-1.0,0.19411711650532099,1.0,2
11.475234985351562,-20.375654220581055,1.375004529953003,-0.0,-0.0,-1.0,0.1739669777464462,1.0,2
11.828920364379883,-19.541339874267578,1.4976184368133545,-0.0,-0.0,-1.0,0.20641897891982144,1.0,2
12.08299732208252,-19.56620979309082,1.4928479194641113,-0.0,-0.0,-1.0,0.14616316612101507,2.0,2
11.37683391571045,-19.589359283447266,1.4585397243499756,-0.0,-0.0,-1.0,0.22006713133662528,1.0,2
12.484933853149414,-19.385971069335938,1.3201686143875122,-0.0,-0.0,-1.0,0.16674305683856616,1.0,2
12.669534683227539,-20.523950576782227,2.035729169845581,-0.0,-0.0,-1.0,0.0765266910367838,2.0,3
12.042719841003418,-19.447553634643555,1.4186139106750488,-0.0,-0.0,-1.0,0.2166629821397165,2.0,2
12.19550895690918,-19.510610580444336,1.4081296920776367,-0.0,-0.0,-1.0,0.218226617809241,1.0,2
12.054759979248047,-20.30326271057129,1.3292524814605713,-0.0,-0.0,-1.0,0.13544800374009064,1.0,2
12.495820999145508,-21.498783111572266,1.4543516635894775,-0.0,-0.0,-1.0,0.19613974154363506,1.0,2
12.645462036132812,-21.387008666992188,1.449263572692871,-0.0,-0.0,-1.0,0.16708233242213333,1.0,2
12.07681941986084,-19.43252944946289,1.481539249420166,-0.0,-0.0,-1.0,0.1841871652045538,2.0,2
12.180416107177734,-19.546470642089844,1.4775865077972412,-0.0,-0.0,-1.0,0.13911520487468307,2.0,2
12.178243637084961,-19.810924530029297,1.4736262559890747,-0.0,-0.0,-1.0,0.13465210874815184,1.0,2
12.196141242980957,-19.487144470214844,1.338874101638794,-0.0,-0.0,-1.0,0.17549043935918163,1.0,2
11.57548713684082,-21.360654830932617,1.7992022037506104,-0.0,-0.0,-1.0,0.07278323162581996,1.0,2
11.910038948059082,-21.852174758911133,1.7832326889038086,-0.0,-0.0,-1.0,0.04407055794499086,1.0,2
12.190923690795898,-21.835111618041992,2.1024394035339355,-0.0,-0.0,-1.0,0.1302580976456257,1.0,3
11.97514533996582,-21.81696319580078,1.9405896663665771,-0.0,-0.0,-1.0,0.09120701651802984,2.0,2
12.693109512329102,-21.220584869384766,1.7339566946029663,-0.0,-0.0,-1.0,0.07745519511811687,1.0,2
12.650344848632812,-20.455202102661133,2.001923084259033,-0.43278276016969586,0.10222500086296857,-0.8956836113820916,0.0765266910367838,9.0,3
12.603982925415039,-21.354909896850586,1.521233081817627,-0.0,-0.0,-1.0,0.0857671862178812,2.0,2
12.465791702270508,-21.671974182128906,2.1964237689971924,-0.0,-0.0,-1.0,0.1342904936521512,1.0,3
12.42293930053711,-21.43231773376465,2.0107192993164062,-0.0,-0.0,-1.0,0.1992798178745009,2.0,3
12.62177848815918,-20.445541381835938,2.0007283687591553,-0.044568692314483196,-0.25351310184119014,-0.9663046822096208,0.0765266910367838,8.0,3
12.430282592773438,-21.45751190185547,1.9374725818634033,-0.0,-0.0,-1.0,0.20505997139058363,1.0,2
12.110679626464844,-19.501054763793945,1.4722366333007812,0.026632311521862892,0.22179006738538953,-0.9747306735669024,0.1838790530034405,4.0,2
12.378480911254883,-20.71307945251465,1.4477224349975586,-0.0,-0.0,-1.0,0.21078622655194704,2.0,2
11.718673706054688,-21.595205307006836,1.4455478191375732,-0.0,-0.0,-1.0,0.09315437288785339,2.0,2
12.295900344848633,-21.155956268310547,1.8556137084960938,-0.0,-0.0,-1.0,0.1398658616393513,1.0,2
12.627302169799805,-21.441612243652344,1.852027416229248,-0.0,-0.0,-1.0,0.16982846859608397,1.0,2
12.182941436767578,-21.63719940185547,1.8613295555114746,-0.0,-0.0,-1.0,0.16790087213940866,1.0,2
12.673017501831055,-21.804386138916016,1.854110836982727,-0.47417968999086885,-0.7914012538457901,-0.3857948638998129,0.13912373981878356,3.0,2
12.685317993164062,-20.4637451171875,1.987670660018921,0.42000020576518443,0.6532743826156414,-0.6299463534106343,0.07652669103678375,4.0,2
12.605340957641602,-21.34600257873535,1.9997649192810059,-0.0,-0.0,-1.0,0.27763238009434443,2.0,2
11.701667785644531,-21.739242553710938,2.02428936958313,-0.0,-0.0,-1.0,0.1443935371074216,2.0,3
12.18646240234375,-21.788497924804688,2.0142171382904053,-0.0,-0.0,-1.0,0.22558807393619065,2.0,3
12.521352767944336,-21.492393493652344,1.8531758785247803,0.04040662542764136,-0.5686436706705286,-0.821590944709043,0.20199564584741939,3.0,2
11.63180923461914,-21.638643264770508,1.884057879447937,-0.0,-0.0,-1.0,0.15839488939005952,1.0,2
12.686477661132812,-20.254884719848633,1.4613145589828491,-0.0,-0.0,-1.0,0.08870987445220055,1.0,2
11.650566101074219,-21.703989028930664,1.9518452882766724,-0.0,-0.0,-1.0,0.2041500649812156,1.0,2
12.559911727905273,-21.474842071533203,1.9095680713653564,-0.9803855014602588,-0.14338000715426585,-0.13522737176681143,0.24022420270723993,3.0,2
12.484176635742188,-21.48716926574707,1.7634800672531128,-0.0,-0.0,-1.0,0.1888941022876128,2.0,2
12.577445983886719,-21.230140686035156,1.638313889503479,-0.0,-0.0,-1.0,0.10352194709997942,1.0,2
12.439138412475586,-21.500652313232422,1.640296220779419,-0.0,-0.0,-1.0,0.2237967838410059,1.0,2
11.420368194580078,-19.40865707397461,0.8095301389694214,-0.0,-0.0,-1.0,0.1729816537647659,1.0,1
12.631349563598633,-20.322114944458008,1.8077566623687744,-0.0,-0.0,-1.0,0.05655277779611996,1.0,2
12.5513916015625,-21.175012588500977,1.936861515045166,-0.0,-0.0,-1.0,0.12606491061281425,1.0,2
12.423587799072266,-21.38399314880371,1.945113182067871,-0.0,-0.0,-1.0,0.18405793474951387,1.0,2
12.17789077758789,-21.80013656616211,1.9613953828811646,0.3956364459164819,-0.8480832140302299,0.3524580325978255,0.17317078287921972,3.0,2
11.776834487915039,-21.452707290649414,1.959193229675293,-0.0,-0.0,-1.0,0.06626716853990888,1.0,2
12.075824737548828,-19.598649978637695,1.3919390439987183,-0.0,-0.0,-1.0,0.12749494389007313,2.0,2
12.143010139465332,-19.391483306884766,1.3731303215026855,-0.0,-0.0,-1.0,0.1523336233255591,2.0,2
12.262462615966797,-19.43060302734375,1.3682602643966675,-0.0,-0.0,-1.0,0.16951890513493825,1.0,2
11.924612045288086,-19.373783111572266,1.3682533502578735,-0.0,-0.0,-1.0,0.11511932326734778,1.0,2
12.571152687072754,-19.36941146850586,1.2739882469177246,-0.0,-0.0,-1.0,0.19522590617327631,1.0,2
12.419858932495117,-21.656291961669922,1.8964784145355225,-0.0,-0.0,-1.0,0.1983506165704339,1.0,2
12.574604034423828,-21.714954376220703,2.071772813796997,-0.0,-0.0,-1.0,0.15353652583387348,2.0,3
12.572299003601074,-19.509159088134766,1.2002846002578735,-0.0,-0.0,-1.0,0.19394027678007,1.0,2
12.471125602722168,-21.46033477783203,2.102208137512207,-0.0,-0.0,-1.0,0.20875401241170363,1.0,3
12.702231407165527,-21.65618133544922,2.0927016735076904,-0.0,-0.0,-1.0,0.17911625988643337,1.0,3
11.718243598937988,-21.852279663085938,1.9578689336776733,-0.0,-0.0,-1.0,0.1637764400150598,1.0,2
12.112068176269531,-21.73641586303711,1.94674551486969,-0.0,-0.0,-1.0,0.24389174193538501,1.0,2
12.608336448669434,-21.641658782958984,1.9335896968841553,-0.0,-0.0,-1.0,0.19236110358886438,1.0,2
12.579919815063477,-21.765193939208984,2.0246574878692627,-0.0,-0.0,-1.0,0.1482532672594096,1.0,3
12.44182014465332,-21.506486892700195,1.9808332920074463,-0.0,-0.0,-1.0,0.20416419182260515,2.0,2
12.52202320098877,-21.691978454589844,1.9753369092941284,-0.0,-0.0,-1.0,0.16461448667477532,2.0,2
12.38845443725586,-21.836454391479492,2.096749782562256,-0.0,-0.0,-1.0,0.11469936530475004,2.0,3
12.553301811218262,-20.473909378051758,2.084695816040039,-0.0,-0.0,-1.0,0.07037350264129345,1.0,3
12.592791557312012,-21.731903076171875,2.082533836364746,-0.0,-0.0,-1.0,0.15353652583387348,2.0,3
12.030210494995117,-21.814102172851562,2.075117826461792,-0.0,-0.0,-1.0,0.11783097007044074,1.0,3
12.311193466186523,-21.49048614501953,2.0575337409973145,-0.0,-0.0,-1.0,0.1526056725725556,2.0,3
12.59267807006836,-20.468812942504883,2.0420479774475098,-0.8672406341959616,-0.3823546145319654,-0.3189022281914922,0.07652669103678383,4.0,3
12.633264541625977,-21.619945526123047,2.035784959793091,-0.5219109377528133,0.21507063052545944,-0.8254414557916028,0.17894875888691936,3.0,3
12.106931686401367,-21.58941650390625,1.9553349018096924,-0.0,-0.0,-1.0,0.09791281766750409,1.0,2
12.48596477508545,-21.365999221801758,1.9452301263809204,-0.0,-0.0,-1.0,0.2339233820306687,1.0,2
12.588874816894531,-21.853769302368164,1.9341709613800049,-0.0,-0.0,-1.0,0.13945148564373713,1.0,2
12.630217552185059,-21.491430282592773,2.0540852546691895,-0.0,-0.0,-1.0,0.17067556358867303,2.0,3
12.640406608581543,-21.539043426513672,1.720545768737793,-0.0,-0.0,-1.0,0.12222337512244542,1.0,2
12.586797714233398,-21.70763397216797,1.6660035848617554,-0.0,-0.0,-1.0,0.2074608001782266,1.0,2
12.576446533203125,-21.261489868164062,1.252048373222351,-0.0,-0.0,-1.0,0.14930279731635063,1.0,2
11.713886260986328,-21.729473114013672,2.001368522644043,-0.0,-0.0,-1.0,0.1443935371074216,2.0,3
12.414412498474121,-21.472915649414062,1.9883456230163574,0.27589346413138166,0.4188340765469072,-0.8651362972229781,0.1714243889122593,3.0,2
12.519878387451172,-21.82784652709961,1.9822272062301636,-0.0,-0.0,-1.0,0.20383394130356539,2.0,2
12.65676498413086,-20.41370964050293,1.9938545227050781,0.03231420810783345,-0.25301276578437776,-0.9669231263676049,0.07652669103678383,4.0,2
12.610305786132812,-21.352022171020508,1.9851993322372437,-0.0,-0.0,-1.0,0.27763238009434443,2.0,2
12.041032791137695,-19.397518157958984,1.4015272855758667,-0.0,-0.0,-1.0,0.21666298213971652,1.0,2
12.38143253326416,-21.40587615966797,1.328216791152954,-0.0,-0.0,-1.0,0.13210182968742645,1.0,2
12.420425415039062,-21.387083053588867,2.043978214263916,-0.0,-0.0,-1.0,0.18634606972907625,1.0,3
12.600507736206055,-20.481996536254883,2.0497260093688965,-0.8672406341959616,-0.3823546145319654,-0.3189022281914922,0.07037350264129348,4.0,3
12.62924575805664,-21.630897521972656,2.0354723930358887,-0.0,-0.0,-1.0,0.17894875888691936,2.0,3
11.963324546813965,-21.83359146118164,1.8945332765579224,-0.0,-0.0,-1.0,0.09135819092280943,2.0,2
12.55556583404541,-21.6684513092041,1.8865371942520142,-0.0,-0.0,-1.0,0.21994091561021703,1.0,2
12.052882194519043,-19.464923858642578,1.3967163562774658,-0.0,-0.0,-1.0,0.23602204894108716,2.0,2
12.398249626159668,-19.418964385986328,1.3964804410934448,-0.0,-0.0,-1.0,0.14892284168862738,1.0,2
12.667318344116211,-20.35848617553711,1.3466405868530273,-0.0,-0.0,-1.0,0.12171652941314784,1.0,2
12.589029312133789,-21.355377197265625,1.2952183485031128,-0.0,-0.0,-1.0,0.19083775818846047,1.0,2
12.258390426635742,-21.534013748168945,1.9513680934906006,0.7174849788140523,-0.680063103377948,0.150762994796978,0.2057435259274955,3.0,2
12.564390182495117,-21.41452407836914,1.943962812423706,-0.0,-0.0,-1.0,0.25266926477807045,2.0,2
12.609421730041504,-21.72456169128418,1.9372297525405884,-0.0,-0.0,-1.0,0.17644913688270772,1.0,2
12.588346481323242,-21.147178649902344,1.7397360801696777,-0.0,-0.0,-1.0,0.11674149000999952,1.0,2
12.30231761932373,-21.754661560058594,1.7318497896194458,-0.0,-0.0,-1.0,0.18190075747809056,1.0,2
12.473111152648926,-21.765453338623047,1.7305766344070435,-0.0,-0.0,-1.0,0.1688132802939114,1.0,2
12.2791748046875,-21.823904037475586,1.7640398740768433,-0.0,-0.0,-1.0,0.12656513490861018,1.0,2
12.075919151306152,-21.84628677368164,1.768258810043335,-0.0,-0.0,-1.0,0.20202267705053495,1.0,2
12.700380325317383,-20.2664794921875,1.2093724012374878,-0.0,-0.0,-1.0,0.16351331111214246,1.0,2
12.695587158203125,-21.528545379638672,2.229813575744629,-0.0,-0.0,-1.0,0.1254505872979546,1.0,3
12.5425386428833,-21.403091430664062,1.6102423667907715,-0.0,-0.0,-1.0,0.09716393291318613,1.0,2
12.59058666229248,-20.52716827392578,2.132056474685669,-0.0,-0.0,-1.0,0.0703735026412935,1.0,3
12.547582626342773,-21.326269149780273,2.124232530593872,-0.0,-0.0,-1.0,0.22911897401451464,1.0,3
11.630231857299805,-21.621776580810547,1.4713902473449707,-0.0,-0.0,-1.0,0.10121426727389103,1.0,2
12.612410545349121,-20.531902313232422,1.525036096572876,-0.0,-0.0,-1.0,0.21395188718915684,1.0,2
12.580098152160645,-21.07217788696289,1.4924061298370361,-0.0,-0.0,-1.0,0.08450912050451215,1.0,2
11.724957466125488,-21.802474975585938,1.458956241607666,-0.0,-0.0,-1.0,0.15219251536171458,1.0,2
12.55444622039795,-21.469829559326172,1.4679901599884033,-0.0,-0.0,-1.0,0.2055872151788869,1.0,2
12.598541259765625,-20.428485870361328,1.9831695556640625,0.046424712038151635,-0.685135289439916,-0.7269349223116586,0.07652669103678382,3.0,2
12.251352310180664,-21.541114807128906,1.9528311491012573,0.7174849788140523,-0.680063103377948,0.150762994796978,0.2057435259274955,3.0,2
12.51960563659668,-21.489160537719727,1.9438257217407227,-0.0,-0.0,-1.0,0.2681444842568644,2.0,2
11.563445091247559,-21.533565521240234,1.4271199703216553,-0.0,-0.0,-1.0,0.17471857699580604,1.0,2
12.667657852172852,-20.472822189331055,1.5094759464263916,-0.0,-0.0,-1.0,0.18229222816325652,1.0,2
12.530838966369629,-20.61343002319336,1.4987854957580566,-0.0,-0.0,-1.0,0.2348296148908135,1.0,2
11.725187301635742,-21.636842727661133,1.4242961406707764,-0.0,-0.0,-1.0,0.14021902369539332,2.0,2
12.542764663696289,-21.121728897094727,1.469911813735962,-0.0,-0.0,-1.0,0.14057465901909452,1.0,2
12.115179061889648,-21.76097297668457,1.42418372631073,-0.0,-0.0,-1.0,0.08904262821221685,1.0,2
11.761931419372559,-21.30278968811035,1.9023973941802979,-0.0,-0.0,-1.0,0.09935631083089483,1.0,2
11.58530330657959,-21.5330753326416,1.895398497581482,-0.0,-0.0,-1.0,0.10267292986007787,1.0,2
12.183008193969727,-21.173683166503906,1.9034583568572998,-0.0,-0.0,-1.0,0.07967145273116241,1.0,2
11.665685653686523,-21.76508903503418,1.885908603668213,-0.0,-0.0,-1.0,0.12173151794686313,1.0,2
12.509721755981445,-21.31763458251953,1.8949084281921387,-0.0,-0.0,-1.0,0.19450207128528846,1.0,2
12.35322093963623,-21.48653221130371,1.8899081945419312,-0.0,-0.0,-1.0,0.19364529215933582,1.0,2
12.066898345947266,-21.851057052612305,1.8786327838897705,-0.0,-0.0,-1.0,0.1718733971664343,1.0,2
11.276568412780762,-19.49831199645996,1.2025641202926636,-0.0,-0.0,-1.0,0.2922781388543711,1.0,2
12.365311622619629,-20.346851348876953,1.2071882486343384,-0.0,-0.0,-1.0,0.14062423458559944,2.0,2
12.33255386352539,-20.4942684173584,1.5916963815689087,-0.0,-0.0,-1.0,0.1819670301896273,1.0,2
12.605642318725586,-21.184993743896484,1.5545979738235474,-0.0,-0.0,-1.0,0.10866450669252624,1.0,2
12.531769752502441,-21.527191162109375,1.530148983001709,-0.0,-0.0,-1.0,0.23791214436373084,1.0,2
11.675440788269043,-21.607421875,1.941601276397705,-0.0,-0.0,-1.0,0.13075918317676072,1.0,2
11.677986145019531,-21.79096031188965,1.9331471920013428,-0.0,-0.0,-1.0,0.15185806617684436,1.0,2
12.641002655029297,-20.432308197021484,1.9894838333129883,0.1804785977750743,-0.020331955579459514,-0.9833687443311678,0.07652669103678378,6.0,2
12.637372016906738,-20.4813175201416,1.98734450340271,-0.5927328866816386,0.08892268041941205,-0.8004751601099681,0.07652669103678383,7.0,2
12.555895805358887,-21.478225708007812,1.9422707557678223,-0.5580970316839321,-0.2191886496207882,-0.8003024672603473,0.2949131995821434,4.0,2
12.429509162902832,-21.843017578125,1.9257757663726807,-0.0,-0.0,-1.0,0.1322276269474024,1.0,2
11.173827171325684,-19.364360809326172,1.199832797050476,-0.0,-0.0,-1.0,0.2855610497335319,1.0,2
12.361539840698242,-20.316497802734375,1.2192856073379517,-0.0,-0.0,-1.0,0.1369484458593406,2.0,2
12.643292427062988,-20.37932586669922,1.2331546545028687,-0.0,-0.0,-1.0,0.15622640524346515,1.0,2
11.552165985107422,-21.551284790039062,1.4907160997390747,-0.0,-0.0,-1.0,0.14471361280011455,1.0,2
12.383919715881348,-20.44581413269043,1.59153413772583,-0.0,-0.0,-1.0,0.18119949970908333,1.0,2
12.359057426452637,-20.6707706451416,1.5763275623321533,-0.0,-0.0,-1.0,0.16394644719162016,1.0,2
11.8296537399292,-21.82147789001465,1.4806638956069946,0.4029792532208322,0.8681199557555624,-0.2897852030255176,0.1638416865866319,3.0,2
12.662854194641113,-20.464624404907227,1.6001404523849487,-0.0,-0.0,-1.0,0.200616793573607,2.0,2
12.589689254760742,-20.76116180419922,1.578244686126709,-0.0,-0.0,-1.0,0.15780833517890092,1.0,2
12.584162712097168,-21.355375289916992,1.5369987487792969,-0.0,-0.0,-1.0,0.08248339968882301,2.0,2
12.221219062805176,-21.225618362426758,1.9323546886444092,-0.0,-0.0,-1.0,0.07968241685451725,1.0,2
12.152505874633789,-21.548107147216797,1.915641188621521,-0.0,-0.0,-1.0,0.18152351870274977,1.0,2
12.663630485534668,-20.478967666625977,1.9704463481903076,-0.24464072542224627,0.7048333676077221,-0.6658534668916538,0.07652669103678383,4.0,2
12.570688247680664,-21.38353729248047,1.9247517585754395,-0.0,-0.0,-1.0,0.2707421202353794,2.0,2
12.591984748840332,-21.52645492553711,1.9171643257141113,-0.0,-0.0,-1.0,0.2252648449973306,2.0,2
11.616341590881348,-19.658536911010742,1.2678916454315186,-0.0,-0.0,-1.0,0.24429614288034807,1.0,2
11.942780494689941,-20.5399169921875,1.248288869857788,-0.0,-0.0,-1.0,0.10395988473517753,1.0,2
11.903258323669434,-20.847970962524414,1.2215245962142944,-0.0,-0.0,-1.0,0.05862694342050694,1.0,2
12.375957489013672,-20.67405128479004,1.2827385663986206,-0.0,-0.0,-1.0,0.22282255661268693,1.0,2
11.888317108154297,-21.823261260986328,1.549024224281311,-0.0,-0.0,-1.0,0.10212350869443981,1.0,2
12.62434196472168,-20.138320922851562,1.347428560256958,-0.0,-0.0,-1.0,0.1839114268615445,1.0,2
12.65729808807373,-21.74457550048828,1.6024057865142822,-0.0,-0.0,-1.0,0.12151650758137625,1.0,2
12.473289489746094,-21.822460174560547,1.9758431911468506,-0.0,-0.0,-1.0,0.19269788209022815,2.0,2
11.36941909790039,-20.888126373291016,1.2889246940612793,-0.0,-0.0,-1.0,0.16150797364152214,1.0,2
11.600481033325195,-21.32669448852539,1.2974767684936523,-0.0,-0.0,-1.0,0.1974996853142744,1.0,2
11.74020004272461,-21.744102478027344,1.2929763793945312,-0.0,-0.0,-1.0,0.1894794017693535,1.0,2
11.643195152282715,-21.08740234375,1.3127145767211914,-0.0,-0.0,-1.0,0.15172460612870564,1.0,2
11.837564468383789,-21.30345916748047,1.325326681137085,-0.0,-0.0,-1.0,0.13715216277296816,1.0,2
11.885196685791016,-21.69271469116211,1.3113906383514404,-0.0,-0.0,-1.0,0.21701938074273863,1.0,2
12.357330322265625,-20.66161346435547,1.4122235774993896,-0.0,-0.0,-1.0,0.19072869282677987,1.0,2
12.31930923461914,-19.518795013427734,1.261820912361145,-0.0,-0.0,-1.0,0.22366053815523396,2.0,2
12.27415657043457,-19.843515396118164,1.429551601409912,-0.0,-0.0,-1.0,0.15624661673436083,1.0,2
12.34349536895752,-20.39007568359375,1.420872688293457,-0.0,-0.0,-1.0,0.2061024791878784,1.0,2
12.385379791259766,-20.72772216796875,1.4127719402313232,-0.0,-0.0,-1.0,0.20056203716225215,2.0,2
12.706680297851562,-21.005964279174805,1.4368534088134766,-0.0,-0.0,-1.0,0.0405300950792538,1.0,2
12.561777114868164,-21.746841430664062,1.7686727046966553,-0.0,-0.0,-1.0,0.2118794020763718,1.0,2
12.619775772094727,-20.512176513671875,1.4484586715698242,-0.0,-0.0,-1.0,0.19969234089481763,2.0,2
11.715065956115723,-21.779369354248047,1.3886853456497192,-0.0,-0.0,-1.0,0.1658925726397877,1.0,2
11.585692405700684,-21.16018295288086,1.3822729587554932,-0.0,-0.0,-1.0,0.2471361917014636,1.0,2
11.763833999633789,-21.49932861328125,1.398056149482727,-0.0,-0.0,-1.0,0.10877127830358756,1.0,2
12.208541870117188,-20.501314163208008,1.4547196626663208,-0.0,-0.0,-1.0,0.14926987096049404,1.0,2
12.168245315551758,-19.72275733947754,1.4459552764892578,-0.0,-0.0,-1.0,0.0875667272216931,2.0,2
12.320392608642578,-19.869165420532227,1.465117335319519,-0.0,-0.0,-1.0,0.163589424621498,2.0,2
12.534928321838379,-21.543354034423828,1.8654115200042725,-0.0,-0.0,-1.0,0.2185673350994788,2.0,2
11.651278495788574,-21.701990127563477,1.431032657623291,-0.0,-0.0,-1.0,0.1812409384751617,1.0,2
11.558967590332031,-21.336013793945312,1.41511070728302,-0.0,-0.0,-1.0,0.20540839706184327,1.0,2
11.797834396362305,-21.817384719848633,1.4486775398254395,-0.0,-0.0,-1.0,0.1696841290479595,2.0,2
11.853166580200195,-21.840946197509766,1.4550392627716064,-0.0,-0.0,-1.0,0.163841686586632,2.0,2
11.538594245910645,-20.671903610229492,1.3984417915344238,-0.0,-0.0,-1.0,0.15353445339003327,1.0,2
12.674880981445312,-21.402040481567383,1.5410867929458618,-0.0,-0.0,-1.0,0.11587379830282933,1.0,2
12.352448463439941,-19.8660888671875,1.4702682495117188,-0.0,-0.0,-1.0,0.1657901458378532,2.0,2
12.081220626831055,-21.624784469604492,1.887670874595642,-0.0,-0.0,-1.0,0.17214576551827893,1.0,2
12.392205238342285,-21.581701278686523,1.9109078645706177,-0.0,-0.0,-1.0,0.2176373701950441,1.0,2
12.647584915161133,-21.80739974975586,1.9357117414474487,-0.0,-0.0,-1.0,0.1404855324955137,1.0,2
11.904168128967285,-21.815866470336914,1.3224390745162964,-0.0,-0.0,-1.0,0.20611444530337086,1.0,2
11.416824340820312,-20.981019973754883,1.2464582920074463,-0.0,-0.0,-1.0,0.14294143654303515,2.0,2
12.099853515625,-21.561214447021484,1.3433952331542969,-0.0,-0.0,-1.0,0.1090354552876834,1.0,2
12.064471244812012,-20.814727783203125,1.3252379894256592,-0.0,-0.0,-1.0,0.08319945755143844,2.0,2
11.924482345581055,-20.524179458618164,1.2999904155731201,-0.0,-0.0,-1.0,0.11908087571217592,1.0,2
12.362617492675781,-20.393461227416992,1.3528380393981934,-0.0,-0.0,-1.0,0.24050631204251618,1.0,2
12.557039260864258,-21.763931274414062,1.6476346254348755,-0.0,-0.0,-1.0,0.1268018298793698,1.0,2
12.622480392456055,-21.773876190185547,1.7867628335952759,-0.0,-0.0,-1.0,0.18955720562927866,1.0,2
12.24125862121582,-20.11077308654785,1.2529206275939941,-0.0,-0.0,-1.0,0.24146996744194907,1.0,2
12.674493789672852,-21.58228874206543,2.0581395626068115,-0.0,-0.0,-1.0,0.16386291316883056,1.0,3
11.515554428100586,-21.100561141967773,1.419156551361084,-0.0,-0.0,-1.0,0.14644261972890266,1.0,2
12.252204895019531,-19.969924926757812,1.4126060009002686,-0.0,-0.0,-1.0,0.22729697260867865,2.0,2
12.70866584777832,-21.409921646118164,1.9964077472686768,-0.0,-0.0,-1.0,0.10762427996541098,1.0,2
11.952730178833008,-19.603591918945312,1.5669840574264526,-0.0,-0.0,-1.0,0.12038607109754443,1.0,2
12.593282699584961,-21.131637573242188,1.6385403871536255,-0.0,-0.0,-1.0,0.10097542547499902,1.0,2
12.65475082397461,-19.392431259155273,1.415310025215149,-0.0,-0.0,-1.0,0.21211030435040376,1.0,2
12.190114974975586,-19.844806671142578,1.377498745918274,-0.0,-0.0,-1.0,0.16332864428864732,1.0,2
12.052675247192383,-20.151065826416016,1.3646467924118042,-0.0,-0.0,-1.0,0.13309006473555726,1.0,2
12.678596496582031,-20.69864273071289,1.4074082374572754,-0.0,-0.0,-1.0,0.17209920104096346,2.0,2
12.689634323120117,-20.487106323242188,2.0475566387176514,0.5299923134086759,0.1257891286270958,-0.8386210364920234,0.07652669103678382,4.0,3
12.692239761352539,-21.317991256713867,2.033324956893921,-0.0,-0.0,-1.0,0.17189184749444666,1.0,3
12.44233512878418,-19.82090187072754,1.3162695169448853,-0.0,-0.0,-1.0,0.13042377830879012,1.0,2
12.183002471923828,-19.904197692871094,1.2898614406585693,-0.0,-0.0,-1.0,0.2529916410739627,1.0,2
12.322399139404297,-20.070228576660156,1.307273030281067,-0.0,-0.0,-1.0,0.13522978788403325,1.0,2
12.20583724975586,-19.973506927490234,1.2933508157730103,-0.0,-0.0,-1.0,0.2103726748833164,1.0,2
12.562967300415039,-21.511465072631836,1.9262464046478271,-0.832068643205262,-0.45215479462775404,-0.32127529424107226,0.22368316491466808,4.0,2
12.580533027648926,-19.674482345581055,1.3964521884918213,-0.0,-0.0,-1.0,0.18853465440730088,1.0,2
12.302186012268066,-19.811290740966797,1.3698184490203857,-0.0,-0.0,-1.0,0.15948767732482985,2.0,2
12.635290145874023,-20.134811401367188,1.4122509956359863,-0.0,-0.0,-1.0,0.1571058495030646,1.0,2
12.291106224060059,-19.92571449279785,1.3710469007492065,-0.0,-0.0,-1.0,0.2351434000282369,1.0,2
12.702849388122559,-20.379390716552734,1.4241970777511597,-0.0,-0.0,-1.0,0.10693309629252692,1.0,2
12.616360664367676,-20.6739444732666,1.4199477434158325,-0.0,-0.0,-1.0,0.2300451408248095,2.0,2
12.338312149047852,-19.532251358032227,1.4739917516708374,-0.0,-0.0,-1.0,0.14164819183507674,1.0,2
12.25537109375,-19.658824920654297,1.4672636985778809,-0.0,-0.0,-1.0,0.08465085663586139,1.0,2
11.677950859069824,-20.207124710083008,1.412192702293396,-0.0,-0.0,-1.0,0.16482076316995073,1.0,2
12.563109397888184,-20.47704315185547,1.5130780935287476,-0.0,-0.0,-1.0,0.23304364335853542,1.0,2
12.669157028198242,-20.44491958618164,2.04746675491333,-0.8523817158407474,-0.41442257076656497,-0.31890334482349714,0.0765266910367838,3.0,3
12.002096176147461,-19.506357192993164,1.451828956604004,-0.0,-0.0,-1.0,0.18580065322374095,1.0,2
12.664755821228027,-20.605873107910156,2.086566209793091,-0.0,-0.0,-1.0,0.0703735026412935,1.0,3
12.655344009399414,-19.560791015625,1.4412916898727417,-0.0,-0.0,-1.0,0.22343022248713612,1.0,2
12.357667922973633,-19.76444435119629,1.421662449836731,-0.0,-0.0,-1.0,0.11672332885572524,1.0,2
12.2201509475708,-19.990100860595703,1.4194774627685547,-0.0,-0.0,-1.0,0.15853142272473927,2.0,2
12.051865577697754,-19.941314697265625,1.3986620903015137,-0.0,-0.0,-1.0,0.12316017089819208,1.0,2
12.709057807922363,-20.50702667236328,1.9838894605636597,-0.0,-0.0,-1.0,0.0765266910367838,2.0,2
12.67244815826416,-19.610469818115234,1.4258992671966553,-0.0,-0.0,-1.0,0.23115874716757956,1.0,2
12.419687271118164,-19.745203018188477,1.3993456363677979,-0.0,-0.0,-1.0,0.11890194688210202,1.0,2
12.502388954162598,-19.977108001708984,1.4176201820373535,-0.0,-0.0,-1.0,0.10148640095903906,1.0,2
12.243680000305176,-19.88469696044922,1.3820728063583374,-0.0,-0.0,-1.0,0.20088776148578613,1.0,2
12.570964813232422,-20.68349266052246,1.4481889009475708,-0.0,-0.0,-1.0,0.24801524151580115,1.0,2
12.70234203338623,-20.449495315551758,1.928467035293579,-0.0,-0.0,-1.0,0.10339685237518645,1.0,2
12.243343353271484,-19.527015686035156,1.481311559677124,-0.0,-0.0,-1.0,0.1400220581646146,2.0,2
12.193263053894043,-19.68927764892578,1.4821866750717163,-0.0,-0.0,-1.0,0.09603746205591868,2.0,2
11.281908988952637,-19.417600631713867,1.3639062643051147,-0.0,-0.0,-1.0,0.21525499246722893,1.0,2
12.61117935180664,-20.483428955078125,2.0103378295898438,-0.7589565115740262,0.15139209129728176,-0.6332972826659065,0.0765266910367838,7.0,3
11.886495590209961,-20.12358856201172,1.3779618740081787,-0.0,-0.0,-1.0,0.1678303753660508,1.0,2
12.554363250732422,-19.561115264892578,1.4285247325897217,-0.0,-0.0,-1.0,0.19660488330808068,1.0,2
12.543703079223633,-20.13890838623047,1.4594895839691162,-0.0,-0.0,-1.0,0.14343635922462886,1.0,2
12.29599666595459,-19.769962310791016,1.4092020988464355,-0.0,-0.0,-1.0,0.14973177542181743,2.0,2
12.10370922088623,-19.87430191040039,1.3915363550186157,-0.0,-0.0,-1.0,0.13024766687960684,1.0,2
12.662797927856445,-20.712600708007812,1.5036224126815796,-0.0,-0.0,-1.0,0.14723365905389219,1.0,2
12.56609058380127,-20.57843780517578,1.4849799871444702,-0.0,-0.0,-1.0,0.23314319020148108,1.0,2
12.270380973815918,-20.052913665771484,1.4214649200439453,-0.0,-0.0,-1.0,0.16877160559738844,2.0,2
12.475225448608398,-20.721132278442383,1.480710506439209,-0.0,-0.0,-1.0,0.24309916730831596,1.0,2
12.48244857788086,-19.519001007080078,1.408294677734375,-0.0,-0.0,-1.0,0.16580679028211207,1.0,2
12.386688232421875,-19.55281639099121,1.397535800933838,-0.0,-0.0,-1.0,0.12662179108576627,1.0,2
12.284769058227539,-19.779346466064453,1.3952823877334595,0.26688268311483243,0.6854933535337306,-0.6774012811580061,0.1564352429710129,3.0,2
12.184992790222168,-19.71774673461914,1.379169225692749,-0.0,-0.0,-1.0,0.11405757126882705,1.0,2
12.591049194335938,-20.64352798461914,1.4754056930541992,-0.0,-0.0,-1.0,0.2279705566703636,1.0,2
12.01816463470459,-20.247465133666992,1.3813306093215942,-0.0,-0.0,-1.0,0.22210710063975087,2.0,2
11.989998817443848,-19.868621826171875,1.3605350255966187,-0.0,-0.0,-1.0,0.10237509759736237,1.0,2
12.54895305633545,-21.410470962524414,1.499326467514038,-0.0,-0.0,-1.0,0.2165513099427157,2.0,2
11.629656791687012,-20.382099151611328,1.3346868753433228,-0.0,-0.0,-1.0,0.16798558445814843,1.0,2
12.6293306350708,-20.354415893554688,1.8862265348434448,-0.0,-0.0,-1.0,0.08097411874671738,1.0,2
12.642526626586914,-21.4442195892334,1.916988492012024,-0.0,-0.0,-1.0,0.16200228979630513,1.0,2
12.259040832519531,-21.440553665161133,1.876927375793457,-0.0,-0.0,-1.0,0.17891026891266862,1.0,2
11.76125431060791,-21.497390747070312,1.8260786533355713,-0.0,-0.0,-1.0,0.24184964445609106,1.0,2
12.498140335083008,-19.80936622619629,1.163975477218628,-0.0,-0.0,-1.0,0.15923647995816145,1.0,2
12.540153503417969,-20.99486541748047,1.262610673904419,-0.0,-0.0,-1.0,0.10181088345649945,1.0,2
12.573244094848633,-20.600690841674805,1.2385869026184082,-0.0,-0.0,-1.0,0.23185242416231802,1.0,2
12.26123046875,-19.882051467895508,1.133666753768921,-0.0,-0.0,-1.0,0.15059359910178044,2.0,2
12.505658149719238,-20.399805068969727,1.6106135845184326,-0.0,-0.0,-1.0,0.2912334515428025,1.0,2
11.967524528503418,-19.518348693847656,1.4866619110107422,-0.0,-0.0,-1.0,0.1660518064238882,1.0,2
12.696621894836426,-19.79283332824707,1.9894814491271973,-0.0,-0.0,-1.0,0.04291573228943025,1.0,2
12.608277320861816,-20.469158172607422,2.017519235610962,-0.7589565115740262,0.15139209129728176,-0.6332972826659065,0.0765266910367838,7.0,3
12.569244384765625,-21.37664222717285,2.059169292449951,-0.0,-0.0,-1.0,0.24763293481648688,1.0,3
12.282907485961914,-21.809734344482422,2.053407669067383,-0.0,-0.0,-1.0,0.14822055198006623,1.0,3
11.678196907043457,-21.825044631958008,1.999103307723999,-0.0,-0.0,-1.0,0.16000946152973747,1.0,2
12.510539054870605,-19.776836395263672,1.2907073497772217,-0.0,-0.0,-1.0,0.14052707151682434,1.0,2
12.672873497009277,-21.053058624267578,1.3936207294464111,-0.0,-0.0,-1.0,0.04708743496379315,1.0,2
12.555621147155762,-20.774274826049805,1.358904242515564,-0.0,-0.0,-1.0,0.25557470655460485,1.0,2
12.558728218078613,-20.59816551208496,1.3494750261306763,-0.0,-0.0,-1.0,0.2108338311617608,2.0,2
12.271980285644531,-19.9703311920166,1.2641494274139404,-0.0,-0.0,-1.0,0.14741330059409274,1.0,2
12.30954647064209,-19.840967178344727,1.2620549201965332,-0.0,-0.0,-1.0,0.12949424689440853,2.0,2
12.636665344238281,-21.548507690429688,1.4122258424758911,-0.0,-0.0,-1.0,0.20448285227483223,1.0,2
11.413383483886719,-20.401227951049805,1.1477370262145996,-0.0,-0.0,-1.0,0.14518778406421098,1.0,2
12.657896041870117,-20.449020385742188,2.082894802093506,-0.0,-0.0,-1.0,0.07652669103678378,2.0,3
12.62313175201416,-20.51302146911621,2.0819053649902344,-0.0,-0.0,-1.0,0.0703735026412935,1.0,3
12.285842895507812,-19.984676361083984,1.1737079620361328,-0.0,-0.0,-1.0,0.1639076977810026,1.0,2
12.274307250976562,-19.85344696044922,1.164185643196106,-0.0,-0.0,-1.0,0.17585929951223198,2.0,2
12.69345760345459,-19.68390655517578,1.2311909198760986,-0.0,-0.0,-1.0,0.17315848493041266,1.0,2
12.602897644042969,-20.799768447875977,1.2733190059661865,-0.0,-0.0,-1.0,0.19653616596265058,1.0,2
12.588905334472656,-20.48993682861328,1.4335012435913086,0.6026305025072767,0.35622644619902494,-0.7141002706036736,0.197982116721106,3.0,2
12.445892333984375,-20.201099395751953,1.570044755935669,-0.0,-0.0,-1.0,0.13119156347652658,1.0,2
12.321897506713867,-19.66785430908203,1.3475321531295776,-0.0,-0.0,-1.0,0.1286738993910924,1.0,2
12.105701446533203,-19.456695556640625,1.4834860563278198,-0.016249122181252327,0.13234293477392578,-0.9910707914391197,0.17947997053446788,4.0,2
11.409636497497559,-19.665281295776367,1.3896949291229248,-0.0,-0.0,-1.0,0.13903803664818684,1.0,2
12.689517974853516,-20.39203643798828,1.95615816116333,-0.0,-0.0,-1.0,0.07652669103678375,1.0,2
12.483428955078125,-21.280824661254883,1.9588682651519775,-0.0,-0.0,-1.0,0.24566880899875507,1.0,2
12.593706130981445,-19.68109893798828,1.3110328912734985,-0.0,-0.0,-1.0,0.17749258078190683,1.0,2
12.484601974487305,-19.72525405883789,1.292860746383667,-0.0,-0.0,-1.0,0.18642217840194708,1.0,2
11.757603645324707,-21.782291412353516,1.948053002357483,-0.0,-0.0,-1.0,0.17124253252753646,1.0,2
12.69327163696289,-20.559642791748047,2.1225643157958984,-0.0,-0.0,-1.0,0.0703735026412935,1.0,3
11.713464736938477,-21.810123443603516,2.074061393737793,-0.0,-0.0,-1.0,0.16046446824276053,1.0,3
12.551690101623535,-20.583683013916016,1.3184828758239746,-0.0,-0.0,-1.0,0.23782166493795934,2.0,2
12.631155014038086,-21.143774032592773,1.669827938079834,-0.0,-0.0,-1.0,0.09569440231700733,1.0,2
12.357321739196777,-21.656024932861328,1.5989904403686523,-0.0,-0.0,-1.0,0.16377004810441187,2.0,2
12.612826347351074,-21.583877563476562,2.058105230331421,-0.0,-0.0,-1.0,0.1867752850053736,2.0,3
12.214437484741211,-21.844039916992188,2.0211167335510254,-0.0,-0.0,-1.0,0.11785674614563195,1.0,3
12.679666519165039,-19.432838439941406,1.130574345588684,-0.0,-0.0,-1.0,0.183367614960395,1.0,2
11.55202865600586,-20.01593780517578,1.0805842876434326,-0.0,-0.0,-1.0,0.11091636026788583,2.0,2
11.515735626220703,-19.77956771850586,1.1310884952545166,-0.0,-0.0,-1.0,0.18307426163712173,1.0,2
12.228015899658203,-20.05323028564453,1.4553477764129639,-0.0,-0.0,-1.0,0.1501903167326113,2.0,2
11.88279914855957,-19.56731605529785,1.563021183013916,-0.0,-0.0,-1.0,0.15708427791469035,1.0,2
11.811657905578613,-20.80655860900879,1.3571430444717407,-0.0,-0.0,-1.0,0.08252046092388808,1.0,2
11.711685180664062,-20.35531234741211,1.441203236579895,-0.0,-0.0,-1.0,0.21042724966126916,1.0,2
11.790667533874512,-21.303234100341797,1.2741308212280273,-0.0,-0.0,-1.0,0.1629944775209937,1.0,2
11.678354263305664,-21.030658721923828,1.3286255598068237,-0.0,-0.0,-1.0,0.12290070986762808,1.0,2
11.930828094482422,-21.828458786010742,2.1380200386047363,-0.0,-0.0,-1.0,0.08422402352728947,1.0,3
11.738082885742188,-19.84091567993164,0.9728972911834717,-0.0,-0.0,-1.0,0.10142507254180429,1.0,1
12.00233268737793,-21.176177978515625,1.2471866607666016,-0.0,-0.0,-1.0,0.06285346718238322,1.0,2
11.818655967712402,-21.151874542236328,1.237061619758606,-0.0,-0.0,-1.0,0.12401187168316172,1.0,2
11.773158073425293,-21.463001251220703,1.1937477588653564,-0.0,-0.0,-1.0,0.15971305416808135,1.0,2
12.15127182006836,-19.51219367980957,1.4718637466430664,-0.06977412696657642,-0.2217101225237953,-0.9726130745453384,0.176911286441029,3.0,2
12.261454582214355,-20.119478225708008,1.4019746780395508,-0.0,-0.0,-1.0,0.21785492203449308,1.0,2
12.24355697631836,-20.039731979370117,1.410959243774414,0.2891131807893993,0.883009171308082,0.3697409526677433,0.15979890540323066,3.0,2
12.101873397827148,-19.53837776184082,1.4648326635360718,0.8349710126172448,-0.4546706665044484,-0.30999676306267054,0.17669895560577223,4.0,2
11.704168319702148,-20.211122512817383,1.348863959312439,-0.0,-0.0,-1.0,0.15267315105943688,1.0,2
11.599996566772461,-20.250370025634766,1.3358442783355713,-0.0,-0.0,-1.0,0.1486790778310975,1.0,2
11.550504684448242,-20.391407012939453,1.2053215503692627,-0.0,-0.0,-1.0,0.21164567985559396,1.0,2
11.430408477783203,-20.147327423095703,1.2276124954223633,-0.0,-0.0,-1.0,0.14144568906915428,1.0,2
11.429555892944336,-19.618200302124023,1.2960209846496582,-0.0,-0.0,-1.0,0.20585132558792532,1.0,2
12.404233932495117,-21.760238647460938,1.982726812362671,-0.0,-0.0,-1.0,0.20401317874749259,1.0,2
11.196146011352539,-19.785037994384766,1.78423011302948,-0.0,-0.0,-1.0,0.21384600598626258,1.0,2
12.564170837402344,-21.261310577392578,1.791567325592041,-0.0,-0.0,-1.0,0.10837501703255137,1.0,2
12.498172760009766,-21.670162200927734,1.9630208015441895,-0.0,-0.0,-1.0,0.12031106054117222,2.0,2
12.532341003417969,-21.804779052734375,2.060032367706299,-0.0,-0.0,-1.0,0.14559861215410572,1.0,3
11.528947830200195,-20.262619018554688,1.3798760175704956,-0.0,-0.0,-1.0,0.15984520100879268,1.0,2
11.940338134765625,-19.51297950744629,1.4321645498275757,-0.0,-0.0,-1.0,0.16565556858313318,1.0,2
11.629434585571289,-20.35475730895996,1.3805936574935913,-0.0,-0.0,-1.0,0.15947752085578096,1.0,2
12.268921852111816,-19.442049026489258,1.4505926370620728,-0.0,-0.0,-1.0,0.16992545499143888,1.0,2
12.524598121643066,-21.543136596679688,1.3699384927749634,-0.0,-0.0,-1.0,0.19693532364004399,1.0,2
12.708038330078125,-20.494182586669922,2.0654428005218506,-0.0,-0.0,-1.0,0.07652669103678371,2.0,3
12.308982849121094,-21.513168334960938,2.017420530319214,-0.0,-0.0,-1.0,0.14112634249025838,2.0,3
12.550124168395996,-21.161300659179688,1.8590316772460938,-0.0,-0.0,-1.0,0.12167698064522271,1.0,2
12.409001350402832,-21.712594985961914,1.8276950120925903,-0.0,-0.0,-1.0,0.2535887793221214,2.0,2
11.405466079711914,-20.182523727416992,1.326235055923462,-0.0,-0.0,-1.0,0.21589663279434448,1.0,2
11.886173248291016,-20.071348190307617,1.3322410583496094,-0.0,-0.0,-1.0,0.17972128418381467,1.0,2
11.73767375946045,-20.282461166381836,1.3155901432037354,-0.0,-0.0,-1.0,0.2091696938565527,1.0,2
11.440771102905273,-20.485836029052734,1.3005287647247314,-0.0,-0.0,-1.0,0.13930837960774892,1.0,2
12.49416446685791,-20.642911911010742,1.4339420795440674,-0.0,-0.0,-1.0,0.20827404166411242,1.0,2
11.63809871673584,-21.29032325744629,1.417311668395996,-0.0,-0.0,-1.0,0.2017467097631554,1.0,2
11.491619110107422,-21.400224685668945,1.4143898487091064,-0.0,-0.0,-1.0,0.14695598999931422,1.0,2
11.886079788208008,-21.658672332763672,1.3797070980072021,-0.0,-0.0,-1.0,0.20678656359473316,2.0,2
12.399758338928223,-19.372875213623047,1.3412582874298096,-0.0,-0.0,-1.0,0.14892284168862735,1.0,2
11.957592964172363,-20.08315658569336,1.285440444946289,-0.0,-0.0,-1.0,0.23372923080637265,2.0,2
11.467491149902344,-20.242801666259766,1.2874915599822998,-0.0,-0.0,-1.0,0.15234849991620492,1.0,2
11.773962020874023,-20.304370880126953,1.2764525413513184,-0.0,-0.0,-1.0,0.24310251120446277,1.0,2
11.614912986755371,-20.511859893798828,1.2599148750305176,-0.0,-0.0,-1.0,0.1350313827288944,1.0,2
12.175944328308105,-21.374290466308594,1.1798546314239502,-0.0,-0.0,-1.0,0.09933045613134248,1.0,2
12.283191680908203,-21.564895629882812,1.1599302291870117,-0.0,-0.0,-1.0,0.10246222401761136,1.0,2
11.238171577453613,-20.20854377746582,1.045250654220581,-0.0,-0.0,-1.0,0.11269758515500736,2.0,2
12.241418838500977,-21.39249610900879,1.7855099439620972,-0.0,-0.0,-1.0,0.21793844697302053,1.0,2
