x,y,z,nx,ny,nz,curvature,density,label
51.252037048339844,5.241263389587402,-1.5712652206420898,-0.0,-0.0,-1.0,0.010861023350080925,2.0,0
50.332000732421875,4.541272163391113,-1.4625062942504883,-0.0,-0.0,-1.0,0.03769795046113088,1.0,0
50.66999435424805,4.416825294494629,-1.402634620666504,-0.0,-0.0,-1.0,0.01949007765871098,1.0,0
52.60552978515625,3.9458866119384766,-1.6796534061431885,0.6628628450141012,0.7384529263054158,-0.12369367134489957,0.05896102743453802,3.0,0
52.65213394165039,4.392254829406738,-1.6539056301116943,-0.0,-0.0,-1.0,0.015258373600126671,2.0,0
50.66007614135742,5.582855224609375,-1.6678425073623657,-0.0,-0.0,-1.0,0.005585494699397647,1.0,0
51.61237716674805,3.159409523010254,-1.450446605682373,-0.0,-0.0,-1.0,0.02103400692484526,1.0,0
51.13085174560547,4.740471839904785,-1.493638038635254,-0.0,-0.0,-1.0,0.010710343806924523,1.0,0
51.64698028564453,3.3352603912353516,-1.5590838193893433,-0.0,-0.0,-1.0,0.02036061079498308,1.0,0
52.33241271972656,4.043242454528809,-1.5668596029281616,-0.0,-0.0,-1.0,0.05601453474548582,1.0,0
52.67877197265625,4.119220733642578,-1.6151162385940552,-0.0,-0.0,-1.0,0.059995473680052196,1.0,0
51.07304382324219,3.648404121398926,-1.4255605936050415,-0.0,-0.0,-1.0,0.009555024688163374,1.0,0
50.35934066772461,3.7597808837890625,-1.3061832189559937,-0.024763656234557327,-0.4358233865543632,-0.8996914677055586,0.006966881222617513,3.0,0
50.686378479003906,3.8179168701171875,-1.3433977365493774,-0.0,-0.0,-1.0,0.008099205658164231,2.0,0
52.19320297241211,4.64614200592041,-1.6874947547912598,-0.0,-0.0,-1.0,0.017322448620411223,1.0,0
51.615478515625,4.958477973937988,-1.5376534461975098,-0.0,-0.0,-1.0,0.022249057625051357,1.0,0
52.29404067993164,4.13723087310791,-1.6722532510757446,-0.0,-0.0,-1.0,0.029274919299684836,1.0,0
51.40959167480469,4.879697799682617,-1.5986883640289307,-0.0,-0.0,-1.0,0.02157845063559098,1.0,0
50.646278381347656,3.37380313873291,-1.424335241317749,-0.0,-0.0,-1.0,0.0028952194751745274,1.0,0
50.309303283691406,3.8207359313964844,-1.3089826107025146,-0.0,-0.0,-1.0,0.009799851657302915,2.0,0
51.01996612548828,3.506514549255371,-1.4249870777130127,-0.0,-0.0,-1.0,0.007991364537444293,1.0,0
51.56097412109375,3.4861679077148438,-1.4739367961883545,0.06485416178265942,0.4474539578269942,-0.8919522931886141,0.01938401573604056,3.0,0
51.463741302490234,5.004299163818359,-1.5293636322021484,-0.0,-0.0,-1.0,0.021681154780285594,1.0,0
52.603965759277344,5.422115325927734,-1.565274715423584,-0.0,-0.0,-1.0,0.03246015357789506,1.0,0
50.37008285522461,3.7672252655029297,-1.3100850582122803,-0.5516565927291545,0.4176180064809982,-0.7219904461703748,0.006966881222617515,3.0,0
50.90718078613281,3.4259910583496094,-1.4261093139648438,-0.08100667514043434,-0.053966109782483715,-0.9952515147326514,0.008198867738719012,3.0,0
51.5303840637207,3.514232635498047,-1.4620821475982666,-0.0,-0.0,-1.0,0.017748105036864303,2.0,0
52.505653381347656,3.195418357849121,-1.3344982862472534,-0.466340022906583,0.8731645635631089,-0.14181194580546708,0.09502444175658994,3.0,0
51.289764404296875,3.9732956886291504,-1.453279733657837,-0.0,-0.0,-1.0,0.00675400951441509,1.0,0
51.007808685302734,3.8039965629577637,-1.4509215354919434,-0.0,-0.0,-1.0,0.008610619195000242,2.0,0
51.702701568603516,3.183962821960449,-1.403245210647583,-0.0,-0.0,-1.0,0.020084528747722395,1.0,0
51.496036529541016,3.1676759719848633,-1.372460126876831,-0.0,-0.0,-1.0,0.018173059986842217,1.0,0
52.61985778808594,4.037388324737549,-1.565441608428955,-0.0,-0.0,-1.0,0.060504207002043786,1.0,0
52.688087463378906,3.9265670776367188,-1.5169919729232788,-0.0,-0.0,-1.0,0.05896102743453806,1.0,0
50.8029899597168,4.269784927368164,-1.3511966466903687,-0.0,-0.0,-1.0,0.01604686780301007,1.0,0
52.658241271972656,5.496345520019531,-1.712437629699707,-0.0,-0.0,-1.0,0.03172581085161129,2.0,0
51.61560821533203,5.09390926361084,-1.6319198608398438,-0.0,-0.0,-1.0,0.018082064674716354,2.0,0
50.85204315185547,4.928513526916504,-1.5494766235351562,-0.0,-0.0,-1.0,0.0032883852980180248,1.0,0
52.597259521484375,5.11948299407959,-1.617276906967163,-0.8803077139704119,-0.1374961501482591,-0.45404089839858597,0.024141715690781728,3.0,0
52.5010986328125,4.826910018920898,-1.6696689128875732,0.7374399586014236,-0.5939469112572401,-0.3215732794650622,0.06298314883760017,3.0,0
52.61790466308594,5.0430803298950195,-1.6694514751434326,-0.0,-0.0,-1.0,0.02690263597813647,1.0,0
52.57036590576172,5.360495567321777,-1.6726469993591309,-0.0,-0.0,-1.0,0.025792694286308492,2.0,0
50.438594818115234,4.313282012939453,-1.3562290668487549,-0.0,-0.0,-1.0,0.037720844167620594,1.0,0
50.64110565185547,4.513967514038086,-1.3780176639556885,-0.0,-0.0,-1.0,0.019424403568412605,1.0,0
52.584842681884766,4.907838821411133,-1.5897350311279297,-0.0,-0.0,-1.0,0.05918818547397572,2.0,0
52.29690170288086,5.426205635070801,-1.7376573085784912,-0.0,-0.0,-1.0,0.02147755865431889,1.0,0
52.41544723510742,5.594555854797363,-1.7485158443450928,-0.0,-0.0,-1.0,0.023955546274141745,1.0,0
52.497589111328125,4.756644248962402,-1.6245746612548828,-0.11119783242676158,0.7260483254548575,-0.6785933032146628,0.05564316339550204,3.0,0
52.50543975830078,5.277353286743164,-1.6861424446105957,-0.0,-0.0,-1.0,0.03005183292296586,2.0,0
52.65711212158203,5.525205612182617,-1.7151403427124023,0.7667317434216175,-0.030055215288904223,-0.6412636880906208,0.03125396793293354,3.0,0
50.61714553833008,4.365619659423828,-1.3935120105743408,-0.0,-0.0,-1.0,0.037019328612153006,1.0,0
51.08946228027344,4.343019485473633,-1.4597702026367188,-0.0,-0.0,-1.0,0.011050250369019307,1.0,0
51.27244186401367,4.386142730712891,-1.4867157936096191,-0.0,-0.0,-1.0,0.007303926225525597,2.0,0
51.53019332885742,4.520342826843262,-1.5265719890594482,-0.0,-0.0,-1.0,0.01568123801978458,2.0,0
51.60900115966797,4.488035202026367,-1.5369856357574463,-0.0,-0.0,-1.0,0.012588613771808687,1.0,0
51.457862854003906,4.850375175476074,-1.524670124053955,-0.5621918678680968,0.29613076533515614,-0.7721702361040573,0.02442671343700022,3.0,0
52.69439697265625,3.2515172958374023,-1.555255651473999,-0.0,-0.0,-1.0,0.19816257511843036,1.0,0
52.68541717529297,4.022103309631348,-1.5623469352722168,-0.0,-0.0,-1.0,0.05775330963663193,2.0,0
52.62957763671875,4.909847259521484,-1.5662469863891602,0.2577619009400666,0.2278918032892629,-0.9389484162707402,0.05608976284774493,3.0,0
52.44518280029297,3.224543571472168,-1.5078723430633545,-0.0,-0.0,-1.0,0.16217299421645892,1.0,0
52.561187744140625,4.861749649047852,-1.5421714782714844,-0.0,-0.0,-1.0,0.0592110098802222,2.0,0
52.6982421875,5.1884565353393555,-1.5677132606506348,-0.0,-0.0,-1.0,0.028461529213479938,1.0,0
51.96686553955078,3.260173797607422,-1.5522534847259521,-0.0,-0.0,-1.0,0.012453908677246644,1.0,0
52.15800476074219,3.520113945007324,-1.5833368301391602,-0.0,-0.0,-1.0,0.05842453976696144,1.0,0
52.393821716308594,3.5537729263305664,-1.622424602508545,-0.0,-0.0,-1.0,0.10965336443521649,1.0,0
50.67546844482422,4.222321510314941,-1.337235689163208,-0.0,-0.0,-1.0,0.027697223749353298,1.0,0
52.030914306640625,4.009666442871094,-1.5622832775115967,-0.0,-0.0,-1.0,0.0163381590044652,1.0,0
52.608009338378906,4.017879486083984,-1.6586833000183105,-0.0,-0.0,-1.0,0.060504207002043696,1.0,0
52.49076843261719,4.4407501220703125,-1.6404623985290527,-0.0,-0.0,-1.0,0.015535132278526709,1.0,0
52.521080017089844,4.73928165435791,-1.647000789642334,-0.0,-0.0,-1.0,0.055415575345494066,2.0,0
52.543235778808594,5.210930824279785,-1.654043197631836,0.8997819367088034,0.4001236850669379,-0.17405028877025425,0.02587371902703295,4.0,0
52.652549743652344,5.43663215637207,-1.6745872497558594,-0.0,-0.0,-1.0,0.03246015357789505,1.0,0
51.431671142578125,5.397961616516113,-1.6730694770812988,-0.0,-0.0,-1.0,0.009315855978925314,2.0,0
51.63508224487305,5.466562271118164,-1.7047648429870605,-0.0,-0.0,-1.0,0.007113809082291523,1.0,0
50.51927185058594,5.190683364868164,-1.5331053733825684,-0.0,-0.0,-1.0,0.01332932154878348,2.0,0
51.86463165283203,3.160421371459961,-1.4476368427276611,-0.0,-0.0,-1.0,0.015512224683651033,1.0,0
52.54705810546875,3.2542505264282227,-1.543076753616333,-0.0,-0.0,-1.0,0.1981625751184305,2.0,0
52.63682556152344,4.742401123046875,-1.5601468086242676,0.2932105661115473,-0.952214635777858,-0.085526904135406,0.044001536446118185,3.0,0
52.62797546386719,4.937063217163086,-1.5600812435150146,-0.4859723354027452,-0.19935816334747972,-0.850933141868338,0.051877320026780506,4.0,0
50.581363677978516,4.340873718261719,-1.3412506580352783,-0.0,-0.0,-1.0,0.03701932861215289,1.0,0
51.45797348022461,4.128266334533691,-1.474339485168457,-0.0,-0.0,-1.0,0.005844266262549732,1.0,0
51.779300689697266,3.9738216400146484,-1.5237176418304443,-0.0,-0.0,-1.0,0.004246442463810451,1.0,0
50.71873092651367,4.420855522155762,-1.3611769676208496,-0.0,-0.0,-1.0,0.018839041775394253,1.0,0
51.42870330810547,4.541803359985352,-1.4674768447875977,-0.0,-0.0,-1.0,0.0162926245791838,1.0,0
51.64261245727539,4.475378036499023,-1.500256061553955,-0.0,-0.0,-1.0,0.011204715578086891,1.0,0
52.3222770690918,4.588539123535156,-1.6034104824066162,-0.0,-0.0,-1.0,0.02188193819545518,1.0,0
52.478607177734375,4.357339859008789,-1.6279938220977783,-0.0,-0.0,-1.0,0.015818621602560468,1.0,0
52.351036071777344,4.8395891189575195,-1.6073291301727295,-0.0,-0.0,-1.0,0.051463780331753126,1.0,0
52.49956512451172,4.8867998123168945,-1.6301398277282715,-0.0,-0.0,-1.0,0.07278211016256352,2.0,0
52.573726654052734,5.273750305175781,-1.6415550708770752,-0.0,-0.0,-1.0,0.031153943714823315,2.0,0
52.642425537109375,5.520293235778809,-1.6525413990020752,-0.0,-0.0,-1.0,0.0317258108516113,2.0,0
50.341163635253906,5.6297407150268555,-1.6152229309082031,-0.0,-0.0,-1.0,0.010357613729071723,1.0,0
50.73101043701172,5.6131181716918945,-1.6815648078918457,-0.0,-0.0,-1.0,0.004690947167689083,1.0,0
52.482601165771484,3.314826011657715,-1.2400412559509277,-0.0,-0.0,-1.0,0.12393365606704414,2.0,0
50.3576774597168,5.3395538330078125,-1.594347596168518,-0.0,-0.0,-1.0,0.012235729026342495,1.0,0
50.82315444946289,5.559623718261719,-1.6704455614089966,-0.0,-0.0,-1.0,0.0044658051848390804,1.0,0
52.564029693603516,3.20200252532959,-1.2748829126358032,-0.0,-0.0,-1.0,0.15527368599343438,1.0,0
52.53736114501953,3.323052406311035,-1.2236239910125732,-0.0,-0.0,-1.0,0.15527368599343452,1.0,0
50.51982879638672,5.100013732910156,-1.529170036315918,-0.0,-0.0,-1.0,0.07251200215043312,1.0,0
51.10914611816406,5.382750511169434,-1.6150541305541992,-0.0,-0.0,-1.0,0.005104723186812104,1.0,0
51.406707763671875,5.433509826660156,-1.6637840270996094,-0.0,-0.0,-1.0,0.009276965096078131,2.0,0
51.593711853027344,5.524690628051758,-1.692145824432373,-0.0,-0.0,-1.0,0.00697939949027036,1.0,0
51.6305046081543,5.5765485763549805,-1.6963908672332764,-0.0,-0.0,-1.0,0.006979399490270393,2.0,0
51.62781524658203,3.6690359115600586,-1.5915560722351074,-0.0,-0.0,-1.0,0.004783144944114475,1.0,0
52.4649772644043,4.246364593505859,-1.6872658729553223,-0.0,-0.0,-1.0,0.03086024441181661,1.0,0
52.4902458190918,4.604869842529297,-1.6714277267456055,-0.0,-0.0,-1.0,0.038728917667010324,1.0,0
52.531715393066406,4.862027168273926,-1.6643192768096924,-0.0,-0.0,-1.0,0.06799880533902755,2.0,0
51.3025016784668,4.052178382873535,-1.5173041820526123,-0.0,-0.0,-1.0,0.0063356653201159675,1.0,0
50.376129150390625,4.210928916931152,-1.3667218685150146,-0.0,-0.0,-1.0,0.02170264302315058,1.0,0
50.68111038208008,4.303725242614746,-1.4063966274261475,-0.0,-0.0,-1.0,0.03230056737118646,1.0,0
51.354820251464844,4.0901899337768555,-1.5229268074035645,-0.0,-0.0,-1.0,0.005978832029750011,1.0,0
51.482574462890625,4.231424331665039,-1.5338869094848633,-0.0,-0.0,-1.0,0.007541706876355932,1.0,0
51.61125183105469,4.65048885345459,-1.5287315845489502,-0.0,-0.0,-1.0,0.020182531931795294,1.0,0
51.91505432128906,4.450347900390625,-1.5883290767669678,-0.0,-0.0,-1.0,0.006621239218485485,1.0,0
52.56040573120117,5.172959327697754,-1.6530072689056396,0.676285395872489,0.4451023450998522,-0.5869599353586268,0.020151744904075557,6.0,0
52.58256530761719,5.316450119018555,-1.6495091915130615,-0.0,-0.0,-1.0,0.028751025198245395,2.0,0
51.13970184326172,5.0326690673828125,-1.5653879642486572,-0.0,-0.0,-1.0,0.00818455832775124,1.0,0
51.48651885986328,5.13092041015625,-1.6197526454925537,-0.0,-0.0,-1.0,0.016453570354459008,1.0,0
51.62980651855469,5.218742370605469,-1.6395080089569092,-0.0,-0.0,-1.0,0.011478032962154928,1.0,0
51.78072738647461,5.283237457275391,-1.6624279022216797,-0.0,-0.0,-1.0,0.008540362192642018,1.0,0
52.1780891418457,5.450283050537109,-1.7240772247314453,-0.0,-0.0,-1.0,0.019157283344873266,1.0,0
50.54610061645508,4.7294111251831055,-1.484680414199829,-0.0,-0.0,-1.0,0.018615300432133757,1.0,0
51.70848846435547,4.526359558105469,-1.5750198364257812,-0.0,-0.0,-1.0,0.011919163917913289,1.0,0
52.05022430419922,4.598708152770996,-1.6310877799987793,-0.0,-0.0,-1.0,0.007817286494814285,1.0,0
52.329627990722656,4.675636291503906,-1.6764936447143555,-0.0,-0.0,-1.0,0.02991528580877228,1.0,0
52.398799896240234,4.982935905456543,-1.6699206829071045,-0.0,-0.0,-1.0,0.04241674390050591,1.0,0
52.4760856628418,5.250850677490234,-1.6680223941802979,-0.0,-0.0,-1.0,0.024140157130666442,2.0,0
52.679054260253906,5.537026405334473,-1.6894590854644775,0.7708552545398997,-0.051476007737547305,-0.6349270802034123,0.0317258108516113,3.0,0
50.46133804321289,4.261429786682129,-1.3794114589691162,-0.0,-0.0,-1.0,0.031892058007678734,1.0,0
50.938812255859375,4.2456159591674805,-1.4611914157867432,-0.0,-0.0,-1.0,0.010381000655270098,1.0,0
51.12580871582031,4.293191909790039,-1.4897410869598389,-0.0,-0.0,-1.0,0.011406252810379042,1.0,0
51.42683029174805,4.43043327331543,-1.532078742980957,-0.0,-0.0,-1.0,0.011837349333005568,1.0,0
51.54017639160156,4.554278373718262,-1.5434186458587646,-0.0,-0.0,-1.0,0.01666832706148749,2.0,0
51.61360549926758,5.116379737854004,-1.518672227859497,-0.0,-0.0,-1.0,0.018894298763015828,1.0,0
51.38130187988281,3.249908447265625,-1.5294511318206787,-0.0,-0.0,-1.0,0.01738251251291418,1.0,0
51.654945373535156,3.496776580810547,-1.553283452987671,-0.0,-0.0,-1.0,0.020360610794983046,1.0,0
51.93779754638672,3.5947818756103516,-1.592639446258545,-0.0,-0.0,-1.0,0.008121533627358828,1.0,0
52.0644645690918,3.853602409362793,-1.5929841995239258,-0.0,-0.0,-1.0,0.016727886870721652,1.0,0
52.25727844238281,3.8669490814208984,-1.6252529621124268,-0.0,-0.0,-1.0,0.02805309717939934,1.0,0
52.570960998535156,3.978353500366211,-1.6710765361785889,0.6628628450141012,0.7384529263054158,-0.12369367134489957,0.06251709566216165,3.0,0
52.2469482421875,4.072000503540039,-1.6070003509521484,-0.0,-0.0,-1.0,0.02957633755060139,1.0,0
52.623573303222656,4.21742057800293,-1.6620204448699951,-0.0,-0.0,-1.0,0.052673577319837614,1.0,0
52.6429328918457,4.483609199523926,-1.6454477310180664,-0.0,-0.0,-1.0,0.021834563390465755,1.0,0
50.33784484863281,3.2073822021484375,-1.3669371604919434,-0.0,-0.0,-1.0,0.0025947617589646994,1.0,0
50.55406951904297,3.260040283203125,-1.3957281112670898,-0.0,-0.0,-1.0,0.0027430628701375125,1.0,0
50.50418472290039,3.651787757873535,-1.3517141342163086,-0.0,-0.0,-1.0,0.0023240780625640107,2.0,0
50.79421615600586,3.4049835205078125,-1.4205386638641357,-0.0,-0.0,-1.0,0.007134269290583443,1.0,0
50.31509017944336,3.771574020385742,-1.3106780052185059,0.17772053917839545,0.09442428360605815,-0.9795404354183769,0.0069668812226174985,4.0,0
50.74750518798828,3.855252265930176,-1.3725860118865967,-0.0,-0.0,-1.0,0.009151311899437771,1.0,0
51.93151092529297,4.046487808227539,-1.554405689239502,-0.0,-0.0,-1.0,0.004970933022045333,1.0,0
50.8104362487793,4.194501876831055,-1.3529467582702637,-0.0,-0.0,-1.0,0.013124106662850082,2.0,0
52.15010452270508,4.097189903259277,-1.5881469249725342,-0.0,-0.0,-1.0,0.022086231665699865,1.0,0
52.50676727294922,4.781986236572266,-1.5989644527435303,-0.0,-0.0,-1.0,0.05850546335324691,2.0,0
52.54606628417969,4.897435188293457,-1.5976319313049316,0.5159834976526965,-0.6232530244889333,-0.5876365352966809,0.051440262789492895,4.0,0
52.636878967285156,4.9708051681518555,-1.6088626384735107,-0.0,-0.0,-1.0,0.047371868585166704,2.0,0
50.52764892578125,3.2066774368286133,-1.3734313249588013,-0.0,-0.0,-1.0,0.002743062870137513,1.0,0
50.88572311401367,3.292231559753418,-1.4227794408798218,-0.0,-0.0,-1.0,0.006808045803711146,1.0,0
51.33134841918945,3.250086784362793,-1.500595211982727,-0.0,-0.0,-1.0,0.014391089024723117,1.0,0
51.59626770019531,3.287137985229492,-1.54159414768219,-0.0,-0.0,-1.0,0.021999280019049827,1.0,0
50.439788818359375,3.575328826904297,-1.3223756551742554,-0.0,-0.0,-1.0,0.002654076017248255,1.0,0
50.94282531738281,3.769683837890625,-1.3859623670578003,-0.0,-0.0,-1.0,0.007176458443693382,1.0,0
51.35756301879883,3.375398635864258,-1.4929853677749634,-0.0,-0.0,-1.0,0.016310409070885087,1.0,0
51.746971130371094,3.5184926986694336,-1.5458992719650269,-0.0,-0.0,-1.0,0.015729758311076553,1.0,0
52.06542205810547,3.6371984481811523,-1.590344786643982,-0.0,-0.0,-1.0,0.0032189399192392547,1.0,0
50.6873779296875,3.8174266815185547,-1.3389743566513062,-0.0,-0.0,-1.0,0.008099205658164231,2.0,0
52.15806579589844,4.001603126525879,-1.574508786201477,-0.0,-0.0,-1.0,0.023945123618732713,1.0,0
52.59080123901367,3.9631614685058594,-1.6554511785507202,0.6628628450141012,0.7384529263054158,-0.12369367134489957,0.058961027434538085,3.0,0
52.66155242919922,4.307107925415039,-1.6395536661148071,-0.0,-0.0,-1.0,0.029510089732668172,1.0,0
52.5474853515625,4.808835029602051,-1.5776158571243286,-0.0,-0.0,-1.0,0.048654969401640866,1.0,0
52.64221954345703,4.97031307220459,-1.5823739767074585,0.9554157540153076,-0.29498145674654086,-0.01291035069429974,0.04161555463764788,4.0,0
52.222564697265625,3.2516355514526367,-1.5449841022491455,-0.0,-0.0,-1.0,0.11645837095407437,1.0,0
52.597999572753906,3.2716522216796875,-1.6084299087524414,-0.8472467301124802,-0.36439640985698823,-0.386507742221353,0.19816257511843036,3.0,0
52.40652084350586,3.3474483489990234,-1.5677413940429688,-0.0,-0.0,-1.0,0.14523688468172716,1.0,0
52.683990478515625,3.5158958435058594,-1.600952386856079,-0.0,-0.0,-1.0,0.07147042161404255,1.0,0
52.684471130371094,3.9757442474365234,-1.5589492321014404,-0.0,-0.0,-1.0,0.056872517399867,2.0,0
50.30683517456055,4.937373161315918,-1.5418674945831299,-0.0,-0.0,-1.0,0.017407829367965876,1.0,0
52.6898193359375,4.806801795959473,-1.486595869064331,-0.0,-0.0,-1.0,0.06310202399051852,2.0,0
50.501609802246094,5.230973243713379,-1.5404021739959717,-0.0,-0.0,-1.0,0.009156532939276926,2.0,0
50.78117370605469,5.351728439331055,-1.5789637565612793,-0.0,-0.0,-1.0,0.006063238926801423,2.0,0
51.03425598144531,5.313690185546875,-1.6332824230194092,-0.0,-0.0,-1.0,0.005801998218378836,1.0,0
50.887821197509766,5.402026176452637,-1.593529462814331,-0.0,-0.0,-1.0,0.006473899893426505,1.0,0
51.19316101074219,5.418018341064453,-1.6521050930023193,-0.0,-0.0,-1.0,0.00564051223544425,1.0,0
51.50202560424805,5.516796112060547,-1.702664852142334,-0.0,-0.0,-1.0,0.00842537281463824,1.0,0
52.0969352722168,4.667825698852539,-1.6809656620025635,-0.0,-0.0,-1.0,0.00995604036421089,2.0,0
52.33427047729492,4.789466857910156,-1.7110967636108398,-0.0,-0.0,-1.0,0.03886562043856936,1.0,0
52.53729248046875,3.1674671173095703,-1.3964295387268066,-0.0,-0.0,-1.0,0.09502444175658985,2.0,0
50.351463317871094,4.433239936828613,-1.402421236038208,-0.0,-0.0,-1.0,0.036111839840569857,1.0,0
50.73942947387695,4.475907325744629,-1.4617748260498047,-0.0,-0.0,-1.0,0.015290984770463503,1.0,0
51.1353759765625,4.518881797790527,-1.5246210098266602,-0.0,-0.0,-1.0,0.006358005801607135,1.0,0
51.40879440307617,4.548614501953125,-1.5693411827087402,-0.0,-0.0,-1.0,0.016292624579183797,1.0,0
51.566917419433594,4.765406608581543,-1.5693869590759277,-0.0,-0.0,-1.0,0.022786336766505776,1.0,0
51.91721725463867,4.721308708190918,-1.640174150466919,-0.0,-0.0,-1.0,0.010889584956280724,1.0,0
52.46314239501953,5.070704460144043,-1.701005220413208,-0.0,-0.0,-1.0,0.020365302593401354,1.0,0
50.332855224609375,3.1611948013305664,-1.3957010507583618,-0.0,-0.0,-1.0,0.002618865635582358,1.0,0
50.59299850463867,3.2928667068481445,-1.4111825227737427,-0.0,-0.0,-1.0,0.0027430628701375125,1.0,0
50.8317756652832,3.350330352783203,-1.435726523399353,-0.0,-0.0,-1.0,0.008237331398502816,2.0,0
51.42032241821289,3.410128593444824,-1.5133968591690063,-0.0,-0.0,-1.0,0.019041485111085558,1.0,0
51.66880416870117,3.409848213195801,-1.5514205694198608,-0.0,-0.0,-1.0,0.020360610794983063,1.0,0
51.190093994140625,3.50607967376709,-1.4643832445144653,-0.0,-0.0,-1.0,0.008913045551305435,1.0,0
51.81452941894531,3.5593013763427734,-1.5522853136062622,-0.0,-0.0,-1.0,0.01411928482007627,1.0,0
52.20903778076172,3.639913558959961,-1.6039143800735474,-0.0,-0.0,-1.0,0.009930099204211933,1.0,0
52.57924270629883,3.7662363052368164,-1.6474014520645142,-0.0,-0.0,-1.0,0.04582691110210679,1.0,0
52.305660247802734,3.9913434982299805,-1.569714903831482,-0.0,-0.0,-1.0,0.039249411463792704,1.0,0
50.40618896484375,5.217634201049805,-1.535530686378479,-0.0,-0.0,-1.0,0.013329321548783534,1.0,0
50.64875793457031,5.310815811157227,-1.5593634843826294,-0.0,-0.0,-1.0,0.007685831522790234,1.0,0
51.03340530395508,5.3745574951171875,-1.6148000955581665,-0.0,-0.0,-1.0,0.005534274206245864,1.0,0
51.51813888549805,5.418832778930664,-1.6950792074203491,-0.0,-0.0,-1.0,0.008958476035809558,1.0,0
51.58264923095703,5.6090192794799805,-1.674575924873352,-0.0,-0.0,-1.0,0.006944290303106458,2.0,0
50.53780746459961,3.349900245666504,-1.3945099115371704,-0.0,-0.0,-1.0,0.002653542816474353,1.0,0
50.38932800292969,3.804027557373047,-1.3035024404525757,-0.0,-0.0,-1.0,0.007087055563427491,2.0,0
50.50056457519531,3.715482711791992,-1.332725167274475,-0.0,-0.0,-1.0,0.00989765340836103,1.0,0
50.93132781982422,3.608144760131836,-1.4108506441116333,-0.0,-0.0,-1.0,0.00958630249293746,1.0,0
50.52207946777344,5.4149580001831055,-1.5188428163528442,-0.0,-0.0,-1.0,0.0081842527969669,1.0,0
50.62800216674805,4.580085754394531,-1.462606430053711,-0.0,-0.0,-1.0,0.016876898407009684,1.0,0
50.96434020996094,4.629215240478516,-1.5004608631134033,-0.0,-0.0,-1.0,0.009548671021619742,1.0,0
51.3663215637207,4.649690628051758,-1.5558903217315674,-0.0,-0.0,-1.0,0.01740130747920648,1.0,0
52.1969108581543,4.703487396240234,-1.6779162883758545,-0.0,-0.0,-1.0,0.018562785352299157,1.0,0
51.18222427368164,4.774370193481445,-1.5050387382507324,-0.0,-0.0,-1.0,0.012514569402361548,1.0,0
51.5255126953125,4.949052810668945,-1.525235652923584,-0.0,-0.0,-1.0,0.022683476120852666,2.0,0
51.8523063659668,4.8482770919799805,-1.595505714416504,-0.0,-0.0,-1.0,0.0095358424678111,1.0,0
52.18646240234375,4.8305864334106445,-1.6536693572998047,-0.0,-0.0,-1.0,0.023018371238926128,1.0,0
52.40423583984375,4.8209075927734375,-1.6920208930969238,-0.0,-0.0,-1.0,0.056162619548598795,1.0,0
52.69881057739258,5.420602798461914,-1.639899730682373,-0.0,-0.0,-1.0,0.03246015357789504,1.0,0
52.67668533325195,3.9325342178344727,-1.3883886337280273,-0.0,-0.0,-1.0,0.08779708873476286,1.0,0
50.80181884765625,4.347543716430664,-1.4795488119125366,-0.0,-0.0,-1.0,0.015050944838620798,1.0,0
52.34473419189453,4.132356643676758,-1.6789113283157349,-0.0,-0.0,-1.0,0.03378198018635818,1.0,0
50.9005126953125,4.396963119506836,-1.478049635887146,-0.0,-0.0,-1.0,0.012409887024019808,1.0,0
51.29119110107422,4.373356819152832,-1.5194166898727417,-0.0,-0.0,-1.0,0.00735896547563621,2.0,0
51.63681411743164,4.38156795501709,-1.5520848035812378,-0.0,-0.0,-1.0,0.008997549991314328,1.0,0
52.009788513183594,4.318709373474121,-1.604254126548767,-0.0,-0.0,-1.0,0.006717577630802209,1.0,0
52.52065658569336,4.237466812133789,-1.6778615713119507,-0.0,-0.0,-1.0,0.03985245103459412,1.0,0
52.63547897338867,4.744671821594238,-1.5900441408157349,0.4426553932531056,-0.8506837468234877,-0.28353723867296676,0.040038158190094375,4.0,0
50.25189971923828,5.5644941329956055,-1.5813788175582886,-0.0,-0.0,-1.0,0.011180868737388624,1.0,0
50.540924072265625,5.463556289672852,-1.6339751482009888,-0.0,-0.0,-1.0,0.007844807705899688,1.0,0
50.97500228881836,5.4958086013793945,-1.67131507396698,-0.0,-0.0,-1.0,0.005396183174128565,1.0,0
51.23826599121094,5.511199951171875,-1.6969751119613647,-0.0,-0.0,-1.0,0.005617505299801895,1.0,0
51.13340759277344,5.57509708404541,-1.669641375541687,-0.0,-0.0,-1.0,0.004684124064616241,1.0,0
51.4362907409668,5.627908706665039,-1.6924084424972534,-0.0,-0.0,-1.0,0.007815211233115706,1.0,0
50.498661041259766,4.448485374450684,-1.4323514699935913,-0.0,-0.0,-1.0,0.03834515564072712,1.0,0
50.41654968261719,3.3994197845458984,-1.4034509658813477,-0.0,-0.0,-1.0,0.0025947617589646946,1.0,0
50.864376068115234,3.3468990325927734,-1.4458882808685303,-0.18690651897187716,0.5775746726935035,-0.7946530378906301,0.007011256998200709,3.0,0
50.28915023803711,3.7688770294189453,-1.3183958530426025,-0.0,-0.0,-1.0,0.006766695495391969,2.0,0
50.525630950927734,3.6279373168945312,-1.3635783195495605,-0.0,-0.0,-1.0,0.002306570940313563,2.0,0
50.84202575683594,3.5021133422851562,-1.4122631549835205,-0.0,-0.0,-1.0,0.008617823985233765,1.0,0
51.47880554199219,3.356813430786133,-1.4930543899536133,-0.0,-0.0,-1.0,0.020604398411328783,1.0,0
51.73163604736328,3.2397079467773438,-1.5389301776885986,-0.0,-0.0,-1.0,0.018943032717893403,1.0,0
52.08070373535156,3.275827407836914,-1.5639128684997559,-0.0,-0.0,-1.0,0.01571393237994887,1.0,0
52.68921661376953,3.160586357116699,-1.6474673748016357,-0.0,-0.0,-1.0,0.1580695153711088,1.0,0
52.32249069213867,3.332874298095703,-1.5759265422821045,-0.0,-0.0,-1.0,0.1295941228496141,1.0,0
52.583187103271484,3.3055801391601562,-1.6079471111297607,-0.0,-0.0,-1.0,0.24655992567962126,2.0,0
50.3824462890625,4.8399200439453125,-1.5162768363952637,-0.0,-0.0,-1.0,0.021096995867230656,1.0,0
52.49150466918945,3.9082040786743164,-1.4791293144226074,-0.0,-0.0,-1.0,0.05774016216044159,2.0,0
50.60892105102539,4.888249397277832,-1.5229246616363525,-0.0,-0.0,-1.0,0.01280962681069412,1.0,0
51.00550842285156,4.9005279541015625,-1.5548315048217773,-0.0,-0.0,-1.0,0.00563116919235762,2.0,0
51.23463821411133,5.007439613342285,-1.5509378910064697,-0.0,-0.0,-1.0,0.012169210380143224,1.0,0
51.47380447387695,4.980526924133301,-1.5815038681030273,-0.0,-0.0,-1.0,0.02240323437240186,1.0,0
51.87528991699219,4.901224136352539,-1.643284559249878,-0.0,-0.0,-1.0,0.010262602831544733,1.0,0
52.445030212402344,4.909662246704102,-1.7080843448638916,-0.0,-0.0,-1.0,0.05843145178139853,1.0,0
52.547000885009766,5.188605308532715,-1.6570055484771729,0.8963004467543213,0.4050859590879538,-0.18041861017588115,0.023125561705213064,5.0,0
52.62763214111328,5.224529266357422,-1.6590723991394043,-0.0,-0.0,-1.0,0.02718555853677782,1.0,0
50.96293640136719,3.327651023864746,-1.4520854949951172,-0.0,-0.0,-1.0,0.006008090206159606,1.0,0
51.16069030761719,3.155177116394043,-1.5063390731811523,-0.0,-0.0,-1.0,0.008913093874345843,1.0,0
51.44416809082031,3.2820920944213867,-1.5041613578796387,-0.0,-0.0,-1.0,0.019483496942309542,1.0,0
51.691162109375,3.186795234680176,-1.5481626987457275,-0.0,-0.0,-1.0,0.0200845287477224,1.0,0
51.94001770019531,3.2005138397216797,-1.569392204284668,-0.0,-0.0,-1.0,0.012337929373276135,1.0,0
52.20060729980469,3.327582359313965,-1.5693466663360596,-0.0,-0.0,-1.0,0.0942879191399722,1.0,0
52.54625701904297,3.272867202758789,-1.6183085441589355,-0.0,-0.0,-1.0,0.16160154013541353,1.0,0
50.41227722167969,4.795991897583008,-1.4835736751556396,-0.0,-0.0,-1.0,0.021096995867230538,1.0,0
50.7127685546875,4.820548057556152,-1.5026564598083496,-0.0,-0.0,-1.0,0.012778106565392012,1.0,0
50.967994689941406,4.835837364196777,-1.5219316482543945,-0.0,-0.0,-1.0,0.004486270166668936,1.0,0
51.26325988769531,4.76392936706543,-1.5690395832061768,-0.0,-0.0,-1.0,0.013104061562089844,1.0,0
51.662349700927734,4.781968116760254,-1.6066656112670898,-0.0,-0.0,-1.0,0.022644498449081812,1.0,0
51.49830627441406,4.9533281326293945,-1.5458767414093018,-0.0,-0.0,-1.0,0.021986071672545602,2.0,0
51.76729965209961,4.801234245300293,-1.6136460304260254,-0.0,-0.0,-1.0,0.013610226285168761,1.0,0
52.07932662963867,4.676912307739258,-1.6810359954833984,-0.0,-0.0,-1.0,0.0099560403642109,2.0,0
52.53032302856445,5.045009613037109,-1.647216796875,-0.0,-0.0,-1.0,0.0274806089618679,1.0,0
52.60565948486328,5.237265586853027,-1.6104271411895752,-0.0,-0.0,-1.0,0.02611893453137292,2.0,0
50.337196350097656,3.4498367309570312,-1.377267599105835,-0.0,-0.0,-1.0,0.002614057423974339,1.0,0
50.73811340332031,3.441679000854492,-1.4090704917907715,-0.0,-0.0,-1.0,0.0072435454799184345,1.0,0
50.45486831665039,3.7362232208251953,-1.323099136352539,-0.0,-0.0,-1.0,0.007091148732354298,1.0,0
50.86478042602539,3.425898551940918,-1.4226531982421875,-0.08100667514043434,-0.053966109782483715,-0.9952515147326514,0.007643708182276483,3.0,0
51.578575134277344,3.4860572814941406,-1.472712516784668,-0.0,-0.0,-1.0,0.020077902668958335,2.0,0
52.50788116455078,3.9280176162719727,-1.4756290912628174,-0.0,-0.0,-1.0,0.059650166047114345,2.0,0
52.476200103759766,3.1538543701171875,-1.3873077630996704,-0.0,-0.0,-1.0,0.0950244417565899,1.0,0
52.50196838378906,3.3282365798950195,-1.293432593345642,-0.0,-0.0,-1.0,0.14705871756849487,1.0,0
52.532283782958984,3.209834098815918,-1.4019221067428589,-0.0,-0.0,-1.0,0.09502444175658989,2.0,0
52.598201751708984,3.190981864929199,-1.0556349754333496,-0.0,-0.0,-1.0,0.15527368599343427,2.0,0
52.59653091430664,3.1588668823242188,-1.0300102233886719,-0.0,-0.0,-1.0,0.15527368599343438,2.0,0
51.291709899902344,3.8471055030822754,-1.490157127380371,-0.0,-0.0,-1.0,0.006847484049358167,1.0,0
51.16691589355469,3.8099350929260254,-1.4779016971588135,-0.0,-0.0,-1.0,0.00828301671521263,1.0,0
51.04713439941406,3.8497262001037598,-1.444659948348999,-0.0,-0.0,-1.0,0.007797342105599834,1.0,0
52.69934844970703,5.014376640319824,-1.565894603729248,-0.0,-0.0,-1.0,0.03114853000652422,1.0,0
51.05873107910156,4.793730735778809,-1.5406852960586548,-0.0,-0.0,-1.0,0.007923497306783852,1.0,0
51.51262664794922,4.808788776397705,-1.5902262926101685,-0.0,-0.0,-1.0,0.02383821477256214,1.0,0
52.48946762084961,4.731395721435547,-1.6925455331802368,-0.0,-0.0,-1.0,0.06951992575970532,1.0,0
52.49546813964844,4.834898471832275,-1.6973356008529663,-0.0,-0.0,-1.0,0.0636444550721655,2.0,0
51.10826110839844,4.537520408630371,-1.47919499874115,-0.0,-0.0,-1.0,0.009751153611370736,1.0,0
51.465885162353516,4.852891445159912,-1.5295459032058716,-0.5621918678680968,0.29613076533515614,-0.7721702361040573,0.02442671343700022,3.0,0
50.47441482543945,4.758970260620117,-1.4091898202896118,-0.0,-0.0,-1.0,0.10859761475491427,1.0,0
52.48232650756836,3.3045334815979004,-1.2300770282745361,-0.0,-0.0,-1.0,0.14705871756849487,2.0,0
52.52961730957031,3.206618309020996,-1.3443418741226196,-0.3783365262020092,-0.004051701945042522,-0.9256592551542634,0.09502444175658992,3.0,0
50.734466552734375,4.602733135223389,-1.4844034910202026,-0.0,-0.0,-1.0,0.013155578888689403,1.0,0
50.510704040527344,4.809086322784424,-1.4572993516921997,-0.0,-0.0,-1.0,0.10319452460716028,2.0,0
50.64161682128906,4.77726936340332,-1.4748903512954712,-0.0,-0.0,-1.0,0.01705271573182846,1.0,0
51.01690673828125,4.915775299072266,-1.5299409627914429,-0.0,-0.0,-1.0,0.0056311691923576395,2.0,0
50.72745132446289,4.745352268218994,-1.460749864578247,-0.0,-0.0,-1.0,0.010238216448844512,1.0,0
51.105255126953125,4.900792121887207,-1.5181453227996826,-0.0,-0.0,-1.0,0.008091314260701567,1.0,0
51.259735107421875,5.26516580581665,-1.5475008487701416,-0.0,-0.0,-1.0,0.00885019675350733,2.0,0
52.55494689941406,3.2005157470703125,-1.3546679019927979,-0.0,-0.0,-1.0,0.15527368599343452,2.0,0
50.22152328491211,4.893988609313965,-1.4785076379776,-0.0,-0.0,-1.0,0.0885167901001551,1.0,0
50.82400131225586,5.357245922088623,-1.5748132467269897,-0.0,-0.0,-1.0,0.00604161045913514,2.0,0
51.61155700683594,5.619067192077637,-1.7080532312393188,-0.6047781560473731,-0.44977682614017384,-0.6572246104911248,0.00694429030310647,3.0,0
52.510047912597656,3.390591621398926,-1.2213712930679321,-0.0,-0.0,-1.0,0.1684174530488712,1.0,0
52.5899772644043,3.2507505416870117,-1.571138620376587,-0.0,-0.0,-1.0,0.1981625751184303,2.0,0
52.693077087402344,4.530600070953369,-1.5735423564910889,-0.0,-0.0,-1.0,0.025446266096446634,1.0,0
50.97570037841797,3.6622657775878906,-1.301199197769165,-0.0,-0.0,-1.0,0.008728636528733333,1.0,0
52.62379455566406,4.738455772399902,-1.5608952045440674,0.2932105661115473,-0.952214635777858,-0.085526904135406,0.040038158190094375,3.0,0
52.649986267089844,4.893252849578857,-1.5646719932556152,0.2577619009400666,0.2278918032892629,-0.9389484162707402,0.056089762847744896,3.0,0
52.51229476928711,3.2644996643066406,-1.5264192819595337,-0.0,-0.0,-1.0,0.1981625751184304,2.0,0
50.951725006103516,4.694460391998291,-1.501586675643921,-0.0,-0.0,-1.0,0.009960264689379935,1.0,0
51.13715362548828,4.6206560134887695,-1.539649248123169,-0.0,-0.0,-1.0,0.008240101238874115,1.0,0
51.18735122680664,4.974602699279785,-1.5284273624420166,-0.0,-0.0,-1.0,0.0101343623024177,1.0,0
51.32082748413086,4.936725616455078,-1.5550484657287598,-0.0,-0.0,-1.0,0.014821122309598922,1.0,0
51.431156158447266,5.2252960205078125,-1.5598814487457275,-0.0,-0.0,-1.0,0.012059585092193362,1.0,0
51.602603912353516,5.1138763427734375,-1.5973083972930908,-0.0,-0.0,-1.0,0.01644419322244676,2.0,0
52.29058837890625,5.366488456726074,-1.7119531631469727,-0.0,-0.0,-1.0,0.021649076106464517,1.0,0
52.52958297729492,5.593460559844971,-1.7460815906524658,-0.0,-0.0,-1.0,0.029862462842755948,1.0,0
50.68084716796875,4.552006244659424,-1.460965871810913,-0.0,-0.0,-1.0,0.01765410922406535,1.0,0
52.006919860839844,5.511760711669922,-1.738570213317871,-0.0,-0.0,-1.0,0.003060457987274199,1.0,0
50.507530212402344,4.828939437866211,-1.4815139770507812,-0.0,-0.0,-1.0,0.0214242685760284,2.0,0
50.460693359375,4.670492649078369,-1.4820823669433594,-0.0,-0.0,-1.0,0.028659230667608143,1.0,0
50.6601448059082,4.98570442199707,-1.502159595489502,-0.0,-0.0,-1.0,0.009158781996740167,1.0,0
50.8084716796875,4.995083808898926,-1.5303170680999756,-0.0,-0.0,-1.0,0.0026823746560732803,1.0,0
51.116233825683594,5.128359317779541,-1.583043098449707,-0.0,-0.0,-1.0,0.006895966824635738,1.0,0
51.235816955566406,5.291431903839111,-1.597848892211914,-0.0,-0.0,-1.0,0.008162851712290078,1.0,0
51.87837219238281,3.663884162902832,-1.5840331315994263,-0.0,-0.0,-1.0,0.0049976406193859655,1.0,0
51.9184455871582,4.202549934387207,-1.560020089149475,-0.0,-0.0,-1.0,0.004956568826110981,1.0,0
51.8993034362793,3.7387771606445312,-1.583258032798767,-0.0,-0.0,-1.0,0.004791777395843013,1.0,0
52.209468841552734,4.326274871826172,-1.606953501701355,-0.0,-0.0,-1.0,0.008439184099150251,1.0,0
52.53777313232422,4.923646926879883,-1.6389950513839722,0.9285221585072936,-0.19992105638986277,-0.31285487429943876,0.045064880802153755,3.0,0
52.509315490722656,4.561915397644043,-1.6505900621414185,-0.0,-0.0,-1.0,0.027915559168415555,1.0,0
52.69582748413086,5.475917339324951,-1.6460424661636353,-0.0,-0.0,-1.0,0.03172581085161125,2.0,0
52.567169189453125,5.162262916564941,-1.6341890096664429,0.6110489758277052,0.6615467414478923,-0.43471261543643835,0.020151744904075647,5.0,0
50.641780853271484,3.1628899574279785,-1.3946675062179565,-0.0,-0.0,-1.0,0.0066130354061924605,1.0,0
50.7072868347168,4.025222301483154,-1.3485692739486694,-0.0,-0.0,-1.0,0.008521235728477084,1.0,0
50.76591873168945,3.7566099166870117,-1.3760439157485962,-0.0,-0.0,-1.0,0.007305958321384182,1.0,0
50.88216018676758,3.385676383972168,-1.4218868017196655,-0.01440389108966002,0.2432439573027558,-0.9698581881683384,0.007429735810604936,4.0,0
50.83080291748047,4.162222862243652,-1.3626302480697632,-0.0,-0.0,-1.0,0.010813795976070614,2.0,0
51.00745391845703,3.8303613662719727,-1.4151571989059448,-0.0,-0.0,-1.0,0.008238784005543112,2.0,0
51.580570220947266,4.7438130378723145,-1.4691773653030396,-0.0,-0.0,-1.0,0.021579363567656867,1.0,0
50.45439529418945,4.455238342285156,-1.3807098865509033,-0.0,-0.0,-1.0,0.0370525096575199,1.0,0
50.50663757324219,4.202629566192627,-1.401782751083374,-0.0,-0.0,-1.0,0.02858047150675861,1.0,0
50.95166778564453,4.4614152908325195,-1.482318639755249,-0.0,-0.0,-1.0,0.011539151012478625,1.0,0
51.31703186035156,4.527780532836914,-1.5547289848327637,-0.0,-0.0,-1.0,0.013343381921150626,1.0,0
52.500404357910156,3.1986703872680664,-1.2972137928009033,-0.0,-0.0,-1.0,0.09502444175658996,2.0,0
50.541500091552734,4.887649059295654,-1.0552399158477783,-0.0,-0.0,-1.0,0.10727918056508119,1.0,0
50.39885330200195,4.925390720367432,-1.3822540044784546,-0.0,-0.0,-1.0,0.09091966308007839,1.0,0
52.6414794921875,4.769773483276367,-1.6293613910675049,-0.0,-0.0,-1.0,0.0576667109547704,2.0,0
52.61357879638672,5.081694602966309,-1.6374738216400146,-0.0,-0.0,-1.0,0.025132172452123135,2.0,0
52.589393615722656,5.398669242858887,-1.646759271621704,-0.0,-0.0,-1.0,0.03246015357789507,2.0,0
52.535919189453125,4.895014762878418,-1.626200795173645,0.5113502572026642,-0.6668271418195096,-0.5420908386899679,0.05565844492108632,4.0,0
51.453575134277344,4.890588760375977,-1.5061262845993042,-0.5621918678680968,0.29613076533515614,-0.7721702361040573,0.022223505898081062,3.0,0
52.60141372680664,4.858005523681641,-1.5527459383010864,-0.0,-0.0,-1.0,0.05921100988022226,2.0,0
52.645084381103516,4.994024753570557,-1.5608574151992798,-0.0,-0.0,-1.0,0.034697169530246645,2.0,0
52.632415771484375,5.482938766479492,-1.6626076698303223,-0.0,-0.0,-1.0,0.03172581085161129,2.0,0
50.91945266723633,4.6126508712768555,-1.469160556793213,-0.0,-0.0,-1.0,0.011841713517292681,1.0,0
52.68608093261719,4.818235397338867,-1.533227801322937,-0.0,-0.0,-1.0,0.05689227080929983,2.0,0
52.681907653808594,4.94885778427124,-1.5298196077346802,-0.0,-0.0,-1.0,0.045206311365148986,1.0,0
52.46015167236328,3.4895496368408203,-1.1871309280395508,-0.0,-0.0,-1.0,0.17268926840981022,1.0,0
50.35887145996094,4.378973007202148,-1.184964895248413,-0.0,-0.0,-1.0,0.035569673890601054,1.0,0
52.56658172607422,5.513214111328125,-1.7066848278045654,-0.0,-0.0,-1.0,0.03136283318205044,1.0,0
52.46351623535156,5.316884994506836,-1.690054178237915,-0.0,-0.0,-1.0,0.024441704356970222,1.0,0
50.49315643310547,4.552970886230469,-1.382530689239502,-0.0,-0.0,-1.0,0.03420463144048376,1.0,0
52.55168914794922,5.194948196411133,-1.6324663162231445,0.8963004467543213,0.4050859590879538,-0.18041861017588115,0.026767487154268774,5.0,0
52.59613800048828,4.6400909423828125,-1.627370834350586,-0.0,-0.0,-1.0,0.030121386457517753,1.0,0
52.70490646362305,5.516066551208496,-1.6563730239868164,0.6348992440869835,-0.32403312504494786,-0.701359739171976,0.0317258108516113,3.0,0
52.502681732177734,4.171700477600098,-1.5931525230407715,-0.0,-0.0,-1.0,0.053912512458709844,1.0,0
52.617916107177734,4.420520305633545,-1.6356258392333984,-0.0,-0.0,-1.0,0.016637954001472548,2.0,0
52.69658660888672,4.610335350036621,-1.636591911315918,-0.0,-0.0,-1.0,0.0258392975155249,1.0,0
52.59090805053711,4.8126373291015625,-1.6091785430908203,-0.0,-0.0,-1.0,0.048320980878370515,1.0,0
52.575870513916016,5.2123589515686035,-1.5841455459594727,-0.0,-0.0,-1.0,0.027619041159239265,2.0,0
52.69492721557617,5.586973190307617,-1.5807180404663086,-0.0,-0.0,-1.0,0.031725810851611275,1.0,0
52.39118576049805,3.2428197860717773,-1.5463848114013672,-0.0,-0.0,-1.0,0.12240478288924508,1.0,0
50.220489501953125,4.884737491607666,-1.335442066192627,-0.0,-0.0,-1.0,0.09119721386108717,1.0,0
52.709007263183594,4.981875896453857,-1.6109580993652344,-0.0,-0.0,-1.0,0.039050778407518826,1.0,0
52.59807205200195,5.161680698394775,-1.6316308975219727,0.2741658462080363,-0.3524762785863876,-0.8947589406130134,0.020894474481256618,4.0,0
