x,y,z,nx,ny,nz,curvature,density,label
31.022375106811523,21.611732482910156,-1.838529109954834,-0.0,-0.0,-1.0,0.05115505605928104,1.0,0
30.849376678466797,21.33350372314453,-1.8146562576293945,-0.0,-0.0,-1.0,0.009233980912653234,1.0,0
31.31057357788086,22.037376403808594,-1.8833661079406738,-0.5983382218598567,0.5456191196651807,-0.5867632815006222,0.03581927646427675,3.0,0
31.144554138183594,21.847293853759766,-1.853783130645752,-0.0,-0.0,-1.0,0.022186223219974967,1.0,0
31.398239135742188,22.470123291015625,-1.8804502487182617,-0.45616784997878446,0.1622095830738987,-0.8749851106188755,0.06793916672705504,3.0,0
31.451828002929688,22.36331558227539,-1.8997654914855957,-0.0,-0.0,-1.0,0.08672890502015991,2.0,0
31.87696075439453,22.71237564086914,-1.9877734184265137,-0.0,-0.0,-1.0,0.03260341049032389,1.0,0
32.028778076171875,22.952369689941406,-2.0141472816467285,-0.0,-0.0,-1.0,0.04071677259896145,1.0,0
30.57911491394043,22.81732749938965,-1.656519889831543,0.5366749154428543,-0.8346531777615314,0.12383096538016056,0.17982878864955676,4.0,0
30.778522491455078,22.409297943115234,-1.729015827178955,-0.0,-0.0,-1.0,0.11510661029105809,1.0,0
31.608673095703125,21.57408332824707,-1.8708879947662354,-0.0,-0.0,-1.0,0.015036815317897965,1.0,0
31.444015502929688,21.40962028503418,-1.8362343311309814,-0.0,-0.0,-1.0,0.016235869251187664,2.0,0
31.925643920898438,22.096689224243164,-1.9310338497161865,-0.0,-0.0,-1.0,0.011284167847861662,1.0,0
31.793689727783203,21.857128143310547,-1.9063336849212646,-0.15430146488956314,-0.16038886097986127,-0.9749186997932274,0.031434846133838276,4.0,0
32.2220573425293,22.57329750061035,-1.9912264347076416,-0.0,-0.0,-1.0,0.022710831715117015,1.0,0
32.09125518798828,22.328964233398438,-1.965358018875122,-0.0,-0.0,-1.0,0.015409960587917689,2.0,0
32.446346282958984,23.03201675415039,-2.036370038986206,-0.0,-0.0,-1.0,0.029816979010592992,1.0,0
32.38664627075195,22.814762115478516,-2.026627779006958,-0.0,-0.0,-1.0,0.03161974692919173,1.0,0
31.279499053955078,21.208385467529297,-1.8040292263031006,-0.0,-0.0,-1.0,0.04320585166493129,2.0,0
31.19780731201172,20.866907119750977,-1.800555944442749,-0.06614145601523959,0.5987462073677184,-0.7982031614563782,0.06800411334708928,4.0,0
30.55514144897461,21.330219268798828,-1.8592278957366943,-0.0,-0.0,-1.0,0.08166803814992975,1.0,0
30.408096313476562,21.00125503540039,-1.828183889389038,-0.0,-0.0,-1.0,0.04893369675141002,1.0,0
30.647281646728516,22.26917839050293,-1.864577054977417,-0.0,-0.0,-1.0,0.1497307394172671,1.0,0
30.713665008544922,21.8111629486084,-1.8920776844024658,-0.8129556828740345,-0.20468545311583317,-0.5451668762549488,0.05444345367901109,3.0,0
30.642963409423828,21.55283546447754,-1.8779518604278564,-0.0,-0.0,-1.0,0.02763592135002317,1.0,0
32.62969970703125,20.648710250854492,-1.8319289684295654,-0.0,-0.0,-1.0,0.039536359652572926,1.0,0
30.292030334472656,20.9371280670166,-1.7789990901947021,-0.0,-0.0,-1.0,0.06098845398481384,1.0,0
30.215286254882812,20.743934631347656,-1.7601149082183838,-0.0,-0.0,-1.0,0.06263284279553408,1.0,0
30.58920669555664,21.411029815673828,-1.8602068424224854,-0.0,-0.0,-1.0,0.035199210608413876,1.0,0
30.476886749267578,21.15691566467285,-1.8300397396087646,-0.0,-0.0,-1.0,0.054661575323918195,1.0,0
32.46546173095703,20.641101837158203,-1.807255506515503,-0.0,-0.0,-1.0,0.03413694645687769,1.0,0
32.633750915527344,21.083423614501953,-1.847625494003296,-0.0,-0.0,-1.0,0.013509542711811847,2.0,0
32.58390426635742,20.854448318481445,-1.8360474109649658,-0.0,-0.0,-1.0,0.040418019194835904,1.0,0
30.97180938720703,20.901180267333984,-1.8065898418426514,-0.0,-0.0,-1.0,0.014918996832410925,2.0,0
31.04013442993164,20.721113204956055,-1.8106982707977295,-0.0,-0.0,-1.0,0.031081571135353765,1.0,0
30.973722457885742,21.432741165161133,-1.8592822551727295,-0.0,-0.0,-1.0,0.06800002273274831,2.0,0
31.009098052978516,21.149446487426758,-1.8416650295257568,-0.2957008683070198,0.12533863967623118,-0.9470222921803829,0.060426311429543585,3.0,0
31.16880989074707,21.15170669555664,-1.8334848880767822,-0.0,-0.0,-1.0,0.05127945788879747,2.0,0
31.25419807434082,20.809795379638672,-1.8223984241485596,-0.0,-0.0,-1.0,0.04439129328012308,1.0,0
31.109333038330078,21.717451095581055,-1.8812081813812256,-0.0,-0.0,-1.0,0.04816514355436877,1.0,0
31.132423400878906,21.407272338867188,-1.8515074253082275,-0.0,-0.0,-1.0,0.10155077496441432,1.0,0
30.55295753479004,22.81471061706543,-1.8607237339019775,-0.0,-0.0,-1.0,0.13857006669957322,1.0,0
30.64019775390625,22.51247215270996,-1.8445823192596436,-0.0,-0.0,-1.0,0.11232986820316752,1.0,0
30.91739273071289,22.20029067993164,-1.8845798969268799,-0.0,-0.0,-1.0,0.05132360112309131,2.0,0
31.100507736206055,21.98493194580078,-1.9113471508026123,-0.0,-0.0,-1.0,0.03813352648415635,1.0,0
30.60186767578125,23.055240631103516,-1.9092352390289307,-0.0,-0.0,-1.0,0.11374092679106225,1.0,0
30.945404052734375,20.722640991210938,-1.8111276626586914,-0.0,-0.0,-1.0,0.017944864681850924,2.0,0
30.851781845092773,21.27545738220215,-1.8479833602905273,-0.0,-0.0,-1.0,0.0073078424897767,2.0,0
30.968408584594727,21.009742736816406,-1.8524608612060547,-0.0,-0.0,-1.0,0.030454136580895717,2.0,0
30.77293586730957,21.827360153198242,-1.8961663246154785,-0.0,-0.0,-1.0,0.03569740200444054,1.0,0
30.808910369873047,21.538066864013672,-1.8684263229370117,-0.0,-0.0,-1.0,0.009717428885313252,2.0,0
30.417449951171875,22.651979446411133,-1.9068336486816406,-0.0,-0.0,-1.0,0.10712318055605617,1.0,0
30.533855438232422,22.32659149169922,-1.893223762512207,-0.0,-0.0,-1.0,0.14004044192689757,1.0,0
30.713899612426758,22.061174392700195,-1.9104809761047363,-0.0,-0.0,-1.0,0.1322320194523471,1.0,0
30.332731246948242,23.12458610534668,-1.956949234008789,-0.0,-0.0,-1.0,0.10249709584094088,2.0,0
30.342239379882812,22.869720458984375,-1.9183025360107422,0.25982631081200863,-0.7458157379519148,0.6133915333887989,0.11188463476313862,3.0,0
32.67475509643555,21.74201202392578,-1.9435672760009766,-0.0,-0.0,-1.0,0.012661783661663407,1.0,0
32.608394622802734,22.304058074951172,-1.9911832809448242,-0.0,-0.0,-1.0,0.021537304388236145,2.0,0
32.6672477722168,22.004663467407227,-1.9716615676879883,-0.0,-0.0,-1.0,0.017155272840879844,1.0,0
32.50190734863281,22.910463333129883,-2.038428783416748,-0.0,-0.0,-1.0,0.02677928332547436,1.0,0
32.56214141845703,22.60885238647461,-2.016063690185547,-0.0,-0.0,-1.0,0.027807746228009043,1.0,0
30.921796798706055,20.966590881347656,-1.856611728668213,-0.0,-0.0,-1.0,0.016656991560640773,1.0,0
30.6279296875,21.69717025756836,-1.8929953575134277,0.22049101439147228,-0.4138146498423535,-0.8832559924214892,0.04097448966177002,3.0,0
30.543067932128906,21.87020492553711,-1.8989839553833008,-0.0,-0.0,-1.0,0.06317465070657727,2.0,0
30.753864288330078,21.12496566772461,-1.8297057151794434,-0.0,-0.0,-1.0,0.014321739280629483,1.0,0
30.9000244140625,20.859609603881836,-1.8315768241882324,-0.0,-0.0,-1.0,0.015313660750126528,1.0,0
30.628280639648438,21.607492446899414,-1.8764071464538574,-0.0,-0.0,-1.0,0.02507612155798123,2.0,0
30.683555603027344,21.38416862487793,-1.853250503540039,-0.0,-0.0,-1.0,0.010478987007721142,1.0,0
30.343772888183594,22.183685302734375,-1.8976707458496094,-0.0,-0.0,-1.0,0.04518197715101527,1.0,0
30.511810302734375,21.896770477294922,-1.8943171501159668,-0.0,-0.0,-1.0,0.049638833666845794,2.0,0
32.466453552246094,21.01803970336914,-1.8567514419555664,-0.0,-0.0,-1.0,0.014886058581769787,2.0,0
32.53950881958008,20.746740341186523,-1.838334083557129,-0.0,-0.0,-1.0,0.04154276144753622,1.0,0
30.251182556152344,22.39624786376953,-1.911633014678955,-0.0,-0.0,-1.0,0.11903025778664941,1.0,0
32.353363037109375,21.57239532470703,-1.90889310836792,-0.0,-0.0,-1.0,0.004353763245408459,1.0,0
32.448177337646484,21.33043098449707,-1.898529052734375,-0.0,-0.0,-1.0,0.012048577215502123,1.0,0
32.180511474609375,22.10820770263672,-1.946545124053955,-0.0,-0.0,-1.0,0.007260248827081708,2.0,0
32.27122497558594,21.84213638305664,-1.92854642868042,-0.0,-0.0,-1.0,0.004606453135320207,1.0,0
32.02198791503906,22.633216857910156,-1.9918408393859863,-0.0,-0.0,-1.0,0.029384419282838536,2.0,0
32.096046447753906,22.35507583618164,-1.9643750190734863,-0.0,-0.0,-1.0,0.016891466583833795,2.0,0
31.960067749023438,22.94424819946289,-2.0299487113952637,-0.0,-0.0,-1.0,0.039221874440321214,1.0,0
32.655120849609375,20.692710876464844,-1.8474936485290527,-0.0,-0.0,-1.0,0.040572618203530066,1.0,0
32.53050231933594,21.351505279541016,-1.9253883361816406,-0.0,-0.0,-1.0,0.011471591371458327,2.0,0
32.58110809326172,21.111881256103516,-1.8976554870605469,-0.0,-0.0,-1.0,0.01490501747422203,1.0,0
32.41986846923828,21.597135543823242,-1.9382429122924805,-0.0,-0.0,-1.0,0.004799190698878724,1.0,0
32.20301055908203,22.083667755126953,-1.9685416221618652,-0.0,-0.0,-1.0,0.007289370103938329,2.0,0
32.330169677734375,21.850730895996094,-1.9598650932312012,-0.0,-0.0,-1.0,0.00482190351049536,1.0,0
32.000213623046875,22.628828048706055,-2.021005153656006,-0.0,-0.0,-1.0,0.030610763248325675,2.0,0
32.07794189453125,22.392078399658203,-1.9942684173583984,-0.0,-0.0,-1.0,0.019502305795175316,2.0,0
31.88971710205078,22.94691276550293,-2.0572047233581543,-0.0,-0.0,-1.0,0.03386365084827472,1.0,0
30.625452041625977,22.85593032836914,-1.686448097229004,-0.0,-0.0,-1.0,0.19679751821541347,2.0,0
30.446128845214844,23.072059631347656,-1.9012848138809204,-0.0,-0.0,-1.0,0.09014503248932725,2.0,0
30.351036071777344,21.908496856689453,-1.8431075811386108,-0.0,-0.0,-1.0,0.03423876955308771,2.0,0
30.257184982299805,21.652738571166992,-1.8409744501113892,-0.7334556029759396,-0.6739007603739823,0.08888556480424241,0.08053495027076958,3.0,0
30.20990753173828,21.376888275146484,-1.8320940732955933,-0.0,-0.0,-1.0,0.16132316767308275,1.0,0
30.38657569885254,20.853702545166016,-1.7817789316177368,-0.0,-0.0,-1.0,0.06503036525749764,1.0,0
30.70354461669922,22.728057861328125,-1.8470951318740845,-0.0,-0.0,-1.0,0.13462919447501903,1.0,0
30.739139556884766,22.497690200805664,-1.82831609249115,-0.0,-0.0,-1.0,0.13126124579634535,1.0,0
30.730506896972656,22.037582397460938,-1.801813006401062,-0.0,-0.0,-1.0,0.1424937289227145,2.0,0
30.868940353393555,22.22510528564453,-1.795235514640808,-0.0,-0.0,-1.0,0.07558994691355839,1.0,0
30.629480361938477,22.579187393188477,-1.6325840950012207,-0.0,-0.0,-1.0,0.08614336051855298,1.0,0
31.564985275268555,23.034406661987305,-2.0305798053741455,-0.0,-0.0,-1.0,0.01328047871529876,1.0,0
31.560670852661133,22.947589874267578,-2.024082660675049,-0.0,-0.0,-1.0,0.01455046429921841,2.0,0
31.541181564331055,22.778940200805664,-2.013049364089966,-0.0,-0.0,-1.0,0.012998947574237621,1.0,0
31.806386947631836,22.37149429321289,-1.946108341217041,-0.0,-0.0,-1.0,0.026657819230171763,1.0,0
31.805112838745117,22.156795501708984,-1.9295544624328613,-0.0,-0.0,-1.0,0.025859527031189877,1.0,0
31.825021743774414,21.84986114501953,-1.9034051895141602,0.0055437662951201006,-0.3531161872375787,-0.9355630523733075,0.03076032387348848,3.0,0
31.78512191772461,21.57875633239746,-1.8884754180908203,-0.0,-0.0,-1.0,0.01711034826767382,1.0,0
31.806110382080078,21.194250106811523,-1.857588529586792,-0.0,-0.0,-1.0,0.039291432576944785,2.0,0
31.8690242767334,20.923629760742188,-1.8299062252044678,-0.0,-0.0,-1.0,0.014783815102790648,1.0,0
31.845945358276367,20.732807159423828,-1.8197312355041504,-0.0,-0.0,-1.0,0.012193603430238177,2.0,0
31.195619583129883,23.06862449645996,-2.005110740661621,-0.0,-0.0,-1.0,0.026326654421544998,1.0,0
31.24018669128418,22.726295471191406,-1.974441647529602,-0.0,-0.0,-1.0,0.028291510779774397,1.0,0
31.539011001586914,22.380023956298828,-1.9104536771774292,-0.0,-0.0,-1.0,0.03974584226490246,1.0,0
31.462629318237305,22.16529083251953,-1.9055715799331665,-0.0,-0.0,-1.0,0.015163261425549628,1.0,0
31.47736930847168,21.811477661132812,-1.879459023475647,-0.0,-0.0,-1.0,0.048193132622777884,2.0,0
31.60711669921875,21.264404296875,-1.8259576559066772,-0.0,-0.0,-1.0,0.007361327914762918,2.0,0
31.623994827270508,20.98702621459961,-1.8059543371200562,-0.0,-0.0,-1.0,0.009039275695693768,1.0,0
31.606407165527344,20.79560089111328,-1.7964361906051636,-0.0,-0.0,-1.0,0.010557027184550807,2.0,0
30.6964168548584,22.85682487487793,-1.6842772960662842,-0.0,-0.0,-1.0,0.16652040484124295,1.0,0
32.23951721191406,23.117008209228516,-2.034907341003418,-0.0,-0.0,-1.0,0.02809393941268753,1.0,0
32.23445510864258,22.905683517456055,-2.0131874084472656,-0.0,-0.0,-1.0,0.03345970774395657,1.0,0
32.19683074951172,22.632102966308594,-1.9894570112228394,-0.0,-0.0,-1.0,0.026481884503087333,2.0,0
32.17119216918945,22.23147201538086,-1.9517043828964233,-0.0,-0.0,-1.0,0.01182836853492442,2.0,0
32.22113037109375,21.7877197265625,-1.9006763696670532,-0.0,-0.0,-1.0,0.005404968500917673,2.0,0
32.18142318725586,21.842041015625,-1.9113236665725708,-0.0,-0.0,-1.0,0.00791558429251047,2.0,0
32.200538635253906,21.3813533782959,-1.8636873960494995,-0.0,-0.0,-1.0,0.051788956299322585,1.0,0
32.215721130371094,20.98870277404785,-1.8241976499557495,-0.41039894573687796,0.43035062638641014,-0.8039720416201568,0.01901029823368816,3.0,0
32.11412048339844,20.71533966064453,-1.8123565912246704,-0.0,-0.0,-1.0,0.011736629435398,1.0,0
31.62343978881836,22.7381591796875,-0.9375357627868652,-0.0,-0.0,-1.0,0.14734757447519814,2.0,0
31.64690399169922,22.411643981933594,-0.9169774055480957,-0.0,-0.0,-1.0,0.1290976375199058,1.0,0
31.694103240966797,22.17943000793457,-0.8995614051818848,-0.0,-0.0,-1.0,0.11158830364734747,1.0,0
31.70181655883789,21.82718276977539,-0.8807542324066162,-0.0,-0.0,-1.0,0.0506011859096247,1.0,0
31.663654327392578,22.043466567993164,-0.8957865238189697,-0.0,-0.0,-1.0,0.07515970826028766,1.0,0
31.841415405273438,21.506813049316406,-0.8500115871429443,-0.0,-0.0,-1.0,0.11445247779602444,1.0,0
31.860280990600586,21.083162307739258,-0.8285388946533203,-0.0,-0.0,-1.0,0.1252055175637972,1.0,0
30.51567268371582,22.49254608154297,-1.8278043270111084,-0.0,-0.0,-1.0,0.0732886823706948,1.0,0
30.427997589111328,22.760433197021484,-1.8564207553863525,-0.24564527951004542,-0.39282442085527847,-0.8861982684671341,0.08232510670004942,3.0,0
30.715715408325195,22.159191131591797,-1.7793350219726562,-0.0,-0.0,-1.0,0.08757697085071377,2.0,0
30.542993545532227,22.349712371826172,-1.8154516220092773,-0.0,-0.0,-1.0,0.14322390743867752,1.0,0
30.6059627532959,21.929527282714844,-1.7822625637054443,0.5704835563451099,-0.8212686057062362,0.00814795809825492,0.07989337756161537,3.0,0
30.235288619995117,21.71148681640625,-1.824662446975708,-0.0,-0.0,-1.0,0.0624798288476815,2.0,0
30.53900146484375,22.761566162109375,-1.716062307357788,-0.0765260316683082,0.6714515164750836,-0.7370865807355412,0.1674304350053205,4.0,0
30.513025283813477,22.947772979736328,-1.7319941520690918,-0.0,-0.0,-1.0,0.13210946665619666,1.0,0
31.222042083740234,22.664255142211914,-1.937730312347412,-0.0,-0.0,-1.0,0.08634149406411534,1.0,0
31.0889892578125,22.99248504638672,-1.9833147525787354,-0.0,-0.0,-1.0,0.024942518045090248,1.0,0
31.32345962524414,22.289047241210938,-1.8943836688995361,-0.0,-0.0,-1.0,0.06976613012875893,1.0,0
31.37379264831543,21.62093734741211,-1.8401439189910889,-0.0,-0.0,-1.0,0.036022180423789366,2.0,0
31.292274475097656,21.912595748901367,-1.8733463287353516,-0.0,-0.0,-1.0,0.05562378760397998,1.0,0
31.4478816986084,21.39760398864746,-1.8130676746368408,-0.0,-0.0,-1.0,0.016594970777375064,2.0,0
31.468120574951172,21.09963607788086,-1.790428638458252,-0.0,-0.0,-1.0,0.011434338228641937,1.0,0
31.4678955078125,21.24349021911621,-1.799680233001709,-0.0,-0.0,-1.0,0.009684903969903038,1.0,0
31.444759368896484,20.90572166442871,-1.7821376323699951,-0.0,-0.0,-1.0,0.013650304022652378,1.0,0
30.640708923339844,22.812406539916992,-1.7506450414657593,-0.0,-0.0,-1.0,0.20199001765859567,1.0,0
30.73369598388672,22.414779663085938,-1.7054861783981323,-0.0,-0.0,-1.0,0.10333325670247206,1.0,0
32.09952163696289,22.929595947265625,-2.0151190757751465,-0.0,-0.0,-1.0,0.04644570287794617,1.0,0
32.08645248413086,22.480514526367188,-1.9766480922698975,-0.0,-0.0,-1.0,0.020695926808471484,1.0,0
32.123504638671875,21.914649963378906,-1.9200572967529297,-0.0,-0.0,-1.0,0.012617648778653862,1.0,0
32.117591857910156,22.117109298706055,-1.9385998249053955,-0.5515023840330612,0.5725459877868548,0.6066598818737106,0.009527319549218411,3.0,0
32.1468620300293,21.601900100708008,-1.8893194198608398,-0.0,-0.0,-1.0,0.004259368683715275,1.0,0
32.23268127441406,21.004474639892578,-1.8244128227233887,-0.41039894573687796,0.43035062638641014,-0.8039720416201568,0.016378797933811747,3.0,0
32.195804595947266,21.217254638671875,-1.8484959602355957,-0.0,-0.0,-1.0,0.06954736194542407,1.0,0
32.19010543823242,20.785877227783203,-1.8162062168121338,-0.0,-0.0,-1.0,0.054728166192673455,1.0,0
30.63714599609375,22.799396514892578,-1.6596426963806152,-0.39617997308585323,0.08008686434371379,-0.9146734516128059,0.13517089108936792,5.0,0
30.275468826293945,21.484390258789062,-1.643632173538208,-0.0,-0.0,-1.0,0.1523083238469895,1.0,0
30.859172821044922,23.016401290893555,-1.9628311395645142,-0.0,-0.0,-1.0,0.06559478350302594,1.0,0
30.963640213012695,22.66058349609375,-1.9133304357528687,-0.0,-0.0,-1.0,0.04506306976688258,1.0,0
30.972949981689453,22.27876853942871,-1.8808499574661255,-0.0,-0.0,-1.0,0.02740410981976715,1.0,0
30.88504981994629,22.212779998779297,-1.8929475545883179,-0.0,-0.0,-1.0,0.04901162587045855,2.0,0
30.74368667602539,21.878185272216797,-1.8953222036361694,-0.0,-0.0,-1.0,0.054540182250838155,1.0,0
30.829010009765625,21.405651092529297,-1.8441623449325562,-0.0,-0.0,-1.0,0.010763581462463706,1.0,0
30.743648529052734,21.053142547607422,-1.8372470140457153,-0.0,-0.0,-1.0,0.014133885768763245,1.0,0
32.693824768066406,22.570098876953125,-2.0149312019348145,-0.0,-0.0,-1.0,0.01651293543708647,2.0,0
32.63563537597656,22.185901641845703,-1.973002552986145,-0.0,-0.0,-1.0,0.017765988242955326,1.0,0
30.85981559753418,22.703718185424805,-1.8740395307540894,-0.0,-0.0,-1.0,0.08249339352827183,1.0,0
30.818693161010742,22.870582580566406,-1.8996373414993286,-0.0,-0.0,-1.0,0.07676651435633375,1.0,0
32.545372009277344,21.761581420898438,-1.9344722032546997,-0.0,-0.0,-1.0,0.0042254605342582465,1.0,0
30.840160369873047,22.297300338745117,-1.8352195024490356,-0.0,-0.0,-1.0,0.07818077091579934,1.0,0
30.58828353881836,22.194934844970703,-1.8730775117874146,-0.26995932201755607,0.46911417835309954,-0.8408649428558179,0.12936902346808704,4.0,0
32.45600891113281,21.22358512878418,-1.883736491203308,-0.0,-0.0,-1.0,0.013298429625398121,1.0,0
32.44969177246094,21.427907943725586,-1.911293387413025,-0.0,-0.0,-1.0,0.009604639934817697,1.0,0
30.455440521240234,21.994319915771484,-1.8789976835250854,-0.0,-0.0,-1.0,0.07515591071279859,1.0,0
32.43898010253906,21.025331497192383,-1.8626841306686401,-0.0,-0.0,-1.0,0.014886058581769704,2.0,0
30.33570098876953,21.619068145751953,-1.8664206266403198,-0.0,-0.0,-1.0,0.16865968659856156,1.0,0
30.38162612915039,21.194692611694336,-1.8181043863296509,-0.0,-0.0,-1.0,0.08670226359045508,1.0,0
30.330093383789062,21.346906661987305,-1.8422304391860962,-0.0,-0.0,-1.0,0.14592586754631542,1.0,0
30.418962478637695,21.053476333618164,-1.7979480028152466,-0.0,-0.0,-1.0,0.04545604604405908,1.0,0
30.414222717285156,20.73548698425293,-1.7711156606674194,-0.0,-0.0,-1.0,0.053080150525535,1.0,0
31.412288665771484,22.849905014038086,-2.011591911315918,-0.0,-0.0,-1.0,0.02545617862602474,1.0,0
31.42463493347168,22.37973403930664,-1.9451731443405151,-0.0,-0.0,-1.0,0.0963153681429745,1.0,0
31.36605453491211,21.979839324951172,-1.9050389528274536,-0.0,-0.0,-1.0,0.04839590938771003,2.0,0
31.35897445678711,21.499799728393555,-1.8458319902420044,-0.0,-0.0,-1.0,0.0367657493132091,2.0,0
31.337554931640625,21.71505355834961,-1.877299189567566,-0.0,-0.0,-1.0,0.059438016881467916,1.0,0
31.348712921142578,21.168855667114258,-1.8078340291976929,-0.0,-0.0,-1.0,0.01581012803378936,1.0,0
31.189254760742188,20.78192710876465,-1.7981795072555542,-0.0,-0.0,-1.0,0.04219479591409101,2.0,0
30.557756423950195,22.78844451904297,-1.6602143049240112,0.09876398373418124,0.8366327708459499,-0.5387868616285874,0.1341979988484278,7.0,0
30.997224807739258,22.934856414794922,-1.9559046030044556,-0.0,-0.0,-1.0,0.03473703908244195,1.0,0
31.026697158813477,22.494230270385742,-1.8829337358474731,-0.0,-0.0,-1.0,0.0365374736497772,2.0,0
30.867511749267578,22.156200408935547,-1.8663862943649292,-0.0,-0.0,-1.0,0.08235800358744814,2.0,0
30.69082260131836,21.79956817626953,-1.8536616563796997,-0.0,-0.0,-1.0,0.06758296266201536,2.0,0
30.618694305419922,21.415157318115234,-1.8175770044326782,-0.0,-0.0,-1.0,0.010979794851768209,1.0,0
30.546588897705078,21.02155113220215,-1.7829471826553345,-0.0,-0.0,-1.0,0.02592812584466416,1.0,0
30.469097137451172,20.750377655029297,-1.7670735120773315,-0.0,-0.0,-1.0,0.053080150525534976,1.0,0
30.554580688476562,20.819923400878906,-1.756060242652893,-0.0,-0.0,-1.0,0.048575332440812906,1.0,0
30.608463287353516,22.786556243896484,-1.793723702430725,-0.5700825816253398,-0.818606702489334,-0.06992078923272331,0.2274895466212765,4.0,0
30.61857032775879,22.825759887695312,-1.7068229913711548,0.5211798697773649,-0.34977188032121237,-0.7784800415395455,0.2092797236444028,5.0,0
31.515884399414062,20.982093811035156,-1.821751356124878,-0.0,-0.0,-1.0,0.012345810176902736,2.0,0
31.99169158935547,20.931480407714844,-1.8630399703979492,-0.0,-0.0,-1.0,0.06472067977036519,1.0,0
32.31458282470703,20.69424057006836,-1.852872610092163,-0.0,-0.0,-1.0,0.06891967239246867,1.0,0
32.17832565307617,21.33043670654297,-1.8557475805282593,-0.0,-0.0,-1.0,0.053352901454369404,1.0,0
32.382118225097656,21.066410064697266,-1.832750678062439,0.6046173274211705,-0.0032372045402042806,-0.7965095152531738,0.015651923502112728,3.0,0
31.42559051513672,21.845781326293945,-1.8641098737716675,-0.0,-0.0,-1.0,0.04743777068948686,1.0,0
31.70568084716797,21.704700469970703,-1.8693221807479858,-0.0,-0.0,-1.0,0.02712143237367895,2.0,0
31.965991973876953,21.566024780273438,-1.8736728429794312,-0.0,-0.0,-1.0,0.005777741314963266,1.0,0
30.37535858154297,22.420589447021484,-1.863205075263977,-0.0,-0.0,-1.0,0.05169681005173554,1.0,0
30.55481719970703,22.234352111816406,-1.8453391790390015,0.014767058742589914,-0.22260668740950446,-0.9747964898873305,0.14785718421500413,4.0,0
30.98863983154297,22.087724685668945,-1.8624037504196167,-0.0,-0.0,-1.0,0.02492885189088672,1.0,0
31.267818450927734,21.970924377441406,-1.8702491521835327,-0.0,-0.0,-1.0,0.04432342840540994,2.0,0
30.28110122680664,22.509078979492188,-1.8711110353469849,-0.0,-0.0,-1.0,0.10753219264484795,2.0,0
30.793720245361328,22.082847595214844,-1.891562819480896,0.3905687722581044,0.6982839710385211,-0.5998795961919947,0.10326791602415021,3.0,0
30.931018829345703,22.13787269592285,-1.8910025358200073,0.2554172950151655,-0.2897415084231676,-0.922394635556714,0.04309690065307699,4.0,0
31.218460083007812,22.27520179748535,-1.8956414461135864,-0.0,-0.0,-1.0,0.07033646232033298,1.0,0
31.377330780029297,22.47781753540039,-1.9256457090377808,0.14017438437799631,-0.432836301619006,-0.8905076518284558,0.12279664893524855,3.0,0
31.529998779296875,22.48125457763672,-1.9145928621292114,-0.0,-0.0,-1.0,0.0456111774004458,1.0,0
31.590049743652344,22.96526527404785,-2.0135064125061035,-0.0,-0.0,-1.0,0.014116865088525983,2.0,0
30.212146759033203,22.725217819213867,-1.8662246465682983,-0.0,-0.0,-1.0,0.040375230464597005,2.0,0
30.719533920288086,22.291292190551758,-1.8067396879196167,-0.0,-0.0,-1.0,0.13173035080446,1.0,0
30.470888137817383,22.167457580566406,-1.7957926988601685,-0.0,-0.0,-1.0,0.12992279412854196,1.0,0
30.608051300048828,22.183801651000977,-1.795606017112732,-0.0,-0.0,-1.0,0.13884639296127005,1.0,0
31.005046844482422,22.445892333984375,-1.8783820867538452,-0.0,-0.0,-1.0,0.02651586267728288,2.0,0
30.739721298217773,22.135498046875,-1.8494869470596313,0.34586213984752157,-0.9375779523258855,0.03642751065463512,0.14143421719885707,3.0,0
30.444063186645508,22.120201110839844,-1.8561538457870483,-0.0,-0.0,-1.0,0.07546602238703667,2.0,0
32.669761657714844,22.849586486816406,-2.0173075199127197,-0.0,-0.0,-1.0,0.028404624284412646,1.0,0
32.45016098022461,22.291715621948242,-1.9518394470214844,-0.0,-0.0,-1.0,0.025929502534926114,1.0,0
32.584754943847656,22.287336349487305,-1.9494831562042236,-0.0,-0.0,-1.0,0.021957070306777734,1.0,0
32.153099060058594,22.15178108215332,-1.9390430450439453,-0.6937072475882472,0.7118267554759573,0.10987686213261806,0.0074055237070353,3.0,0
32.01237106323242,21.71542739868164,-1.8880321979522705,-0.0,-0.0,-1.0,0.006481008472455215,1.0,0
31.66490936279297,21.45623779296875,-1.8624696731567383,-0.0,-0.0,-1.0,0.009245510971103169,1.0,0
31.989116668701172,21.17994499206543,-1.8231735229492188,-0.0,-0.0,-1.0,0.048524931005577386,1.0,0
31.7817440032959,21.179309844970703,-1.826735019683838,-0.0,-0.0,-1.0,0.04124554618473575,2.0,0
31.559064865112305,21.140132904052734,-1.8260538578033447,-0.0,-0.0,-1.0,0.01046974617047891,1.0,0
30.6816349029541,20.72547721862793,-1.7946066856384277,0.8275588989175836,-0.33862270585845006,-0.4477509708525689,0.022020164141085506,3.0,0
30.817306518554688,22.903430938720703,-1.745922327041626,-0.0,-0.0,-1.0,0.12289208196732886,1.0,0
30.437211990356445,22.160316467285156,-1.8617416620254517,-0.0,-0.0,-1.0,0.0878049601908704,2.0,0
30.726146697998047,22.075820922851562,-1.8587619066238403,-0.0,-0.0,-1.0,0.13101860612492158,2.0,0
30.30818748474121,22.016212463378906,-1.8419257402420044,-0.0,-0.0,-1.0,0.04429429162239633,2.0,0
31.909870147705078,21.902101516723633,-1.8715397119522095,-0.0,-0.0,-1.0,0.024364531792522702,2.0,0
31.2141056060791,21.351335525512695,-1.7862797975540161,-0.12384788815225621,0.9920581414494042,0.02196234468767657,0.0654859395536738,4.0,0
32.00611877441406,21.771814346313477,-1.8592315912246704,-0.0,-0.0,-1.0,0.013630151401461978,1.0,0
31.711904525756836,21.420974731445312,-1.8087269067764282,-0.0,-0.0,-1.0,0.008504624060060258,1.0,0
31.415225982666016,21.082157135009766,-1.7601546049118042,-0.0,-0.0,-1.0,0.012114848323318259,2.0,0
31.609525680541992,20.85293960571289,-1.738756775856018,-0.0,-0.0,-1.0,0.010993221546971898,1.0,0
30.63224220275879,22.69525718688965,-1.7468924522399902,-0.0,-0.0,-1.0,0.24000400614904055,2.0,0
32.57215118408203,22.823612213134766,-1.8909592628479004,-0.0,-0.0,-1.0,0.028404624284412643,1.0,0
30.490175247192383,20.770614624023438,-1.6651606559753418,-0.0,-0.0,-1.0,0.04222370155131324,1.0,0
30.583757400512695,20.662500381469727,-1.6540117263793945,-0.0,-0.0,-1.0,0.024951192083705005,1.0,0
32.36138153076172,22.190183639526367,-2.0301012992858887,-0.0,-0.0,-1.0,0.009738083566972651,1.0,0
31.942768096923828,22.426931381225586,-2.0654520988464355,-0.0,-0.0,-1.0,0.021443659223491465,1.0,0
30.385549545288086,22.413705825805664,-2.099508285522461,-0.0,-0.0,-1.0,0.13535009284052577,1.0,0
30.23048210144043,22.584142684936523,-2.122936248779297,-0.0,-0.0,-1.0,0.09246876195175792,1.0,0
31.2110595703125,20.83506965637207,-1.8283412456512451,-0.06614145601523959,0.5987462073677184,-0.7982031614563782,0.05949596903454534,4.0,0
31.046571731567383,21.158855438232422,-1.8521206378936768,-0.23048292398747824,0.9718664568403708,0.048509914643561546,0.07867746248240233,3.0,0
30.797033309936523,21.892719268798828,-1.9168365001678467,-0.0,-0.0,-1.0,0.0335079462389203,1.0,0
30.71072006225586,22.72587776184082,-1.6682080030441284,-0.0,-0.0,-1.0,0.17956878123038192,2.0,0
30.625633239746094,22.710012435913086,-1.6680935621261597,0.7873523086654703,-0.6164819815974126,0.005129171948889641,0.20010472014245903,3.0,0
32.66520690917969,21.46189308166504,-1.8823438882827759,-0.0,-0.0,-1.0,0.008729671682626982,1.0,0
32.64808654785156,21.600603103637695,-1.903384804725647,-0.0,-0.0,-1.0,0.0036360496118648467,2.0,0
32.227474212646484,21.00991439819336,-1.8188430070877075,-0.41039894573687796,0.43035062638641014,-0.8039720416201568,0.016378797933811754,3.0,0
32.03805160522461,21.00894546508789,-1.8209646940231323,-0.0,-0.0,-1.0,0.05808858987526325,2.0,0
31.50829315185547,20.64661979675293,-1.7733999490737915,-0.0,-0.0,-1.0,0.015502548650278251,1.0,0
30.680564880371094,22.76463508605957,-1.6979471445083618,0.1047443055646854,-0.15272474035982353,-0.9827022866228593,0.18740332621716374,4.0,0
30.571006774902344,22.775373458862305,-1.7017289400100708,0.47289553407267976,-0.8708452999227837,-0.1341576589558433,0.19417868964563953,7.0,0
32.60930633544922,22.108112335205078,-1.9651482105255127,-0.0,-0.0,-1.0,0.01900614751782746,1.0,0
32.18199920654297,21.891904830932617,-1.9217357635498047,-0.0,-0.0,-1.0,0.006675125878830699,1.0,0
32.402462005615234,22.132457733154297,-1.9655251502990723,-0.0,-0.0,-1.0,0.02426852789701753,2.0,0
31.891010284423828,21.856828689575195,-1.9115657806396484,-0.0,-0.0,-1.0,0.023876540848941915,2.0,0
31.496055603027344,21.330564498901367,-1.8179585933685303,-0.0,-0.0,-1.0,0.01102626809290302,1.0,0
31.174880981445312,21.27421760559082,-1.805079460144043,-0.0,-0.0,-1.0,0.06615515231503814,2.0,0
30.963497161865234,21.46741485595703,-1.8359401226043701,-0.0,-0.0,-1.0,0.0414822414524479,2.0,0
30.72018051147461,20.780033111572266,-1.7175204753875732,-0.0,-0.0,-1.0,0.019955244185847237,1.0,0
30.795509338378906,21.595890045166016,-1.8566725254058838,-0.0,-0.0,-1.0,0.007995043179102592,1.0,0
30.736736297607422,22.780542373657227,-1.7694193124771118,-0.0,-0.0,-1.0,0.19737060645951923,1.0,0
30.583236694335938,22.80747413635254,-1.7765709161758423,-0.7637869141675896,-0.262153235850012,-0.5898349181590719,0.22167431584172648,7.0,0
30.637739181518555,22.77328109741211,-1.6859735250473022,-0.27512968977217345,0.41273623217522787,-0.8683043570405851,0.19698375820412548,6.0,0
30.683950424194336,22.77724838256836,-1.7483175992965698,0.8781030794025366,-0.3597387331630132,-0.31547270215670503,0.20356647911744846,3.0,0
30.568639755249023,22.792953491210938,-1.7478162050247192,0.999252884149777,0.03852050837340376,0.0031375074512487743,0.22432537702821465,7.0,0
30.52538299560547,22.841285705566406,-1.7555776834487915,0.9480629871334847,-0.31482518029528744,0.04540570756605261,0.20243285772223077,6.0,0
30.58759307861328,22.695449829101562,-1.8234803676605225,-0.0,-0.0,-1.0,0.1885394538027188,1.0,0
30.491029739379883,22.87271499633789,-1.8532826900482178,0.7423844590211641,-0.43867581180630477,0.5063880400838204,0.1019750629100371,4.0,0
30.447837829589844,22.988611221313477,-1.8739917278289795,-0.0,-0.0,-1.0,0.09010619109629114,2.0,0
30.740297317504883,22.411518096923828,-1.7761614322662354,-0.0,-0.0,-1.0,0.13819219051106807,1.0,0
32.50205612182617,21.701221466064453,-1.9215842485427856,-0.0,-0.0,-1.0,0.004907274648621486,1.0,0
32.169837951660156,21.769084930419922,-1.906978964805603,-0.0,-0.0,-1.0,0.007907452494682667,1.0,0
31.982425689697266,21.881183624267578,-1.9153608083724976,-0.0,-0.0,-1.0,0.01568837080510985,1.0,0
31.526945114135742,21.90673065185547,-1.884264349937439,-0.0,-0.0,-1.0,0.055502852180105186,1.0,0
31.698429107666016,21.93501091003418,-1.90404212474823,0.3848607922870394,-0.8484456369956972,-0.36334855390266413,0.04060780669629854,4.0,0
31.279056549072266,21.999996185302734,-1.8859864473342896,0.6768189201623666,-0.5352284531901107,-0.5054173050123725,0.06210340884369279,3.0,0
30.902790069580078,22.10567855834961,-1.8823238611221313,0.2554172950151655,-0.2897415084231676,-0.922394635556714,0.04856068086984056,4.0,0
30.34095001220703,21.504074096679688,-1.709048867225647,-0.0,-0.0,-1.0,0.16230493647359773,2.0,0
30.496185302734375,22.227571487426758,-1.8825043439865112,0.06474846311043093,0.6728776200581921,-0.7369147474095362,0.11680287307679278,4.0,0
32.553627014160156,21.924039840698242,-1.9745090007781982,-0.0,-0.0,-1.0,0.01882566963502145,1.0,0
32.42717361450195,21.122455596923828,-1.774535894393921,-0.0,-0.0,-1.0,0.07247795384851757,1.0,0
32.29057312011719,21.903034210205078,-1.9486002922058105,-0.0,-0.0,-1.0,0.007397393959371338,2.0,0
32.3170166015625,21.941997528076172,-1.9601399898529053,-0.0,-0.0,-1.0,0.007665495722448755,2.0,0
31.93317413330078,21.974834442138672,-1.9390954971313477,-0.3496192401073455,0.7736366687638598,-0.5284436504403476,0.01870934146016053,3.0,0
31.70217514038086,21.940942764282227,-1.914252519607544,0.37524289292612645,-0.854647058424009,-0.3588470103478916,0.048700703998418096,3.0,0
31.517715454101562,22.023704528808594,-1.9220788478851318,-0.0,-0.0,-1.0,0.0276754818053037,1.0,0
31.116535186767578,22.076128005981445,-1.9094974994659424,0.8290939294085337,-0.24605606817819364,-0.5020554426859704,0.04188575499515538,5.0,0
30.709226608276367,22.14535903930664,-1.9034545421600342,0.37814422432475936,-0.8639974123245913,-0.3324385914815495,0.13900947180357165,4.0,0
30.344209671020508,22.23493194580078,-1.9075112342834473,-0.0,-0.0,-1.0,0.030500434417078566,1.0,0
30.368881225585938,21.468708038330078,-1.713186264038086,-0.0,-0.0,-1.0,0.1625007783624224,2.0,0
32.504859924316406,22.751850128173828,-2.0302135944366455,-0.0,-0.0,-1.0,0.03036174900901864,1.0,0
32.148841857910156,22.86589813232422,-2.031639337539673,-0.0,-0.0,-1.0,0.03799746192057973,1.0,0
31.97640609741211,23.00894546508789,-2.0559897422790527,-0.0,-0.0,-1.0,0.037321154008812,1.0,0
31.69824981689453,23.070405960083008,-2.0532562732696533,-0.0,-0.0,-1.0,0.01612309177176416,1.0,0
31.435863494873047,23.06279182434082,-2.0345816612243652,-0.0,-0.0,-1.0,0.013389155077666609,1.0,0
30.38842010498047,22.821931838989258,-1.9140360355377197,-0.0,-0.0,-1.0,0.11165560211818853,1.0,0
30.819337844848633,22.357662200927734,-1.8113229274749756,-0.0,-0.0,-1.0,0.15688387608849771,2.0,0
30.632883071899414,22.400924682617188,-1.8124568462371826,-0.0,-0.0,-1.0,0.1117127577028476,2.0,0
30.560020446777344,22.657337188720703,-1.8776836395263672,-0.0,-0.0,-1.0,0.11518494828671154,2.0,0
30.23648452758789,22.842737197875977,-1.9130029678344727,-0.0,-0.0,-1.0,0.06462486740124304,2.0,0
30.37420654296875,20.646404266357422,-1.7450981140136719,-0.0,-0.0,-1.0,0.053080150525534976,1.0,0
30.70903778076172,20.993467330932617,-1.801565170288086,-0.0,-0.0,-1.0,0.01718054400785159,1.0,0
30.554697036743164,20.681642532348633,-1.7782738208770752,-0.0,-0.0,-1.0,0.03890951554567704,2.0,0
30.563751220703125,22.940288543701172,-1.8257540464401245,-0.0,-0.0,-1.0,0.1824744111526116,1.0,0
30.528709411621094,23.05498504638672,-1.6438393592834473,-0.0,-0.0,-1.0,0.12844201219701837,1.0,0
30.591575622558594,23.011825561523438,-1.6531648635864258,-0.0,-0.0,-1.0,0.17767909292636314,1.0,0
32.32513427734375,20.64613914489746,-1.7638449668884277,-0.0,-0.0,-1.0,0.03250392074374641,1.0,0
31.209169387817383,22.6610107421875,-1.7527117729187012,-0.0,-0.0,-1.0,0.09807466528605162,1.0,0
31.36404800415039,22.410900115966797,-1.7254891395568848,-0.0,-0.0,-1.0,0.10974687960389541,1.0,0
30.698671340942383,22.712379455566406,-1.7562425136566162,-0.5352182449153011,-0.8386030918342418,-0.10142132258965758,0.1955220072185269,4.0,0
30.494136810302734,22.675968170166016,-1.8364624977111816,-0.0,-0.0,-1.0,0.09341735154480513,1.0,0
30.794822692871094,22.243301391601562,-1.6880295276641846,-0.0,-0.0,-1.0,0.11377709770696329,1.0,0
31.334545135498047,22.481760025024414,-1.9342968463897705,0.14017438437799631,-0.432836301619006,-0.8905076518284558,0.12966689416948077,3.0,0
30.9644832611084,22.198286056518555,-1.9014475345611572,-0.0,-0.0,-1.0,0.03169519348960289,1.0,0
31.587635040283203,20.7935791015625,-1.802445411682129,-0.0,-0.0,-1.0,0.010788068290355614,2.0,0
31.46752166748047,20.862445831298828,-1.8110246658325195,-0.0,-0.0,-1.0,0.020286515994730078,1.0,0
31.281021118164062,20.94594955444336,-1.8214011192321777,-0.0,-0.0,-1.0,0.04347432626348096,1.0,0
31.111743927001953,21.08957290649414,-1.8399438858032227,-0.0,-0.0,-1.0,0.04708634107067808,1.0,0
32.35205841064453,21.056392669677734,-1.8555278778076172,0.6046173274211705,-0.0032372045402042806,-0.7965095152531738,0.015726970875461786,3.0,0
31.926651000976562,20.99296760559082,-1.843799114227295,-0.0,-0.0,-1.0,0.011517547910203806,1.0,0
31.407983779907227,20.758893966674805,-1.8059492111206055,-0.0,-0.0,-1.0,0.020939950561220874,2.0,0
31.18532943725586,20.853641510009766,-1.820261001586914,-0.06614145601523959,0.5987462073677184,-0.7982031614563782,0.06916843034706467,4.0,0
31.110733032226562,20.96846580505371,-1.8380794525146484,-0.0,-0.0,-1.0,0.042064437384811935,1.0,0
31.220699310302734,20.868209838867188,-1.8116834163665771,-0.06614145601523959,0.5987462073677184,-0.7982031614563782,0.06133295863538456,4.0,0
30.584247589111328,21.676273345947266,-1.8941094875335693,-0.0,-0.0,-1.0,0.03555070352508343,2.0,0
30.34390640258789,21.684581756591797,-1.8806140422821045,-0.0,-0.0,-1.0,0.11833475036358056,1.0,0
30.723857879638672,22.30040740966797,-1.7174229621887207,-0.032807473518464074,-0.7691439504152264,-0.6382329145547061,0.1401590359683271,4.0,0
30.66452407836914,22.472211837768555,-1.7343931198120117,-0.9021232962091583,-0.2248276060920441,0.3682744981337206,0.1756259931914871,3.0,0
30.549922943115234,22.81725311279297,-1.7692675590515137,-0.41922590011879224,-0.7215191388256339,-0.5510533340593301,0.23432871003069672,6.0,0
30.72195053100586,22.36677360534668,-1.7924237251281738,-0.0,-0.0,-1.0,0.1731619279133812,2.0,0
30.60342788696289,22.748153686523438,-1.8305034637451172,-0.0,-0.0,-1.0,0.18177357157699933,1.0,0
30.72223663330078,22.700374603271484,-1.7832202911376953,-0.0,-0.0,-1.0,0.18721324109593732,2.0,0
30.59815788269043,22.71847915649414,-1.7739205360412598,0.707336786655191,0.2856186777783889,-0.6466039291161426,0.29382655454301887,3.0,0
30.587709426879883,22.851776123046875,-1.7895288467407227,-0.6495300096634987,-0.23644205586681877,-0.7226381672483175,0.19032372632036948,4.0,0
32.50647735595703,20.848997116088867,-1.8756539821624756,-0.0,-0.0,-1.0,0.041640461100551626,1.0,0
32.407386779785156,20.781831741333008,-1.8568298816680908,-0.0,-0.0,-1.0,0.04251646409245843,1.0,0
32.122474670410156,20.995576858520508,-1.8594868183135986,-0.0,-0.0,-1.0,0.0661402240148029,1.0,0
31.487804412841797,21.763153076171875,-1.9099209308624268,-0.0,-0.0,-1.0,0.05411258895664597,1.0,0
31.154504776000977,21.808752059936523,-1.8862040042877197,-0.0,-0.0,-1.0,0.06901433324287473,1.0,0
31.064064025878906,22.038101196289062,-1.9117214679718018,-0.2822971214132956,-0.3237544768004271,-0.9030456101401796,0.04764197071071635,3.0,0
30.738544464111328,22.133228302001953,-1.8967325687408447,0.4457092348242756,-0.8711614573496953,-0.20596357255765846,0.1964201655549408,5.0,0
30.472412109375,22.404935836791992,-1.913935899734497,-0.0,-0.0,-1.0,0.07619739390366373,1.0,0
30.214462280273438,22.554271697998047,-1.9140360355377197,-0.0,-0.0,-1.0,0.08783660085288982,1.0,0
31.964527130126953,20.69721221923828,-1.8240139484405518,-0.0,-0.0,-1.0,0.013380371188356633,2.0,0
31.651662826538086,20.711963653564453,-1.7939889430999756,-0.0,-0.0,-1.0,0.009968802366818949,1.0,0
31.071090698242188,21.311946868896484,-1.8204267024993896,-0.0,-0.0,-1.0,0.09664706785543696,1.0,0
30.99357032775879,21.705230712890625,-1.8697826862335205,-0.2377114973699085,0.5534754005033451,-0.7982219146677306,0.03107146246662791,3.0,0
30.942174911499023,21.955663681030273,-1.901559591293335,-0.0,-0.0,-1.0,0.012470640160733964,2.0,0
30.700002670288086,22.117591857910156,-1.9023768901824951,0.4138185435148806,-0.8435390741715212,-0.34233907663174473,0.17095780177796174,5.0,0
30.509906768798828,22.20123291015625,-1.8969151973724365,-0.0,-0.0,-1.0,0.12007929481785129,2.0,0
30.308841705322266,22.392820358276367,-1.9070322513580322,-0.019375404860125296,-0.13065098815888931,-0.9912390796269137,0.08972895649846496,3.0,0
31.23686408996582,21.196102142333984,-1.820408821105957,-0.0,-0.0,-1.0,0.053846939882913565,2.0,0
31.231847763061523,21.443492889404297,-1.849299430847168,-0.0,-0.0,-1.0,0.082147624237749,2.0,0
31.204912185668945,21.835105895996094,-1.8933606147766113,-0.0,-0.0,-1.0,0.07029847834351115,2.0,0
31.10498046875,22.089248657226562,-1.9117460250854492,0.8290939294085337,-0.24605606817819364,-0.5020554426859704,0.04321991636224963,5.0,0
30.84037208557129,22.130496978759766,-1.8830361366271973,-0.21444564694285848,0.6803752495789915,-0.7007871176524176,0.08696899852712944,3.0,0
30.598003387451172,22.501806259155273,-1.8993549346923828,-0.0,-0.0,-1.0,0.14187355426976497,2.0,0
30.571674346923828,22.2769775390625,-1.8673629760742188,-0.0,-0.0,-1.0,0.09016290149076131,2.0,0
30.456680297851562,22.619176864624023,-1.896742820739746,-0.0,-0.0,-1.0,0.09465419265423532,1.0,0
30.361318588256836,22.8763370513916,-1.9183392524719238,0.25982631081200863,-0.7458157379519148,0.6133915333887989,0.12949520752214083,3.0,0
31.015226364135742,20.939483642578125,-1.8135242462158203,-0.5089221344253868,0.634093347255526,-0.5821716998087344,0.04039363375572096,4.0,0
30.965972900390625,21.107860565185547,-1.8271937370300293,-0.0,-0.0,-1.0,0.01922882218491447,2.0,0
30.7788143157959,21.54313087463379,-1.8555445671081543,-0.0,-0.0,-1.0,0.009889021455196566,2.0,0
30.698896408081055,21.845359802246094,-1.8828940391540527,-0.0,-0.0,-1.0,0.05640198789145224,2.0,0
30.538894653320312,21.997581481933594,-1.8810667991638184,-0.0,-0.0,-1.0,0.06276475959168418,1.0,0
30.347139358520508,22.311704635620117,-1.8966007232666016,0.318095319784909,0.2813956915239312,-0.9053352043981858,0.034704306579861594,3.0,0
31.76769256591797,22.48921775817871,-1.9443690776824951,-0.0,-0.0,-1.0,0.023884020993129782,1.0,0
31.662878036499023,21.912996292114258,-1.8904902935028076,-0.0,-0.0,-1.0,0.03115766427687766,2.0,0
31.623313903808594,22.14086151123047,-1.8988263607025146,-0.0,-0.0,-1.0,0.027371084986494584,1.0,0
31.405019760131836,22.53648567199707,-1.890782117843628,-0.0,-0.0,-1.0,0.07280284311565631,2.0,0
31.60950469970703,21.747838973999023,-1.871690034866333,-0.0,-0.0,-1.0,0.06225680773481572,1.0,0
30.64937973022461,22.47641372680664,-1.768925428390503,-0.9500794622978748,-0.2525037898518953,0.1832780713293631,0.12236608898375943,4.0,0
30.516345977783203,22.828327178955078,-1.7731907367706299,-0.5286784045405469,-0.6667460351286519,-0.5253083563133986,0.17475111173864483,4.0,0
31.254016876220703,21.052379608154297,-1.7732131481170654,-0.0,-0.0,-1.0,0.03218865784617182,2.0,0
31.22172737121582,21.272048950195312,-1.7810499668121338,0.9831675255222607,0.1369111662746395,-0.1209832604443831,0.06580942001645736,3.0,0
30.617151260375977,22.397756576538086,-1.7584197521209717,-0.0,-0.0,-1.0,0.09093518381479436,2.0,0
31.044675827026367,22.00249481201172,-1.892895221710205,-0.2822971214132956,-0.3237544768004271,-0.9030456101401796,0.039854897409798154,3.0,0
30.98744773864746,22.1312255859375,-1.890183448791504,-0.0,-0.0,-1.0,0.03737483573412519,2.0,0
30.96240234375,21.799274444580078,-1.8691468238830566,-0.0,-0.0,-1.0,0.006776374833561082,2.0,0
31.000146865844727,21.04802131652832,-1.8405637741088867,-0.0,-0.0,-1.0,0.04442136411472748,2.0,0
30.89601707458496,21.383878707885742,-1.8383336067199707,-0.0,-0.0,-1.0,0.01032163174958105,2.0,0
30.706647872924805,22.218669891357422,-1.8487792015075684,-0.0,-0.0,-1.0,0.07081500817234757,1.0,0
30.60477638244629,22.558826446533203,-1.8508930206298828,-0.0,-0.0,-1.0,0.09445199073417535,2.0,0
30.4781436920166,22.806970596313477,-1.8446025848388672,0.8278096284876495,-0.4973641776405752,-0.25953823183310415,0.14450717361444002,3.0,0
30.77109718322754,20.772363662719727,-1.7909722328186035,-0.0,-0.0,-1.0,0.01654704633103117,1.0,0
30.558910369873047,20.66021728515625,-1.7512307167053223,-0.0,-0.0,-1.0,0.03878744570538273,2.0,0
32.692787170410156,22.22637176513672,-1.9897441864013672,-0.0,-0.0,-1.0,0.018141823965492226,1.0,0
32.55550765991211,21.38025665283203,-1.919299602508545,-0.0,-0.0,-1.0,0.011082971671657277,2.0,0
32.60221862792969,21.77725601196289,-1.9490351676940918,-0.0,-0.0,-1.0,0.01467039993574139,1.0,0
32.26155471801758,20.83686065673828,-1.844533920288086,-0.0,-0.0,-1.0,0.06038194794093982,2.0,0
32.38223648071289,21.181514739990234,-1.881441593170166,-0.0,-0.0,-1.0,0.012040156324228866,2.0,0
30.52069091796875,22.789138793945312,-1.687523365020752,0.750736065011842,0.6085970269683986,-0.2569144204900957,0.13911775194687848,5.0,0
31.82529640197754,20.7772159576416,-1.7759597301483154,-0.0,-0.0,-1.0,0.014679623353250702,1.0,0
31.91155433654785,21.074716567993164,-1.8023240566253662,-0.0,-0.0,-1.0,0.051509208164885335,1.0,0
32.07109069824219,21.428306579589844,-1.8434054851531982,-0.0,-0.0,-1.0,0.029973517299880004,1.0,0
32.18743133544922,21.814289093017578,-1.8798720836639404,-0.7063216152362959,-0.5922888656110268,-0.3876901798126865,0.008014325878425354,3.0,0
32.37730407714844,22.149003982543945,-1.9264237880706787,-0.0,-0.0,-1.0,0.024323338652799863,2.0,0
32.441532135009766,22.507261276245117,-1.954768419265747,-0.0,-0.0,-1.0,0.014036640046897319,1.0,0
32.612667083740234,22.973905563354492,-2.006727933883667,-0.0,-0.0,-1.0,0.024496998233926932,1.0,0
31.649269104003906,20.649822235107422,-1.7426836490631104,-0.0,-0.0,-1.0,0.00859226263430596,1.0,0
30.52254295349121,22.8990535736084,-1.6678078174591064,0.2921929936599112,0.6570266419854258,-0.6949383038640292,0.18083772558930866,3.0,0
32.10913848876953,23.07427406311035,-2.0222535133361816,-0.0,-0.0,-1.0,0.02608006235080793,1.0,0
31.246124267578125,20.904033660888672,-1.777531623840332,-0.0,-0.0,-1.0,0.05112730572416405,1.0,0
31.201927185058594,21.19617462158203,-1.7819643020629883,-0.0,-0.0,-1.0,0.03233119780197458,2.0,0
31.556272506713867,21.7236385345459,-1.863851547241211,-0.0,-0.0,-1.0,0.059971337612058674,1.0,0
31.26625633239746,21.425928115844727,-1.8023738861083984,-0.0,-0.0,-1.0,0.049375826385176944,2.0,0
31.34632682800293,21.5591983795166,-1.8214936256408691,-0.0,-0.0,-1.0,0.023773608928176263,2.0,0
31.61542320251465,22.05390739440918,-1.8888416290283203,-0.0,-0.0,-1.0,0.029466061589093772,1.0,0
31.93935203552246,22.54807472229004,-1.9668464660644531,-0.0,-0.0,-1.0,0.027086817351777984,1.0,0
31.992841720581055,22.790874481201172,-1.9881000518798828,-0.0,-0.0,-1.0,0.03963004587974846,2.0,0
30.664445877075195,22.379308700561523,-1.744983196258545,-0.0,-0.0,-1.0,0.10120261860836871,1.0,0
30.648685455322266,22.512195587158203,-1.748781681060791,-0.9928326427613214,0.09714985412854314,-0.06960782506567122,0.15778456810557911,5.0,0
30.50545310974121,22.89073944091797,-1.7436656951904297,-0.0,-0.0,-1.0,0.12277548814558063,1.0,0
30.2333984375,21.676273345947266,-1.8588206768035889,-0.8555515403965888,-0.4542427633458377,0.24838493044659793,0.06646050352068772,4.0,0
30.21172332763672,21.935482025146484,-1.8644425868988037,-0.0,-0.0,-1.0,0.022171641501419533,1.0,0
30.245635986328125,23.103172302246094,-1.9220192432403564,0.44331966422772906,-0.848083148139604,-0.29021138701062804,0.12358285914953934,3.0,0
31.169212341308594,20.802875518798828,-1.7856640815734863,-0.0,-0.0,-1.0,0.05462866122785277,2.0,0
31.145320892333984,21.028135299682617,-1.7866973876953125,-0.0,-0.0,-1.0,0.042955153350442234,1.0,0
31.20558738708496,21.35961151123047,-1.8074617385864258,-0.12384788815225621,0.9920581414494042,0.02196234468767657,0.06228000322997485,4.0,0
30.363672256469727,21.31961441040039,-1.643204689025879,-0.0,-0.0,-1.0,0.15339075841872682,1.0,0
31.34544563293457,21.58555793762207,-1.8413372039794922,0.6072309833684486,-0.46479715832642887,-0.6443866342880362,0.04026317004404946,3.0,0
31.499732971191406,21.810070037841797,-1.8784894943237305,-0.0,-0.0,-1.0,0.05051850171742931,2.0,0
31.564104080200195,21.969289779663086,-1.8963360786437988,-0.0,-0.0,-1.0,0.034269232300731416,1.0,0
30.712282180786133,22.321781158447266,-1.742156982421875,-0.032807473518464074,-0.7691439504152264,-0.6382329145547061,0.12944941722380598,4.0,0
31.380220413208008,22.43765640258789,-1.8770751953125,-0.45616784997878446,0.1622095830738987,-0.8749851106188755,0.1106613341033381,3.0,0
31.926715850830078,22.682453155517578,-1.9937591552734375,-0.0,-0.0,-1.0,0.040776454376017804,1.0,0
31.99348258972168,22.789976119995117,-2.0112428665161133,-0.0,-0.0,-1.0,0.0384898914164456,2.0,0
32.04299545288086,23.09058952331543,-2.0337109565734863,-0.0,-0.0,-1.0,0.03275260710782396,1.0,0
31.093196868896484,20.91510772705078,-1.813472032546997,-0.0,-0.0,-1.0,0.04106516463073199,2.0,0
