x,y,z,nx,ny,nz,curvature,density,label
56.144371032714844,3.264956474304199,-1.7396600246429443,0.9433167401858118,0.31940890969322977,0.09017469763629127,0.018466385490700187,3.0,0
55.72361755371094,5.228911399841309,-1.676711082458496,-0.3338369461387016,-0.8617496169335103,0.38202158460973584,0.11252591629612642,4.0,0
55.70310974121094,3.14473819732666,-1.656959056854248,-0.0,-0.0,-1.0,0.03195976831833853,1.0,0
55.536293029785156,4.871377944946289,-1.50083589553833,-0.0,-0.0,-1.0,0.11586013914534889,2.0,0
55.812705993652344,5.224482536315918,-1.5357482433319092,-0.0,-0.0,-1.0,0.20791435138538203,2.0,0
55.720436096191406,3.1908578872680664,-1.6247252225875854,-0.5091222602144715,-0.7641249739696175,-0.3961155744350883,0.03195976831833853,4.0,0
55.78327178955078,5.250644683837891,-1.5488766431808472,-0.37749054005256333,-0.6829388164175869,0.6253762589041653,0.22096520799967043,4.0,0
55.93830490112305,5.116308212280273,-1.4917352199554443,-0.0,-0.0,-1.0,0.07296432520272148,1.0,0
56.940818786621094,5.411416053771973,-1.730744481086731,-0.0,-0.0,-1.0,0.05944603809384817,2.0,0
55.55091094970703,4.989019393920898,-1.5013700723648071,-0.0,-0.0,-1.0,0.11923021077732777,1.0,0
55.34220886230469,5.073385238647461,-1.6926960945129395,-0.5024819652659722,-0.7668504279372759,0.3993147827902988,0.08105600316790815,3.0,0
56.08168411254883,5.112119674682617,-1.8316543102264404,-0.0,-0.0,-1.0,0.1250084640208709,1.0,0
56.14654541015625,3.3897037506103516,-1.7729750871658325,-0.0,-0.0,-1.0,0.013089247434161533,1.0,0
55.93487548828125,4.929508209228516,-1.5177196264266968,-0.0,-0.0,-1.0,0.08072329933644562,1.0,0
56.13663864135742,5.054950714111328,-1.76633620262146,0.15660404672821898,-0.6490638071241697,-0.7444402909769355,0.048087577752841615,3.0,0
56.36017608642578,5.219115257263184,-1.7765662670135498,-0.0,-0.0,-1.0,0.05035353424288489,1.0,0
56.99281311035156,5.013940811157227,-1.9185667037963867,-0.0,-0.0,-1.0,0.025900273392257887,1.0,0
55.42549514770508,5.052154541015625,-1.6522870063781738,-0.14220108908135756,-0.928836136438294,0.34211442809454634,0.0982305138878725,7.0,0
56.096744537353516,5.062628746032715,-1.7814228534698486,-0.0,-0.0,-1.0,0.04808757775284163,2.0,0
55.414310455322266,5.042034149169922,-1.666245937347412,0.07487899115043146,-0.8337959308664191,0.546971189693658,0.1034239511205287,6.0,0
56.152992248535156,3.2421579360961914,-1.7490915060043335,-0.37909549480549526,0.22768632323683177,-0.8969088827908159,0.018167447948693294,3.0,0
55.70172119140625,3.222219467163086,-1.6533070802688599,-0.0,-0.0,-1.0,0.03422245152949499,2.0,0
56.145103454589844,3.3173274993896484,-1.7392479181289673,-0.0,-0.0,-1.0,0.01846638549070018,2.0,0
56.13410186767578,3.2115988731384277,-1.7137647867202759,-0.2653683502484215,-0.014684923351352186,-0.9640352647660747,0.028476905349989128,3.0,0
55.388954162597656,3.56254243850708,-1.6908934116363525,-0.0,-0.0,-1.0,0.06654867615346495,1.0,0
55.51797103881836,4.0039496421813965,-1.82850980758667,-0.0,-0.0,-1.0,0.046329826296859396,1.0,0
55.81503677368164,3.1595020294189453,-1.6590131521224976,-0.0,-0.0,-1.0,0.029794635543591054,1.0,0
55.522979736328125,5.130720138549805,-1.6285343170166016,-0.09144343345183598,-0.36954036397089973,-0.9247042867180806,0.10948456962275734,3.0,0
55.64767837524414,4.476028919219971,-1.5226855278015137,-0.0,-0.0,-1.0,0.11460356546511019,1.0,0
57.168701171875,4.232159614562988,-1.7405400276184082,-0.0,-0.0,-1.0,0.008439109729217645,1.0,0
55.5028190612793,4.87020206451416,-1.6867117881774902,-0.0,-0.0,-1.0,0.10891681239986052,2.0,0
55.4366569519043,5.030498504638672,-1.6788673400878906,-0.7348066943989628,-0.6335457461831128,0.24223729968721117,0.14411132730270285,5.0,0
55.258201599121094,4.830086708068848,-1.7144155502319336,-0.0,-0.0,-1.0,0.09755331915107837,1.0,0
55.313499450683594,5.082526206970215,-1.711268424987793,-0.0,-0.0,-1.0,0.06950436578938579,2.0,0
55.58035659790039,4.785785675048828,-1.6820039749145508,-0.0,-0.0,-1.0,0.12050677957469887,2.0,0
55.39257049560547,5.034661293029785,-1.6530513763427734,0.08479219730497983,-0.8449656267971614,0.5280562212562916,0.09217419507528925,5.0,0
55.715370178222656,3.192549705505371,-1.605644941329956,0.04198684741177355,-0.9941713871402469,0.09929933351265653,0.03195976831833853,3.0,0
55.54508972167969,5.2032012939453125,-1.5995566844940186,-0.0,-0.0,-1.0,0.17304989213398103,1.0,0
57.511932373046875,5.121957778930664,-1.5817511081695557,-0.0,-0.0,-1.0,0.08314105841609291,1.0,0
57.657798767089844,5.258710861206055,-1.5881028175354004,-0.0,-0.0,-1.0,0.09395395340345687,1.0,0
55.27403259277344,4.057794570922852,-1.4590275287628174,-0.0,-0.0,-1.0,0.035872555535399,1.0,0
55.5361442565918,3.634511947631836,-1.9707098007202148,-0.0,-0.0,-1.0,0.06144623360309873,1.0,0
57.42781066894531,4.889062881469727,-2.065249443054199,-0.0,-0.0,-1.0,0.04701300631169954,1.0,0
55.71222686767578,4.807415008544922,-1.746783971786499,-0.0,-0.0,-1.0,0.14997658237249512,1.0,0
56.02177429199219,3.241565704345703,-1.7821900844573975,-0.0,-0.0,-1.0,0.030762416373421524,2.0,0
55.66258239746094,5.354190826416016,-1.616351842880249,-0.0,-0.0,-1.0,0.198796299233294,1.0,0
55.39164733886719,4.876737594604492,-1.5974738597869873,-0.0,-0.0,-1.0,0.11413587068602639,1.0,0
55.499183654785156,4.752843856811523,-1.5685317516326904,-0.0,-0.0,-1.0,0.08458732861616725,1.0,0
55.4838981628418,5.051810264587402,-1.5783636569976807,-0.35886183247097253,-0.8479342461190277,0.3901611198647707,0.10226802274453052,3.0,0
55.67779541015625,3.919109344482422,-1.8106129169464111,-0.0,-0.0,-1.0,0.03369673703494151,1.0,0
55.392234802246094,4.5720930099487305,-1.7789556980133057,-0.0,-0.0,-1.0,0.05288753594786302,1.0,0
56.03401184082031,5.578306198120117,-1.9027197360992432,-0.0,-0.0,-1.0,0.10953941440560404,1.0,0
56.91386795043945,3.1440629959106445,-1.9084278345108032,-0.0,-0.0,-1.0,0.00796466552218561,1.0,0
57.07461166381836,3.246408462524414,-1.9302905797958374,-0.0,-0.0,-1.0,0.008043611218762356,2.0,0
57.24794006347656,3.393909454345703,-1.9542981386184692,-0.0,-0.0,-1.0,0.00520948409176834,1.0,0
57.51482009887695,3.5646629333496094,-1.9910508394241333,-0.0,-0.0,-1.0,0.005706607582570561,1.0,0
57.5933837890625,4.967953681945801,-2.0156126022338867,-0.0,-0.0,-1.0,0.08204384589612336,1.0,0
55.302345275878906,3.684755325317383,-1.7003225088119507,-0.0,-0.0,-1.0,0.07741827562363794,1.0,0
55.45612335205078,4.882126808166504,-1.7303630113601685,-0.0,-0.0,-1.0,0.11799613613354577,2.0,0
55.49830627441406,4.971104621887207,-1.5434556007385254,-0.7547337362246344,-0.6540824132744525,-0.05052904164411194,0.11721839576800501,3.0,0
55.61793518066406,4.809505462646484,-1.5551331043243408,-0.0,-0.0,-1.0,0.13818794178458968,1.0,0
55.47529983520508,5.136011123657227,-1.5434625148773193,-0.0,-0.0,-1.0,0.21185049095632769,2.0,0
55.661964416503906,5.266412734985352,-1.5681383609771729,-0.0,-0.0,-1.0,0.1382647683744139,1.0,0
57.23775100708008,3.210249900817871,-1.9068222045898438,-0.0,-0.0,-1.0,0.006659614760325857,1.0,0
57.61115264892578,3.4194040298461914,-1.9612584114074707,-0.0,-0.0,-1.0,0.008130177329151007,1.0,0
57.6522331237793,4.790655136108398,-1.9765543937683105,-0.0,-0.0,-1.0,0.07848429207464629,2.0,0
55.73849868774414,5.229605674743652,-1.7001352310180664,-0.0302978670705902,-0.9983470672243495,-0.04883822903743252,0.11252591629612636,3.0,0
56.261260986328125,5.197816848754883,-1.7762470245361328,-0.0,-0.0,-1.0,0.04957273062962497,2.0,0
56.82087707519531,5.491490364074707,-1.8611979484558105,-0.0,-0.0,-1.0,0.033335566713495766,1.0,0
57.654457092285156,5.588326454162598,-1.9856181144714355,-0.0,-0.0,-1.0,0.08747943008796945,1.0,0
55.498085021972656,3.2851123809814453,-1.7070037126541138,-0.0,-0.0,-1.0,0.056535269257811376,1.0,0
56.494834899902344,3.3890151977539062,-1.8574453592300415,-0.0,-0.0,-1.0,0.005398428965347673,1.0,0
56.43258285522461,3.4281930923461914,-1.8480616807937622,-0.0,-0.0,-1.0,0.005983369417394493,1.0,0
56.805816650390625,3.50131893157959,-1.9049803018569946,-0.0,-0.0,-1.0,0.006015411817146425,1.0,0
57.024559020996094,3.6728038787841797,-1.9388870000839233,-0.0,-0.0,-1.0,0.004038934638846412,1.0,0
55.27369689941406,3.9150915145874023,-1.6728225946426392,-0.0,-0.0,-1.0,0.03105465880284636,1.0,0
55.57798767089844,4.622235298156738,-1.7206388711929321,-0.0,-0.0,-1.0,0.2061507364718104,2.0,0
55.59400939941406,4.7063188552856445,-1.723434329032898,-0.0,-0.0,-1.0,0.13536984300889288,2.0,0
56.39654541015625,5.23758602142334,-1.850885033607483,-0.0,-0.0,-1.0,0.024149136324988836,1.0,0
56.97284698486328,5.0680646896362305,-1.9393216371536255,-0.0,-0.0,-1.0,0.0339221684942152,1.0,0
57.14788818359375,5.168729782104492,-1.9676083326339722,-0.0,-0.0,-1.0,0.05920328075327313,1.0,0
56.42301559448242,3.1760616302490234,-1.7820754051208496,-0.0,-0.0,-1.0,0.009794340676471634,1.0,0
57.193084716796875,3.2664661407470703,-1.8949499130249023,-0.0,-0.0,-1.0,0.005980205486021664,1.0,0
57.418399810791016,3.4698562622070312,-1.9262046813964844,-0.0,-0.0,-1.0,0.008292444837935424,1.0,0
57.656166076660156,4.780282974243164,-1.9523165225982666,-0.0,-0.0,-1.0,0.06746494987439751,2.0,0
56.95185852050781,5.3975830078125,-1.8411860466003418,-0.0,-0.0,-1.0,0.028343982271585844,1.0,0
57.68702697753906,5.455618858337402,-1.9555187225341797,-0.0,-0.0,-1.0,0.08271022004247007,1.0,0
55.48455810546875,5.113526344299316,-1.617863655090332,-0.0,-0.0,-1.0,0.10884217110333884,2.0,0
55.67217254638672,5.227644920349121,-1.6454379558563232,0.8958250459085567,-0.3479545738102393,0.2764509028516036,0.137145402468912,3.0,0
56.27360153198242,5.096219062805176,-1.738154411315918,-0.0,-0.0,-1.0,0.13432486428500545,2.0,0
56.37040328979492,5.173707962036133,-1.7524993419647217,-0.0,-0.0,-1.0,0.05035353424288486,1.0,0
55.528465270996094,3.1655941009521484,-1.7049522399902344,-0.0,-0.0,-1.0,0.05699122975224629,1.0,0
55.826927185058594,3.2098846435546875,-1.7498605251312256,-0.0,-0.0,-1.0,0.03208234978804141,2.0,0
56.15220642089844,3.3430404663085938,-1.7965185642242432,-0.0,-0.0,-1.0,0.01738017575482709,1.0,0
56.51826477050781,3.299790382385254,-1.8555550575256348,-0.0,-0.0,-1.0,0.004824922461399257,2.0,0
56.854827880859375,3.2893333435058594,-1.9091885089874268,-0.0,-0.0,-1.0,0.0072237134509180205,1.0,0
55.45597839355469,3.683039665222168,-1.6765456199645996,-0.0,-0.0,-1.0,0.05689047063597885,2.0,0
57.03570556640625,3.4968223571777344,-1.9322011470794678,-0.0,-0.0,-1.0,0.006470363659960738,2.0,0
57.380313873291016,4.594013214111328,-1.9617576599121094,-0.0,-0.0,-1.0,0.03616417224609105,1.0,0
55.55669403076172,4.833576202392578,-1.659292459487915,-0.0,-0.0,-1.0,0.12493294932988991,1.0,0
56.181610107421875,5.053279876708984,-1.7554190158843994,-0.0,-0.0,-1.0,0.14034495346587395,2.0,0
57.46232986450195,4.81198787689209,-1.9709737300872803,-0.0,-0.0,-1.0,0.07265138700159698,1.0,0
56.308021545410156,5.142882347106934,-1.774155855178833,-0.0,-0.0,-1.0,0.13170565636298434,1.0,0
57.61137390136719,5.3406782150268555,-1.9864246845245361,-0.0,-0.0,-1.0,0.0806516680333634,2.0,0
57.54804229736328,5.507829666137695,-1.9732213020324707,-0.0,-0.0,-1.0,0.09049977178951471,2.0,0
55.41868591308594,5.054591178894043,-1.6314220428466797,0.04449221125913959,-0.997239028394123,-0.05945387611264514,0.1011537590375829,7.0,0
55.49762725830078,5.1691484451293945,-1.6413843631744385,0.3393889149282501,-0.08921819225376373,-0.9364055096990809,0.1821692638400061,3.0,0
55.66259002685547,5.185215950012207,-1.6677894592285156,-0.0,-0.0,-1.0,0.11312683672081833,2.0,0
57.133445739746094,3.2508630752563477,-1.887131690979004,-0.0,-0.0,-1.0,0.008075809462585789,1.0,0
57.340354919433594,3.385514259338379,-1.9178733825683594,-0.0,-0.0,-1.0,0.007772385539376192,1.0,0
57.676307678222656,4.700511932373047,-1.9459738731384277,-0.0,-0.0,-1.0,0.06277910787202048,1.0,0
55.528076171875,4.89381217956543,-1.5776374340057373,-0.0,-0.0,-1.0,0.11137203964795447,2.0,0
55.45811462402344,5.070432662963867,-1.5616068840026855,-0.0,-0.0,-1.0,0.15286836413267038,2.0,0
55.62070846557617,5.203967094421387,-1.5858373641967773,-0.0,-0.0,-1.0,0.18416759928155138,2.0,0
56.27588653564453,5.077558517456055,-1.6993992328643799,-0.0,-0.0,-1.0,0.04533029193625566,2.0,0
56.88266372680664,5.423505783081055,-1.7967658042907715,-0.0,-0.0,-1.0,0.02974680795996616,1.0,0
55.692989349365234,3.193112373352051,-1.5905482769012451,0.04198684741177355,-0.9941713871402469,0.09929933351265653,0.03147474252105101,3.0,0
55.555931091308594,5.058320045471191,-1.4978446960449219,-0.3231478451187773,-0.9462596275687732,-0.01296870959261681,0.15152188162639754,3.0,0
55.6651611328125,5.215485572814941,-1.5111007690429688,0.5206510511281499,-0.775439185604388,-0.3572345901342092,0.16011638077358994,3.0,0
57.037872314453125,3.1811113357543945,-1.8502305746078491,-0.0,-0.0,-1.0,0.007672524455263164,1.0,0
57.24287033081055,3.2784299850463867,-1.88186514377594,-0.0,-0.0,-1.0,0.0059802054860216645,1.0,0
55.523780822753906,5.069464683532715,-1.5099068880081177,-0.5220571484031085,-0.6462409963237885,0.5566227703495893,0.19911201533728526,4.0,0
55.66570281982422,5.2241058349609375,-1.5290230512619019,0.5206510511281499,-0.775439185604388,-0.3572345901342092,0.18243870765007325,3.0,0
55.765995025634766,3.166476249694824,-1.5521421432495117,-0.0,-0.0,-1.0,0.03401146770394368,1.0,0
55.84721374511719,4.954385757446289,-1.482182264328003,-0.0,-0.0,-1.0,0.07870202044112075,1.0,0
55.51253128051758,4.179361343383789,-1.8354747295379639,-0.0,-0.0,-1.0,0.06463008947100851,2.0,0
56.65081024169922,5.384328842163086,-1.9747893810272217,-0.0,-0.0,-1.0,0.03476828314675599,1.0,0
55.54460144042969,5.231205940246582,-1.7612109184265137,-0.0,-0.0,-1.0,0.15756145091096405,1.0,0
56.01561737060547,5.237126350402832,-1.855137825012207,-0.0,-0.0,-1.0,0.04983934214733507,1.0,0
56.20376205444336,5.253006935119629,-1.892125129699707,-0.0,-0.0,-1.0,0.14184075814673,1.0,0
56.356422424316406,5.341431617736816,-1.917219877243042,-0.0,-0.0,-1.0,0.02946956806786274,1.0,0
56.07051467895508,3.283827781677246,-1.7451988458633423,0.5246367590593375,0.37654932425879956,-0.7635226764438345,0.03049817148481274,3.0,0
56.52970886230469,3.284773826599121,-1.8268924951553345,-0.0,-0.0,-1.0,0.004824922461399248,2.0,0
56.21400451660156,3.385499954223633,-1.7614647150039673,-0.0,-0.0,-1.0,0.013975289719114664,1.0,0
56.62025451660156,3.3470191955566406,-1.8377939462661743,-0.0,-0.0,-1.0,0.005544203575195184,1.0,0
56.85894012451172,3.4045372009277344,-1.8760846853256226,-0.0,-0.0,-1.0,0.007041916326426082,1.0,0
57.45555877685547,3.9240102767944336,-1.9439588785171509,-0.0,-0.0,-1.0,0.013787391041705711,1.0,0
57.68234634399414,4.006467819213867,-1.9804798364639282,-0.0,-0.0,-1.0,0.006969630870362006,1.0,0
56.54704666137695,4.715441703796387,-1.7090851068496704,-0.0,-0.0,-1.0,0.023164061049258437,1.0,0
55.57904815673828,5.153813362121582,-1.4926143884658813,-0.0,-0.0,-1.0,0.15881122517709736,1.0,0
55.77336120605469,5.253557205200195,-1.5203601121902466,-0.0,-0.0,-1.0,0.21126641463145643,2.0,0
56.953636169433594,5.475006103515625,-1.7285655736923218,-0.0,-0.0,-1.0,0.05856452275447723,1.0,0
55.50981903076172,4.441619873046875,-1.8009347915649414,-0.0,-0.0,-1.0,0.08355784474222083,1.0,0
55.573753356933594,4.270661354064941,-1.8338568210601807,-0.0,-0.0,-1.0,0.06436508328499134,2.0,0
55.41987991333008,4.76893424987793,-1.744168758392334,-0.0,-0.0,-1.0,0.07218525786660099,1.0,0
55.44766616821289,5.21672248840332,-1.6958513259887695,-0.0,-0.0,-1.0,0.19234332327287573,2.0,0
55.73201370239258,5.253724098205566,-1.7466626167297363,-0.0,-0.0,-1.0,0.12245475516250824,1.0,0
56.14735794067383,5.218018531799316,-1.8327748775482178,-0.0,-0.0,-1.0,0.05183476618382572,1.0,0
56.580074310302734,5.180876731872559,-1.9238340854644775,-0.0,-0.0,-1.0,0.0321022720298066,1.0,0
57.02034378051758,5.5132951736450195,-1.9790551662445068,-0.0,-0.0,-1.0,0.026743544275620458,1.0,0
55.80378341674805,3.1386537551879883,-1.76534903049469,-0.0,-0.0,-1.0,0.028022959271122732,1.0,0
56.031307220458984,3.280104637145996,-1.7739754915237427,0.589876537485717,0.026116676747463017,-0.8070709942251237,0.030762416373421524,3.0,0
56.3583984375,3.270009994506836,-1.8195267915725708,-0.0,-0.0,-1.0,0.011142487396502648,1.0,0
56.6904182434082,3.2288942337036133,-1.8712526559829712,-0.0,-0.0,-1.0,0.006022345344781147,1.0,0
57.17099380493164,3.40457820892334,-1.9135292768478394,-0.0,-0.0,-1.0,0.006430177234481033,1.0,0
57.245201110839844,3.4500951766967773,-1.9176987409591675,-0.0,-0.0,-1.0,0.005209484091768228,1.0,0
57.58323287963867,3.5105695724487305,-1.9585319757461548,-0.0,-0.0,-1.0,0.0058352492157479575,1.0,0
57.68992614746094,4.785565376281738,-1.8000768423080444,-0.0,-0.0,-1.0,0.07606419185553454,1.0,0
55.46057891845703,5.426799774169922,-1.8669565916061401,-0.0,-0.0,-1.0,0.20967781626861018,1.0,0
55.820167541503906,5.496593475341797,-1.9146820306777954,-0.0,-0.0,-1.0,0.16200079885387111,1.0,0
55.765220642089844,4.838068962097168,-1.5069183111190796,-0.0,-0.0,-1.0,0.11800927902175753,1.0,0
55.867855072021484,4.896615982055664,-1.5129297971725464,-0.0,-0.0,-1.0,0.09956469995008674,1.0,0
56.89341735839844,4.574563026428223,-1.9725894927978516,-0.0,-0.0,-1.0,0.012519573624283452,1.0,0
56.96402359008789,4.732207298278809,-1.9590191841125488,-0.0,-0.0,-1.0,0.02410232352831437,1.0,0
57.12807846069336,4.9984540939331055,-1.944732666015625,-0.0,-0.0,-1.0,0.05216941263890533,1.0,0
57.41606140136719,5.042938232421875,-1.9888842105865479,-0.0,-0.0,-1.0,0.05043499985070975,1.0,0
57.60927963256836,5.29351806640625,-1.9849395751953125,-0.0,-0.0,-1.0,0.08065166803336342,2.0,0
55.52244567871094,4.189247131347656,-1.817857265472412,-0.0,-0.0,-1.0,0.059813990913844386,2.0,0
55.5326042175293,4.622675895690918,-1.7434303760528564,0.09109218451087943,0.6990469562362704,-0.7092500031003466,0.11751565028350319,3.0,0
55.681800842285156,4.253432273864746,-1.830805778503418,-0.0,-0.0,-1.0,0.0616154856293418,1.0,0
55.45622253417969,5.001321792602539,-1.6659002304077148,-0.35326738548452535,-0.5674546337303452,-0.7437724067286224,0.05919569304790016,3.0,0
55.503211975097656,4.751936912536621,-1.716404676437378,-0.0,-0.0,-1.0,0.08770799406752473,1.0,0
55.51142883300781,5.204183578491211,-1.6397202014923096,0.39860577740753733,-0.11379840667005094,-0.9100348107939005,0.23075966413906407,3.0,0
55.76994323730469,5.227535247802734,-1.677319049835205,-0.0302978670705902,-0.9983470672243495,-0.04883822903743252,0.20511468618482548,3.0,0
56.21804428100586,5.126751899719238,-1.7679848670959473,-0.0,-0.0,-1.0,0.04951546941543252,1.0,0
56.968223571777344,4.967107772827148,-1.9217958450317383,-0.0,-0.0,-1.0,0.030986523389541238,1.0,0
55.387107849121094,4.213811874389648,-1.8185737133026123,-0.0,-0.0,-1.0,0.05903873110965966,1.0,0
55.477317810058594,4.560834884643555,-1.7675232887268066,-0.0,-0.0,-1.0,0.09030693529375605,1.0,0
55.552127838134766,4.325381278991699,-1.824422836303711,-0.0,-0.0,-1.0,0.0711697731491563,2.0,0
55.420291900634766,4.948230743408203,-1.6848490238189697,-0.0,-0.0,-1.0,0.11894874563804717,1.0,0
55.93852615356445,5.148387908935547,-1.7376067638397217,-0.0,-0.0,-1.0,0.0712535454668446,1.0,0
56.155120849609375,5.115947723388672,-1.782310962677002,-0.0,-0.0,-1.0,0.04601790333415471,1.0,0
56.7730712890625,4.771900177001953,-1.956732988357544,-0.0,-0.0,-1.0,0.01742523150295855,1.0,0
56.30469512939453,5.2172651290893555,-1.7912416458129883,-0.0,-0.0,-1.0,0.04276736068084847,2.0,0
56.924888610839844,4.998758316040039,-1.9452800750732422,-0.0,-0.0,-1.0,0.03138321153245468,1.0,0
56.942237854003906,5.291743278503418,-1.897594928741455,-0.0,-0.0,-1.0,0.029533903878692976,1.0,0
57.25261688232422,5.18104362487793,-1.9765315055847168,-0.0,-0.0,-1.0,0.05843477543190023,1.0,0
57.46514129638672,5.272195816040039,-2.0025997161865234,-0.0,-0.0,-1.0,0.07773775019594319,1.0,0
57.5483512878418,5.526386260986328,-1.9768023490905762,-0.0,-0.0,-1.0,0.09049977178951468,2.0,0
55.436763763427734,5.167076110839844,-1.6467046737670898,-0.0,-0.0,-1.0,0.176503185560222,1.0,0
55.5110969543457,5.245000839233398,-1.6449697017669678,-0.0,-0.0,-1.0,0.18757567837711311,2.0,0
55.693660736083984,5.260316848754883,-1.6739468574523926,-0.47327201248823747,-0.3815561357792835,-0.793995288049315,0.18027089760286283,3.0,0
56.188899993896484,3.2650880813598633,-1.7973843812942505,-0.0,-0.0,-1.0,0.01738017575482706,2.0,0
56.4844970703125,3.177297592163086,-1.859791874885559,-0.0,-0.0,-1.0,0.005030803057446736,1.0,0
56.81024932861328,3.2451400756835938,-1.8985658884048462,-0.0,-0.0,-1.0,0.007290869970428777,1.0,0
57.10060119628906,3.3822879791259766,-1.9202429056167603,-0.0,-0.0,-1.0,0.00823119953921875,1.0,0
57.29735565185547,3.4491100311279297,-1.9410501718521118,-0.0,-0.0,-1.0,0.007239067977468737,1.0,0
57.609169006347656,3.5632104873657227,-1.9743131399154663,-0.0,-0.0,-1.0,0.0056872914547045975,1.0,0
56.087059020996094,3.1558847427368164,-1.757222294807434,-0.0,-0.0,-1.0,0.030497948990278342,1.0,0
56.31316375732422,3.160017967224121,-1.7909916639328003,-0.0,-0.0,-1.0,0.011142487396502632,2.0,0
56.9448127746582,3.204604148864746,-1.8835901021957397,-0.0,-0.0,-1.0,0.008790085045771208,1.0,0
57.07876205444336,3.2343339920043945,-1.9001909494400024,-0.0,-0.0,-1.0,0.008332485357304138,2.0,0
57.41987609863281,3.3445119857788086,-1.9370094537734985,-0.0,-0.0,-1.0,0.007705604669629501,2.0,0
56.95802688598633,3.1381607055664062,-1.8608256578445435,-0.0,-0.0,-1.0,0.008829678245765563,1.0,0
57.30471420288086,3.257486343383789,-1.8924700021743774,-0.0,-0.0,-1.0,0.004910359145227945,1.0,0
57.6939697265625,3.355457305908203,-1.9387894868850708,-0.0,-0.0,-1.0,0.008130177329151007,1.0,0
56.34653091430664,3.140125274658203,-1.7650359869003296,-0.0,-0.0,-1.0,0.011142487396502665,2.0,0
56.18733596801758,3.237868309020996,-1.764696478843689,-0.3638030502885736,-0.7071630489453998,-0.6062736698941953,0.014564319114277136,3.0,0
56.617713928222656,3.17828369140625,-1.8415173292160034,-0.0,-0.0,-1.0,0.00568290142084382,1.0,0
57.02044677734375,3.275649070739746,-1.8800550699234009,-0.0,-0.0,-1.0,0.00801422984289855,1.0,0
57.43354797363281,3.409806251525879,-1.9154165983200073,-0.0,-0.0,-1.0,0.0074770614120163595,1.0,0
55.65629577636719,5.215340614318848,-1.5237069129943848,0.5206510511281499,-0.775439185604388,-0.3572345901342092,0.16011638077358994,3.0,0
55.65308380126953,5.337278366088867,-1.529681921005249,-0.0,-0.0,-1.0,0.19660653376914797,1.0,0
55.47405242919922,5.017058849334717,-1.6160833835601807,-0.0,-0.0,-1.0,0.10108319338852775,2.0,0
55.82537078857422,3.175175189971924,-1.7226158380508423,-0.0,-0.0,-1.0,0.032530070020068545,2.0,0
56.13507080078125,3.2983131408691406,-1.7605234384536743,0.9076523790377703,-0.009391782887671847,-0.4196176274196151,0.018466385490700187,3.0,0
57.198028564453125,3.1455817222595215,-1.880454421043396,-0.0,-0.0,-1.0,0.006182284331342515,1.0,0
55.46942901611328,3.361398220062256,-1.6848570108413696,-0.0,-0.0,-1.0,0.08003038926257616,1.0,0
55.479923248291016,3.6994667053222656,-1.6922563314437866,-0.0,-0.0,-1.0,0.05198632284238962,2.0,0
55.44091796875,5.0044331550598145,-1.7149094343185425,-0.0,-0.0,-1.0,0.09553895235588242,2.0,0
55.45563507080078,4.9065327644348145,-1.7143985033035278,-0.0,-0.0,-1.0,0.0827747307164341,2.0,0
55.215354919433594,3.5457940101623535,-1.7125322818756104,-0.0,-0.0,-1.0,0.0857036757552219,1.0,0
55.99542999267578,3.8620848655700684,-1.8211660385131836,-0.0,-0.0,-1.0,0.01761166624908238,1.0,0
56.76636505126953,3.845120429992676,-1.925140619277954,-0.0,-0.0,-1.0,0.011276221120193455,1.0,0
56.70212936401367,3.9540224075317383,-1.917914628982544,-0.0,-0.0,-1.0,0.008175613416018529,1.0,0
56.95611572265625,4.028365135192871,-1.9533557891845703,-0.0,-0.0,-1.0,0.007992461678673455,1.0,0
55.530311584472656,4.676095485687256,-1.7697155475616455,-0.0,-0.0,-1.0,0.11214470548310641,1.0,0
55.34124755859375,5.022241115570068,-1.749711036682129,-0.9953831284530477,-0.06705904471486954,0.06866958652090871,0.18163034641437772,4.0,0
55.541481018066406,3.4897356033325195,-1.7295246124267578,-0.0,-0.0,-1.0,0.04850526882754247,1.0,0
57.00045394897461,3.523865222930908,-1.9330739974975586,-0.0,-0.0,-1.0,0.006280936628377377,2.0,0
57.06916809082031,3.593393325805664,-1.9435510635375977,-0.0,-0.0,-1.0,0.004523809292495474,1.0,0
57.135009765625,3.8361635208129883,-1.9560847282409668,-0.0,-0.0,-1.0,0.012542195948005458,2.0,0
55.312171936035156,3.3901162147521973,-1.6966838836669922,-0.0,-0.0,-1.0,0.07870105957348299,1.0,0
55.382080078125,3.287555694580078,-1.7054071426391602,-0.0,-0.0,-1.0,0.051771685698425246,2.0,0
55.34986877441406,4.877223014831543,-1.7219889163970947,-0.0,-0.0,-1.0,0.08504000116927612,1.0,0
57.376007080078125,3.231334686279297,-1.8831769227981567,-0.0,-0.0,-1.0,0.00814787227264972,2.0,0
55.45658874511719,5.046111106872559,-1.6158682107925415,-0.6182279332002012,-0.5551870829663326,0.5563825352384296,0.13837215972630365,5.0,0
56.30747985839844,5.255932331085205,-1.7344545125961304,-0.0,-0.0,-1.0,0.048209280460413666,1.0,0
56.9251708984375,5.451640605926514,-1.8212746381759644,-0.0,-0.0,-1.0,0.028174765415054513,1.0,0
56.928802490234375,3.5361690521240234,-1.9212536811828613,-0.0,-0.0,-1.0,0.006542770467736159,1.0,0
57.16576385498047,3.861992359161377,-1.9427812099456787,-0.0,-0.0,-1.0,0.012310249006425678,2.0,0
57.380496978759766,4.107486248016357,-1.9651172161102295,-0.0,-0.0,-1.0,0.007009298602980896,1.0,0
57.69242858886719,5.011258125305176,-1.9800803661346436,-0.0,-0.0,-1.0,0.08208488486984998,1.0,0
57.602745056152344,5.508889675140381,-1.951338291168213,-0.0,-0.0,-1.0,0.08747943008796945,1.0,0
55.340301513671875,3.3055834770202637,-1.6960859298706055,-0.0,-0.0,-1.0,0.08167248307012033,2.0,0
55.35986328125,3.159363269805908,-1.7062346935272217,-0.0,-0.0,-1.0,0.05177168569842523,1.0,0
55.33781433105469,3.544005870819092,-1.6842246055603027,-0.0,-0.0,-1.0,0.07100557358415589,1.0,0
55.564849853515625,3.4402122497558594,-1.7227728366851807,-0.0,-0.0,-1.0,0.05499794795396906,1.0,0
55.60306167602539,4.637132167816162,-1.6769444942474365,-0.0,-0.0,-1.0,0.2061507364718104,1.0,0
55.433563232421875,4.9796905517578125,-1.638634443283081,-0.0,-0.0,-1.0,0.11360769054235934,2.0,0
55.57748794555664,4.745156764984131,-1.668982744216919,-0.0,-0.0,-1.0,0.12692828588063299,2.0,0
56.8671875,5.3847246170043945,-1.8427956104278564,-0.0,-0.0,-1.0,0.03023988535445766,1.0,0
55.44355010986328,4.028073787689209,-1.8155465126037598,-0.0,-0.0,-1.0,0.03215434496169471,1.0,0
55.325340270996094,4.8485517501831055,-1.762622594833374,-0.0,-0.0,-1.0,0.14636765978612684,1.0,0
55.42040252685547,4.725546836853027,-1.7827057838439941,-0.0,-0.0,-1.0,0.07221933939225252,1.0,0
55.576148986816406,4.292768478393555,-1.8253631591796875,0.37009058446584864,0.29796292789118306,-0.8799153668917485,0.07116977314915619,3.0,0
55.35673522949219,5.037538528442383,-1.7606735229492188,-0.9953831284530477,-0.06705904471486954,0.06866958652090871,0.1352474699810828,4.0,0
57.395469665527344,3.2108888626098633,-1.8936406373977661,-0.0,-0.0,-1.0,0.008147872272649721,2.0,0
57.619873046875,3.3734045028686523,-1.9207202196121216,-0.0,-0.0,-1.0,0.00813017732915101,1.0,0
55.519134521484375,5.0475358963012695,-1.5421830415725708,0.5660588761151466,-0.7174710487390569,0.40597123419342807,0.21259183433929957,3.0,0
55.565635681152344,4.798462867736816,-1.5570935010910034,-0.0,-0.0,-1.0,0.11100089378622972,2.0,0
55.75899124145508,5.217689514160156,-1.5737131834030151,-0.0,-0.0,-1.0,0.22096520799967043,2.0,0
57.146636962890625,3.160027027130127,-1.8584219217300415,-0.0,-0.0,-1.0,0.007910847476631655,1.0,0
56.909385681152344,5.3773393630981445,-1.745529294013977,-0.0,-0.0,-1.0,0.029459914220962214,2.0,0
55.214786529541016,3.4550716876983643,-1.746631383895874,-0.0,-0.0,-1.0,0.07386867705674156,1.0,0
55.414852142333984,3.4862020015716553,-1.7795474529266357,-0.0,-0.0,-1.0,0.07850907574667568,1.0,0
55.53145980834961,5.067047595977783,-1.524885654449463,-0.5220571484031085,-0.6462409963237885,0.5566227703495893,0.21894146392568545,4.0,0
55.412757873535156,5.293386936187744,-1.5370738506317139,-0.0,-0.0,-1.0,0.15965653798883295,1.0,0
55.51374053955078,4.918046474456787,-1.6907230615615845,-0.0,-0.0,-1.0,0.07464398304517399,2.0,0
55.413272857666016,5.230762958526611,-1.6889055967330933,-0.0,-0.0,-1.0,0.18543304965683086,2.0,0
55.5968132019043,5.266502380371094,-1.7286789417266846,-0.0,-0.0,-1.0,0.12091684376807775,1.0,0
55.457679748535156,5.233262538909912,-1.5752273797988892,-0.0,-0.0,-1.0,0.2623704401796419,1.0,0
55.547386169433594,4.931734561920166,-1.5706425905227661,-0.0,-0.0,-1.0,0.11457215595694274,2.0,0
55.76117706298828,3.5774412155151367,-1.6397662162780762,-0.0,-0.0,-1.0,0.03956442035460886,1.0,0
55.47277069091797,5.288396835327148,-1.5733795166015625,-0.0,-0.0,-1.0,0.1971876216187387,2.0,0
55.51233673095703,5.511188507080078,-1.5720021724700928,-0.0,-0.0,-1.0,0.209742489610346,1.0,0
55.63249969482422,5.1684088706970215,-1.5898897647857666,-0.0,-0.0,-1.0,0.10729246071709746,2.0,0
55.47120666503906,5.000984191894531,-1.5254602432250977,-0.7547337362246344,-0.6540824132744525,-0.05052904164411194,0.11347680104879589,3.0,0
55.3741340637207,5.249673843383789,-1.5402908325195312,-0.0,-0.0,-1.0,0.1737129353298497,1.0,0
55.49864959716797,4.968172073364258,-1.4838333129882812,-0.0,-0.0,-1.0,0.1047956859935768,2.0,0
55.575252532958984,4.876375198364258,-1.4792370796203613,-0.0,-0.0,-1.0,0.1265046738854033,2.0,0
55.39492416381836,5.115938186645508,-1.4925956726074219,-0.0,-0.0,-1.0,0.10982328118519095,1.0,0
55.59300231933594,4.955287933349609,-1.5655288696289062,-0.0,-0.0,-1.0,0.08233222123865679,1.0,0
55.44647979736328,5.13957405090332,-1.575718879699707,-0.0,-0.0,-1.0,0.21169592297464532,2.0,0
55.472103118896484,5.002801895141602,-1.5623798370361328,-0.6245536376941875,-0.7680918741070796,0.14130685253600214,0.09863369434209462,4.0,0
55.74664306640625,4.809490203857422,-1.5541870594024658,-0.0,-0.0,-1.0,0.12009742983325718,1.0,0
55.37983703613281,5.0570526123046875,-1.6416780948638916,0.08479219730497983,-0.8449656267971614,0.5280562212562916,0.07957652170415326,5.0,0
55.263973236083984,3.590330123901367,-1.6442546844482422,-0.0,-0.0,-1.0,0.08131457714943362,1.0,0
55.60663604736328,4.864290237426758,-1.6280312538146973,-0.0,-0.0,-1.0,0.11415177882521614,1.0,0
55.60193634033203,4.636356830596924,-1.7462618350982666,-0.0,-0.0,-1.0,0.1908498905937589,2.0,0
56.09137725830078,3.2537150382995605,-1.7457144260406494,-0.8181507597755399,-0.5683239211043412,0.0873913896175916,0.028076158961762077,3.0,0
55.3602409362793,5.019002437591553,-1.7364280223846436,-0.9953831284530477,-0.06705904471486954,0.06866958652090871,0.1534480868375663,4.0,0
55.56560516357422,4.713371276855469,-1.7560265064239502,-0.0,-0.0,-1.0,0.1269955663174423,2.0,0
55.36857604980469,4.964811325073242,-1.7426936626434326,-0.0,-0.0,-1.0,0.20282874321643088,1.0,0
55.5070686340332,4.630186080932617,-1.7393078804016113,0.09109218451087943,0.6990469562362704,-0.7092500031003466,0.11826956113324914,3.0,0
55.34907913208008,5.047126770019531,-1.7344779968261719,-0.9883496320710783,-0.1422991148880731,-0.05399969154573767,0.14071369363751518,5.0,0
55.6325798034668,4.678534507751465,-1.6722824573516846,-0.0,-0.0,-1.0,0.18528138090375681,1.0,0
55.55287170410156,5.12269401550293,-1.6751863956451416,-0.0,-0.0,-1.0,0.1188823617329678,1.0,0
55.4362678527832,5.015040397644043,-1.5755712985992432,0.1779093566066146,-0.43204234462463437,-0.8841310272143313,0.1076296539173643,3.0,0
55.44390106201172,4.96091365814209,-1.8891255855560303,-0.0,-0.0,-1.0,0.12220331280128427,1.0,0
55.35979461669922,5.200843811035156,-1.8739197254180908,-0.0,-0.0,-1.0,0.16290468954954387,1.0,0
55.47837829589844,5.277553558349609,-1.53627347946167,-0.0,-0.0,-1.0,0.16469152436125095,2.0,0
55.78529357910156,5.467634201049805,-1.569943904876709,-0.0,-0.0,-1.0,0.22746829158988907,1.0,0
55.97740173339844,3.2277050018310547,-1.7191650867462158,-0.0,-0.0,-1.0,0.032559986933114085,1.0,0
55.794525146484375,4.316309928894043,-2.092388153076172,-0.0,-0.0,-1.0,0.043224526786202665,1.0,0
56.02846908569336,4.836745738983154,-2.153153419494629,-0.0,-0.0,-1.0,0.08593281019796613,1.0,0
55.93354415893555,5.4906086921691895,-2.169400215148926,-0.0,-0.0,-1.0,0.10893646382891457,1.0,0
55.716915130615234,5.179196834564209,-2.121103286743164,-0.0,-0.0,-1.0,0.18735574344066547,1.0,0
55.23774337768555,3.2836761474609375,-1.9577360153198242,-0.0,-0.0,-1.0,0.07781526448358983,1.0,0
57.42942810058594,3.3504295349121094,-1.9077868461608887,-0.0,-0.0,-1.0,0.0077056046696295025,2.0,0
57.1810417175293,5.271706581115723,-1.9698419570922852,-0.0,-0.0,-1.0,0.06149599608279297,1.0,0
55.714744567871094,3.8365559577941895,-1.8258075714111328,-0.0,-0.0,-1.0,0.023760946365810394,1.0,0
55.40952682495117,4.3835344314575195,-1.7320137023925781,-0.0,-0.0,-1.0,0.06246201321294113,1.0,0
55.98699188232422,3.979372024536133,-1.8611440658569336,-0.0,-0.0,-1.0,0.03953613378137882,1.0,0
55.268611907958984,4.74342679977417,-1.6811847686767578,-0.0,-0.0,-1.0,0.07407947932443537,1.0,0
55.38248825073242,4.559216022491455,-1.7142553329467773,-0.0,-0.0,-1.0,0.07891080801999072,1.0,0
55.326507568359375,4.909793376922607,-1.6788825988769531,-0.0,-0.0,-1.0,0.11892180446847589,1.0,0
55.62468719482422,4.643194675445557,-1.5272936820983887,-0.0,-0.0,-1.0,0.1391194842742701,1.0,0
55.53810501098633,4.810659885406494,-1.5207343101501465,-0.0,-0.0,-1.0,0.11188301834466195,2.0,0
56.74324417114258,3.637360095977783,-1.9520606994628906,-0.0,-0.0,-1.0,0.003666009910382567,1.0,0
56.86256408691406,3.378580093383789,-1.9520988464355469,-0.0,-0.0,-1.0,0.007091760506941409,1.0,0
55.30604553222656,3.2405459880828857,-1.657186508178711,-0.0,-0.0,-1.0,0.051771685698425246,1.0,0
55.42934799194336,4.153090476989746,-1.7569866180419922,-0.0,-0.0,-1.0,0.04623369798384478,1.0,0
56.14262390136719,3.896430492401123,-1.8646888732910156,-0.0,-0.0,-1.0,0.016480110931414098,1.0,0
56.097145080566406,3.1967968940734863,-1.7033662796020508,-0.2653683502484215,-0.014684923351352186,-0.9640352647660747,0.030498171484812733,3.0,0
55.77845764160156,3.5600600242614746,-1.7310266494750977,-0.0,-0.0,-1.0,0.03955665910565809,1.0,0
57.57663345336914,3.604156255722046,-1.8972053527832031,-0.0,-0.0,-1.0,0.005083695624235913,1.0,0
57.41482925415039,3.880910634994507,-1.923675537109375,-0.0,-0.0,-1.0,0.013787391041705725,1.0,0
56.821815490722656,4.470853805541992,-1.9481258392333984,-0.0,-0.0,-1.0,0.01042068288716962,1.0,0
55.797786712646484,4.6152143478393555,-1.837325096130371,-0.0,-0.0,-1.0,0.13110530445281468,1.0,0
55.64277648925781,5.1717939376831055,-1.9161911010742188,-0.0,-0.0,-1.0,0.177080116151079,1.0,0
55.67996597290039,5.361696243286133,-1.9553213119506836,-0.0,-0.0,-1.0,0.13372280107898588,1.0,0
57.65095520019531,4.77030611038208,-1.8622732162475586,-0.0,-0.0,-1.0,0.07042077915658133,1.0,0
57.665771484375,4.977021217346191,-1.8956270217895508,-0.0,-0.0,-1.0,0.0820438458961234,2.0,0
57.524200439453125,5.263309478759766,-1.920156478881836,-0.0,-0.0,-1.0,0.08065166803336342,1.0,0
57.1524543762207,5.504029273986816,-1.9068307876586914,-0.0,-0.0,-1.0,0.02546028316612067,1.0,0
57.6866455078125,4.960117340087891,-1.9001011848449707,-0.0,-0.0,-1.0,0.08204384589612337,2.0,0
56.10166931152344,3.2451059818267822,-1.7053475379943848,-0.12048347923678168,-0.551047055828569,-0.8257305090001612,0.03049817148481274,4.0,0
55.221092224121094,3.791867733001709,-1.6431622505187988,-0.0,-0.0,-1.0,0.04835304986851067,1.0,0
55.32205581665039,4.791476726531982,-1.7605900764465332,-0.0,-0.0,-1.0,0.09026841523488259,1.0,0
55.50087356567383,4.604940891265869,-1.7649855613708496,0.09109218451087943,0.6990469562362704,-0.7092500031003466,0.10717567624152748,3.0,0
55.477359771728516,4.968250751495361,-1.4830994606018066,-0.0,-0.0,-1.0,0.10343082687127995,2.0,0
55.44451141357422,5.170097827911377,-1.4812030792236328,-0.0,-0.0,-1.0,0.17240259168320626,1.0,0
55.398643493652344,5.037415504455566,-1.594076156616211,-0.24088014976279584,-0.8262167629312508,-0.5092569234695381,0.10054926114859848,3.0,0
