x,y,z,nx,ny,nz,curvature,density,label
23.400856018066406,13.275260925292969,-1.161316156387329,-0.5321377443536277,-0.8238689533634508,-0.1951137327766694,0.021024143202377304,3.0,0
22.746776580810547,13.170413970947266,-1.1160944700241089,-0.0,-0.0,-1.0,0.04076025541816765,2.0,0
23.793415069580078,14.865671157836914,-1.3053234815597534,-0.5147563032782775,0.644366083482496,-0.5655247993613637,0.05128825750780768,3.0,0
23.360393524169922,15.333877563476562,-1.3109794855117798,-0.0,-0.0,-1.0,0.10527391630549755,1.0,0
23.825193405151367,14.953523635864258,-1.3234375715255737,-0.0,-0.0,-1.0,0.05402980628716933,2.0,0
23.98362159729004,14.992124557495117,-1.289101004600525,-0.047377081758349454,0.9956886009768194,-0.07974723825240768,0.1233893216146981,5.0,0
23.344202041625977,15.424901962280273,-1.3408066034317017,-0.0,-0.0,-1.0,0.1866237481023499,1.0,0
23.154966354370117,14.811798095703125,-1.2274173498153687,-0.0,-0.0,-1.0,0.10324492180663404,1.0,0
23.300094604492188,15.10478401184082,-1.2649799585342407,-0.3197630392907685,0.4787288896207936,-0.8176614513024157,0.14855907691760445,3.0,0
24.869409561157227,14.330411911010742,-1.3570303916931152,-0.0,-0.0,-1.0,0.09001684048767576,2.0,0
24.91651153564453,13.962682723999023,-1.3118088245391846,-0.0,-0.0,-1.0,0.035832121404929425,2.0,0
24.93606948852539,13.433985710144043,-1.2570793628692627,-0.0,-0.0,-1.0,0.14470493789383637,2.0,0
24.826608657836914,13.241744041442871,-1.256664752960205,-0.7939298564958115,0.6073597464654378,-0.02809842233968911,0.13785298232891732,3.0,0
25.173044204711914,14.81317138671875,-1.364133596420288,-0.0,-0.0,-1.0,0.12590997521118436,1.0,0
23.084373474121094,14.9420166015625,-1.1034932136535645,-0.0,-0.0,-1.0,0.15606380429932323,1.0,0
23.194934844970703,15.031393051147461,-1.167930245399475,-0.03292590276998358,-0.2982200046336064,-0.9539290926285418,0.2349115583891616,3.0,0
23.023212432861328,14.756513595581055,-1.1606425046920776,-0.9772858333354417,-0.19774846858469539,0.07620986244744642,0.2275326035917345,3.0,0
23.40152931213379,15.21554183959961,-1.1636112928390503,-0.0,-0.0,-1.0,0.10296243973725377,1.0,0
23.667238235473633,14.825721740722656,-1.3000671863555908,-0.0,-0.0,-1.0,0.04421431507184197,1.0,0
23.49291229248047,14.539287567138672,-1.2901122570037842,-0.0,-0.0,-1.0,0.020391494740039963,2.0,0
23.638050079345703,14.02438735961914,-1.2222776412963867,-0.0,-0.0,-1.0,0.016547344962733558,1.0,0
23.574993133544922,13.85820198059082,-1.2134301662445068,-0.0,-0.0,-1.0,0.02581251408290497,2.0,0
23.999967575073242,14.993143081665039,-1.2814621925354004,-0.916495244133767,0.2988376534773986,-0.26595586916687775,0.125337195343091,4.0,0
23.907936096191406,14.762086868286133,-1.2669463157653809,-0.0,-0.0,-1.0,0.12646369277547687,2.0,0
23.701196670532227,13.617923736572266,-1.1758780479431152,0.21782547400724345,0.6321514120348481,-0.7435971053842714,0.019229553305476783,3.0,0
23.707935333251953,13.391233444213867,-1.1539108753204346,-0.0,-0.0,-1.0,0.01867103994631264,1.0,0
25.062519073486328,13.52473258972168,-1.2261883020401,-0.0,-0.0,-1.0,0.10715226849228278,2.0,0
24.940786361694336,13.213054656982422,-1.2091561555862427,-0.0,-0.0,-1.0,0.08218906507242234,2.0,0
25.063663482666016,13.864152908325195,-1.2613614797592163,-0.0,-0.0,-1.0,0.10300267586289315,1.0,0
25.106708526611328,13.697858810424805,-1.2389434576034546,-0.0,-0.0,-1.0,0.13306238020606728,1.0,0
22.717674255371094,14.230676651000977,-1.1726086139678955,-0.0,-0.0,-1.0,0.012342414073446448,2.0,0
22.74478530883789,14.023292541503906,-1.1489930152893066,-0.0,-0.0,-1.0,0.011220057294405334,1.0,0
22.73760223388672,13.197565078735352,-1.0668423175811768,-0.0,-0.0,-1.0,0.03928243487256671,2.0,0
23.20248031616211,13.584182739257812,-1.065730094909668,-0.0,-0.0,-1.0,0.13117915600642727,1.0,0
23.68815040588379,14.973365783691406,-1.2957825660705566,-0.0,-0.0,-1.0,0.038529342113867535,2.0,0
23.662965774536133,14.728736877441406,-1.2743356227874756,-0.0,-0.0,-1.0,0.10236506810852623,1.0,0
24.090316772460938,15.155685424804688,-1.2851033210754395,-0.0,-0.0,-1.0,0.11818210323922274,1.0,0
23.978912353515625,15.052348136901855,-1.2828571796417236,-0.0,-0.0,-1.0,0.11459215580941061,2.0,0
23.89603614807129,14.388998985290527,-1.2255146503448486,-0.0,-0.0,-1.0,0.12708441037108806,1.0,0
23.87603187561035,14.199700355529785,-1.2091867923736572,-0.0,-0.0,-1.0,0.06373570411790082,2.0,0
24.478300094604492,15.451600074768066,-1.2875728607177734,-0.0,-0.0,-1.0,0.11689688622231505,1.0,0
24.429431915283203,15.189095497131348,-1.265075445175171,-0.0,-0.0,-1.0,0.0445376517079541,2.0,0
23.98311996459961,13.889104843139648,-1.172377586364746,-0.0,-0.0,-1.0,0.04367278744122857,1.0,0
23.989383697509766,13.580657958984375,-1.1433629989624023,-0.0,-0.0,-1.0,0.028091913605796014,1.0,0
24.04717445373535,13.377408027648926,-1.1203985214233398,-0.0,-0.0,-1.0,0.021901235357126306,1.0,0
25.066829681396484,13.811724662780762,-1.0873308181762695,-0.0,-0.0,-1.0,0.09041057338970213,1.0,0
23.388912200927734,14.921249389648438,-1.2644788026809692,0.8249720368340625,0.05968649407667903,0.562013043324346,0.05875312621525468,4.0,0
23.717052459716797,15.077001571655273,-1.2605589628219604,-0.0,-0.0,-1.0,0.07802484360847418,2.0,0
23.630064010620117,15.001300811767578,-1.2581857442855835,-0.0,-0.0,-1.0,0.04853788324376343,2.0,0
23.234310150146484,14.674678802490234,-1.2499996423721313,-0.0,-0.0,-1.0,0.08143595953575988,2.0,0
23.058908462524414,14.457489013671875,-1.2399252653121948,-0.0,-0.0,-1.0,0.05778741806511289,2.0,0
24.072647094726562,14.866964340209961,-1.2197448015213013,-0.0,-0.0,-1.0,0.10565945008247069,2.0,0
23.400997161865234,13.819536209106445,-1.1587377786636353,0.787480430624402,-0.0774153259590741,-0.6114584521373936,0.1437215557945665,9.0,0
23.226417541503906,13.611661911010742,-1.1501492261886597,0.7390444268188358,-0.588774357833439,0.327350104239849,0.14164881215939817,3.0,0
25.108802795410156,14.844353675842285,-1.314940094947815,-0.0,-0.0,-1.0,0.1507181852210149,2.0,0
24.637916564941406,14.652121543884277,-1.3277047872543335,-0.0,-0.0,-1.0,0.05110586627336846,1.0,0
24.56125831604004,14.5624361038208,-1.3242539167404175,-0.0,-0.0,-1.0,0.06817241676938832,2.0,0
25.180889129638672,14.474217414855957,-1.2736953496932983,-0.0,-0.0,-1.0,0.05596077431994469,1.0,0
24.90247344970703,14.608857154846191,-1.305559515953064,-0.7383390323654702,0.6744295262095239,-0.0005361552190324943,0.036137048534386366,3.0,0
24.675582885742188,14.277079582214355,-1.2887922525405884,-0.0,-0.0,-1.0,0.10698839473915081,2.0,0
24.842445373535156,13.924023628234863,-1.2431977987289429,0.2765059051980912,-0.4800294395379535,-0.8325360181802721,0.04672788021076006,3.0,0
24.8232421875,13.58092212677002,-1.2116488218307495,-0.2114936309156539,0.9125763610522213,0.34996404005383014,0.2356033259754626,4.0,0
24.62649917602539,13.416655540466309,-1.210025429725647,-0.16062548085081813,-0.41419549886973994,-0.8959026418185684,0.07891554599001635,3.0,0
25.188758850097656,14.431039810180664,-1.3086469173431396,-0.0,-0.0,-1.0,0.03263106173881159,1.0,0
25.031774520874023,14.204156875610352,-1.2947533130645752,0.07207338715692356,0.9017115373613669,-0.42628831822268937,0.044929383094048876,3.0,0
24.971317291259766,14.034536361694336,-1.281099557876587,0.8288960631501356,0.4103107000444132,-0.38023209480956516,0.05094130005195492,3.0,0
25.002670288085938,13.665035247802734,-1.2414615154266357,0.4883245790851367,0.7041533160180985,0.5154679553590501,0.05718540721565647,3.0,0
24.906230926513672,13.364458084106445,-1.2171688079833984,-0.0,-0.0,-1.0,0.17496778038663066,1.0,0
24.754398345947266,13.327091217041016,-1.2232251167297363,-0.0,-0.0,-1.0,0.1746937345767435,2.0,0
24.922863006591797,14.631155014038086,-1.3355342149734497,-0.8695991506944767,0.39253728054135034,-0.2995192823453042,0.04196185136178679,3.0,0
24.70279312133789,14.642637252807617,-1.3439520597457886,-0.0,-0.0,-1.0,0.03114472953459052,1.0,0
24.757869720458984,14.408113479614258,-1.313158392906189,-0.0,-0.0,-1.0,0.07929837557132412,2.0,0
24.870098114013672,13.95882797241211,-1.25408136844635,-0.5728965109328796,0.2071989864887426,-0.793005780407035,0.06736171476290956,3.0,0
24.86726188659668,13.697290420532227,-1.222105622291565,-0.0,-0.0,-1.0,0.07907106267925341,2.0,0
24.62009048461914,13.640176773071289,-1.2239967584609985,-0.0,-0.0,-1.0,0.11687482428114498,2.0,0
24.272808074951172,13.62769889831543,-1.2354000806808472,-0.0,-0.0,-1.0,0.024776530330175885,2.0,0
24.194509506225586,14.982321739196777,-1.218451738357544,-0.0,-0.0,-1.0,0.13962269778476868,1.0,0
23.981842041015625,14.96457576751709,-1.2368457317352295,-0.0,-0.0,-1.0,0.1232451321968871,1.0,0
23.50507354736328,15.01368236541748,-1.285400390625,0.09472724049580367,0.6093740357473865,-0.7872039344826681,0.07476035247518023,3.0,0
24.22556495666504,14.72995662689209,-1.1965725421905518,-0.0,-0.0,-1.0,0.18098259392984303,1.0,0
24.016868591308594,14.50319766998291,-1.199172019958496,-0.0,-0.0,-1.0,0.17286718628212053,1.0,0
23.338869094848633,14.811362266540527,-1.2863795757293701,-0.0,-0.0,-1.0,0.06942352057062529,1.0,0
23.560535430908203,14.101750373840332,-1.2134456634521484,-0.0,-0.0,-1.0,0.013605647177432513,1.0,0
23.71143341064453,13.627652168273926,-1.1646089553833008,0.21782547400724345,0.6321514120348481,-0.7435971053842714,0.019229553305476783,3.0,0
23.774555206298828,13.3563814163208,-1.1390130519866943,0.4892668117203349,0.0007312434968861037,-0.8721338499519249,0.019646980757992687,3.0,0
24.96577262878418,14.792792320251465,-1.2800819873809814,-0.0,-0.0,-1.0,0.11402873816347933,2.0,0
24.950157165527344,14.31714153289795,-1.2400944232940674,-0.0,-0.0,-1.0,0.0658488998394332,1.0,0
25.032766342163086,13.970820426940918,-1.2030723094940186,-0.0,-0.0,-1.0,0.06770943566892315,1.0,0
24.74094009399414,13.513148307800293,-1.1904220581054688,-0.0,-0.0,-1.0,0.20190944587035015,1.0,0
24.66411018371582,13.31714153289795,-1.181107759475708,-0.0,-0.0,-1.0,0.15910013463957765,1.0,0
24.274600982666016,14.987804412841797,-1.215399146080017,-0.0,-0.0,-1.0,0.20090038468946234,2.0,0
23.789356231689453,15.135936737060547,-1.264243721961975,-0.0,-0.0,-1.0,0.13991368314433805,1.0,0
23.540699005126953,15.0240478515625,-1.2730895280838013,0.3276800745621731,-0.9265999808741279,-0.18449456409063814,0.07380842477460027,5.0,0
23.284265518188477,14.70794677734375,-1.2651702165603638,-0.0,-0.0,-1.0,0.10780552722166994,2.0,0
24.236026763916016,14.90140151977539,-1.210504412651062,0.13834407883834757,-0.15284746897629728,-0.978518557349787,0.19107441620872934,3.0,0
24.060020446777344,14.900054931640625,-1.2233113050460815,-0.6985494083850128,-0.33471670912237483,-0.6324503527386447,0.10858108938088058,3.0,0
23.241405487060547,14.638236999511719,-1.2624770402908325,-0.0,-0.0,-1.0,0.08109134048509317,2.0,0
23.981586456298828,14.436735153198242,-1.188284993171692,-0.0,-0.0,-1.0,0.11428618151903733,2.0,0
23.57317352294922,13.977579116821289,-1.179716944694519,-0.0,-0.0,-1.0,0.0287856852031495,2.0,0
23.581378936767578,13.75910758972168,-1.160326600074768,-0.0,-0.0,-1.0,0.03121317654596515,1.0,0
24.903573989868164,13.597785949707031,-1.0456091165542603,-0.0,-0.0,-1.0,0.13350133414620682,1.0,0
23.215457916259766,15.130912780761719,-1.0998858213424683,-0.0,-0.0,-1.0,0.23408690173316488,1.0,0
23.336868286132812,15.490760803222656,-1.3109186887741089,0.3740115287927873,-0.764200696428116,0.5254642441773413,0.16708885989109945,3.0,0
23.562910079956055,15.477516174316406,-1.327257513999939,-0.0,-0.0,-1.0,0.0652420930139047,1.0,0
23.287424087524414,15.12464714050293,-1.248395323753357,-0.3197630392907685,0.4787288896207936,-0.8176614513024157,0.15189073870636594,3.0,0
24.585987091064453,15.148799896240234,-1.3597551584243774,-0.0,-0.0,-1.0,0.030403120107268717,1.0,0
24.51308250427246,14.912174224853516,-1.315381646156311,-0.0,-0.0,-1.0,0.06485873544408022,1.0,0
24.992197036743164,14.726383209228516,-1.326135516166687,-0.0,-0.0,-1.0,0.042089499071824986,2.0,0
24.756662368774414,13.709444046020508,-1.1419819593429565,-0.15936362908965923,0.11082540161619393,-0.9809795941200729,0.21278493088610378,3.0,0
23.20431900024414,14.689745903015137,-1.3444806337356567,-0.0,-0.0,-1.0,0.0566869670913013,1.0,0
23.126968383789062,14.673136711120605,-1.3344966173171997,-0.0,-0.0,-1.0,0.08122337859557974,1.0,0
24.310922622680664,13.781367301940918,-1.2998398542404175,-0.0,-0.0,-1.0,0.038444777378370244,1.0,0
25.04616928100586,13.562544822692871,-1.3373221158981323,-0.0,-0.0,-1.0,0.06957710346610876,1.0,0
25.057594299316406,14.174674987792969,-1.3666516542434692,-0.0,-0.0,-1.0,0.0327605063782943,1.0,0
24.99468231201172,13.761455535888672,-1.3241297006607056,-0.0,-0.0,-1.0,0.09726288427291437,1.0,0
24.24475860595703,14.964452743530273,-1.2845433950424194,-0.7458361247219499,-0.6649781218018889,-0.039148085324523706,0.17460774168011706,5.0,0
23.978668212890625,15.059484481811523,-1.3154405355453491,0.06668850408531092,0.9600230012844384,-0.2718611418126589,0.10716822956906981,4.0,0
23.830890655517578,14.890405654907227,-1.3112519979476929,0.06225738773630209,0.06300781653813273,-0.9960692911275543,0.06893133641717783,4.0,0
23.449892044067383,14.965442657470703,-1.3499759435653687,-0.0,-0.0,-1.0,0.05314230343121932,1.0,0
23.66199493408203,14.14462661743164,-1.2534488439559937,-0.4457776918786602,-0.6251417011162962,-0.640687211475895,0.0153388635243358,4.0,0
24.606704711914062,15.599985122680664,-1.3496408462524414,-0.0,-0.0,-1.0,0.10167100153583565,1.0,0
23.715038299560547,15.443565368652344,-1.2705705165863037,-0.0,-0.0,-1.0,0.07247090472510474,2.0,0
23.494997024536133,15.393524169921875,-1.2499516010284424,0.6594375260046369,0.74372988778098,0.10958103539469984,0.055189678254063824,4.0,0
24.454374313354492,14.838438034057617,-1.224214792251587,-0.0,-0.0,-1.0,0.2563819828138231,1.0,0
24.364215850830078,14.65323257446289,-1.190462350845337,-0.0,-0.0,-1.0,0.16720029425737162,2.0,0
23.996402740478516,15.057085037231445,-1.2290608882904053,-0.0,-0.0,-1.0,0.233506250495142,1.0,0
23.275257110595703,14.941051483154297,-1.1689026355743408,-0.0,-0.0,-1.0,0.13275477057646137,2.0,0
25.162351608276367,14.2769193649292,-1.2956457138061523,0.485430940606916,0.058732403412992094,-0.8723000095671324,0.03582151418903084,3.0,0
24.984729766845703,14.207369804382324,-1.2959110736846924,-0.013771397023564847,-0.5112886948560347,-0.8592986786539544,0.050595398107095124,3.0,0
24.74178695678711,13.643070220947266,-1.2224006652832031,0.9958813894728724,-0.07200798714743233,-0.05509181326255348,0.2070586924124916,4.0,0
24.529638290405273,13.540419578552246,-1.2209064960479736,-0.0,-0.0,-1.0,0.03908566136808602,2.0,0
24.240995407104492,14.81874942779541,-1.1482170820236206,-0.0,-0.0,-1.0,0.22923655319045902,2.0,0
23.423877716064453,15.004298210144043,-1.2321208715438843,-0.0,-0.0,-1.0,0.11380859383862535,1.0,0
23.486515045166016,15.40428638458252,-1.288126826286316,0.791469041442212,0.6093315131350191,-0.04787341160951763,0.07473591559497293,5.0,0
23.15932273864746,14.870582580566406,-1.2311431169509888,-0.0,-0.0,-1.0,0.11438680963345248,2.0,0
23.263338088989258,15.093648910522461,-1.2571250200271606,-0.3197630392907685,0.4787288896207936,-0.8176614513024157,0.14467564052804627,3.0,0
22.890857696533203,14.741964340209961,-1.2319055795669556,-0.0,-0.0,-1.0,0.05857461741281001,2.0,0
24.98524284362793,14.990100860595703,-1.2918621301651,-0.0,-0.0,-1.0,0.07940127442314768,1.0,0
25.088973999023438,15.421975135803223,-1.361885905265808,-0.0,-0.0,-1.0,0.04570775961547976,2.0,0
24.82818031311035,15.174296379089355,-1.334647297859192,0.07093123385738495,-0.9209255028589323,-0.3832296677548492,0.02525903228083446,4.0,0
24.637807846069336,15.443429946899414,-1.3949154615402222,-0.0,-0.0,-1.0,0.08027835117236683,1.0,0
24.241432189941406,14.38265609741211,-1.235871434211731,-0.0,-0.0,-1.0,0.18070074139758074,2.0,0
24.37209701538086,14.828412055969238,-1.304815411567688,0.08668628770985778,0.8422516459372568,-0.5320692177142615,0.17289019053893184,4.0,0
23.846378326416016,14.237018585205078,-1.2404803037643433,-0.0,-0.0,-1.0,0.06250670709839345,2.0,0
23.966449737548828,14.308643341064453,-1.2437044382095337,-0.009092848477125628,-0.9829156897605271,0.1838316265748622,0.11873205122125838,4.0,0
23.663179397583008,14.14267635345459,-1.238714575767517,-0.4457776918786602,-0.6251417011162962,-0.640687211475895,0.015721500070363017,4.0,0
24.842561721801758,13.566994667053223,-1.0494307279586792,0.7078485882492952,0.6206709065303011,-0.3372209986052679,0.1489416122322713,3.0,0
23.254552841186523,13.325667381286621,-1.1318918466567993,-0.0,-0.0,-1.0,0.02189139468471532,2.0,0
25.124189376831055,13.549755096435547,-1.2323334217071533,-0.0,-0.0,-1.0,0.07481791340096994,2.0,0
24.910818099975586,13.490825653076172,-1.236682415008545,-0.0,-0.0,-1.0,0.14630033348934027,2.0,0
24.644729614257812,13.346460342407227,-1.227907419204712,-0.0,-0.0,-1.0,0.12606697713925571,1.0,0
24.26692771911621,14.882383346557617,-1.1288108825683594,-0.0,-0.0,-1.0,0.2007615283677947,2.0,0
23.8908748626709,15.157716751098633,-1.2083055973052979,-0.0,-0.0,-1.0,0.1940284882185881,1.0,0
23.36520004272461,15.066513061523438,-1.2381186485290527,-0.0,-0.0,-1.0,0.12123489388666435,2.0,0
23.479263305664062,15.426639556884766,-1.2910025119781494,0.6277014971249625,0.10439499847931928,-0.7714223971337518,0.09408996791392883,3.0,0
23.023143768310547,14.781108856201172,-1.2201135158538818,-0.1266395893190183,-0.7695652036975316,-0.6258848230106615,0.12533010340036846,4.0,0
23.106830596923828,14.940807342529297,-1.2400574684143066,-0.0,-0.0,-1.0,0.20382126483797958,1.0,0
25.15798568725586,13.408828735351562,-1.2570624351501465,-0.0,-0.0,-1.0,0.057523279719107756,2.0,0
25.105377197265625,14.851303100585938,-1.197317361831665,-0.0,-0.0,-1.0,0.2062427863347602,1.0,0
24.82500648498535,13.294479370117188,-1.2502343654632568,-0.0,-0.0,-1.0,0.14088298646666395,2.0,0
24.556228637695312,14.624778747558594,-1.181929588317871,-0.0,-0.0,-1.0,0.22088969176948137,1.0,0
24.470718383789062,15.177343368530273,-1.302739143371582,-0.0,-0.0,-1.0,0.028566143273556464,2.0,0
24.521896362304688,15.454788208007812,-1.3574602603912354,0.018312821642950963,0.8732948042466802,-0.4868478462920693,0.12313269374151053,4.0,0
24.499298095703125,13.91883659362793,-1.038475751876831,-0.0,-0.0,-1.0,0.18010207957546456,1.0,0
24.047245025634766,15.082304000854492,-1.3111977577209473,-0.3953409812417355,0.16123689018178405,-0.9042721790452968,0.08026486377795738,4.0,0
23.903610229492188,14.496076583862305,-1.200211524963379,-0.0,-0.0,-1.0,0.1365454818561724,1.0,0
23.717693328857422,14.960561752319336,-1.3102052211761475,-0.0836617765017967,0.6692719494053709,-0.7382924656880211,0.03723570419611756,4.0,0
23.432275772094727,13.703767776489258,-1.0754084587097168,-0.0,-0.0,-1.0,0.10805460116711298,1.0,0
23.278776168823242,14.697036743164062,-1.2910804748535156,-0.0,-0.0,-1.0,0.06169033260942958,2.0,0
23.470569610595703,14.928628921508789,-1.3227901458740234,-0.0,-0.0,-1.0,0.08072302119615116,1.0,0
23.304000854492188,13.753595352172852,-1.096691608428955,0.9594860093083517,0.2677595186262387,0.08770084450322307,0.11937674162837644,3.0,0
22.953243255615234,14.17996597290039,-1.2145564556121826,-0.0,-0.0,-1.0,0.011303292648259085,2.0,0
23.082061767578125,14.439735412597656,-1.2556493282318115,-0.0,-0.0,-1.0,0.05924001220178936,2.0,0
22.775754928588867,14.009956359863281,-1.1969597339630127,-0.4786022736472158,0.09557820304590063,-0.8728142246562165,0.010498250356990032,3.0,0
25.152156829833984,14.186563491821289,-1.3306962251663208,-0.0,-0.0,-1.0,0.02882245067887261,2.0,0
25.07905387878418,14.804573059082031,-1.1707626581192017,-0.0,-0.0,-1.0,0.25034314670941277,1.0,0
24.750408172607422,13.752740859985352,-1.2356621026992798,-0.0,-0.0,-1.0,0.19040407196608372,1.0,0
24.902585983276367,13.948518753051758,-1.2802454233169556,-0.6933296581000161,-0.41626180497007625,-0.5882347277422244,0.03751643020401385,4.0,0
24.488405227661133,15.28108024597168,-1.3439635038375854,-0.0,-0.0,-1.0,0.02243536177014259,1.0,0
24.579246520996094,15.519912719726562,-1.3981379270553589,-0.0,-0.0,-1.0,0.11471359556049295,1.0,0
24.448022842407227,13.698637008666992,-1.2492879629135132,0.6406803375205778,-0.2914528735610665,-0.710340712339871,0.07123085797035289,3.0,0
24.295419692993164,14.750974655151367,-1.2241567373275757,0.40338620442321466,-0.4732002224361362,-0.7831737480070585,0.16084482311588813,3.0,0
24.14715576171875,15.107263565063477,-1.3308924436569214,0.7018857121932781,-0.6900491454356905,-0.1766030121555364,0.04993136889225877,3.0,0
24.064481735229492,13.527702331542969,-1.2408212423324585,-0.7748939653242675,0.502321569664982,-0.3836826594379035,0.03286441925504449,3.0,0
23.77310562133789,14.85133171081543,-1.3031758069992065,0.046383715912421485,-0.21190252019931008,-0.976189465642473,0.040658306309559654,3.0,0
23.799760818481445,14.950435638427734,-1.3259450197219849,-0.0,-0.0,-1.0,0.04815586573834076,2.0,0
23.886938095092773,13.270246505737305,-1.1863652467727661,-0.0,-0.0,-1.0,0.014376954905434183,1.0,0
23.33253288269043,14.69308090209961,-1.3126736879348755,-0.0,-0.0,-1.0,0.07330246848134796,2.0,0
23.529144287109375,14.86892318725586,-1.3346861600875854,-0.0,-0.0,-1.0,0.0677095556037387,2.0,0
23.344444274902344,13.813196182250977,-1.0881134271621704,-0.0,-0.0,-1.0,0.12919541785837374,1.0,0
23.017528533935547,14.266822814941406,-1.2438987493515015,-0.0,-0.0,-1.0,0.010023610846568698,1.0,0
23.14628791809082,14.464960098266602,-1.2775367498397827,-0.0,-0.0,-1.0,0.060285030461252755,1.0,0
22.78727912902832,13.990579605102539,-1.205400824546814,-0.4786022736472158,0.09557820304590063,-0.8728142246562165,0.011993233573869415,3.0,0
23.407257080078125,13.807731628417969,-1.0789746046066284,-0.0,-0.0,-1.0,0.15946260388958297,1.0,0
23.07415771484375,15.071746826171875,-1.0718859434127808,-0.0,-0.0,-1.0,0.13305033283357245,1.0,0
25.148252487182617,14.55502700805664,-1.3172019720077515,-0.0,-0.0,-1.0,0.07054996494570807,2.0,0
24.74062156677246,14.57216739654541,-1.3277837038040161,-0.0,-0.0,-1.0,0.027131267276271034,1.0,0
24.274444580078125,14.304862976074219,-1.253440260887146,-0.0,-0.0,-1.0,0.11340594019991591,2.0,0
24.340360641479492,14.421022415161133,-1.2891031503677368,0.9865665237979722,-0.04207798860975813,0.15784782860635793,0.10043222402046911,3.0,0
23.918296813964844,14.260608673095703,-1.2541776895523071,0.1968196587325388,-0.8055656893403391,-0.5588612905668373,0.08843228437100142,3.0,0
24.0119571685791,14.349006652832031,-1.2781506776809692,0.6281455451854452,-0.7422789551823725,-0.2333562228804815,0.1436083307403717,4.0,0
23.38792610168457,13.860950469970703,-1.1567353010177612,0.5641616396458287,0.2734270065641464,-0.7790759375269526,0.13345368292789173,6.0,0
23.52922821044922,14.161445617675781,-1.2434738874435425,-0.0,-0.0,-1.0,0.01200935165294588,2.0,0
23.475536346435547,15.40561294555664,-1.2968806028366089,0.5139289851926214,0.13873147903329933,-0.846540356335193,0.08182750312749335,4.0,0
23.667448043823242,15.544427871704102,-1.3277088403701782,-0.0,-0.0,-1.0,0.10525042201071035,1.0,0
23.294769287109375,13.826263427734375,-1.1522804498672485,-0.0,-0.0,-1.0,0.10875013414039651,2.0,0
23.05525016784668,13.933019638061523,-1.203816533088684,-0.0,-0.0,-1.0,0.018229332753536266,2.0,0
23.187000274658203,14.947152137756348,-1.1823192834854126,-0.6788705403023977,-0.09846150029954427,-0.7276263618563402,0.2577714582329884,3.0,0
23.18123435974121,15.155552864074707,-1.241444706916809,0.678564032526507,0.7094406445942381,0.19038073841404465,0.25860559328306415,3.0,0
22.760648727416992,13.775325775146484,-1.1792091131210327,-0.0,-0.0,-1.0,0.025481581503536705,2.0,0
22.94052505493164,13.888542175292969,-1.1989885568618774,-0.0,-0.0,-1.0,0.015635629548006128,1.0,0
22.727527618408203,15.200824737548828,-1.2813283205032349,-0.4042247051321423,0.3970198344770821,-0.8240009944123994,0.05594289831487716,9.0,0
24.29503631591797,14.863927841186523,-1.1118656396865845,-0.0,-0.0,-1.0,0.1980479415563686,2.0,0
25.057409286499023,14.931099891662598,-1.2770525217056274,-0.0,-0.0,-1.0,0.11352835510302774,1.0,0
25.1285457611084,15.214814186096191,-1.3737162351608276,-0.0,-0.0,-1.0,0.013057638319802205,2.0,0
24.722450256347656,15.194883346557617,-1.3752483129501343,-0.0,-0.0,-1.0,0.08166649914484204,2.0,0
24.35958480834961,14.970219612121582,-1.3105477094650269,-0.0,-0.0,-1.0,0.0658645005935281,1.0,0
24.327556610107422,15.076234817504883,-1.3483794927597046,-0.0,-0.0,-1.0,0.08730197211136748,1.0,0
23.888648986816406,14.91871452331543,-1.316593050956726,-0.40226102551991455,-0.173704321149789,-0.8988953644120979,0.07887193877105021,3.0,0
23.983110427856445,15.03476333618164,-1.3507107496261597,0.3499800932290382,0.5054234405299942,-0.7887084886738681,0.0982578405512556,4.0,0
23.5158634185791,14.914965629577637,-1.3393076658248901,-0.0,-0.0,-1.0,0.0703408347962659,2.0,0
23.192285537719727,14.695869445800781,-1.290777325630188,-0.0,-0.0,-1.0,0.08291675770695789,1.0,0
22.75657844543457,14.5020751953125,-1.26646888256073,-0.0,-0.0,-1.0,0.01625622827412652,1.0,0
24.28363609313965,14.783525466918945,-1.2498935461044312,0.40338620442321466,-0.4732002224361362,-0.7831737480070585,0.21803446360093237,3.0,0
23.425016403198242,15.541953086853027,-1.242859959602356,0.3023871601213408,0.9289639351792479,0.21351349496000716,0.13855317757974242,3.0,0
23.001144409179688,14.55203914642334,-1.2594283819198608,-0.11924139299114087,0.38367900821658146,-0.9157357199822844,0.08310897840875517,3.0,0
23.06206703186035,14.57522964477539,-1.2616230249404907,-0.0,-0.0,-1.0,0.09741243714613755,1.0,0
23.130943298339844,15.082307815551758,-1.1250847578048706,-0.0,-0.0,-1.0,0.1513351917990424,2.0,0
23.132686614990234,15.61282730102539,-1.2829140424728394,-0.0,-0.0,-1.0,0.092710852230007,1.0,0
22.72840690612793,14.4346342086792,-1.2474654912948608,-0.0,-0.0,-1.0,0.015742598272784035,1.0,0
23.53849983215332,13.264429092407227,-1.1712030172348022,-0.0,-0.0,-1.0,0.014080889188468866,2.0,0
23.1861629486084,13.154279708862305,-1.1344181299209595,-0.0,-0.0,-1.0,0.020648191356579526,2.0,0
23.107933044433594,13.621432304382324,-1.2219759225845337,-0.0,-0.0,-1.0,0.0671629514237669,1.0,0
22.88300323486328,13.547843933105469,-1.1847418546676636,-0.0,-0.0,-1.0,0.04709850429685772,1.0,0
24.800094604492188,13.49624252319336,-1.2645691633224487,-0.0,-0.0,-1.0,0.09511922276225043,2.0,0
24.59193229675293,13.357372283935547,-1.2415589094161987,-0.0,-0.0,-1.0,0.06107709078425321,1.0,0
24.393749237060547,13.217588424682617,-1.221589207649231,-0.0,-0.0,-1.0,0.022188499035224133,2.0,0
22.99724769592285,14.314217567443848,-1.2232108116149902,-0.0,-0.0,-1.0,0.013196511745086929,1.0,0
22.725963592529297,14.11661148071289,-1.193904161453247,-0.0,-0.0,-1.0,0.01440707636973735,2.0,0
24.069034576416016,13.751590728759766,-1.1859312057495117,-0.0,-0.0,-1.0,0.09486932575279694,2.0,0
23.96524429321289,13.583425521850586,-1.1905982494354248,-0.0,-0.0,-1.0,0.020377947552832742,1.0,0
23.832460403442383,13.530113220214844,-1.1726696491241455,-0.0,-0.0,-1.0,0.020129986634141412,1.0,0
23.655824661254883,13.461311340332031,-1.1488590240478516,-0.0,-0.0,-1.0,0.021773136905381536,1.0,0
23.444936752319336,13.317758560180664,-1.1304631233215332,-0.0,-0.0,-1.0,0.020213182691233705,2.0,0
23.30841064453125,15.499825477600098,-1.2698347568511963,-0.08978810329873202,-0.3718300886598162,-0.9239483111480044,0.18961601581692153,5.0,0
24.858320236206055,14.81234073638916,-1.3359959125518799,0.185994003713946,0.7060540672482851,-0.6832963374002607,0.03758143996247394,3.0,0
23.192684173583984,13.349079132080078,-1.1590015888214111,-0.6051641955992053,-0.7514075821946592,-0.26298848222905746,0.01892850832861773,4.0,0
23.203310012817383,13.57671070098877,-1.160843849182129,0.5458113270393108,-0.5982667615315114,0.5866573764320907,0.12080727237460749,4.0,0
23.193706512451172,13.28022575378418,-1.1408891677856445,-0.0,-0.0,-1.0,0.0230080008581563,2.0,0
23.170902252197266,14.755995750427246,-1.2358345985412598,-0.0,-0.0,-1.0,0.10724976029791244,2.0,0
23.299386978149414,14.565960884094238,-1.2549948692321777,-0.0,-0.0,-1.0,0.10693887285919595,2.0,0
23.36805534362793,14.135713577270508,-1.2416069507598877,-0.0,-0.0,-1.0,0.019666815964796733,1.0,0
23.32386016845703,13.835200309753418,-1.2092232704162598,0.9090492827992241,-0.16164662836354077,0.38405698663208243,0.09050132326972549,4.0,0
23.279245376586914,14.798080444335938,-1.2681474685668945,0.4736019147531313,-0.0008985546470464937,-0.8807385644683184,0.07404722840509965,3.0,0
23.40683364868164,14.58371353149414,-1.2851433753967285,-0.0,-0.0,-1.0,0.06464890593479308,1.0,0
23.44150733947754,14.405280113220215,-1.2806529998779297,-0.0,-0.0,-1.0,0.04432553959099309,1.0,0
24.447917938232422,14.652261734008789,-1.178144931793213,-0.0,-0.0,-1.0,0.2455115850066452,2.0,0
24.719043731689453,14.298750877380371,-1.2147128582000732,-0.0,-0.0,-1.0,0.10816769952038302,2.0,0
24.94790267944336,13.982611656188965,-1.245575189590454,-0.0,-0.0,-1.0,0.039362451535871874,2.0,0
24.962888717651367,13.620865821838379,-1.225508213043213,0.978618849232916,-0.20351523689409914,-0.029777445793448726,0.07189218583876619,3.0,0
25.180185317993164,13.197311401367188,-1.2496871948242188,-0.0,-0.0,-1.0,0.03747890215499828,2.0,0
25.10879135131836,14.514257431030273,-1.3198604583740234,-0.0,-0.0,-1.0,0.036763505911434596,2.0,0
25.020862579345703,14.119332313537598,-1.271658182144165,-0.0,-0.0,-1.0,0.04300903966074259,1.0,0
25.020456314086914,14.863731384277344,-1.3257317543029785,-0.0,-0.0,-1.0,0.10909496398506131,2.0,0
25.148136138916016,14.57535457611084,-1.3333261013031006,-0.0,-0.0,-1.0,0.070356091714843,2.0,0
23.34113311767578,13.2470703125,-1.1367251873016357,-0.0,-0.0,-1.0,0.017710064409932093,2.0,0
23.389089584350586,13.797593116760254,-1.1490323543548584,0.5285578043930946,-0.32288970323349653,-0.7850916423965648,0.15702455657000666,6.0,0
23.377376556396484,13.51376724243164,-1.1454551219940186,0.9246041903230408,0.2692022658718482,0.26951295198290015,0.06583469420838356,4.0,0
23.555809020996094,13.957054138183594,-1.1958630084991455,-0.0,-0.0,-1.0,0.03574614240397106,2.0,0
22.73843765258789,15.454763412475586,-1.3380012512207031,-0.0,-0.0,-1.0,0.009620525982943506,2.0,0
23.18693733215332,15.04909896850586,-1.1214532852172852,-0.0,-0.0,-1.0,0.21887986019144856,1.0,0
23.843093872070312,14.274901390075684,-1.2788567543029785,0.36444217439091425,0.18051337126157987,-0.9135627095722552,0.06631749516871341,3.0,0
23.414947509765625,15.536447525024414,-1.204646110534668,-0.0,-0.0,-1.0,0.11465112468669572,2.0,0
23.613510131835938,15.194138526916504,-1.2432045936584473,-0.0,-0.0,-1.0,0.06056907791594688,2.0,0
23.857913970947266,14.8955717086792,-1.2983667850494385,-0.10441753269320686,-0.17483908300730155,-0.97904457197792,0.07717190643887605,4.0,0
23.91575050354004,14.612624168395996,-1.3058240413665771,-0.0,-0.0,-1.0,0.06634893808745085,2.0,0
24.78058624267578,13.662803649902344,-1.145439624786377,0.9215746588666693,0.18117413837224136,-0.34333086042454425,0.2099546571035425,8.0,0
25.153987884521484,13.430943489074707,-1.2334187030792236,-0.0,-0.0,-1.0,0.06006068296842413,2.0,0
23.849231719970703,15.336578369140625,-1.312671184539795,-0.0,-0.0,-1.0,0.05457744765410103,1.0,0
23.91667938232422,15.15083122253418,-1.3232810497283936,-0.3594025740653304,0.03919603349187755,-0.9323590835690494,0.08689863765913973,3.0,0
24.539844512939453,13.916849136352539,-1.090022325515747,-0.0,-0.0,-1.0,0.20683254268967594,1.0,0
22.734455108642578,13.70339298248291,-1.232750415802002,-0.0,-0.0,-1.0,0.02622827695666497,1.0,0
22.723514556884766,13.57361125946045,-1.2185628414154053,-0.0,-0.0,-1.0,0.03131921100706761,1.0,0
23.880809783935547,13.968026161193848,-1.2988672256469727,-0.0,-0.0,-1.0,0.04624307618169872,1.0,0
23.876867294311523,14.454269409179688,-1.3426406383514404,-0.0,-0.0,-1.0,0.09583889455537624,1.0,0
23.886764526367188,14.229118347167969,-1.3240127563476562,-0.0,-0.0,-1.0,0.06730435349632391,2.0,0
23.80568504333496,14.687433242797852,-1.3463914394378662,-0.0,-0.0,-1.0,0.032352684573600556,2.0,0
23.601966857910156,13.695533752441406,-1.1969497203826904,-0.0,-0.0,-1.0,0.038455848794279796,2.0,0
23.709041595458984,13.306282997131348,-1.199171543121338,-0.0,-0.0,-1.0,0.014847232499702778,1.0,0
23.7857723236084,13.843514442443848,-1.2615337371826172,-0.0,-0.0,-1.0,0.03654286984545945,2.0,0
23.798282623291016,13.57507038116455,-1.2436909675598145,-0.0,-0.0,-1.0,0.01684542292730463,1.0,0
23.208721160888672,15.04267692565918,-1.2182137966156006,0.6940608937250933,0.03717887284105043,-0.7189556364726504,0.22497114356041184,6.0,0
23.370038986206055,14.960323333740234,-1.2537477016448975,0.8724880098671879,0.4325035712548671,-0.2273880680461913,0.09789274690096259,4.0,0
23.822847366333008,14.098469734191895,-1.293799877166748,-0.0,-0.0,-1.0,0.04300378044198995,1.0,0
24.849102020263672,13.611665725708008,-1.1907126903533936,0.968142055214394,-0.24298837003371895,-0.06047820230137158,0.15717552950960037,5.0,0
23.170473098754883,15.445094108581543,-1.257279396057129,-0.0,-0.0,-1.0,0.1819809978309314,1.0,0
23.29900550842285,15.286907196044922,-1.2730021476745605,-0.0,-0.0,-1.0,0.16100962283364406,1.0,0
23.648998260498047,14.933396339416504,-1.3289515972137451,-0.0,-0.0,-1.0,0.05553821824529422,2.0,0
24.35080337524414,14.638548851013184,-1.1529512405395508,-0.9312384592446233,0.29130639030520794,-0.21894181645142693,0.19056423064777542,3.0,0
24.884380340576172,13.911385536193848,-1.2219831943511963,-0.0,-0.0,-1.0,0.053665521038204524,2.0,0
23.399700164794922,15.589385032653809,-1.3393771648406982,-0.0,-0.0,-1.0,0.1545659678547539,1.0,0
24.025001525878906,15.121657371520996,-1.1216304302215576,-0.767640955435662,0.08247765501692654,-0.6355507847219862,0.23784057055378952,3.0,0
24.588905334472656,14.810022354125977,-1.2278625965118408,-0.0,-0.0,-1.0,0.17139077750476048,1.0,0
24.929889678955078,15.074250221252441,-1.337641716003418,-0.0,-0.0,-1.0,0.04178785936287951,2.0,0
25.048526763916016,14.805039405822754,-1.3403825759887695,-0.0,-0.0,-1.0,0.12085173024679821,1.0,0
25.208385467529297,14.497550010681152,-1.3512153625488281,-0.0,-0.0,-1.0,0.051924206228385186,1.0,0
25.048660278320312,15.375738143920898,-1.3979930877685547,-0.0,-0.0,-1.0,0.03380729940207448,1.0,0
25.08098602294922,15.632838249206543,-1.4337012767791748,-0.0,-0.0,-1.0,0.1015293045834867,1.0,0
23.386993408203125,14.258397102355957,-1.2994297742843628,-0.0,-0.0,-1.0,0.037835745681953845,1.0,0
23.126541137695312,15.049028396606445,-1.3110591173171997,-0.0,-0.0,-1.0,0.04613214712426281,1.0,0
23.287174224853516,14.515902519226074,-1.2955070734024048,-0.0,-0.0,-1.0,0.025449122106178064,2.0,0
23.375099182128906,14.444498062133789,-1.316001534461975,-0.0,-0.0,-1.0,0.04896550354922972,1.0,0
23.090059280395508,15.564743041992188,-1.373996376991272,-0.0,-0.0,-1.0,0.08692227573913719,1.0,0
23.113128662109375,15.308829307556152,-1.3435355424880981,-0.0,-0.0,-1.0,0.07448731105544142,1.0,0
24.254108428955078,15.413443565368652,-1.3920789957046509,0.02750661403528468,-0.8732189001625947,-0.4865512702512884,0.02757215864036257,3.0,0
23.223140716552734,13.338398933410645,-1.1615737676620483,-0.4051314829358129,-0.9087702266097174,0.1000257804865921,0.01961288318921791,4.0,0
23.28898048400879,13.689258575439453,-1.2119063138961792,-0.0,-0.0,-1.0,0.08662976763616827,1.0,0
23.33033561706543,14.033602714538574,-1.2576063871383667,-0.0,-0.0,-1.0,0.03483657232891431,1.0,0
23.360637664794922,13.908448219299316,-1.2553993463516235,-0.0,-0.0,-1.0,0.05083248276759037,2.0,0
24.366256713867188,13.397643089294434,-1.2324923276901245,-0.0,-0.0,-1.0,0.01957856179282797,2.0,0
24.393489837646484,13.166908264160156,-1.225594162940979,-0.0,-0.0,-1.0,0.021444203992930705,1.0,0
23.060832977294922,14.93377685546875,-1.2745171785354614,-0.5087183845571518,-0.6748841926920489,-0.5345436667550776,0.21653041981472732,4.0,0
23.135986328125,14.701080322265625,-1.2690197229385376,-0.0,-0.0,-1.0,0.10704076458209254,2.0,0
24.03970718383789,14.344846725463867,-1.2138952016830444,-0.0,-0.0,-1.0,0.1587656448065308,2.0,0
24.306180953979492,13.963043212890625,-1.2577391862869263,0.9246641019494584,0.11513473110069067,-0.3629604555049672,0.04211795766031609,3.0,0
24.333877563476562,13.654797554016113,-1.241273283958435,-0.0,-0.0,-1.0,0.045718544876389954,2.0,0
24.859527587890625,13.501233100891113,-1.0580388307571411,0.8522570456060083,0.3125381194261147,0.41949714196941335,0.124311928772625,4.0,0
23.03204345703125,15.228580474853516,-1.3060184717178345,-0.0,-0.0,-1.0,0.06229584383177589,2.0,0
23.526920318603516,15.156224250793457,-1.154535174369812,-0.0,-0.0,-1.0,0.08216977869139748,1.0,0
24.157474517822266,14.519427299499512,-1.2655779123306274,-0.0,-0.0,-1.0,0.07666425639423863,1.0,0
24.34552764892578,14.30976676940918,-1.299888014793396,-0.0,-0.0,-1.0,0.045979308865829495,1.0,0
23.697338104248047,15.429452896118164,-1.2367380857467651,-0.15018547036568064,0.9379171605186988,0.3126591186829205,0.0749262748241339,3.0,0
24.16301727294922,15.123629570007324,-1.3318005800247192,0.7018857121932781,-0.6900491454356905,-0.1766030121555364,0.054915764367943286,3.0,0
24.276988983154297,14.807417869567871,-1.3297075033187866,0.8029075529888194,-0.5321192026201123,-0.26867939175984784,0.1271363801160195,3.0,0
24.402149200439453,14.578414916992188,-1.342025637626648,-0.0,-0.0,-1.0,0.10709095488297751,1.0,0
24.21124267578125,15.404776573181152,-1.3789476156234741,0.02750661403528468,-0.8732189001625947,-0.4865512702512884,0.04524514257614567,3.0,0
24.089481353759766,14.401334762573242,-1.3160136938095093,0.7561771181185287,-0.5805525000089331,0.30191879830069185,0.08131024580547065,4.0,0
23.756874084472656,15.178455352783203,-1.3175965547561646,-0.0,-0.0,-1.0,0.04141851583370518,2.0,0
23.912784576416016,14.946942329406738,-1.3328486680984497,-0.5174341642315315,0.1654232469571273,-0.83958146421427,0.08901020141385096,4.0,0
24.048860549926758,14.679774284362793,-1.3390661478042603,-0.0,-0.0,-1.0,0.035444701329503704,2.0,0
23.713695526123047,15.382568359375,-1.3363252878189087,-0.0,-0.0,-1.0,0.06209858014852511,2.0,0
24.951738357543945,15.587059020996094,-1.4265133142471313,-0.0,-0.0,-1.0,0.10335183747884526,2.0,0
24.092540740966797,13.77526569366455,-1.2452043294906616,-0.03393102176682826,0.3992501977173919,-0.916213929922746,0.021558325862492636,3.0,0
24.191518783569336,13.474809646606445,-1.2488802671432495,-0.0,-0.0,-1.0,0.01823247373500096,2.0,0
24.028915405273438,14.363241195678711,-1.291580080986023,0.28318397557281416,-0.804076151737312,0.5227507801869752,0.1305831113066931,5.0,0
24.054882049560547,14.063196182250977,-1.2640858888626099,-0.0,-0.0,-1.0,0.05652416846697042,1.0,0
24.653156280517578,13.92303466796875,-1.1498483419418335,-0.0,-0.0,-1.0,0.10797507222923976,1.0,0
24.96466827392578,13.628149032592773,-1.2168015241622925,0.978618849232916,-0.20351523689409914,-0.029777445793448726,0.07147859880953991,3.0,0
25.20808219909668,13.40080451965332,-1.272070288658142,-0.0,-0.0,-1.0,0.054686014081177764,2.0,0
23.369625091552734,15.451020240783691,-1.2406436204910278,0.6225115219761587,0.7382766730307295,0.2596670157444035,0.1529491572867449,3.0,0
23.59323501586914,15.299798011779785,-1.2852400541305542,-0.5038214476118236,0.20822418851587365,-0.8383356346018177,0.06897464105986267,4.0,0
23.769981384277344,15.04145622253418,-1.3009356260299683,-0.28275772918971187,0.202276987086041,-0.9376204387058077,0.038712233069213536,3.0,0
24.156753540039062,14.652670860290527,-1.2221626043319702,-0.0,-0.0,-1.0,0.1841612241927036,1.0,0
25.104440689086914,13.918463706970215,-1.283983826637268,-0.0,-0.0,-1.0,0.0475289714755017,1.0,0
25.15619468688965,13.64184284210205,-1.2753573656082153,-0.0,-0.0,-1.0,0.05317827284330699,1.0,0
23.416168212890625,15.55151081085205,-1.271912932395935,-0.0,-0.0,-1.0,0.13611847020179033,2.0,0
23.60770034790039,15.336854934692383,-1.2957009077072144,0.6127013631461034,0.0323545594240569,-0.7896519626287154,0.07996528933322697,4.0,0
24.59457778930664,14.90030574798584,-1.2374411821365356,-0.0,-0.0,-1.0,0.1550402499098376,1.0,0
25.104873657226562,14.500600814819336,-1.3412202596664429,-0.0,-0.0,-1.0,0.03461213108042126,2.0,0
25.13763427734375,14.206469535827637,-1.32081139087677,0.386083635303423,0.3240440051149574,-0.863675233696064,0.03590304256635387,4.0,0
24.906505584716797,14.993349075317383,-1.3389204740524292,0.815438016646673,-0.5524440262167524,-0.17281909299832715,0.04668799712145878,3.0,0
25.015779495239258,14.736774444580078,-1.340605616569519,-0.0,-0.0,-1.0,0.03677309276072207,2.0,0
24.876144409179688,15.466936111450195,-1.389635443687439,-0.0,-0.0,-1.0,0.04031360389860212,2.0,0
24.97850799560547,15.315305709838867,-1.3988169431686401,-0.0,-0.0,-1.0,0.02823288835641476,1.0,0
24.948318481445312,14.9046630859375,-1.3485413789749146,0.9571651574528287,-0.2856821618342982,0.04712285823232328,0.05494077425669556,4.0,0
25.10306167602539,14.663976669311523,-1.3636738061904907,-0.0,-0.0,-1.0,0.0797739037701956,2.0,0
24.92044448852539,15.141959190368652,-1.3746901750564575,-0.0,-0.0,-1.0,0.026284339633651226,1.0,0
25.09857940673828,15.487627029418945,-1.481087327003479,-0.0,-0.0,-1.0,0.04323457133239895,1.0,0
24.545127868652344,13.8380765914917,-1.0834966897964478,-0.0,-0.0,-1.0,0.19943843420705684,1.0,0
24.83512306213379,13.603507041931152,-1.1514097452163696,-0.4618684661751173,0.6865106456336281,-0.5615876186177393,0.17566008610309516,4.0,0
24.40646743774414,14.848885536193848,-1.1742693185806274,-0.0,-0.0,-1.0,0.16127383255502914,1.0,0
25.04995346069336,13.493888854980469,-1.0949677228927612,-0.0,-0.0,-1.0,0.13242287257919289,1.0,0
24.511255264282227,14.74493408203125,-1.2929272651672363,0.4374210490182727,0.3214102417868826,-0.8398561081222495,0.14398716989855811,4.0,0
24.395221710205078,14.655208587646484,-1.2842576503753662,-0.9674172673323617,-0.1890167025507584,0.16845330814211854,0.23278290342545313,3.0,0
25.005643844604492,14.930496215820312,-1.309626579284668,-0.0,-0.0,-1.0,0.0978841065213047,1.0,0
25.010215759277344,14.319229125976562,-1.2453229427337646,-0.0,-0.0,-1.0,0.04907370492715856,1.0,0
23.058250427246094,14.729158401489258,-1.2353699207305908,-0.0,-0.0,-1.0,0.12173055051639978,2.0,0
22.782331466674805,15.157684326171875,-1.3029110431671143,0.03395496246569192,0.5090555099471581,-0.8600636885233515,0.05544611359040226,3.0,0
23.190671920776367,15.055170059204102,-1.2595806121826172,0.9084992917510764,-0.05783557224175214,-0.41386481303834266,0.16458372130472165,3.0,0
23.106340408325195,14.761959075927734,-1.2149271965026855,-0.0,-0.0,-1.0,0.11676797034856633,2.0,0
22.865522384643555,15.147520065307617,-1.2806215286254883,-0.9173305673078554,0.1553379376033434,0.3665716238660428,0.0677691101826412,4.0,0
22.768341064453125,15.183242797851562,-1.2883358001708984,-0.08432172464607847,-0.19512105258269705,-0.977147696917785,0.055942898314877317,10.0,0
24.76003646850586,13.702817916870117,-1.2436473369598389,-0.0,-0.0,-1.0,0.13718434120920994,2.0,0
23.4342098236084,15.058555603027344,-1.1657721996307373,-0.0,-0.0,-1.0,0.1025087253614483,1.0,0
24.38482666015625,13.672989845275879,-1.2459924221038818,-0.0,-0.0,-1.0,0.056585929757486414,2.0,0
24.053068161010742,13.774764060974121,-1.2439610958099365,-0.0,-0.0,-1.0,0.02847639295588217,2.0,0
23.911754608154297,14.027405738830566,-1.2853434085845947,-0.0,-0.0,-1.0,0.03325961290421313,1.0,0
23.608291625976562,13.767720222473145,-1.2141973972320557,0.18762404387852155,0.5039221957520568,-0.843124924781077,0.018691228986520883,4.0,0
24.946075439453125,14.885506629943848,-1.3578557968139648,0.9496648600771628,-0.2197527004998449,0.22326084331482798,0.05376344220693688,3.0,0
24.01917266845703,14.947871208190918,-1.3034205436706543,-0.0,-0.0,-1.0,0.12130656661134227,2.0,0
23.9541015625,15.143523216247559,-1.3380136489868164,-0.0,-0.0,-1.0,0.101454757757009,2.0,0
23.514507293701172,14.964667320251465,-1.2735261917114258,0.3908887697830014,0.04818972987623378,-0.9191755651626009,0.0778349591305615,4.0,0
23.22347640991211,15.445151329040527,-1.3527641296386719,-0.0,-0.0,-1.0,0.12564986246892915,2.0,0
23.151790618896484,14.903006553649902,-1.2383742332458496,-0.0,-0.0,-1.0,0.15421083654350307,2.0,0
23.11219024658203,15.46187686920166,-1.3496246337890625,-0.0,-0.0,-1.0,0.08386649453460152,1.0,0
24.863235473632812,13.527878761291504,-1.0903048515319824,-0.26044437514768076,0.7044048188270327,0.6602897687130926,0.13511587284873672,5.0,0
23.93967056274414,15.177947044372559,-1.245927095413208,-0.0,-0.0,-1.0,0.17143242271710468,2.0,0
23.658042907714844,15.418055534362793,-1.27394700050354,-0.0,-0.0,-1.0,0.09424729758269784,2.0,0
23.355480194091797,15.471585273742676,-1.2652032375335693,0.8484866851308706,0.48073246904891687,-0.22128406711229506,0.14721657611510086,4.0,0
23.217182159423828,15.094901084899902,-1.1821324825286865,0.7421120850216736,0.2663990455877254,-0.6150619495422663,0.22364918824329214,3.0,0
24.269695281982422,15.573259353637695,-1.4032931327819824,-0.0,-0.0,-1.0,0.03751665758771428,1.0,0
25.202972412109375,14.771492004394531,-1.3368549346923828,-0.0,-0.0,-1.0,0.14313467739946445,1.0,0
25.15469741821289,14.88665771484375,-1.3531231880187988,-0.0,-0.0,-1.0,0.13947479324137696,2.0,0
24.97420883178711,14.94767951965332,-1.3479347229003906,-0.0,-0.0,-1.0,0.057531383284411125,2.0,0
24.601215362548828,15.263391494750977,-1.3733196258544922,-0.0,-0.0,-1.0,0.05815523974247217,2.0,0
24.849822998046875,13.5392427444458,-1.0852675437927246,0.9611890731293159,0.2406184294930303,-0.13497532028157688,0.1272306886030887,6.0,0
24.419696807861328,14.790842056274414,-1.2709054946899414,0.5983653855291228,-0.1529465811131507,-0.7864898020485598,0.18730541786716054,3.0,0
24.191192626953125,15.086204528808594,-1.3061480522155762,-0.0,-0.0,-1.0,0.09981619730215266,2.0,0
24.201385498046875,15.547204971313477,-1.3930253982543945,-0.0,-0.0,-1.0,0.03480405983294843,1.0,0
23.78770637512207,15.506118774414062,-1.3526678085327148,-0.0,-0.0,-1.0,0.09612234832063121,1.0,0
23.686080932617188,15.612447738647461,-1.365041732788086,-0.0,-0.0,-1.0,0.11292304865251224,1.0,0
23.27273941040039,15.353475570678711,-1.2847089767456055,-0.0,-0.0,-1.0,0.17064759443688268,2.0,0
23.15651512145996,15.047014236450195,-1.2175004482269287,-0.0,-0.0,-1.0,0.23935675198983636,2.0,0
25.046897888183594,14.890166282653809,-1.3441603183746338,-0.0,-0.0,-1.0,0.1214679782319753,2.0,0
24.96650505065918,15.571479797363281,-1.4472556114196777,-0.0,-0.0,-1.0,0.10335183747884528,2.0,0
24.729389190673828,15.194154739379883,-1.35878324508667,0.6863948605206905,0.67946762264149,-0.2592023248983393,0.08166649914484203,3.0,0
24.42201805114746,15.521881103515625,-1.3805453777313232,-0.0,-0.0,-1.0,0.05224250120999534,1.0,0
24.37854766845703,14.748586654663086,-1.2462148666381836,-0.0,-0.0,-1.0,0.20779064032783714,2.0,0
23.677425384521484,15.408888816833496,-1.2840900421142578,-0.0,-0.0,-1.0,0.07525018751825026,2.0,0
24.85700798034668,13.543217658996582,-1.107269525527954,-0.2901073756921946,0.8453119622569316,0.44864841138058587,0.1411429982188408,4.0,0
23.230728149414062,15.063749313354492,-1.1792809963226318,0.9199386334903303,-0.3399594186272421,0.19529594030233022,0.2700451290088103,6.0,0
23.372241973876953,15.395820617675781,-1.2512843608856201,0.721974334015583,-0.3083925561710937,0.6193925187803079,0.18069368719994644,4.0,0
24.9567813873291,13.786296844482422,-1.2676639556884766,-0.0,-0.0,-1.0,0.06368902305400403,1.0,0
24.81319808959961,14.097156524658203,-1.2948482036590576,-0.0,-0.0,-1.0,0.05524248894135169,1.0,0
24.569995880126953,14.401851654052734,-1.3087472915649414,-0.0,-0.0,-1.0,0.02980413798093038,1.0,0
24.384838104248047,14.719436645507812,-1.3343636989593506,-0.0,-0.0,-1.0,0.06603657411108371,1.0,0
24.750638961791992,13.65869140625,-1.218484878540039,0.9114983107542535,-0.40187393904790875,-0.08756806841686028,0.21735646750445484,6.0,0
24.256996154785156,14.394155502319336,-1.2644975185394287,-0.7135024021176793,-0.4236056693546794,-0.5580972666685219,0.18079296502152428,3.0,0
