x,y,z,nx,ny,nz,curvature,density,label
12.192562103271484,-7.789478302001953,0.4300628900527954,-0.0,-0.0,-1.0,0.10250451688516693,2.0,1
12.519317626953125,-7.78057861328125,0.44764232635498047,-0.6872994476435464,0.6785345723190894,-0.2592495003594536,0.23600577105368378,4.0,1
12.003363609313965,-7.414218902587891,0.4230666160583496,-0.0,-0.0,-1.0,0.07072847565862196,1.0,1
12.660938262939453,-7.37919807434082,0.45912086963653564,-0.0,-0.0,-1.0,0.12426699719158908,2.0,1
11.473762512207031,-6.88292121887207,0.39719802141189575,-0.0,-0.0,-1.0,0.027157477923576086,1.0,1
11.636370658874512,-7.0992584228515625,0.40500497817993164,-0.9152042530044023,-0.40298189431428116,-0.0026015644384943786,0.0269996951335459,3.0,1
11.982030868530273,-6.944175720214844,0.4256865382194519,0.7152760174177601,-0.5235287496598636,-0.4629231763333613,0.15330286739119506,6.0,1
10.574101448059082,-9.347574234008789,0.5282472372055054,0.12264319182041693,0.7198471145684873,-0.6832121040698295,0.05741592639508153,3.0,1
10.427156448364258,-8.989374160766602,0.5208120346069336,-0.0,-0.0,-1.0,0.1818269242082371,1.0,1
11.816466331481934,-8.047088623046875,0.5892702341079712,-0.0,-0.0,-1.0,0.1307583678221792,1.0,1
12.099367141723633,-7.877780914306641,0.603075385093689,0.7482263751539646,-0.0017017948135423855,-0.6634413277889544,0.17690890341847945,4.0,1
12.487324714660645,-7.813570022583008,0.6217254400253296,-0.4859988977610795,0.8579574622095902,0.16647541684553682,0.16278552352827402,3.0,1
12.693338394165039,-7.417446136474609,0.6320134401321411,-0.0,-0.0,-1.0,0.12957712824356812,2.0,1
12.652124404907227,-6.9230756759643555,0.9359651803970337,-0.0,-0.0,-1.0,0.05711929082776673,1.0,1
10.30593490600586,-6.984496116638184,0.6425851583480835,-0.0,-0.0,-1.0,0.175389987747051,1.0,1
10.934144973754883,-6.863461494445801,0.7114771604537964,-0.0,-0.0,-1.0,0.1492517642790538,1.0,1
10.434234619140625,-8.171765327453613,0.40224194526672363,-0.0,-0.0,-1.0,0.10500187423014136,2.0,1
10.642471313476562,-8.394709587097168,0.40715110301971436,-0.0,-0.0,-1.0,0.08738968430918834,1.0,1
12.599069595336914,-8.370957374572754,0.47406649589538574,-0.0,-0.0,-1.0,0.04018381643355402,2.0,1
11.100093841552734,-7.919455528259277,0.4293346405029297,-0.0,-0.0,-1.0,0.08371167714107905,1.0,1
11.99099349975586,-7.940733909606934,0.4602341651916504,-0.0,-0.0,-1.0,0.22876031911489503,1.0,1
12.464154243469238,-8.032788276672363,0.4747922420501709,-0.0,-0.0,-1.0,0.10923468349402927,1.0,1
10.267505645751953,-7.5444231033325195,0.40270209312438965,-0.0,-0.0,-1.0,0.11906989956781318,1.0,1
12.365499496459961,-7.895272254943848,0.4735156297683716,-0.0,-0.0,-1.0,0.2044525024697791,1.0,1
10.314443588256836,-6.911482810974121,0.4104652404785156,-0.0,-0.0,-1.0,0.09105995325809187,1.0,1
12.610599517822266,-7.137082099914551,0.4923739433288574,-0.0,-0.0,-1.0,0.13129150776585313,2.0,1
12.644956588745117,-6.981541633605957,0.4956427812576294,-0.0,-0.0,-1.0,0.09055446728071655,1.0,1
12.672353744506836,-7.100714683532715,0.32024621963500977,-0.0,-0.0,-1.0,0.20300316134590493,2.0,1
10.23687744140625,-9.269434928894043,0.5388745665550232,-0.0,-0.0,-1.0,0.11907759035212004,1.0,1
10.263742446899414,-7.706499099731445,0.5601646304130554,-0.0,-0.0,-1.0,0.12270111156391388,2.0,1
10.358709335327148,-8.927799224853516,0.48535680770874023,0.5951647135506357,0.5218805869373928,-0.6110806957530829,0.15406834841855502,4.0,1
11.972299575805664,-8.689536094665527,0.5272412300109863,0.7109461431912517,0.6648704469547179,0.2291350480562017,0.11638335985756466,4.0,1
12.633342742919922,-7.324793815612793,0.7121872901916504,-0.0,-0.0,-1.0,0.14459836959273853,2.0,1
12.00822639465332,-6.997664451599121,0.3994039297103882,-0.32426911214813875,-0.9459312107927659,-0.007980435751870374,0.11698786991996285,3.0,1
11.9561767578125,-7.3758158683776855,0.3947252035140991,-0.0,-0.0,-1.0,0.04131287980707568,1.0,1
12.203947067260742,-7.746514797210693,0.39985209703445435,-0.0,-0.0,-1.0,0.11970086208614135,2.0,1
12.66424560546875,-7.794723987579346,0.4147639274597168,-0.0,-0.0,-1.0,0.10684259712550775,1.0,1
12.586492538452148,-7.410497665405273,0.571277916431427,-0.5772876356216283,0.4390882139978489,-0.6884333853660567,0.13682649550550208,4.0,1
12.421903610229492,-7.779256820678711,0.5488923192024231,-0.0,-0.0,-1.0,0.13894243797839476,1.0,1
11.989824295043945,-7.76878547668457,0.5400428771972656,0.395795749956813,-0.650096978391146,-0.648629048842885,0.2018167460125947,3.0,1
10.3284912109375,-8.799554824829102,0.45113348960876465,-0.0,-0.0,-1.0,0.12950878094939977,1.0,1
12.207307815551758,-7.8356852531433105,0.5388550758361816,-0.0,-0.0,-1.0,0.16384184006325245,1.0,1
10.300348281860352,-8.237390518188477,0.47567659616470337,0.42037178616929793,0.4597022629998138,-0.7822796116387569,0.08494992033529085,4.0,1
12.564594268798828,-9.026081085205078,0.9229339361190796,-0.0,-0.0,-1.0,0.08035616245516504,2.0,1
12.569543838500977,-9.183492660522461,0.9179826974868774,-0.0,-0.0,-1.0,0.06275287698156438,2.0,1
10.835531234741211,-6.872821807861328,0.48847711086273193,-0.6358759243217046,-0.46467244818686027,-0.6162315512565449,0.17178077546289344,4.0,1
11.794225692749023,-9.3018798828125,0.6798571348190308,-0.0,-0.0,-1.0,0.08880798649432521,1.0,1
12.664266586303711,-9.294373512268066,0.7143522500991821,-0.0,-0.0,-1.0,0.08608568202784478,1.0,1
12.618610382080078,-7.398755073547363,0.5840118527412415,-0.3303712862966826,0.9431468996686329,-0.03645187013201321,0.1331900468278741,3.0,1
11.866216659545898,-8.682576179504395,0.4904773235321045,-0.0,-0.0,-1.0,0.2368802172915116,2.0,1
12.168336868286133,-9.221099853515625,0.47045665979385376,-0.0,-0.0,-1.0,0.09055071583049373,2.0,1
12.226879119873047,-7.220002174377441,1.2128206491470337,-0.0,-0.0,-1.0,0.16650495992731376,1.0,2
11.696596145629883,-7.17364501953125,1.2081242799758911,-0.0,-0.0,-1.0,0.193710683736102,1.0,2
11.425033569335938,-9.2178955078125,1.2108725309371948,-0.0,-0.0,-1.0,0.08486386226998976,1.0,2
12.410806655883789,-7.170231819152832,1.1279950141906738,-0.0,-0.0,-1.0,0.11468744107024265,1.0,2
12.624042510986328,-7.344056606292725,0.49133026599884033,0.08829813339089307,0.9534763898439941,-0.2882467929565705,0.11988554563853694,3.0,1
11.961284637451172,-6.906336784362793,0.4540712833404541,-0.0,-0.0,-1.0,0.14545145282412922,1.0,1
12.053461074829102,-7.583776950836182,0.47509485483169556,-0.0,-0.0,-1.0,0.10698081796982245,1.0,1
12.495460510253906,-6.941969394683838,0.41418176889419556,-0.0,-0.0,-1.0,0.15112051930344556,1.0,1
12.511713027954102,-7.775385856628418,0.4551178216934204,-0.6872994476435464,0.6785345723190894,-0.2592495003594536,0.22673615697237318,4.0,1
11.913919448852539,-7.323111534118652,0.4046797752380371,-0.0,-0.0,-1.0,0.02807709514487368,2.0,1
12.055753707885742,-7.702597618103027,0.4297783374786377,-0.0,-0.0,-1.0,0.09909119957604463,1.0,1
12.610401153564453,-6.953653335571289,0.34480124711990356,-0.0,-0.0,-1.0,0.146185880206959,1.0,1
12.618642807006836,-7.0137434005737305,0.3455967307090759,-0.373475786532831,-0.9209215652140724,0.11144194720726372,0.23049222713597353,3.0,1
12.63671875,-9.329967498779297,0.7801834344863892,-0.8067210783391633,0.45127476569119546,-0.38151302417303345,0.06884672455646203,3.0,1
10.521879196166992,-9.111225128173828,0.5314695239067078,0.23906110521717536,0.8179640391859316,-0.5232443201516654,0.08977382551913872,3.0,1
10.501298904418945,-9.011808395385742,0.5280821323394775,-0.0,-0.0,-1.0,0.12622423398024593,2.0,1
12.571691513061523,-7.8734049797058105,0.5270317792892456,-0.0,-0.0,-1.0,0.11010230701071438,1.0,1
12.097084045410156,-8.037199020385742,0.5021779537200928,-0.0,-0.0,-1.0,0.2041996316895307,1.0,1
10.637481689453125,-9.216782569885254,0.4325675964355469,-0.0,-0.0,-1.0,0.04848207824070254,1.0,1
10.409692764282227,-8.259649276733398,0.40989136695861816,-0.83655699853281,0.5445481609413485,-0.06032983193389056,0.109680686359672,3.0,1
10.249637603759766,-7.681543827056885,1.0559974908828735,-0.0,-0.0,-1.0,0.06544178753753403,1.0,2
12.044832229614258,-7.108618259429932,0.41830503940582275,-0.0,-0.0,-1.0,0.08350515237551565,1.0,1
11.844112396240234,-7.149111270904541,0.4058319926261902,-0.0,-0.0,-1.0,0.02619847180138124,1.0,1
11.631754875183105,-7.088688373565674,0.39149248600006104,-0.0,-0.0,-1.0,0.0269996951335459,2.0,1
11.52739429473877,-6.952264308929443,0.3833022117614746,-0.0,-0.0,-1.0,0.0249239494058474,1.0,1
10.249757766723633,-7.662654399871826,0.9811654090881348,-0.0,-0.0,-1.0,0.06544178753753405,1.0,1
12.70757007598877,-7.403122425079346,0.22533106803894043,-0.0,-0.0,-1.0,0.07817615302911025,1.0,1
12.639627456665039,-7.011423587799072,0.5920956134796143,-0.0,-0.0,-1.0,0.06398722381372662,1.0,1
11.66380786895752,-8.130090713500977,0.5428438782691956,-0.0,-0.0,-1.0,0.12067164225846028,2.0,1
11.19359016418457,-8.787031173706055,0.5210477709770203,-0.0,-0.0,-1.0,0.03476811765327447,1.0,1
10.723991394042969,-8.58854866027832,0.485121488571167,-0.0,-0.0,-1.0,0.06109226472461575,2.0,1
10.631950378417969,-8.346794128417969,0.47464698553085327,-0.0,-0.0,-1.0,0.0945052234818869,1.0,1
10.481125831604004,-8.237361907958984,0.46226274967193604,-0.0,-0.0,-1.0,0.10667634458275911,1.0,1
12.358346939086914,-7.191171646118164,0.4085270166397095,-0.0,-0.0,-1.0,0.09650614376969793,1.0,1
12.002385139465332,-6.995573997497559,0.38896751403808594,-0.3392784599712159,-0.9316130645039596,-0.13033504764682924,0.11698786991996285,4.0,1
11.75210189819336,-7.250908851623535,0.37155890464782715,-0.0,-0.0,-1.0,0.01947358527037092,1.0,1
11.972512245178223,-6.9319868087768555,0.3876844048500061,0.42098786617411393,-0.8277505337206231,-0.37094240854799765,0.1454514528241292,3.0,1
11.468225479125977,-7.155185699462891,0.3550984263420105,-0.0,-0.0,-1.0,0.030926704875010095,1.0,1
11.092087745666504,-7.258081436157227,0.3363531827926636,-0.0,-0.0,-1.0,0.1386089843589059,1.0,1
11.023018836975098,-7.884563446044922,0.3223000764846802,-0.0,-0.0,-1.0,0.09475801478282042,1.0,1
10.3732328414917,-7.54598331451416,0.44547390937805176,-0.0,-0.0,-1.0,0.1271371882734571,2.0,1
10.554192543029785,-8.512080192565918,0.44855594635009766,-0.0,-0.0,-1.0,0.04689737169140676,1.0,1
10.269067764282227,-8.076094627380371,0.4374113082885742,-0.128733093701174,0.9861795762858709,0.10429589590556423,0.06258506398428361,4.0,1
10.231189727783203,-7.51130485534668,1.1932562589645386,-0.0,-0.0,-1.0,0.09807550680022244,1.0,2
10.402523040771484,-7.516107559204102,0.7335849404335022,-0.0,-0.0,-1.0,0.21216836319964585,1.0,1
12.676554679870605,-8.090173721313477,0.45031678676605225,0.8508029654190399,-0.009117275109205021,-0.5254057378148345,0.09817590729224883,4.0,1
12.424759864807129,-8.619613647460938,0.45824795961380005,-0.0,-0.0,-1.0,0.03237677182018047,1.0,1
12.238245964050293,-8.687780380249023,0.476848840713501,-0.0,-0.0,-1.0,0.0463844758414934,1.0,1
12.50211238861084,-8.840421676635742,0.44077610969543457,-0.0,-0.0,-1.0,0.04626061204420436,1.0,1
12.097223281860352,-9.355295181274414,0.46677112579345703,-0.0,-0.0,-1.0,0.09821283423913403,1.0,1
10.385052680969238,-7.498682022094727,1.1510579586029053,-0.0,-0.0,-1.0,0.051042647815307214,1.0,2
12.644269943237305,-7.803806304931641,0.9957433938980103,-0.0,-0.0,-1.0,0.10902058104337012,1.0,1
12.089644432067871,-7.845139503479004,0.5383213758468628,-0.0,-0.0,-1.0,0.18309801542908746,1.0,1
11.948829650878906,-8.675040245056152,0.516934871673584,0.030211998802566063,0.990134466418092,0.13682460867590293,0.12271660385459719,4.0,1
12.306808471679688,-8.287236213684082,0.5153260231018066,-0.0,-0.0,-1.0,0.09432231116491668,1.0,1
12.17247200012207,-9.130440711975098,0.49326515197753906,-0.0,-0.0,-1.0,0.13654128220723713,1.0,1
12.521599769592285,-8.968871116638184,0.48459362983703613,0.33841255977146534,-0.40676456466914396,-0.84853964451783,0.05230327420779131,4.0,1
12.470934867858887,-7.263653755187988,0.5729032158851624,-0.0,-0.0,-1.0,0.13978495541749392,1.0,1
12.570513725280762,-9.334190368652344,0.616318941116333,-0.0,-0.0,-1.0,0.12404959104128269,1.0,1
10.732219696044922,-7.219415664672852,0.8960322141647339,-0.0,-0.0,-1.0,0.1323919128127323,1.0,1
12.493376731872559,-9.255501747131348,0.9093414545059204,-0.0,-0.0,-1.0,0.057537052941120895,1.0,1
10.308248519897461,-7.669927597045898,0.4405078887939453,-0.0,-0.0,-1.0,0.09650546688190172,2.0,1
10.62590217590332,-7.582338333129883,0.43522632122039795,-0.0,-0.0,-1.0,0.057712091572475255,2.0,1
12.033585548400879,-7.278667449951172,0.40395617485046387,-0.0,-0.0,-1.0,0.057349329327316,2.0,1
12.186245918273926,-7.245218276977539,0.4002605676651001,-0.0,-0.0,-1.0,0.06090244590676945,1.0,1
12.429342269897461,-7.075002670288086,0.3996424674987793,-0.0,-0.0,-1.0,0.14325345195763464,1.0,1
11.79398250579834,-9.348745346069336,0.7326669692993164,-0.0,-0.0,-1.0,0.09364400794224872,1.0,1
11.146890640258789,-9.147377967834473,0.49719250202178955,-0.0,-0.0,-1.0,0.0634174208990714,2.0,1
11.257410049438477,-9.203536033630371,0.4901310205459595,-0.0,-0.0,-1.0,0.20770527154206053,1.0,1
11.814262390136719,-8.771483421325684,0.48504114151000977,-0.0,-0.0,-1.0,0.11558598131320437,1.0,1
12.048210144042969,-8.761244773864746,0.47513556480407715,0.5513585355366978,0.7667497515613886,0.32878349072205143,0.09625503468092311,4.0,1
11.746079444885254,-8.191584587097168,0.5133849382400513,-0.0,-0.0,-1.0,0.1946778534965269,1.0,1
12.27539348602295,-7.980595588684082,0.4993091821670532,-0.0,-0.0,-1.0,0.2966535848320004,2.0,1
12.684574127197266,-8.441433906555176,0.46006858348846436,-0.0,-0.0,-1.0,0.020490355933132778,2.0,1
12.650291442871094,-7.969389915466309,0.48262739181518555,-0.0,-0.0,-1.0,0.12272834810925604,1.0,1
12.595136642456055,-7.4218645095825195,0.5094276666641235,0.8560765162409141,-0.08833824917457658,-0.5092439023430623,0.17680264289771272,3.0,1
10.668766021728516,-8.845684051513672,0.4433327913284302,-0.0,-0.0,-1.0,0.09200010696102508,1.0,1
10.985987663269043,-8.707910537719727,0.4367094039916992,-0.0,-0.0,-1.0,0.07440887374270007,1.0,1
11.14962387084961,-8.757516860961914,0.42675793170928955,-0.0,-0.0,-1.0,0.059737448507604124,2.0,1
11.666109085083008,-8.0738525390625,0.43953198194503784,0.27850028034556223,0.8813296675916742,-0.3817009442877923,0.19936469613432084,3.0,1
11.94482421875,-7.85740852355957,0.438098669052124,-0.0,-0.0,-1.0,0.1981054224097345,2.0,1
12.185254096984863,-7.935995101928711,0.42242634296417236,-0.0,-0.0,-1.0,0.13811699011157974,2.0,1
12.619630813598633,-7.765380859375,0.41037166118621826,-0.0,-0.0,-1.0,0.1585115193169064,1.0,1
12.641100883483887,-6.934822082519531,0.45427799224853516,-0.0,-0.0,-1.0,0.14694715485521703,2.0,1
12.638221740722656,-9.301131248474121,0.8111144304275513,-0.8067210783391633,0.45127476569119546,-0.38151302417303345,0.057870600561949107,3.0,1
12.35163402557373,-7.964556694030762,0.8730632066726685,-0.0,-0.0,-1.0,0.08145848071163393,1.0,1
10.374719619750977,-9.078003883361816,0.5435575246810913,-0.0,-0.0,-1.0,0.19934845366524764,1.0,1
11.188128471374512,-9.133906364440918,0.511123776435852,-0.2231916456529125,0.6146729278023838,-0.7565465492205948,0.06991670983377482,5.0,1
11.960498809814453,-8.840022087097168,0.4963918924331665,-0.0,-0.0,-1.0,0.12095282202507686,2.0,1
11.946590423583984,-8.4589262008667,0.5170489549636841,-0.0,-0.0,-1.0,0.09248696194921527,1.0,1
11.972186088562012,-7.7905778884887695,0.551121711730957,0.8076077819161884,-0.5605795240681641,0.18308541117173882,0.20234462433376577,3.0,1
12.49661922454834,-7.749049186706543,0.5324353575706482,-0.0,-0.0,-1.0,0.16875334192701688,2.0,1
12.619108200073242,-7.400052070617676,0.5459418296813965,0.8801750285598103,0.3825112275797695,-0.2810286104209949,0.12420556825842113,5.0,1
11.970670700073242,-9.284104347229004,0.5153793096542358,-0.0,-0.0,-1.0,0.13984459942111954,1.0,1
12.279364585876465,-9.209628105163574,0.5128201246261597,-0.0,-0.0,-1.0,0.03634331067678245,1.0,1
12.44389820098877,-8.849980354309082,0.5272518396377563,-0.6860769671186198,-0.2664811005992319,-0.6769684026693844,0.0977303578906554,3.0,1
10.300907135009766,-8.093570709228516,0.39143139123916626,-0.0,-0.0,-1.0,0.0627389879485284,1.0,1
10.45885944366455,-8.404755592346191,0.38026928901672363,-0.0,-0.0,-1.0,0.07246183480770513,1.0,1
10.739982604980469,-8.27075481414795,0.3898888826370239,-0.0,-0.0,-1.0,0.07926974384074635,2.0,1
10.868906021118164,-8.45067310333252,0.3837224841117859,-0.0,-0.0,-1.0,0.05692985353527786,2.0,1
10.946924209594727,-7.103370666503906,0.4430152177810669,-0.0,-0.0,-1.0,0.20097219362998067,1.0,1
11.966031074523926,-7.5472917556762695,0.4373406171798706,0.7390047603528745,-0.5916122232338583,-0.3222839454519603,0.0791348476620852,3.0,1
12.157366752624512,-7.857515335083008,0.42574119567871094,-0.0,-0.0,-1.0,0.2389309084929181,2.0,1
12.548175811767578,-8.159672737121582,0.41629910469055176,-0.0,-0.0,-1.0,0.0834776837881519,2.0,1
12.519816398620605,-7.841318130493164,0.43048036098480225,-0.04026606337817447,0.9925123408085195,-0.11531651001837447,0.27456451444597535,3.0,1
11.644959449768066,-9.316102027893066,0.602258563041687,-0.0,-0.0,-1.0,0.07283756642177186,1.0,1
11.780898094177246,-7.763077735900879,0.6529900431632996,-0.0,-0.0,-1.0,0.1718514151553585,1.0,1
12.53177547454834,-7.942331314086914,0.6557687520980835,-0.0,-0.0,-1.0,0.17178036889776524,1.0,1
12.276326179504395,-6.894665241241455,0.36666369438171387,-0.0,-0.0,-1.0,0.06965604258155145,2.0,1
12.37160587310791,-7.151679515838623,0.3609519600868225,-0.0,-0.0,-1.0,0.06737539884249831,1.0,1
12.443526268005371,-7.116410732269287,0.3647647500038147,-0.0,-0.0,-1.0,0.11791863098251454,2.0,1
12.688141822814941,-7.1133527755737305,0.21795618534088135,-0.0,-0.0,-1.0,0.14973443185743518,1.0,1
11.687355041503906,-6.875558376312256,0.34376049041748047,-0.0,-0.0,-1.0,0.04021429381078314,1.0,1
12.056774139404297,-6.975552082061768,0.34423381090164185,0.49618882440920065,-0.2208214082325051,-0.8396633588514085,0.1240328100008933,3.0,1
12.465816497802734,-7.044859409332275,0.34672582149505615,-0.0,-0.0,-1.0,0.11360094771389921,2.0,1
12.603126525878906,-7.1361002922058105,0.3426138758659363,-0.0,-0.0,-1.0,0.19352775868484343,1.0,1
11.970422744750977,-7.615665435791016,0.7539069652557373,-0.0,-0.0,-1.0,0.18952807453331783,1.0,1
11.818183898925781,-9.345414161682129,0.6643635630607605,0.0840122330931898,0.1302635778674685,-0.9879136323443775,0.08880798649432535,3.0,1
10.421562194824219,-8.854522705078125,0.46892082691192627,0.39786844352001255,-0.3853633102024822,-0.8325838220868504,0.1230512792289271,3.0,1
10.734264373779297,-8.304513931274414,0.5084039568901062,-0.0,-0.0,-1.0,0.08130257665241232,1.0,1
10.948451042175293,-8.825418472290039,0.4753679037094116,-0.0,-0.0,-1.0,0.08349979841358589,1.0,1
11.079777717590332,-9.012258529663086,0.4635363221168518,-0.0,-0.0,-1.0,0.04692640636933542,1.0,1
11.914340019226074,-8.635732650756836,0.49554675817489624,0.07665976894716388,0.8052743511375707,-0.5879255898708037,0.14622223874093707,3.0,1
12.638154029846191,-7.919839382171631,0.55046546459198,-0.0,-0.0,-1.0,0.1804255771202378,1.0,1
12.638559341430664,-8.662015914916992,0.4977850914001465,-0.0,-0.0,-1.0,0.024106058410401573,1.0,1
12.683951377868652,-9.117713928222656,1.005833387374878,0.3355070043882189,0.8901941386617965,-0.3082035780107457,0.06170565706974153,5.0,2
10.530921936035156,-8.878703117370605,0.45093345642089844,-0.0,-0.0,-1.0,0.10155047303810015,1.0,1
10.33602523803711,-8.265639305114746,0.4775787591934204,-0.0,-0.0,-1.0,0.09369444252834783,2.0,1
10.94495964050293,-8.943209648132324,0.45859336853027344,-0.0,-0.0,-1.0,0.0790345254451467,1.0,1
10.953944206237793,-7.106605529785156,0.5531985759735107,-0.989311893332566,-0.14334829340830413,0.026706637520671442,0.1643319825421509,3.0,1
11.191676139831543,-9.010842323303223,0.4612332582473755,-0.0,-0.0,-1.0,0.11556881094340071,2.0,1
12.015426635742188,-7.853362083435059,0.5482604503631592,0.4829783496479761,-0.8044754831923884,-0.34576163858023684,0.18221182290838958,5.0,1
11.880758285522461,-8.628528594970703,0.5010353326797485,-0.0,-0.0,-1.0,0.2239495990731048,2.0,1
11.986454963684082,-8.937689781188965,0.4852956533432007,-0.0,-0.0,-1.0,0.12573384881171326,2.0,1
12.46590805053711,-7.739319324493408,0.5669919848442078,-0.0,-0.0,-1.0,0.20956798418727463,2.0,1
12.23369026184082,-8.013809204101562,0.5453978776931763,-0.0,-0.0,-1.0,0.2589655763936572,1.0,1
12.547866821289062,-8.843801498413086,0.5041738152503967,-0.0,-0.0,-1.0,0.036333356764146056,2.0,1
12.657965660095215,-9.096979141235352,1.0117403268814087,0.5045464378602122,0.7882294428311687,-0.3523169560163633,0.06275287698156438,4.0,2
10.245248794555664,-8.52906322479248,0.46036744117736816,-0.0,-0.0,-1.0,0.03187921510489672,1.0,1
10.291238784790039,-8.157088279724121,0.4843297004699707,-0.0,-0.0,-1.0,0.07686129691662258,2.0,1
10.27929401397705,-8.351641654968262,0.47264862060546875,-0.0,-0.0,-1.0,0.04848253276914674,2.0,1
10.427687644958496,-8.817916870117188,0.4549049139022827,0.39786844352001255,-0.3853633102024822,-0.8325838220868504,0.1099560066079049,3.0,1
10.874703407287598,-8.777839660644531,0.4850142002105713,-0.0,-0.0,-1.0,0.06377056761886225,2.0,1
10.952800750732422,-7.0929059982299805,0.5843732357025146,-0.989311893332566,-0.14334829340830413,0.026706637520671442,0.20530042134485754,3.0,1
11.00516414642334,-8.871941566467285,0.48724818229675293,-0.0,-0.0,-1.0,0.09627299358989952,1.0,1
11.79879093170166,-9.205801963806152,0.5131158828735352,-0.0,-0.0,-1.0,0.18449275361142745,1.0,1
11.741960525512695,-8.027741432189941,0.5840466022491455,0.4931673914248302,0.3494255710053896,-0.7966728904404777,0.11929345252451541,4.0,1
11.948845863342285,-9.016009330749512,0.5344430208206177,-0.0,-0.0,-1.0,0.1884184044426193,1.0,1
12.176129341125488,-9.21108341217041,0.5345165729522705,-0.0,-0.0,-1.0,0.1197600224501618,1.0,1
12.35120677947998,-7.971419811248779,0.625230073928833,-0.0,-0.0,-1.0,0.15445382283638734,2.0,1
12.48930835723877,-9.21925163269043,0.5517724752426147,-0.0,-0.0,-1.0,0.056817860089407576,1.0,1
12.568133354187012,-7.407670021057129,0.6724565029144287,0.6563978447854597,0.5791741562950746,-0.48342441605786934,0.24259871826625687,5.0,1
12.513517379760742,-7.712899208068848,0.6509568691253662,-0.0,-0.0,-1.0,0.24076433196728017,1.0,1
11.394552230834961,-6.880767345428467,0.3596550226211548,-0.0,-0.0,-1.0,0.02991905223481604,1.0,1
11.961066246032715,-6.981520652770996,0.40211760997772217,-0.14281996307827624,0.27338613517651683,-0.9512425974689982,0.1533028673911951,6.0,1
11.82663631439209,-7.287581443786621,0.37030136585235596,-0.0,-0.0,-1.0,0.020013590021136316,1.0,1
12.105781555175781,-7.311129093170166,0.39229345321655273,-0.0,-0.0,-1.0,0.0631550312196853,1.0,1
12.259164810180664,-7.734738349914551,0.37493133544921875,0.18287360347542048,-0.4739793795325242,-0.8613366315964265,0.12724425596519612,4.0,1
12.587265968322754,-6.957675457000732,0.45705628395080566,0.6923061040551268,-0.7042396919854523,0.157349021351411,0.16690530474201198,3.0,1
12.629327774047852,-7.577450275421143,0.4167294502258301,-0.0,-0.0,-1.0,0.06316646124313224,2.0,1
12.701069831848145,-7.854892253875732,0.4018617868423462,-0.0,-0.0,-1.0,0.1614581484822994,1.0,1
10.351820945739746,-7.25416374206543,0.37367522716522217,-0.0,-0.0,-1.0,0.06355339454274654,1.0,1
10.449942588806152,-8.197709083557129,0.3629244565963745,-0.0,-0.0,-1.0,0.09689671474488729,2.0,1
10.59776782989502,-8.354402542114258,0.37179434299468994,-0.0,-0.0,-1.0,0.08994130252278787,1.0,1
10.409781455993652,-6.999932289123535,0.3825019598007202,-0.0,-0.0,-1.0,0.0965839780261281,1.0,1
10.545708656311035,-7.392810821533203,0.3892117738723755,-0.0,-0.0,-1.0,0.05481558029139561,2.0,1
10.601217269897461,-7.686302185058594,0.38855230808258057,-0.3004292785555428,0.8520474693048997,-0.42866928819045574,0.04516093233248704,3.0,1
10.954690933227539,-8.561702728271484,0.3965888023376465,-0.0,-0.0,-1.0,0.03668825134865601,1.0,1
11.014321327209473,-7.1153974533081055,0.43678081035614014,-0.0,-0.0,-1.0,0.10777891395158662,1.0,1
11.367255210876465,-8.734528541564941,0.42602837085723877,-0.0,-0.0,-1.0,0.02641456715168838,1.0,1
11.975179672241211,-7.747625350952148,0.5098986625671387,-0.0,-0.0,-1.0,0.22012640948111234,2.0,1
11.849080085754395,-8.107721328735352,0.4883843660354614,-0.0,-0.0,-1.0,0.1440673070251945,1.0,1
12.033573150634766,-8.70904541015625,0.48306381702423096,-0.0,-0.0,-1.0,0.1243930468528951,2.0,1
12.148776054382324,-8.865424156188965,0.4864586591720581,-0.0,-0.0,-1.0,0.08598885300164524,1.0,1
12.38901138305664,-7.952815055847168,0.5400528907775879,-0.0,-0.0,-1.0,0.17163345791675258,1.0,1
12.479473114013672,-8.929140090942383,0.5108875036239624,-0.0,-0.0,-1.0,0.05742176573443318,2.0,1
12.422286987304688,-7.832508087158203,1.0287615060806274,0.8299206741690425,-0.511089885241477,-0.22364884035168972,0.14299463083965713,5.0,2
11.929339408874512,-7.32650899887085,0.38773083686828613,-0.0,-0.0,-1.0,0.041299621402239126,2.0,1
11.954977035522461,-6.9452409744262695,0.39735984802246094,0.8052130208754547,-0.47927309572897303,-0.34918374922523415,0.14545145282412922,5.0,1
11.965280532836914,-7.200216770172119,0.3937556743621826,-0.0,-0.0,-1.0,0.04117073795738977,1.0,1
12.073087692260742,-7.638399124145508,0.3952047824859619,-0.4917235508272433,-0.8523246278206851,-0.1781872003601215,0.0739021687127921,4.0,1
12.125662803649902,-7.777220726013184,0.39699649810791016,-0.0,-0.0,-1.0,0.12005292662909879,1.0,1
12.5443696975708,-7.032273292541504,0.4556741714477539,-0.0,-0.0,-1.0,0.17778205147504028,2.0,1
12.594207763671875,-7.375910758972168,0.4535396099090576,-0.0,-0.0,-1.0,0.12200537739318651,1.0,1
12.628397941589355,-7.831227779388428,0.4453916549682617,-0.0,-0.0,-1.0,0.16877009147346508,1.0,1
11.814756393432617,-9.244842529296875,0.8394777774810791,-0.0,-0.0,-1.0,0.13603840045946772,2.0,1
12.66131591796875,-9.17984676361084,0.89359450340271,-0.0,-0.0,-1.0,0.061705657069741515,1.0,1
10.335100173950195,-8.133113861083984,0.43432390689849854,-0.0,-0.0,-1.0,0.07822552500293904,2.0,1
10.331400871276855,-8.697176933288574,0.4212599992752075,-0.0,-0.0,-1.0,0.06371544294738579,1.0,1
10.82137393951416,-6.878719806671143,0.49688220024108887,-0.3703488864989062,-0.6252988219477628,-0.68690835308632,0.1658848836354998,5.0,1
10.93305492401123,-8.722930908203125,0.47206199169158936,-0.0,-0.0,-1.0,0.08574249216769037,1.0,1
11.053032875061035,-8.887117385864258,0.4778650999069214,-0.0,-0.0,-1.0,0.048306289218073305,1.0,1
10.959354400634766,-7.125829696655273,0.5059047937393188,-0.8480362081468525,0.31308937463393516,-0.4275624318894729,0.2120654040861308,3.0,1
11.2290620803833,-9.059741020202637,0.4879859685897827,-0.6014052669481694,-0.20932816995624975,-0.7710339954566005,0.1432913926070136,5.0,1
11.324837684631348,-9.171372413635254,0.49277961254119873,-0.0,-0.0,-1.0,0.1262782389054405,1.0,1
11.891770362854004,-8.67368221282959,0.5550109148025513,0.6739797235783064,0.7382033098861457,0.02841136178448167,0.12336822818072944,3.0,1
11.871294021606445,-9.258639335632324,0.53598952293396,-0.0,-0.0,-1.0,0.16999306564816682,1.0,1
12.064305305480957,-7.871437072753906,0.5892390012741089,0.3286611966467733,0.3522819132967528,-0.8762872082728871,0.17325533106244034,4.0,1
12.210429191589355,-9.340485572814941,0.5616490840911865,-0.5074549240679833,-0.4262847194283682,-0.7488463380567703,0.09720364939066926,3.0,1
10.341092109680176,-8.932350158691406,0.5020596981048584,-0.09694804730328127,-0.9296185144838003,-0.355542534238891,0.1908564497636677,3.0,1
10.536945343017578,-9.126728057861328,0.514117956161499,0.23906110521717536,0.8179640391859316,-0.5232443201516654,0.040785177005171945,3.0,1
11.833367347717285,-9.312950134277344,0.6154818534851074,-0.0,-0.0,-1.0,0.0951633056238469,2.0,1
12.27785873413086,-7.877614974975586,0.6796432733535767,-0.0,-0.0,-1.0,0.16278145333883579,1.0,1
12.649620056152344,-7.410099506378174,0.7160156965255737,-0.0,-0.0,-1.0,0.18710250924295568,2.0,1
10.415826797485352,-6.864963054656982,0.39903557300567627,-0.0,-0.0,-1.0,0.06609307791396393,1.0,1
10.381879806518555,-7.218594074249268,0.3960949182510376,-0.0,-0.0,-1.0,0.04595758321440273,1.0,1
10.582592010498047,-7.403939723968506,0.41456520557403564,-0.0,-0.0,-1.0,0.04968614399980018,2.0,1
10.602230072021484,-7.672398090362549,0.41547906398773193,-0.4629900014522465,0.6885937058762076,-0.5581030073229488,0.05073064499941983,4.0,1
10.477537155151367,-8.275131225585938,0.39993131160736084,-0.0,-0.0,-1.0,0.09926358098520963,1.0,1
10.498923301696777,-8.328097343444824,0.401425838470459,-0.0,-0.0,-1.0,0.08609497148142989,1.0,1
10.819171905517578,-8.549287796020508,0.4287630319595337,-0.0,-0.0,-1.0,0.04590834702369917,2.0,1
11.092309951782227,-8.702438354492188,0.4522131681442261,-0.0,-0.0,-1.0,0.06373152143531328,2.0,1
11.913458824157715,-8.723823547363281,0.5278041362762451,0.9625622503249882,0.08901911349865974,-0.2560263886422788,0.12333990752221753,4.0,1
12.05252456665039,-9.176756858825684,0.533514142036438,-0.0,-0.0,-1.0,0.16702935676368091,2.0,1
12.592264175415039,-7.161105155944824,0.6017111539840698,-0.0,-0.0,-1.0,0.04297252096116299,1.0,1
12.466155052185059,-7.819013595581055,0.5879782438278198,-0.4859988977610795,0.8579574622095902,0.16647541684553682,0.19163273834778455,3.0,1
12.34071159362793,-9.307225227355957,0.5575259923934937,-0.0,-0.0,-1.0,0.0692898458664836,2.0,1
12.425348281860352,-7.793282508850098,1.0627044439315796,0.5790588267520219,0.45027308621192674,-0.6796653757502722,0.12222904906099073,3.0,2
12.420120239257812,-7.864717483520508,1.0620665550231934,0.4350410738310114,-0.6653230112785912,-0.606699723704526,0.14299463083965713,4.0,2
12.102330207824707,-7.184231758117676,0.3557250499725342,-0.0,-0.0,-1.0,0.06557603554277945,2.0,1
12.340865135192871,-7.295129299163818,0.38139522075653076,-0.0,-0.0,-1.0,0.08577798413087345,2.0,1
12.122208595275879,-7.58528995513916,0.3555694818496704,-0.0,-0.0,-1.0,0.08041295671364317,1.0,1
12.58739948272705,-7.449711322784424,0.4075455665588379,-0.0,-0.0,-1.0,0.10383862861396846,2.0,1
12.493867874145508,-7.7446064949035645,0.39488375186920166,-0.0,-0.0,-1.0,0.1036619923947042,2.0,1
10.892369270324707,-7.216750144958496,0.7495197057723999,-0.0,-0.0,-1.0,0.12701038510576584,2.0,1
12.631387710571289,-6.884883880615234,0.8802651166915894,-0.0,-0.0,-1.0,0.046702155493727346,1.0,1
11.060042381286621,-7.12257194519043,0.3503175973892212,-0.0,-0.0,-1.0,0.1250535688631847,2.0,1
11.865185737609863,-7.487648010253906,0.4375408887863159,-0.0,-0.0,-1.0,0.04527718392211616,2.0,1
11.657108306884766,-7.966408729553223,0.4209909439086914,-0.0,-0.0,-1.0,0.18921636307028178,1.0,1
11.439599990844727,-8.190603256225586,0.4000990390777588,-0.0,-0.0,-1.0,0.10703741693097671,1.0,1
12.367813110351562,-7.112398624420166,0.4835319519042969,-0.0,-0.0,-1.0,0.11466528771399652,1.0,1
11.85606861114502,-8.151084899902344,0.4427851438522339,-0.0,-0.0,-1.0,0.20664732247651335,2.0,1
11.747856140136719,-8.30858325958252,0.43251192569732666,-0.0,-0.0,-1.0,0.15675135797864673,1.0,1
12.002280235290527,-8.976015090942383,0.46008288860321045,-0.0,-0.0,-1.0,0.1636356939826217,2.0,1
10.8207426071167,-7.111081600189209,0.8448748588562012,-0.0,-0.0,-1.0,0.16539664188293687,1.0,1
12.58989143371582,-7.335368633270264,0.5096073150634766,-0.0,-0.0,-1.0,0.10864921922436989,2.0,1
12.456549644470215,-8.831368446350098,0.5071038007736206,-0.6860769671186198,-0.2664811005992319,-0.6769684026693844,0.05225929545659227,3.0,1
12.33641529083252,-7.8445281982421875,0.9526907205581665,-0.0,-0.0,-1.0,0.09318660430695759,1.0,1
12.118946075439453,-7.1853742599487305,0.34662020206451416,-0.0,-0.0,-1.0,0.07200360044749025,2.0,1
12.594400405883789,-6.984787464141846,0.3980919122695923,-0.0,-0.0,-1.0,0.2547739692727608,1.0,1
12.52984619140625,-7.265995979309082,0.39494097232818604,-0.0,-0.0,-1.0,0.19425123165368446,1.0,1
10.978545188903809,-7.061376094818115,0.7177058458328247,-0.0,-0.0,-1.0,0.13439859026301396,2.0,1
12.697680473327637,-7.419961452484131,0.4165034294128418,-0.0,-0.0,-1.0,0.10161933388853743,1.0,1
12.54443645477295,-7.110851764678955,0.8448662757873535,-0.0,-0.0,-1.0,0.07331866641254799,2.0,1
12.628194808959961,-7.017964839935303,0.3427237272262573,-0.373475786532831,-0.9209215652140724,0.11144194720726372,0.2304922271359736,3.0,1
12.578778266906738,-7.141271591186523,0.783113956451416,-0.0,-0.0,-1.0,0.0561404100982183,2.0,1
11.962435722351074,-7.690993309020996,0.7354766130447388,0.13266053292538166,-0.9578993894940202,0.25461724727703944,0.06739938476755285,4.0,1
12.703207015991211,-7.341805934906006,0.7965948581695557,-0.0,-0.0,-1.0,0.1232358873050002,2.0,1
12.680028915405273,-9.222857475280762,0.8024129867553711,-0.0,-0.0,-1.0,0.061705657069741515,2.0,1
10.822797775268555,-6.901554584503174,0.5190502405166626,-0.5163410249983224,-0.32098032330638626,-0.7939543928676317,0.1271831319379797,6.0,1
10.241154670715332,-8.240756034851074,0.48511481285095215,-0.6543439862589994,0.6221639486449535,-0.42982085646604173,0.08038115870257685,3.0,1
10.497737884521484,-9.11412239074707,0.5159106254577637,0.295616786314224,0.836522322617352,-0.4613470704492672,0.09980116999260939,4.0,1
10.552228927612305,-9.349923133850098,0.5218460559844971,-0.0,-0.0,-1.0,0.05479596132177935,2.0,1
12.63601016998291,-6.97189998626709,0.6873607635498047,-0.0,-0.0,-1.0,0.03268444011333863,1.0,1
12.583733558654785,-7.409170627593994,0.6937426328659058,0.5175022875920048,0.8333117244615033,-0.19437837382805134,0.1871025092429557,4.0,1
10.209685325622559,-7.362485408782959,1.478813886642456,-0.0,-0.0,-1.0,0.09254593286441841,2.0,2
10.948539733886719,-7.065199375152588,0.5752452611923218,-0.989311893332566,-0.14334829340830413,0.026706637520671442,0.16131288306142771,3.0,1
11.94511890411377,-7.68231201171875,0.685580849647522,-0.1523873674832631,-0.7779698771442122,-0.6095415986524142,0.12716907488736026,3.0,1
12.393372535705566,-7.936653137207031,0.7342871427536011,0.6652940930404386,0.4467773275004049,-0.5981419475317677,0.20529927079355562,4.0,1
11.909904479980469,-7.649955749511719,0.7317609786987305,-0.0,-0.0,-1.0,0.12438947537508964,1.0,1
12.576581954956055,-7.127118110656738,0.7454700469970703,-0.0,-0.0,-1.0,0.05520077921910392,2.0,1
12.595732688903809,-9.158294677734375,0.8921420574188232,-0.0,-0.0,-1.0,0.06275287698156438,2.0,1
12.095065116882324,-7.881582260131836,0.4490499496459961,-0.0,-0.0,-1.0,0.21473186008044953,2.0,1
11.532876968383789,-8.87099552154541,0.46955597400665283,-0.0,-0.0,-1.0,0.11225654810222785,1.0,1
11.389068603515625,-9.264806747436523,0.48169875144958496,-0.0,-0.0,-1.0,0.16495605573876093,1.0,1
12.648862838745117,-7.357002258300781,0.45611119270324707,0.7899924694457393,0.48129151665793535,0.3798294014582424,0.11265435056523065,3.0,1
11.684590339660645,-8.908584594726562,0.49040842056274414,-0.0,-0.0,-1.0,0.08952356526554801,1.0,1
11.976285934448242,-9.333770751953125,0.5575637817382812,-0.0,-0.0,-1.0,0.11920108143780653,2.0,1
11.882526397705078,-9.152362823486328,0.9494545459747314,-0.0,-0.0,-1.0,0.19121866448217822,1.0,1
12.661449432373047,-9.10244083404541,1.013763189315796,0.5045464378602122,0.7882294428311687,-0.3523169560163633,0.06275287698156438,4.0,2
10.299063682556152,-8.077860832214355,0.4780222177505493,-0.5057192696649722,0.675351605309791,-0.5367944015123629,0.05458634434862084,4.0,1
12.603874206542969,-6.916337966918945,0.5338660478591919,-0.0,-0.0,-1.0,0.1080565660146689,2.0,1
12.058344841003418,-7.787153244018555,0.5966588258743286,-0.0,-0.0,-1.0,0.2387469791186519,2.0,1
12.362543106079102,-7.836954593658447,0.6261875629425049,-0.0,-0.0,-1.0,0.1277623315349153,2.0,1
12.49357795715332,-7.859109401702881,1.0696344375610352,-0.0,-0.0,-1.0,0.14886988552231306,1.0,2
10.316800117492676,-7.3203887939453125,0.30715036392211914,-0.0,-0.0,-1.0,0.08176202084943933,1.0,1
10.980266571044922,-7.277745246887207,0.3485605716705322,-0.0,-0.0,-1.0,0.1251712057317297,1.0,1
10.918485641479492,-7.532228469848633,0.3856050968170166,-0.0,-0.0,-1.0,0.03184476781514529,1.0,1
11.186327934265137,-6.977296829223633,0.31258392333984375,-0.0,-0.0,-1.0,0.0586177573024716,1.0,1
11.132545471191406,-7.184234619140625,0.34367823600769043,-0.0,-0.0,-1.0,0.13391245068265298,1.0,1
10.933154106140137,-7.694882392883301,0.4128553867340088,-0.0,-0.0,-1.0,0.049854439105671375,1.0,1
11.80289363861084,-8.025084495544434,0.5296010971069336,-0.4016727247914919,0.8959971658967393,-0.18933594709824417,0.11734175037915197,4.0,1
11.559303283691406,-8.344719886779785,0.5631182193756104,-0.0,-0.0,-1.0,0.09418849836226627,1.0,1
12.189669609069824,-8.171175003051758,0.580949068069458,-0.0,-0.0,-1.0,0.18100476046276742,2.0,1
11.98646068572998,-8.228174209594727,0.5759170055389404,-0.0,-0.0,-1.0,0.24123404105614338,1.0,1
10.711197853088379,-7.532792091369629,0.881733775138855,-0.0,-0.0,-1.0,0.11655850118707056,1.0,1
12.307369232177734,-7.98858642578125,1.0157545804977417,-0.0,-0.0,-1.0,0.08201954402030806,1.0,2
12.691047668457031,-9.324140548706055,0.8648943901062012,-0.0,-0.0,-1.0,0.060163545919501606,1.0,1
10.838516235351562,-7.188093185424805,0.5915031433105469,-0.0,-0.0,-1.0,0.216099031045458,1.0,1
10.447056770324707,-6.957830429077148,0.4092850685119629,-0.0,-0.0,-1.0,0.08030896288317982,1.0,1
10.23656940460205,-7.4914398193359375,0.43113136291503906,-0.0,-0.0,-1.0,0.1320913845964846,1.0,1
12.568108558654785,-7.460180282592773,0.6314685344696045,-0.0,-0.0,-1.0,0.13646743731908162,2.0,1
11.650574684143066,-8.04350471496582,0.6000103950500488,0.6287688984244266,-0.08666917839537416,-0.7727471293317133,0.18684446085361178,5.0,1
10.209626197814941,-8.495674133300781,0.5036540031433105,-0.0,-0.0,-1.0,0.035334574684361325,2.0,1
10.427949905395508,-9.121271133422852,0.5699620246887207,-0.0,-0.0,-1.0,0.1774136824464512,1.0,1
10.221251487731934,-6.942958831787109,0.42766451835632324,-0.0,-0.0,-1.0,0.14565042465352865,1.0,1
12.55622386932373,-7.429447174072266,0.6503591537475586,0.36893314307132696,0.5491669336349808,-0.7498693319142103,0.20996701103672027,5.0,1
10.96032428741455,-7.210500717163086,0.5094075202941895,-0.9928917979435943,-0.031050863407402342,0.11489874437082614,0.15106168300394723,3.0,1
12.347542762756348,-7.946815490722656,0.6803195476531982,-0.2826987411931576,0.9350537825159826,-0.21390616057130726,0.16854842529780817,5.0,1
12.640636444091797,-8.794988632202148,0.5211620330810547,-0.0,-0.0,-1.0,0.0313210072866224,1.0,1
12.470588684082031,-8.727212905883789,0.5006694793701172,-0.0,-0.0,-1.0,0.031596525688710714,2.0,1
12.138147354125977,-8.684471130371094,0.4694991111755371,-0.0,-0.0,-1.0,0.12171495095731524,1.0,1
12.674959182739258,-7.368747711181641,1.129907250404358,-0.0,-0.0,-1.0,0.09813043936960626,1.0,2
12.575672149658203,-7.712459564208984,0.4608876705169678,-0.0,-0.0,-1.0,0.17869925701076228,2.0,1
12.207220077514648,-7.402688980102539,0.3984100818634033,-0.0,-0.0,-1.0,0.0840190723353878,1.0,1
12.243048667907715,-7.908428192138672,0.45110034942626953,-0.0,-0.0,-1.0,0.10162404094460066,1.0,1
11.974306106567383,-7.843742370605469,0.4210207462310791,-0.0,-0.0,-1.0,0.1959419002465111,2.0,1
11.913784980773926,-8.398698806762695,0.4691123962402344,-0.0,-0.0,-1.0,0.11175403491018997,1.0,1
11.882963180541992,-8.09809684753418,0.43743014335632324,-0.0,-0.0,-1.0,0.19402641235374007,1.0,1
12.066839218139648,-8.869161605834961,0.5280697345733643,-0.0,-0.0,-1.0,0.13242812758719114,1.0,1
11.877670288085938,-9.32393741607666,0.5535695552825928,-0.0,-0.0,-1.0,0.09343768665889415,1.0,1
12.28119945526123,-7.103429794311523,0.35849475860595703,-0.0,-0.0,-1.0,0.07950209631819173,2.0,1
12.334439277648926,-7.761552810668945,0.4350399971008301,-0.0,-0.0,-1.0,0.11021662314240138,2.0,1
12.339179039001465,-7.333133697509766,0.3882110118865967,-0.0,-0.0,-1.0,0.07683099471415973,2.0,1
11.756896018981934,-7.003803253173828,0.30791497230529785,-0.0,-0.0,-1.0,0.03751695547764165,1.0,1
11.9429931640625,-7.802526473999023,0.4089503288269043,-0.0,-0.0,-1.0,0.226600615754746,1.0,1
11.856269836425781,-7.541696548461914,0.37369632720947266,-0.0,-0.0,-1.0,0.05272512009566317,2.0,1
11.348196029663086,-7.03913688659668,0.2755284309387207,-0.0,-0.0,-1.0,0.032663979037570054,1.0,1
11.478947639465332,-8.116439819335938,0.4002416133880615,-0.0,-0.0,-1.0,0.10455299115417309,1.0,1
11.136310577392578,-7.118196487426758,0.26485180854797363,-0.0,-0.0,-1.0,0.10138675794043427,1.0,1
10.941548347473145,-7.849864959716797,0.3234994411468506,-0.0,-0.0,-1.0,0.09514413667127741,1.0,1
10.553423881530762,-7.815471649169922,0.2841320037841797,-0.0,-0.0,-1.0,0.04437985147074448,1.0,1
10.406105041503906,-8.338422775268555,0.3238489627838135,-0.0,-0.0,-1.0,0.08301432053282366,1.0,1
10.401083946228027,-7.982200622558594,0.2870521545410156,-0.0,-0.0,-1.0,0.07305643539565275,1.0,1
10.445582389831543,-8.908458709716797,0.38532161712646484,-0.0,-0.0,-1.0,0.12524010510822117,1.0,1
12.651294708251953,-9.350821495056152,0.6351697444915771,-0.0,-0.0,-1.0,0.13576861025573556,2.0,1
12.643467903137207,-7.884712219238281,0.7228617668151855,-0.0,-0.0,-1.0,0.17340502929785379,1.0,1
12.389041900634766,-7.966691970825195,0.706627368927002,0.6652940930404386,0.4467773275004049,-0.5981419475317677,0.17590739116421159,4.0,1
10.95543384552002,-7.156591415405273,0.49115514755249023,-0.8480362081468525,0.31308937463393516,-0.4275624318894729,0.17190304332437734,3.0,1
10.908958435058594,-6.897745132446289,0.4622678756713867,-0.0,-0.0,-1.0,0.17803174938924257,1.0,1
12.70246410369873,-7.934966087341309,0.47987961769104004,-0.0,-0.0,-1.0,0.12499646532922198,2.0,1
12.524226188659668,-7.769869804382324,0.4429512023925781,-0.6872994476435464,0.6785345723190894,-0.2592495003594536,0.23600577105368384,4.0,1
12.6358060836792,-7.36441707611084,0.4057140350341797,-0.0,-0.0,-1.0,0.13273439190220393,1.0,1
12.478816032409668,-8.785950660705566,0.5571086406707764,-0.0,-0.0,-1.0,0.033372894729097366,2.0,1
12.311995506286621,-7.933126449584961,0.4411463737487793,-0.0,-0.0,-1.0,0.10283861193509083,1.0,1
12.45857048034668,-7.7818145751953125,0.4379136562347412,-0.0,-0.0,-1.0,0.20877628660542397,2.0,1
12.180132865905762,-7.467765808105469,0.37354063987731934,-0.0,-0.0,-1.0,0.0883910374055046,2.0,1
11.989982604980469,-8.711845397949219,0.4984307289123535,0.5069822986147371,0.7757959468666644,0.37564557460001163,0.09962616539599872,4.0,1
11.968436241149902,-8.102398872375488,0.4262049198150635,-0.0,-0.0,-1.0,0.12227877982450573,1.0,1
12.127197265625,-7.952633857727051,0.4249579906463623,-0.0,-0.0,-1.0,0.1775342714593174,2.0,1
11.922588348388672,-8.822579383850098,0.5040264129638672,-0.0,-0.0,-1.0,0.147019878412419,2.0,1
11.207016944885254,-8.782052040100098,0.42367053031921387,-0.0,-0.0,-1.0,0.048716408603160385,2.0,1
12.697159767150879,-7.927865028381348,0.5161569118499756,-0.0,-0.0,-1.0,0.12518606872268367,2.0,1
12.520752906799316,-7.763354301452637,0.4775986671447754,-0.6872994476435464,0.6785345723190894,-0.2592495003594536,0.22673615697237318,4.0,1
12.270346641540527,-7.063877105712891,0.3642456531524658,-0.0,-0.0,-1.0,0.07858396968187818,2.0,1
12.290653228759766,-8.045881271362305,0.4891180992126465,-0.0,-0.0,-1.0,0.20113175689397084,2.0,1
12.084550857543945,-7.787819862365723,0.4358031749725342,-0.0,-0.0,-1.0,0.17341981722417543,1.0,1
12.040433883666992,-7.212419509887695,0.3596189022064209,-0.0,-0.0,-1.0,0.05991542289881323,2.0,1
11.789377212524414,-8.15246868133545,0.4496347904205322,0.405536919464095,0.7701211727517526,0.49239535561481235,0.15611871503499158,4.0,1
11.565702438354492,-7.495923042297363,0.34554243087768555,-0.0,-0.0,-1.0,0.014117400419913124,2.0,1
11.218337059020996,-7.694128036499023,0.3327674865722656,-0.0,-0.0,-1.0,0.024054417311414465,1.0,1
11.083837509155273,-8.771404266357422,0.4467751979827881,-0.0,-0.0,-1.0,0.07642424622209072,2.0,1
11.073019027709961,-7.972909927368164,0.35060930252075195,-0.0,-0.0,-1.0,0.05869420533611014,2.0,1
10.837764739990234,-8.848916053771973,0.4281487464904785,-0.0,-0.0,-1.0,0.07746104014132814,1.0,1
10.74780559539795,-8.135321617126465,0.33418703079223633,-0.0,-0.0,-1.0,0.08252163459018112,2.0,1
11.852145195007324,-9.260873794555664,0.5901129245758057,-0.0,-0.0,-1.0,0.15380139214482444,2.0,1
12.609511375427246,-6.870715141296387,0.7697591781616211,-0.0,-0.0,-1.0,0.03404341681796924,1.0,1
11.989567756652832,-7.567747116088867,0.7652316093444824,-0.0,-0.0,-1.0,0.18568933292838594,2.0,1
12.153654098510742,-7.48505973815918,0.37081170082092285,-0.0,-0.0,-1.0,0.0786920387815418,2.0,1
12.107938766479492,-7.107478141784668,0.3168823719024658,-0.0,-0.0,-1.0,0.0801788437124798,1.0,1
12.420782089233398,-7.867317199707031,0.4552638530731201,-0.5868246899762835,0.7450581077220692,0.31705709162838275,0.15040536283280034,3.0,1
11.977046012878418,-8.682966232299805,0.49322080612182617,0.7109461431912517,0.6648704469547179,0.2291350480562017,0.1430986315665762,4.0,1
11.965044021606445,-8.043115615844727,0.41402530670166016,-0.0,-0.0,-1.0,0.13794860230945127,1.0,1
12.199958801269531,-7.809141159057617,0.4177415370941162,-0.11142732638730064,0.49725059206275646,-0.8604218730526413,0.10831026640856102,3.0,1
11.618839263916016,-8.891703605651855,0.4657928943634033,-0.0,-0.0,-1.0,0.08078562312528859,1.0,1
11.906804084777832,-8.75529670715332,0.4917299747467041,0.8375607984866615,-0.47876850475440547,0.2631969370901128,0.12146866234955744,3.0,1
11.809591293334961,-8.221031188964844,0.41367459297180176,-0.0,-0.0,-1.0,0.2513465410271867,1.0,1
11.822042465209961,-7.9939069747924805,0.3878786563873291,-0.0,-0.0,-1.0,0.17273104119434735,1.0,1
11.357349395751953,-9.1267728805542,0.4540712833404541,-0.0,-0.0,-1.0,0.12029534530143654,1.0,1
12.405813217163086,-7.82733154296875,0.976487398147583,-0.0,-0.0,-1.0,0.1429946308396572,2.0,1
12.650304794311523,-7.8556718826293945,0.6057817935943604,-0.0,-0.0,-1.0,0.13121041069126915,2.0,1
12.594131469726562,-6.946315765380859,0.4776914119720459,-0.0,-0.0,-1.0,0.13712993189242337,2.0,1
12.410325050354004,-7.829090118408203,0.56903076171875,-0.0,-0.0,-1.0,0.16833598196990035,1.0,1
11.959512710571289,-8.890941619873047,0.6374514102935791,-0.0,-0.0,-1.0,0.12935983640253307,1.0,1
12.150147438049316,-8.195828437805176,0.579218864440918,-0.0,-0.0,-1.0,0.1814507969043973,2.0,1
12.0366849899292,-7.844869613647461,0.5185863971710205,0.32816232842063914,-0.9445497763439593,-0.011627820695234704,0.2344343967084601,5.0,1
11.94094181060791,-7.58095645904541,0.4713578224182129,-0.0,-0.0,-1.0,0.11277130701137916,2.0,1
11.867086410522461,-6.932659149169922,0.3772141933441162,-0.0,-0.0,-1.0,0.08576975324084742,2.0,1
11.85163688659668,-9.311684608459473,0.6716558933258057,0.0840122330931898,0.1302635778674685,-0.9879136323443775,0.09173260571692114,3.0,1
11.743006706237793,-8.072002410888672,0.5050592422485352,-0.0,-0.0,-1.0,0.11658615578543838,2.0,1
11.391911506652832,-7.288005828857422,0.3561716079711914,-0.0,-0.0,-1.0,0.021707255892183402,1.0,1
11.655924797058105,-6.963441848754883,0.35196852684020996,-0.0,-0.0,-1.0,0.035239040089049434,2.0,1
11.183632850646973,-9.099406242370605,0.5448019504547119,-0.8820397262251483,0.26522387336566383,-0.38943833704141173,0.07042649399652402,3.0,1
11.153755187988281,-7.917706489562988,0.3998532295227051,-0.0,-0.0,-1.0,0.034213097993585156,1.0,1
11.139859199523926,-7.769392967224121,0.37958264350891113,-0.0,-0.0,-1.0,0.03700408761435306,1.0,1
11.285222053527832,-7.417392730712891,0.3571624755859375,-0.0,-0.0,-1.0,0.018417171694808124,1.0,1
10.802732467651367,-9.305347442626953,0.5089607238769531,-0.0,-0.0,-1.0,0.05572870170591775,1.0,1
10.878575325012207,-8.531370162963867,0.4319803714752197,-0.0,-0.0,-1.0,0.03422579228634356,1.0,1
10.755538940429688,-8.051186561584473,0.3565230369567871,-0.0,-0.0,-1.0,0.07452452599094721,2.0,1
10.640583992004395,-8.966205596923828,0.44536900520324707,-0.0,-0.0,-1.0,0.06966540443295996,1.0,1
12.454519271850586,-7.819316864013672,1.0703098773956299,0.5805995903151584,0.4529076401200107,-0.6765935155222764,0.1316550213652237,4.0,2
12.49537181854248,-7.716251373291016,1.064467191696167,-0.0,-0.0,-1.0,0.10287946009183481,1.0,2
12.654926300048828,-8.083495140075684,0.4124143123626709,0.790041070084811,-0.3392870642429707,-0.5106068895115234,0.0981759072922488,3.0,1
