x,y,z,nx,ny,nz,curvature,density,label
45.08340835571289,-11.542905807495117,-0.4824678897857666,-0.0,-0.0,-1.0,0.013411815545214782,1.0,0
44.26138687133789,-11.749958038330078,-0.4353041648864746,-0.0,-0.0,-1.0,0.0249916673963155,1.0,0
44.21460723876953,-11.627077102661133,-0.47165513038635254,-0.0,-0.0,-1.0,0.03321309257992434,2.0,0
42.93138122558594,-10.973041534423828,-0.43365979194641113,-0.0,-0.0,-1.0,0.05176890871706453,2.0,0
43.526123046875,-10.506714820861816,-0.4213402271270752,-0.0,-0.0,-1.0,0.029748814762045134,2.0,0
43.98919677734375,-11.411842346191406,-0.4417693614959717,-0.0,-0.0,-1.0,0.08341038152393107,1.0,0
42.84404754638672,-9.543390274047852,-0.34041452407836914,-0.0,-0.0,-1.0,0.14386757085072463,1.0,0
44.62568664550781,-9.649284362792969,-0.4049193859100342,-0.0,-0.0,-1.0,0.055926665936324615,1.0,0
43.11092758178711,-9.556614875793457,-0.4671046733856201,-0.0,-0.0,-1.0,0.09524282080080113,1.0,0
44.48401641845703,-10.698418617248535,-0.48319220542907715,-0.0,-0.0,-1.0,0.08147491463077547,2.0,0
44.61100387573242,-10.838997840881348,-0.5794210433959961,-0.0,-0.0,-1.0,0.09989625582708218,2.0,0
44.95598220825195,-10.350567817687988,-0.6338510513305664,-0.0,-0.0,-1.0,0.10097583992325435,1.0,0
43.37694549560547,-10.7125883102417,-0.4208250045776367,-0.0,-0.0,-1.0,0.018672886880329212,1.0,0
44.30870056152344,-10.475788116455078,-0.5468177795410156,-0.0,-0.0,-1.0,0.10796130833269058,1.0,0
43.30424880981445,-10.813090324401855,-0.5646758079528809,-0.0,-0.0,-1.0,0.014633089710878835,1.0,0
44.563819885253906,-10.961686134338379,-0.7400217056274414,-0.0,-0.0,-1.0,0.08821652017236907,1.0,0
44.785911560058594,-11.08984661102295,-0.5891842842102051,-0.0,-0.0,-1.0,0.13093881453752262,1.0,0
44.48438262939453,-10.791665077209473,-0.5476808547973633,-0.0,-0.0,-1.0,0.12877911290773542,1.0,0
45.10268020629883,-10.40327262878418,-0.6311554908752441,-0.0,-0.0,-1.0,0.1544593589394152,1.0,0
43.145851135253906,-10.685672760009766,-0.47587108612060547,-0.0,-0.0,-1.0,0.015285117437283991,1.0,0
43.722999572753906,-11.744611740112305,-0.4237959384918213,-0.0,-0.0,-1.0,0.04567256692500364,2.0,0
43.83699417114258,-11.7138671875,-0.43459486961364746,-0.0,-0.0,-1.0,0.04395862789797943,2.0,0
45.13732147216797,-10.615961074829102,-0.3424021005630493,-0.0,-0.0,-1.0,0.08948915920314174,1.0,0
44.742347717285156,-11.811759948730469,-0.4435821771621704,-0.0,-0.0,-1.0,0.017503236384385206,1.0,0
45.135684967041016,-10.598640441894531,-0.3942917585372925,-0.0,-0.0,-1.0,0.08350947452937896,1.0,0
44.5942497253418,-11.858713150024414,-0.47035109996795654,-0.0,-0.0,-1.0,0.013502314557930516,1.0,0
44.75204086303711,-11.609945297241211,-0.46628010272979736,-0.0,-0.0,-1.0,0.016437584911711607,2.0,0
45.04289245605469,-11.666587829589844,-0.48663437366485596,-0.0,-0.0,-1.0,0.016064754453888788,1.0,0
43.98964309692383,-11.350910186767578,-0.4926241636276245,0.6368383910697337,-0.3187368531625943,-0.702028263031995,0.07936906904638973,3.0,0
44.295597076416016,-11.480337142944336,-0.5171358585357666,-0.0,-0.0,-1.0,0.0418026717996117,1.0,0
44.486167907714844,-11.444869995117188,-0.5256905555725098,-0.0,-0.0,-1.0,0.029684162033805955,1.0,0
44.62086868286133,-10.750621795654297,-0.49237263202667236,0.14198842819531587,-0.038810239979442655,-0.9891071992111681,0.10716135173695285,3.0,0
44.932220458984375,-10.822803497314453,-0.514685869216919,-0.0,-0.0,-1.0,0.13155625900886947,2.0,0
44.53015899658203,-9.595052719116211,-0.41894304752349854,-0.0,-0.0,-1.0,0.04122357372010587,1.0,0
44.42350769042969,-11.377799987792969,-0.5417572259902954,-0.0,-0.0,-1.0,0.043761669704158096,2.0,0
44.548160552978516,-10.657102584838867,-0.5058461427688599,-0.0,-0.0,-1.0,0.0790298755968544,2.0,0
44.625186920166016,-9.557863235473633,-0.44408679008483887,-0.0,-0.0,-1.0,0.05592666593632463,2.0,0
43.729454040527344,-11.642932891845703,-0.46167707443237305,-0.0,-0.0,-1.0,0.04668259774526429,1.0,0
44.74021911621094,-10.799245834350586,-0.47525763511657715,-0.0,-0.0,-1.0,0.19652683812824803,2.0,0
44.83177185058594,-10.833295822143555,-0.48344147205352783,-0.0,-0.0,-1.0,0.214011986072011,1.0,0
45.1934700012207,-10.56646728515625,-0.4918011426925659,-0.0,-0.0,-1.0,0.08830556717615383,2.0,0
43.53792953491211,-11.741086959838867,-0.38685834407806396,-0.0,-0.0,-1.0,0.0323526887114528,1.0,0
43.632606506347656,-11.843154907226562,-0.39832210540771484,-0.0,-0.0,-1.0,0.03858399906836114,1.0,0
44.16777801513672,-11.694709777832031,-0.4195600748062134,-0.0,-0.0,-1.0,0.03416947277981851,1.0,0
44.60346984863281,-11.759038925170898,-0.4491105079650879,-0.0,-0.0,-1.0,0.0169573402727926,2.0,0
44.893497467041016,-11.730222702026367,-0.46478867530822754,-0.0,-0.0,-1.0,0.016941996599718498,1.0,0
43.566192626953125,-11.816030502319336,-0.4108762741088867,-0.0,-0.0,-1.0,0.03765110057133797,1.0,0
43.863311767578125,-11.749021530151367,-0.41965973377227783,-0.0,-0.0,-1.0,0.050679384737611695,2.0,0
44.10514831542969,-11.712850570678711,-0.42829930782318115,-0.0,-0.0,-1.0,0.0394943916373943,2.0,0
43.703369140625,-11.848897933959961,-0.4323232173919678,-0.0,-0.0,-1.0,0.043654248720133654,1.0,0
44.01522445678711,-11.738605499267578,-0.43029308319091797,-0.0,-0.0,-1.0,0.05404997517754549,1.0,0
42.929256439208984,-10.999380111694336,-0.3655526638031006,-0.0,-0.0,-1.0,0.05141089393935801,2.0,0
43.08420944213867,-11.510713577270508,-0.49496424198150635,-0.0,-0.0,-1.0,0.03628562206614165,1.0,0
42.91560363769531,-10.962793350219727,-0.4495316743850708,-0.0,-0.0,-1.0,0.053307737791091034,2.0,0
43.58718490600586,-11.435342788696289,-0.5048894882202148,-0.0,-0.0,-1.0,0.05179341458963447,1.0,0
43.67742919921875,-11.470510482788086,-0.5103639364242554,-0.0,-0.0,-1.0,0.022492692676037374,1.0,0
43.061092376708984,-10.983940124511719,-0.45537495613098145,-0.0,-0.0,-1.0,0.03517916022118373,2.0,0
43.96404266357422,-11.360572814941406,-0.5114603042602539,0.6368383910697337,-0.3187368531625943,-0.702028263031995,0.06714443865441792,3.0,0
44.2734489440918,-11.421934127807617,-0.5262885093688965,-0.0,-0.0,-1.0,0.04761530665439051,1.0,0
43.57624816894531,-10.600259780883789,-0.44261133670806885,-0.0,-0.0,-1.0,0.029231035715440497,1.0,0
43.97185134887695,-11.004989624023438,-0.48522186279296875,-0.0,-0.0,-1.0,0.04666877917404382,2.0,0
44.94773864746094,-10.799095153808594,-0.5029852390289307,-0.0,-0.0,-1.0,0.13885329245963313,2.0,0
44.94349670410156,-9.77264404296875,-0.42593133449554443,-0.0,-0.0,-1.0,0.12669423409762562,1.0,0
42.74198532104492,-11.859764099121094,-0.38650941848754883,-0.0,-0.0,-1.0,0.05884045898920643,1.0,0
42.793922424316406,-10.970541000366211,-0.32671475410461426,-0.0,-0.0,-1.0,0.04966993219652161,1.0,0
42.810447692871094,-11.207244873046875,-0.3425462245941162,-0.0,-0.0,-1.0,0.06226053046678084,1.0,0
43.06112289428711,-9.6326904296875,-0.23647820949554443,-0.0,-0.0,-1.0,0.11051342793581632,1.0,0
43.05674362182617,-9.3717041015625,-0.219071626663208,-0.0,-0.0,-1.0,0.1380611586909051,1.0,0
44.895687103271484,-11.07485580444336,-0.3356376886367798,-0.0,-0.0,-1.0,0.14650654385184264,1.0,0
42.864990234375,-10.777607917785645,-0.4873008728027344,-0.0,-0.0,-1.0,0.032010180213677804,1.0,0
43.095252990722656,-10.90832233428955,-0.48970627784729004,-0.0,-0.0,-1.0,0.024489372006017824,1.0,0
43.67010498046875,-10.527848243713379,-0.4479527473449707,-0.0,-0.0,-1.0,0.02575016673273631,1.0,0
43.55373001098633,-11.171303749084473,-0.49536561965942383,-0.0,-0.0,-1.0,0.07022419296890697,1.0,0
43.65578842163086,-11.412613868713379,-0.5093884468078613,-0.0,-0.0,-1.0,0.049801617838175244,2.0,0
44.041954040527344,-11.340254783630371,-0.49471044540405273,-0.0,-0.0,-1.0,0.08760676937415639,1.0,0
43.766048431396484,-11.508170127868652,-0.5132086277008057,-0.0,-0.0,-1.0,0.023640265275021024,1.0,0
44.24815368652344,-11.249739646911621,-0.4834463596343994,-0.0,-0.0,-1.0,0.05715264055283837,2.0,0
44.37105178833008,-11.614436149597168,-0.5059990882873535,-0.0,-0.0,-1.0,0.016970441497178076,1.0,0
44.82516860961914,-10.737044334411621,-0.43425750732421875,-0.0,-0.0,-1.0,0.1343394149726523,1.0,0
44.771575927734375,-11.63637638092041,-0.4985496997833252,-0.0,-0.0,-1.0,0.01601786615230647,2.0,0
45.09538269042969,-11.797917366027832,-0.503049373626709,-0.0,-0.0,-1.0,0.016065991684282237,1.0,0
42.850921630859375,-10.889418601989746,-0.44562065601348877,-0.0,-0.0,-1.0,0.05330773779109105,1.0,0
43.061134338378906,-10.948012351989746,-0.4434177875518799,-0.0,-0.0,-1.0,0.044764847365370286,2.0,0
43.03000259399414,-11.429327964782715,-0.476717472076416,-0.0,-0.0,-1.0,0.035885822946627906,1.0,0
43.527427673339844,-11.450774192810059,-0.4644510746002197,-0.0,-0.0,-1.0,0.052439222389507954,1.0,0
43.35385513305664,-11.573534965515137,-0.4774651527404785,-0.0,-0.0,-1.0,0.022459829142988944,1.0,0
43.80298614501953,-11.579731941223145,-0.4660167694091797,-0.0,-0.0,-1.0,0.05265810753363606,1.0,0
44.212379455566406,-11.633471488952637,-0.4594227075576782,-0.0,-0.0,-1.0,0.03238116214450927,2.0,0
44.85143280029297,-11.018048286437988,-0.4019331932067871,-0.0,-0.0,-1.0,0.1955647025934867,1.0,0
44.45698547363281,-11.832642555236816,-0.4672664403915405,-0.0,-0.0,-1.0,0.013579437104564298,1.0,0
43.82480239868164,-10.391256332397461,-0.5764312744140625,-0.0,-0.0,-1.0,0.023292688166741855,1.0,0
43.9453239440918,-10.689016342163086,-0.5984588861465454,-0.0,-0.0,-1.0,0.029193773151516306,1.0,0
44.6550178527832,-10.909461975097656,-0.6049426794052124,-0.0,-0.0,-1.0,0.14794913632191492,1.0,0
43.6495475769043,-9.757144927978516,-0.5284504890441895,-0.0,-0.0,-1.0,0.022872079705868055,1.0,0
45.16642379760742,-9.912012100219727,-0.5155482292175293,-0.0,-0.0,-1.0,0.13201080859942935,1.0,0
43.039634704589844,-10.585607528686523,-0.4948335886001587,-0.0,-0.0,-1.0,0.013695263480529392,1.0,0
43.19136428833008,-10.636270523071289,-0.4939708709716797,-0.0,-0.0,-1.0,0.013981135719015412,1.0,0
43.83808135986328,-10.848470687866211,-0.49106740951538086,-0.0,-0.0,-1.0,0.030171113756119305,1.0,0
43.4708251953125,-11.251537322998047,-0.5314202308654785,-0.0,-0.0,-1.0,0.06753291251772028,1.0,0
43.95476531982422,-11.34859848022461,-0.5253127813339233,0.6368383910697337,-0.3187368531625943,-0.702028263031995,0.06660764499202937,3.0,0
43.58824157714844,-11.294265747070312,-0.5312782526016235,-0.0,-0.0,-1.0,0.04258440213932371,1.0,0
44.741207122802734,-11.561565399169922,-0.5214698314666748,-0.0,-0.0,-1.0,0.01785681096963722,1.0,0
44.27604675292969,-11.57919692993164,-0.5342351198196411,-0.0,-0.0,-1.0,0.033380509092518655,1.0,0
45.113407135009766,-11.568611145019531,-0.5134066343307495,-0.0,-0.0,-1.0,0.01341181554521478,2.0,0
45.05928039550781,-9.626737594604492,-0.3676011562347412,-0.0,-0.0,-1.0,0.15933782452314793,1.0,0
44.82443618774414,-9.980140686035156,-0.4000357389450073,-0.0,-0.0,-1.0,0.09154846613935495,2.0,0
43.54076385498047,-10.567121505737305,-0.478519082069397,-0.0,-0.0,-1.0,0.03010909589266728,1.0,0
45.13178253173828,-10.544685363769531,-0.4353235960006714,-0.0,-0.0,-1.0,0.10727517662097232,1.0,0
44.36947250366211,-10.868917465209961,-0.4784294366836548,-0.0,-0.0,-1.0,0.07074715366077491,1.0,0
44.22750473022461,-10.963969230651855,-0.5642101764678955,-0.0,-0.0,-1.0,0.05317513598638141,2.0,0
43.64363479614258,-10.867936134338379,-0.5681607723236084,-0.0,-0.0,-1.0,0.022165770146305285,1.0,0
44.04747009277344,-11.339678764343262,-0.5972898006439209,-0.0,-0.0,-1.0,0.08760676937415636,1.0,0
44.372276306152344,-10.225954055786133,-0.19984960556030273,-0.0,-0.0,-1.0,0.13377619989398862,1.0,0
45.10953140258789,-11.586137771606445,-0.5221805572509766,-0.0,-0.0,-1.0,0.013411815545214789,2.0,0
44.32783508300781,-11.54828929901123,-0.4975714683532715,-0.0,-0.0,-1.0,0.02559215189535595,1.0,0
45.165245056152344,-11.816932678222656,-0.49906373023986816,-0.0,-0.0,-1.0,0.015483091821533035,1.0,0
43.468345642089844,-11.024240493774414,-0.4682546854019165,-0.0,-0.0,-1.0,0.05735596162246145,1.0,0
43.54534912109375,-10.941280364990234,-0.4748361110687256,-0.0,-0.0,-1.0,0.0551483712926553,1.0,0
45.20325469970703,-10.636881828308105,0.08658993244171143,-0.0,-0.0,-1.0,0.054930144162735596,1.0,1
44.241790771484375,-10.268197059631348,-0.1789112091064453,-0.0,-0.0,-1.0,0.18000249818817932,1.0,0
45.15533447265625,-9.669065475463867,-0.31984221935272217,-0.0,-0.0,-1.0,0.19214009674235313,1.0,0
44.764366149902344,-9.47270393371582,-0.4817241430282593,-0.0,-0.0,-1.0,0.06893693809061631,1.0,0
44.566524505615234,-9.54305362701416,-0.4308048486709595,-0.0,-0.0,-1.0,0.0572247432680479,1.0,0
44.971397399902344,-10.779093742370605,-0.5483723878860474,-0.0,-0.0,-1.0,0.12334944034706877,1.0,0
44.75286102294922,-9.584017753601074,-0.4396944046020508,-0.0,-0.0,-1.0,0.0754406708637492,2.0,0
45.157283782958984,-10.467843055725098,-0.5270470380783081,-0.0,-0.0,-1.0,0.11775409646817574,1.0,0
42.79424285888672,-9.823488235473633,0.08636760711669922,-0.312566973114437,0.5915141466094379,-0.7432448463857567,0.11354618977490036,4.0,1
42.78356170654297,-9.851242065429688,0.06633245944976807,-0.312566973114437,0.5915141466094379,-0.7432448463857567,0.11354618977490034,4.0,1
45.04031753540039,-9.74539566040039,-0.5783631801605225,-0.0,-0.0,-1.0,0.16642779987304093,1.0,0
45.19676208496094,-10.227317810058594,-0.6314512491226196,-0.0,-0.0,-1.0,0.11485119034358623,1.0,0
43.26841735839844,-11.558706283569336,-0.5274432897567749,-0.0,-0.0,-1.0,0.016322776821004553,1.0,0
43.37416458129883,-11.314067840576172,-0.5125256776809692,-0.0,-0.0,-1.0,0.058765840350214156,2.0,0
43.96781539916992,-10.936689376831055,-0.5206223726272583,-0.0,-0.0,-1.0,0.045327516009086126,1.0,0
44.191768646240234,-11.286914825439453,-0.5681743621826172,-0.0,-0.0,-1.0,0.057766006035127125,1.0,0
44.67969512939453,-9.664409637451172,-0.462091326713562,-0.0,-0.0,-1.0,0.06585442232946354,1.0,0
44.6088981628418,-11.220527648925781,-0.5931388139724731,-0.0,-0.0,-1.0,0.06666499085087112,1.0,0
44.75508499145508,-9.640777587890625,-0.4659585952758789,-0.0,-0.0,-1.0,0.06908335787938255,1.0,0
44.9676628112793,-10.862800598144531,-0.5889928340911865,-0.0,-0.0,-1.0,0.10829393995586861,1.0,0
42.72218322753906,-10.831798553466797,-0.2799259424209595,-0.0,-0.0,-1.0,0.0497086894368138,1.0,0
43.36598205566406,-11.82851791381836,-0.42608046531677246,-0.0,-0.0,-1.0,0.016719186507631795,1.0,0
43.47359848022461,-11.210599899291992,-0.3728901147842407,-0.0,-0.0,-1.0,0.06966352505884511,1.0,0
43.759727478027344,-11.693992614746094,-0.44244372844696045,-0.0,-0.0,-1.0,0.051741435612240275,1.0,0
44.225257873535156,-11.232597351074219,-0.43434643745422363,-0.0,-0.0,-1.0,0.06797808037222189,2.0,0
44.061126708984375,-11.556241989135742,-0.45253443717956543,-0.0,-0.0,-1.0,0.06040498259862101,2.0,0
44.31329345703125,-11.119701385498047,-0.4306974411010742,-0.0,-0.0,-1.0,0.07112837026640252,1.0,0
44.63191604614258,-11.562767028808594,-0.4996911287307739,-0.0,-0.0,-1.0,0.018189956376040522,1.0,0
44.84407424926758,-9.996936798095703,-0.3704414367675781,-0.0,-0.0,-1.0,0.1038822878990618,2.0,0
44.863853454589844,-11.48275375366211,-0.5117735862731934,-0.0,-0.0,-1.0,0.013100562227511478,1.0,0
45.121334075927734,-10.670473098754883,-0.4579136371612549,-0.0,-0.0,-1.0,0.09351686802948395,1.0,0
44.29331588745117,-10.957956314086914,-0.5972250699996948,-0.0,-0.0,-1.0,0.07114654806031306,1.0,0
42.951515197753906,-9.460838317871094,-0.29386723041534424,-0.0,-0.0,-1.0,0.14438827567803192,1.0,0
43.31270217895508,-10.815412521362305,-0.48714375495910645,-0.0,-0.0,-1.0,0.016133512462273476,1.0,0
43.74290084838867,-9.508949279785156,-0.37559640407562256,-0.0,-0.0,-1.0,0.01751533337434543,1.0,0
43.722564697265625,-10.252284049987793,-0.4595952033996582,-0.0,-0.0,-1.0,0.01870615577858399,1.0,0
44.54301834106445,-10.238115310668945,-0.5402050018310547,-0.0,-0.0,-1.0,0.10359130680802875,1.0,0
44.481998443603516,-10.586284637451172,-0.5735195875167847,-0.0,-0.0,-1.0,0.05053629428742719,1.0,0
42.77076721191406,-9.845551490783691,0.08404064178466797,-0.312566973114437,0.5915141466094379,-0.7432448463857567,0.11354618977490034,4.0,1
42.73939514160156,-10.912595748901367,-0.48833000659942627,-0.0,-0.0,-1.0,0.04917430949310913,1.0,0
43.429962158203125,-9.46346664428711,-0.33821213245391846,-0.0,-0.0,-1.0,0.038633170918496336,1.0,0
43.24375915527344,-10.571250915527344,-0.47544538974761963,-0.0,-0.0,-1.0,0.012788728550766076,1.0,0
43.26411819458008,-10.736175537109375,-0.49977171421051025,-0.0,-0.0,-1.0,0.015859237514179444,1.0,0
43.68756866455078,-9.499554634094238,-0.3643321990966797,-0.0,-0.0,-1.0,0.0196454681918281,1.0,0
43.66801071166992,-10.270851135253906,-0.46660709381103516,-0.0,-0.0,-1.0,0.014610217840306949,1.0,0
43.705230712890625,-10.303853988647461,-0.4740726947784424,-0.0,-0.0,-1.0,0.024764916564209687,1.0,0
43.75217056274414,-10.867986679077148,-0.5545041561126709,-0.0,-0.0,-1.0,0.02858034010640752,1.0,0
44.2170295715332,-10.948171615600586,-0.6025429964065552,-0.0,-0.0,-1.0,0.06546900593002306,2.0,0
44.600460052490234,-9.628665924072266,-0.4625741243362427,-0.3064790274299914,0.8183460988158499,-0.4861895394786341,0.05592666593632461,3.0,0
44.40272521972656,-10.609840393066406,-0.5729753971099854,-0.0,-0.0,-1.0,0.03960050111781817,1.0,0
44.41886901855469,-10.855029106140137,-0.6069971323013306,-0.0,-0.0,-1.0,0.10770839237797776,1.0,0
44.713619232177734,-9.589821815490723,-0.468294620513916,-0.0,-0.0,-1.0,0.07544067086374918,2.0,0
42.9677619934082,-11.014880180358887,-0.4422290325164795,-0.0,-0.0,-1.0,0.04911797423198154,1.0,0
43.44541931152344,-10.62060832977295,-0.42351090908050537,-0.0,-0.0,-1.0,0.025660881400425446,1.0,0
43.1831169128418,-11.086420059204102,-0.4678163528442383,-0.0,-0.0,-1.0,0.055475179909980986,1.0,0
43.354248046875,-11.282034873962402,-0.5078928470611572,-0.0,-0.0,-1.0,0.05488739599514351,2.0,0
43.934268951416016,-10.89393138885498,-0.5006498098373413,-0.46659498199384297,-0.4760316679278111,-0.7454414624288289,0.036012090544976984,3.0,0
43.851497650146484,-10.999651908874512,-0.5081106424331665,-0.0,-0.0,-1.0,0.04253772955053649,2.0,0
43.655391693115234,-11.290434837341309,-0.5320836305618286,-0.0,-0.0,-1.0,0.040838765521691835,1.0,0
44.20982360839844,-10.283854484558105,-0.4432179927825928,-0.0,-0.0,-1.0,0.19163665849492714,1.0,0
44.483131408691406,-10.62730598449707,-0.513218879699707,-0.0,-0.0,-1.0,0.05245735497858374,1.0,0
44.24848937988281,-11.216925621032715,-0.5707794427871704,-0.0,-0.0,-1.0,0.06715643485781599,1.0,0
45.0975341796875,-9.706315040588379,-0.4555785655975342,-0.0,-0.0,-1.0,0.19868934920855036,1.0,0
44.639705657958984,-10.854296684265137,-0.5573327541351318,-0.0,-0.0,-1.0,0.11361742507449954,2.0,0
44.50249099731445,-11.172760009765625,-0.5870077610015869,-0.0,-0.0,-1.0,0.060403979627421105,1.0,0
45.08073425292969,-10.584711074829102,-0.564361572265625,0.05291225795553584,-0.7664937426430201,-0.6400684615313763,0.0824969294639805,3.0,0
42.73293685913086,-9.598870277404785,-0.22723042964935303,-0.0,-0.0,-1.0,0.10722206764760824,1.0,0
42.759002685546875,-9.834507942199707,0.08907878398895264,-0.312566973114437,0.5915141466094379,-0.7432448463857567,0.11354618977490036,4.0,1
45.16716766357422,-10.673383712768555,0.2462635040283203,-0.0,-0.0,-1.0,0.05759949413387437,1.0,1
42.826263427734375,-10.69302749633789,-0.5017019510269165,-0.0,-0.0,-1.0,0.03006588655715108,2.0,0
42.78641128540039,-10.69102954864502,-0.4977813959121704,-0.0,-0.0,-1.0,0.025930965342795202,2.0,0
44.207435607910156,-10.293132781982422,-0.582444429397583,-0.0,-0.0,-1.0,0.18936349100263916,1.0,0
44.2325439453125,-10.51604175567627,-0.6167529821395874,-0.0,-0.0,-1.0,0.06458865946163957,1.0,0
44.200199127197266,-10.568512916564941,-0.6206930875778198,-0.0,-0.0,-1.0,0.046290740810610936,1.0,0
43.756046295166016,-9.416435241699219,-0.4089864492416382,-0.0,-0.0,-1.0,0.01682460149208768,1.0,0
42.9893913269043,-11.152182579040527,-0.20199358463287354,-0.0,-0.0,-1.0,0.05316956212890448,1.0,0
44.36528778076172,-9.477378845214844,-0.48713791370391846,-0.0,-0.0,-1.0,0.025572668982603356,1.0,0
45.110233306884766,-9.64905834197998,-0.2240830659866333,-0.0,-0.0,-1.0,0.16403097010389808,1.0,0
42.83371353149414,-9.785992622375488,-0.029282808303833008,-0.0,-0.0,-1.0,0.1164053148689202,1.0,0
42.99945831298828,-10.633417129516602,-0.4863802194595337,-0.0,-0.0,-1.0,0.02032861043642813,1.0,0
42.73026657104492,-10.922317504882812,-0.32072651386260986,-0.0,-0.0,-1.0,0.044954064248652656,1.0,0
43.086124420166016,-10.673866271972656,-0.5020018815994263,-0.0,-0.0,-1.0,0.020192048644153682,1.0,0
42.90290069580078,-10.97294807434082,-0.34439802169799805,-0.0,-0.0,-1.0,0.05246017321493015,2.0,0
42.721588134765625,-11.317535400390625,-0.191300630569458,-0.0,-0.0,-1.0,0.05585491409404142,1.0,0
43.679100036621094,-10.45277214050293,-0.4380251169204712,-0.0,-0.0,-1.0,0.02767741213371904,1.0,0
43.578369140625,-10.494068145751953,-0.4275702238082886,-0.0,-0.0,-1.0,0.025663664830409206,2.0,0
44.11559295654297,-10.697749137878418,-0.523171067237854,-0.0,-0.0,-1.0,0.02702359273507191,1.0,0
43.95442199707031,-10.886628150939941,-0.5179280042648315,-0.0,-0.0,-1.0,0.030252960081526815,2.0,0
43.57155227661133,-11.047666549682617,-0.4795670509338379,-0.0,-0.0,-1.0,0.061049062776998765,2.0,0
43.86333084106445,-11.102681159973145,-0.5255165100097656,-0.0,-0.0,-1.0,0.031769516984505954,1.0,0
44.42686080932617,-10.99341106414795,-0.42407262325286865,-0.0,-0.0,-1.0,0.0691090781834286,2.0,0
44.69939422607422,-11.368406295776367,-0.4967581033706665,-0.0,-0.0,-1.0,0.07789514354118912,1.0,0
44.322654724121094,-11.277515411376953,-0.45223331451416016,-0.0,-0.0,-1.0,0.05210519653142018,1.0,0
44.07224655151367,-11.35612964630127,-0.44127893447875977,-0.0,-0.0,-1.0,0.091819249581552,1.0,0
44.63605880737305,-11.436351776123047,-0.5001477003097534,-0.0,-0.0,-1.0,0.02021603399985702,1.0,0
44.646121978759766,-10.04941177368164,-0.49103403091430664,-0.0,-0.0,-1.0,0.0680071432047384,1.0,0
45.105186462402344,-10.387458801269531,-0.5815861225128174,-0.0,-0.0,-1.0,0.13649097339096905,1.0,0
45.04920196533203,-10.546760559082031,-0.5912289619445801,-0.0,-0.0,-1.0,0.09456133497231624,2.0,0
44.59886169433594,-10.706802368164062,-0.49725115299224854,-0.5594497506065388,-0.3638782962412335,-0.7447204590118757,0.0748091231329946,3.0,0
44.75480651855469,-9.974851608276367,-0.4021263122558594,-0.0,-0.0,-1.0,0.08991350867621639,1.0,0
44.278499603271484,-10.168008804321289,-0.31109511852264404,-0.0,-0.0,-1.0,0.23102915861343606,1.0,0
44.919795989990234,-9.960333824157715,-0.4305107593536377,-0.3872631849503986,-0.6738188494560232,-0.6292816410001446,0.12039806224780719,3.0,0
44.87699890136719,-9.954544067382812,-0.4103727340698242,-0.0,-0.0,-1.0,0.10546744600087737,2.0,0
44.61039733886719,-10.053153991699219,-0.39358317852020264,-0.0,-0.0,-1.0,0.10488785609606316,1.0,0
44.93706512451172,-10.161136627197266,-0.4385671615600586,-0.0,-0.0,-1.0,0.09490434175200407,1.0,0
45.20835876464844,-10.509079933166504,-0.5039972066879272,-0.0,-0.0,-1.0,0.11775409646817574,1.0,0
42.83659362792969,-9.707003593444824,-0.17581379413604736,-0.0,-0.0,-1.0,0.11753317636281384,1.0,0
44.20237731933594,-10.232754707336426,-0.37183964252471924,-0.0,-0.0,-1.0,0.20629090355772345,1.0,0
44.019020080566406,-11.557990074157715,-0.4260600805282593,-0.0,-0.0,-1.0,0.04863165048982559,2.0,0
42.7741584777832,-10.323914527893066,-0.40368127822875977,-0.0,-0.0,-1.0,0.036665513048927914,1.0,0
43.60738754272461,-10.808501243591309,-0.4614288806915283,-0.0,-0.0,-1.0,0.04745639726822267,1.0,0
44.23876953125,-11.172320365905762,-0.505056619644165,-0.0,-0.0,-1.0,0.06616235443035749,1.0,0
44.535430908203125,-11.235625267028809,-0.5199801921844482,-0.0,-0.0,-1.0,0.03799039465584427,1.0,0
45.204322814941406,-9.576038360595703,-0.08055639266967773,-0.0,-0.0,-1.0,0.14336699615292092,1.0,0
44.33281326293945,-10.214863777160645,-0.23653793334960938,-0.0,-0.0,-1.0,0.20974860298255457,1.0,0
44.34801483154297,-11.165449142456055,-0.4458901882171631,-0.0,-0.0,-1.0,0.06830422575922485,1.0,0
44.688846588134766,-11.856557846069336,-0.4724966287612915,-0.0,-0.0,-1.0,0.01664564595984833,1.0,0
44.48919677734375,-11.114301681518555,-0.414404034614563,-0.0,-0.0,-1.0,0.07381869295739288,1.0,0
44.905052185058594,-11.857518196105957,-0.44993162155151367,-0.0,-0.0,-1.0,0.016079459130657513,1.0,0
43.462974548339844,-10.52376937866211,-0.48954451084136963,-0.0,-0.0,-1.0,0.028812007637325224,1.0,0
43.394248962402344,-10.662729263305664,-0.48766446113586426,-0.0,-0.0,-1.0,0.01851247254542356,1.0,0
45.20400619506836,-10.617807388305664,0.2217339277267456,-0.0,-0.0,-1.0,0.04964385954729754,1.0,1
44.43962097167969,-11.0039701461792,-0.4402083158493042,-0.0,-0.0,-1.0,0.06910907818342861,2.0,0
44.686866760253906,-10.699357032775879,-0.463672399520874,-0.0,-0.0,-1.0,0.17337105226384023,2.0,0
44.682579040527344,-10.788406372070312,-0.46293210983276367,0.32735549263978947,-0.41299620513235114,-0.8498661753387043,0.1441626779726255,3.0,0
44.84044647216797,-11.626822471618652,-0.4740314483642578,-0.0,-0.0,-1.0,0.015977039292025846,1.0,0
44.252586364746094,-10.191446304321289,-0.19148778915405273,-0.0,-0.0,-1.0,0.24895292473035854,2.0,0
43.92705535888672,-10.92227840423584,-0.4780324697494507,-0.0,-0.0,-1.0,0.04005370939608546,2.0,0
43.92589569091797,-11.00333023071289,-0.4803375005722046,-0.0,-0.0,-1.0,0.04632667724862453,2.0,0
44.43587112426758,-11.332697868347168,-0.5456141233444214,-0.0,-0.0,-1.0,0.043761669704158075,2.0,0
44.92832946777344,-11.021745681762695,-0.5899304151535034,-0.0,-0.0,-1.0,0.15349749564689705,1.0,0
43.890357971191406,-11.671974182128906,-0.4009186029434204,-0.0,-0.0,-1.0,0.05514910395552422,1.0,0
44.79283142089844,-10.53984260559082,-0.47421586513519287,-0.0,-0.0,-1.0,0.04410712643023171,1.0,0
44.6890754699707,-10.765100479125977,-0.47175538539886475,0.32735549263978947,-0.41299620513235114,-0.8498661753387043,0.17697743781012273,3.0,0
45.10653305053711,-10.71055793762207,-0.5197135210037231,-0.0,-0.0,-1.0,0.0971913968202459,1.0,0
45.09033966064453,-11.144392013549805,-0.5276371240615845,-0.0,-0.0,-1.0,0.10980220183397382,1.0,0
45.123870849609375,-9.955110549926758,-0.6671496629714966,-0.0,-0.0,-1.0,0.1147208170150149,1.0,0
44.89733123779297,-10.068352699279785,-0.6412924528121948,-0.0,-0.0,-1.0,0.11574640315123387,1.0,0
44.436180114746094,-10.448864936828613,-0.5924898386001587,-0.0,-0.0,-1.0,0.052087983836691276,1.0,0
45.01108932495117,-11.617573738098145,-0.561569094657898,-0.0,-0.0,-1.0,0.015469821428486448,1.0,0
44.830589294433594,-11.685253143310547,-0.5421983003616333,-0.0,-0.0,-1.0,0.014230800435825338,1.0,0
45.08518600463867,-11.696264266967773,-0.48374783992767334,-0.0,-0.0,-1.0,0.016064754453888802,1.0,0
43.0462532043457,-9.482002258300781,-0.4092118740081787,-0.0,-0.0,-1.0,0.11180804097202313,1.0,0
43.48572540283203,-11.725825309753418,-0.3773326873779297,-0.0,-0.0,-1.0,0.032384465323954725,1.0,0
43.70791244506836,-11.426155090332031,-0.432586669921875,-0.0,-0.0,-1.0,0.060941268209524405,1.0,0
43.872291564941406,-11.262237548828125,-0.46803760528564453,-0.0,-0.0,-1.0,0.0481219020280324,1.0,0
44.88326644897461,-9.573389053344727,-0.42029309272766113,-0.0,-0.0,-1.0,0.08126582782497145,1.0,0
42.98167419433594,-9.369032859802246,-0.24095487594604492,-0.0,-0.0,-1.0,0.13806115869090504,1.0,0
44.235591888427734,-10.04886245727539,-0.30390262603759766,-0.0,-0.0,-1.0,0.1741521652204645,1.0,0
42.80617141723633,-11.519561767578125,-0.4866158962249756,-0.0,-0.0,-1.0,0.04847609659557956,1.0,0
45.15455627441406,-10.519901275634766,-0.25801587104797363,-0.0,-0.0,-1.0,0.07003318675500345,1.0,0
44.245582580566406,-11.209342956542969,-0.468517541885376,-0.8854263053161167,0.11048419247167109,-0.4514570866296524,0.06882964492091069,3.0,0
44.91910934448242,-11.210121154785156,-0.5614817142486572,-0.0,-0.0,-1.0,0.12247600563783023,2.0,0
44.835914611816406,-10.8289794921875,-0.5829238891601562,-0.0,-0.0,-1.0,0.1691022988411784,1.0,0
44.04945373535156,-9.73004150390625,-0.5759508609771729,-0.0,-0.0,-1.0,0.039884762045075906,1.0,0
43.99699783325195,-9.676188468933105,-0.5740063190460205,-0.0,-0.0,-1.0,0.03025901738642823,1.0,0
44.02928161621094,-11.841636657714844,-0.3849658966064453,-0.0,-0.0,-1.0,0.03917710135099127,1.0,0
43.97040939331055,-11.652402877807617,-0.3926527500152588,-0.0,-0.0,-1.0,0.05421260639536652,1.0,0
44.16315460205078,-11.553983688354492,-0.4277513027191162,-0.0,-0.0,-1.0,0.03427984396748168,1.0,0
44.14000701904297,-11.311756134033203,-0.44511961936950684,-0.0,-0.0,-1.0,0.08893570784998744,1.0,0
42.976985931396484,-9.597341537475586,-0.4448814392089844,-0.0,-0.0,-1.0,0.10420222885842645,1.0,0
43.23460388183594,-9.664787292480469,-0.47275376319885254,-0.0,-0.0,-1.0,0.051756555831537335,1.0,0
43.525245666503906,-9.797467231750488,-0.4989430904388428,-0.0,-0.0,-1.0,0.023220724762554535,1.0,0
45.1625862121582,-10.674930572509766,-0.5174121856689453,-0.0,-0.0,-1.0,0.0784072038792822,1.0,0
44.65448760986328,-9.657358169555664,-0.5611774921417236,-0.0,-0.0,-1.0,0.05592666593632464,1.0,0
44.70722961425781,-9.709321975708008,-0.5622398853302002,-0.0,-0.0,-1.0,0.08081782241695358,1.0,0
43.50169372558594,-11.038006782531738,-0.2586226463317871,-0.0,-0.0,-1.0,0.056412727359382964,1.0,0
44.682106018066406,-10.703540802001953,-0.45061254501342773,-0.0,-0.0,-1.0,0.15080942339402928,2.0,0
43.22594451904297,-9.383344650268555,-0.4080634117126465,-0.0,-0.0,-1.0,0.0670462877337617,2.0,0
43.78235626220703,-9.384065628051758,-0.47935914993286133,-0.0,-0.0,-1.0,0.016387522987849745,1.0,0
44.109596252441406,-9.453912734985352,-0.5135281085968018,-0.0,-0.0,-1.0,0.017171279520174,1.0,0
44.30636978149414,-9.36435604095459,-0.5491864681243896,-0.0,-0.0,-1.0,0.022134432127971178,1.0,0
45.165626525878906,-10.526597023010254,0.16803646087646484,-0.0,-0.0,-1.0,0.08542383654989187,1.0,1
44.805023193359375,-11.06550121307373,-0.33300352096557617,-0.0,-0.0,-1.0,0.19167437839126353,1.0,0
45.13750076293945,-10.395515441894531,-0.45218348503112793,-0.0,-0.0,-1.0,0.13614965043202082,1.0,0
42.900115966796875,-9.529239654541016,-0.26517772674560547,-0.0,-0.0,-1.0,0.14438827567803197,1.0,0
44.56475067138672,-10.03187084197998,-0.41890907287597656,-0.0,-0.0,-1.0,0.11288483082666798,1.0,0
43.814048767089844,-9.403589248657227,-0.39713621139526367,-0.0,-0.0,-1.0,0.016387522987849745,2.0,0
44.59520721435547,-9.372196197509766,-0.5012364387512207,-0.0,-0.0,-1.0,0.03932364632953528,1.0,0
44.6498908996582,-9.563730239868164,-0.48534369468688965,-0.0,-0.0,-1.0,0.05592666593632463,2.0,0
45.206275939941406,-10.567920684814453,0.22574448585510254,-0.0,-0.0,-1.0,0.08542383654989189,2.0,1
42.91621017456055,-11.669292449951172,-0.47554469108581543,-0.0,-0.0,-1.0,0.05945040549110478,2.0,0
44.8056640625,-11.164722442626953,-0.24991393089294434,-0.0,-0.0,-1.0,0.10340591032618057,1.0,0
45.02086639404297,-10.286245346069336,-0.3808765411376953,-0.0,-0.0,-1.0,0.12395268233403378,1.0,0
45.198307037353516,-10.471376419067383,-0.38308238983154297,-0.0,-0.0,-1.0,0.09043743522386792,1.0,0
44.55836868286133,-9.478360176086426,-0.4171454906463623,-0.0,-0.0,-1.0,0.03932364632953528,1.0,0
42.92398452758789,-9.502790451049805,-0.20078277587890625,-0.0,-0.0,-1.0,0.1443882756780319,1.0,0
45.12534713745117,-10.538047790527344,0.263247013092041,-0.0,-0.0,-1.0,0.11709954310937962,1.0,1
42.853126525878906,-11.565134048461914,-0.43276143074035645,-0.0,-0.0,-1.0,0.050856320681245064,1.0,0
42.95769119262695,-11.663849830627441,-0.4369375705718994,-0.0,-0.0,-1.0,0.06021865459433488,2.0,0
42.78913879394531,-11.360788345336914,-0.4508936405181885,-0.0,-0.0,-1.0,0.05917939820544185,1.0,0
45.1419677734375,-10.548677444458008,-0.36432933807373047,-0.0,-0.0,-1.0,0.10727517662097232,1.0,0
44.97691345214844,-10.171958923339844,-0.38890647888183594,-0.0,-0.0,-1.0,0.09711228998792669,1.0,0
44.55514144897461,-9.422110557556152,-0.4289398193359375,-0.0,-0.0,-1.0,0.03932364632953528,1.0,0
44.226810455322266,-10.165595054626465,-0.2862527370452881,-0.0,-0.0,-1.0,0.24895292473035843,1.0,0
42.92253875732422,-9.586149215698242,-0.18751907348632812,-0.0,-0.0,-1.0,0.11625118016079379,1.0,0
45.17625427246094,-10.566274642944336,0.23264026641845703,-0.0,-0.0,-1.0,0.08542383654989187,2.0,1
43.57396697998047,-11.661520004272461,-0.4258437156677246,-0.0,-0.0,-1.0,0.0399446268990738,2.0,0
43.420249938964844,-11.285289764404297,-0.45519042015075684,-0.0,-0.0,-1.0,0.061665666136082674,1.0,0
43.665771484375,-11.396138191223145,-0.48099350929260254,-0.0,-0.0,-1.0,0.05097871193324344,2.0,0
43.54509735107422,-11.03693962097168,-0.5142560005187988,-0.0,-0.0,-1.0,0.06011541983987454,2.0,0
42.73743438720703,-10.165108680725098,-0.5162982940673828,-0.0,-0.0,-1.0,0.047131810119978176,1.0,0
45.135833740234375,-9.524740219116211,-0.4258289337158203,-0.0,-0.0,-1.0,0.17572839625852527,1.0,0
44.284950256347656,-10.185650825500488,-0.21755385398864746,-0.0,-0.0,-1.0,0.2352108510388106,2.0,0
44.908355712890625,-9.927810668945312,-0.33904528617858887,-0.0,-0.0,-1.0,0.11575539926827376,1.0,0
44.63978576660156,-10.971635818481445,-0.5586893558502197,-0.0,-0.0,-1.0,0.14899926629507695,1.0,0
44.81643295288086,-11.164658546447754,-0.5693652629852295,-0.0,-0.0,-1.0,0.137702980213799,1.0,0
44.451026916503906,-10.656274795532227,-0.562471866607666,-0.0,-0.0,-1.0,0.059861550979129236,1.0,0
44.730628967285156,-10.804256439208984,-0.5967845916748047,-0.0,-0.0,-1.0,0.11831611744938005,1.0,0
44.33642578125,-10.271275520324707,-0.5904109477996826,-0.0,-0.0,-1.0,0.17303150394219377,1.0,0
44.58171844482422,-10.439051628112793,-0.6145989894866943,-0.0,-0.0,-1.0,0.03511585838582661,1.0,0
44.79246139526367,-10.563665390014648,-0.6385655403137207,-0.0,-0.0,-1.0,0.058563732900585135,1.0,0
43.95995330810547,-9.918231010437012,-0.5683295726776123,-0.0,-0.0,-1.0,0.060476398764347024,1.0,0
44.10423278808594,-9.94155502319336,-0.5915372371673584,-0.0,-0.0,-1.0,0.09878793848134924,1.0,0
43.92544937133789,-11.813482284545898,-0.3194081783294678,-0.0,-0.0,-1.0,0.03808810042071102,1.0,0
44.39485168457031,-11.724214553833008,-0.42133498191833496,-0.0,-0.0,-1.0,0.013123982430635301,1.0,0
43.534934997558594,-11.233199119567871,-0.3154902458190918,-0.0,-0.0,-1.0,0.06751499074420857,1.0,0
44.218284606933594,-11.382589340209961,-0.42757439613342285,-0.0,-0.0,-1.0,0.06541243370136159,1.0,0
44.70030975341797,-11.60149097442627,-0.49529457092285156,-0.0,-0.0,-1.0,0.017976540368459512,1.0,0
44.7724609375,-11.273591995239258,-0.5479006767272949,-0.0,-0.0,-1.0,0.1055694795119223,1.0,0
42.716033935546875,-9.476582527160645,-0.40994906425476074,-0.0,-0.0,-1.0,0.14286815924521873,1.0,0
43.09075164794922,-9.641491889953613,-0.45130348205566406,-0.0,-0.0,-1.0,0.08864226740183241,1.0,0
43.25128936767578,-9.816521644592285,-0.45448827743530273,-0.0,-0.0,-1.0,0.057810280204215816,1.0,0
45.13423538208008,-10.627799987792969,-0.15138792991638184,-0.0,-0.0,-1.0,0.02184618668384442,1.0,0
42.89790725708008,-11.474042892456055,-0.34012842178344727,-0.0,-0.0,-1.0,0.048599725567978605,1.0,0
43.691864013671875,-11.817386627197266,-0.47334933280944824,-0.0,-0.0,-1.0,0.043654248720133654,1.0,0
43.22234344482422,-11.333803176879883,-0.42618370056152344,-0.0,-0.0,-1.0,0.03839016140730544,1.0,0
43.52689743041992,-11.397823333740234,-0.4841337203979492,-0.0,-0.0,-1.0,0.050776384348368175,1.0,0
43.84122085571289,-11.51894760131836,-0.5389177799224854,-0.0,-0.0,-1.0,0.04247227170061509,1.0,0
43.77573776245117,-11.101842880249023,-0.5723121166229248,-0.0,-0.0,-1.0,0.016333304616580065,1.0,0
42.840904235839844,-10.074383735656738,-0.5115354061126709,-0.0,-0.0,-1.0,0.06179885411013421,1.0,0
44.26848602294922,-10.329096794128418,-0.2554585933685303,-0.0,-0.0,-1.0,0.13384209907206918,1.0,0
45.179588317871094,-10.743074417114258,-0.3833589553833008,-0.0,-0.0,-1.0,0.10842506514250502,1.0,0
44.913536071777344,-10.160473823547363,-0.38977980613708496,-0.0,-0.0,-1.0,0.09054816751224087,1.0,0
44.943668365478516,-9.991064071655273,-0.41229677200317383,-0.0,-0.0,-1.0,0.13429225638421835,2.0,0
42.981910705566406,-9.75893497467041,-0.13293051719665527,-0.0,-0.0,-1.0,0.09949038968655605,1.0,0
45.00169372558594,-9.689292907714844,-0.6251580715179443,-0.0,-0.0,-1.0,0.12432902017448712,1.0,0
44.981990814208984,-10.600386619567871,-0.5502171516418457,-0.0,-0.0,-1.0,0.11300056842860656,1.0,0
44.52124786376953,-10.67074203491211,-0.4898221492767334,-0.5919797283337992,0.7011439093422172,-0.3974383217986837,0.07710081029395201,3.0,0
43.201202392578125,-9.366605758666992,-0.446697473526001,-0.0,-0.0,-1.0,0.0670462877337617,2.0,0
43.750953674316406,-10.787896156311035,-0.5776753425598145,-0.0,-0.0,-1.0,0.018795257149466487,1.0,0
43.359214782714844,-11.233327865600586,-0.49069643020629883,-0.0,-0.0,-1.0,0.04954196892204053,1.0,0
45.169132232666016,-10.377246856689453,-0.49251341819763184,-0.0,-0.0,-1.0,0.1361496504320208,1.0,0
44.53319549560547,-9.380090713500977,-0.5106306076049805,-0.0,-0.0,-1.0,0.03932364632953528,1.0,0
44.75311279296875,-10.979268074035645,-0.3970203399658203,-0.0,-0.0,-1.0,0.17946840568284944,1.0,0
44.83013153076172,-10.969691276550293,-0.5043895244598389,-0.0,-0.0,-1.0,0.23312609196967776,1.0,0
44.68303680419922,-10.644119262695312,-0.5287184715270996,-0.0,-0.0,-1.0,0.11167623122808938,1.0,0
44.793487548828125,-9.746050834655762,-0.48687291145324707,-0.0,-0.0,-1.0,0.07825820620328881,1.0,0
44.7669677734375,-9.558629989624023,-0.501450777053833,-0.0,-0.0,-1.0,0.07593276395069411,1.0,0
44.85620880126953,-10.939351081848145,-0.38680243492126465,-0.0,-0.0,-1.0,0.21290756872199446,1.0,0
43.253631591796875,-9.626992225646973,-0.336458683013916,-0.0,-0.0,-1.0,0.08094683415079951,1.0,0
43.14917755126953,-9.43190860748291,-0.3447751998901367,-0.0,-0.0,-1.0,0.10689066491122147,1.0,0
42.71991729736328,-11.5256986618042,-0.10285353660583496,-0.0,-0.0,-1.0,0.05086637890793967,1.0,0
44.83245086669922,-10.85141372680664,-0.3758656978607178,-0.0,-0.0,-1.0,0.1574852338749804,1.0,0
44.63971710205078,-9.617984771728516,-0.4693422317504883,-0.0,-0.0,-1.0,0.055926665936324615,2.0,0
44.71748352050781,-10.807437896728516,-0.3670225143432617,-0.0,-0.0,-1.0,0.1333466351065678,1.0,0
43.849830627441406,-9.371293067932129,-0.40874719619750977,-0.0,-0.0,-1.0,0.014955885554098661,2.0,0
42.99314880371094,-9.371725082397461,-0.318073034286499,-0.0,-0.0,-1.0,0.13806115869090507,1.0,0
44.872955322265625,-11.008891105651855,-0.6307542324066162,-0.0,-0.0,-1.0,0.16968784355352518,1.0,0
44.80067443847656,-10.851822853088379,-0.6321923732757568,-0.0,-0.0,-1.0,0.1381471223657459,1.0,0
44.22697830200195,-11.368048667907715,-0.5194137096405029,-0.0,-0.0,-1.0,0.05333579813855728,1.0,0
43.97029113769531,-11.693387031555176,-0.46279120445251465,-0.0,-0.0,-1.0,0.03892076874693339,1.0,0
43.29331970214844,-9.808868408203125,-0.5151987075805664,-0.0,-0.0,-1.0,0.059874181536503014,1.0,0
43.027488708496094,-9.754826545715332,-0.48574066162109375,-0.0,-0.0,-1.0,0.08276509282856305,1.0,0
42.918235778808594,-11.662046432495117,-0.46039652824401855,0.4925925190809799,0.5968602266066801,-0.6333328351194792,0.05945040549110478,4.0,0
42.7244987487793,-10.414226531982422,-0.5225248336791992,-0.0,-0.0,-1.0,0.04098987252498239,1.0,0
42.722206115722656,-10.270896911621094,-0.5358796119689941,-0.0,-0.0,-1.0,0.043293235902821144,1.0,0
42.88563919067383,-11.631417274475098,-0.46224498748779297,-0.0,-0.0,-1.0,0.056632379642558885,2.0,0
44.402099609375,-9.786599159240723,-0.5648946762084961,-0.0,-0.0,-1.0,0.027017015666342774,1.0,0
44.32034683227539,-9.936067581176758,-0.5483639240264893,-0.0,-0.0,-1.0,0.0904899629811709,1.0,0
44.0662727355957,-9.70283031463623,-0.518704891204834,-0.0,-0.0,-1.0,0.04055520836047129,1.0,0
43.987876892089844,-9.591876983642578,-0.510981559753418,-0.0,-0.0,-1.0,0.030532229308968706,1.0,0
43.667930603027344,-9.595405578613281,-0.46448469161987305,-0.0,-0.0,-1.0,0.019841674489857852,1.0,0
43.943321228027344,-11.545736312866211,-0.45308542251586914,-0.0,-0.0,-1.0,0.04373468854370077,1.0,0
43.756935119628906,-11.750353813171387,-0.4216279983520508,-0.0,-0.0,-1.0,0.04625695320491825,2.0,0
42.70954895019531,-11.439102172851562,-0.2722654342651367,-0.0,-0.0,-1.0,0.05248593864145276,1.0,0
42.76362228393555,-10.31617259979248,-0.500525951385498,-0.0,-0.0,-1.0,0.03281644421228569,1.0,0
43.41188049316406,-10.085749626159668,-0.5184617042541504,-0.0,-0.0,-1.0,0.011472632651164022,1.0,0
43.18075942993164,-9.799027442932129,-0.4977545738220215,-0.0,-0.0,-1.0,0.0664242489469658,1.0,0
43.46300506591797,-11.754034042358398,-0.4711923599243164,-0.0,-0.0,-1.0,0.03238446532395473,1.0,0
43.22089385986328,-11.846275329589844,-0.4348177909851074,-0.0,-0.0,-1.0,0.015761114320409147,1.0,0
44.86388397216797,-10.152803421020508,-0.5147800445556641,-0.0,-0.0,-1.0,0.10698474995184035,1.0,0
44.46992492675781,-9.733596801757812,-0.4709041118621826,-0.0,-0.0,-1.0,0.041346555941279964,1.0,0
44.495643615722656,-9.5413179397583,-0.4780745506286621,-0.0,-0.0,-1.0,0.03932364632953528,1.0,0
44.576393127441406,-10.729820251464844,-0.46912550926208496,-0.0,-0.0,-1.0,0.09109935740069934,2.0,0
44.583553314208984,-11.778133392333984,-0.4611334800720215,-0.0,-0.0,-1.0,0.016220602792371364,2.0,0
43.04949188232422,-9.475613594055176,-0.2913351058959961,-0.0,-0.0,-1.0,0.1380611586909051,1.0,0
44.86273956298828,-10.015863418579102,-0.6268577575683594,-0.0,-0.0,-1.0,0.12313751837782683,1.0,0
44.286216735839844,-10.107660293579102,-0.5541868209838867,-0.0,-0.0,-1.0,0.2310291586134361,1.0,0
44.2102165222168,-9.815239906311035,-0.5362601280212402,-0.0,-0.0,-1.0,0.0511323695772105,1.0,0
43.28178405761719,-9.437044143676758,-0.40546202659606934,-0.0,-0.0,-1.0,0.058438214593943785,1.0,0
43.18339538574219,-9.672212600708008,-0.398517370223999,-0.0,-0.0,-1.0,0.08750593053185826,1.0,0
42.90425491333008,-9.397027969360352,-0.3552815914154053,-0.0,-0.0,-1.0,0.13307539096702684,1.0,0
42.810585021972656,-11.646247863769531,-0.41226816177368164,-0.0,-0.0,-1.0,0.05329486549852498,1.0,0
43.057106018066406,-9.99728012084961,-0.40261340141296387,-0.0,-0.0,-1.0,0.07997972360543541,1.0,0
42.838096618652344,-9.561700820922852,-0.29323649406433105,-0.0,-0.0,-1.0,0.14286815924521867,1.0,0
45.18374252319336,-10.559491157531738,-0.485062837600708,-0.0,-0.0,-1.0,0.1242365092124845,2.0,0
45.03904342651367,-10.579330444335938,-0.5742514133453369,0.1403903341602375,-0.4917376523114269,-0.8593512875265987,0.08554178169275221,3.0,0
44.597190856933594,-9.652297973632812,-0.5002903938293457,-0.0,-0.0,-1.0,0.06461189271984545,2.0,0
43.54513168334961,-10.557413101196289,-0.400432825088501,-0.0,-0.0,-1.0,0.03010909589266727,2.0,0
45.130088806152344,-10.620598793029785,-0.5324127674102783,-0.0,-0.0,-1.0,0.08249692946398057,1.0,0
44.651798248291016,-9.707475662231445,-0.4519157409667969,-0.0,-0.0,-1.0,0.06568441856001477,1.0,0
44.6677131652832,-10.753692626953125,-0.48552751541137695,0.14673923839950168,-0.47067690412605556,-0.8700177284608892,0.14476604313497887,4.0,0
45.10841751098633,-10.571739196777344,-0.5776071548461914,-0.0,-0.0,-1.0,0.08890851403549746,2.0,0
44.91747283935547,-10.754789352416992,-0.5632812976837158,-0.0,-0.0,-1.0,0.08262813444346524,1.0,0
44.71281433105469,-10.594883918762207,-0.5352611541748047,-0.0,-0.0,-1.0,0.09830234887583679,1.0,0
44.30317306518555,-10.359111785888672,-0.5412182807922363,-0.0,-0.0,-1.0,0.14748410549010918,1.0,0
43.51390838623047,-10.610673904418945,-0.4707765579223633,-0.0,-0.0,-1.0,0.024587139079986213,1.0,0
43.35173416137695,-10.571479797363281,-0.4525458812713623,-0.0,-0.0,-1.0,0.017115442347619164,1.0,0
43.36427307128906,-10.493978500366211,-0.49531984329223633,-0.0,-0.0,-1.0,0.014440376304912881,1.0,0
44.95582962036133,-11.181137084960938,-0.5442888736724854,-0.0,-0.0,-1.0,0.12877452268635414,2.0,0
43.555206298828125,-10.525794982910156,-0.4293663501739502,-0.07288586655843779,-0.3681367746726899,-0.9269104409756179,0.028360117119418413,4.0,0
45.115203857421875,-11.81576919555664,-0.40646815299987793,-0.0,-0.0,-1.0,0.016065991684282237,2.0,0
42.997047424316406,-10.95724105834961,-0.4202606678009033,-0.0,-0.0,-1.0,0.0447648473653703,1.0,0
43.34166717529297,-11.069921493530273,-0.48229265213012695,-0.0,-0.0,-1.0,0.051442655561963285,1.0,0
44.135765075683594,-11.509248733520508,-0.45144009590148926,-0.0,-0.0,-1.0,0.05301406484946316,1.0,0
44.098228454589844,-11.678136825561523,-0.4477508068084717,-0.0,-0.0,-1.0,0.04214389998625584,2.0,0
44.638702392578125,-11.799489974975586,-0.5028250217437744,-0.0,-0.0,-1.0,0.018054283286137153,1.0,0
43.1923828125,-10.676204681396484,-0.45249485969543457,-0.0,-0.0,-1.0,0.015035240670867823,1.0,0
44.61194610595703,-11.631505966186523,-0.4605231285095215,-0.0,-0.0,-1.0,0.01915393720360558,1.0,0
44.84786605834961,-11.425540924072266,-0.4784693717956543,-0.0,-0.0,-1.0,0.052903582661199745,1.0,0
45.092227935791016,-11.253028869628906,-0.49968767166137695,-0.0,-0.0,-1.0,0.07307517656998169,1.0,0
43.83667755126953,-10.968240737915039,-0.5411767959594727,-0.0,-0.0,-1.0,0.04251546508994349,2.0,0
44.52750778198242,-10.869274139404297,-0.5900087356567383,-0.0,-0.0,-1.0,0.12498633030549113,1.0,0
44.87363052368164,-10.687667846679688,-0.5930876731872559,-0.0,-0.0,-1.0,0.06448038402746306,1.0,0
45.16855239868164,-10.461444854736328,-0.5842609405517578,-0.0,-0.0,-1.0,0.11775409646817578,1.0,0
43.43220520019531,-10.55561637878418,-0.4355196952819824,-0.0,-0.0,-1.0,0.019732627570779274,1.0,0
45.092769622802734,-11.823882102966309,-0.42252111434936523,-0.0,-0.0,-1.0,0.016065991684282237,2.0,0
45.18894577026367,-11.698607444763184,-0.4102163314819336,-0.0,-0.0,-1.0,0.014142292186658101,1.0,0
44.5494384765625,-11.419861793518066,-0.5099711418151855,-0.0,-0.0,-1.0,0.03171700458504864,1.0,0
44.715721130371094,-11.241883277893066,-0.4982271194458008,-0.0,-0.0,-1.0,0.11225941621414218,1.0,0
43.72330093383789,-11.703429222106934,-0.2799043655395508,-0.0,-0.0,-1.0,0.05056752374673008,1.0,0
44.035797119140625,-11.483338356018066,-0.3477935791015625,-0.0,-0.0,-1.0,0.07515774439809393,1.0,0
44.614505767822266,-11.391477584838867,-0.448514461517334,-0.0,-0.0,-1.0,0.030511552569957846,1.0,0
45.05012130737305,-11.27547836303711,-0.5280237197875977,-0.0,-0.0,-1.0,0.07771262162584829,1.0,0
44.57450866699219,-10.323637008666992,-0.5262594223022461,-0.0,-0.0,-1.0,0.08802701334112308,1.0,0
44.825130462646484,-9.822671890258789,-0.6060800552368164,-0.0,-0.0,-1.0,0.1171370764214662,1.0,0
43.553646087646484,-11.637772560119629,-0.4060807228088379,-0.0,-0.0,-1.0,0.039588927734983737,2.0,0
43.599056243896484,-11.473326683044434,-0.42267322540283203,-0.0,-0.0,-1.0,0.06196862749516591,1.0,0
43.58147048950195,-9.83714485168457,-0.5112295150756836,-0.0,-0.0,-1.0,0.02253396182672013,1.0,0
43.518768310546875,-10.093149185180664,-0.4865560531616211,-0.0,-0.0,-1.0,0.007457860405927038,1.0,0
43.55525588989258,-9.495709419250488,-0.5261263847351074,-0.0,-0.0,-1.0,0.020496298058523627,2.0,0
42.82900619506836,-9.717211723327637,-0.24982738494873047,-0.0,-0.0,-1.0,0.11154931943267998,1.0,0
42.754756927490234,-10.054030418395996,-0.21210956573486328,-0.0,-0.0,-1.0,0.0759281247566144,1.0,0
43.94615936279297,-11.293046951293945,-0.3176889419555664,-0.0,-0.0,-1.0,0.06315258967852254,1.0,0
44.103309631347656,-10.873350143432617,-0.3756260871887207,-0.0,-0.0,-1.0,0.03847499175829399,1.0,0
44.47678756713867,-11.687836647033691,-0.3764963150024414,-0.0,-0.0,-1.0,0.017687469073461477,1.0,0
44.57613754272461,-9.879487037658691,-0.5293564796447754,-0.0,-0.0,-1.0,0.07695263567640859,1.0,0
44.74737548828125,-10.828202247619629,-0.4866061210632324,-0.0,-0.0,-1.0,0.19736677465735122,2.0,0
45.19133377075195,-10.36723804473877,-0.5954418182373047,-0.0,-0.0,-1.0,0.1364909733909691,1.0,0
45.137943267822266,-10.725829124450684,-0.5595488548278809,-0.0,-0.0,-1.0,0.07411813430923304,1.0,0
45.193809509277344,-9.43829345703125,-0.6655426025390625,-0.0,-0.0,-1.0,0.1589352131975294,1.0,0
43.94184494018555,-11.466979026794434,-0.39049863815307617,-0.0,-0.0,-1.0,0.06827954785843136,1.0,0
42.74552536010742,-10.010540962219238,-0.34677982330322266,-0.0,-0.0,-1.0,0.1016368460233273,1.0,0
43.536006927490234,-9.471552848815918,-0.5555968284606934,-0.0,-0.0,-1.0,0.023122253953066108,2.0,0
