x,y,z,nx,ny,nz,curvature,density
22.319608688354492,16.92784881591797,-1.312482476234436,-0.0,-0.0,-1.0,0.07676911250253655,1.0
22.336421966552734,16.65228271484375,-1.3035968542099,0.16148471612750248,-0.464056789152275,-0.8709615277949428,0.08931559559423376,4.0
22.468852996826172,16.262500762939453,-1.2815417051315308,-0.0,-0.0,-1.0,0.08192316022547068,1.0
22.46440887451172,15.999533653259277,-1.2753692865371704,-0.0,-0.0,-1.0,0.05650373215495579,1.0
22.478961944580078,15.755634307861328,-1.268164038658142,-0.0,-0.0,-1.0,0.052409437819739016,2.0
23.610572814941406,15.70814323425293,-1.1643394231796265,-0.0,-0.0,-1.0,0.13638142350542767,1.0
23.500118255615234,15.795583724975586,-1.2924962043762207,-0.8949949421180979,-0.3924633994237114,-0.2120295585426873,0.23463401083206428,3.0
22.05331802368164,17.432411193847656,-1.1169239282608032,-0.0,-0.0,-1.0,0.11134332705854404,1.0
22.428028106689453,17.63092613220215,-1.1055123805999756,-0.0,-0.0,-1.0,0.07026607789862878,1.0
22.010421752929688,17.350399017333984,-1.1479718685150146,-0.7285382796049195,-0.6057254830254734,0.3198884404974029,0.08783185829003028,3.0
22.01063346862793,16.834396362304688,-1.1525683403015137,-0.0,-0.0,-1.0,0.05147623002952957,1.0
22.054420471191406,17.058141708374023,-1.1462252140045166,-0.0,-0.0,-1.0,0.1104863007458405,1.0
21.929428100585938,16.710838317871094,-1.1616888046264648,-0.0,-0.0,-1.0,0.040774769903765495,1.0
21.75304412841797,16.604820251464844,-1.1799471378326416,-0.0,-0.0,-1.0,0.024456195313763997,1.0
22.611783981323242,17.579713821411133,-1.2336193323135376,-0.0,-0.0,-1.0,0.21386954084114274,1.0
22.374385833740234,17.576364517211914,-1.2605992555618286,-0.0,-0.0,-1.0,0.12559527747752686,1.0
22.380056381225586,17.21110725402832,-1.265867829322815,0.5731387334612084,0.6065493796867862,-0.5510080237238445,0.06969427536904277,5.0
22.152748107910156,17.195755004882812,-1.292049765586853,0.502717994986077,-0.8255657131780267,-0.2563510693210282,0.18441779016708826,5.0
22.223913192749023,16.735437393188477,-1.2927690744400024,-0.5213541233460414,-0.661558580150325,-0.5390084629201722,0.035329139378546884,4.0
22.12685203552246,16.961444854736328,-1.29932701587677,-0.0,-0.0,-1.0,0.09416694556780801,1.0
22.362869262695312,16.174190521240234,-1.2894145250320435,-0.0,-0.0,-1.0,0.090916403859982,1.0
22.247438430786133,16.44027328491211,-1.2964707612991333,0.977841287583812,-0.20619343079717728,-0.03620338924081422,0.06884816107355156,3.0
22.39423179626465,15.885834693908691,-1.293087124824524,-0.0,-0.0,-1.0,0.06301068865879057,1.0
22.9428653717041,17.502914428710938,-1.283884048461914,-0.0,-0.0,-1.0,0.11558003189160897,1.0
22.568500518798828,17.420015335083008,-1.329674482345581,-0.0,-0.0,-1.0,0.06020993137944911,1.0
22.45374298095703,16.99371337890625,-1.3480174541473389,-0.13967606437278535,-0.22601334063289488,-0.9640583835522044,0.06228980811814451,5.0
23.663299560546875,16.093151092529297,-1.2133543491363525,0.46729221811439964,-0.774724635016393,0.42595741898509215,0.11686062785066872,4.0
23.625110626220703,16.360164642333984,-1.2143371105194092,-0.0,-0.0,-1.0,0.11690587015787601,1.0
22.556608200073242,16.380626678466797,-1.3432700634002686,-0.0,-0.0,-1.0,0.10552917375001179,2.0
22.454627990722656,16.793344497680664,-1.35025954246521,-0.0,-0.0,-1.0,0.11428145102744167,2.0
23.602914810180664,15.988850593566895,-1.2221596240997314,-0.0,-0.0,-1.0,0.18541569636590616,1.0
23.500926971435547,15.82553482055664,-1.2369754314422607,0.0857504744918955,0.24851771644003895,-0.9648242330807429,0.1839068000681642,4.0
22.49786949157715,17.576122283935547,-1.194562315940857,-0.0,-0.0,-1.0,0.13306995674638783,1.0
22.117046356201172,17.254899978637695,-1.246264100074768,-0.0,-0.0,-1.0,0.1180549832692131,2.0
21.94137954711914,16.948015213012695,-1.2732611894607544,-0.0,-0.0,-1.0,0.051824872373365985,1.0
22.319602966308594,16.447511672973633,-1.236925721168518,-0.0,-0.0,-1.0,0.0941890048573287,1.0
22.07636833190918,16.38367462158203,-1.2679637670516968,-0.0,-0.0,-1.0,0.027115616942749356,1.0
22.26597785949707,16.016538619995117,-1.2527235746383667,-0.0,-0.0,-1.0,0.06326595826761872,2.0
22.283662796020508,15.672506332397461,-1.2584363222122192,0.11048776585427349,0.9938771809085308,-0.0007764443591318987,0.04789141751540379,4.0
22.09377098083496,17.43619155883789,-1.1729079484939575,0.568677694526326,-0.8158805108343838,0.10461678540677649,0.09612255037546259,3.0
21.95049285888672,15.652925491333008,-1.1919022798538208,-0.0,-0.0,-1.0,0.052834958874994106,1.0
21.861867904663086,15.884241104125977,-1.2017689943313599,0.6426543212927441,-0.6858780424643595,-0.3414187080243561,0.07143267167725144,4.0
21.721033096313477,17.446727752685547,-1.0366770029067993,0.29785491785222346,-0.759919047424657,0.5777590235318246,0.14012791084399637,5.0
22.039270401000977,17.61724090576172,-0.9991916418075562,-0.0,-0.0,-1.0,0.15040904203209093,1.0
21.98528480529785,17.449039459228516,-1.007243275642395,-0.7711376941509984,-0.17504821055452244,-0.6121313426390946,0.16241246566593623,3.0
21.981063842773438,17.4644832611084,-1.0842195749282837,-0.12058630612030978,-0.7239116891936054,-0.6792722642837111,0.13719556730057758,3.0
21.73818016052246,17.35141372680664,-1.1206098794937134,-0.0,-0.0,-1.0,0.11724470150115855,1.0
21.89612579345703,15.6537446975708,-1.14085853099823,-0.0,-0.0,-1.0,0.0511415183317857,2.0
21.81639289855957,15.903568267822266,-1.144680142402649,-0.0,-0.0,-1.0,0.15549167876777284,1.0
22.164777755737305,17.5891056060791,-1.130855679512024,-0.1832020302354441,0.5717261705905429,-0.7997288302790418,0.1699159523562131,3.0
22.069868087768555,17.548259735107422,-1.1456986665725708,-0.21108285668838064,0.4703836009245912,-0.8568449659031017,0.12850445983038122,4.0
21.831249237060547,17.236534118652344,-1.1850053071975708,-0.0,-0.0,-1.0,0.08446630206531966,2.0
21.891544342041016,15.894681930541992,-1.1943305730819702,0.6426543212927441,-0.6858780424643595,-0.3414187080243561,0.07334620691803034,4.0
22.792179107666016,17.554283142089844,-1.305177927017212,-0.0,-0.0,-1.0,0.1992585870834256,1.0
22.643573760986328,17.42257308959961,-1.3312687873840332,-0.0,-0.0,-1.0,0.07940018642239768,1.0
22.543224334716797,17.254940032958984,-1.3488328456878662,-0.38284188651814943,-0.1679263318206735,-0.908423269741852,0.0385157892663053,5.0
22.491727828979492,16.78793716430664,-1.3579339981079102,-0.0,-0.0,-1.0,0.12427481641346795,2.0
22.48677635192871,16.973081588745117,-1.3586654663085938,-0.5138980644014555,-0.2418932368633608,-0.8230409718623998,0.044310320694842364,4.0
22.56407928466797,16.400623321533203,-1.3463833332061768,-0.0,-0.0,-1.0,0.100542612720221,2.0
23.458637237548828,15.731273651123047,-1.1889328956604004,-0.0,-0.0,-1.0,0.1648598002179268,2.0
22.58159637451172,15.94334888458252,-1.3469650745391846,-0.0,-0.0,-1.0,0.02060178588430508,2.0
21.844829559326172,17.50039291381836,-0.9159455299377441,-0.0,-0.0,-1.0,0.1616113672219455,1.0
21.801345825195312,17.619535446166992,-0.9221365451812744,-0.0,-0.0,-1.0,0.12001365765739315,2.0
22.127885818481445,17.46180534362793,-1.1585943698883057,-0.0,-0.0,-1.0,0.0868244965743507,2.0
21.99466896057129,17.23013687133789,-1.1833536624908447,0.6955243078421116,-0.6619348944497855,0.2794425391927706,0.07020571400845738,5.0
21.75458335876465,17.08112907409668,-1.2270357608795166,0.460294103253065,-0.04046990097814784,-0.8868435744962443,0.05173943839052653,4.0
21.77227783203125,16.31256866455078,-1.2340407371520996,-0.0,-0.0,-1.0,0.021753532807722537,1.0
22.00625991821289,15.766420364379883,-1.203291416168213,-0.0,-0.0,-1.0,0.06891575655196659,2.0
21.912799835205078,15.994590759277344,-1.214939832687378,-0.0,-0.0,-1.0,0.05809572702305852,1.0
23.656391143798828,17.3884334564209,-1.4475200176239014,-0.0,-0.0,-1.0,0.047241120390814365,1.0
23.594764709472656,17.27645492553711,-1.4605216979980469,-0.0,-0.0,-1.0,0.041047025598404674,1.0
22.534578323364258,17.530658721923828,-1.2429571151733398,0.4753698120910135,-0.786979902643981,-0.3933016330846147,0.16385900387027563,3.0
22.31414031982422,17.540122985839844,-1.286670446395874,-0.0,-0.0,-1.0,0.09772003663739648,1.0
22.137847900390625,17.172292709350586,-1.3202393054962158,0.7728433864360353,-0.6280063512416313,0.0912201887865507,0.21646950467470782,4.0
22.317203521728516,16.609575271606445,-1.2861995697021484,-0.0,-0.0,-1.0,0.048612825168600805,2.0
22.13791275024414,16.855018615722656,-1.3205938339233398,-0.0,-0.0,-1.0,0.03760929596710196,1.0
22.25984764099121,16.33728790283203,-1.3001830577850342,-0.0,-0.0,-1.0,0.07857190081590873,2.0
22.324443817138672,15.709123611450195,-1.2971899509429932,-0.8369578745674329,-0.09934316082052282,-0.5381751133207046,0.053871960914647535,5.0
22.30758285522461,15.888104438781738,-1.297135829925537,-0.0,-0.0,-1.0,0.0573386657044886,2.0
23.101707458496094,17.47482681274414,-1.3575448989868164,0.7402232315069844,-0.29554367752199123,-0.6039234241310192,0.13936657728776297,3.0
22.929832458496094,17.183849334716797,-1.3969056606292725,-0.0,-0.0,-1.0,0.05507990375700507,1.0
22.91201400756836,16.870473861694336,-1.4007859230041504,-0.0,-0.0,-1.0,0.009688128375732238,1.0
21.740737915039062,17.10562515258789,-1.228456735610962,-0.0,-0.0,-1.0,0.053566885890838266,2.0
23.652374267578125,16.081653594970703,-1.2273881435394287,0.46729221811439964,-0.774724635016393,0.42595741898509215,0.1510718654389464,4.0
23.037723541259766,16.249576568603516,-1.3749854564666748,-0.0,-0.0,-1.0,0.015450043081459447,1.0
22.986053466796875,16.360294342041016,-1.3861896991729736,-0.0,-0.0,-1.0,0.016917449022263463,1.0
23.449295043945312,15.808348655700684,-1.2826759815216064,-0.0,-0.0,-1.0,0.16075684763232967,2.0
23.238906860351562,15.856053352355957,-1.3329627513885498,-0.0,-0.0,-1.0,0.06269047715595522,1.0
21.75579071044922,16.383806228637695,-1.2323243618011475,-0.0,-0.0,-1.0,0.0163213337530421,1.0
22.12902069091797,17.37396240234375,-1.1479101181030273,-0.0,-0.0,-1.0,0.09663769801891701,2.0
22.12619400024414,17.513118743896484,-1.1488678455352783,0.9161074898213658,-0.3552741982364085,-0.18581526083902083,0.1641007138194046,3.0
21.986286163330078,17.245372772216797,-1.1773607730865479,0.22776530635800077,0.46238089959952344,-0.856928742023035,0.07126645391198934,3.0
21.930898666381836,16.09821319580078,-1.2007973194122314,-0.0,-0.0,-1.0,0.06631387490574782,2.0
22.04562759399414,15.669266700744629,-1.1867728233337402,-0.5182615902831169,-0.8223430109867245,0.23485505384918212,0.05145296517595348,4.0
21.94570541381836,15.881913185119629,-1.2023656368255615,-0.0,-0.0,-1.0,0.07729929312043399,1.0
23.09866714477539,17.515501022338867,-1.381176233291626,-0.9734951960219377,-0.228282755485669,0.013931506382256145,0.13430936952760153,4.0
23.034908294677734,17.235471725463867,-1.4000537395477295,-0.0,-0.0,-1.0,0.13139964219374087,1.0
22.193084716796875,17.463871002197266,-1.2139678001403809,-0.0,-0.0,-1.0,0.06251841544822362,1.0
23.657974243164062,16.497230529785156,-1.244067668914795,-0.0,-0.0,-1.0,0.0687549050679912,1.0
23.027263641357422,16.69770050048828,-1.410067081451416,-0.0,-0.0,-1.0,0.02960352533288092,1.0
22.996170043945312,16.88051414489746,-1.415076494216919,-0.0,-0.0,-1.0,0.00957472439681752,2.0
21.975481033325195,17.116531372070312,-1.2694203853607178,-0.0,-0.0,-1.0,0.1503402429131548,1.0
23.606117248535156,16.253129959106445,-1.264939308166504,-0.0,-0.0,-1.0,0.10716375091551035,2.0
23.228090286254883,16.4634952545166,-1.3613100051879883,-0.0,-0.0,-1.0,0.0781299873820761,2.0
21.968246459960938,16.735713958740234,-1.2789781093597412,-0.0,-0.0,-1.0,0.040102164633504196,1.0
23.587488174438477,15.715981483459473,-1.2899858951568604,-0.37719918930975815,0.5571296090342778,-0.7398157678242424,0.2627760277812769,3.0
23.459388732910156,15.857038497924805,-1.31888747215271,-0.949231291965368,-0.05108981831918957,-0.31040261728579205,0.18976451362276117,3.0
22.161712646484375,16.174272537231445,-1.249819278717041,-0.0,-0.0,-1.0,0.1096737943609752,1.0
22.02587127685547,16.42569923400879,-1.2736170291900635,-0.0,-0.0,-1.0,0.025665568869722634,1.0
22.250574111938477,15.80393123626709,-1.242673635482788,-0.0,-0.0,-1.0,0.05800781212956674,2.0
22.993968963623047,17.51398468017578,-1.316013216972351,-0.0,-0.0,-1.0,0.1888785121484003,1.0
22.770790100097656,17.349395751953125,-1.3791390657424927,-0.0,-0.0,-1.0,0.07562482883018702,2.0
22.70708465576172,16.98662757873535,-1.3986741304397583,-0.0,-0.0,-1.0,0.05062731240234715,1.0
21.80126953125,17.051820755004883,-1.2699640989303589,-0.0,-0.0,-1.0,0.050494221056565175,1.0
22.76668357849121,16.454511642456055,-1.3898707628250122,-0.0,-0.0,-1.0,0.024431135439084803,2.0
22.725906372070312,16.669769287109375,-1.3971666097640991,-0.0,-0.0,-1.0,0.048827144521033275,1.0
21.788436889648438,16.88821029663086,-1.2753781080245972,-0.0,-0.0,-1.0,0.04049151295463438,1.0
22.98077392578125,15.872645378112793,-1.3466252088546753,-0.0,-0.0,-1.0,0.03316466565884515,2.0
22.82250213623047,16.142818450927734,-1.3826388120651245,0.5323003206952862,0.8350867691966706,-0.1388756872183262,0.01254328199995163,3.0
22.124645233154297,17.52903175354004,-1.1869288682937622,0.5040108880512857,-0.7570276965196556,-0.4157909227338885,0.07867192735553849,4.0
21.98064422607422,17.21595001220703,-1.2237402200698853,-0.5200405110382282,-0.8362570187575276,0.1738737054815092,0.10147503735135494,5.0
21.826309204101562,16.743471145629883,-1.26824152469635,-0.0,-0.0,-1.0,0.03743835059981068,2.0
23.50667953491211,15.896371841430664,-1.1943973302841187,-0.0,-0.0,-1.0,0.1350649849560624,2.0
21.90433120727539,16.31121826171875,-1.258484959602356,-0.15669244352826683,-0.8910853830145676,-0.4259275975079826,0.044272069576389614,3.0
21.829547882080078,16.506444931030273,-1.2722383737564087,-0.0,-0.0,-1.0,0.02863386312669098,1.0
22.13410758972168,15.726640701293945,-1.2208751440048218,-0.0,-0.0,-1.0,0.05425414100842601,2.0
22.018455505371094,15.970515251159668,-1.240671992301941,0.060188995248749065,0.05304012456501098,-0.9967768205757368,0.05264799674853092,3.0
22.27827262878418,17.30851173400879,-1.3277912139892578,-0.0,-0.0,-1.0,0.10350896543084714,2.0
21.96917724609375,17.462858200073242,-1.0803775787353516,-0.2440093775839929,-0.6661070372973864,-0.7048126265284771,0.14105513509066683,4.0
22.219688415527344,16.904773712158203,-1.3377354145050049,-0.0,-0.0,-1.0,0.0631151781491729,1.0
22.310062408447266,16.48297882080078,-1.3086729049682617,-0.0,-0.0,-1.0,0.08785752527612115,1.0
22.335540771484375,16.024715423583984,-1.304657220840454,-0.7776525691130469,0.575522652491502,0.25304181121115943,0.05309384048909945,4.0
22.32275390625,16.22568702697754,-1.305868148803711,-0.0,-0.0,-1.0,0.10118982721628694,2.0
21.813453674316406,15.698770523071289,-1.1185295581817627,0.0468285905850131,-0.3669863947730681,-0.9290468605809329,0.0899424796643937,4.0
22.124858856201172,17.61260223388672,-1.0050960779190063,-0.0,-0.0,-1.0,0.15063945732385944,1.0
21.89617919921875,17.42430305480957,-1.0696994066238403,-0.5250233822045911,-0.6648935994853354,0.531288009936123,0.2028255684992561,3.0
21.81447982788086,15.648587226867676,-1.1384121179580688,0.25357014925847554,-0.9652633155416586,0.06299929423857831,0.1304468689874426,4.0
22.00758171081543,16.910457611083984,-1.2918188571929932,-0.0,-0.0,-1.0,0.05024568476003892,2.0
22.218172073364258,16.956218719482422,-1.3132286071777344,-0.0,-0.0,-1.0,0.06566081461764411,1.0
22.404573440551758,17.007911682128906,-1.3378944396972656,-0.0,-0.0,-1.0,0.057533184223374494,1.0
21.945507049560547,17.28826141357422,-1.1479514837265015,-0.0,-0.0,-1.0,0.09984040779747153,1.0
22.085174560546875,17.428123474121094,-1.1891003847122192,-0.0,-0.0,-1.0,0.06386275672886581,2.0
22.61162567138672,15.641404151916504,-1.3175688982009888,-0.0,-0.0,-1.0,0.0204923130771979,1.0
22.235374450683594,16.073333740234375,-1.2139586210250854,-0.0,-0.0,-1.0,0.04962219062522784,2.0
22.78245735168457,15.97684097290039,-1.3534682989120483,-0.0,-0.0,-1.0,0.023461445481000924,1.0
22.903797149658203,16.162805557250977,-1.3677748441696167,-0.5908646456717036,0.30159830322246434,-0.748276308584324,0.01429030408396451,3.0
22.354291915893555,16.51642608642578,-1.2783523797988892,-0.0,-0.0,-1.0,0.09640125866521698,1.0
22.941680908203125,16.25685691833496,-1.381386637687683,-0.0,-0.0,-1.0,0.017227389383781974,1.0
22.41221809387207,16.811878204345703,-1.327605128288269,-0.0,-0.0,-1.0,0.09952815519179226,1.0
21.821640014648438,17.106460571289062,-1.1887725591659546,-0.0,-0.0,-1.0,0.0745162123984333,1.0
21.953105926513672,17.352201461791992,-1.0329416990280151,-0.0,-0.0,-1.0,0.19826877535712564,1.0
22.1798152923584,17.291851043701172,-1.1461328268051147,-0.0,-0.0,-1.0,0.06765333100239973,2.0
21.976276397705078,17.625137329101562,-0.9035447835922241,-0.0,-0.0,-1.0,0.14925723320639533,2.0
22.67205810546875,17.06167221069336,-1.4246883392333984,-0.0,-0.0,-1.0,0.06180513193353976,1.0
22.71906852722168,17.106082916259766,-1.4304404258728027,-0.0,-0.0,-1.0,0.07104184021087911,2.0
22.9382266998291,17.221885681152344,-1.4339494705200195,-0.0,-0.0,-1.0,0.04053789873344021,2.0
23.17193603515625,17.309429168701172,-1.4291155338287354,-0.0,-0.0,-1.0,0.15958028719473033,1.0
21.8317813873291,17.179134368896484,-1.2116725444793701,-0.0,-0.0,-1.0,0.07843250698988238,2.0
21.86737060546875,17.23922348022461,-1.2211689949035645,-0.41477491173544206,-0.5785653111576657,-0.7022990483546809,0.0996697778220568,3.0
22.138885498046875,17.335243225097656,-1.211193561553955,-0.743610496032082,-0.6058583457796013,0.28280575496288357,0.06826230964950894,3.0
21.753623962402344,17.54454231262207,-0.9374723434448242,-0.3474797089503103,-0.3331670870668271,-0.8765030199395853,0.1435541388723119,4.0
22.143457412719727,16.537227630615234,-1.3599979877471924,-0.0,-0.0,-1.0,0.03599808721340469,1.0
22.17772674560547,16.232805252075195,-1.3275771141052246,-0.0,-0.0,-1.0,0.047539221600342144,1.0
22.248062133789062,15.913536071777344,-1.2901663780212402,-0.8785644807486066,0.2594802440682748,-0.4009918404471582,0.06027959280227781,6.0
22.275527954101562,17.003746032714844,-1.3896539211273193,-0.0,-0.0,-1.0,0.048071563351290196,1.0
22.223228454589844,16.745235443115234,-1.3705532550811768,-0.0,-0.0,-1.0,0.026682055162024435,1.0
22.25381851196289,16.365280151367188,-1.3308286666870117,-0.0,-0.0,-1.0,0.08160246864153668,2.0
22.592529296875,16.636699676513672,-1.3953405618667603,-0.0,-0.0,-1.0,0.10440172595716264,1.0
22.550457000732422,16.325027465820312,-1.3669987916946411,-0.0,-0.0,-1.0,0.08844363738950665,2.0
22.458024978637695,15.921487808227539,-1.3354848623275757,-0.0,-0.0,-1.0,0.046242406042724664,1.0
22.38890838623047,15.652267456054688,-1.3161526918411255,-0.0,-0.0,-1.0,0.04909700445956387,1.0
22.605546951293945,16.818565368652344,-1.4134970903396606,-0.0,-0.0,-1.0,0.081525352080791,1.0
23.452529907226562,15.737930297851562,-1.2113503217697144,-0.5496896622837673,-0.7720792236599706,-0.31895916285784137,0.1696106537798601,5.0
21.85780906677246,15.873716354370117,-1.1294091939926147,0.8218810749478955,-0.5505278468514254,-0.14639190033476915,0.11435075137964738,3.0
22.075685501098633,17.253149032592773,-1.2067312002182007,-0.39280042836197926,-0.4308837796720433,-0.812432761460405,0.058089717587966896,3.0
21.781347274780273,17.05308723449707,-1.2060147523880005,-0.0,-0.0,-1.0,0.0490464427659321,2.0
22.542360305786133,17.516048431396484,-1.2043167352676392,-0.0,-0.0,-1.0,0.15671451644855547,2.0
22.24878692626953,17.470779418945312,-1.1854972839355469,-0.0,-0.0,-1.0,0.07756996897838744,1.0
21.93947410583496,17.159503936767578,-1.1719036102294922,-0.0,-0.0,-1.0,0.12817124886444722,2.0
21.77039909362793,15.725303649902344,-1.0565032958984375,-0.0,-0.0,-1.0,0.16292772031192232,1.0
21.780832290649414,17.596879959106445,-0.9301044940948486,-0.0,-0.0,-1.0,0.14089913885500524,2.0
21.73617935180664,17.504901885986328,-0.9254286289215088,-0.6951245226774068,0.08917536782919896,-0.7133369833010442,0.16469587129806143,3.0
21.98137664794922,17.604352951049805,-0.8862583637237549,-0.0,-0.0,-1.0,0.13123987146649066,2.0
22.088592529296875,17.506343841552734,-1.1062148809432983,-0.0,-0.0,-1.0,0.17590968620296588,1.0
22.501691818237305,17.37798500061035,-1.349539875984192,-0.0,-0.0,-1.0,0.05188923056095202,2.0
23.22478485107422,17.554359436035156,-1.3482939004898071,-0.0,-0.0,-1.0,0.14080641576379477,2.0
22.72545623779297,17.411705017089844,-1.3466421365737915,-0.0,-0.0,-1.0,0.08371372217249765,1.0
22.450389862060547,17.092466354370117,-1.3219741582870483,-0.0,-0.0,-1.0,0.08377123515799866,1.0
22.291263580322266,16.76323699951172,-1.2935558557510376,-0.0,-0.0,-1.0,0.04591327398110515,1.0
22.460657119750977,16.795379638671875,-1.291526436805725,-0.0,-0.0,-1.0,0.11687604767913176,1.0
22.116744995117188,16.19688606262207,-1.2425733804702759,-0.0,-0.0,-1.0,0.057513521593629886,1.0
22.155282974243164,15.866628646850586,-1.208457589149475,-0.0,-0.0,-1.0,0.039755652033825584,2.0
22.305652618408203,15.698707580566406,-1.2617548704147339,-0.6310420569129994,0.1518214144652685,-0.7607471199529945,0.055988314229520365,6.0
22.265392303466797,17.590641021728516,-1.054603099822998,-0.0,-0.0,-1.0,0.12425240031243297,1.0
22.16672706604004,17.486780166625977,-1.0584945678710938,-0.0,-0.0,-1.0,0.2367251012357381,1.0
22.001564025878906,17.303739547729492,-1.0646820068359375,-0.0,-0.0,-1.0,0.11979479871459571,1.0
21.896793365478516,17.308109283447266,-1.0753116607666016,0.2152403400507915,-0.9746802983897438,-0.06057979816489592,0.1390127860637944,3.0
23.08246612548828,17.06749725341797,-1.417197346687317,-0.0,-0.0,-1.0,0.019710345442634152,1.0
22.731550216674805,16.790552139282227,-1.3727318048477173,-0.0,-0.0,-1.0,0.04505810194808263,1.0
22.644275665283203,16.309356689453125,-1.3121968507766724,-0.0,-0.0,-1.0,0.05134110170333959,2.0
22.545726776123047,16.108537673950195,-1.2850784063339233,-0.0,-0.0,-1.0,0.04320799685552954,1.0
22.052865982055664,17.055269241333008,-0.5048688650131226,-0.0,-0.0,-1.0,0.12939022371633402,1.0
21.97452163696289,17.02855682373047,-0.4991837739944458,-0.0,-0.0,-1.0,0.11824844958416769,1.0
23.670841217041016,16.07651138305664,-1.2538189888000488,0.46729221811439964,-0.774724635016393,0.42595741898509215,0.1680131166784657,4.0
23.10622787475586,17.20462989807129,-0.5043011903762817,-0.0,-0.0,-1.0,0.06507990157276922,1.0
21.947080612182617,17.184072494506836,-0.5188266038894653,-0.0,-0.0,-1.0,0.10594104178449733,1.0
21.731475830078125,16.787500381469727,-0.49605655670166016,-0.0,-0.0,-1.0,0.057333734059338136,1.0
21.796974182128906,17.47340202331543,-0.995806097984314,-0.7242578968941256,-0.15847493759866638,-0.6710709298871449,0.161748400356204,4.0
22.311704635620117,17.488998413085938,-1.2366429567337036,-0.0,-0.0,-1.0,0.08886213273820905,1.0
22.018688201904297,17.190038681030273,-1.228920340538025,-0.4328670551078185,-0.48344220890494977,-0.7608611852706036,0.1058447916532418,3.0
21.725332260131836,17.04496955871582,-1.2356141805648804,-0.0,-0.0,-1.0,0.049046442765932036,2.0
21.983673095703125,15.823404312133789,-1.1078532934188843,-0.0,-0.0,-1.0,0.10674491482824164,2.0
21.841232299804688,15.662921905517578,-1.10330331325531,0.7084470682541804,0.27243621842311366,-0.6510616394577169,0.14060430753873593,3.0
23.200424194335938,17.38483428955078,-1.4492146968841553,-0.0,-0.0,-1.0,0.19836010623475667,1.0
23.12711524963379,17.345035552978516,-1.444800615310669,-0.0,-0.0,-1.0,0.14376479207137882,1.0
22.855165481567383,17.31441879272461,-1.4427783489227295,-0.0,-0.0,-1.0,0.050025335747043036,2.0
22.462766647338867,17.036739349365234,-1.4118540287017822,-0.0,-0.0,-1.0,0.060598721066478636,1.0
22.45281219482422,16.438854217529297,-1.339616060256958,-0.0,-0.0,-1.0,0.12661710267638007,2.0
22.342527389526367,16.052143096923828,-1.2938063144683838,-0.7776525691130469,0.575522652491502,0.25304181121115943,0.07048671182848083,4.0
22.02411460876465,16.453113555908203,-1.344954013824463,-0.0,-0.0,-1.0,0.022984811243733236,1.0
22.026348114013672,15.728621482849121,-1.257633924484253,-0.0,-0.0,-1.0,0.06565001335346263,1.0
23.1267032623291,17.319982528686523,-1.3925502300262451,-0.0,-0.0,-1.0,0.14865358622620634,1.0
22.738216400146484,17.359920501708984,-1.3813068866729736,-0.17203536910749162,-0.6793725556534489,-0.7133419673627444,0.07357183270883219,3.0
22.38125991821289,17.2358341217041,-1.3490798473358154,0.5256928889563389,-0.5335848523973233,0.6625210878099387,0.08164583100565,3.0
22.520469665527344,16.512975692749023,-1.2552497386932373,-0.0,-0.0,-1.0,0.09933181533502479,1.0
22.05138397216797,17.096023559570312,-1.316152811050415,-0.0,-0.0,-1.0,0.1734196571272504,2.0
21.916961669921875,15.753717422485352,-1.1262884140014648,-0.3586802811825574,-0.7456257452965773,-0.5615965668001589,0.05742029135994286,3.0
22.826669692993164,16.706045150756836,-1.4090893268585205,-0.0,-0.0,-1.0,0.009364166711693163,2.0
22.532855987548828,16.33411407470703,-1.3365199565887451,-0.0,-0.0,-1.0,0.09766216302492355,2.0
22.436382293701172,15.801616668701172,-1.251270055770874,-0.0,-0.0,-1.0,0.08377890143710906,2.0
23.18446159362793,17.44889259338379,-1.2773483991622925,-0.10174271783594804,-0.227413519996951,-0.9684686418722864,0.19153025366568405,3.0
22.961570739746094,17.624061584472656,-1.3107742071151733,-0.0,-0.0,-1.0,0.11901024471733476,2.0
22.503768920898438,17.272939682006836,-1.292312502861023,-0.0,-0.0,-1.0,0.05022723180938699,1.0
22.664403915405273,17.502025604248047,-1.3116942644119263,-0.0,-0.0,-1.0,0.2117442129654802,1.0
22.49846076965332,16.538124084472656,-1.2023142576217651,-0.0,-0.0,-1.0,0.09247102933497704,1.0
22.156940460205078,17.113008499145508,-1.2921656370162964,-0.0,-0.0,-1.0,0.11268099909632145,1.0
22.014352798461914,15.735250473022461,-1.1320806741714478,-0.0,-0.0,-1.0,0.05944736807108078,1.0
21.886960983276367,16.6813907623291,-1.2549742460250854,-0.0,-0.0,-1.0,0.041493238575439274,2.0
21.797748565673828,15.649166107177734,-1.1346067190170288,-0.2611855326082555,-0.945888743825415,-0.19255285471921943,0.14419105387630954,4.0
23.054040908813477,17.496110916137695,-1.2845005989074707,0.26798766268419766,0.9030825405681072,-0.335595794923169,0.12439160635096863,4.0
22.479900360107422,17.367366790771484,-1.3088068962097168,0.5930101045223564,-0.7977426772111992,0.10929609732416012,0.06489727511670725,3.0
22.597309112548828,17.56372833251953,-1.3243122100830078,-0.0,-0.0,-1.0,0.1968878025696042,2.0
22.423463821411133,16.612918853759766,-1.2214910984039307,-0.0,-0.0,-1.0,0.05096066842830202,1.0
22.156431198120117,17.192352294921875,-1.3111522197723389,0.502717994986077,-0.8255657131780267,-0.2563510693210282,0.1844177901670883,5.0
21.902626037597656,15.68096923828125,-1.1489801406860352,-0.0,-0.0,-1.0,0.04177160374709457,2.0
21.871585845947266,16.572467803955078,-1.2579827308654785,-0.0,-0.0,-1.0,0.03096163049425219,1.0
21.901723861694336,16.6883544921875,-1.2695720195770264,-0.0,-0.0,-1.0,0.04101108031849724,2.0
23.595977783203125,15.679070472717285,-1.3221107721328735,0.4777985423555385,0.636678889206269,-0.6052673334667872,0.23565212666564633,3.0
21.922983169555664,17.477073669433594,-1.0766130685806274,-0.0,-0.0,-1.0,0.17284801403482666,2.0
22.971656799316406,17.57825469970703,-1.2960482835769653,-0.0,-0.0,-1.0,0.09794512523569268,2.0
22.565778732299805,17.502695083618164,-1.3149055242538452,0.3022437619402429,-0.37463758584743356,-0.8765246075488219,0.09871236901745162,3.0
22.414121627807617,17.069917678833008,-1.266262412071228,-0.0,-0.0,-1.0,0.1288602008152448,1.0
22.2069149017334,17.242727279663086,-1.3059717416763306,-0.0,-0.0,-1.0,0.19048001413146165,2.0
21.9853515625,17.007226943969727,-1.2907551527023315,-0.0,-0.0,-1.0,0.08156220133338588,1.0
22.47205352783203,16.660661697387695,-1.205316424369812,-0.0,-0.0,-1.0,0.18592297687436077,2.0
21.9013671875,15.761887550354004,-1.1271759271621704,-0.3586802811825574,-0.7456257452965773,-0.5615965668001589,0.09492383597089737,3.0
21.82082748413086,16.60000228881836,-1.2481087446212769,-0.0,-0.0,-1.0,0.0287106566255809,1.0
21.822940826416016,16.741443634033203,-1.2672675848007202,-0.0,-0.0,-1.0,0.03788994776155732,2.0
21.73054313659668,15.686698913574219,-1.1311622858047485,-0.7056830431632363,-0.7068999726951757,-0.047998658267013425,0.1561096099134435,3.0
23.61674690246582,15.664669036865234,-1.3208644390106201,-0.0,-0.0,-1.0,0.24319240819404586,2.0
22.71303939819336,17.496700286865234,-1.164612054824829,-0.12372984625340497,0.8300063011260949,-0.5438570264665956,0.15392675635758454,3.0
22.084774017333984,17.32977867126465,-1.1939523220062256,-0.0,-0.0,-1.0,0.0718572937743189,1.0
21.826004028320312,17.249868392944336,-1.205507516860962,-0.3755061882673171,-0.8179198300189217,-0.4358924801310163,0.0858898608036825,3.0
23.14728355407715,17.443485260009766,-1.3484599590301514,-0.0,-0.0,-1.0,0.22571245226863837,2.0
22.8675537109375,17.425058364868164,-1.3647143840789795,0.5415917535403957,0.6681987051192233,-0.5100871131228787,0.07052777462387402,3.0
23.05275535583496,17.631547927856445,-1.387009620666504,-0.0,-0.0,-1.0,0.10267997656170337,1.0
22.53728485107422,17.21220588684082,-1.3526606559753418,-0.0,-0.0,-1.0,0.05494595518018983,2.0
22.381122589111328,16.20317840576172,-1.1946346759796143,-0.0,-0.0,-1.0,0.09353470150337305,1.0
22.291202545166016,16.496517181396484,-1.2510709762573242,-0.0,-0.0,-1.0,0.08872545830815613,2.0
22.21072006225586,16.75815773010254,-1.3013808727264404,0.095830353607083,-0.30365941049042827,-0.9479491050410602,0.02307079950750402,3.0
21.89579963684082,15.91248893737793,-1.1863160133361816,0.09231769589348349,0.3902436928211321,-0.9160716692695197,0.07465322789601601,3.0
21.91621208190918,16.422319412231445,-1.26922607421875,-0.0,-0.0,-1.0,0.018519740527644286,2.0
22.01344871520996,16.586400985717773,-1.28847336769104,-0.08002176947245676,0.5265581468799966,-0.8463645989553208,0.029565005425362927,3.0
21.919885635375977,17.578411102294922,-0.9349977970123291,-0.0,-0.0,-1.0,0.16217626109238786,1.0
21.71518325805664,17.571216583251953,-0.948310136795044,-0.8550280568741061,-0.18335276158627264,0.48508637042982145,0.1662712435735733,4.0
23.623140335083008,16.85173225402832,-1.3343021869659424,-0.057385327245452866,-0.8974825119730124,0.4373008860264794,0.11837424809566867,3.0
23.225709915161133,17.45456314086914,-1.488325595855713,-0.0,-0.0,-1.0,0.11698679629638403,1.0
22.733226776123047,17.181583404541016,-1.4883654117584229,-0.0,-0.0,-1.0,0.04975954166853248,1.0
22.911962509155273,17.307018280029297,-1.492706537246704,-0.0,-0.0,-1.0,0.04720661847856207,1.0
22.4686336517334,16.66802406311035,-1.4227077960968018,-0.0,-0.0,-1.0,0.14565464596188898,1.0
22.608592987060547,16.974895477294922,-1.463695764541626,-0.0,-0.0,-1.0,0.056122243635459375,1.0
22.3211612701416,16.21249008178711,-1.3563871383666992,-0.0,-0.0,-1.0,0.1020795402181489,1.0
22.378826141357422,16.44795799255371,-1.3927335739135742,-0.0,-0.0,-1.0,0.076287911504819,1.0
22.1993408203125,15.98739242553711,-1.3305425643920898,-0.0,-0.0,-1.0,0.056903640426117424,1.0
22.02872657775879,17.54669761657715,-1.146165132522583,-0.0,-0.0,-1.0,0.1154390049847235,2.0
22.09511375427246,15.844331741333008,-1.3179881572723389,-0.0,-0.0,-1.0,0.03956562649290325,1.0
23.574291229248047,15.91561508178711,-1.2043813467025757,-0.0,-0.0,-1.0,0.17425911159972016,1.0
23.673994064331055,16.178606033325195,-1.252724289894104,0.4600463543590718,-0.8003283367412061,-0.38448914841641746,0.13904502803099675,3.0
23.327524185180664,16.639389038085938,-1.388522982597351,-0.0,-0.0,-1.0,0.05307293868613091,2.0
23.00027084350586,16.609081268310547,-1.4156798124313354,-0.0,-0.0,-1.0,0.011010048698861932,2.0
23.16497039794922,16.7854061126709,-1.4371408224105835,-0.0,-0.0,-1.0,0.01703659136841309,1.0
22.630020141601562,16.171831130981445,-1.3609730005264282,-0.0,-0.0,-1.0,0.02261729463519526,1.0
22.80657196044922,16.406497955322266,-1.392245888710022,-0.0,-0.0,-1.0,0.029172369640657184,2.0
22.34192657470703,15.682962417602539,-1.289293646812439,-0.7096620681121976,-0.3246858479597701,-0.6252670223331498,0.05369626044223394,4.0
22.491226196289062,15.960931777954102,-1.3313263654708862,-0.0,-0.0,-1.0,0.051684729525718676,1.0
22.70052146911621,17.479755401611328,-1.1876245737075806,-0.12372984625340497,0.8300063011260949,-0.5438570264665956,0.11799939749253989,3.0
22.29210090637207,17.585647583007812,-1.2477504014968872,-0.0,-0.0,-1.0,0.05980945004230733,1.0
22.066028594970703,17.278560638427734,-1.215539574623108,-0.0,-0.0,-1.0,0.12512590130898477,2.0
22.228790283203125,17.493127822875977,-1.2374080419540405,-0.0,-0.0,-1.0,0.055777116151579355,1.0
21.718822479248047,17.162948608398438,-1.232230305671692,-0.0,-0.0,-1.0,0.06983708045596937,2.0
23.65032386779785,17.241981506347656,-1.4045907258987427,-0.0,-0.0,-1.0,0.03919893204296612,2.0
23.61090660095215,16.783588409423828,-1.2920931577682495,0.37710531272972364,-0.9256713086312466,0.030400846829205092,0.1278327248053646,3.0
23.338781356811523,17.245283126831055,-1.4154373407363892,-0.0,-0.0,-1.0,0.08882160115136183,2.0
23.001712799072266,17.176639556884766,-1.4112967252731323,-0.0,-0.0,-1.0,0.10431563302421812,2.0
22.597841262817383,16.898069381713867,-1.3610607385635376,-0.0,-0.0,-1.0,0.09971315161413939,2.0
22.787139892578125,17.08201026916504,-1.3970881700515747,-0.0,-0.0,-1.0,0.06562790588296791,1.0
22.243976593017578,16.417997360229492,-1.2631031274795532,0.977841287583812,-0.20619343079717728,-0.03620338924081422,0.06695277345245515,3.0
22.325551986694336,16.679039001464844,-1.3217345476150513,-0.0,-0.0,-1.0,0.09074999198372896,2.0
21.940418243408203,16.359712600708008,-1.2671514749526978,-0.0,-0.0,-1.0,0.016942595867876727,1.0
23.708887100219727,15.999205589294434,-1.0946193933486938,-0.0,-0.0,-1.0,0.10673866552892376,2.0
22.784011840820312,17.473024368286133,-1.0787981748580933,-0.0,-0.0,-1.0,0.18989580020470695,1.0
22.674123764038086,17.58993911743164,-1.1072009801864624,-0.0,-0.0,-1.0,0.09350268096565924,1.0
22.138137817382812,17.585250854492188,-1.1275087594985962,-0.1832020302354441,0.5717261705905429,-0.7997288302790418,0.14142378787327795,3.0
21.832008361816406,15.717000007629395,-1.1207252740859985,0.44237473252374077,-0.5368009597722895,-0.7184353315449471,0.09035768945070537,3.0
21.89141082763672,17.403154373168945,-1.1008785963058472,-0.0,-0.0,-1.0,0.1379765439191303,2.0
21.76468849182129,17.49488067626953,-1.1258944272994995,-0.0,-0.0,-1.0,0.18915918127269218,2.0
23.465465545654297,15.996262550354004,-1.3766363859176636,-0.0,-0.0,-1.0,0.1266112442024359,2.0
23.07077980041504,15.915215492248535,-1.37730872631073,-0.0,-0.0,-1.0,0.08143761554167937,1.0
22.59925079345703,15.722410202026367,-1.3554235696792603,-0.0,-0.0,-1.0,0.01990390812699878,1.0
22.750442504882812,15.851519584655762,-1.3816503286361694,-0.0,-0.0,-1.0,0.009899864236345885,2.0
23.57939338684082,15.891730308532715,-1.3387519121170044,-0.0,-0.0,-1.0,0.1883541279555533,1.0
23.605607986450195,16.838247299194336,-1.2681866884231567,-0.0,-0.0,-1.0,0.11211626797445876,1.0
23.367490768432617,17.30902862548828,-1.4036129713058472,-0.0,-0.0,-1.0,0.11166871682929211,1.0
23.39995002746582,17.46331024169922,-1.4428702592849731,-0.6483341829946789,-0.034787121478154166,-0.7605607427023076,0.06261176761497689,3.0
23.045198440551758,17.308521270751953,-1.4197639226913452,-0.0,-0.0,-1.0,0.07066090133731605,2.0
22.537857055664062,15.665671348571777,-1.343788981437683,-0.0,-0.0,-1.0,0.026627123226021544,1.0
22.64009666442871,17.126436233520508,-1.395387053489685,-0.0,-0.0,-1.0,0.08091779251464908,2.0
22.722890853881836,17.536651611328125,-1.1175678968429565,-0.0,-0.0,-1.0,0.1495905867133665,1.0
22.257896423339844,16.49535369873047,-1.257064938545227,-0.0,-0.0,-1.0,0.07915225220938331,2.0
22.265560150146484,16.72585105895996,-1.3161729574203491,-0.31462426099332663,0.5558178389220075,-0.7694661164277948,0.04136687365092206,4.0
22.435466766357422,16.951190948486328,-1.3627055883407593,0.5512233528293973,0.05075408483576907,-0.8328126068738401,0.05768806061041196,3.0
22.140357971191406,17.551395416259766,-1.152220606803894,0.9319794801912044,-0.3578667657499155,-0.057841390666438466,0.15689804462884066,5.0
21.799713134765625,15.776460647583008,-1.109634280204773,-0.7901790531791594,-0.6100794303474746,-0.05848207061816876,0.09489348845126322,4.0
21.85579490661621,16.412639617919922,-1.2665847539901733,-0.0,-0.0,-1.0,0.01848468654266675,1.0
21.98450469970703,16.56918716430664,-1.2964462041854858,-0.0,-0.0,-1.0,0.035464503267981944,2.0
21.973285675048828,17.3382568359375,-1.1145910024642944,-0.0,-0.0,-1.0,0.07995138218676716,2.0
21.799169540405273,17.393739700317383,-1.137764811515808,-0.7833215043223624,-0.36919029453604185,-0.500105936064092,0.1639915214804407,4.0
23.70284652709961,16.016916275024414,-1.1200730800628662,-0.6243303547703639,-0.7028577606919909,-0.34088498991206956,0.13435017969808663,3.0
23.681968688964844,16.453811645507812,-1.259965419769287,-0.0,-0.0,-1.0,0.07355482604661716,1.0
23.52423667907715,16.76656150817871,-1.3671808242797852,-0.0,-0.0,-1.0,0.11000376189294368,1.0
23.1561279296875,16.885438919067383,-1.425286054611206,-0.0,-0.0,-1.0,0.01698111124241509,2.0
23.0116024017334,17.62969207763672,-1.3193175792694092,-0.0,-0.0,-1.0,0.09543407140034749,1.0
22.575748443603516,16.54490089416504,-1.3597323894500732,-0.0,-0.0,-1.0,0.11343431105837187,1.0
22.775333404541016,16.704992294311523,-1.3943462371826172,-0.0,-0.0,-1.0,0.02285750677081394,1.0
22.712385177612305,17.61896514892578,-1.3331961631774902,-0.0,-0.0,-1.0,0.1807204858899805,2.0
22.248218536376953,16.096416473388672,-1.250666618347168,-0.95804968915564,0.18503714175124925,-0.21886536793496864,0.07084480342601668,3.0
22.42475128173828,16.363679885864258,-1.3166379928588867,-0.0,-0.0,-1.0,0.12535500593745663,2.0
22.240188598632812,17.270301818847656,-1.268425464630127,-0.0,-0.0,-1.0,0.11326655893736173,2.0
22.40607261657715,17.453506469726562,-1.3069682121276855,-0.0,-0.0,-1.0,0.15578423926796,1.0
22.043121337890625,15.988202095031738,-1.23824143409729,0.03732146081274557,-0.020747614351793536,-0.9990879065735467,0.0573624518910146,4.0
21.960397720336914,17.168445587158203,-1.2622425556182861,0.7536567159721287,0.3405425804264582,-0.562167506519716,0.09867970722667779,3.0
21.979602813720703,17.525997161865234,-1.0085985660552979,-0.0,-0.0,-1.0,0.12909965761713504,2.0
23.084125518798828,17.492979049682617,-1.257069706916809,-0.2514772812136982,-0.7437557246817831,-0.6193436841015191,0.11011317593055457,5.0
22.341217041015625,17.4632568359375,-1.3164907693862915,-0.0,-0.0,-1.0,0.15637713350861443,1.0
22.56761932373047,17.602500915527344,-1.3361350297927856,-0.0,-0.0,-1.0,0.15118806336659568,1.0
21.94586181640625,17.17966651916504,-1.2749325037002563,0.7536567159721287,0.3405425804264582,-0.562167506519716,0.12451611107392994,3.0
22.14394760131836,17.25444221496582,-1.2743815183639526,-0.0,-0.0,-1.0,0.16736176118183607,2.0
21.98602294921875,17.51360321044922,-1.0555137395858765,-0.5230944642108235,0.8036075898139042,-0.2838785358308725,0.13177211983654455,3.0
21.896018981933594,17.389846801757812,-1.1596705913543701,-0.0,-0.0,-1.0,0.0989040579205005,1.0
21.97137451171875,17.6068172454834,-1.066948652267456,-0.0,-0.0,-1.0,0.12153695055089574,1.0
22.250751495361328,15.883602142333984,-1.265700340270996,-0.7506585326974233,0.40617851889886486,0.5210861522566833,0.06938516859487316,4.0
22.822669982910156,16.13964080810547,-1.4011032581329346,0.5323003206952862,0.8350867691966706,-0.1388756872183262,0.011438215159954863,3.0
22.711759567260742,15.975234031677246,-1.3883249759674072,-0.0,-0.0,-1.0,0.020153495003750323,1.0
22.19615364074707,15.763696670532227,-1.2650816440582275,-0.0,-0.0,-1.0,0.054194807283924534,2.0
21.870155334472656,15.764639854431152,-1.1708061695098877,-0.0,-0.0,-1.0,0.07480187997885956,1.0
23.451190948486328,15.873587608337402,-1.2634985446929932,-0.0,-0.0,-1.0,0.17863347873751817,2.0
23.374618530273438,15.704903602600098,-1.2629692554473877,0.474607415545533,-0.809491050090861,-0.34564727820711155,0.18716329897370435,3.0
22.489360809326172,17.004392623901367,-1.378575325012207,-0.5094404812477267,-0.43139551070843807,-0.7445591376154688,0.04063286495213868,3.0
21.749664306640625,17.217878341674805,-1.1315181255340576,-0.0,-0.0,-1.0,0.07456914448482287,1.0
23.03170394897461,17.243661880493164,-1.1930701732635498,-0.0,-0.0,-1.0,0.10283515983302258,1.0
22.32895851135254,16.139110565185547,-1.2615888118743896,0.13810422916568188,0.12204674971580341,-0.9828691737817201,0.09897130991963957,4.0
22.375051498413086,16.47496223449707,-1.30462646484375,-0.0,-0.0,-1.0,0.09086894456879087,1.0
23.497623443603516,15.817988395690918,-1.2418787479400635,0.13717945118506136,0.4967692648564327,-0.8569726341410003,0.18390680006816415,3.0
23.70328140258789,16.292926788330078,-1.3257787227630615,0.19005501833155655,0.5139350018402998,-0.8365105521691897,0.07150488409827034,3.0
23.66802978515625,16.09100341796875,-1.3033959865570068,0.6338503593496585,0.263747348008872,-0.7270976952037431,0.14167107025181055,3.0
23.698509216308594,16.85806655883789,-1.365424394607544,-0.0,-0.0,-1.0,0.10146560750557347,1.0
23.69182777404785,16.586015701293945,-1.342984914779663,-0.0,-0.0,-1.0,0.052932279195137995,2.0
23.449893951416016,15.886768341064453,-1.3931827545166016,-0.0,-0.0,-1.0,0.10040113635131806,2.0
23.183189392089844,16.67532730102539,-1.4383957386016846,-0.0,-0.0,-1.0,0.029064691812578536,1.0
23.26900291442871,16.402420043945312,-1.4191226959228516,-0.0,-0.0,-1.0,0.05862060406333681,1.0
23.423439025878906,16.04729461669922,-1.4085228443145752,-0.0,-0.0,-1.0,0.0748236340408189,1.0
23.082796096801758,16.882892608642578,-1.4455630779266357,-0.0,-0.0,-1.0,0.018979303720805585,2.0
21.725971221923828,15.693280220031738,-1.1608715057373047,-0.7056830431632363,-0.7068999726951757,-0.047998658267013425,0.1561096099134435,3.0
21.722986221313477,16.271753311157227,-1.2608497142791748,-0.0,-0.0,-1.0,0.013607269282388083,2.0
21.837520599365234,16.22848892211914,-1.2869596481323242,-0.0,-0.0,-1.0,0.013837865397565097,1.0
21.73934555053711,16.434669494628906,-1.295865535736084,-0.0,-0.0,-1.0,0.016069123057913828,1.0
22.556474685668945,16.576908111572266,-1.2567691802978516,-0.0,-0.0,-1.0,0.15122796625241244,2.0
23.406898498535156,15.731085777282715,-1.3601837158203125,-0.0,-0.0,-1.0,0.16068087000826078,1.0
23.264232635498047,16.33138656616211,-1.4068632125854492,-0.0,-0.0,-1.0,0.06001791837923887,2.0
23.345460891723633,16.10384178161621,-1.3953356742858887,-0.0,-0.0,-1.0,0.03312812018762905,2.0
22.626344680786133,16.284482955932617,-1.3517462015151978,-0.0,-0.0,-1.0,0.05031913916073615,1.0
22.855316162109375,16.120336532592773,-1.392053246498108,0.4081510183267319,0.8173522748675347,-0.40663005915416234,0.014460966260526233,4.0
23.03348731994629,15.789962768554688,-1.3918079137802124,-0.0,-0.0,-1.0,0.03495046706048934,1.0
22.7630672454834,16.424636840820312,-1.4179152250289917,0.9681171919862162,0.09886927999439711,-0.2301607439467334,0.02702688600719253,3.0
23.620994567871094,16.841537475585938,-1.4194027185440063,-0.0,-0.0,-1.0,0.1183742480956687,2.0
23.639575958251953,16.76302146911621,-1.4118455648422241,-0.0,-0.0,-1.0,0.13857703324880216,2.0
22.51566505432129,16.174072265625,-1.2988024950027466,-0.0,-0.0,-1.0,0.08084014912850816,2.0
23.5082950592041,15.65764331817627,-1.2136191129684448,-0.0,-0.0,-1.0,0.14921763874404195,1.0
23.64887237548828,16.494457244873047,-1.3728183507919312,-0.0,-0.0,-1.0,0.05268584284919458,2.0
23.532325744628906,15.651863098144531,-1.3246279954910278,-0.0,-0.0,-1.0,0.2141363918763868,2.0
21.722124099731445,17.571178436279297,-1.1646360158920288,-0.0,-0.0,-1.0,0.18697567448303556,1.0
21.794281005859375,17.540241241455078,-1.1687456369400024,-0.0,-0.0,-1.0,0.20318403962860523,1.0
21.741966247558594,17.447071075439453,-1.1332772970199585,0.25515387204804285,-0.37018621227217663,-0.8932293489482255,0.22113194211155937,4.0
22.506427764892578,17.59113311767578,-1.3344829082489014,-0.0,-0.0,-1.0,0.15401619319425797,1.0
22.809871673583984,17.493684768676758,-1.3554165363311768,-0.0,-0.0,-1.0,0.0660428859384145,1.0
21.736310958862305,17.146238327026367,-1.2960399389266968,-0.0,-0.0,-1.0,0.07172821888920665,1.0
22.010732650756836,17.26105499267578,-1.3490134477615356,-0.0,-0.0,-1.0,0.13157353106141553,2.0
21.834741592407227,17.391674041748047,-1.0647411346435547,-0.0,-0.0,-1.0,0.1641631697724746,1.0
21.733898162841797,17.436721801757812,-1.0679337978363037,0.2121596817803948,-0.865005049411632,0.45470268738948716,0.1650965110651269,5.0
22.117900848388672,17.31545639038086,-1.124129056930542,-0.0,-0.0,-1.0,0.1411157504809094,1.0
21.885465621948242,17.346691131591797,-1.1319730281829834,-0.0,-0.0,-1.0,0.09786182791348559,1.0
22.116548538208008,17.453092575073242,-1.109621524810791,-0.0,-0.0,-1.0,0.1604258512281679,1.0
21.746580123901367,17.415910720825195,-1.108588695526123,-0.13611217602240813,-0.9749209346151642,0.17607568482768723,0.1815978172254424,7.0
21.916208267211914,17.31376075744629,-1.0972580909729004,0.2152403400507915,-0.9746802983897438,-0.06057979816489592,0.10545401438591956,3.0
22.162181854248047,17.317419052124023,-1.1881229877471924,0.20775211208996158,-0.6613455569470856,-0.7207365081834758,0.06765333100239963,3.0
21.954374313354492,17.202730178833008,-1.1783077716827393,0.06247152976993232,-0.21998286835589068,-0.9735013331260098,0.051468619681446996,4.0
22.081005096435547,17.124019622802734,-1.290086030960083,-0.0,-0.0,-1.0,0.1624162797745059,2.0
21.93303871154785,17.078372955322266,-1.288865327835083,-0.0,-0.0,-1.0,0.08035027638003664,1.0
22.45132064819336,17.534563064575195,-1.3577780723571777,-0.0,-0.0,-1.0,0.17336234604864426,1.0
22.165498733520508,17.204641342163086,-1.3351116180419922,0.502717994986077,-0.8255657131780267,-0.2563510693210282,0.16964207936876285,5.0
21.95314598083496,17.050905227661133,-1.328418254852295,-0.0,-0.0,-1.0,0.07084209985251638,1.0
21.850311279296875,17.51816177368164,-0.9759471416473389,0.42628760823266054,-0.8339736674144642,-0.3503809314539619,0.16483051998067155,3.0
22.08185386657715,17.521221160888672,-1.1743080615997314,-0.32418832034520484,0.6159724535607546,-0.7179692677309378,0.08645364192899965,3.0
21.80837631225586,17.380184173583984,-1.1675255298614502,-0.0,-0.0,-1.0,0.08992394368988141,2.0
23.015987396240234,17.393577575683594,-1.3210642337799072,-0.0,-0.0,-1.0,0.13432238975637922,1.0
22.753482818603516,17.306869506835938,-1.3216564655303955,-0.0,-0.0,-1.0,0.06842869730808267,1.0
22.336679458618164,16.13797378540039,-1.1999294757843018,-0.0,-0.0,-1.0,0.10234394684403653,1.0
22.4683780670166,16.306640625,-1.2143847942352295,-0.0,-0.0,-1.0,0.08455915313736959,2.0
22.21111488342285,16.65998077392578,-1.2676947116851807,-0.0,-0.0,-1.0,0.03544553500461117,1.0
22.068519592285156,15.6444091796875,-1.1527493000030518,-0.0,-0.0,-1.0,0.05074066964315622,2.0
22.94148826599121,17.48978614807129,-1.3640155792236328,-0.0,-0.0,-1.0,0.09266877726261727,1.0
22.74727439880371,17.47041130065918,-1.3682422637939453,-0.0,-0.0,-1.0,0.10542516228260453,1.0
22.527328491210938,16.596887588500977,-1.2680869102478027,-0.03302035272450496,0.5395920349602598,-0.8412788432579266,0.16611181497125577,4.0
22.28877830505371,17.160139083862305,-1.3460440635681152,-0.0,-0.0,-1.0,0.10839898605316738,1.0
22.4194393157959,17.26667594909668,-1.35453462600708,-0.0,-0.0,-1.0,0.0681439406573872,2.0
22.159461975097656,17.082910537719727,-1.341176986694336,-0.0,-0.0,-1.0,0.07950326772308657,1.0
22.015033721923828,15.673341751098633,-1.172471523284912,-0.3453219882998178,0.39504199263695733,-0.8512899320737225,0.0508636506263698,3.0
22.97580909729004,17.296369552612305,-1.4259483814239502,-0.0,-0.0,-1.0,0.06129138012742651,2.0
22.728837966918945,17.217878341674805,-1.4236171245574951,-0.0,-0.0,-1.0,0.06068656077562811,1.0
22.376262664794922,15.785520553588867,-1.2485630512237549,-0.4832439870824998,0.8214249143978191,0.302880106568827,0.08274310402759247,3.0
22.259918212890625,15.899675369262695,-1.2673561573028564,-0.8785644807486066,0.2594802440682748,-0.4009918404471582,0.07185626163227143,6.0
22.523521423339844,16.888460159301758,-1.3874037265777588,-0.0,-0.0,-1.0,0.12701672358784877,1.0
