x,y,z,nx,ny,nz,curvature,density,label
41.341796875,21.855892181396484,-2.29602313041687,-0.0,-0.0,-1.0,0.17604213573131336,1.0,0
40.63644790649414,22.296825408935547,-2.1899302005767822,-0.0,-0.0,-1.0,0.09352452228228364,1.0,0
41.07579040527344,22.151519775390625,-2.2702062129974365,-0.0,-0.0,-1.0,0.042074925143459604,1.0,0
41.33942413330078,22.05625343322754,-2.317819833755493,-0.0,-0.0,-1.0,0.12079228669851275,2.0,0
40.44911193847656,22.721569061279297,-2.1993253231048584,-0.0,-0.0,-1.0,0.07482925189587333,1.0,0
40.50548553466797,22.533374786376953,-2.188990354537964,-0.0,-0.0,-1.0,0.11205926071050445,2.0,0
40.298500061035156,23.049842834472656,-2.206835985183716,-0.0,-0.0,-1.0,0.0737906038841651,2.0,0
42.63605499267578,22.638917922973633,-1.9134752750396729,-0.6977902934500115,0.4304114773049896,-0.5725684819924018,0.15375699187712283,4.0,0
42.47461700439453,22.818954467773438,-1.9021656513214111,-0.0,-0.0,-1.0,0.2174510597042962,2.0,0
41.70796203613281,21.00194549560547,-2.208667755126953,-0.0,-0.0,-1.0,0.09354711537340454,1.0,0
41.44852066040039,21.866100311279297,-2.2467727661132812,0.6238113060906181,0.719931712382793,0.30423310782867924,0.1892615354858496,3.0,0
41.62934112548828,21.648826599121094,-2.2628021240234375,-0.0,-0.0,-1.0,0.11913910053750082,1.0,0
41.652442932128906,22.153228759765625,-2.3272433280944824,-0.0,-0.0,-1.0,0.0447512614590302,1.0,0
41.40967559814453,20.70606803894043,-2.1082396507263184,-0.0,-0.0,-1.0,0.1366219776263823,2.0,0
40.97119140625,20.954309463500977,-2.033968925476074,-0.0,-0.0,-1.0,0.13999973849013655,2.0,0
41.214805603027344,21.179746627807617,-2.1148223876953125,-0.0,-0.0,-1.0,0.19896790813309878,1.0,0
41.574562072753906,20.87466812133789,-2.164234161376953,-0.0,-0.0,-1.0,0.1156343336504636,2.0,0
41.577659606933594,21.369054794311523,-2.219193458557129,-0.0,-0.0,-1.0,0.1624948487214306,2.0,0
41.410945892333984,21.721168518066406,-2.221273422241211,-0.0,-0.0,-1.0,0.1833846283289245,2.0,0
41.166908264160156,22.27015495300293,-2.2313036918640137,-0.0,-0.0,-1.0,0.034048527115533175,1.0,0
40.600189208984375,22.59210777282715,-2.1436538696289062,-0.0,-0.0,-1.0,0.09996456589730815,1.0,0
41.017425537109375,22.468252182006836,-2.221973419189453,-0.0,-0.0,-1.0,0.020045331070012086,2.0,0
40.60451126098633,23.074071884155273,-2.207127571105957,0.42005836240361444,0.906180496710016,0.04886593452684654,0.06539128462691206,3.0,0
40.79252624511719,22.949066162109375,-2.232725143432617,-0.0,-0.0,-1.0,0.060588972217930616,2.0,0
41.49322509765625,21.506420135498047,-1.542943000793457,-0.0,-0.0,-1.0,0.0813371283917088,2.0,0
42.656517028808594,22.6392765045166,-1.8878068923950195,-0.2577001350606808,0.9469154677078017,0.19220233454727506,0.26745230331333425,3.0,0
42.55979537963867,22.898757934570312,-1.898017406463623,0.4595820984732757,0.5059561247072641,-0.729926499473822,0.21527341403587655,3.0,0
40.331111907958984,20.9537353515625,-2.1642706394195557,0.6999672446193722,0.09319822447272336,-0.7080677562317719,0.033307073880201564,3.0,0
40.736572265625,20.74611473083496,-2.2438204288482666,-0.0,-0.0,-1.0,0.028819890813056425,1.0,0
42.509334564208984,22.55939483642578,-2.2513816356658936,0.34468992714359187,0.731162213403138,-0.588719518800905,0.18852693346637775,3.0,0
42.484657287597656,22.87611198425293,-2.2867448329925537,-0.0,-0.0,-1.0,0.22688538692941237,1.0,0
40.99681091308594,21.04625701904297,-1.7288672924041748,-0.0,-0.0,-1.0,0.18786591562550217,2.0,0
41.335540771484375,21.01784896850586,-1.8017771244049072,-0.0,-0.0,-1.0,0.13705255757347887,1.0,0
41.694488525390625,20.796194076538086,-1.8575565814971924,-0.0,-0.0,-1.0,0.1795816807974316,1.0,0
42.406700134277344,20.808246612548828,-2.020007371902466,-0.0,-0.0,-1.0,0.1306855083391329,1.0,0
41.41851806640625,21.47623062133789,-1.8743479251861572,-0.0,-0.0,-1.0,0.14391482453046933,1.0,0
41.48161697387695,21.428447723388672,-1.8827626705169678,-0.0,-0.0,-1.0,0.15990887006206314,2.0,0
41.006622314453125,20.919464111328125,-2.1540281772613525,-0.01335441363100117,-0.773044303773966,-0.634211450574015,0.18380092860236713,3.0,0
41.279937744140625,20.80868911743164,-2.2123568058013916,-0.0,-0.0,-1.0,0.06596186530345123,1.0,0
40.76233673095703,21.387449264526367,-2.1519205570220947,-0.0,-0.0,-1.0,0.08929259926587088,1.0,0
41.109519958496094,21.2076358795166,-2.2191364765167236,-0.0,-0.0,-1.0,0.10790911247952881,1.0,0
40.713134765625,21.695579528808594,-2.182075262069702,-0.0,-0.0,-1.0,0.03729805639579808,1.0,0
41.37886428833008,21.495624542236328,-2.328782796859741,-0.0,-0.0,-1.0,0.09702126662429499,1.0,0
40.46729278564453,22.241352081298828,-2.197483777999878,-0.0,-0.0,-1.0,0.052514821013621156,2.0,0
40.499298095703125,22.13637351989746,-2.190133810043335,0.7599414621586413,-0.09133884222601935,-0.6435419100517046,0.036081459578944146,3.0,0
40.34428024291992,22.495012283325195,-2.2044970989227295,-0.0,-0.0,-1.0,0.09007033397695423,1.0,0
40.500736236572266,22.42873764038086,-2.23437762260437,-0.0,-0.0,-1.0,0.05366776588961195,1.0,0
42.481300354003906,22.580272674560547,-2.112622022628784,0.23072197825174956,0.8788098351016678,0.4176848602477455,0.20802984753474865,3.0,0
42.465694427490234,22.70612144470215,-2.12568736076355,0.01525088543558893,-0.18909456066450941,-0.9818404440745588,0.15101942971864887,4.0,0
42.6090202331543,22.92915916442871,-2.1875641345977783,-0.0,-0.0,-1.0,0.12425273833010937,2.0,0
41.440521240234375,21.422149658203125,-1.729762315750122,-0.0,-0.0,-1.0,0.10627064160927306,1.0,0
42.666446685791016,22.454166412353516,-1.4879961013793945,0.40865098123829596,0.09522705479100771,-0.907709305652866,0.054190586017374885,3.0,0
41.89622497558594,20.90249252319336,-2.143015146255493,-0.0,-0.0,-1.0,0.17539113732971898,2.0,0
41.86933135986328,21.083824157714844,-2.1609246730804443,-0.0,-0.0,-1.0,0.0692175369222395,1.0,0
41.66896057128906,21.76436996459961,-2.206665277481079,-0.0,-0.0,-1.0,0.11763614098450015,1.0,0
42.30110549926758,21.570236206054688,-2.3447372913360596,-0.0,-0.0,-1.0,0.03699463289467625,1.0,0
41.73854064941406,21.932653427124023,-2.2503249645233154,-0.0,-0.0,-1.0,0.09041944136636967,1.0,0
42.08062744140625,21.911346435546875,-2.3368685245513916,-0.0,-0.0,-1.0,0.02697088734509171,2.0,0
41.89701843261719,22.5001220703125,-2.379812479019165,-0.0,-0.0,-1.0,0.023884579858530323,2.0,0
42.00807189941406,22.301733016967773,-2.3775346279144287,-0.0,-0.0,-1.0,0.020552322091630267,1.0,0
41.12409210205078,22.952577590942383,-2.2546446323394775,-0.0,-0.0,-1.0,0.055265848418191266,2.0,0
41.432525634765625,22.78648567199707,-2.3060495853424072,-0.0,-0.0,-1.0,0.012537032575621219,1.0,0
41.72940444946289,22.703853607177734,-2.3690478801727295,0.5604004809537559,0.44341452469968484,-0.6995247388278353,0.013472719954593338,3.0,0
41.076759338378906,21.003684997558594,-1.9390041828155518,-0.0,-0.0,-1.0,0.1459128981073802,2.0,0
41.31389617919922,20.968740463256836,-1.9970324039459229,-0.0,-0.0,-1.0,0.2000229737974717,1.0,0
41.865989685058594,20.856830596923828,-2.128720998764038,-0.0,-0.0,-1.0,0.2021517720170597,2.0,0
41.937416076660156,20.65353012084961,-2.1202280521392822,-0.0,-0.0,-1.0,0.18123040183851633,1.0,0
41.43381118774414,21.322437286376953,-2.079434633255005,0.7615561609161845,0.6479747211067678,0.012687575702583017,0.12841469781022155,3.0,0
41.432044982910156,21.480915069580078,-2.102121591567993,-0.0,-0.0,-1.0,0.18815556184594817,1.0,0
41.62368392944336,21.632843017578125,-2.17509388923645,-0.0,-0.0,-1.0,0.1503188182882005,2.0,0
41.38486099243164,21.917339324951172,-2.155397653579712,0.4761848339632926,0.8465498035009595,0.23791055902552563,0.1734667680069693,4.0,0
40.62291717529297,22.434789657592773,-2.0400564670562744,-0.0,-0.0,-1.0,0.1288564873828026,1.0,0
42.65282440185547,22.48414421081543,-1.9491426944732666,-0.0,-0.0,-1.0,0.17370674811917047,2.0,0
40.96207809448242,22.967872619628906,-2.2159035205841064,0.0861775859260235,-0.28608910340638677,-0.9543198879810126,0.06134375139822157,3.0,0
42.37813949584961,22.84356117248535,-1.9385387897491455,-0.0,-0.0,-1.0,0.22400249740257655,2.0,0
42.488582611083984,22.765653610229492,-1.9520862102508545,-0.4414107228638872,-0.38227212605083255,-0.8118032984568102,0.19234460784649687,3.0,0
42.1519775390625,20.799034118652344,-1.611459493637085,-0.0,-0.0,-1.0,0.07925730482462306,1.0,0
41.100914001464844,20.941089630126953,-1.9628424644470215,-0.0,-0.0,-1.0,0.08477024921442626,2.0,0
41.90965270996094,20.7962703704834,-2.1676344871520996,-0.0,-0.0,-1.0,0.16003293954335035,1.0,0
42.03458023071289,20.67475700378418,-2.18361759185791,-0.0,-0.0,-1.0,0.09705568800912634,1.0,0
41.076515197753906,21.03377342224121,-1.971623420715332,-0.0,-0.0,-1.0,0.15212359341128584,2.0,0
41.294769287109375,21.085712432861328,-2.041754722595215,-0.0,-0.0,-1.0,0.21670207981963197,1.0,0
41.7880859375,21.018428802490234,-2.169340133666992,-0.0,-0.0,-1.0,0.11325961748716051,1.0,0
41.484432220458984,21.495319366455078,-2.165463447570801,-0.0,-0.0,-1.0,0.19945463806212885,1.0,0
41.77342987060547,21.604509353637695,-2.2651000022888184,-0.0,-0.0,-1.0,0.14712538980407422,1.0,0
42.0558967590332,21.489303588867188,-2.3239450454711914,-0.0,-0.0,-1.0,0.11506166466524886,1.0,0
41.086761474609375,22.07857894897461,-2.161289691925049,-0.0,-0.0,-1.0,0.05762642306444658,1.0,0
41.58298110961914,22.020160675048828,-2.286743640899658,-0.0,-0.0,-1.0,0.10375637762103411,1.0,0
41.75481414794922,21.925411224365234,-2.317009925842285,-0.0,-0.0,-1.0,0.06079512572027673,1.0,0
40.785797119140625,22.5646915435791,-2.1732168197631836,-0.0,-0.0,-1.0,0.06528911957165473,2.0,0
41.06177520751953,22.449371337890625,-2.2252678871154785,-0.0,-0.0,-1.0,0.016164213498827823,2.0,0
41.4993782043457,22.455158233642578,-2.345244884490967,-0.0,-0.0,-1.0,0.008815405354778318,1.0,0
41.71418762207031,22.243741989135742,-2.364058494567871,-0.0,-0.0,-1.0,0.013908909492968354,1.0,0
42.604774475097656,22.447786331176758,-2.055750846862793,-0.0,-0.0,-1.0,0.2320044864464407,2.0,0
40.847679138183594,22.9260196685791,-2.262080669403076,0.6054004353333884,0.660539535627541,-0.44404710872957665,0.03881191711410447,3.0,0
41.00260543823242,22.77946662902832,-2.274221897125244,-0.0,-0.0,-1.0,0.03994106200160705,1.0,0
41.31481170654297,22.62472915649414,-2.3276777267456055,-0.0,-0.0,-1.0,0.010786415716453524,1.0,0
42.45429229736328,22.738645553588867,-2.068985939025879,-0.0,-0.0,-1.0,0.18825288876117127,2.0,0
42.525089263916016,22.701751708984375,-2.0796661376953125,-0.0,-0.0,-1.0,0.21928488264085752,1.0,0
40.656063079833984,23.131301879882812,-2.253511428833008,-0.0,-0.0,-1.0,0.05766355322873821,2.0,0
42.58339309692383,22.94818115234375,-2.135955810546875,-0.0,-0.0,-1.0,0.12664134344345324,2.0,0
42.464454650878906,22.59606170654297,-2.0470404624938965,0.4450281753877431,0.6288471263069589,-0.6375744778820241,0.19087716458465603,3.0,0
42.67665481567383,22.418811798095703,-1.4871094226837158,-0.8735175635863505,-0.2624969497212086,-0.4099541651126717,0.04116805874984413,3.0,0
40.27310562133789,21.058340072631836,-2.1236281394958496,-0.0,-0.0,-1.0,0.051770133419662606,2.0,0
40.93211364746094,20.75811004638672,-2.2550225257873535,-0.0,-0.0,-1.0,0.06386114762388594,1.0,0
42.232330322265625,20.722944259643555,-2.0841755867004395,-0.0,-0.0,-1.0,0.10658556336235131,1.0,0
42.64467239379883,21.08986473083496,-2.233159065246582,-0.0,-0.0,-1.0,0.10277463911752092,1.0,0
42.61433410644531,21.56920623779297,-2.2932848930358887,-0.0,-0.0,-1.0,0.03121614633678173,1.0,0
42.36971664428711,22.022241592407227,-2.302452564239502,-0.0,-0.0,-1.0,0.01149356211075746,2.0,0
42.45319366455078,22.054845809936523,-2.3270983695983887,-0.0,-0.0,-1.0,0.032937223569731375,1.0,0
42.2967414855957,22.434480667114258,-2.349256992340088,-0.0,-0.0,-1.0,0.07824747137259759,2.0,0
41.79205322265625,22.923994064331055,-2.3126940727233887,-0.0,-0.0,-1.0,0.027122670589836487,1.0,0
42.12699890136719,22.72216796875,-2.3560523986816406,-0.0,-0.0,-1.0,0.04905556907446183,2.0,0
41.11050033569336,21.05010223388672,-1.8608413934707642,-0.8225720439890011,-0.5274257275275076,0.21259664717449486,0.14674283947042524,3.0,0
41.45372772216797,20.984233856201172,-1.9331568479537964,-0.0,-0.0,-1.0,0.2048736995355142,1.0,0
41.804901123046875,20.9327392578125,-2.009936809539795,-0.0,-0.0,-1.0,0.13464692204231132,2.0,0
41.960426330566406,20.784191131591797,-2.0268521308898926,-0.0,-0.0,-1.0,0.1886778279648265,1.0,0
41.107337951660156,21.099918365478516,-1.8673228025436401,-0.0,-0.0,-1.0,0.13769413446557793,1.0,0
41.445037841796875,21.29265022277832,-1.9756709337234497,-0.0,-0.0,-1.0,0.1296628245936966,1.0,0
41.69655227661133,21.428451538085938,-2.0550284385681152,-0.0,-0.0,-1.0,0.22382963228511196,1.0,0
41.07788848876953,21.683744430541992,-1.9480565786361694,-0.0,-0.0,-1.0,0.15943112946962762,1.0,0
42.6984748840332,22.522933959960938,-1.9007776975631714,-0.0,-0.0,-1.0,0.138042643104189,1.0,0
40.26362609863281,22.707666397094727,-1.9307185411453247,-0.0,-0.0,-1.0,0.22795840078047366,1.0,0
42.37364196777344,22.892993927001953,-1.8895920515060425,-0.0,-0.0,-1.0,0.1974761454444841,1.0,0
42.55852508544922,22.795578002929688,-1.911896824836731,0.11314198999417345,0.3564170958521462,-0.9274512083578739,0.20889719226922354,4.0,0
41.23997497558594,20.723546981811523,-2.1590588092803955,0.30907292558883803,0.9166102098251006,-0.2535737563557037,0.09147571641329343,4.0,0
41.4119873046875,20.90419578552246,-2.228497266769409,-0.0,-0.0,-1.0,0.12733716921452273,2.0,0
41.1387825012207,21.330183029174805,-2.2200677394866943,-0.0,-0.0,-1.0,0.08261120788012379,2.0,0
41.346736907958984,21.206050872802734,-2.2547385692596436,-0.0,-0.0,-1.0,0.13835831865501924,1.0,0
40.9006233215332,21.931385040283203,-2.252826452255249,-0.0,-0.0,-1.0,0.021718533215654253,1.0,0
41.21298599243164,21.79196548461914,-2.308868169784546,-0.0,-0.0,-1.0,0.09300572619359337,1.0,0
41.37467956542969,21.73764419555664,-2.3411409854888916,-0.0,-0.0,-1.0,0.12913163302717925,1.0,0
40.66419219970703,22.04038429260254,-2.2119107246398926,-0.0,-0.0,-1.0,0.027820237073700325,1.0,0
40.44838333129883,22.448753356933594,-2.2273478507995605,-0.0,-0.0,-1.0,0.07959892409857525,1.0,0
40.632110595703125,22.471729278564453,-2.2757980823516846,-0.0,-0.0,-1.0,0.05128338800881836,1.0,0
40.23963165283203,22.81141471862793,-2.2403335571289062,-0.0,-0.0,-1.0,0.06887787934307887,1.0,0
41.06114959716797,20.880090713500977,-2.134897232055664,-0.0,-0.0,-1.0,0.1954507353881488,2.0,0
41.767677307128906,20.79276466369629,-1.8366527557373047,-0.0,-0.0,-1.0,0.1706626128051858,2.0,0
40.69384765625,21.360170364379883,-2.1120383739471436,-0.0,-0.0,-1.0,0.06263494681489268,1.0,0
41.006324768066406,21.222471237182617,-2.17042875289917,-0.0,-0.0,-1.0,0.09211734990661023,2.0,0
41.495567321777344,21.448583602905273,-1.8597133159637451,-0.0,-0.0,-1.0,0.15340198196636817,2.0,0
40.45695114135742,22.107059478759766,-2.1718361377716064,-0.0,-0.0,-1.0,0.02927484802092239,2.0,0
40.27838134765625,22.552223205566406,-2.204223155975342,-0.4632043767829698,0.8563070017755702,-0.22842947279025588,0.07560652007156418,3.0,0
42.485198974609375,22.60613250732422,-2.2336909770965576,0.611019586129754,0.7750175625370997,-0.16125397088095708,0.16434383638338368,6.0,0
42.49203872680664,22.80228614807129,-2.2629992961883545,-0.0,-0.0,-1.0,0.19562769331175636,1.0,0
42.58345413208008,23.017114639282227,-2.31352162361145,-0.0,-0.0,-1.0,0.17212025362378972,2.0,0
41.052978515625,21.072067260742188,-1.7127854824066162,-0.0,-0.0,-1.0,0.2019267643118182,1.0,0
42.63515090942383,22.941911697387695,-1.7915258407592773,-0.0,-0.0,-1.0,0.19977982559532942,1.0,0
40.495452880859375,20.790542602539062,-2.209899663925171,-0.0,-0.0,-1.0,0.06883232980398989,1.0,0
41.650962829589844,22.203365325927734,-2.3552658557891846,-0.0,-0.0,-1.0,0.030794301339488243,1.0,0
40.634037017822266,20.64761734008789,-1.8245720863342285,0.3771560498973385,-0.1168777339902556,-0.9187452907760344,0.1270240013070109,3.0,0
40.408409118652344,20.808534622192383,-2.188098430633545,-0.0,-0.0,-1.0,0.07354069862494211,1.0,0
40.902618408203125,20.922332763671875,-1.9397661685943604,-0.0,-0.0,-1.0,0.14951931544999442,2.0,0
41.30802917480469,21.039888381958008,-2.0633583068847656,-0.0,-0.0,-1.0,0.19596808930506146,1.0,0
41.82276916503906,20.881750106811523,-2.1701364517211914,-0.0,-0.0,-1.0,0.18267913212691952,1.0,0
41.451751708984375,21.374248504638672,-2.1571667194366455,-0.0,-0.0,-1.0,0.18762746420796259,1.0,0
41.79159164428711,21.24077606201172,-2.221269130706787,-0.0,-0.0,-1.0,0.055316957797436846,1.0,0
41.522647857666016,21.745338439941406,-2.240253210067749,-0.0,-0.0,-1.0,0.1896361142242494,2.0,0
41.749725341796875,21.70562171936035,-2.290438175201416,-0.0,-0.0,-1.0,0.14026540676348961,2.0,0
41.228355407714844,22.251169204711914,-2.2597224712371826,-0.0,-0.0,-1.0,0.051902738843279846,1.0,0
41.46782684326172,22.124820709228516,-2.2954840660095215,-0.0,-0.0,-1.0,0.08561307458496091,1.0,0
40.32233428955078,22.569482803344727,-2.1026406288146973,-0.0,-0.0,-1.0,0.15366779815731205,2.0,0
40.705970764160156,22.520540237426758,-2.1846601963043213,-0.0,-0.0,-1.0,0.10027221275793026,1.0,0
41.040157318115234,22.40142250061035,-2.2423830032348633,-0.0,-0.0,-1.0,0.022442501343689403,1.0,0
42.63612747192383,22.533447265625,-2.1703310012817383,-0.6699974019972736,0.6683422177205839,-0.32314418040440607,0.19649413120370862,3.0,0
40.33125305175781,23.048444747924805,-2.2027430534362793,-0.0,-0.0,-1.0,0.07130710692393012,2.0,0
40.582420349121094,22.893470764160156,-2.229865550994873,-0.0,-0.0,-1.0,0.07130616524373347,2.0,0
42.458465576171875,22.747886657714844,-2.1671295166015625,0.6988434072184648,-0.4800402549814686,0.5302633739799624,0.20882571784360443,5.0,0
42.50437927246094,22.806720733642578,-2.186840295791626,0.3916980888106475,-0.8762530155036695,0.2806301125018699,0.18885049327499756,3.0,0
40.63609313964844,23.1185359954834,-2.288486957550049,-0.0,-0.0,-1.0,0.059776176676790284,2.0,0
41.53231430053711,21.4278507232666,-1.7526612281799316,-0.0,-0.0,-1.0,0.10656813309248364,1.0,0
41.7644157409668,21.495197296142578,-1.8143527507781982,-0.0,-0.0,-1.0,0.06647720946742872,1.0,0
41.66248321533203,20.898880004882812,-2.1854007244110107,-0.0,-0.0,-1.0,0.12611676950065775,1.0,0
41.4157600402832,21.35394859313965,-2.205144166946411,-0.0,-0.0,-1.0,0.1872373957600092,1.0,0
41.563392639160156,21.391332626342773,-2.2532694339752197,-0.0,-0.0,-1.0,0.15927407686712056,2.0,0
41.42142105102539,21.78542709350586,-2.294975519180298,-0.0,-0.0,-1.0,0.16635599528688788,1.0,0
41.589664459228516,21.684532165527344,-2.3197882175445557,-0.0,-0.0,-1.0,0.15248087036560506,1.0,0
40.705284118652344,22.249244689941406,-2.205418586730957,-0.0,-0.0,-1.0,0.056660408290992,1.0,0
40.960296630859375,22.21828842163086,-2.265216112136841,-0.0,-0.0,-1.0,0.030278724460025542,1.0,0
41.31737518310547,22.074878692626953,-2.3283917903900146,-0.0,-0.0,-1.0,0.10046612854974986,2.0,0
40.6029167175293,22.478784561157227,-2.231471300125122,-0.0,-0.0,-1.0,0.08013365677573463,2.0,0
40.76015090942383,22.378782272338867,-2.248948812484741,-0.0,-0.0,-1.0,0.047099447656505776,1.0,0
42.534934997558594,22.523969650268555,-2.290790557861328,-0.0,-0.0,-1.0,0.14294472832288774,2.0,0
42.46400833129883,22.88934326171875,-2.344245195388794,-0.0,-0.0,-1.0,0.19619065282759016,1.0,0
40.5974006652832,20.659467697143555,-1.8411192893981934,-0.0,-0.0,-1.0,0.16172898694136636,2.0,0
41.046417236328125,20.970874786376953,-2.0269031524658203,-0.0,-0.0,-1.0,0.08421272772887436,1.0,0
41.35226821899414,20.98965835571289,-2.115694284439087,-0.0,-0.0,-1.0,0.2494136689906929,1.0,0
42.29924774169922,20.791339874267578,-1.9261274337768555,-0.0,-0.0,-1.0,0.11342490355819307,1.0,0
40.92993927001953,21.229074478149414,-2.046412229537964,-0.0,-0.0,-1.0,0.14734093506360021,2.0,0
41.364227294921875,21.30165672302246,-1.979607343673706,-0.0,-0.0,-1.0,0.1341764241752252,1.0,0
42.659263610839844,21.12670135498047,-2.0715839862823486,-0.0,-0.0,-1.0,0.10277463911752094,1.0,0
42.0256233215332,21.567039489746094,-1.9916326999664307,-0.0,-0.0,-1.0,0.16292599786555906,1.0,0
40.284881591796875,22.564720153808594,-2.1705572605133057,-0.4632043767829698,0.8563070017755702,-0.22842947279025588,0.09508242031069461,3.0,0
40.4044303894043,22.538667678833008,-2.194688558578491,-0.0,-0.0,-1.0,0.08046557256414319,2.0,0
42.681583404541016,22.79171371459961,-1.9158384799957275,-0.0,-0.0,-1.0,0.1879519705911126,1.0,0
41.38589859008789,21.02086639404297,-1.7385122776031494,-0.0,-0.0,-1.0,0.16994666827380683,2.0,0
41.46040344238281,21.513277053833008,-1.4490265846252441,0.20645613532197943,0.029068587644596265,-0.9780239677023569,0.0747071297270523,4.0,0
42.616241455078125,22.625530242919922,-1.874084234237671,-0.2577001350606808,0.9469154677078017,0.19220233454727506,0.1534983425919313,3.0,0
42.54973220825195,22.833742141723633,-1.8962256908416748,0.11314198999417345,0.3564170958521462,-0.9274512083578739,0.22544126167024756,4.0,0
42.50896453857422,21.092201232910156,-2.226125478744507,-0.0,-0.0,-1.0,0.1027746391175209,1.0,0
42.66419219970703,21.172666549682617,-2.286639928817749,-0.0,-0.0,-1.0,0.07566699573165035,1.0,0
42.410987854003906,21.603242874145508,-2.29793381690979,-0.0,-0.0,-1.0,0.028570784753076207,1.0,0
42.080902099609375,22.06781578063965,-2.301828622817993,-0.0,-0.0,-1.0,0.013016099549529763,1.0,0
42.23334503173828,22.097442626953125,-2.3500266075134277,-0.0,-0.0,-1.0,0.012558202648073221,1.0,0
41.97906494140625,22.524349212646484,-2.3732926845550537,-0.0,-0.0,-1.0,0.02911711694769503,1.0,0
41.28215789794922,22.92900276184082,-2.281799077987671,-0.0,-0.0,-1.0,0.029524397697191722,1.0,0
41.60546875,22.80115509033203,-2.3363149166107178,-0.0,-0.0,-1.0,0.018655780382994598,1.0,0
41.86579132080078,22.71819496154785,-2.3862788677215576,-0.0,-0.0,-1.0,0.032468585728081825,2.0,0
41.09958267211914,21.04214096069336,-1.8126544952392578,0.05427777773811075,-0.9857600834555128,0.15915709443689063,0.14655409601270433,3.0,0
41.529232025146484,21.044418334960938,-1.9348738193511963,-0.0,-0.0,-1.0,0.12669524874375207,1.0,0
41.904808044433594,20.912946701049805,-2.0171756744384766,-0.0,-0.0,-1.0,0.15340250381775633,2.0,0
42.30604553222656,20.729305267333984,-2.099071741104126,-0.0,-0.0,-1.0,0.11777731375837791,1.0,0
41.31288146972656,21.228818893432617,-1.9111053943634033,-0.0,-0.0,-1.0,0.21086967485057803,1.0,0
41.565391540527344,21.366161346435547,-2.010584592819214,-0.0,-0.0,-1.0,0.1948888840521311,1.0,0
42.15690994262695,21.193147659301758,-2.143871545791626,-0.0,-0.0,-1.0,0.04785509119632341,1.0,0
42.2408561706543,21.197891235351562,-2.168933153152466,-0.0,-0.0,-1.0,0.034983441328908564,1.0,0
41.024654388427734,21.65662956237793,-1.9222726821899414,-0.0,-0.0,-1.0,0.15875941083162384,1.0,0
41.5743408203125,21.77960205078125,-2.099839687347412,-0.0,-0.0,-1.0,0.13778410485287731,1.0,0
41.59178161621094,21.897184371948242,-2.129941463470459,-0.0,-0.0,-1.0,0.1540429815208864,1.0,0
40.36399459838867,22.485157012939453,-1.9394505023956299,-0.0,-0.0,-1.0,0.20667209322040037,1.0,0
42.55291748046875,22.572017669677734,-2.1098546981811523,-0.0,-0.0,-1.0,0.11995317846550553,1.0,0
40.440731048583984,23.03225326538086,-2.0937082767486572,-0.0,-0.0,-1.0,0.07097921647700793,2.0,0
40.97944259643555,22.949481964111328,-2.208822250366211,0.4022197394342947,0.25069040844173174,-0.8805530082423916,0.0613437513982216,4.0,0
41.07088088989258,22.956274032592773,-2.2338478565216064,-0.0,-0.0,-1.0,0.058546805085036326,1.0,0
42.504146575927734,22.819454193115234,-2.1467559337615967,0.7551000210793231,0.6260924211882741,-0.19450511123518174,0.20220287384384197,3.0,0
42.61857223510742,23.078807830810547,-2.2258636951446533,-0.0,-0.0,-1.0,0.07327575109300045,2.0,0
41.5026741027832,21.452394485473633,-1.6384375095367432,0.7608112350701203,0.35251867047061064,-0.5448824199409547,0.075927888112342,4.0,0
42.66954803466797,22.555025100708008,-2.194995880126953,-0.6699974019972736,0.6683422177205839,-0.32314418040440607,0.17826713975489142,3.0,0
42.48401641845703,22.79222297668457,-2.2036867141723633,-0.0,-0.0,-1.0,0.21903506480569634,2.0,0
42.1898307800293,20.796886444091797,-1.6874008178710938,-0.0,-0.0,-1.0,0.11260479298675141,1.0,0
42.50813674926758,22.648523330688477,-1.9772958755493164,0.5785297964504861,0.8021980928000559,-0.14758554985808,0.24402082791435903,6.0,0
42.540889739990234,22.83177375793457,-1.8261942863464355,0.30623458024712896,-0.27579687627440036,-0.9111292251366695,0.17588274504828333,3.0,0
41.48807144165039,21.467266082763672,-1.6453132629394531,0.7608112350701203,0.35251867047061064,-0.5448824199409547,0.08215638091853189,4.0,0
42.41242980957031,22.660383224487305,-1.9863272905349731,-0.0,-0.0,-1.0,0.23379932961450076,2.0,0
42.63511657714844,22.52735710144043,-2.008881092071533,-0.913836336191653,0.030686689251684027,-0.4049215698855605,0.2229497388919095,3.0,0
42.36339569091797,22.805953979492188,-2.0113611221313477,-0.0,-0.0,-1.0,0.17153476984278207,1.0,0
41.43015670776367,21.52550506591797,-1.4562736749649048,0.0996709865824536,-0.07765122173251218,-0.9919858780230336,0.19116342658156255,5.0,0
42.55803298950195,22.573749542236328,-1.6382337808609009,-0.0,-0.0,-1.0,0.04684853519731528,1.0,0
42.64328384399414,22.478065490722656,-1.53407883644104,-0.7836958283067514,0.616961651765273,0.07196644319167554,0.05543224482395193,3.0,0
40.36137008666992,22.049789428710938,-2.1831464767456055,-0.0,-0.0,-1.0,0.022536085984669864,1.0,0
40.322776794433594,21.790157318115234,-2.1476759910583496,-0.0,-0.0,-1.0,0.010647729487267093,1.0,0
40.25480651855469,21.516979217529297,-2.116459846496582,-0.0,-0.0,-1.0,0.027999129876185733,2.0,0
40.26799774169922,21.18315887451172,-2.061265468597412,-0.0,-0.0,-1.0,0.0425644885764706,2.0,0
40.572044372558594,22.3183650970459,-2.189584255218506,-0.0,-0.0,-1.0,0.09589161829573613,1.0,0
40.91482162475586,20.91393280029297,-1.8925708532333374,0.9032403600108562,-0.3164369627693879,-0.28986979946304203,0.15356686684439158,3.0,0
40.85764694213867,20.846298217773438,-1.8930388689041138,-0.0,-0.0,-1.0,0.15482409890557425,1.0,0
41.161834716796875,20.947874069213867,-1.850335717201233,-0.0,-0.0,-1.0,0.1596970984170462,1.0,0
40.73828887939453,23.107099533081055,-2.2375364303588867,-0.0,-0.0,-1.0,0.054632855571221106,1.0,0
40.62333679199219,22.882884979248047,-2.216127395629883,-0.0,-0.0,-1.0,0.06478735966322319,2.0,0
40.59761428833008,22.516448974609375,-2.155984878540039,-0.0,-0.0,-1.0,0.1070689638453427,1.0,0
41.76033401489258,21.736242294311523,-2.3154492378234863,-0.0,-0.0,-1.0,0.11833020289959714,2.0,0
41.620689392089844,20.78275489807129,-2.154428720474243,-0.0,-0.0,-1.0,0.09793893051660975,1.0,0
42.095069885253906,22.184894561767578,-2.346015453338623,-0.0,-0.0,-1.0,0.01055176834240849,1.0,0
41.882835388183594,21.754573822021484,-2.2957763671875,-0.0,-0.0,-1.0,0.10473439155799479,1.0,0
41.889747619628906,21.18471908569336,-2.1794352531433105,-0.0,-0.0,-1.0,0.06547453185510796,1.0,0
41.87200164794922,20.99330711364746,-2.1452419757843018,-0.0,-0.0,-1.0,0.14107826022597092,2.0,0
42.640830993652344,22.412269592285156,-2.297624111175537,-0.0,-0.0,-1.0,0.11956966854937055,1.0,0
42.44390106201172,22.239482879638672,-2.2946455478668213,-0.0,-0.0,-1.0,0.09562722129920441,1.0,0
40.863189697265625,21.60748291015625,-1.9552409648895264,-0.0,-0.0,-1.0,0.08751290982388736,1.0,0
40.91877365112305,21.15908432006836,-1.871011734008789,-0.0,-0.0,-1.0,0.1822370753770159,1.0,0
41.126670837402344,21.043182373046875,-1.8154423236846924,-0.1732349332476203,-0.9842887270984243,-0.03413736383578019,0.14363298484096687,4.0,0
40.9503288269043,20.89421844482422,-1.8222424983978271,-0.0,-0.0,-1.0,0.21821284271420888,1.0,0
41.37049102783203,20.95363426208496,-1.7580139636993408,-0.0,-0.0,-1.0,0.1619910731651906,1.0,0
42.4388542175293,22.709026336669922,-1.8991639614105225,-0.0,-0.0,-1.0,0.19338899017023087,2.0,0
42.29895782470703,22.541433334350586,-1.8885395526885986,-0.0,-0.0,-1.0,0.15687048092947414,1.0,0
42.580604553222656,22.827543258666992,-1.9009137153625488,0.11314198999417345,0.3564170958521462,-0.9274512083578739,0.2856443052754943,4.0,0
42.62720489501953,22.57526397705078,-1.8455815315246582,-0.0,-0.0,-1.0,0.10362319561061692,1.0,0
40.82072830200195,22.95989227294922,-2.2484376430511475,-0.47851996035318917,-0.02723898329952072,-0.8776540806789374,0.05158081412406959,3.0,0
40.7061767578125,22.670352935791016,-2.213883876800537,-0.0,-0.0,-1.0,0.04579948576820386,1.0,0
40.463504791259766,22.28582763671875,-2.1854002475738525,-0.0,-0.0,-1.0,0.05109379780689617,2.0,0
40.24114227294922,21.97747802734375,-2.1695396900177,-0.0,-0.0,-1.0,0.009165618464887223,2.0,0
40.878292083740234,22.918472290039062,-2.2315709590911865,-0.0,-0.0,-1.0,0.06069475768548399,2.0,0
40.695831298828125,22.463420867919922,-2.1783010959625244,-0.0,-0.0,-1.0,0.09820560208175186,1.0,0
40.66975402832031,22.382137298583984,-2.1680617332458496,-0.0,-0.0,-1.0,0.08607558615530275,1.0,0
40.22139358520508,21.24654197692871,-2.04998779296875,-0.0,-0.0,-1.0,0.042565275121873816,2.0,0
42.06090545654297,21.903215408325195,-2.3474841117858887,-0.0,-0.0,-1.0,0.028543940110951373,2.0,0
41.857242584228516,21.583829879760742,-2.3179423809051514,-0.0,-0.0,-1.0,0.14116801196964104,1.0,0
41.87399673461914,21.309036254882812,-2.257654905319214,-0.0,-0.0,-1.0,0.0716245780819608,1.0,0
42.595375061035156,22.159709930419922,-2.3082830905914307,-0.0,-0.0,-1.0,0.08872696385362852,1.0,0
42.38677215576172,21.961837768554688,-2.301541328430176,0.23103749613809565,0.9689365111599294,-0.088225351908982,0.010816273862082903,3.0,0
42.03512954711914,20.962894439697266,-2.155941963195801,-0.0,-0.0,-1.0,0.10425185296714962,2.0,0
41.916419982910156,20.717300415039062,-2.129436492919922,-0.5707879743169776,0.13588488353109682,-0.8097755163024267,0.1976461250543837,3.0,0
41.12040710449219,21.03607940673828,-1.8572993278503418,-0.1732349332476203,-0.9842887270984243,-0.03413736383578019,0.1467428394704253,4.0,0
40.92594909667969,20.9276065826416,-1.8728244304656982,-0.0,-0.0,-1.0,0.16900039527140834,2.0,0
42.380859375,22.57023048400879,-1.9345331192016602,-0.0,-0.0,-1.0,0.2001405927277481,2.0,0
42.11036682128906,20.725013732910156,-1.635115623474121,-0.0,-0.0,-1.0,0.09159717365927236,1.0,0
41.42753601074219,21.45397186279297,-1.3907344341278076,-0.0,-0.0,-1.0,0.1911634265815625,1.0,0
41.75944137573242,22.685815811157227,-2.3564186096191406,0.5604004809537559,0.44341452469968484,-0.6995247388278353,0.019856137491975696,3.0,0
41.54811096191406,22.419361114501953,-2.336982250213623,-0.0,-0.0,-1.0,0.010807337338617882,1.0,0
42.07178497314453,22.763385772705078,-2.321878433227539,-0.0,-0.0,-1.0,0.09841753100423833,1.0,0
41.945709228515625,22.80060577392578,-2.349968910217285,-0.0,-0.0,-1.0,0.04186438174458434,1.0,0
41.51524353027344,21.82794952392578,-2.224071502685547,-0.0,-0.0,-1.0,0.16724986392256544,1.0,0
41.46944808959961,21.65521240234375,-2.198068380355835,-0.03704053171132148,-0.39095261351432875,-0.9196651852695404,0.18427322534903992,3.0,0
40.945892333984375,21.124637603759766,-2.1927149295806885,-0.0,-0.0,-1.0,0.10196526751483613,1.0,0
40.72795867919922,20.944250106811523,-2.2011945247650146,-0.0,-0.0,-1.0,0.07969300256854013,1.0,0
40.50800323486328,20.673995971679688,-2.195641040802002,-0.0,-0.0,-1.0,0.13143605363545605,1.0,0
42.64725875854492,22.641773223876953,-2.205479860305786,-0.0,-0.0,-1.0,0.18784808548720072,1.0,0
42.34767150878906,22.534719467163086,-2.229541301727295,-0.0,-0.0,-1.0,0.22469557988917851,1.0,0
40.401485443115234,23.003808975219727,-2.088913917541504,-0.0,-0.0,-1.0,0.07379060388416508,2.0,0
41.12108612060547,21.08230972290039,-2.1520557403564453,-0.0,-0.0,-1.0,0.16671312895673923,2.0,0
40.963096618652344,20.918113708496094,-2.151465654373169,-0.01335441363100117,-0.773044303773966,-0.634211450574015,0.12742260431499802,3.0,0
42.63294982910156,22.524368286132812,-2.1825201511383057,-0.6699974019972736,0.6683422177205839,-0.32314418040440607,0.19551419338040665,3.0,0
41.84246826171875,21.72952651977539,-2.147585868835449,-0.0,-0.0,-1.0,0.17978924331709356,2.0,0
41.55382537841797,21.368078231811523,-2.1271297931671143,-0.0,-0.0,-1.0,0.21614276015182995,1.0,0
41.38960647583008,21.051048278808594,-2.0964505672454834,-0.0,-0.0,-1.0,0.21334849904482278,1.0,0
41.05439376831055,20.897478103637695,-2.1303892135620117,-0.0,-0.0,-1.0,0.2313344033884489,2.0,0
41.900508880615234,20.922409057617188,-1.9786667823791504,-0.0,-0.0,-1.0,0.12699757965332142,2.0,0
41.79975128173828,20.934062957763672,-1.9991297721862793,-0.0,-0.0,-1.0,0.11648163642288559,2.0,0
42.29423141479492,20.73670768737793,-1.872082233428955,-0.5659746321131437,0.56655779601303,-0.5989031470790991,0.10776223213589736,3.0,0
41.49471664428711,21.43661880493164,-1.6582362651824951,0.9429467775004582,0.3272655348033465,0.06122617521437151,0.07859981248032356,5.0,0
41.91226577758789,22.866531372070312,-2.3040661811828613,-0.0,-0.0,-1.0,0.031157556186865464,1.0,0
41.65422821044922,22.72170639038086,-2.315183162689209,-0.0,-0.0,-1.0,0.008001222207966464,1.0,0
41.39748764038086,22.45410919189453,-2.3031005859375,-0.0,-0.0,-1.0,0.02062007675070443,1.0,0
42.65731430053711,22.902145385742188,-2.199650764465332,-0.0,-0.0,-1.0,0.11079063410925837,1.0,0
42.08090591430664,22.800065994262695,-2.2643213272094727,-0.0,-0.0,-1.0,0.10227157976931238,1.0,0
41.339454650878906,22.178199768066406,-2.2583980560302734,-0.0,-0.0,-1.0,0.09637922916289786,2.0,0
41.2816047668457,21.952234268188477,-2.224414348602295,-0.0,-0.0,-1.0,0.14268364833181674,2.0,0
40.990665435791016,21.845365524291992,-2.2541756629943848,-0.0,-0.0,-1.0,0.05561288347899723,1.0,0
40.87245559692383,21.410797119140625,-2.193990707397461,-0.0,-0.0,-1.0,0.08224039137908755,1.0,0
42.389183044433594,22.501327514648438,-2.155245780944824,-0.0,-0.0,-1.0,0.19841517163599948,1.0,0
40.9600830078125,21.384864807128906,-2.1734280586242676,-0.0,-0.0,-1.0,0.10065865590206474,1.0,0
40.79732131958008,21.21826934814453,-2.1724133491516113,-0.0,-0.0,-1.0,0.09023490791488491,1.0,0
40.56071090698242,20.919368743896484,-2.1629638671875,0.9370629455789445,-0.34768996687841847,-0.03201129417871081,0.02675024126276327,3.0,0
42.599876403808594,22.450305938720703,-2.1127419471740723,-0.7934008118082737,-0.07978543114902067,-0.6034479569924296,0.21546809685833287,3.0,0
41.598907470703125,21.58875846862793,-2.09995698928833,-0.0,-0.0,-1.0,0.16198816940504993,2.0,0
41.009037017822266,21.13397789001465,-2.1184544563293457,-0.0,-0.0,-1.0,0.09608291818026707,1.0,0
41.92353820800781,21.561248779296875,-2.0397238731384277,-0.0,-0.0,-1.0,0.20272712448184957,1.0,0
41.68548583984375,21.350601196289062,-2.039548873901367,-0.0,-0.0,-1.0,0.19220363195426404,1.0,0
41.47612380981445,20.978408813476562,-2.005648612976074,-0.0,-0.0,-1.0,0.2001874788443642,1.0,0
41.00493621826172,20.909801483154297,-2.078433036804199,0.27735679607804903,-0.21779848137485333,-0.9357547911606584,0.2166638077606323,4.0,0
41.826324462890625,20.76153564453125,-1.9029303789138794,-0.0,-0.0,-1.0,0.13665107365666096,1.0,0
42.283714294433594,20.736465454101562,-1.818508505821228,-0.0,-0.0,-1.0,0.10407553159316144,1.0,0
42.650630950927734,22.426795959472656,-1.606542706489563,-0.0,-0.0,-1.0,0.03716001539757736,2.0,0
41.538856506347656,21.382646560668945,-1.5815504789352417,-0.0,-0.0,-1.0,0.08032016424648612,1.0,0
41.04193115234375,23.11434555053711,-2.247361660003662,-0.0,-0.0,-1.0,0.05372983063606647,2.0,0
40.93891906738281,22.91189956665039,-2.223038673400879,-0.0,-0.0,-1.0,0.062462623179183566,2.0,0
40.75730895996094,22.602802276611328,-2.1908950805664062,-0.0,-0.0,-1.0,0.06739884348662337,1.0,0
40.3892936706543,22.371776580810547,-2.2037830352783203,-0.0,-0.0,-1.0,0.06493687431101995,2.0,0
40.82955551147461,22.477008819580078,-2.1560726165771484,-0.0,-0.0,-1.0,0.06800553006700284,2.0,0
40.417503356933594,22.314224243164062,-2.1887083053588867,-0.0,-0.0,-1.0,0.04289369882314347,1.0,0
42.2591552734375,21.922794342041016,-2.3303465843200684,-0.0,-0.0,-1.0,0.016341192087669813,1.0,0
41.990596771240234,21.574729919433594,-2.296319007873535,-0.0,-0.0,-1.0,0.14240963124813832,1.0,0
42.09538650512695,21.08295440673828,-2.1696224212646484,-0.0,-0.0,-1.0,0.05972434648856468,2.0,0
42.02044677734375,20.933292388916016,-2.149874687194824,-0.0,-0.0,-1.0,0.12911738723855407,2.0,0
41.90385818481445,20.708587646484375,-2.122044086456299,-0.0,-0.0,-1.0,0.20523399425647307,2.0,0
42.51472854614258,22.559152603149414,-1.934407114982605,-0.3646634801520847,0.9309854477829703,0.01693051268309961,0.17012339621593497,3.0,0
41.06657791137695,21.586048126220703,-1.9529889822006226,-0.0,-0.0,-1.0,0.16739558348233857,1.0,0
41.55066680908203,21.371328353881836,-1.8385666608810425,-0.0,-0.0,-1.0,0.145034426166475,1.0,0
41.283180236816406,21.123668670654297,-1.8339816331863403,-0.0,-0.0,-1.0,0.1929256296877858,1.0,0
41.04616165161133,21.04635238647461,-1.8574482202529907,-0.0,-0.0,-1.0,0.2075697171366338,2.0,0
40.290687561035156,20.760669708251953,-1.931350588798523,-0.0,-0.0,-1.0,0.15151156957152584,1.0,0
41.4742317199707,20.97735595703125,-1.7770692110061646,-0.0,-0.0,-1.0,0.1216411455624464,1.0,0
42.20387268066406,20.718036651611328,-1.6165980100631714,-0.4380584708332179,0.32085571757369974,-0.8397359017164439,0.11260479298675134,3.0,0
42.175838470458984,20.684982299804688,-1.6146034002304077,-0.4380584708332179,0.32085571757369974,-0.8397359017164439,0.07988445037174652,3.0,0
41.04719543457031,23.114459991455078,-2.2323977947235107,-0.0,-0.0,-1.0,0.05372983063606646,2.0,0
41.00200653076172,22.941518783569336,-2.204397439956665,0.4022197394342947,0.25069040844173174,-0.8805530082423916,0.06134375139822157,4.0,0
40.75695037841797,22.686372756958008,-2.19044828414917,-0.0,-0.0,-1.0,0.0440977927900425,1.0,0
40.480194091796875,22.517532348632812,-2.199446201324463,0.15958343931988633,0.3535495454360207,-0.9217026878645951,0.07925999869962425,3.0,0
40.78076171875,22.48625946044922,-2.147770404815674,-0.0,-0.0,-1.0,0.07586720351449534,1.0,0
40.35859680175781,22.337730407714844,-2.1840128898620605,-0.0,-0.0,-1.0,0.05616224787822189,2.0,0
42.39716720581055,22.024112701416016,-2.304018974304199,-0.0,-0.0,-1.0,0.013329736373449412,2.0,0
41.95285415649414,21.686901092529297,-2.2967443466186523,-0.0,-0.0,-1.0,0.14263477685485373,1.0,0
41.94071578979492,21.258644104003906,-2.201261281967163,-0.0,-0.0,-1.0,0.06050954891105486,1.0,0
41.976375579833984,20.8292236328125,-2.0986247062683105,-0.0,-0.0,-1.0,0.19355615178932017,2.0,0
41.814483642578125,20.845741271972656,-2.1307573318481445,-0.0,-0.0,-1.0,0.2056280932756347,1.0,0
42.422340393066406,22.592693328857422,-1.9379677772521973,-0.0,-0.0,-1.0,0.19708083233356735,2.0,0
41.4909782409668,21.398723602294922,-1.8301284313201904,-0.0,-0.0,-1.0,0.15731911570760015,1.0,0
41.2338752746582,21.146175384521484,-1.821619987487793,-0.0,-0.0,-1.0,0.19464251776840288,1.0,0
40.99674987792969,20.94179916381836,-1.8209807872772217,-0.0,-0.0,-1.0,0.14397927612089756,1.0,0
40.54609680175781,20.639873504638672,-1.8402135372161865,-0.0,-0.0,-1.0,0.15623821737120297,1.0,0
40.288841247558594,20.718244552612305,-1.8976969718933105,-0.0,-0.0,-1.0,0.15151156957152584,1.0,0
41.461997985839844,21.51259994506836,-1.380805492401123,-0.0,-0.0,-1.0,0.1911634265815625,1.0,0
42.166011810302734,20.71855926513672,-1.5966477394104004,-0.4380584708332179,0.32085571757369974,-0.8397359017164439,0.07925730482462308,3.0,0
42.57744598388672,22.577028274536133,-2.2932658195495605,-0.0,-0.0,-1.0,0.1294739472738126,1.0,0
42.09767150878906,22.651203155517578,-2.372992992401123,-0.0,-0.0,-1.0,0.04173938736430507,1.0,0
41.87698745727539,22.53040313720703,-2.3728103637695312,-0.0,-0.0,-1.0,0.02598297919686202,2.0,0
41.014835357666016,22.810697555541992,-2.044796943664551,-0.0,-0.0,-1.0,0.05582392639112585,1.0,0
40.61091613769531,22.97063636779785,-2.1288790702819824,-0.0,-0.0,-1.0,0.06695891013332597,1.0,0
41.61216354370117,22.30483627319336,-2.3550753593444824,-0.0,-0.0,-1.0,0.015041720751653042,1.0,0
41.484893798828125,21.76007080078125,-2.24385929107666,-0.0,-0.0,-1.0,0.1956598233237585,2.0,0
41.26958465576172,21.83902931213379,-2.294680595397949,-0.0,-0.0,-1.0,0.1599231451913154,1.0,0
41.893516540527344,21.54372787475586,-2.1326026916503906,-0.0,-0.0,-1.0,0.19418491578142377,1.0,0
41.58628845214844,21.693714141845703,-2.2131643295288086,-0.0,-0.0,-1.0,0.13800169214437624,1.0,0
41.23566818237305,21.603084564208984,-2.244917392730713,-0.0,-0.0,-1.0,0.08278026975517729,1.0,0
40.8172607421875,21.396652221679688,-2.263622760772705,-0.0,-0.0,-1.0,0.06233651199520692,1.0,0
41.470420837402344,21.139591217041016,-2.101459503173828,-0.0,-0.0,-1.0,0.19871067468271414,1.0,0
41.12993621826172,21.18638801574707,-2.1657137870788574,-0.0,-0.0,-1.0,0.12250949960840003,2.0,0
40.7890625,21.03933334350586,-2.187943935394287,-0.0,-0.0,-1.0,0.08131111475953746,1.0,0
40.987335205078125,20.894142150878906,-2.1227569580078125,0.04892428323327482,-0.9531747775306818,-0.2984363550062988,0.16764057369034754,4.0,0
40.62409973144531,20.929901123046875,-2.1913504600524902,-0.0,-0.0,-1.0,0.028447128786313575,1.0,0
40.43580627441406,20.74734115600586,-2.1836013793945312,-0.0,-0.0,-1.0,0.10379782783538662,1.0,0
42.60204315185547,22.63873291015625,-1.8242601156234741,-0.0,-0.0,-1.0,0.11135573477488345,1.0,0
41.50563430786133,21.443092346191406,-1.702036738395691,-0.0,-0.0,-1.0,0.09260413909528957,2.0,0
41.00812911987305,21.675640106201172,-1.8147817850112915,-0.0,-0.0,-1.0,0.1233867536676637,1.0,0
41.3646240234375,21.0447998046875,-1.6407221555709839,-0.0,-0.0,-1.0,0.1696946059691352,1.0,0
42.256690979003906,20.774600982666016,-1.896987795829773,-0.0,-0.0,-1.0,0.07841995758463433,2.0,0
41.817874908447266,20.832714080810547,-1.9765945672988892,-0.0,-0.0,-1.0,0.11945640204002794,1.0,0
41.539207458496094,21.5395450592041,-1.6191084384918213,-0.0,-0.0,-1.0,0.08420859487347972,1.0,0
41.23870086669922,21.323881149291992,-1.6334729194641113,-0.0,-0.0,-1.0,0.08535761496252835,1.0,0
42.6103401184082,22.757949829101562,-2.0725314617156982,-0.0,-0.0,-1.0,0.24119269008646924,1.0,0
42.31159210205078,22.620330810546875,-2.0829546451568604,-0.0,-0.0,-1.0,0.20881221965336388,1.0,0
42.02827835083008,23.025386810302734,-2.2233774662017822,-0.0,-0.0,-1.0,0.07819087628370737,2.0,0
41.66938018798828,23.092151641845703,-2.2950291633605957,-0.0,-0.0,-1.0,0.02602017716944896,1.0,0
41.351497650146484,22.881542205810547,-2.2965924739837646,-0.0,-0.0,-1.0,0.026272193770345842,1.0,0
41.09284210205078,22.510189056396484,-2.2540090084075928,-0.0,-0.0,-1.0,0.015514929635366735,1.0,0
40.94435501098633,22.2752685546875,-2.226402521133423,-0.0,-0.0,-1.0,0.03237029230068323,1.0,0
40.684043884277344,21.815345764160156,-2.170719861984253,-0.0,-0.0,-1.0,0.024719949385316596,1.0,0
40.61286926269531,21.804019927978516,-2.181502103805542,-0.0,-0.0,-1.0,0.006828355060375277,1.0,0
40.44091796875,21.51056671142578,-2.1504011154174805,-0.0,-0.0,-1.0,0.021187884011715067,1.0,0
42.70901107788086,22.677749633789062,-2.038578510284424,-0.0,-0.0,-1.0,0.14562716849242538,1.0,0
42.085662841796875,20.887157440185547,-1.7103724479675293,-0.0,-0.0,-1.0,0.09029784065710238,1.0,0
41.39994430541992,21.519710540771484,-1.974471092224121,-0.0,-0.0,-1.0,0.11584318818850697,2.0,0
41.60978317260742,20.93891143798828,-1.8060452938079834,-0.0,-0.0,-1.0,0.06265547444699818,1.0,0
41.33232879638672,21.122711181640625,-1.897625207901001,-0.0,-0.0,-1.0,0.23989437162484506,1.0,0
40.82950210571289,21.21133804321289,-2.0110509395599365,-0.0,-0.0,-1.0,0.15208505513975448,1.0,0
40.68260192871094,21.2755126953125,-2.052955389022827,-0.0,-0.0,-1.0,0.06037693857244766,1.0,0
40.27096176147461,21.12566375732422,-2.1013717651367188,-0.0,-0.0,-1.0,0.05029751953339348,2.0,0
42.64877700805664,22.48834228515625,-1.562361717224121,-0.0,-0.0,-1.0,0.05543224482395193,2.0,0
42.5245475769043,22.558467864990234,-1.5932302474975586,-0.0,-0.0,-1.0,0.04609852195737501,1.0,0
41.33730697631836,21.56483268737793,-1.5631556510925293,-0.0,-0.0,-1.0,0.189655932010934,1.0,0
41.43000411987305,21.468843460083008,-1.5299222469329834,-0.0,-0.0,-1.0,0.1585188982895701,2.0,0
42.446834564208984,22.822006225585938,-1.9047839641571045,-0.0,-0.0,-1.0,0.22321204017502944,2.0,0
42.48139190673828,20.862417221069336,-1.3706079721450806,-0.0,-0.0,-1.0,0.0930538076974866,1.0,0
40.97028350830078,22.017379760742188,-2.16701078414917,-0.0,-0.0,-1.0,0.02673125807055898,1.0,0
41.47416687011719,21.6179141998291,-2.1824028491973877,0.8262572899404121,0.5307650323649458,-0.18864615352284358,0.1951221391736391,4.0,0
41.533592224121094,21.51285171508789,-2.1783668994903564,-0.0,-0.0,-1.0,0.21345926558301412,1.0,0
42.07006072998047,22.291942596435547,-2.319390058517456,-0.0,-0.0,-1.0,0.018619747967794097,1.0,0
40.47172927856445,21.12636375427246,-2.018251895904541,-0.0,-0.0,-1.0,0.04735534574853576,1.0,0
40.991554260253906,20.981719970703125,-2.0624845027923584,0.8022591633317778,-0.31391986925750365,0.5077741136918538,0.26482434131020577,4.0,0
41.12362289428711,20.8763427734375,-2.066842794418335,-0.0,-0.0,-1.0,0.18881523096829,1.0,0
40.94556427001953,21.491302490234375,-2.1095130443573,-0.0,-0.0,-1.0,0.11264254096369701,1.0,0
40.59422302246094,22.204017639160156,-2.1445939540863037,-0.0,-0.0,-1.0,0.07618007446071627,2.0,0
40.55729675292969,22.367778778076172,-2.1578476428985596,-0.0,-0.0,-1.0,0.0899136934685703,1.0,0
40.363250732421875,20.95399284362793,-2.1324656009674072,0.5343266432407914,0.054287319154212886,-0.8435330019045353,0.039814046536404794,4.0,0
41.60185623168945,21.07891845703125,-1.484412431716919,-0.0,-0.0,-1.0,0.10871358097363676,1.0,0
42.43279266357422,22.724828720092773,-1.8762449026107788,-0.0,-0.0,-1.0,0.14888492118786925,2.0,0
42.684898376464844,22.574966430664062,-1.8847843408584595,-0.0,-0.0,-1.0,0.2105500490312653,1.0,0
42.430931091308594,22.86855697631836,-1.89093816280365,-0.0,-0.0,-1.0,0.18555041589893964,2.0,0
41.446563720703125,21.524765014648438,-1.6594637632369995,-0.0,-0.0,-1.0,0.07934030070824856,1.0,0
41.73199462890625,20.82400894165039,-1.8371773958206177,-0.0,-0.0,-1.0,0.15821801811523958,2.0,0
42.264373779296875,20.82037353515625,-1.8902498483657837,-0.0,-0.0,-1.0,0.11999908701779459,2.0,0
41.40163803100586,21.372997283935547,-1.876336932182312,-0.0,-0.0,-1.0,0.11663759806802965,1.0,0
42.48798370361328,22.618144989013672,-2.1483073234558105,0.8567570495986774,0.27778571450084144,0.4345140444015895,0.1736081003843964,5.0,0
42.696533203125,22.43716049194336,-2.1443090438842773,-0.7873081449347225,0.5690073561009591,-0.23743738884691845,0.13598142188010007,3.0,0
42.46027755737305,22.93378448486328,-2.1882681846618652,-0.5422911418847934,-0.3269803329738282,-0.7739536027964542,0.2061871202745812,3.0,0
42.46244812011719,22.61620330810547,-2.260866641998291,0.8502428607316596,-0.0708366670407081,-0.5216025732081924,0.14491488896546292,6.0,0
42.468997955322266,22.944862365722656,-2.3092780113220215,-0.0,-0.0,-1.0,0.18547316696010882,2.0,0
40.98722839355469,21.019733428955078,-1.878371238708496,-0.0,-0.0,-1.0,0.22689265694198582,2.0,0
41.39378356933594,21.074941635131836,-1.928833246231079,0.4227046168680943,0.4336176179462403,-0.7957993266427323,0.20069171501255156,3.0,0
42.59165954589844,22.616058349609375,-1.524425983428955,-0.0,-0.0,-1.0,0.05005495642843438,1.0,0
42.692840576171875,22.508346557617188,-1.5189156532287598,-0.0,-0.0,-1.0,0.05574722975568765,1.0,0
42.651268005371094,22.48069190979004,-2.2047176361083984,-0.0,-0.0,-1.0,0.18015371816360634,1.0,0
41.20002365112305,22.983963012695312,-2.277406692504883,-0.0,-0.0,-1.0,0.04794426314506857,1.0,0
42.462406158447266,22.66012954711914,-2.2391443252563477,-0.0,-0.0,-1.0,0.13214791220574346,2.0,0
42.623878479003906,23.11368179321289,-2.349485397338867,-0.0,-0.0,-1.0,0.1721202536237897,2.0,0
41.42091369628906,21.060903549194336,-1.837147831916809,-0.0,-0.0,-1.0,0.13660889705640886,1.0,0
41.2137451171875,21.210346221923828,-1.863066554069519,-0.0,-0.0,-1.0,0.12660258260642102,2.0,0
40.299373626708984,22.39759635925293,-2.113757610321045,-0.0,-0.0,-1.0,0.11361806030781166,1.0,0
40.22593307495117,22.765583038330078,-2.201775074005127,-0.0,-0.0,-1.0,0.09763463454063863,1.0,0
