x,y,z,nx,ny,nz,curvature,density,label
58.054351806640625,13.677525520324707,-2.29681658744812,-0.0,-0.0,-1.0,0.019694987492029296,1.0,0
58.193084716796875,13.576573371887207,-2.2464373111724854,-0.0,-0.0,-1.0,0.01616425110616606,1.0,0
57.91021728515625,14.13589859008789,-2.2277097702026367,-0.0,-0.0,-1.0,0.025143846987594334,1.0,0
57.93810272216797,14.576095581054688,-2.2580080032348633,-0.0,-0.0,-1.0,0.03289956733965565,1.0,0
58.90167236328125,13.359665870666504,-2.309424877166748,0.35026275476121416,-0.6071823446912635,-0.7131939448160682,0.03874768121645309,3.0,0
58.72835922241211,13.578128814697266,-2.2517788410186768,0.03352798722365552,0.9069470476795457,-0.4199082361398573,0.051788739183990545,4.0,0
59.05903625488281,15.071860313415527,-2.243865489959717,-0.0,-0.0,-1.0,0.03931623146962284,1.0,0
59.32215881347656,14.413813591003418,-2.28023624420166,-0.0,-0.0,-1.0,0.020457025366623097,1.0,0
59.60599899291992,14.217999458312988,-2.2306041717529297,-0.0,-0.0,-1.0,0.02705721364448646,1.0,0
60.03022766113281,14.882891654968262,-2.3549115657806396,-0.0,-0.0,-1.0,0.08676386763652957,1.0,0
58.74900436401367,13.56536865234375,-2.2771613597869873,0.03352798722365552,0.9069470476795457,-0.4199082361398573,0.04597318206568531,4.0,0
59.13679122924805,13.86228084564209,-2.3841657638549805,-0.0,-0.0,-1.0,0.13080592195878188,2.0,0
58.79857635498047,13.273902893066406,-2.397487163543701,-0.0,-0.0,-1.0,0.01982531403501088,1.0,0
58.15531921386719,13.928369522094727,-2.226616382598877,-0.0,-0.0,-1.0,0.02915290087822838,1.0,0
58.27156448364258,14.506582260131836,-2.2737832069396973,-0.0,-0.0,-1.0,0.033423834434127164,1.0,0
59.94085693359375,13.683826446533203,-2.174532890319824,-0.0,-0.0,-1.0,0.057820161009666075,1.0,0
58.042518615722656,14.94516372680664,-2.2234930992126465,-0.0,-0.0,-1.0,0.05515692981743913,2.0,0
58.09115219116211,13.479706764221191,-2.2503552436828613,-0.0,-0.0,-1.0,0.013739804388629295,1.0,0
60.115901947021484,14.062637329101562,-2.3660624027252197,-0.0,-0.0,-1.0,0.040354318415077896,1.0,0
58.08375930786133,13.95154094696045,-2.2505133152008057,-0.0,-0.0,-1.0,0.02975927057011129,2.0,0
59.92658615112305,14.482377052307129,-2.325559139251709,-0.0,-0.0,-1.0,0.12866089709957754,2.0,0
59.97758865356445,15.435468673706055,-2.3776674270629883,-0.0,-0.0,-1.0,0.020356149336473037,2.0,0
59.95588684082031,13.829659461975098,-2.396541118621826,-0.0,-0.0,-1.0,0.03668533823580249,1.0,0
59.65887451171875,14.19513988494873,-2.2974019050598145,-0.0,-0.0,-1.0,0.021522574845045786,1.0,0
60.054019927978516,15.379444122314453,-2.39254093170166,-0.0,-0.0,-1.0,0.02012808725684271,1.0,0
60.163063049316406,13.615800857543945,-2.215038537979126,0.8385261497776424,-0.4842128716454202,-0.24982351985347384,0.061590221377042786,3.0,0
57.941490173339844,13.567718505859375,-2.287691593170166,-0.0,-0.0,-1.0,0.01953936720745101,1.0,0
57.981536865234375,15.074356079101562,-2.239560842514038,-0.0,-0.0,-1.0,0.027619957151386234,1.0,0
58.231895446777344,14.60226058959961,-2.260145425796509,-0.0,-0.0,-1.0,0.049158507810152165,1.0,0
59.58803176879883,14.801356315612793,-2.363605499267578,-0.0,-0.0,-1.0,0.03240309995919599,2.0,0
59.107383728027344,14.62645435333252,-2.3814120292663574,-0.0,-0.0,-1.0,0.033736911392122045,2.0,0
59.85517501831055,14.356513977050781,-2.429759979248047,-0.0,-0.0,-1.0,0.08010198523946198,1.0,0
60.025299072265625,14.603667259216309,-2.4691061973571777,-0.0,-0.0,-1.0,0.10571240923471466,1.0,0
59.30946731567383,13.837949752807617,-2.375713348388672,-0.0,-0.0,-1.0,0.043842732396378585,1.0,0
59.229644775390625,14.192615509033203,-2.386956214904785,-0.0,-0.0,-1.0,0.0074204019951771205,1.0,0
59.208133697509766,14.653209686279297,-2.4119129180908203,-0.0,-0.0,-1.0,0.032849124793744834,1.0,0
59.40585708618164,15.560373306274414,-2.49141788482666,-0.0,-0.0,-1.0,0.01879029227606836,1.0,0
58.93016052246094,13.36771011352539,-2.3022823333740234,-0.0,-0.0,-1.0,0.0471305247064157,2.0,0
58.022544860839844,14.821439743041992,-2.2788262367248535,-0.0,-0.0,-1.0,0.06097955122930844,1.0,0
58.061100006103516,15.017316818237305,-2.295553207397461,-0.7261296206782304,0.6853588826015686,0.05494520918895916,0.036228545441309615,3.0,0
59.612998962402344,14.858110427856445,-2.330913782119751,0.8363267335688163,-0.01356018574544831,-0.5480636058713101,0.03472681154881089,4.0,0
59.350502014160156,14.083013534545898,-2.2964975833892822,-0.0,-0.0,-1.0,0.011103477454704608,1.0,0
59.18804168701172,14.424094200134277,-2.283761739730835,-0.0,-0.0,-1.0,0.01803793046459384,1.0,0
60.03764724731445,14.513776779174805,-2.3405814170837402,-0.0,-0.0,-1.0,0.13568954775461312,1.0,0
59.767765045166016,14.502036094665527,-2.3029279708862305,-0.0,-0.0,-1.0,0.06291098910130882,1.0,0
59.483741760253906,13.602317810058594,-2.296703815460205,-0.0,-0.0,-1.0,0.026641216789309734,1.0,0
60.01435852050781,13.770614624023438,-2.3458423614501953,-0.0,-0.0,-1.0,0.04641449421552795,1.0,0
59.818302154541016,14.418838500976562,-2.320608139038086,-0.0,-0.0,-1.0,0.08971328415240341,1.0,0
58.03593063354492,14.052752494812012,-2.2633159160614014,-0.0,-0.0,-1.0,0.031449231635459256,1.0,0
57.941734313964844,13.936387062072754,-2.2684133052825928,-0.0,-0.0,-1.0,0.02961475124897464,1.0,0
57.86579132080078,14.229389190673828,-2.272937536239624,-0.0,-0.0,-1.0,0.022521546897457122,1.0,0
57.933834075927734,14.203658103942871,-2.2881109714508057,-0.0,-0.0,-1.0,0.0235908686615059,1.0,0
57.98183059692383,13.981351852416992,-2.2825615406036377,-0.0,-0.0,-1.0,0.030520234607006275,1.0,0
58.086204528808594,13.28445816040039,-2.2227253913879395,-0.0,-0.0,-1.0,0.012404572655694085,1.0,0
58.61102294921875,13.36771011352539,-2.296604633331299,-0.0,-0.0,-1.0,0.014156216341752978,1.0,0
58.07276153564453,14.13029956817627,-2.2810683250427246,-0.0,-0.0,-1.0,0.026787454105425913,1.0,0
57.9244384765625,14.342915534973145,-2.277174949645996,-0.0,-0.0,-1.0,0.02900673265902094,1.0,0
60.01011657714844,14.609504699707031,-2.2156805992126465,-0.0,-0.0,-1.0,0.21131736176991928,1.0,0
58.35801696777344,13.225334167480469,-2.3676466941833496,-0.0,-0.0,-1.0,0.016895423183402085,1.0,0
58.518577575683594,13.31674861907959,-2.3948774337768555,-0.0,-0.0,-1.0,0.01307393063108267,1.0,0
57.779808044433594,13.182950973510742,-2.2831263542175293,-0.0,-0.0,-1.0,0.012601910423201856,1.0,0
58.09892654418945,13.464271545410156,-2.3419346809387207,-0.0,-0.0,-1.0,0.014342662055472596,2.0,0
57.96860122680664,13.880125045776367,-2.343501091003418,-0.0,-0.0,-1.0,0.03095252904589521,1.0,0
57.91735076904297,14.238075256347656,-2.354147434234619,-0.0,-0.0,-1.0,0.022645340578159902,1.0,0
59.02229690551758,13.621322631835938,-2.2441928386688232,-0.0,-0.0,-1.0,0.1822497776147086,1.0,0
59.55465316772461,13.667980194091797,-2.3139970302581787,-0.0,-0.0,-1.0,0.041563987858533276,1.0,0
59.60029602050781,13.9066162109375,-2.330526113510132,-0.0,-0.0,-1.0,0.036670790510688576,1.0,0
59.86908721923828,13.953563690185547,-2.366851329803467,-0.0,-0.0,-1.0,0.030757315568011173,1.0,0
59.33384323120117,14.359321594238281,-2.3173062801361084,-0.0,-0.0,-1.0,0.020249186809755217,1.0,0
59.47684860229492,14.193842887878418,-2.3278725147247314,-0.0,-0.0,-1.0,0.02296456442648942,1.0,0
59.208160400390625,14.527321815490723,-2.309129238128662,-0.0,-0.0,-1.0,0.027069034592795558,1.0,0
59.65472412109375,14.705513954162598,-2.3744804859161377,-0.0,-0.0,-1.0,0.009904118767034441,1.0,0
59.06367492675781,15.142853736877441,-2.3201515674591064,-0.0,-0.0,-1.0,0.037280705358548355,1.0,0
59.48139953613281,14.922492980957031,-2.3627512454986572,-0.0,-0.0,-1.0,0.03494570125752477,1.0,0
59.694908142089844,15.11420726776123,-2.399287462234497,-0.0,-0.0,-1.0,0.019270711630031145,1.0,0
59.136138916015625,15.547281265258789,-2.34936261177063,-0.0,-0.0,-1.0,0.03600778758908877,1.0,0
59.72283172607422,15.372666358947754,-2.4155380725860596,-0.0,-0.0,-1.0,0.023744536360513244,1.0,0
59.022056579589844,13.593377113342285,-2.1771531105041504,-0.0,-0.0,-1.0,0.15853802588363775,1.0,0
59.67406463623047,13.678831100463867,-2.2678170204162598,-0.0,-0.0,-1.0,0.052728948276997555,1.0,0
60.11026382446289,13.943120956420898,-2.34092116355896,-0.0,-0.0,-1.0,0.0336232306215713,1.0,0
59.72673416137695,14.376825332641602,-2.316864252090454,-0.0,-0.0,-1.0,0.043721268952444915,1.0,0
59.66712188720703,14.763045310974121,-2.3329696655273438,-0.0,-0.0,-1.0,0.026910179446542656,1.0,0
59.766624450683594,15.18042278289795,-2.3724517822265625,-0.0,-0.0,-1.0,0.02219906899767893,1.0,0
58.310306549072266,14.903878211975098,-2.163228988647461,-0.0,-0.0,-1.0,0.04958978842681709,1.0,0
59.948333740234375,14.546813011169434,-2.1745917797088623,-0.0,-0.0,-1.0,0.21333477949585183,2.0,0
60.070491790771484,14.632461547851562,-2.1959807872772217,-0.0,-0.0,-1.0,0.21131736176991917,2.0,0
58.4483757019043,15.614459991455078,-2.03244686126709,-0.0,-0.0,-1.0,0.031674869246073635,1.0,0
58.59675979614258,13.273194313049316,-2.3629069328308105,-0.0,-0.0,-1.0,0.014156216341752955,1.0,0
58.04571533203125,13.594779968261719,-2.291271686553955,-0.0,-0.0,-1.0,0.019092988799189733,1.0,0
58.3607177734375,13.473199844360352,-2.335270404815674,-0.0,-0.0,-1.0,0.01479296760639247,1.0,0
58.74779510498047,13.340415000915527,-2.3902029991149902,-0.0,-0.0,-1.0,0.022221926496405142,1.0,0
58.045753479003906,13.922361373901367,-2.3080310821533203,-0.0,-0.0,-1.0,0.030003288280792142,1.0,0
58.006683349609375,14.299541473388672,-2.3217267990112305,-0.0,-0.0,-1.0,0.023478724054491102,1.0,0
57.97296905517578,14.68248176574707,-2.337348461151123,-0.0,-0.0,-1.0,0.036705205753953626,1.0,0
58.10356903076172,14.920354843139648,-2.3715717792510986,-0.0,-0.0,-1.0,0.039087961044198156,1.0,0
57.851348876953125,13.13966178894043,-2.3083724975585938,-0.0,-0.0,-1.0,0.013037755097936825,1.0,0
58.73916244506836,13.239458084106445,-2.323629140853882,-0.0,-0.0,-1.0,0.013827299236765058,2.0,0
58.36582565307617,13.504226684570312,-2.272606372833252,-0.0,-0.0,-1.0,0.01479296760639244,1.0,0
58.05449676513672,13.932790756225586,-2.241506576538086,-0.0,-0.0,-1.0,0.030003288280792142,2.0,0
58.26876449584961,13.719076156616211,-2.26707124710083,-0.0,-0.0,-1.0,0.01327129987867303,1.0,0
58.06362533569336,14.342000961303711,-2.2661385536193848,-0.0,-0.0,-1.0,0.02981243787026133,1.0,0
58.00689697265625,14.75879192352295,-2.2809970378875732,-0.0,-0.0,-1.0,0.056544282019706904,2.0,0
58.086517333984375,15.045614242553711,-2.312617778778076,-0.0,-0.0,-1.0,0.03805029723990704,2.0,0
58.28374481201172,14.924710273742676,-2.3393781185150146,-0.0,-0.0,-1.0,0.03418642124446906,1.0,0
59.79480743408203,13.693492889404297,-2.2009904384613037,-0.0,-0.0,-1.0,0.06109202592448922,1.0,0
60.02118682861328,14.484630584716797,-2.2787437438964844,-0.0,-0.0,-1.0,0.12519465911798897,2.0,0
60.055503845214844,14.638136863708496,-2.2927651405334473,-0.0,-0.0,-1.0,0.14345941170567808,2.0,0
60.15711975097656,14.744054794311523,-2.3155620098114014,-0.0,-0.0,-1.0,0.1149852755219259,1.0,0
59.299137115478516,13.228874206542969,-2.378492593765259,-0.0,-0.0,-1.0,0.017073931864413236,1.0,0
58.9340934753418,13.71582317352295,-2.3307812213897705,-0.0,-0.0,-1.0,0.15533476757698894,2.0,0
59.11005401611328,13.76528263092041,-2.366028308868408,-0.0,-0.0,-1.0,0.15350484082862376,1.0,0
59.000404357910156,14.066459655761719,-2.359271287918091,-0.0,-0.0,-1.0,0.01827422629140467,2.0,0
59.14106750488281,13.905274391174316,-2.378209352493286,-0.0,-0.0,-1.0,0.12724757765655526,2.0,0
59.01385498046875,14.396302223205566,-2.3777952194213867,-0.0,-0.0,-1.0,0.018099305964024866,1.0,0
58.97394561767578,14.638587951660156,-2.382474899291992,-0.0,-0.0,-1.0,0.026082781429121262,1.0,0
59.05906295776367,15.272817611694336,-2.4328157901763916,-0.0,-0.0,-1.0,0.03297338716607923,1.0,0
59.03520584106445,15.611098289489746,-2.4479470252990723,-0.0,-0.0,-1.0,0.03402882283156723,1.0,0
58.67951202392578,13.568559646606445,-2.2765932083129883,-0.033554055582662126,0.6161973712478812,-0.7868766898448298,0.026284088194113157,3.0,0
58.735069274902344,13.562775611877441,-2.2868053913116455,-0.14947232128231833,0.8740248794199613,-0.46231865128436894,0.04597318206568534,5.0,0
57.896697998046875,13.983214378356934,-2.1479218006134033,-0.0,-0.0,-1.0,0.02953217612358063,2.0,0
58.81859588623047,14.471940994262695,-2.344736099243164,-0.0,-0.0,-1.0,0.0057174871234456515,1.0,0
58.19472122192383,14.862581253051758,-2.2472591400146484,-0.0,-0.0,-1.0,0.06504937062092109,1.0,0
58.53254699707031,14.885564804077148,-2.312169313430786,-0.0,-0.0,-1.0,0.032681012282808106,1.0,0
58.57697296142578,15.090217590332031,-2.331613540649414,-0.0,-0.0,-1.0,0.024597254663529813,1.0,0
59.46453857421875,13.16274356842041,-2.3771355152130127,-0.0,-0.0,-1.0,0.009813300366260583,1.0,0
58.74402618408203,13.577552795410156,-2.254842758178711,0.03352798722365552,0.9069470476795457,-0.4199082361398573,0.051788739183990545,4.0,0
59.07503890991211,13.526885986328125,-2.317460298538208,-0.0,-0.0,-1.0,0.16388298990384412,1.0,0
59.235496520996094,13.882040023803711,-2.366136312484741,-0.0,-0.0,-1.0,0.07049073276301768,1.0,0
59.13758850097656,14.300386428833008,-2.3684420585632324,-0.0,-0.0,-1.0,0.015893952911769045,1.0,0
58.41456985473633,14.895200729370117,-2.25881290435791,-0.0,-0.0,-1.0,0.04882125167357453,1.0,0
59.120079040527344,14.640339851379395,-2.3835275173187256,-0.0,-0.0,-1.0,0.0359118734153556,2.0,0
58.359886169433594,15.25341510772705,-2.2692220211029053,-0.0,-0.0,-1.0,0.05583786089429629,1.0,0
58.881141662597656,15.050479888916016,-2.360020399093628,-0.0,-0.0,-1.0,0.025428279895893892,1.0,0
59.06902313232422,15.183295249938965,-2.4050848484039307,-0.0,-0.0,-1.0,0.03728070535854834,1.0,0
59.17976379394531,15.475824356079102,-2.445028066635132,-0.0,-0.0,-1.0,0.025102206953705318,1.0,0
59.51873779296875,13.630475997924805,-2.2667999267578125,-0.0,-0.0,-1.0,0.034876792994796194,1.0,0
59.80385971069336,13.646129608154297,-2.3243775367736816,-0.0,-0.0,-1.0,0.06257175726170923,1.0,0
60.05743408203125,13.382353782653809,-2.363919734954834,-0.0,-0.0,-1.0,0.05949158595017699,1.0,0
59.60137176513672,14.117198944091797,-2.3047688007354736,-0.0,-0.0,-1.0,0.028731702592391228,1.0,0
59.927852630615234,13.877041816711426,-2.3591248989105225,-0.0,-0.0,-1.0,0.0366853382358025,1.0,0
60.18299865722656,14.052173614501953,-2.4180450439453125,-0.0,-0.0,-1.0,0.04076323573411567,1.0,0
59.401466369628906,14.333690643310547,-2.274935722351074,-0.0,-0.0,-1.0,0.02457669865156932,1.0,0
59.75912094116211,14.415491104125977,-2.350538730621338,-0.0,-0.0,-1.0,0.055397570689541896,1.0,0
59.617591857910156,14.904505729675293,-2.346992254257202,-0.0,-0.0,-1.0,0.0443705853932298,2.0,0
59.77677917480469,14.690582275390625,-2.3677868843078613,-0.0,-0.0,-1.0,0.026266887878045164,1.0,0
59.154296875,15.129377365112305,-2.2661008834838867,-0.0,-0.0,-1.0,0.04024942015940338,1.0,0
59.83478546142578,15.253463745117188,-2.4095733165740967,-0.0,-0.0,-1.0,0.021301928775031575,1.0,0
59.592750549316406,15.58788776397705,-2.3801114559173584,-0.0,-0.0,-1.0,0.01713316053962456,1.0,0
59.75299072265625,15.418009757995605,-2.4024407863616943,-0.0,-0.0,-1.0,0.024594472596026047,1.0,0
59.68867492675781,13.43167781829834,-2.3161425590515137,-0.0,-0.0,-1.0,0.03463692497253739,1.0,0
60.043617248535156,13.27956771850586,-2.3851704597473145,-0.0,-0.0,-1.0,0.047409474384611947,1.0,0
59.597251892089844,13.728199005126953,-2.3085989952087402,-0.0,-0.0,-1.0,0.04484112701009578,1.0,0
59.55760955810547,14.045385360717773,-2.313528060913086,-0.0,-0.0,-1.0,0.02401749478780754,1.0,0
59.59061813354492,14.598799705505371,-2.345928192138672,-0.0,-0.0,-1.0,0.011714339531504808,1.0,0
59.605045318603516,14.835750579833984,-2.3607230186462402,0.8886278029793548,-0.44785359719862267,0.09883209624579785,0.03472681154881092,3.0,0
59.712188720703125,15.255714416503906,-2.405539035797119,-0.0,-0.0,-1.0,0.022921815557204635,1.0,0
59.10060119628906,13.58368968963623,-2.1980443000793457,-0.0,-0.0,-1.0,0.1635185896854631,1.0,0
59.46318054199219,14.244476318359375,-2.3023457527160645,-0.0,-0.0,-1.0,0.024995662054605974,1.0,0
59.351036071777344,14.472033500671387,-2.2890772819519043,-0.0,-0.0,-1.0,0.02167018206563421,1.0,0
59.49561309814453,14.333579063415527,-2.3132643699645996,-0.0,-0.0,-1.0,0.023487831991769348,1.0,0
59.101173400878906,15.096650123596191,-2.267190456390381,-0.0,-0.0,-1.0,0.03993626206061285,1.0,0
59.53953170776367,14.945524215698242,-2.352407932281494,-0.0,-0.0,-1.0,0.03535744800255659,1.0,0
59.57794189453125,15.369873046875,-2.3832287788391113,-0.0,-0.0,-1.0,0.022213975548639575,1.0,0
59.24988555908203,15.567910194396973,-2.324644088745117,-0.0,-0.0,-1.0,0.025592069767915903,1.0,0
57.73161697387695,13.156003952026367,-2.331836223602295,-0.0,-0.0,-1.0,0.01260191042320184,1.0,0
60.173370361328125,13.387344360351562,-2.3205528259277344,-0.0,-0.0,-1.0,0.057666115177026044,1.0,0
59.080596923828125,13.717328071594238,-2.095381498336792,-0.0,-0.0,-1.0,0.18557647108531194,2.0,0
59.61124801635742,13.75108814239502,-2.2122132778167725,-0.0,-0.0,-1.0,0.04477713806180486,2.0,0
59.901885986328125,13.645465850830078,-2.2713801860809326,-0.0,-0.0,-1.0,0.05962488137486989,1.0,0
59.599849700927734,14.1629056930542,-2.2268502712249756,-0.0,-0.0,-1.0,0.03008100803573906,1.0,0
60.06468200683594,14.04300308227539,-2.3231253623962402,-0.0,-0.0,-1.0,0.03875956854843814,1.0,0
60.170528411865234,13.98443603515625,-2.343803644180298,-0.0,-0.0,-1.0,0.03658289119110176,1.0,0
59.9215087890625,14.508419036865234,-2.312845230102539,-0.0,-0.0,-1.0,0.13144873966740817,2.0,0
60.18803405761719,14.270293235778809,-2.360079288482666,-0.0,-0.0,-1.0,0.05431561983139762,1.0,0
59.60515594482422,15.037223815917969,-2.2696902751922607,-0.0,-0.0,-1.0,0.03639210495249822,1.0,0
59.81386184692383,14.826654434204102,-2.3047256469726562,-0.0,-0.0,-1.0,0.03992185649770504,2.0,0
59.643680572509766,15.092741966247559,-2.2810280323028564,-0.0,-0.0,-1.0,0.028129268776516118,1.0,0
59.88340759277344,15.282271385192871,-2.3437790870666504,-0.0,-0.0,-1.0,0.0204593433705538,1.0,0
58.85466766357422,13.492395401000977,-2.3017971515655518,-0.0,-0.0,-1.0,0.047562745451814444,1.0,0
59.0982780456543,13.364154815673828,-2.3597757816314697,-0.0,-0.0,-1.0,0.04506358573340609,2.0,0
59.33447265625,13.208952903747559,-2.415285348892212,-0.0,-0.0,-1.0,0.016892723235853377,1.0,0
58.7750244140625,13.665569305419922,-2.2866108417510986,-0.0,-0.0,-1.0,0.09492689592319474,1.0,0
59.05538558959961,13.811787605285645,-2.361976385116577,-0.0,-0.0,-1.0,0.1453335693344398,2.0,0
59.036930084228516,14.176429748535156,-2.3710012435913086,-0.0,-0.0,-1.0,0.011690950228986845,1.0,0
59.00981521606445,14.582845687866211,-2.3798699378967285,-0.0,-0.0,-1.0,0.021671724789044295,1.0,0
58.80082702636719,15.019415855407715,-2.3457987308502197,-0.0,-0.0,-1.0,0.02601857110380334,1.0,0
59.00432586669922,14.989221572875977,-2.396376132965088,-0.0,-0.0,-1.0,0.03852995711901401,1.0,0
58.92112350463867,15.192395210266113,-2.384800910949707,-0.0,-0.0,-1.0,0.029377543148492752,1.0,0
59.04281234741211,15.382795333862305,-2.425584316253662,-0.0,-0.0,-1.0,0.04320489645459118,1.0,0
58.366153717041016,14.933157920837402,-2.231015682220459,-0.0,-0.0,-1.0,0.04733741182799718,1.0,0
58.47999572753906,13.44832992553711,-2.3103408813476562,-0.0,-0.0,-1.0,0.008891860354032631,2.0,0
58.769920349121094,13.23094654083252,-2.389024257659912,-0.0,-0.0,-1.0,0.013827299236765058,1.0,0
60.061073303222656,13.553141593933105,-2.200648784637451,-0.0,-0.0,-1.0,0.06303002788171713,1.0,0
58.34828186035156,13.843097686767578,-2.279353141784668,-0.0,-0.0,-1.0,0.008979035403895894,1.0,0
58.43365478515625,13.82322883605957,-2.3031868934631348,-0.0,-0.0,-1.0,0.007719309056258234,1.0,0
60.146385192871094,13.590766906738281,-2.2224960327148438,-0.0,-0.0,-1.0,0.06108212938227992,2.0,0
58.50420379638672,14.242825508117676,-2.3324170112609863,-0.0,-0.0,-1.0,0.004499969799699307,1.0,0
60.19855880737305,14.13098430633545,-2.251054286956787,-0.0,-0.0,-1.0,0.03455300965652599,1.0,0
58.28127670288086,14.720233917236328,-2.283381462097168,-0.0,-0.0,-1.0,0.06348394358959462,1.0,0
58.445674896240234,14.645861625671387,-2.327652931213379,-0.0,-0.0,-1.0,0.029784690836317868,2.0,0
59.94475173950195,14.56650161743164,-2.2037782669067383,-0.0,-0.0,-1.0,0.2133347794958519,2.0,0
60.05504608154297,14.564240455627441,-2.231019973754883,-0.0,-0.0,-1.0,0.15758781356491042,2.0,0
58.218196868896484,15.008055686950684,-2.2759199142456055,-0.0,-0.0,-1.0,0.03566316150070999,1.0,0
58.61990737915039,15.165026664733887,-2.3966221809387207,-0.0,-0.0,-1.0,0.03107274729469699,1.0,0
58.65690231323242,15.327332496643066,-2.414268970489502,-0.0,-0.0,-1.0,0.054901928358896054,1.0,0
58.86004638671875,15.54825496673584,-2.482624053955078,-0.0,-0.0,-1.0,0.0669055164383367,1.0,0
58.23725891113281,13.528873443603516,-2.295703411102295,-0.0,-0.0,-1.0,0.014736806640612561,1.0,0
58.339576721191406,13.548368453979492,-2.3276193141937256,-0.0,-0.0,-1.0,0.014957760516712567,1.0,0
58.21841049194336,13.835846900939941,-2.291440963745117,-0.0,-0.0,-1.0,0.023061918082996343,1.0,0
58.34636688232422,13.984819412231445,-2.333101987838745,-0.0,-0.0,-1.0,0.011179148268748787,1.0,0
60.15184783935547,13.883484840393066,-2.3717947006225586,-0.0,-0.0,-1.0,0.0336232306215713,1.0,0
58.38462829589844,14.27952766418457,-2.3495216369628906,-0.0,-0.0,-1.0,0.007989831085857678,1.0,0
60.175758361816406,14.215716361999512,-2.3867299556732178,-0.0,-0.0,-1.0,0.0382056946467014,2.0,0
58.27679443359375,14.682479858398438,-2.324953556060791,-0.0,-0.0,-1.0,0.06221546841374891,1.0,0
58.35539245605469,14.713187217712402,-2.3505778312683105,-0.0,-0.0,-1.0,0.06228160118937946,1.0,0
58.312191009521484,15.056296348571777,-2.347703695297241,-0.0,-0.0,-1.0,0.03672870547535762,1.0,0
58.52870178222656,15.206830978393555,-2.4218764305114746,-0.0,-0.0,-1.0,0.02336807532780114,1.0,0
58.625572204589844,15.497748374938965,-2.4651730060577393,-0.0,-0.0,-1.0,0.04914054557175835,1.0,0
59.78040313720703,13.633962631225586,-2.2645275592803955,-0.0,-0.0,-1.0,0.05987032071506932,1.0,0
59.890533447265625,13.560274124145508,-2.293562173843384,-0.0,-0.0,-1.0,0.06244871678138397,1.0,0
59.59879684448242,13.79258918762207,-2.2174482345581055,-0.0,-0.0,-1.0,0.04377853952373694,2.0,0
60.01795959472656,14.394733428955078,-2.3481791019439697,-0.0,-0.0,-1.0,0.07114524041099804,1.0,0
58.17333984375,14.73869800567627,-2.293759822845459,-0.0,-0.0,-1.0,0.06162574102766738,1.0,0
59.90299987792969,14.581430435180664,-2.322249412536621,-0.0,-0.0,-1.0,0.12700377534179286,1.0,0
59.97182846069336,14.707029342651367,-2.3457224369049072,-0.0,-0.0,-1.0,0.11006862084262144,1.0,0
58.05702209472656,15.010590553283691,-2.265544891357422,-0.9275454250774035,-0.31744494129045153,-0.19720089671976776,0.051535747760782874,3.0,0
59.72135925292969,14.981754302978516,-2.286355495452881,-0.0,-0.0,-1.0,0.02854116090829951,2.0,0
59.943416595458984,14.863693237304688,-2.343538761138916,-0.0,-0.0,-1.0,0.0824399789562599,2.0,0
60.1361198425293,15.328651428222656,-2.41685152053833,-0.0,-0.0,-1.0,0.030050656600728802,1.0,0
59.833072662353516,13.39177131652832,-2.3794965744018555,-0.0,-0.0,-1.0,0.04074136229678847,1.0,0
60.006591796875,13.2467679977417,-2.4365267753601074,-0.0,-0.0,-1.0,0.043449885703621904,1.0,0
59.768150329589844,13.766016960144043,-2.3445358276367188,-0.0,-0.0,-1.0,0.04584258458871196,1.0,0
59.9605712890625,14.13250732421875,-2.387667179107666,-0.0,-0.0,-1.0,0.022109082942251345,1.0,0
60.18212127685547,14.19954776763916,-2.4502487182617188,-0.0,-0.0,-1.0,0.0382056946467014,1.0,0
59.88011932373047,14.538095474243164,-2.3530569076538086,-0.0,-0.0,-1.0,0.11728875254735072,2.0,0
59.766929626464844,14.921192169189453,-2.3123984336853027,-0.0,-0.0,-1.0,0.042861134530762894,1.0,0
60.00278854370117,14.843438148498535,-2.3830690383911133,-0.0,-0.0,-1.0,0.10033974743122827,1.0,0
60.088069915771484,15.310922622680664,-2.402965545654297,-0.0,-0.0,-1.0,0.03005065660072878,1.0,0
59.03660583496094,13.6673002243042,-2.1363301277160645,-0.0,-0.0,-1.0,0.2051036725402489,1.0,0
60.18382263183594,13.654361724853516,-2.2200989723205566,-0.0,-0.0,-1.0,0.061590221377042786,2.0,0
60.197330474853516,14.728299140930176,-2.2071776390075684,-0.0,-0.0,-1.0,0.15034170287697937,1.0,0
60.06260681152344,14.836734771728516,-2.1694579124450684,-0.0,-0.0,-1.0,0.12922365787901288,1.0,0
58.638160705566406,13.859855651855469,-2.2895352840423584,-0.0,-0.0,-1.0,0.012362694636852892,1.0,0
57.98020935058594,15.021025657653809,-2.306321382522583,-0.0,-0.0,-1.0,0.03328724602784285,1.0,0
58.017311096191406,14.745294570922852,-2.290523052215576,-0.0,-0.0,-1.0,0.05654428201970692,2.0,0
59.270896911621094,14.122398376464844,-2.3627660274505615,-0.0,-0.0,-1.0,0.011430360524787037,1.0,0
57.96241760253906,15.148309707641602,-2.3131232261657715,-0.0,-0.0,-1.0,0.029090119868973967,1.0,0
59.19960021972656,14.915274620056152,-2.4078469276428223,-0.0,-0.0,-1.0,0.043156037520122405,1.0,0
59.96620178222656,14.618200302124023,-2.2434897422790527,-0.0,-0.0,-1.0,0.23140527041649725,1.0,0
58.3560905456543,13.332165718078613,-2.3492209911346436,-0.0,-0.0,-1.0,0.014367555566920074,1.0,0
57.941314697265625,13.660654067993164,-2.323295831680298,-0.0,-0.0,-1.0,0.02400006304280208,1.0,0
58.17768859863281,13.47197151184082,-2.3379199504852295,-0.0,-0.0,-1.0,0.014736806640612556,1.0,0
58.04583740234375,13.491924285888672,-2.3319849967956543,-0.0,-0.0,-1.0,0.013123396415604475,1.0,0
59.0390739440918,13.738264083862305,-2.0834619998931885,0.2603691085399101,0.8766933226173406,-0.40449566795739633,0.1500863327305857,4.0,0
60.010581970214844,14.547203063964844,-2.2410218715667725,-0.0,-0.0,-1.0,0.16788749420598106,2.0,0
60.063880920410156,14.762887001037598,-2.2602474689483643,-0.0,-0.0,-1.0,0.13311573804990465,1.0,0
58.699954986572266,13.550031661987305,-2.2919740676879883,-0.07669052056690343,0.6058890228910712,-0.7918440856603529,0.0309242611511244,4.0,0
59.09592056274414,13.369366645812988,-2.338719367980957,-0.0,-0.0,-1.0,0.050159458456562944,2.0,0
57.99751281738281,14.080275535583496,-2.220366954803467,-0.0,-0.0,-1.0,0.03144923163545926,1.0,0
58.2325439453125,13.9159574508667,-2.244729995727539,-0.0,-0.0,-1.0,0.02250550190008054,1.0,0
58.69429016113281,13.822561264038086,-2.304419994354248,-0.0,-0.0,-1.0,0.04321831577813669,1.0,0
58.01904296875,14.378182411193848,-2.2388415336608887,-0.0,-0.0,-1.0,0.029971070912344862,1.0,0
58.697242736816406,14.214859008789062,-2.3245491981506348,-0.0,-0.0,-1.0,0.004319082367775842,1.0,0
58.07698440551758,14.819536209106445,-2.270585536956787,-0.0,-0.0,-1.0,0.06884544290061481,1.0,0
58.439186096191406,14.681638717651367,-2.313222885131836,-0.0,-0.0,-1.0,0.03607967324647183,2.0,0
57.948020935058594,15.220600128173828,-2.2751522064208984,-0.0,-0.0,-1.0,0.03438092058080421,1.0,0
58.40283966064453,15.110702514648438,-2.3317017555236816,-0.0,-0.0,-1.0,0.028664093394943364,1.0,0
57.79679870605469,15.48544692993164,-2.269587993621826,-0.0,-0.0,-1.0,0.041413628997323905,1.0,0
58.909881591796875,15.588001251220703,-2.428664207458496,-0.0,-0.0,-1.0,0.06960583514723194,1.0,0
59.01761245727539,13.719898223876953,-2.115717887878418,-0.6830270634134579,0.7293414421993053,0.03918024164582869,0.13197904408075312,3.0,0
59.98588180541992,14.557193756103516,-2.297666072845459,-0.0,-0.0,-1.0,0.13450318592921925,1.0,0
59.69097137451172,14.972305297851562,-2.2846596240997314,-0.0,-0.0,-1.0,0.0402612551814863,2.0,0
59.92056655883789,14.850725173950195,-2.3075733184814453,-0.0,-0.0,-1.0,0.056028213187625645,2.0,0
60.01575469970703,15.316178321838379,-2.350776195526123,-0.0,-0.0,-1.0,0.022193248568945063,1.0,0
58.187255859375,13.303936958312988,-2.3201522827148438,-0.0,-0.0,-1.0,0.012404572655694144,1.0,0
58.41290283203125,13.16445541381836,-2.3531346321105957,-0.0,-0.0,-1.0,0.01669780510630342,1.0,0
57.915802001953125,13.756610870361328,-2.289121150970459,-0.0,-0.0,-1.0,0.022160705440035774,1.0,0
58.12446594238281,13.447936058044434,-2.3139028549194336,-0.0,-0.0,-1.0,0.014342662055472551,2.0,0
57.91926574707031,14.106600761413574,-2.3006691932678223,-0.0,-0.0,-1.0,0.027247780268240655,1.0,0
57.743831634521484,14.537092208862305,-2.2871665954589844,-0.0,-0.0,-1.0,0.02516233396343454,1.0,0
58.0513916015625,14.613531112670898,-2.3390603065490723,-0.0,-0.0,-1.0,0.03802401893767535,1.0,0
59.76390838623047,13.740899085998535,-2.2999892234802246,-0.0,-0.0,-1.0,0.05017124909446135,1.0,0
59.79656982421875,14.312450408935547,-2.3232860565185547,-0.0,-0.0,-1.0,0.0437321282877904,1.0,0
60.09082794189453,14.169851303100586,-2.36293625831604,-0.0,-0.0,-1.0,0.026430466259913174,1.0,0
59.041168212890625,14.991618156433105,-2.2349681854248047,-0.0,-0.0,-1.0,0.04147753352176004,1.0,0
59.635581970214844,14.820169448852539,-2.3173460960388184,-0.0,-0.0,-1.0,0.033849688118368644,2.0,0
59.840885162353516,14.562138557434082,-2.3386685848236084,-0.0,-0.0,-1.0,0.11272021474959826,2.0,0
60.17377471923828,14.189031600952148,-2.3760647773742676,-0.0,-0.0,-1.0,0.036633628876275665,2.0,0
59.907691955566406,15.314290046691895,-2.3771111965179443,-0.0,-0.0,-1.0,0.020356149336473072,1.0,0
59.98773193359375,14.908323287963867,-2.3733110427856445,-0.0,-0.0,-1.0,0.0758218583645461,1.0,0
59.65034866333008,15.497993469238281,-2.346320867538452,-0.0,-0.0,-1.0,0.02237877394222567,1.0,0
59.98063659667969,15.420604705810547,-2.392280101776123,-0.0,-0.0,-1.0,0.0213077713053343,2.0,0
60.10392761230469,15.19607925415039,-2.4017159938812256,-0.0,-0.0,-1.0,0.02462033206340296,1.0,0
58.629188537597656,15.616598129272461,-2.2000246047973633,-0.0,-0.0,-1.0,0.05216643812184739,1.0,0
57.913291931152344,13.977739334106445,-2.186708927154541,-0.0,-0.0,-1.0,0.02953217612358063,2.0,0
58.67584228515625,13.54519271850586,-2.2947351932525635,-0.033554055582662126,0.6161973712478812,-0.7868766898448298,0.030298380999554356,3.0,0
58.86601638793945,13.35102653503418,-2.3195810317993164,-0.0,-0.0,-1.0,0.03685164495656645,2.0,0
58.0633659362793,14.981522560119629,-2.248591184616089,-0.11454051770620907,-0.5190312655380731,-0.847046052583648,0.05297828317075375,3.0,0
58.186161041259766,14.784852981567383,-2.260047197341919,-0.0,-0.0,-1.0,0.06342286618918763,1.0,0
58.824981689453125,14.091764450073242,-2.3361246585845947,-0.0,-0.0,-1.0,0.008941578992637743,1.0,0
58.99176788330078,13.855973243713379,-2.3550708293914795,-0.0,-0.0,-1.0,0.126251166569032,1.0,0
59.594818115234375,13.192938804626465,-2.4326794147491455,-0.0,-0.0,-1.0,0.013890821220402477,1.0,0
58.83278274536133,14.575257301330566,-2.354473352432251,-0.0,-0.0,-1.0,0.013411736443924615,1.0,0
58.787879943847656,14.364218711853027,-2.339675188064575,-0.0,-0.0,-1.0,0.006326699697166555,1.0,0
59.02295684814453,14.022592544555664,-2.365453004837036,-0.0,-0.0,-1.0,0.06913085290557204,2.0,0
59.04774475097656,14.758054733276367,-2.3954224586486816,-0.0,-0.0,-1.0,0.03303592575575159,1.0,0
59.002708435058594,15.523431777954102,-2.419149875640869,-0.0,-0.0,-1.0,0.039042821152863276,1.0,0
59.37364196777344,15.151716232299805,-2.4228594303131104,-0.0,-0.0,-1.0,0.02941737590891303,1.0,0
59.21089172363281,15.336036682128906,-2.423811435699463,-0.0,-0.0,-1.0,0.027389264184878852,1.0,0
58.55195999145508,14.221851348876953,-2.296034812927246,-0.0,-0.0,-1.0,0.003343027745351691,1.0,0
59.382049560546875,14.864189147949219,-2.1798954010009766,-0.0,-0.0,-1.0,0.038637910771708035,1.0,0
58.17420959472656,14.655647277832031,-2.1140246391296387,-0.0,-0.0,-1.0,0.05616846674782986,1.0,0
60.00852966308594,14.952349662780762,-2.2986202239990234,-0.0,-0.0,-1.0,0.03845439284597985,1.0,0
60.052459716796875,14.487915992736816,-2.264310359954834,-0.0,-0.0,-1.0,0.13113553065771066,2.0,0
60.03718566894531,14.691933631896973,-2.2795839309692383,-0.0,-0.0,-1.0,0.11974605425499454,2.0,0
59.02344512939453,13.726090431213379,-2.129305362701416,-0.6830270634134579,0.7293414421993053,0.03918024164582869,0.131979044080753,3.0,0
60.07032012939453,14.648599624633789,-2.222641944885254,-0.0,-0.0,-1.0,0.20648240886662386,2.0,0
60.00236511230469,14.732029914855957,-2.2881789207458496,-0.0,-0.0,-1.0,0.13541260997917576,1.0,0
58.885719299316406,13.608028411865234,-2.185131072998047,-0.0,-0.0,-1.0,0.08964194598879553,1.0,0
58.94915008544922,13.759090423583984,-2.196537971496582,-0.0,-0.0,-1.0,0.15620111247546448,1.0,0
59.30839538574219,14.595183372497559,-2.2604827880859375,-0.0,-0.0,-1.0,0.026812590491992194,1.0,0
59.555992126464844,14.382855415344238,-2.270974636077881,-0.0,-0.0,-1.0,0.021482286731529715,1.0,0
59.681114196777344,14.906073570251465,-2.303211212158203,-0.0,-0.0,-1.0,0.03657404677195416,1.0,0
59.543434143066406,13.914989471435547,-2.2334914207458496,-0.0,-0.0,-1.0,0.02739383945209786,1.0,0
60.04806900024414,14.684130668640137,-2.288151741027832,-0.6288217319932314,-0.02369256580496705,-0.7771884531428718,0.1252807371236135,3.0,0
58.67634582519531,13.622212409973145,-2.302316188812256,-0.0,-0.0,-1.0,0.025268773775609633,1.0,0
58.033294677734375,14.60549259185791,-2.276845932006836,-0.0,-0.0,-1.0,0.035546741927221195,1.0,0
59.420928955078125,13.40652847290039,-2.360567569732666,-0.0,-0.0,-1.0,0.026116219077852793,1.0,0
58.1202392578125,15.168950080871582,-2.302126407623291,-0.0,-0.0,-1.0,0.03008654029229265,1.0,0
59.12872314453125,14.85689640045166,-2.3801422119140625,-0.0,-0.0,-1.0,0.0423613013842324,1.0,0
59.69756317138672,14.641191482543945,-2.341395378112793,-0.0,-0.0,-1.0,0.021907001524117047,1.0,0
58.52393341064453,13.576431274414062,-2.292487382888794,-0.0,-0.0,-1.0,0.013073089338574196,1.0,0
58.790771484375,13.456548690795898,-2.3023197650909424,-0.0,-0.0,-1.0,0.03457160896816684,1.0,0
59.104164123535156,13.602279663085938,-2.340441942214966,-0.0,-0.0,-1.0,0.11920142705398994,1.0,0
59.926937103271484,13.658714294433594,-2.410898447036743,-0.0,-0.0,-1.0,0.061360953809582654,1.0,0
58.211509704589844,14.573259353637695,-2.3612782955169678,-0.0,-0.0,-1.0,0.04637921205274971,1.0,0
58.96263122558594,14.450296401977539,-2.407853364944458,-0.0,-0.0,-1.0,0.016351994596008893,1.0,0
59.80552673339844,14.836670875549316,-2.30033540725708,-0.0,-0.0,-1.0,0.028978432666202886,2.0,0
59.850433349609375,15.52026653289795,-2.336057662963867,-0.0,-0.0,-1.0,0.02495339178236505,1.0,0
58.71961975097656,13.233075141906738,-2.3645477294921875,-0.0,-0.0,-1.0,0.01302715688736951,2.0,0
58.519283294677734,13.424283027648926,-2.3095664978027344,-0.0,-0.0,-1.0,0.012600885659307682,2.0,0
59.03558349609375,13.614827156066895,-2.3821287155151367,-0.0,-0.0,-1.0,0.1571508729802972,1.0,0
59.172523498535156,13.820757865905762,-2.3858633041381836,-0.0,-0.0,-1.0,0.14345702035273286,1.0,0
59.20347595214844,14.1134614944458,-2.362363815307617,-0.0,-0.0,-1.0,0.009407863606898461,1.0,0
59.515098571777344,14.508609771728516,-2.3789987564086914,-0.0,-0.0,-1.0,0.016476362397174805,1.0,0
59.82408142089844,15.472480773925781,-2.5220742225646973,-0.0,-0.0,-1.0,0.02495339178236507,1.0,0
59.064266204833984,13.440263748168945,-2.3627991676330566,-0.0,-0.0,-1.0,0.05785483896332871,1.0,0
59.06236267089844,14.074819564819336,-2.3673720359802246,-0.0,-0.0,-1.0,0.019689662416471177,1.0,0
59.077632904052734,13.804391860961914,-2.3677992820739746,-0.0,-0.0,-1.0,0.14533356933443978,2.0,0
59.19037628173828,14.368581771850586,-2.393432140350342,-0.0,-0.0,-1.0,0.017351730169023614,1.0,0
59.13528823852539,14.803508758544922,-2.388655185699463,-0.0,-0.0,-1.0,0.03983582177623865,1.0,0
59.19225311279297,15.094869613647461,-2.4029030799865723,-0.0,-0.0,-1.0,0.04036736653810744,1.0,0
58.79511642456055,13.278118133544922,-2.2847237586975098,-0.0,-0.0,-1.0,0.022237360074127285,1.0,0
58.950477600097656,13.676424026489258,-2.3482108116149902,-0.0,-0.0,-1.0,0.17604323512777584,2.0,0
59.090457916259766,13.943788528442383,-2.3951354026794434,-0.0,-0.0,-1.0,0.11361059935821588,1.0,0
59.907527923583984,14.69243049621582,-2.021848678588867,-0.0,-0.0,-1.0,0.13748729717306324,1.0,0
