x,y,z,nx,ny,nz,curvature,density,label
38.15966033935547,22.39034652709961,-2.006063461303711,-0.48457295605042455,-0.7443450167033961,-0.4594992343555907,0.08234017645831462,3.0,0
38.10635757446289,22.61915397644043,-1.788933277130127,-0.0,-0.0,-1.0,0.0891960304172737,1.0,0
38.96343231201172,21.86070442199707,-2.0620622634887695,-0.0,-0.0,-1.0,0.20758149140991267,1.0,0
37.8726806640625,22.928905487060547,-1.7834831476211548,-0.08589211760433924,0.055315300587916796,-0.9947676923052491,0.10987713304980432,3.0,0
38.28940963745117,22.50247573852539,-1.977591633796692,-0.0,-0.0,-1.0,0.04914393837289587,1.0,0
38.23064422607422,22.490375518798828,-1.9818005561828613,-0.0,-0.0,-1.0,0.09451671349154324,2.0,0
39.328304290771484,22.67104148864746,-2.244297504425049,-0.0,-0.0,-1.0,0.011662283907499724,1.0,0
38.83586502075195,21.915050506591797,-2.175323009490967,-0.0,-0.0,-1.0,0.09356237871999001,1.0,0
37.94209671020508,22.65658187866211,-1.8761807680130005,-0.0,-0.0,-1.0,0.10695729443018147,2.0,0
38.06382369995117,22.79413604736328,-1.9171652793884277,-0.0,-0.0,-1.0,0.13127541240563884,1.0,0
39.89264678955078,20.93531036376953,-1.7917990684509277,-0.0,-0.0,-1.0,0.1772656911685476,1.0,0
38.86979293823242,22.87561798095703,-2.22269606590271,-0.0,-0.0,-1.0,0.02461497091980154,1.0,0
39.10783004760742,21.689109802246094,-1.9681193828582764,-0.0,-0.0,-1.0,0.12798623403873544,1.0,0
37.735313415527344,22.725093841552734,-1.8619401454925537,-0.0,-0.0,-1.0,0.1055868558526684,1.0,0
39.34336853027344,22.88445281982422,-2.192309617996216,-0.0,-0.0,-1.0,0.010006878250018128,1.0,0
38.957401275634766,22.73810577392578,-2.2351162433624268,-0.0,-0.0,-1.0,0.0250137731607756,2.0,0
39.06108856201172,21.868854522705078,-2.0440404415130615,0.35409304174041945,0.02962773808429626,-0.9347407741866329,0.24929145774688993,3.0,0
38.3037223815918,23.03774642944336,-1.9144675731658936,-0.0,-0.0,-1.0,0.0842377862749528,1.0,0
37.798828125,22.604562759399414,-1.93357515335083,-0.9761464785943385,0.21675855519188655,0.012400849930490598,0.11419901431271258,4.0,0
37.933773040771484,22.682279586791992,-1.8719563484191895,0.9460202242153485,0.31729179223527926,-0.06611848422087403,0.14296845367426406,3.0,0
38.883907318115234,22.065689086914062,-2.176525115966797,-0.0,-0.0,-1.0,0.12348049321373915,1.0,0
38.060150146484375,22.67228126525879,-1.8418750762939453,0.9841892323669622,-0.04989554131051582,0.1699470207160468,0.12838978963404704,4.0,0
38.804443359375,22.439559936523438,-2.0959014892578125,-0.0,-0.0,-1.0,0.0961016052115568,1.0,0
38.011173248291016,21.15789031982422,-2.151230812072754,-0.5036319525818286,-0.807232618264695,-0.30778296955507467,0.007254785812066439,3.0,0
37.721649169921875,21.888668060302734,-2.1692802906036377,-0.0,-0.0,-1.0,0.03304286388041533,1.0,0
38.80112838745117,21.684450149536133,-2.1992909908294678,-0.0,-0.0,-1.0,0.03225904800818705,1.0,0
38.024131774902344,22.633590698242188,-1.9054591655731201,0.020915631285274346,0.4701456120737923,-0.8823409997363251,0.07615001838532827,4.0,0
38.61518859863281,22.224828720092773,-2.016918182373047,-0.0,-0.0,-1.0,0.1756445658769935,2.0,0
37.76350021362305,22.62061882019043,-1.9743728637695312,-0.24310794104879144,0.9550441489477293,-0.16967381223902817,0.1524306414465766,3.0,0
39.873748779296875,21.735214233398438,-2.088094711303711,-0.0,-0.0,-1.0,0.11289591774874194,1.0,0
37.712039947509766,22.92144012451172,-1.7681925296783447,-0.0,-0.0,-1.0,0.14040532569974531,1.0,0
38.6193733215332,22.22650909423828,-2.053919553756714,-0.853968383778196,0.5151522570589705,-0.0731857332702526,0.18328978626417855,3.0,0
39.156192779541016,21.80607795715332,-2.1248626708984375,-0.0,-0.0,-1.0,0.21271668216774922,1.0,0
39.08804702758789,21.778514862060547,-2.034663200378418,-0.0,-0.0,-1.0,0.23352195767472367,1.0,0
38.11771011352539,22.512557983398438,-1.9584017992019653,-0.0,-0.0,-1.0,0.06498950779973317,2.0,0
38.51831817626953,22.196535110473633,-2.032888412475586,-0.0,-0.0,-1.0,0.16968815836251247,1.0,0
40.082401275634766,22.448585510253906,-1.6755059957504272,-0.0,-0.0,-1.0,0.13695302027628223,1.0,0
40.10175704956055,22.747665405273438,-2.0728437900543213,-0.0,-0.0,-1.0,0.08208888043619737,1.0,0
37.938255310058594,22.703147888183594,-1.7966736555099487,-0.0,-0.0,-1.0,0.10307941973149756,2.0,0
38.09458923339844,22.62012481689453,-1.8456273078918457,0.8752070585179915,-0.4367236345910932,0.2080506469824853,0.08191153492026063,3.0,0
39.55560302734375,21.529150009155273,-2.0335466861724854,-0.0,-0.0,-1.0,0.08973734008383233,1.0,0
37.77883529663086,23.084808349609375,-1.8108253479003906,-0.0,-0.0,-1.0,0.20372560534877593,1.0,0
39.01368713378906,22.45330810546875,-1.9907026290893555,-0.0,-0.0,-1.0,0.08961057828919469,1.0,0
37.86104202270508,22.72585678100586,-1.8377184867858887,-0.4472935918165005,0.35848687403714297,0.8193995386030988,0.13240561388013167,4.0,0
39.80847930908203,21.24358558654785,-2.0425307750701904,-0.0,-0.0,-1.0,0.15372884356796915,1.0,0
39.260501861572266,21.651546478271484,-2.0147974491119385,-0.0,-0.0,-1.0,0.21776853722037162,1.0,0
39.819522857666016,21.596759796142578,-2.0582520961761475,-0.0,-0.0,-1.0,0.16138345210889107,1.0,0
39.92021179199219,21.83018684387207,-2.0763895511627197,-0.0,-0.0,-1.0,0.07958212919143767,2.0,0
37.88896179199219,22.493057250976562,-1.9405829906463623,-0.0,-0.0,-1.0,0.07023817052846378,2.0,0
37.804405212402344,22.621126174926758,-1.939594030380249,-0.6953606081443183,0.614980276016128,0.3718506215569505,0.1292444779343898,4.0,0
37.87609100341797,22.6988525390625,-1.3971023559570312,-0.0,-0.0,-1.0,0.12730889259813136,1.0,0
40.03434371948242,23.1337833404541,-2.1641578674316406,-0.0,-0.0,-1.0,0.09045818936983147,1.0,0
37.852012634277344,22.737276077270508,-1.8876938819885254,0.6064303053418453,0.7841272440003886,-0.13185882594408094,0.13761391474691628,4.0,0
37.782798767089844,22.861221313476562,-1.8990235328674316,-0.0,-0.0,-1.0,0.13140234214069504,1.0,0
40.10892868041992,23.096229553222656,-2.2604713439941406,-0.0,-0.0,-1.0,0.09806996076001859,1.0,0
40.061492919921875,22.53933334350586,-2.1795969009399414,-0.0,-0.0,-1.0,0.11755620665529057,1.0,0
39.9686279296875,22.959346771240234,-2.2165589332580566,-0.0,-0.0,-1.0,0.06801087369246472,2.0,0
37.878692626953125,22.71778678894043,-1.909836769104004,0.585004810322148,0.8109807679458048,-0.008919973205149373,0.162875613996912,3.0,0
38.341636657714844,20.79393196105957,-2.1623592376708984,-0.0,-0.0,-1.0,0.09092200831081428,1.0,0
38.17165756225586,21.04249382019043,-2.1674351692199707,-0.0,-0.0,-1.0,0.014594460123386296,1.0,0
37.9535026550293,21.330516815185547,-2.170745849609375,-0.0,-0.0,-1.0,0.007071758265925942,1.0,0
37.91229248046875,21.525341033935547,-2.189202308654785,-0.0,-0.0,-1.0,0.011562989509335554,1.0,0
39.94993209838867,21.37500762939453,-2.3320722579956055,-0.0,-0.0,-1.0,0.0921576053667642,1.0,0
39.65538024902344,21.881567001342773,-2.3103227615356445,-0.0,-0.0,-1.0,0.08907376093566798,1.0,0
39.644859313964844,22.13824462890625,-2.3205928802490234,-0.0,-0.0,-1.0,0.078076452115376,1.0,0
39.57261657714844,20.827316284179688,-2.2524967193603516,-0.0,-0.0,-1.0,0.06150333170229636,1.0,0
39.42771911621094,20.949867248535156,-2.2356958389282227,-0.0,-0.0,-1.0,0.056716040573034,1.0,0
39.58613586425781,21.595617294311523,-2.2871651649475098,-0.0,-0.0,-1.0,0.09708552074997741,1.0,0
39.59222412109375,21.85513687133789,-2.2997636795043945,-0.0,-0.0,-1.0,0.10862382409530398,1.0,0
37.834442138671875,22.697406768798828,-2.0834646224975586,-0.0,-0.0,-1.0,0.21099325126073423,1.0,0
39.100990295410156,21.342071533203125,-2.158167600631714,-0.0,-0.0,-1.0,0.11468844587779398,1.0,0
38.857521057128906,21.07925796508789,-2.1125266551971436,-0.0,-0.0,-1.0,0.09443112307873583,1.0,0
39.04377365112305,21.498384475708008,-2.1533443927764893,-0.0,-0.0,-1.0,0.08120698207614577,2.0,0
38.336647033691406,22.342796325683594,-2.0678422451019287,0.14951196210269158,0.8347350407812554,-0.5299656449998621,0.05382610503587034,6.0,0
38.18419647216797,22.39898681640625,-2.0459349155426025,-0.739418647990705,0.6341590425378255,-0.22605833709710066,0.07387665197012325,4.0,0
37.99590301513672,22.557262420654297,-2.022113084793091,-0.0,-0.0,-1.0,0.09611922128395835,2.0,0
38.44562911987305,21.030681610107422,-2.120863437652588,-0.0,-0.0,-1.0,0.06506082586248702,2.0,0
37.90928649902344,22.191848754882812,-2.0901875495910645,-0.0,-0.0,-1.0,0.07287549269322559,2.0,0
38.471439361572266,20.64623260498047,-2.0622308254241943,-0.0,-0.0,-1.0,0.24062327661376057,2.0,0
38.63505554199219,20.977210998535156,-2.109088182449341,-0.0,-0.0,-1.0,0.07867442494299398,1.0,0
38.663482666015625,21.209836959838867,-2.1293556690216064,-0.0,-0.0,-1.0,0.11162261807624398,2.0,0
38.00455856323242,22.216724395751953,-2.1054117679595947,-0.0,-0.0,-1.0,0.05392022404536801,1.0,0
37.871437072753906,22.175472259521484,-2.0827200412750244,-0.4179998989879678,0.704618092010843,-0.5734016296253851,0.07831462042654996,3.0,0
37.80066680908203,22.066696166992188,-2.2126595973968506,-0.0,-0.0,-1.0,0.07325428015921691,1.0,0
40.126529693603516,21.067947387695312,-2.198970079421997,-0.0,-0.0,-1.0,0.1035316807548044,2.0,0
40.1322135925293,21.729267120361328,-2.204854726791382,-0.0,-0.0,-1.0,0.037928695753734,2.0,0
39.707420349121094,20.81139373779297,-2.134230375289917,-0.0,-0.0,-1.0,0.07188929503555187,1.0,0
39.90841293334961,21.324247360229492,-2.1676127910614014,-0.0,-0.0,-1.0,0.16085028159229453,1.0,0
39.48991394042969,20.913349151611328,-2.1018426418304443,-0.0,-0.0,-1.0,0.08767821663950444,1.0,0
39.62495040893555,21.578763961791992,-2.126544713973999,-0.0,-0.0,-1.0,0.12698172250274095,1.0,0
37.808773040771484,22.794841766357422,-1.8636181354522705,-0.9797089495333107,0.18961141953266816,-0.06494523683183649,0.12181989929879508,3.0,0
38.30570983886719,21.3919734954834,-2.1394128799438477,0.3775699199765502,-0.7883572160366349,-0.48573022909004543,0.02310330141246951,3.0,0
38.382781982421875,21.630441665649414,-2.1505093574523926,-0.0,-0.0,-1.0,0.012598852147698245,1.0,0
38.23324966430664,21.243968963623047,-2.1289215087890625,-0.0,-0.0,-1.0,0.01700515632764442,2.0,0
38.13269805908203,21.874126434326172,-2.1109676361083984,-0.0,-0.0,-1.0,0.022422284134017298,1.0,0
38.057518005371094,22.039173126220703,-2.09903621673584,-0.0,-0.0,-1.0,0.04663237985114775,2.0,0
39.03313064575195,21.499250411987305,-2.1428606510162354,-0.0,-0.0,-1.0,0.08175301168453067,2.0,0
38.997894287109375,21.612133026123047,-2.1374781131744385,-0.0,-0.0,-1.0,0.08684028104399014,2.0,0
38.66552734375,20.933408737182617,-2.0886800289154053,-0.0,-0.0,-1.0,0.09196748097299824,1.0,0
38.455963134765625,22.22150421142578,-2.0559065341949463,-0.0,-0.0,-1.0,0.10932612383610718,1.0,0
38.416160583496094,22.39078140258789,-2.050297498703003,0.6711422631591856,-0.1892530969265716,-0.7167644856612727,0.057062730518766196,3.0,0
39.82204055786133,21.239973068237305,-2.1770763397216797,-0.0,-0.0,-1.0,0.0803930015378668,1.0,0
39.564857482910156,21.205615997314453,-2.1406140327453613,-0.0,-0.0,-1.0,0.08109296719201997,1.0,0
39.650718688964844,21.713592529296875,-2.147646903991699,-0.0,-0.0,-1.0,0.13582380525155163,1.0,0
39.183807373046875,20.799175262451172,-2.091156005859375,-0.0,-0.0,-1.0,0.0996963617076879,1.0,0
39.212711334228516,21.084938049316406,-2.091672420501709,-0.0,-0.0,-1.0,0.07068158312301251,1.0,0
39.473297119140625,21.533309936523438,-2.123946189880371,-0.0,-0.0,-1.0,0.10005610987805387,1.0,0
39.653480529785156,21.937671661376953,-2.1460037231445312,-0.0,-0.0,-1.0,0.10749501917712247,2.0,0
38.81938171386719,20.69088363647461,-2.040724277496338,-0.0,-0.0,-1.0,0.10149389203948259,1.0,0
37.71392059326172,22.872678756713867,-1.858694076538086,-0.5024632457467427,0.7685487630553833,-0.3960599518755821,0.1386692377550052,3.0,0
38.63148880004883,20.819332122802734,-2.066438913345337,-0.0,-0.0,-1.0,0.1072509135137862,1.0,0
38.38551330566406,21.27672576904297,-2.010637044906616,-0.0,-0.0,-1.0,0.05281204246790765,1.0,0
39.66550064086914,22.68813133239746,-2.1242916584014893,-0.0,-0.0,-1.0,0.02851603047234137,1.0,0
39.709510803222656,22.794118881225586,-2.126061201095581,-0.0,-0.0,-1.0,0.03125505617952871,1.0,0
39.727569580078125,23.07648468017578,-2.11718487739563,-0.0,-0.0,-1.0,0.018935916993308988,1.0,0
38.3770751953125,22.816926956176758,-1.9396426677703857,-0.0,-0.0,-1.0,0.07371526085494202,1.0,0
38.601585388183594,22.958297729492188,-1.9648916721343994,-0.0,-0.0,-1.0,0.045262757674538606,1.0,0
37.84250259399414,22.85061264038086,-1.8640167713165283,-0.0,-0.0,-1.0,0.14775433006896788,2.0,0
37.835147857666016,20.703033447265625,-2.126917839050293,-0.0,-0.0,-1.0,0.013228838707597031,2.0,0
38.099464416503906,21.254440307617188,-2.1447949409484863,-0.0,-0.0,-1.0,0.017122847783413758,2.0,0
38.01401901245117,21.043712615966797,-2.140160083770752,-0.0,-0.0,-1.0,0.004772016977377212,1.0,0
38.19766616821289,21.552894592285156,-2.148102283477783,-0.0,-0.0,-1.0,0.013818702972880164,1.0,0
38.00120162963867,22.000856399536133,-2.098740577697754,-0.0,-0.0,-1.0,0.031442656404000756,2.0,0
38.117000579833984,21.74091339111328,-2.127582550048828,-0.0,-0.0,-1.0,0.02067314523709786,2.0,0
40.099430084228516,21.262680053710938,-2.024540424346924,-0.0,-0.0,-1.0,0.1796617735741352,1.0,0
37.82341766357422,20.710391998291016,-2.084500551223755,-0.0,-0.0,-1.0,0.013228838707597031,2.0,0
38.037925720214844,22.069183349609375,-2.072779417037964,-0.0,-0.0,-1.0,0.05035190581207402,2.0,0
38.08665466308594,21.228229522705078,-2.110600233078003,-0.0,-0.0,-1.0,0.017651394884166,2.0,0
38.22908020019531,21.6112003326416,-2.121779203414917,-0.0,-0.0,-1.0,0.013961093419697061,1.0,0
37.80980682373047,21.89178466796875,-2.144359588623047,-0.0,-0.0,-1.0,0.029246913185609718,1.0,0
37.720394134521484,22.31220054626465,-1.9464499950408936,-0.0,-0.0,-1.0,0.10011854762562925,1.0,0
37.75749206542969,22.76219940185547,-1.9481966495513916,-0.0,-0.0,-1.0,0.1222854301667247,2.0,0
38.4903564453125,21.012697219848633,-2.111008405685425,-0.18159648577649254,-0.779876631241322,-0.599011816575696,0.06222928123150617,3.0,0
38.41912841796875,20.719079971313477,-2.1032464504241943,-0.0,-0.0,-1.0,0.15425335988625474,2.0,0
38.376182556152344,22.36511993408203,-2.0693962574005127,0.34283947174637125,-0.3535217093888065,-0.8703352788457362,0.06004954545908098,4.0,0
38.58024978637695,22.095748901367188,-2.111180543899536,-0.0,-0.0,-1.0,0.11371167804285984,1.0,0
38.74347686767578,21.474693298339844,-2.1506588459014893,-0.0,-0.0,-1.0,0.055129177489508206,2.0,0
38.622474670410156,21.24272918701172,-2.1317431926727295,-0.0,-0.0,-1.0,0.10298480279224781,1.0,0
38.84056854248047,21.67275619506836,-2.1659228801727295,-0.0,-0.0,-1.0,0.05809549536880803,1.0,0
37.88253402709961,22.74242401123047,-1.8342318534851074,0.10137402932180391,-0.06385836585776854,-0.9927967643425503,0.174942162667823,6.0,0
38.531532287597656,20.700040817260742,-2.012300968170166,-0.0,-0.0,-1.0,0.2679922423664483,1.0,0
38.6187629699707,22.272891998291016,-1.9802546501159668,-0.0,-0.0,-1.0,0.2259851355798527,1.0,0
38.913352966308594,21.167396545410156,-2.0657577514648438,-0.0,-0.0,-1.0,0.2155989405971191,1.0,0
38.8089714050293,20.97458267211914,-2.053117275238037,-0.0,-0.0,-1.0,0.0891361936220584,1.0,0
38.796810150146484,22.403640747070312,-2.0092368125915527,-0.0,-0.0,-1.0,0.08894581892779539,2.0,0
39.147254943847656,21.768798828125,-2.0901365280151367,-0.0,-0.0,-1.0,0.22000349037410505,1.0,0
39.05198287963867,21.35426902770996,-2.085047721862793,-0.0,-0.0,-1.0,0.14503961299473153,2.0,0
39.25551223754883,22.142257690429688,-2.0995116233825684,-0.0,-0.0,-1.0,0.11891875264635661,2.0,0
38.878116607666016,20.81818389892578,-2.0296871662139893,-0.0,-0.0,-1.0,0.07751393843463544,1.0,0
38.85246658325195,20.653074264526367,-2.0282037258148193,-0.0,-0.0,-1.0,0.10752678324805261,2.0,0
39.183746337890625,21.34925079345703,-2.07698655128479,-0.0,-0.0,-1.0,0.13508921451779116,1.0,0
39.05442810058594,21.033401489257812,-2.058412790298462,-0.0,-0.0,-1.0,0.09095733622730434,1.0,0
39.439388275146484,21.645429611206055,-2.119981527328491,-0.0,-0.0,-1.0,0.09196858101615331,2.0,0
39.6655158996582,21.95191764831543,-2.1579015254974365,-0.0,-0.0,-1.0,0.11123846754642368,2.0,0
40.09666442871094,22.39536476135254,-2.1742208003997803,-0.0,-0.0,-1.0,0.16551591999246482,1.0,0
40.190181732177734,22.11713409423828,-2.171865224838257,-0.0,-0.0,-1.0,0.06292483470779756,1.0,0
40.2029914855957,21.771690368652344,-2.1497280597686768,-0.0,-0.0,-1.0,0.030258622471146752,2.0,0
39.963462829589844,23.102962493896484,-2.202263593673706,-0.0,-0.0,-1.0,0.09090890188377394,1.0,0
38.76838684082031,21.34914779663086,-1.845477819442749,-0.0,-0.0,-1.0,0.19928886484529404,1.0,0
38.025108337402344,22.79572296142578,-1.8095967769622803,-0.0,-0.0,-1.0,0.10504027926946789,2.0,0
40.09883117675781,21.516313552856445,-2.112060308456421,-0.0,-0.0,-1.0,0.12136473261188359,2.0,0
39.85084533691406,22.67696762084961,-2.148285150527954,-0.0,-0.0,-1.0,0.04948155621889369,1.0,0
39.99565124511719,22.433414459228516,-2.157762289047241,-0.0,-0.0,-1.0,0.08046718303214244,1.0,0
40.13771438598633,21.8790225982666,-2.144798517227173,-0.0,-0.0,-1.0,0.039357849559725884,2.0,0
39.90461730957031,22.96821403503418,-2.180673360824585,-0.0,-0.0,-1.0,0.06445005937418977,1.0,0
37.97892761230469,23.107696533203125,-1.82845139503479,-0.0,-0.0,-1.0,0.07385244720013011,1.0,0
37.919837951660156,22.764402389526367,-1.7876017093658447,-0.0,-0.0,-1.0,0.09747823071545965,1.0,0
38.97459411621094,21.984405517578125,-1.9252703189849854,-0.0,-0.0,-1.0,0.1489531525418216,1.0,0
39.15424346923828,21.6699275970459,-1.9351298809051514,-0.0,-0.0,-1.0,0.1030104228557616,1.0,0
38.11736297607422,23.030654907226562,-1.848128080368042,-0.0,-0.0,-1.0,0.06114286839028371,2.0,0
39.163265228271484,22.16632080078125,-1.9760172367095947,-0.0,-0.0,-1.0,0.11291737702394848,1.0,0
40.148983001708984,21.42695426940918,-2.1080162525177,-0.0,-0.0,-1.0,0.24791098101026535,2.0,0
39.95783996582031,22.869712829589844,-2.185781240463257,-0.0,-0.0,-1.0,0.07352064739880493,1.0,0
39.97883605957031,22.634498596191406,-2.170381784439087,-0.0,-0.0,-1.0,0.06730786052063463,1.0,0
39.95423126220703,23.02881622314453,-2.1984293460845947,-0.5784044517499796,-0.7982379581590981,0.168120350790139,0.07275421012419422,3.0,0
38.737220764160156,21.647159576416016,-2.171412467956543,-0.1407288505621511,-0.5630724348311422,-0.8143370455485768,0.06785320474990661,3.0,0
38.48541259765625,20.670818328857422,-2.0454721450805664,-0.0,-0.0,-1.0,0.24062327661376057,2.0,0
38.639427185058594,21.112815856933594,-2.110330104827881,-0.0,-0.0,-1.0,0.12966779322472988,1.0,0
37.724952697753906,22.507137298583984,-2.0247554779052734,-0.0,-0.0,-1.0,0.10375729589615805,2.0,0
38.0855712890625,22.23343276977539,-2.0786590576171875,-0.0,-0.0,-1.0,0.04079185543698291,1.0,0
38.38080978393555,21.926162719726562,-2.1168384552001953,-0.31292609604512084,0.87859382887761,-0.3607632773331304,0.05901623845657193,3.0,0
40.07390213012695,22.58930015563965,-1.7488627433776855,-0.0,-0.0,-1.0,0.09645357676038342,1.0,0
40.078269958496094,22.434764862060547,-1.7384166717529297,-0.0,-0.0,-1.0,0.14381969361722943,1.0,0
38.28828430175781,20.848237991333008,-2.1344752311706543,-0.0,-0.0,-1.0,0.07080218507825009,2.0,0
37.765777587890625,21.934009552001953,-2.1411352157592773,-0.0,-0.0,-1.0,0.04316553703922172,1.0,0
39.41094207763672,20.730789184570312,-1.6467461585998535,-0.0,-0.0,-1.0,0.1171140451506492,1.0,0
40.11912536621094,21.156143188476562,-1.8213562965393066,-0.0,-0.0,-1.0,0.16265665752543126,1.0,0
37.91334533691406,20.728700637817383,-2.12233304977417,-0.0,-0.0,-1.0,0.019850250544139404,1.0,0
39.59040069580078,20.67455291748047,-1.8013129234313965,-0.0,-0.0,-1.0,0.1545314300625428,1.0,0
39.77276611328125,21.352005004882812,-2.082749843597412,-0.0,-0.0,-1.0,0.20222893473280223,1.0,0
40.10057830810547,21.266334533691406,-2.1437692642211914,-0.0,-0.0,-1.0,0.12190364963701547,1.0,0
39.738121032714844,21.752655029296875,-2.125185012817383,-0.0,-0.0,-1.0,0.08512060567811533,1.0,0
39.778175354003906,22.17540168762207,-2.1882472038269043,-0.49468880711135654,0.6312217282289802,-0.5973626318496685,0.1343951302002266,3.0,0
39.62002944946289,22.433622360229492,-2.1882572174072266,-0.0,-0.0,-1.0,0.05871588117743407,2.0,0
39.422569274902344,22.922670364379883,-2.2126569747924805,-0.0,-0.0,-1.0,0.025058997894072798,2.0,0
39.72962188720703,22.823453903198242,-2.264392375946045,-0.0,-0.0,-1.0,0.02703223162439397,1.0,0
38.81983947753906,21.202434539794922,-1.8570671081542969,-0.0,-0.0,-1.0,0.21297435323724012,1.0,0
39.03799057006836,20.844852447509766,-1.8611907958984375,-0.0,-0.0,-1.0,0.12842393104503427,1.0,0
39.091548919677734,21.833526611328125,-1.9957027435302734,0.3921652293777479,-0.8287207756157589,-0.39928474667824865,0.20720214202822848,3.0,0
38.519710540771484,22.17665672302246,-1.9179816246032715,-0.0,-0.0,-1.0,0.20410975618991908,1.0,0
38.81415557861328,22.377090454101562,-2.0080556869506836,-0.0,-0.0,-1.0,0.09353578679847618,2.0,0
39.173091888427734,22.12757110595703,-2.0516605377197266,-0.0,-0.0,-1.0,0.1538627223334667,1.0,0
37.817100524902344,22.838863372802734,-1.8607158660888672,-0.8109928516089911,0.3993890921974466,-0.4275265461615409,0.15086530635083908,4.0,0
38.02106475830078,22.658855438232422,-1.8781447410583496,0.7107812513490711,0.05931635646559154,-0.7009076847818801,0.10568924638419883,4.0,0
38.42121124267578,20.74878692626953,-2.124483823776245,-0.0,-0.0,-1.0,0.12286725952948899,2.0,0
38.451866149902344,20.651744842529297,-2.1210782527923584,-0.0,-0.0,-1.0,0.19663909874652813,1.0,0
38.2993049621582,21.079221725463867,-2.1324737071990967,-0.0,-0.0,-1.0,0.020612568086932927,1.0,0
38.24586486816406,21.50572967529297,-2.1720340251922607,-0.0,-0.0,-1.0,0.026046413300727572,1.0,0
37.97607421875,21.896343231201172,-2.1542608737945557,-0.0,-0.0,-1.0,0.02993127009053712,1.0,0
38.08979797363281,21.725831985473633,-2.1605279445648193,-0.0,-0.0,-1.0,0.019844646044435015,2.0,0
40.043006896972656,21.072158813476562,-1.9214494228363037,-0.0,-0.0,-1.0,0.2036544811181803,1.0,0
39.91209411621094,21.421323776245117,-1.9300310611724854,-0.0,-0.0,-1.0,0.22985562854883518,1.0,0
39.577362060546875,22.16731071472168,-1.9413673877716064,-0.0,-0.0,-1.0,0.18895143030319209,1.0,0
38.737335205078125,21.084205627441406,-2.118253707885742,-0.0,-0.0,-1.0,0.10074169604751702,1.0,0
38.74465560913086,21.500843048095703,-2.1750431060791016,-0.0,-0.0,-1.0,0.05937683691199187,2.0,0
38.492977142333984,21.843982696533203,-2.1565909385681152,-0.0,-0.0,-1.0,0.04096974047307492,1.0,0
38.68461608886719,20.730140686035156,-2.059500217437744,-0.0,-0.0,-1.0,0.09757834887369828,2.0,0
40.18132781982422,21.097734451293945,-1.8687076568603516,-0.0,-0.0,-1.0,0.15591695276271514,1.0,0
38.13450622558594,22.04905128479004,-2.092789649963379,-0.0,-0.0,-1.0,0.03191961592115095,2.0,0
38.339019775390625,21.893146514892578,-2.123401641845703,-0.0,-0.0,-1.0,0.05037568016127107,2.0,0
37.73107147216797,22.437644958496094,-2.0467844009399414,-0.0,-0.0,-1.0,0.09749327893555516,2.0,0
38.0214729309082,22.264278411865234,-2.0952553749084473,-0.0,-0.0,-1.0,0.055112161658087334,1.0,0
38.168556213378906,21.124794006347656,-2.159287214279175,-0.0,-0.0,-1.0,0.015166224712690468,1.0,0
38.26693344116211,20.92168426513672,-2.1574127674102783,-0.0,-0.0,-1.0,0.039918795919646935,1.0,0
40.205543518066406,21.09894561767578,-2.1504428386688232,-0.0,-0.0,-1.0,0.10524288346204275,1.0,0
38.10817337036133,21.417564392089844,-2.1874582767486572,-0.0,-0.0,-1.0,0.01192301746035665,2.0,0
40.080928802490234,21.31843376159668,-2.1473872661590576,-0.0,-0.0,-1.0,0.13484656310340187,1.0,0
37.78766632080078,21.954055786132812,-2.182965040206909,-0.0,-0.0,-1.0,0.0548008992783592,1.0,0
37.923423767089844,21.74298095703125,-2.186676263809204,-0.0,-0.0,-1.0,0.022339396272451274,2.0,0
40.04795837402344,21.740047454833984,-2.1967480182647705,-0.0,-0.0,-1.0,0.042846877331113156,2.0,0
39.75132369995117,22.080995559692383,-2.1695563793182373,0.7020576212358752,-0.4674284105312567,-0.5372390319893436,0.12662555311023835,3.0,0
39.99635696411133,21.970916748046875,-2.216132879257202,-0.0,-0.0,-1.0,0.03764760538460447,1.0,0
39.757057189941406,22.586820602416992,-2.2463996410369873,-0.0,-0.0,-1.0,0.025574425998476792,1.0,0
39.42406463623047,23.044681549072266,-2.234276533126831,-0.0,-0.0,-1.0,0.025125037121237533,1.0,0
39.6362190246582,22.85828399658203,-2.2578799724578857,0.047698465782062806,0.49328708827282985,-0.8685578304899167,0.02575575292762247,3.0,0
39.22758102416992,20.64956283569336,-1.8379313945770264,-0.0,-0.0,-1.0,0.1558285488917775,1.0,0
39.24190902709961,21.53681182861328,-1.9611937999725342,-0.0,-0.0,-1.0,0.2106143068458703,1.0,0
39.01155090332031,21.877084732055664,-1.9513251781463623,-0.0,-0.0,-1.0,0.2176850484368877,1.0,0
39.0893669128418,21.764606475830078,-1.9547111988067627,-0.0,-0.0,-1.0,0.23298249356624504,1.0,0
38.36543273925781,22.100553512573242,-1.8211452960968018,-0.0,-0.0,-1.0,0.16708516847548724,1.0,0
38.99436950683594,22.01178741455078,-1.9668047428131104,-0.0,-0.0,-1.0,0.1515761381357675,1.0,0
39.112884521484375,22.142566680908203,-2.0163733959198,-0.0,-0.0,-1.0,0.14035523480278697,1.0,0
37.98735427856445,22.772266387939453,-1.8335368633270264,-0.0,-0.0,-1.0,0.1409362275563809,2.0,0
37.80805206298828,23.12116813659668,-1.8479583263397217,-0.0,-0.0,-1.0,0.17309773761749914,1.0,0
37.931640625,22.915485382080078,-1.8435275554656982,-0.0,-0.0,-1.0,0.1344863155838852,1.0,0
38.76389694213867,20.95086669921875,-2.0823748111724854,-0.0,-0.0,-1.0,0.05945403878445581,2.0,0
38.8743896484375,20.98685073852539,-2.1208207607269287,-0.0,-0.0,-1.0,0.08580670965181181,1.0,0
38.78156661987305,21.362825393676758,-2.1523587703704834,-0.0,-0.0,-1.0,0.11339726661255685,2.0,0
38.359222412109375,21.916780471801758,-2.1209628582000732,0.22560869954153118,-0.09278103178298527,-0.9697898714837481,0.06105092518425367,3.0,0
38.65584182739258,21.726551055908203,-2.175039052963257,0.12389733413344493,-0.4739476481314626,-0.8717930244188017,0.020888491113599753,3.0,0
38.136329650878906,22.1280460357666,-2.093653917312622,-0.0,-0.0,-1.0,0.035580581398538744,1.0,0
37.9460334777832,22.43115234375,-2.0940592288970947,-0.0,-0.0,-1.0,0.08235449972272581,1.0,0
40.04814147949219,22.991058349609375,-2.2070224285125732,-0.10970211498299351,0.3711359117449249,-0.9220756915684968,0.09806996076001857,3.0,0
40.14104461669922,22.816492080688477,-2.202594041824341,-0.0,-0.0,-1.0,0.08649920378437459,1.0,0
39.38071060180664,21.521812438964844,-1.8097684383392334,-0.0,-0.0,-1.0,0.24731761986862005,1.0,0
39.96855926513672,21.378604888916016,-1.942566156387329,-0.0,-0.0,-1.0,0.20186318116230612,2.0,0
37.76301956176758,22.26289176940918,-2.0108840465545654,-0.0,-0.0,-1.0,0.09004935392804433,1.0,0
39.56693649291992,22.11196517944336,-1.945924997329712,-0.0,-0.0,-1.0,0.1650052716412627,1.0,0
37.754417419433594,22.415634155273438,-2.0366432666778564,-0.0,-0.0,-1.0,0.11846427549715298,2.0,0
40.11951446533203,22.60028076171875,-2.1630308628082275,-0.0,-0.0,-1.0,0.1002245465176585,2.0,0
39.98116683959961,23.010412216186523,-2.1931421756744385,-0.5784044517499796,-0.7982379581590981,0.168120350790139,0.10373960329987178,3.0,0
39.869903564453125,20.647613525390625,-2.0809452533721924,-0.0,-0.0,-1.0,0.1664289367405893,1.0,0
39.85899353027344,20.831504821777344,-2.1066062450408936,-0.0,-0.0,-1.0,0.16626760727515222,1.0,0
40.02003860473633,21.050867080688477,-2.1900360584259033,-0.0,-0.0,-1.0,0.08572846939698334,1.0,0
39.851402282714844,21.41482162475586,-2.2001192569732666,-0.0,-0.0,-1.0,0.14256454775371016,1.0,0
39.976051330566406,21.187923431396484,-2.1992762088775635,-0.0,-0.0,-1.0,0.07743815434359522,1.0,0
39.486778259277344,21.843137741088867,-2.1671783924102783,-0.0,-0.0,-1.0,0.08485104170006666,1.0,0
39.61033630371094,21.694765090942383,-2.1771953105926514,-0.0,-0.0,-1.0,0.11277146282615963,1.0,0
39.34363555908203,22.080463409423828,-2.1687052249908447,-0.0,-0.0,-1.0,0.08243753862543726,1.0,0
39.019866943359375,22.554004669189453,-2.1650617122650146,-0.0,-0.0,-1.0,0.031481196100519686,1.0,0
39.3026123046875,22.40505599975586,-2.2174413204193115,-0.3383881320492212,-0.2609886298669387,-0.9040898225112465,0.017617068146021153,3.0,0
38.96603775024414,22.861499786376953,-2.21034836769104,-0.0,-0.0,-1.0,0.0265730037555618,1.0,0
38.86802673339844,21.264713287353516,-1.8833301067352295,-0.0,-0.0,-1.0,0.2228032110821449,1.0,0
38.734580993652344,22.2984676361084,-2.0338752269744873,-0.0,-0.0,-1.0,0.10755326701972952,1.0,0
37.891273498535156,22.709068298339844,-1.877399206161499,0.5247646398577822,0.8018175698146142,-0.2858507608727298,0.1799771110309635,4.0,0
38.07952117919922,22.636821746826172,-1.9151833057403564,-0.0,-0.0,-1.0,0.08355356374199754,2.0,0
40.187015533447266,22.41192626953125,-1.9244539737701416,-0.0,-0.0,-1.0,0.06266244198621992,2.0,0
37.73088836669922,22.920101165771484,-1.8771183490753174,0.5126941225010491,0.8248801992842375,0.23815413828375068,0.25822422262692635,3.0,0
40.2071418762207,22.360851287841797,-1.9773316383361816,-0.0,-0.0,-1.0,0.06406895751509481,1.0,0
40.152156829833984,21.2828369140625,-2.1289849281311035,-0.0,-0.0,-1.0,0.09179369922572364,1.0,0
39.73564147949219,21.889373779296875,-2.1265382766723633,-0.0,-0.0,-1.0,0.1084967829712986,1.0,0
40.088932037353516,21.730331420898438,-2.1904172897338867,-0.15386841967060758,-0.9059241869333182,-0.394494457448106,0.04104842338105152,3.0,0
39.74060821533203,22.05202293395996,-2.158351421356201,-0.0,-0.0,-1.0,0.11829734036721049,2.0,0
39.54020690917969,22.536964416503906,-2.2004761695861816,-0.0,-0.0,-1.0,0.020833130771785894,2.0,0
39.7002067565918,22.41195297241211,-2.216905117034912,-0.0,-0.0,-1.0,0.0354073939508293,2.0,0
39.223480224609375,22.940109252929688,-2.2028255462646484,-0.0,-0.0,-1.0,0.00894386631207393,1.0,0
39.2918815612793,22.967058181762695,-2.225505828857422,-0.0,-0.0,-1.0,0.008524186673681022,2.0,0
39.06023406982422,21.838897705078125,-1.9416178464889526,-0.0,-0.0,-1.0,0.1859707538606764,1.0,0
39.60923385620117,21.708717346191406,-2.060164451599121,-0.0,-0.0,-1.0,0.10801489941499358,1.0,0
38.638648986816406,22.23153305053711,-1.911276936531067,-0.0,-0.0,-1.0,0.17838415166755833,1.0,0
38.984169006347656,22.108240127563477,-1.974385142326355,-0.0,-0.0,-1.0,0.13740997442624547,1.0,0
39.320556640625,22.264278411865234,-2.0907440185546875,-0.0,-0.0,-1.0,0.08381694130840693,1.0,0
37.911216735839844,22.72132682800293,-1.835023045539856,0.5062154428992797,0.730312876797194,-0.4586818367392505,0.15704695972679034,4.0,0
38.07835388183594,22.674833297729492,-1.8653048276901245,-0.6112203170448639,-0.6357164134573584,-0.4714598240491854,0.16519580050050606,5.0,0
39.997371673583984,22.458887100219727,-1.8277193307876587,-0.0,-0.0,-1.0,0.14381969361722946,1.0,0
40.0944938659668,22.411277770996094,-1.8412967920303345,-0.4982375419838698,-0.3269484227991491,-0.8030342960216708,0.09829883173589621,3.0,0
37.739646911621094,22.90221405029297,-1.8340190649032593,-0.8043959811375699,0.5329555712643269,0.26249850397295743,0.14043773192014977,5.0,0
39.52414321899414,20.690793991088867,-2.112752676010132,-0.0,-0.0,-1.0,0.10831904705347202,1.0,0
39.431724548339844,20.953842163085938,-2.1309878826141357,-0.0,-0.0,-1.0,0.09194184748027044,1.0,0
39.156986236572266,21.405189514160156,-2.1340620517730713,-0.6615898818704403,0.33892497945705297,-0.6689011036817722,0.109267867495723,4.0,0
39.049903869628906,21.77983856201172,-2.17524790763855,-0.0,-0.0,-1.0,0.1392550607087354,1.0,0
38.519073486328125,22.270811080932617,-2.130753993988037,-0.0,-0.0,-1.0,0.0823680984320657,1.0,0
38.72132873535156,22.207069396972656,-2.1713602542877197,-0.0,-0.0,-1.0,0.07348862552323264,2.0,0
38.941253662109375,22.09198570251465,-2.206960678100586,-0.0,-0.0,-1.0,0.14142090997040183,1.0,0
40.068782806396484,23.030460357666016,-2.2393620014190674,-0.5590603604568652,-0.7505665602673212,-0.352280217971889,0.09806996076001862,3.0,0
38.51093673706055,20.871536254882812,-1.8556315898895264,-0.0,-0.0,-1.0,0.26014564546809227,1.0,0
39.23329162597656,21.01779556274414,-2.085564374923706,-0.0,-0.0,-1.0,0.09186350312446452,1.0,0
40.144752502441406,21.062482833862305,-1.9282336235046387,-0.0,-0.0,-1.0,0.1597695480596643,1.0,0
39.058563232421875,21.361955642700195,-2.098470449447632,-0.0,-0.0,-1.0,0.11338336763687629,2.0,0
39.35691833496094,21.57489013671875,-1.8137633800506592,-0.0,-0.0,-1.0,0.18741098112574633,2.0,0
39.99884796142578,21.43291473388672,-1.949223279953003,-0.0,-0.0,-1.0,0.18740017976421924,1.0,0
40.127655029296875,21.320201873779297,-1.9635467529296875,-0.0,-0.0,-1.0,0.14593365856538978,1.0,0
38.700233459472656,21.910614013671875,-2.105646848678589,-0.0,-0.0,-1.0,0.08211080496469163,1.0,0
39.3519287109375,21.61513328552246,-1.8192722797393799,-0.0,-0.0,-1.0,0.18535256081063922,2.0,0
38.350284576416016,22.330551147460938,-2.0989534854888916,-0.0,-0.0,-1.0,0.057668920797411545,2.0,0
39.685630798339844,22.162616729736328,-1.9936048984527588,-0.0,-0.0,-1.0,0.13832104966759054,1.0,0
37.96994400024414,22.55552101135254,-2.0491018295288086,-0.0,-0.0,-1.0,0.0991482737232344,2.0,0
38.21164321899414,22.45261001586914,-2.088815212249756,-0.0,-0.0,-1.0,0.07694089969334612,2.0,0
40.13322448730469,22.621870040893555,-2.1813695430755615,-0.0,-0.0,-1.0,0.09880380723729577,2.0,0
40.05125045776367,22.955551147460938,-2.221683979034424,-0.9414841633451958,0.05488388663077197,-0.3325587604597072,0.09806996076001863,3.0,0
39.086036682128906,20.70578384399414,-1.7897634506225586,-0.0,-0.0,-1.0,0.1695050040099068,1.0,0
39.98125076293945,21.07662582397461,-2.117823839187622,-0.0,-0.0,-1.0,0.0880288545360377,2.0,0
40.12856674194336,21.073976516723633,-2.1591992378234863,-0.0,-0.0,-1.0,0.13728643387205708,2.0,0
39.17579650878906,21.486207962036133,-1.9787354469299316,-0.0,-0.0,-1.0,0.1784532370766509,1.0,0
39.932071685791016,21.398786544799805,-2.1695008277893066,0.870551280325237,-0.4763494948795244,-0.12341647804127656,0.14844288234705275,3.0,0
40.05292510986328,21.223190307617188,-2.1676032543182373,-0.0,-0.0,-1.0,0.0853999499783886,1.0,0
39.6180305480957,21.895729064941406,-2.188917398452759,-0.0,-0.0,-1.0,0.10539264601813225,1.0,0
39.78802490234375,21.712051391601562,-2.1956472396850586,-0.0,-0.0,-1.0,0.10136433064304028,2.0,0
38.42813491821289,22.13421630859375,-1.9287114143371582,-0.0,-0.0,-1.0,0.1885624110197171,1.0,0
38.95970153808594,22.3394718170166,-2.1151182651519775,-0.0,-0.0,-1.0,0.09204211797378312,1.0,0
39.43119430541992,22.082134246826172,-2.1803712844848633,-0.0,-0.0,-1.0,0.10603624158400848,1.0,0
37.9068717956543,22.679149627685547,-1.9339334964752197,-0.0,-0.0,-1.0,0.13831895001370867,1.0,0
38.114501953125,22.603803634643555,-1.9654624462127686,-0.0,-0.0,-1.0,0.04530675720488194,2.0,0
38.845008850097656,22.60190200805664,-2.1484246253967285,-0.0,-0.0,-1.0,0.04147854241748639,1.0,0
39.08082580566406,22.52448844909668,-2.190678358078003,-0.0,-0.0,-1.0,0.029957629634426615,1.0,0
39.33973693847656,22.379295349121094,-2.223900079727173,-0.0,-0.0,-1.0,0.0199987037875568,2.0,0
37.76074981689453,22.87994384765625,-1.950850009918213,-0.0,-0.0,-1.0,0.1872687443694148,1.0,0
38.84202575683594,22.946041107177734,-2.232124090194702,-0.0,-0.0,-1.0,0.019098025396992728,1.0,0
38.97340393066406,22.801029205322266,-2.2296292781829834,-0.0,-0.0,-1.0,0.02549269271137437,2.0,0
40.1574821472168,22.983217239379883,-2.2396981716156006,-0.0,-0.0,-1.0,0.09806996076001862,1.0,0
39.60096740722656,22.133188247680664,-1.8963141441345215,-0.0,-0.0,-1.0,0.16612821770257283,2.0,0
40.04303741455078,22.940113067626953,-2.2009804248809814,-0.0,-0.0,-1.0,0.09806996076001856,2.0,0
40.16252899169922,22.439407348632812,-1.7267158031463623,-0.0,-0.0,-1.0,0.09560408582925423,1.0,0
40.11805725097656,22.431289672851562,-1.8640642166137695,-0.4982375419838698,-0.3269484227991491,-0.8030342960216708,0.10041791957383102,3.0,0
37.935569763183594,22.037982940673828,-2.070333480834961,-0.0,-0.0,-1.0,0.03658476530129214,1.0,0
38.21735763549805,22.466915130615234,-2.076888084411621,-0.0,-0.0,-1.0,0.08984180030098955,2.0,0
38.25165557861328,22.13726806640625,-2.0283761024475098,-0.0,-0.0,-1.0,0.09255195840269825,1.0,0
39.756080627441406,21.003910064697266,-2.13594913482666,-0.0,-0.0,-1.0,0.03785650445414077,1.0,0
39.99021911621094,21.06041717529297,-2.097653388977051,-0.0,-0.0,-1.0,0.1150033986102913,2.0,0
39.857704162597656,20.704004287719727,-2.0712270736694336,-0.0,-0.0,-1.0,0.1710465673537899,1.0,0
38.44008255004883,22.13503646850586,-1.9959105253219604,-0.0,-0.0,-1.0,0.19021347465820473,1.0,0
39.19329833984375,21.46702766418457,-1.7813957929611206,-0.0,-0.0,-1.0,0.19590152945556122,1.0,0
37.835960388183594,22.422761917114258,-2.0218148231506348,0.17046092447604858,0.6665466557613773,-0.7257124974258711,0.1371510692725176,4.0,0
38.307945251464844,22.934005737304688,-2.018240451812744,-0.0,-0.0,-1.0,0.0788051092264293,1.0,0
37.979248046875,22.462017059326172,-2.004749059677124,-0.0,-0.0,-1.0,0.09293696929956605,1.0,0
39.873382568359375,21.97690773010254,-2.1891584396362305,-0.0,-0.0,-1.0,0.0491848562912256,2.0,0
39.76447677612305,21.771678924560547,-2.1753079891204834,-0.0,-0.0,-1.0,0.11807357529111076,1.0,0
39.521636962890625,21.41810417175293,-2.1632590293884277,-0.0,-0.0,-1.0,0.07922127304918726,2.0,0
39.46906280517578,21.009490966796875,-2.1101973056793213,-0.0,-0.0,-1.0,0.051150435867229185,1.0,0
40.19034194946289,22.376296997070312,-2.2006916999816895,-0.0,-0.0,-1.0,0.13479872498638237,1.0,0
40.01050567626953,22.174076080322266,-2.197730302810669,-0.0,-0.0,-1.0,0.044803496794047416,1.0,0
39.84824752807617,21.604942321777344,-2.133436918258667,-0.0,-0.0,-1.0,0.14469894243184692,1.0,0
38.2549934387207,22.756160736083984,-2.0019376277923584,-0.0,-0.0,-1.0,0.0916505547866167,1.0,0
38.186546325683594,22.554420471191406,-1.9851596355438232,-0.556854486226245,-0.10221930677629529,-0.8242962419493849,0.06922173623679528,5.0,0
40.031131744384766,22.321449279785156,-1.6772260665893555,-0.0,-0.0,-1.0,0.11904724404388588,2.0,0
37.84485626220703,22.387893676757812,-2.0540857315063477,-0.0,-0.0,-1.0,0.15919870554707777,2.0,0
38.2760124206543,22.814876556396484,-2.047391891479492,-0.0,-0.0,-1.0,0.07859120307006648,1.0,0
38.20183563232422,22.577058792114258,-2.0253329277038574,-0.0,-0.0,-1.0,0.06873844392916637,2.0,0
39.75074005126953,21.508068084716797,-2.1766507625579834,-0.0,-0.0,-1.0,0.1382783619622886,1.0,0
39.59159469604492,21.440353393554688,-2.1942265033721924,-0.0,-0.0,-1.0,0.10207373169139705,1.0,0
39.542198181152344,21.062366485595703,-2.1428864002227783,-0.0,-0.0,-1.0,0.05126414257081961,1.0,0
40.03916931152344,21.54175567626953,-2.131126642227173,-0.0,-0.0,-1.0,0.1184935499911281,1.0,0
39.72045135498047,21.109949111938477,-2.1178812980651855,-0.0,-0.0,-1.0,0.05207053706266422,2.0,0
39.616153717041016,20.87114715576172,-2.0994036197662354,0.8286876590387477,0.18921223257729342,-0.526759427822603,0.09465310084672654,3.0,0
38.122257232666016,22.42082977294922,-2.0159993171691895,-0.6361296198849155,-0.7640481959447154,0.10756142886136645,0.08641075528092224,4.0,0
40.020118713378906,22.306514739990234,-1.7179505825042725,-0.0,-0.0,-1.0,0.1190472440438859,2.0,0
39.417015075683594,22.95136260986328,-2.231921434402466,-0.0,-0.0,-1.0,0.0264213385794757,2.0,0
39.20684051513672,22.680023193359375,-2.2216930389404297,-0.0,-0.0,-1.0,0.012121107743788212,2.0,0
38.952354431152344,22.178306579589844,-2.1849496364593506,-0.0,-0.0,-1.0,0.1475415202411282,1.0,0
38.66265869140625,21.79043197631836,-2.1754655838012695,0.1765183943299985,-0.7481575153635751,-0.6396104976219205,0.014125364614021866,3.0,0
38.531768798828125,21.614486694335938,-2.172224521636963,-0.0,-0.0,-1.0,0.010294622924787087,1.0,0
39.43613815307617,22.796791076660156,-2.203697681427002,-0.0,-0.0,-1.0,0.020515539509905943,1.0,0
39.17607498168945,22.4108829498291,-2.1841015815734863,-0.0,-0.0,-1.0,0.05534488420389435,1.0,0
39.02720642089844,22.208492279052734,-2.1772079467773438,-0.0,-0.0,-1.0,0.1372442543193057,2.0,0
38.71356964111328,21.815814971923828,-2.170524835586548,0.16933261499913513,-0.488150341790895,-0.8561750459497097,0.01939285974806447,3.0,0
38.6340446472168,21.708454132080078,-2.1682984828948975,0.12389733413344493,-0.4739476481314626,-0.8717930244188017,0.02089907414060142,3.0,0
38.308467864990234,23.04766082763672,-1.8163354396820068,-0.0,-0.0,-1.0,0.08570329627512445,2.0,0
38.13322448730469,22.896373748779297,-1.8208754062652588,-0.0,-0.0,-1.0,0.058717390372237804,1.0,0
37.97707748413086,22.65155792236328,-1.8112776279449463,-0.0,-0.0,-1.0,0.08330532741771546,1.0,0
39.21102523803711,22.192035675048828,-2.144263982772827,-0.0,-0.0,-1.0,0.11714120692089917,1.0,0
38.929508209228516,21.845232009887695,-2.138270378112793,-0.2962234831912573,0.32460893494284115,-0.8982653769133673,0.14600997263149487,4.0,0
38.494384765625,21.510021209716797,-2.163586378097534,-0.0,-0.0,-1.0,0.017465383312862754,2.0,0
38.38652420043945,21.175697326660156,-2.1351051330566406,-0.0,-0.0,-1.0,0.02365070336160466,1.0,0
38.37946319580078,20.9251708984375,-2.1014628410339355,-0.0,-0.0,-1.0,0.08172663805989604,1.0,0
39.57564926147461,22.12273406982422,-2.0736165046691895,-0.0,-0.0,-1.0,0.20213243879213202,1.0,0
40.16490173339844,22.429893493652344,-2.0290138721466064,-0.0,-0.0,-1.0,0.10721873475728952,1.0,0
40.14112091064453,21.02359962463379,-1.8099863529205322,-0.0,-0.0,-1.0,0.1348870579705066,2.0,0
39.03464126586914,23.003307342529297,-2.2230982780456543,-0.0,-0.0,-1.0,0.010186032773127122,1.0,0
38.95811080932617,22.765804290771484,-2.1985650062561035,-0.9501819678922708,0.2570258112926053,-0.17632912471214132,0.025492692711374387,3.0,0
38.96053695678711,22.454172134399414,-2.150749683380127,-0.0,-0.0,-1.0,0.0590902310418046,1.0,0
38.89124298095703,22.21949005126953,-2.1269054412841797,-0.0,-0.0,-1.0,0.12682447803056662,1.0,0
38.64957046508789,21.88719940185547,-2.118279457092285,-0.0,-0.0,-1.0,0.058573879302786486,1.0,0
38.44976806640625,21.773481369018555,-2.135740280151367,-0.0,-0.0,-1.0,0.04102389674256076,2.0,0
38.094879150390625,21.413394927978516,-2.146914005279541,-0.0,-0.0,-1.0,0.01192301746035665,2.0,0
37.986690521240234,21.166030883789062,-2.1325197219848633,-0.0,-0.0,-1.0,0.007254785812066439,2.0,0
37.848411560058594,22.898042678833008,-1.7831038236618042,-0.0,-0.0,-1.0,0.11930655050910188,2.0,0
38.99516677856445,22.120807647705078,-2.0951790809631348,-0.0,-0.0,-1.0,0.18377161657955177,1.0,0
38.87392044067383,21.942094802856445,-2.08882999420166,-0.0,-0.0,-1.0,0.17698057487000257,2.0,0
39.097190856933594,21.015417098999023,-1.9185255765914917,-0.0,-0.0,-1.0,0.10960026967859866,1.0,0
38.4464111328125,23.10761260986328,-2.0443620681762695,-0.0,-0.0,-1.0,0.058445226003532726,1.0,0
40.04552459716797,21.99193572998047,-2.188736915588379,-0.0,-0.0,-1.0,0.03502030758553371,1.0,0
39.826786041259766,21.712200164794922,-2.1746420860290527,-0.0,-0.0,-1.0,0.09926668164352132,2.0,0
39.746002197265625,21.43902587890625,-2.140336036682129,-0.0,-0.0,-1.0,0.11098262209130214,1.0,0
39.48851013183594,21.337417602539062,-2.166553497314453,-0.0,-0.0,-1.0,0.06212851084764385,1.0,0
39.6304817199707,20.89690399169922,-2.0676112174987793,0.8286876590387477,0.18921223257729342,-0.526759427822603,0.09465310084672655,3.0,0
39.404605865478516,20.80034828186035,-2.0909934043884277,-0.0,-0.0,-1.0,0.08735159886650563,1.0,0
38.412864685058594,22.857879638671875,-2.0119943618774414,-0.0,-0.0,-1.0,0.08143216221616424,1.0,0
38.321319580078125,22.667179107666016,-1.9969741106033325,-0.0,-0.0,-1.0,0.08479722571912743,1.0,0
38.10243225097656,22.497926712036133,-2.0041284561157227,-0.8407361541124636,0.05645725594103182,-0.5384935444550776,0.0862870173292771,4.0,0
37.83528137207031,22.34337615966797,-2.021272659301758,-0.0,-0.0,-1.0,0.12306849091117032,1.0,0
40.15629196166992,22.334611892700195,-1.6926254034042358,-0.0,-0.0,-1.0,0.09308175222029727,1.0,0
40.089271545410156,22.147010803222656,-2.1906850337982178,-0.0,-0.0,-1.0,0.05733338728970618,1.0,0
39.90442657470703,21.88007926940918,-2.171321392059326,-0.0,-0.0,-1.0,0.050892715509548964,1.0,0
39.741355895996094,21.690616607666016,-2.163830518722534,-0.0,-0.0,-1.0,0.14173963657556407,2.0,0
39.62855911254883,21.460506439208984,-2.141629457473755,-0.0,-0.0,-1.0,0.1369284555119091,1.0,0
39.43718338012695,21.362642288208008,-2.157059907913208,-0.0,-0.0,-1.0,0.05894028927166765,1.0,0
39.55679702758789,20.99570655822754,-2.0723519325256348,-0.0,-0.0,-1.0,0.054833717669781935,1.0,0
39.39132308959961,20.856182098388672,-2.077375888824463,-0.0,-0.0,-1.0,0.08972435631502058,1.0,0
38.403751373291016,23.03813934326172,-2.039088010787964,-0.0,-0.0,-1.0,0.08110861483759178,1.0,0
38.322452545166016,22.79839324951172,-2.0145130157470703,-0.0,-0.0,-1.0,0.07273315224482406,1.0,0
38.202571868896484,22.518917083740234,-1.9901864528656006,0.5888586375312337,0.36770638795894267,-0.71974823185545,0.09212002082065603,3.0,0
37.87657928466797,22.414047241210938,-2.02329158782959,-0.0,-0.0,-1.0,0.11346151567854948,2.0,0
40.095359802246094,22.353961944580078,-1.6972620487213135,-0.0,-0.0,-1.0,0.09308175222029724,1.0,0
39.35197067260742,20.72607421875,-2.0622239112854004,-0.0,-0.0,-1.0,0.10906073108729883,1.0,0
39.68149948120117,20.67224884033203,-1.9947330951690674,-0.0,-0.0,-1.0,0.17539925599024705,1.0,0
40.123897552490234,22.989925384521484,-2.196658134460449,-0.0,-0.0,-1.0,0.09806996076001863,2.0,0
39.61778259277344,22.88338851928711,-2.2446346282958984,0.289172599027662,0.2173417259030924,-0.9322777387415468,0.026714129012690813,4.0,0
39.53856658935547,22.859418869018555,-2.2510218620300293,-0.0,-0.0,-1.0,0.029627323553087156,1.0,0
40.15118408203125,22.512046813964844,-2.0976271629333496,-0.0,-0.0,-1.0,0.15820741797101226,1.0,0
39.41101837158203,22.569011688232422,-2.2128257751464844,-0.0,-0.0,-1.0,0.013128178435664545,1.0,0
39.269866943359375,22.212684631347656,-2.1653361320495605,-0.0,-0.0,-1.0,0.09245650221568597,2.0,0
39.15486145019531,21.870532989501953,-2.1183252334594727,-0.0,-0.0,-1.0,0.24650698040893493,1.0,0
38.74948501586914,21.834392547607422,-2.174013614654541,-0.0,-0.0,-1.0,0.025499362383927086,2.0,0
38.6126594543457,21.71169662475586,-2.173100471496582,0.12389733413344493,-0.4739476481314626,-0.8717930244188017,0.020561696662775138,3.0,0
38.330177307128906,21.420351028442383,-2.1664514541625977,-0.0,-0.0,-1.0,0.02350040261625387,2.0,0
38.2498893737793,21.251117706298828,-2.149890899658203,-0.0,-0.0,-1.0,0.016783554217889365,2.0,0
38.35152816772461,23.024215698242188,-1.8815840482711792,-0.0,-0.0,-1.0,0.08543668485246013,1.0,0
38.2107048034668,22.73287582397461,-1.853345513343811,-0.0,-0.0,-1.0,0.08493563234725955,1.0,0
40.13966369628906,21.034523010253906,-1.8136049509048462,-0.0,-0.0,-1.0,0.1348870579705066,2.0,0
39.02139663696289,20.80556869506836,-1.9460307359695435,-0.0,-0.0,-1.0,0.1340928739327775,2.0,0
40.18962097167969,22.92859649658203,-2.103785753250122,-0.0,-0.0,-1.0,0.10027326354810304,1.0,0
39.97246551513672,23.021879196166992,-2.168632984161377,-0.5784044517499796,-0.7982379581590981,0.168120350790139,0.09090890188377392,3.0,0
39.74399185180664,22.84048843383789,-2.1709463596343994,-0.0,-0.0,-1.0,0.027789478729378102,1.0,0
39.34197998046875,22.838911056518555,-2.238388776779175,-0.0,-0.0,-1.0,0.010859048309546196,1.0,0
39.18850326538086,22.642404556274414,-2.228428602218628,-0.0,-0.0,-1.0,0.0127411528257933,2.0,0
39.02540969848633,22.331619262695312,-2.200381278991699,-0.0,-0.0,-1.0,0.0883845507209145,1.0,0
38.481143951416016,21.552614212036133,-2.1652822494506836,-0.0,-0.0,-1.0,0.010538776433336136,2.0,0
39.838539123535156,22.522247314453125,-2.094315528869629,-0.0,-0.0,-1.0,0.08594904087181322,1.0,0
39.87471008300781,22.274677276611328,-2.0412707328796387,-0.0,-0.0,-1.0,0.12648907023724218,1.0,0
38.00584030151367,22.912582397460938,-1.9441843032836914,-0.0,-0.0,-1.0,0.13973779415597745,1.0,0
39.67783737182617,21.261180877685547,-1.8893153667449951,-0.0,-0.0,-1.0,0.1194900459427185,1.0,0
38.92279815673828,21.77254867553711,-2.1193299293518066,-0.0,-0.0,-1.0,0.10060928629343906,2.0,0
