x,y,z,nx,ny,nz,curvature,density,label
32.42596435546875,30.128620147705078,-2.5718607902526855,-0.0,-0.0,-1.0,0.05430778646116518,1.0,0
32.28240203857422,30.46405792236328,-2.5978164672851562,-0.0,-0.0,-1.0,0.07392532235368325,2.0,0
32.58375549316406,28.18024444580078,-2.3673770427703857,-0.0,-0.0,-1.0,0.1598422691409279,1.0,0
32.60361099243164,28.694313049316406,-2.3983380794525146,-0.0,-0.0,-1.0,0.1456235716259799,1.0,0
32.66764831542969,29.268192291259766,-2.355294942855835,-0.8188353185196195,0.1909047680351018,-0.5413539421546101,0.08595364690844058,3.0,0
32.659427642822266,30.33671760559082,-2.4407646656036377,-0.0,-0.0,-1.0,0.11733079325588311,1.0,0
32.59181213378906,30.620624542236328,-2.4544107913970947,-0.0,-0.0,-1.0,0.09882120342815304,1.0,0
32.46321105957031,28.437618255615234,-2.2594430446624756,-0.0,-0.0,-1.0,0.20490501990856722,1.0,0
32.467262268066406,28.695947647094727,-2.279409170150757,-0.0,-0.0,-1.0,0.13649683666829257,1.0,0
31.416637420654297,29.087928771972656,-2.6596407890319824,-0.0,-0.0,-1.0,0.013042422438403947,1.0,0
31.424888610839844,29.629268646240234,-2.711094379425049,-0.0,-0.0,-1.0,0.06450254801843826,1.0,0
31.25192642211914,28.67650032043457,-2.5932555198669434,-0.0,-0.0,-1.0,0.016387273838934662,1.0,0
31.340187072753906,29.19576644897461,-2.6557130813598633,-0.0,-0.0,-1.0,0.0192323013534744,1.0,0
31.307281494140625,29.375469207763672,-2.6664252281188965,-0.0,-0.0,-1.0,0.027093399221241828,1.0,0
31.292713165283203,29.80844497680664,-2.704749584197998,-0.0,-0.0,-1.0,0.1160925952479735,1.0,0
31.24631118774414,30.232952117919922,-2.7380471229553223,-0.0,-0.0,-1.0,0.07482822594663197,1.0,0
31.129737854003906,30.604694366455078,-2.755140781402588,-0.0,-0.0,-1.0,0.06940025263095943,1.0,0
30.828372955322266,28.283950805664062,-2.482178211212158,-0.0,-0.0,-1.0,0.03690169071907833,1.0,0
30.292461395263672,28.849695205688477,-2.4363884925842285,-0.0,-0.0,-1.0,0.16802549736690767,2.0,0
31.655029296875,28.963720321655273,-2.6171822547912598,-0.0,-0.0,-1.0,0.02520255429223433,1.0,0
31.586814880371094,29.306034088134766,-2.6401500701904297,-0.0,-0.0,-1.0,0.041803176484037606,2.0,0
31.531700134277344,29.565664291381836,-2.6577038764953613,-0.0,-0.0,-1.0,0.04572902899790742,1.0,0
31.48876190185547,28.612377166748047,-2.5525598526000977,-0.0,-0.0,-1.0,0.054302127684663,2.0,0
31.47647476196289,29.44449234008789,-2.635258197784424,-0.0,-0.0,-1.0,0.038079076604265995,1.0,0
31.452899932861328,29.81360626220703,-2.670548915863037,-0.0,-0.0,-1.0,0.08641569213558337,2.0,0
31.338985443115234,30.14303207397461,-2.686995029449463,-0.0,-0.0,-1.0,0.0809786964449115,1.0,0
31.236343383789062,30.573833465576172,-2.7180023193359375,-0.0,-0.0,-1.0,0.08346914943681902,1.0,0
31.40032958984375,28.436595916748047,-2.5195651054382324,-0.0,-0.0,-1.0,0.043459702752611996,1.0,0
30.252544403076172,29.051055908203125,-2.379879951477051,-0.0,-0.0,-1.0,0.14980937297799396,1.0,0
30.257625579833984,28.173053741455078,-2.4615631103515625,-0.0,-0.0,-1.0,0.11565249112246802,1.0,0
30.25090980529785,28.401521682739258,-2.479055404663086,-0.0,-0.0,-1.0,0.14464232393423707,2.0,0
30.23759651184082,28.72222137451172,-2.5034360885620117,-0.0,-0.0,-1.0,0.07705777781970752,1.0,0
30.307363510131836,29.407976150512695,-2.5776805877685547,-0.0,-0.0,-1.0,0.06089878281424861,2.0,0
30.273611068725586,29.56563949584961,-2.585716724395752,-0.0,-0.0,-1.0,0.06257526815023119,2.0,0
30.230741500854492,28.46227264404297,-2.48008394241333,-0.0,-0.0,-1.0,0.17598518058588375,2.0,0
32.61256408691406,28.730560302734375,-2.3441476821899414,-0.0,-0.0,-1.0,0.1310075698936897,2.0,0
32.688201904296875,28.974666595458984,-2.369138240814209,-0.0,-0.0,-1.0,0.0689131798984131,1.0,0
32.693477630615234,29.29473876953125,-2.3850021362304688,-0.15291003613723692,-0.6671183702974909,-0.7290895698473056,0.07815132584462094,3.0,0
32.465328216552734,29.401731491088867,-2.547009229660034,-0.0,-0.0,-1.0,0.030169514693633926,2.0,0
32.44974899291992,29.708438873291016,-2.561110734939575,-0.0,-0.0,-1.0,0.026837896327964485,1.0,0
32.399662017822266,30.047332763671875,-2.5712878704071045,-0.5437680099983108,0.04115868609048338,-0.8382256938687707,0.07314769671004694,3.0,0
32.33964538574219,30.333911895751953,-2.5773322582244873,-0.0,-0.0,-1.0,0.07896682911108623,2.0,0
32.30712890625,30.549732208251953,-2.5848262310028076,0.06019979417077277,-0.9927127659498494,0.10439036881818353,0.05867256180039132,4.0,0
32.37770080566406,28.15878677368164,-2.468981981277466,-0.0,-0.0,-1.0,0.14331923959689252,2.0,0
32.37815856933594,28.396202087402344,-2.479743719100952,-0.0,-0.0,-1.0,0.17600790606814865,1.0,0
32.441001892089844,28.825397491455078,-2.5124285221099854,-0.796170570148457,-0.5877236108642194,-0.1438519393758882,0.09107706464869063,3.0,0
32.4366455078125,29.171981811523438,-2.529217481613159,-0.0,-0.0,-1.0,0.021158324534989375,1.0,0
32.683799743652344,30.386404037475586,-2.543330430984497,-0.0,-0.0,-1.0,0.11553305368212935,1.0,0
32.5452766418457,28.521656036376953,-2.426011323928833,-0.0,-0.0,-1.0,0.2504829718305791,1.0,0
32.596649169921875,28.791046142578125,-2.4473397731781006,-0.0,-0.0,-1.0,0.10139071795273616,1.0,0
32.65150451660156,29.189250946044922,-2.475708246231079,-0.0,-0.0,-1.0,0.06764329970165989,2.0,0
32.32674026489258,28.26097869873047,-2.372624635696411,-0.0,-0.0,-1.0,0.16046794763809746,1.0,0
32.65607452392578,28.6328182220459,-2.3245902061462402,-0.5528501408505545,-0.5779090896075794,-0.6003147556994253,0.17289461611714116,4.0,0
32.63201141357422,30.150436401367188,-2.389620304107666,-0.0,-0.0,-1.0,0.11635960632494179,2.0,0
32.43251419067383,28.758556365966797,-2.2865586280822754,-0.0,-0.0,-1.0,0.13317680356195719,1.0,0
30.84307861328125,29.63990020751953,-2.635485887527466,-0.0,-0.0,-1.0,0.010384835534712544,1.0,0
30.887592315673828,30.000688552856445,-2.672506093978882,-0.0,-0.0,-1.0,0.014188692411476524,2.0,0
30.958141326904297,30.29427719116211,-2.71099591255188,-0.0,-0.0,-1.0,0.017689666708630397,1.0,0
30.549327850341797,28.322744369506836,-2.4818828105926514,-0.0,-0.0,-1.0,0.05297170855934294,2.0,0
30.63894271850586,28.903249740600586,-2.5386626720428467,-0.0,-0.0,-1.0,0.026477568783644472,1.0,0
30.674484252929688,29.19512367248535,-2.566448926925659,-0.0,-0.0,-1.0,0.020678445253580584,2.0,0
30.374691009521484,28.524234771728516,-2.4553959369659424,-0.5037719201198048,0.665855349100472,-0.55031855008994,0.11644163084660131,3.0,0
30.391326904296875,28.749866485595703,-2.4735333919525146,-0.0,-0.0,-1.0,0.09851042673238244,2.0,0
32.67338180541992,30.235183715820312,-2.2091357707977295,-0.0,-0.0,-1.0,0.06932802649414276,1.0,0
31.78119659423828,28.57910919189453,-2.5555057525634766,-0.0,-0.0,-1.0,0.04676253553556083,1.0,0
31.902536392211914,28.943037033081055,-2.600020408630371,-0.0,-0.0,-1.0,0.03655790217062249,1.0,0
31.927528381347656,29.362459182739258,-2.6280269622802734,-0.0,-0.0,-1.0,0.03829534900235014,2.0,0
31.9305477142334,29.701622009277344,-2.6482038497924805,-0.0,-0.0,-1.0,0.02024267372115845,1.0,0
31.83017921447754,30.155763626098633,-2.654550075531006,-0.0,-0.0,-1.0,0.040633060785213934,2.0,0
31.775218963623047,30.52542495727539,-2.6670775413513184,-0.1278305625895573,-0.5536539532444071,-0.8228770548051982,0.11204755259680726,3.0,0
31.60093116760254,28.29553985595703,-2.5030875205993652,-0.0,-0.0,-1.0,0.06357531011370872,1.0,0
31.64978790283203,28.37592124938965,-2.517368793487549,-0.0,-0.0,-1.0,0.0644405959749373,1.0,0
30.6361026763916,28.982681274414062,-2.5436995029449463,-0.0,-0.0,-1.0,0.012086746522115001,1.0,0
30.71225929260254,29.20953941345215,-2.5708305835723877,0.07773158869967696,-0.4708013174079998,-0.8788082382665265,0.018140094979266216,3.0,0
30.895538330078125,29.601367950439453,-2.630364179611206,-0.0,-0.0,-1.0,0.026232970437164015,2.0,0
30.34901237487793,28.419919967651367,-2.4567630290985107,-0.0,-0.0,-1.0,0.13996779483494687,2.0,0
30.471935272216797,28.792236328125,-2.49865460395813,-0.0,-0.0,-1.0,0.10735747439925429,2.0,0
30.576292037963867,29.241294860839844,-2.5411179065704346,-0.4285360356420056,-0.32003610359915863,-0.8449460092510658,0.026858438860138584,3.0,0
32.46297836303711,28.150527954101562,-2.0735080242156982,-0.1802671342191033,0.32101486896178094,-0.9297597615652564,0.21559168465457676,3.0,0
32.603599548339844,28.47648048400879,-2.46061372756958,-0.0,-0.0,-1.0,0.26096171106566324,1.0,0
32.54095458984375,28.788827896118164,-2.454463005065918,-0.0,-0.0,-1.0,0.11238792459821972,2.0,0
32.6070671081543,29.193004608154297,-2.477637767791748,-0.2988481827112721,-0.658624785282282,-0.6905817517876057,0.07683258200819387,4.0,0
32.697845458984375,29.63024139404297,-2.5081019401550293,-0.0,-0.0,-1.0,0.10483231196509965,2.0,0
32.3537483215332,28.221778869628906,-2.405122756958008,-0.0,-0.0,-1.0,0.14487183633996797,2.0,0
32.707298278808594,29.317724227905273,-2.305417776107788,-0.0,-0.0,-1.0,0.06919256990344648,1.0,0
32.68014907836914,30.235204696655273,-2.3157365322113037,-0.13636413968604752,0.8433594182271369,-0.5197592837990195,0.05619070748305786,3.0,0
31.380197525024414,28.579238891601562,-2.580178737640381,-0.0,-0.0,-1.0,0.03297132993853573,1.0,0
31.556055068969727,29.03916358947754,-2.6215028762817383,-0.0,-0.0,-1.0,0.023598760001394326,1.0,0
31.623180389404297,29.317161560058594,-2.638686180114746,-0.0,-0.0,-1.0,0.020789612414706334,2.0,0
31.196014404296875,28.523229598999023,-2.539454936981201,-0.0,-0.0,-1.0,0.018720654709389106,1.0,0
31.213321685791016,28.680587768554688,-2.5438036918640137,-0.0,-0.0,-1.0,0.0525647934459857,1.0,0
31.617401123046875,29.479019165039062,-2.6391148567199707,-0.0,-0.0,-1.0,0.046377759125246554,1.0,0
31.682247161865234,29.942365646362305,-2.6596460342407227,-0.0,-0.0,-1.0,0.027324831892671167,2.0,0
31.693052291870117,30.315706253051758,-2.6682682037353516,-0.0,-0.0,-1.0,0.14040986060345087,1.0,0
31.713953018188477,30.599525451660156,-2.6784005165100098,-0.0,-0.0,-1.0,0.18907568493982374,2.0,0
30.954435348510742,28.39337921142578,-2.4860525131225586,-0.0,-0.0,-1.0,0.04461979021099099,1.0,0
30.37685203552246,28.862409591674805,-2.360297679901123,-0.0,-0.0,-1.0,0.15557633487139905,2.0,0
32.54629135131836,28.601551055908203,-2.3079378604888916,-0.0,-0.0,-1.0,0.165020098899782,2.0,0
32.643646240234375,28.920703887939453,-2.3335020542144775,0.06836206386189135,0.9036320996932643,-0.4228187042084174,0.10768427861375143,3.0,0
30.44029998779297,30.491413116455078,-2.625699996948242,-0.0,-0.0,-1.0,0.1045287006771622,1.0,0
32.66848373413086,28.4792537689209,-2.3432674407958984,-0.0,-0.0,-1.0,0.14788906771423294,1.0,0
32.61850357055664,28.489940643310547,-2.3328351974487305,-0.4705778367562368,0.37131263773174006,-0.8004270264143499,0.1646845999774586,4.0,0
32.33753967285156,28.4245662689209,-2.5149385929107666,-0.0,-0.0,-1.0,0.17314257798654292,2.0,0
32.44858932495117,28.883237838745117,-2.5207579135894775,-0.0,-0.0,-1.0,0.05111264728126709,2.0,0
32.50324249267578,29.231599807739258,-2.5200321674346924,-0.0,-0.0,-1.0,0.02741690938519481,2.0,0
32.259246826171875,28.217540740966797,-2.5069825649261475,0.8199108113724672,-0.5605923354980343,0.1161141454578276,0.12656572126830895,3.0,0
32.36454391479492,28.620742797851562,-2.5128209590911865,-0.0,-0.0,-1.0,0.13240434599363698,2.0,0
30.858198165893555,28.216148376464844,-2.2078216075897217,-0.0,-0.0,-1.0,0.09157463438997847,1.0,0
32.426902770996094,29.042936325073242,-2.5102150440216064,-0.4467855638685457,0.7202910769999092,-0.5306255028859582,0.053535370235589394,4.0,0
32.49131774902344,29.355037689208984,-2.5133721828460693,-0.2716258178211165,0.17715628028826905,-0.9459572228422563,0.05121571121446282,3.0,0
30.525728225708008,28.222124099731445,-2.136692762374878,-0.0,-0.0,-1.0,0.16051456702706773,1.0,0
32.46521759033203,29.600252151489258,-2.4997122287750244,-0.0,-0.0,-1.0,0.030234335285380064,1.0,0
32.551029205322266,29.86443519592285,-2.5103938579559326,-0.0,-0.0,-1.0,0.027517887988009887,2.0,0
32.49139404296875,30.223876953125,-2.4875328540802,-0.0,-0.0,-1.0,0.13970126000487829,2.0,0
32.64617919921875,30.44584083557129,-2.515599012374878,-0.0,-0.0,-1.0,0.09557155302561955,1.0,0
31.400226593017578,28.337188720703125,-2.3587327003479004,-0.0,-0.0,-1.0,0.04361118739673988,1.0,0
31.53082275390625,28.49966049194336,-2.3785228729248047,-0.0,-0.0,-1.0,0.06967524798580697,1.0,0
31.899181365966797,28.7281494140625,-2.4477663040161133,-0.0,-0.0,-1.0,0.040221239238163196,1.0,0
32.02850341796875,28.893707275390625,-2.4679713249206543,-0.0,-0.0,-1.0,0.0435173581791372,1.0,0
30.823226928710938,28.66335678100586,-2.213164806365967,-0.0,-0.0,-1.0,0.1351256918253621,1.0,0
31.119117736816406,28.82177734375,-2.2700743675231934,-0.0,-0.0,-1.0,0.07698858678135649,1.0,0
32.12783432006836,29.151039123535156,-2.477346420288086,-0.0,-0.0,-1.0,0.057315374086775776,1.0,0
32.20734405517578,29.36726951599121,-2.484865188598633,-0.0,-0.0,-1.0,0.0400389052462257,1.0,0
32.269065856933594,29.67059898376465,-2.485194683074951,-0.0,-0.0,-1.0,0.02874880872965303,1.0,0
31.426082611083984,29.965961456298828,-2.284231662750244,-0.0,-0.0,-1.0,0.16676430010601143,1.0,0
32.368247985839844,30.005435943603516,-2.4933547973632812,-0.0,-0.0,-1.0,0.026966796591950015,1.0,0
32.38984680175781,30.249652862548828,-2.488689422607422,-0.0,-0.0,-1.0,0.124222788087231,2.0,0
32.4174690246582,30.545780181884766,-2.4840450286865234,-0.0,-0.0,-1.0,0.09162166134043868,1.0,0
30.278968811035156,28.377784729003906,-2.454911231994629,-0.0,-0.0,-1.0,0.14333775438667007,2.0,0
30.35894775390625,28.746824264526367,-2.475189208984375,-0.0,-0.0,-1.0,0.09851042673238253,2.0,0
30.38910675048828,28.987350463867188,-2.483548641204834,-0.0,-0.0,-1.0,0.1313300168065637,1.0,0
30.597789764404297,29.206466674804688,-2.5388293266296387,-0.0,-0.0,-1.0,0.024692843332289324,2.0,0
30.6961669921875,29.40892791748047,-2.565943717956543,-0.0,-0.0,-1.0,0.012569257660741354,1.0,0
30.893714904785156,29.627119064331055,-2.6197047233581543,-0.0,-0.0,-1.0,0.02825340327343075,2.0,0
30.996349334716797,29.92857551574707,-2.6508326530456543,-0.0,-0.0,-1.0,0.0968571223642167,1.0,0
31.099754333496094,30.320362091064453,-2.684964656829834,-0.0,-0.0,-1.0,0.05352241126835776,1.0,0
32.70014953613281,28.188312530517578,-2.2651314735412598,-0.0,-0.0,-1.0,0.10607393627101908,1.0,0
32.62607955932617,28.720638275146484,-2.2546486854553223,-0.0,-0.0,-1.0,0.13082895049213095,1.0,0
30.381044387817383,28.410654067993164,-2.456692695617676,-0.0,-0.0,-1.0,0.09655494398228118,2.0,0
30.643535614013672,28.727102279663086,-2.5020828247070312,-0.0,-0.0,-1.0,0.11513818416530328,1.0,0
30.82691192626953,28.827852249145508,-2.5413599014282227,-0.0,-0.0,-1.0,0.059389179352439384,1.0,0
31.044946670532227,29.06210708618164,-2.5824027061462402,-0.0,-0.0,-1.0,0.030135196546817778,1.0,0
31.203256607055664,29.277040481567383,-2.6104164123535156,-0.0,-0.0,-1.0,0.018453505520070093,1.0,0
31.399160385131836,29.48307991027832,-2.648895740509033,-0.0,-0.0,-1.0,0.03865021301068374,1.0,0
31.486310958862305,29.811357498168945,-2.655827522277832,-0.0,-0.0,-1.0,0.055440896870683265,2.0,0
31.61524772644043,30.125593185424805,-2.674896240234375,-0.0,-0.0,-1.0,0.061354239026539616,1.0,0
31.51300048828125,30.602092742919922,-2.632108211517334,-0.0,-0.0,-1.0,0.1108547811205735,2.0,0
31.659412384033203,30.487972259521484,-2.6724629402160645,-0.0,-0.0,-1.0,0.17801088657702144,2.0,0
32.43879699707031,28.525793075561523,-2.17146635055542,-0.0,-0.0,-1.0,0.15496122107195176,1.0,0
30.344295501708984,29.890697479248047,-2.3693132400512695,-0.0,-0.0,-1.0,0.11968977543591294,2.0,0
32.674476623535156,30.216796875,-2.1557111740112305,-0.0,-0.0,-1.0,0.12119206542861803,1.0,0
30.940168380737305,28.228580474853516,-2.4810307025909424,-0.0,-0.0,-1.0,0.03507397689457077,1.0,0
31.19952964782715,28.443235397338867,-2.541515588760376,-0.0,-0.0,-1.0,0.0227429896055204,2.0,0
31.555452346801758,28.85381317138672,-2.6237680912017822,-0.0,-0.0,-1.0,0.022386082176279208,1.0,0
31.641515731811523,29.197751998901367,-2.640122175216675,-0.6379545478292747,-0.7496622678415302,-0.17612631569029907,0.01988290487774003,3.0,0
31.67755889892578,29.16935920715332,-2.649824857711792,-0.0,-0.0,-1.0,0.0119773796095327,2.0,0
31.756250381469727,29.591630935668945,-2.664769411087036,-0.0,-0.0,-1.0,0.027036036595528563,1.0,0
31.78827667236328,30.25186538696289,-2.6687381267547607,-0.0,-0.0,-1.0,0.04474198986586459,1.0,0
31.796606063842773,30.00546646118164,-2.6719768047332764,-0.0,-0.0,-1.0,0.016219015400847067,1.0,0
31.801912307739258,30.5267333984375,-2.672104597091675,-0.0,-0.0,-1.0,0.11056774370100386,2.0,0
30.374935150146484,28.878074645996094,-2.3206231594085693,-0.0,-0.0,-1.0,0.15677391328397247,2.0,0
30.636995315551758,28.68206787109375,-2.392057180404663,-0.0,-0.0,-1.0,0.19074828795141663,1.0,0
32.537437438964844,28.217130661010742,-2.1191017627716064,-0.0,-0.0,-1.0,0.22260977905146312,2.0,0
30.43158721923828,29.722576141357422,-2.640133857727051,-0.0,-0.0,-1.0,0.08123572419561403,1.0,0
30.395267486572266,30.264699935913086,-2.621232509613037,-0.0,-0.0,-1.0,0.036200022973408554,1.0,0
30.680030822753906,30.56256675720215,-2.6986236572265625,-0.0,-0.0,-1.0,0.06783169880170734,1.0,0
32.41078567504883,28.139570236206055,-2.4818062782287598,-0.0,-0.0,-1.0,0.14162653972791817,2.0,0
32.4493408203125,28.694446563720703,-2.477112293243408,-0.0,-0.0,-1.0,0.16430009668096737,2.0,0
32.530216217041016,28.425064086914062,-2.502931594848633,-0.0,-0.0,-1.0,0.21935126227004725,1.0,0
32.57059097290039,29.27897071838379,-2.4955244064331055,0.6828870225350475,-0.5560716452742348,-0.4737611632196363,0.07816625253959437,3.0,0
32.54523468017578,29.03335952758789,-2.493532180786133,-0.0,-0.0,-1.0,0.0723614440824832,2.0,0
32.65165710449219,29.58269500732422,-2.5112361907958984,-0.0,-0.0,-1.0,0.10917512830899552,1.0,0
32.699859619140625,29.858043670654297,-2.520054817199707,0.029426265243977096,-0.7391864561851516,-0.6728576951378561,0.07829994801520852,3.0,0
31.605234146118164,28.74689292907715,-2.5913572311401367,-0.0,-0.0,-1.0,0.039009934411360615,1.0,0
31.77931022644043,29.22726821899414,-2.619141101837158,-0.0,-0.0,-1.0,0.02061866299470233,2.0,0
31.714120864868164,28.965110778808594,-2.6113572120666504,-0.0,-0.0,-1.0,0.02541012611835686,1.0,0
31.900897979736328,29.759496688842773,-2.6348423957824707,-0.0,-0.0,-1.0,0.019580567054780007,1.0,0
31.838340759277344,29.486831665039062,-2.6262764930725098,-0.0,-0.0,-1.0,0.01866748287567539,1.0,0
31.9393253326416,30.387086868286133,-2.6304688453674316,-0.0,-0.0,-1.0,0.04108241973616412,1.0,0
31.927642822265625,30.016963958740234,-2.6353116035461426,-0.0,-0.0,-1.0,0.018590265785341877,2.0,0
30.252351760864258,28.372940063476562,-2.25758695602417,-0.0,-0.0,-1.0,0.19926878943594806,1.0,0
30.45350456237793,28.713085174560547,-2.2942557334899902,-0.0,-0.0,-1.0,0.1585476348385426,1.0,0
31.218629837036133,28.356107711791992,-2.50783634185791,-0.0,-0.0,-1.0,0.026203139605857306,1.0,0
31.28693962097168,28.340654373168945,-2.5260887145996094,-0.0,-0.0,-1.0,0.036269692325480433,1.0,0
31.501144409179688,28.599973678588867,-2.5702967643737793,-0.0,-0.0,-1.0,0.0571839038081642,2.0,0
31.16046142578125,29.815296173095703,-2.4396986961364746,-0.0,-0.0,-1.0,0.17324469656104127,1.0,0
32.697715759277344,28.61254119873047,-2.1382036209106445,-0.0,-0.0,-1.0,0.16750271065789735,1.0,0
30.413158416748047,29.85560417175293,-2.625138759613037,-0.0,-0.0,-1.0,0.09438052252812561,1.0,0
30.245546340942383,29.568782806396484,-2.586331844329834,-0.0,-0.0,-1.0,0.07666537558438155,2.0,0
32.13336181640625,28.354164123535156,-2.461982250213623,-0.0,-0.0,-1.0,0.15830694870173445,1.0,0
32.414894104003906,28.86103057861328,-2.5135140419006348,-0.12929809840712422,-0.12470290015157437,-0.9837332913153282,0.07072951639585683,3.0,0
32.28215026855469,28.49015998840332,-2.494077682495117,-0.0,-0.0,-1.0,0.1531575818160038,1.0,0
32.59226989746094,29.719894409179688,-2.5312814712524414,0.6835377927243014,0.3231521044117213,-0.6544836157856561,0.08772930564833151,6.0,0
32.49082946777344,29.335845947265625,-2.5168261528015137,-0.0,-0.0,-1.0,0.04877582364298918,2.0,0
32.464393615722656,29.060516357421875,-2.5190157890319824,-0.4467855638685457,0.7202910769999092,-0.5306255028859582,0.056961079542275854,4.0,0
32.6193733215332,29.941946029663086,-2.532289505004883,-0.20507670849411466,0.3642343357325666,-0.908447517640219,0.023814513844800492,3.0,0
32.18113327026367,28.204540252685547,-2.505812644958496,-0.0,-0.0,-1.0,0.11644663518203861,1.0,0
30.3111515045166,28.15668296813965,-2.4234070777893066,-0.0,-0.0,-1.0,0.17552430085165519,1.0,0
30.268003463745117,28.311185836791992,-2.4554829597473145,-0.0,-0.0,-1.0,0.13961251675452885,1.0,0
32.51612091064453,28.77192497253418,-2.3837809562683105,-0.0,-0.0,-1.0,0.1862912111552639,1.0,0
32.50823974609375,29.10953712463379,-2.4572739601135254,-0.0,-0.0,-1.0,0.056445917590507065,1.0,0
32.34375,29.628787994384766,-2.544966220855713,-0.0,-0.0,-1.0,0.0319069769020591,1.0,0
32.44655990600586,29.35337257385254,-2.5008320808410645,-0.0,-0.0,-1.0,0.07424472507266308,2.0,0
32.02946853637695,30.11196517944336,-2.601447582244873,-0.0,-0.0,-1.0,0.019639796537523336,1.0,0
32.18785858154297,29.839160919189453,-2.565789222717285,-0.0,-0.0,-1.0,0.028729445727026754,1.0,0
31.751806259155273,30.471988677978516,-2.6384472846984863,-0.7376960848526355,0.14965335101052188,-0.6583375736842118,0.16349251747931373,3.0,0
31.942996978759766,30.26718521118164,-2.622633457183838,-0.0,-0.0,-1.0,0.04676207595745992,1.0,0
31.673320770263672,28.585119247436523,-2.3593029975891113,-0.0,-0.0,-1.0,0.06911032111962309,2.0,0
32.34943771362305,28.499496459960938,-2.4598984718322754,-0.0,-0.0,-1.0,0.22912143979479113,2.0,0
32.145965576171875,29.065074920654297,-2.5647058486938477,-0.0,-0.0,-1.0,0.051101699730357525,2.0,0
32.26348876953125,28.935121536254883,-2.5530052185058594,-0.0,-0.0,-1.0,0.07202215867443751,1.0,0
31.98306655883789,29.332605361938477,-2.604092597961426,-0.0,-0.0,-1.0,0.038961810424629414,1.0,0
31.321090698242188,29.969459533691406,-2.6571826934814453,-0.0,-0.0,-1.0,0.11648666554056475,1.0,0
31.62186050415039,29.751178741455078,-2.6501874923706055,-0.0,-0.0,-1.0,0.03607814899823711,1.0,0
31.813190460205078,29.563983917236328,-2.634052276611328,-0.0,-0.0,-1.0,0.03088523146636983,1.0,0
30.469558715820312,30.357540130615234,-2.625685691833496,0.5330237010776808,-0.06814407507070305,-0.8433517173292583,0.08558141609963148,3.0,0
30.877416610717773,30.343374252319336,-2.685290813446045,-0.0,-0.0,-1.0,0.019934629907528378,2.0,0
31.216108322143555,30.096412658691406,-2.67362117767334,-0.0,-0.0,-1.0,0.11766329007294284,1.0,0
30.35354995727539,30.497760772705078,-2.646027088165283,-0.0,-0.0,-1.0,0.10307575599040092,2.0,0
30.534133911132812,28.780315399169922,-2.2147140502929688,-0.0,-0.0,-1.0,0.14094484489118114,1.0,0
31.322532653808594,28.263671875,-2.4578611850738525,-0.0,-0.0,-1.0,0.0386148585740568,1.0,0
31.313703536987305,28.548690795898438,-2.5354578495025635,-0.0,-0.0,-1.0,0.033944261650015926,1.0,0
30.50617027282715,29.075977325439453,-2.5356709957122803,-0.0,-0.0,-1.0,0.04092769955598234,1.0,0
30.882556915283203,28.922435760498047,-2.5598738193511963,-0.0,-0.0,-1.0,0.03824202349123794,1.0,0
31.19900131225586,28.74163818359375,-2.5676333904266357,-0.0,-0.0,-1.0,0.04425621367474614,2.0,0
32.63120651245117,29.00395965576172,-2.3205196857452393,-0.0,-0.0,-1.0,0.06450724466842932,1.0,0
30.36213493347168,29.210716247558594,-2.549311399459839,-0.0,-0.0,-1.0,0.05184697244385512,1.0,0
32.68414306640625,29.245460510253906,-2.38826060295105,-0.9224322746757853,-0.2723864746739092,-0.2737230480817726,0.09071425193305777,3.0,0
32.66242980957031,29.774417877197266,-2.5131123065948486,-0.0,-0.0,-1.0,0.07944710350435422,1.0,0
32.503875732421875,30.050689697265625,-2.5537402629852295,-0.0,-0.0,-1.0,0.034996389296745284,2.0,0
31.599651336669922,30.573089599609375,-2.5354273319244385,-0.0,-0.0,-1.0,0.14534869298780362,1.0,0
32.18583679199219,30.493602752685547,-2.6105659008026123,0.40643879595943694,0.6126573762897853,-0.6778336406646983,0.05359188110124589,4.0,0
32.32309341430664,30.293170928955078,-2.5831515789031982,0.2986140207977191,0.014984250106479783,-0.9542563276351725,0.07762335682677053,3.0,0
32.52547836303711,28.19793701171875,-2.108869791030884,-0.0,-0.0,-1.0,0.20994971498725395,2.0,0
31.58922004699707,28.419353485107422,-2.4866151809692383,-0.0,-0.0,-1.0,0.06563253646384233,1.0,0
31.8468017578125,28.335124969482422,-2.5120067596435547,-0.0,-0.0,-1.0,0.05668805761667442,1.0,0
30.57050132751465,29.086238861083984,-2.4994993209838867,-0.0,-0.0,-1.0,0.04415670870472355,1.0,0
31.087425231933594,29.001720428466797,-2.5646514892578125,-0.0,-0.0,-1.0,0.03298597925719055,1.0,0
31.392154693603516,28.861351013183594,-2.5785140991210938,-0.0,-0.0,-1.0,0.02295720534349889,1.0,0
30.290672302246094,29.41910171508789,-2.553727149963379,-0.0,-0.0,-1.0,0.05913415145121952,2.0,0
30.75695037841797,29.21735382080078,-2.571063995361328,-0.0,-0.0,-1.0,0.01814009497926614,2.0,0
30.922409057617188,29.101531982421875,-2.5650057792663574,-0.0,-0.0,-1.0,0.01008570866034127,2.0,0
32.427032470703125,30.186485290527344,-2.5425424575805664,-0.0,-0.0,-1.0,0.045608325557077695,1.0,0
32.5890007019043,29.970611572265625,-2.51393985748291,-0.0,-0.0,-1.0,0.029801397308006496,2.0,0
31.417387008666992,30.398948669433594,-2.437023162841797,-0.0,-0.0,-1.0,0.22069204293203173,1.0,0
32.22502899169922,30.44910430908203,-2.577867031097412,0.5677265857532089,-0.40812305913219554,-0.7149280330449926,0.06546288346952157,4.0,0
31.99362564086914,28.40310287475586,-2.3473575115203857,-0.0,-0.0,-1.0,0.1002202306550184,1.0,0
32.371429443359375,28.503286361694336,-2.444542646408081,0.47885078286632676,0.3959883260016865,-0.7835146287202863,0.21440136798463555,3.0,0
32.68373107910156,28.39204978942871,-2.4691154956817627,-0.0,-0.0,-1.0,0.17371561599161034,1.0,0
32.348419189453125,28.797481536865234,-2.527661085128784,-0.0,-0.0,-1.0,0.11732158467645877,1.0,0
32.49677658081055,28.655841827392578,-2.5122148990631104,0.8113471694973309,0.5647394920187035,-0.15094726464274286,0.10076462751825593,3.0,0
31.976482391357422,29.268991470336914,-2.604612112045288,-0.0,-0.0,-1.0,0.041683916317463196,1.0,0
32.148963928222656,29.059967041015625,-2.5710675716400146,0.8591289750651597,0.511724529789556,-0.005950614686405021,0.05201366348288949,3.0,0
31.265531539916992,29.801803588867188,-2.6529786586761475,-0.0,-0.0,-1.0,0.1160925952479735,1.0,0
31.46546745300293,29.68035888671875,-2.646803617477417,-0.0,-0.0,-1.0,0.06725020735024025,1.0,0
31.768291473388672,29.480335235595703,-2.634204149246216,-0.0,-0.0,-1.0,0.017878349567741383,1.0,0
30.788249969482422,30.06822967529297,-2.664715051651001,-0.0,-0.0,-1.0,0.013156299631442712,1.0,0
31.071081161499023,29.937255859375,-2.665606737136841,-0.0,-0.0,-1.0,0.10491226485003154,1.0,0
32.53001403808594,28.827373504638672,-2.4413793087005615,0.8075814245455523,0.38179315291264804,-0.4494955295862193,0.09539138965645545,3.0,0
32.417633056640625,29.225688934326172,-2.5443103313446045,-0.0,-0.0,-1.0,0.022667750649887047,1.0,0
32.16840744018555,29.57544708251953,-2.611969232559204,-0.0,-0.0,-1.0,0.0342674335688344,1.0,0
31.80877113342285,29.95541763305664,-2.674842596054077,-0.0,-0.0,-1.0,0.0196318521817214,1.0,0
31.963171005249023,29.801467895507812,-2.6500799655914307,-0.0,-0.0,-1.0,0.02187545485507193,1.0,0
32.63113021850586,30.21710205078125,-2.3011929988861084,-0.7625751626384546,0.31384354077788074,-0.565668943145138,0.06966812387915507,3.0,0
32.57825469970703,28.705242156982422,-2.323305368423462,0.061657816586009107,-0.44977485548724894,-0.8910111632439125,0.14047444819743815,5.0,0
32.62150573730469,28.685626983642578,-2.3238003253936768,-0.3792482564969146,-0.8457077095196459,0.3754320577722215,0.15931068422391642,3.0,0
32.56475067138672,29.279827117919922,-2.5049479007720947,0.6828870225350475,-0.5560716452742348,-0.4737611632196363,0.07841332083749937,3.0,0
32.694175720214844,29.059696197509766,-2.4544808864593506,-0.0,-0.0,-1.0,0.06554166549271603,1.0,0
32.534523010253906,29.39934539794922,-2.5387661457061768,-0.0,-0.0,-1.0,0.055481650054775095,2.0,0
30.45354461669922,30.394378662109375,-2.6387836933135986,-0.0,-0.0,-1.0,0.10731644376911145,2.0,0
30.553165435791016,30.634401321411133,-2.6800613403320312,0.3917257821234109,0.14470433095754362,-0.9086317010879223,0.0897838906860752,3.0,0
31.623271942138672,30.33147621154785,-2.6248159408569336,-0.0,-0.0,-1.0,0.1214044443645222,1.0,0
31.374347686767578,28.989042282104492,-2.6198291778564453,-0.0,-0.0,-1.0,0.005650442671500114,2.0,0
32.451255798339844,28.267230987548828,-2.4231739044189453,-0.0,-0.0,-1.0,0.14684295585006568,1.0,0
30.817289352416992,29.242572784423828,-2.5851173400878906,-0.0,-0.0,-1.0,0.01573195359468469,1.0,0
30.84809684753418,28.968767166137695,-2.5549874305725098,-0.0,-0.0,-1.0,0.03707949032768372,2.0,0
31.11590576171875,28.25212287902832,-2.4555587768554688,-0.0,-0.0,-1.0,0.03924531765072905,2.0,0
31.430448532104492,28.212316513061523,-2.415881633758545,-0.0,-0.0,-1.0,0.03401470441902463,1.0,0
32.65849304199219,28.61200714111328,-2.3187508583068848,-0.5528501408505545,-0.5779090896075794,-0.6003147556994253,0.17180944886655766,4.0,0
32.621910095214844,28.528182983398438,-2.3142476081848145,-0.4705778367562368,0.37131263773174006,-0.8004270264143499,0.15815742345457473,4.0,0
30.265338897705078,28.83571434020996,-2.234771728515625,-0.0,-0.0,-1.0,0.13732720640506493,1.0,0
32.67045211791992,29.25762939453125,-1.3773229122161865,-0.0,-0.0,-1.0,0.04241724309818972,1.0,0
30.92672348022461,29.535316467285156,-1.522512674331665,-0.0,-0.0,-1.0,0.13069666006242772,1.0,0
32.179603576660156,28.36788558959961,-1.3233587741851807,-0.0,-0.0,-1.0,0.17582076084840606,1.0,0
31.42388153076172,28.591617584228516,-1.3988292217254639,-0.0,-0.0,-1.0,0.12650482628141949,1.0,0
32.25382614135742,29.89525604248047,-2.187795400619507,-0.0,-0.0,-1.0,0.16862438675117955,1.0,0
32.20640563964844,30.308761596679688,-2.4996156692504883,-0.0,-0.0,-1.0,0.09476903906604887,1.0,0
30.92424201965332,30.498992919921875,-2.688981771469116,-0.0,-0.0,-1.0,0.051035673685128145,1.0,0
30.781932830810547,29.853992462158203,-2.6418910026550293,-0.0,-0.0,-1.0,0.010392917257404958,2.0,0
30.824357986450195,29.49620819091797,-2.599848508834839,-0.0,-0.0,-1.0,0.0108906283643121,1.0,0
30.90406036376953,28.762325286865234,-2.5155749320983887,-0.0,-0.0,-1.0,0.09189040457164312,1.0,0
30.80923843383789,29.09567642211914,-2.5618577003479004,-0.0,-0.0,-1.0,0.01395412689387671,1.0,0
30.903034210205078,28.654258728027344,-2.5050747394561768,-0.0,-0.0,-1.0,0.09756005884506004,1.0,0
31.010828018188477,28.428810119628906,-2.467789649963379,-0.0,-0.0,-1.0,0.03478828971122567,1.0,0
30.44976806640625,30.18364715576172,-2.550675868988037,-0.0,-0.0,-1.0,0.03215924807086792,1.0,0
30.34335708618164,29.936786651611328,-2.53175687789917,-0.0,-0.0,-1.0,0.107436265352807,1.0,0
30.280109405517578,29.64874267578125,-2.5034708976745605,-0.0,-0.0,-1.0,0.09865032892443702,1.0,0
30.307720184326172,28.934551239013672,-2.4144115447998047,-0.0,-0.0,-1.0,0.17727059596316408,1.0,0
30.25985336303711,29.21221923828125,-2.4530467987060547,-0.0,-0.0,-1.0,0.06265140985601676,1.0,0
30.44629669189453,28.567415237426758,-2.354856014251709,-0.0,-0.0,-1.0,0.21573974975447632,1.0,0
31.039697647094727,29.99826431274414,-2.6650614738464355,-0.0,-0.0,-1.0,0.08233787944120848,1.0,0
30.953174591064453,29.81053924560547,-2.655777931213379,-0.0,-0.0,-1.0,0.07230201420528726,1.0,0
30.921005249023438,29.489967346191406,-2.6224656105041504,-0.0,-0.0,-1.0,0.007003795622518196,1.0,0
32.69317626953125,30.203289031982422,-2.446533203125,-0.0,-0.0,-1.0,0.09629475142523305,2.0,0
30.926137924194336,29.30300521850586,-2.5995054244995117,-0.0,-0.0,-1.0,0.009718390549636356,1.0,0
30.896203994750977,29.117088317871094,-2.582334041595459,-0.0,-0.0,-1.0,0.010085708660341324,2.0,0
31.44840431213379,28.535423278808594,-2.426779270172119,-0.0,-0.0,-1.0,0.05678495430078337,1.0,0
30.954200744628906,28.597537994384766,-2.5125999450683594,-0.0,-0.0,-1.0,0.06479426837194444,1.0,0
31.047706604003906,28.269596099853516,-2.4597768783569336,-0.0,-0.0,-1.0,0.041415605273134364,1.0,0
31.43749237060547,28.359983444213867,-2.49033784866333,-0.0,-0.0,-1.0,0.04368775755709177,2.0,0
32.476348876953125,28.431711196899414,-2.3466877937316895,-0.0,-0.0,-1.0,0.22414696327219064,1.0,0
31.82790756225586,28.26177215576172,-2.417405605316162,-0.0,-0.0,-1.0,0.04585894505516532,1.0,0
31.65253257751465,28.285961151123047,-2.447225570678711,-0.0,-0.0,-1.0,0.06744193815570937,1.0,0
32.67497634887695,30.35204315185547,-2.3579397201538086,-0.0,-0.0,-1.0,0.08572939423054612,1.0,0
30.579130172729492,30.607624053955078,-2.6731319427490234,0.3917257821234109,0.14470433095754362,-0.9086317010879223,0.07346649261365763,3.0,0
30.455541610717773,30.20168685913086,-2.6315321922302246,-0.0,-0.0,-1.0,0.032505556544784805,1.0,0
30.33324432373047,29.889747619628906,-2.604226589202881,-0.0,-0.0,-1.0,0.11968977543591296,1.0,0
30.222312927246094,29.395580291748047,-2.550320625305176,-0.0,-0.0,-1.0,0.0639516709742657,1.0,0
30.243804931640625,28.96599578857422,-2.4870080947875977,-0.0,-0.0,-1.0,0.1368713657142873,1.0,0
30.21841049194336,29.170345306396484,-2.5192933082580566,-0.0,-0.0,-1.0,0.08822476099032177,1.0,0
30.360671997070312,28.64092254638672,-2.4243721961975098,0.26959376570178717,0.8535260255418368,-0.44588398179065064,0.11713028895416407,4.0,0
32.4664306640625,28.19525146484375,-2.0587358474731445,-0.0,-0.0,-1.0,0.2578952101872495,2.0,0
30.842872619628906,28.745983123779297,-2.3677616119384766,-0.0,-0.0,-1.0,0.15462835088360247,1.0,0
30.861295700073242,30.52323341369629,-2.6611623764038086,-0.0,-0.0,-1.0,0.04283478640434031,1.0,0
30.683176040649414,30.17643928527832,-2.624659538269043,-0.0,-0.0,-1.0,0.009852935723035746,1.0,0
30.583192825317383,29.898273468017578,-2.5908122062683105,-0.0,-0.0,-1.0,0.03843892179819899,1.0,0
30.49073028564453,29.739906311035156,-2.5764670372009277,-0.0,-0.0,-1.0,0.10072271242634206,1.0,0
30.57516860961914,29.247962951660156,-2.4844722747802734,-0.0,-0.0,-1.0,0.025132366009878965,1.0,0
30.3489990234375,29.364543914794922,-2.533442974090576,-0.0,-0.0,-1.0,0.026565601154042415,1.0,0
30.319595336914062,29.06304931640625,-2.488417148590088,-0.0,-0.0,-1.0,0.16089885182839475,2.0,0
30.388593673706055,28.674728393554688,-2.4164600372314453,-0.45037657708592527,0.5386402741205178,-0.712058701167073,0.1793747132499387,3.0,0
30.273193359375,29.849977493286133,-2.3981785774230957,-0.0,-0.0,-1.0,0.1182089585884529,1.0,0
32.41360092163086,28.35489273071289,-2.4539008140563965,-0.0,-0.0,-1.0,0.1866191391701013,1.0,0
32.32344436645508,28.413921356201172,-2.4781861305236816,-0.0,-0.0,-1.0,0.17321368765079204,2.0,0
30.51877212524414,28.835430145263672,-2.2051620483398438,-0.0,-0.0,-1.0,0.14702912711197355,2.0,0
30.282665252685547,28.880983352661133,-2.2498092651367188,-0.0,-0.0,-1.0,0.14857518903164824,1.0,0
30.279922485351562,30.63299560546875,-2.612313747406006,-0.0,-0.0,-1.0,0.09818577773900211,1.0,0
31.554109573364258,30.53323745727539,-2.4275050163269043,-0.0,-0.0,-1.0,0.10666275415976695,1.0,0
31.456254959106445,30.447967529296875,-2.4241232872009277,-0.0,-0.0,-1.0,0.1584782752782356,1.0,0
30.37459945678711,29.00210189819336,-2.3131909370422363,-0.0,-0.0,-1.0,0.21616933874203795,1.0,0
30.231143951416016,28.505474090576172,-2.2490854263305664,-0.0,-0.0,-1.0,0.16301253794486245,1.0,0
31.62107276916504,29.21088409423828,-2.6219701766967773,-0.0,-0.0,-1.0,0.019627610734064316,2.0,0
31.44231414794922,29.120647430419922,-2.6239280700683594,-0.0,-0.0,-1.0,0.013414834960845336,1.0,0
31.3787899017334,29.000442504882812,-2.605114459991455,-0.0,-0.0,-1.0,0.005396835006033177,2.0,0
31.205886840820312,28.73455047607422,-2.5683951377868652,-0.0,-0.0,-1.0,0.04425621367474623,2.0,0
32.70188522338867,28.80350112915039,-2.4031293392181396,-0.0,-0.0,-1.0,0.0653509256721983,1.0,0
32.60948944091797,28.59549331665039,-2.365360736846924,-0.0,-0.0,-1.0,0.18730942054112396,1.0,0
32.52037811279297,28.460186004638672,-2.3442695140838623,0.8189542851410568,0.25715456250515434,-0.5130159937388731,0.2517473158534357,3.0,0
32.51922607421875,28.31157875061035,-2.310335874557495,-0.0,-0.0,-1.0,0.16608544003198733,1.0,0
32.355567932128906,28.398250579833984,-2.3491392135620117,-0.0,-0.0,-1.0,0.23161942672470143,1.0,0
32.06190490722656,28.400951385498047,-2.384692668914795,-0.0,-0.0,-1.0,0.13397843738244603,2.0,0
31.45261573791504,28.417583465576172,-2.4654035568237305,-0.0,-0.0,-1.0,0.06156242974826331,1.0,0
31.18779945373535,28.450374603271484,-2.507869243621826,-0.0,-0.0,-1.0,0.022327257331662877,2.0,0
31.164566040039062,28.25008773803711,-2.466824531555176,-0.0,-0.0,-1.0,0.02158322697694213,2.0,0
32.67640686035156,30.625625610351562,-2.5330400466918945,-0.0,-0.0,-1.0,0.07077293331392026,1.0,0
32.670509338378906,30.289348602294922,-2.456362724304199,-0.0,-0.0,-1.0,0.11841980796594095,2.0,0
30.83942222595215,30.624130249023438,-2.7076468467712402,-0.0,-0.0,-1.0,0.04942463524144612,2.0,0
30.671646118164062,30.423137664794922,-2.6819067001342773,-0.0,-0.0,-1.0,0.059874702185075936,1.0,0
30.466341018676758,30.094778060913086,-2.6334784030914307,-0.0,-0.0,-1.0,0.04143991601538287,1.0,0
30.259517669677734,29.81810760498047,-2.5979645252227783,-0.0,-0.0,-1.0,0.11612530216668661,1.0,0
30.928199768066406,28.756385803222656,-2.2868213653564453,-0.0,-0.0,-1.0,0.10080066936870372,1.0,0
31.20987892150879,29.902833938598633,-2.4065778255462646,-0.0,-0.0,-1.0,0.19543055546007665,1.0,0
30.625240325927734,28.722991943359375,-2.1846413612365723,-0.0,-0.0,-1.0,0.1722949944398963,1.0,0
30.213417053222656,28.922161102294922,-2.2690634727478027,-0.0,-0.0,-1.0,0.15716437657690127,2.0,0
32.652618408203125,30.163902282714844,-2.2114570140838623,-0.09116308166815482,-0.9781536925311195,-0.18682785212195088,0.10490435640490782,4.0,0
32.63603591918945,30.181962966918945,-2.3549232482910156,-0.062009748155117304,0.6432656328576203,-0.7631278508336754,0.070261967292586,5.0,0
31.488574981689453,30.538867950439453,-2.457740306854248,-0.0,-0.0,-1.0,0.13414016047039945,1.0,0
30.555936813354492,30.54199981689453,-2.484431266784668,-0.0,-0.0,-1.0,0.10021374831536037,1.0,0
30.341882705688477,29.912445068359375,-2.3269295692443848,-0.0,-0.0,-1.0,0.11968977543591296,2.0,0
32.34251403808594,30.544055938720703,-2.5810418128967285,-0.04124819159384845,-0.7194069906718785,-0.6933629413681329,0.04945150476082097,3.0,0
32.30876159667969,30.540538787841797,-2.5753846168518066,0.06019979417077277,-0.9927127659498494,0.10439036881818353,0.05867256180039132,4.0,0
31.574357986450195,30.431468963623047,-2.451523542404175,-0.0,-0.0,-1.0,0.11930868423927385,1.0,0
32.56165313720703,30.20452117919922,-2.5482287406921387,-0.0,-0.0,-1.0,0.12162719099119786,1.0,0
30.694839477539062,30.112510681152344,-2.66378116607666,-0.0,-0.0,-1.0,0.009232550699424618,2.0,0
30.326732635498047,30.07183837890625,-2.6063168048858643,-0.0,-0.0,-1.0,0.07081411131073137,1.0,0
32.504676818847656,29.149410247802734,-2.553309679031372,-0.0,-0.0,-1.0,0.024660551118485436,1.0,0
32.63389587402344,30.191234588623047,-2.517072916030884,-0.0,-0.0,-1.0,0.18354688432937213,2.0,0
32.528526306152344,30.33470916748047,-2.5258982181549072,-0.0,-0.0,-1.0,0.10188581993332832,1.0,0
32.512237548828125,28.50555992126465,-2.3345205783843994,0.13493706653424656,0.5701467654797786,-0.8103854970864662,0.26867772118388916,4.0,0
32.274993896484375,30.63317108154297,-2.624999523162842,-0.0,-0.0,-1.0,0.039324298585617465,1.0,0
30.520559310913086,30.256301879882812,-2.617440700531006,-0.0,-0.0,-1.0,0.0602362703576584,1.0,0
32.52234649658203,28.548250198364258,-2.3596248626708984,-0.0,-0.0,-1.0,0.27053315492474617,1.0,0
30.276779174804688,28.6871337890625,-2.4264402389526367,-0.0,-0.0,-1.0,0.11598709161483928,1.0,0
32.67271423339844,30.2534236907959,-2.502255439758301,-0.0,-0.0,-1.0,0.20640485934130448,2.0,0
32.61724090576172,28.693603515625,-2.310140371322632,0.06639765695988502,-0.0948019880387583,-0.9932793837657843,0.12067646770938026,4.0,0
30.490280151367188,30.312562942504883,-2.5593087673187256,-0.0,-0.0,-1.0,0.07858969588699666,2.0,0
32.489479064941406,30.38677215576172,-2.541430711746216,-0.0,-0.0,-1.0,0.07098818723860499,2.0,0
32.48685836791992,28.586254119873047,-2.287632703781128,-0.0,-0.0,-1.0,0.19003980486067948,1.0,0
32.29936981201172,30.458255767822266,-2.556335687637329,-0.0,-0.0,-1.0,0.07763791247186501,2.0,0
30.483810424804688,30.31133270263672,-2.589118719100952,-0.0,-0.0,-1.0,0.07858969588699667,2.0,0
30.237768173217773,29.949562072753906,-2.5458242893218994,-0.0,-0.0,-1.0,0.11483206481654405,1.0,0
32.50154495239258,28.16093635559082,-2.0773918628692627,-0.0,-0.0,-1.0,0.2155916846545767,2.0,0
30.474817276000977,28.84457778930664,-2.18526554107666,-0.0,-0.0,-1.0,0.16607979431637993,2.0,0
32.173912048339844,29.186851501464844,-2.6338109970092773,0.8834618686649823,0.3211563814039999,-0.3411065893506982,0.03402314202907612,3.0,0
32.000282287597656,29.5880069732666,-2.693453073501587,-0.0,-0.0,-1.0,0.017989105119500054,1.0,0
31.7237491607666,29.768218994140625,-2.7183690071105957,-0.0,-0.0,-1.0,0.031198343243577505,1.0,0
31.16248321533203,29.85708999633789,-2.7281911373138428,-0.0,-0.0,-1.0,0.11786646086604385,1.0,0
30.934612274169922,29.613283157348633,-2.689107894897461,-0.0,-0.0,-1.0,0.027508135376391584,1.0,0
31.073959350585938,29.86631965637207,-2.7292559146881104,-0.0,-0.0,-1.0,0.10226657289949397,1.0,0
31.55584716796875,28.255130767822266,-2.481692314147949,-0.0,-0.0,-1.0,0.05966399882072349,1.0,0
30.626237869262695,28.462570190429688,-2.5077428817749023,-0.0,-0.0,-1.0,0.03410665640632137,1.0,0
30.545866012573242,28.48744010925293,-2.511491060256958,-0.0,-0.0,-1.0,0.04963763017456795,1.0,0
30.381418228149414,28.506689071655273,-2.514421224594116,-0.0,-0.0,-1.0,0.077689743980529,2.0,0
30.270421981811523,28.83275604248047,-2.5658323764801025,-0.0,-0.0,-1.0,0.11443598368511211,1.0,0
32.655025482177734,30.16375160217285,-2.170140266418457,-0.0,-0.0,-1.0,0.10490435640490779,2.0,0
32.701324462890625,30.160930633544922,-2.1471805572509766,-0.0,-0.0,-1.0,0.10490435640490775,1.0,0
32.65913009643555,30.217716217041016,-2.3385987281799316,-0.4821022110361853,0.7358597959740262,-0.47548692808855003,0.07523867980989694,4.0,0
32.304229736328125,30.141983032226562,-2.58376145362854,-0.05002035867448472,0.46264223776694724,-0.8851328281970269,0.03884573902052516,3.0,0
32.17507553100586,30.258991241455078,-2.5985023975372314,0.3172703893440667,0.20256741711538012,-0.9264480242132678,0.04635878359238595,3.0,0
31.987091064453125,30.435131072998047,-2.621163845062256,-0.0,-0.0,-1.0,0.05157353879037955,1.0,0
32.530147552490234,28.483428955078125,-2.317023277282715,0.7732524776907865,0.2648119768984578,-0.5761555542005913,0.234522034136328,4.0,0
32.60125732421875,28.81873321533203,-2.3755173683166504,-0.0,-0.0,-1.0,0.10529551651428536,1.0,0
32.60292434692383,29.68020248413086,-2.5184571743011475,0.9384883389992674,-0.018535916887920882,-0.34481307595205857,0.10510064349344009,5.0,0
32.51919174194336,29.913818359375,-2.5539963245391846,-0.19901881176258462,-0.029211603680945324,-0.9795602047730378,0.017842762934599233,3.0,0
32.358665466308594,28.68566131591797,-2.3434722423553467,-0.0,-0.0,-1.0,0.1466762548787768,1.0,0
32.38853454589844,30.014389038085938,-2.5656869411468506,-0.5437680099983108,0.04115868609048338,-0.8382256938687707,0.06680902119012547,3.0,0
32.70181655883789,29.756681442260742,-2.4698526859283447,-0.0,-0.0,-1.0,0.07670806522380984,1.0,0
32.58045959472656,30.12188720703125,-2.539074659347534,-0.0,-0.0,-1.0,0.10873473059533417,1.0,0
32.36724090576172,30.28864097595215,-2.5694077014923096,-0.0,-0.0,-1.0,0.06752879212542771,2.0,0
32.213043212890625,30.480926513671875,-2.6056950092315674,0.7809052872761421,0.2939283761489469,-0.5511742392371125,0.06096156209194802,6.0,0
30.52969741821289,30.369121551513672,-2.582406997680664,-0.0,-0.0,-1.0,0.08536627447677321,2.0,0
30.350679397583008,30.519676208496094,-2.6133625507354736,-0.0,-0.0,-1.0,0.10307575599040085,2.0,0
32.54704284667969,28.157169342041016,-2.1608569622039795,-0.0,-0.0,-1.0,0.2073369995891168,2.0,0
32.67078399658203,29.848716735839844,-2.511080026626587,0.029426265243977096,-0.7391864561851516,-0.6728576951378561,0.02812788881591648,3.0,0
32.46244812011719,30.042755126953125,-2.5509936809539795,-0.0,-0.0,-1.0,0.03509872602160849,2.0,0
32.265296936035156,30.18316650390625,-2.580287218093872,0.3457888100240541,-0.09318231976123233,-0.9336740084987176,0.04448917097693597,3.0,0
32.014747619628906,30.38410186767578,-2.623140335083008,-0.0,-0.0,-1.0,0.0605715294006625,2.0,0
31.76656723022461,30.49999237060547,-2.6486217975616455,0.7502287191000806,-0.5360681595393424,-0.38702428524002774,0.11770473229885547,3.0,0
31.55317497253418,30.603477478027344,-2.6720871925354004,-0.0,-0.0,-1.0,0.15205771638106583,2.0,0
31.119436264038086,30.06433868408203,-2.5598201751708984,-0.0,-0.0,-1.0,0.11383646796496044,1.0,0
30.816492080688477,30.637248992919922,-2.68696928024292,-0.0,-0.0,-1.0,0.0440290122991521,2.0,0
30.36382484436035,30.062686920166016,-2.569166421890259,-0.0,-0.0,-1.0,0.07502074592438973,1.0,0
30.269765853881836,30.090526580810547,-2.5768163204193115,-0.0,-0.0,-1.0,0.06836798448861835,1.0,0
32.58174133300781,28.224655151367188,-2.172063112258911,-0.0,-0.0,-1.0,0.13411586683941631,1.0,0
32.63705062866211,28.644733428955078,-2.2597098350524902,-0.0,-0.0,-1.0,0.17335200186978253,2.0,0
32.70196533203125,29.845462799072266,-2.5061416625976562,0.029426265243977096,-0.7391864561851516,-0.6728576951378561,0.028388667653417354,3.0,0
32.44853973388672,30.24510955810547,-2.5896151065826416,-0.0,-0.0,-1.0,0.06851897738384556,1.0,0
32.1873893737793,30.465402603149414,-2.6351189613342285,0.40643879595943694,0.6126573762897853,-0.6778336406646983,0.05872097573686178,4.0,0
31.959957122802734,30.59014129638672,-2.661104917526245,-0.0,-0.0,-1.0,0.0457794857997285,1.0,0
30.49064826965332,30.365243911743164,-2.612978935241699,0.5754832521136791,-0.4590353006636294,-0.6768350015190667,0.08536627447677317,3.0,0
30.31747817993164,30.549671173095703,-2.656923532485962,-0.0,-0.0,-1.0,0.10307575599040082,1.0,0
32.51845169067383,28.157283782958984,-2.1387338638305664,-0.058634929777234036,-0.9957779904762624,-0.07062675621232584,0.20902322348453406,3.0,0
32.522804260253906,28.56857681274414,-2.226945400238037,-0.0,-0.0,-1.0,0.10760439199408552,1.0,0
30.27655029296875,28.979076385498047,-2.300081729888916,-0.0,-0.0,-1.0,0.1631447781978175,1.0,0
32.61478042602539,29.90093994140625,-2.5476937294006348,-0.6009217596077293,0.3391948326973531,-0.7237678524923339,0.026424408109426516,3.0,0
32.357181549072266,30.23263931274414,-2.5978708267211914,-0.0,-0.0,-1.0,0.06534238417205669,1.0,0
32.14924621582031,30.534709930419922,-2.6466526985168457,-0.0,-0.0,-1.0,0.038571641461055954,1.0,0
30.351303100585938,30.585647583007812,-2.563429355621338,-0.0,-0.0,-1.0,0.09889741939779417,1.0,0
32.623931884765625,28.62764549255371,-2.2924885749816895,-0.3459254617833343,0.8307379794918464,-0.43613069637413915,0.16510118179073857,4.0,0
32.70233154296875,28.892372131347656,-2.3512320518493652,-0.0,-0.0,-1.0,0.11000434068398059,2.0,0
32.28479766845703,30.053096771240234,-2.6039199829101562,-0.0,-0.0,-1.0,0.06951173345090852,1.0,0
31.983959197998047,30.327255249023438,-2.642125129699707,-0.0,-0.0,-1.0,0.0544817425357721,1.0,0
31.72589683532715,30.567577362060547,-2.677548408508301,-0.0,-0.0,-1.0,0.1601385531456869,2.0,0
32.54859924316406,29.72443199157715,-2.5536274909973145,-0.0,-0.0,-1.0,0.03017533866447609,2.0,0
32.63909912109375,28.960718154907227,-2.401648998260498,-0.0,-0.0,-1.0,0.09195419846570915,1.0,0
32.61075973510742,29.303638458251953,-2.4704627990722656,-0.0,-0.0,-1.0,0.07948800701149708,2.0,0
32.45459747314453,29.801803588867188,-2.5629029273986816,-0.0,-0.0,-1.0,0.011909401310479212,1.0,0
32.54471969604492,28.381534576416016,-2.2749781608581543,-0.0,-0.0,-1.0,0.20385330749451624,2.0,0
32.63157653808594,30.250221252441406,-2.570547103881836,-0.0,-0.0,-1.0,0.13137391915294935,1.0,0
