x,y,z,nx,ny,nz,curvature,density,label
56.958396911621094,15.822630882263184,-2.5014076232910156,-0.0,-0.0,-1.0,0.07328220712259645,1.0,0
56.03651428222656,16.081518173217773,-2.306913375854492,-0.0,-0.0,-1.0,0.17649387093458213,1.0,0
55.72262191772461,16.167978286743164,-2.2411980628967285,-0.0,-0.0,-1.0,0.15319323122777154,1.0,0
57.17856979370117,15.812859535217285,-2.518991231918335,-0.0,-0.0,-1.0,0.07927458956450517,1.0,0
55.779361724853516,16.33726692199707,-2.173996925354004,-0.0,-0.0,-1.0,0.13355578444815167,2.0,0
55.68901062011719,16.83945083618164,-2.5189571380615234,-0.2821852893869412,0.7655037631108491,-0.5782520653804337,0.1173557660454887,3.0,0
55.58180236816406,17.9616641998291,-2.4983267784118652,-0.0,-0.0,-1.0,0.0679814123810515,1.0,0
57.00959014892578,15.988542556762695,-2.4013803005218506,-0.0,-0.0,-1.0,0.1073908719469103,2.0,0
57.07775115966797,15.770304679870605,-2.3366434574127197,-0.0,-0.0,-1.0,0.09347236408645641,2.0,0
56.69915771484375,15.77505874633789,-2.3240036964416504,-0.0,-0.0,-1.0,0.07144001240656822,1.0,0
56.6810188293457,15.963836669921875,-2.3259472846984863,-0.0,-0.0,-1.0,0.053228053586981475,1.0,0
57.16984176635742,16.1433162689209,-2.385160446166992,-0.0,-0.0,-1.0,0.08465345683377583,1.0,0
56.019805908203125,16.573232650756836,-2.2642765045166016,-0.0,-0.0,-1.0,0.15717781499152558,1.0,0
57.40726089477539,16.511619567871094,-2.42025089263916,-0.0,-0.0,-1.0,0.054383990076512144,1.0,0
57.70429611206055,17.033754348754883,-2.466073989868164,-0.0,-0.0,-1.0,0.026065407325577446,1.0,0
55.904014587402344,16.625553131103516,-2.485517740249634,-0.0,-0.0,-1.0,0.09399940078564904,1.0,0
55.61760711669922,17.164491653442383,-2.4525749683380127,-0.0,-0.0,-1.0,0.1680426452519605,1.0,0
56.062355041503906,16.827775955200195,-2.502763509750366,-0.0,-0.0,-1.0,0.07177718567226066,1.0,0
56.684539794921875,17.037681579589844,-2.5719711780548096,-0.0,-0.0,-1.0,0.030638229193566624,1.0,0
56.73634338378906,17.544055938720703,-2.5774595737457275,-0.0,-0.0,-1.0,0.06615089919482348,2.0,0
56.743568420410156,17.27948760986328,-2.578369379043579,-0.0,-0.0,-1.0,0.02694927619040952,2.0,0
56.72399139404297,17.80950164794922,-2.5760772228240967,-0.0,-0.0,-1.0,0.06323101047844694,1.0,0
55.895145416259766,16.28201675415039,-1.9250297546386719,-0.0,-0.0,-1.0,0.0931508289764783,1.0,0
56.504112243652344,15.652021408081055,-2.5891079902648926,-0.0,-0.0,-1.0,0.12540278854008113,1.0,0
56.987098693847656,16.25472640991211,-2.626638889312744,-0.0,-0.0,-1.0,0.031148136444835144,1.0,0
57.31281280517578,16.73792266845703,-2.6505136489868164,-0.0,-0.0,-1.0,0.03969160566340464,1.0,0
57.34246826171875,16.554553985595703,-2.6579465866088867,-0.0,-0.0,-1.0,0.04836594728405176,1.0,0
55.85188293457031,17.011085510253906,-2.4821276664733887,-0.0,-0.0,-1.0,0.20517922731328828,1.0,0
56.413570404052734,17.249723434448242,-2.547786235809326,0.5192587220028179,-0.20089503478637732,-0.8306693473471743,0.034089107283112444,3.0,0
56.585357666015625,17.514938354492188,-2.568565845489502,-0.0,-0.0,-1.0,0.04215498714390492,2.0,0
56.52964782714844,15.655735969543457,-2.3436615467071533,-0.0,-0.0,-1.0,0.13460109016222768,1.0,0
56.60552978515625,15.795583724975586,-2.350245237350464,-0.0,-0.0,-1.0,0.08725125537351194,2.0,0
57.163673400878906,16.26793670654297,-2.4052517414093018,-0.0,-0.0,-1.0,0.07817080335225401,1.0,0
57.04386901855469,15.963362693786621,-2.3956100940704346,-0.0,-0.0,-1.0,0.11084169897641767,2.0,0
55.62881851196289,17.21053695678711,-2.5386929512023926,-0.0,-0.0,-1.0,0.22527907393225433,1.0,0
55.7060432434082,17.032306671142578,-2.5480031967163086,-0.584626309701592,0.36135413319176163,-0.7263850689750779,0.23698483596974038,3.0,0
55.83844757080078,17.376617431640625,-2.5635972023010254,-0.0,-0.0,-1.0,0.09694153087332001,1.0,0
55.7749137878418,17.239776611328125,-2.401916265487671,-0.0,-0.0,-1.0,0.14441362783362433,1.0,0
56.05832290649414,16.546968460083008,-2.433396100997925,-0.0,-0.0,-1.0,0.10184187744455048,1.0,0
56.624053955078125,16.00288200378418,-2.499058485031128,-0.0,-0.0,-1.0,0.05567717069830795,1.0,0
56.58787536621094,15.776108741760254,-2.4942786693573,-0.0,-0.0,-1.0,0.12361605694380119,1.0,0
57.04669189453125,16.508346557617188,-2.5504987239837646,-0.0,-0.0,-1.0,0.045139429308712016,1.0,0
57.066986083984375,17.369930267333984,-2.5559279918670654,-0.0,-0.0,-1.0,0.03036001426159822,1.0,0
57.24632263183594,17.008724212646484,-2.5758540630340576,-0.0,-0.0,-1.0,0.017378571522426434,1.0,0
57.318912506103516,16.67253875732422,-2.5833122730255127,-0.0,-0.0,-1.0,0.04436802058089406,2.0,0
55.96601486206055,16.382627487182617,-2.3105645179748535,-0.5670447019942954,0.7610531103611462,-0.31505312115550593,0.23365954148902263,3.0,0
56.46503448486328,15.78255844116211,-2.375396251678467,-0.0,-0.0,-1.0,0.14424422674422407,2.0,0
56.58052062988281,15.905926704406738,-2.386270046234131,-0.0,-0.0,-1.0,0.0920009274905977,1.0,0
57.15827941894531,16.375782012939453,-2.4432806968688965,-0.0,-0.0,-1.0,0.07409694664318811,1.0,0
56.990013122558594,16.111831665039062,-2.428589344024658,-0.0,-0.0,-1.0,0.06451877466270375,2.0,0
57.355865478515625,16.55229377746582,-2.462646484375,-0.0,-0.0,-1.0,0.047440896975087896,2.0,0
57.529842376708984,16.907686233520508,-2.4768576622009277,-0.0,-0.0,-1.0,0.028756771062992476,1.0,0
55.81861877441406,16.460874557495117,-2.318434953689575,-0.0,-0.0,-1.0,0.17242222650823505,1.0,0
56.4438591003418,15.79077434539795,-2.39433217048645,-0.0,-0.0,-1.0,0.1313120224719736,2.0,0
56.89814376831055,15.980563163757324,-2.4455602169036865,-0.0,-0.0,-1.0,0.05144764628013579,2.0,0
57.25014114379883,16.356855392456055,-2.4841153621673584,-0.0,-0.0,-1.0,0.06878039280515878,1.0,0
57.36476516723633,16.560527801513672,-2.4963204860687256,-0.0,-0.0,-1.0,0.047440896975087875,2.0,0
55.75920867919922,16.104284286499023,-2.3510208129882812,-0.0,-0.0,-1.0,0.12051290027566822,1.0,0
57.05242156982422,15.784004211425781,-2.50225830078125,-0.0,-0.0,-1.0,0.07203264222594444,1.0,0
55.77854919433594,16.340429306030273,-2.122462034225464,0.47317966471774076,0.5076057046992578,-0.7200260088735517,0.21033408231684378,3.0,0
57.53923797607422,15.879119873046875,-2.3125417232513428,-0.0,-0.0,-1.0,0.08903643075241638,1.0,0
57.29584884643555,15.781463623046875,-2.2929670810699463,-0.0,-0.0,-1.0,0.1294323488848395,1.0,0
57.50140380859375,15.974672317504883,-2.3284122943878174,-0.0,-0.0,-1.0,0.09832189576339433,1.0,0
55.91167449951172,16.3196964263916,-2.1528689861297607,0.39273466294992415,0.041934637522485,-0.9186952545286535,0.16961015635050988,4.0,0
56.15761947631836,16.62790298461914,-1.8799247741699219,-0.0,-0.0,-1.0,0.17601570766351954,1.0,0
57.49584197998047,16.03389549255371,-2.347447395324707,-0.0,-0.0,-1.0,0.08242314781568855,2.0,0
55.90357208251953,16.441978454589844,-2.1718497276306152,-0.0,-0.0,-1.0,0.25052411207226916,1.0,0
57.12025451660156,15.851688385009766,-2.2847342491149902,-0.0,-0.0,-1.0,0.11628086570076691,1.0,0
55.64268493652344,15.886548042297363,-2.445996046066284,-0.0,-0.0,-1.0,0.09407461128090737,2.0,0
55.740745544433594,16.152965545654297,-2.477874517440796,-0.0,-0.0,-1.0,0.06745614887392548,1.0,0
55.64580154418945,16.48200035095215,-2.483290433883667,-0.0,-0.0,-1.0,0.05520476454802139,1.0,0
55.65959930419922,16.959522247314453,-2.5160176753997803,-0.0,-0.0,-1.0,0.22067574930627643,1.0,0
55.696868896484375,16.746700286865234,-2.5082342624664307,-0.0,-0.0,-1.0,0.11997446244425251,2.0,0
55.63770294189453,17.06662940979004,-2.5195109844207764,0.3507118880783972,0.6390625744750718,-0.6845437878366719,0.19920006436582477,4.0,0
56.00297546386719,17.233829498291016,-2.5885517597198486,-0.0,-0.0,-1.0,0.05007455379302442,1.0,0
56.358253479003906,17.514869689941406,-2.663717031478882,-0.0,-0.0,-1.0,0.021729757772099925,1.0,0
55.573646545410156,15.908544540405273,-2.427434206008911,-0.0,-0.0,-1.0,0.09206296503781969,2.0,0
55.68446350097656,16.31839942932129,-2.4706594944000244,0.8641797628734222,0.4947278312004814,-0.09185701103183916,0.09895461844743456,3.0,0
55.692840576171875,16.780986785888672,-2.5011513233184814,-0.0,-0.0,-1.0,0.15229771920268625,2.0,0
55.75547790527344,17.09648323059082,-2.5317580699920654,-0.0,-0.0,-1.0,0.2295348268490234,2.0,0
55.92882537841797,17.255970001220703,-2.5705983638763428,0.5270950646149154,0.8199134001641641,-0.22341174787785228,0.04758298665648307,4.0,0
55.426307678222656,17.60678482055664,-2.5116994380950928,-0.0,-0.0,-1.0,0.05405848735252132,1.0,0
55.96692657470703,17.361663818359375,-2.5838234424591064,-0.0,-0.0,-1.0,0.02229486006189911,1.0,0
56.51751708984375,15.769349098205566,-2.4375603199005127,-0.0,-0.0,-1.0,0.14292657789942415,1.0,0
56.68925476074219,15.917457580566406,-2.4758517742156982,-0.0,-0.0,-1.0,0.06470742063429992,1.0,0
56.46025085449219,16.18168830871582,-2.455475091934204,-0.0,-0.0,-1.0,0.05054987176991596,2.0,0
56.950687408447266,16.48811912536621,-2.557771921157837,-0.0,-0.0,-1.0,0.03147305681379205,1.0,0
56.7747802734375,16.90378189086914,-2.5574629306793213,-0.0,-0.0,-1.0,0.021337682566787915,1.0,0
56.78917694091797,17.267562866210938,-2.5857484340667725,-0.0,-0.0,-1.0,0.02782964148980238,2.0,0
56.95165252685547,17.48557472229004,-2.6285030841827393,-0.0,-0.0,-1.0,0.03813052045974699,1.0,0
57.07292175292969,17.646648406982422,-2.660410165786743,-0.0,-0.0,-1.0,0.028526606687449406,1.0,0
56.863319396972656,17.899707794189453,-2.6443746089935303,-0.0,-0.0,-1.0,0.06981380996092229,1.0,0
55.956058502197266,16.34007453918457,-2.3824713230133057,-0.0,-0.0,-1.0,0.24207950741818396,2.0,0
56.14666748046875,16.59222984313965,-2.4314124584198,-0.0,-0.0,-1.0,0.09351820746848492,1.0,0
56.26974868774414,16.7452335357666,-2.4624826908111572,-0.0,-0.0,-1.0,0.04195127009190196,1.0,0
55.731468200683594,17.04269790649414,-2.3940317630767822,-0.0,-0.0,-1.0,0.16842838979697164,1.0,0
55.66753387451172,18.097412109375,-2.460768461227417,-0.0,-0.0,-1.0,0.0655207920432981,2.0,0
56.01348876953125,16.39595603942871,-1.7464017868041992,-0.0,-0.0,-1.0,0.07150353747640814,2.0,0
57.30683517456055,15.84343433380127,-2.3537182807922363,-0.0,-0.0,-1.0,0.12943234888483948,1.0,0
57.49997329711914,15.905291557312012,-2.3849778175354004,-0.0,-0.0,-1.0,0.0951272695950519,1.0,0
55.79921340942383,16.313222885131836,-2.164851665496826,0.7857068050414153,0.6103012907705166,-0.10098094372431177,0.14170964646665646,3.0,0
55.63478088378906,17.05250358581543,-2.186617851257324,-0.0,-0.0,-1.0,0.09024975078114375,2.0,0
55.92512130737305,16.373573303222656,-1.9818212985992432,-0.0,-0.0,-1.0,0.17510335771546645,1.0,0
55.65898513793945,17.09187126159668,-1.9864017963409424,-0.0,-0.0,-1.0,0.0683411255879851,1.0,0
56.100982666015625,16.3356876373291,-1.9654288291931152,-0.0,-0.0,-1.0,0.08578416769978521,1.0,0
55.60314178466797,15.771136283874512,-2.3969831466674805,-0.0,-0.0,-1.0,0.09187679131632498,1.0,0
55.75123977661133,16.22513771057129,-2.450357675552368,-0.0,-0.0,-1.0,0.11186462811587738,1.0,0
55.68115234375,16.552291870117188,-2.461186170578003,-0.0,-0.0,-1.0,0.07096907485481083,2.0,0
55.69089889526367,16.926006317138672,-2.4885942935943604,-0.0,-0.0,-1.0,0.16522197482877546,2.0,0
55.447242736816406,17.488847732543945,-2.4898388385772705,-0.0,-0.0,-1.0,0.07572104951423221,1.0,0
55.92603302001953,17.26321029663086,-2.5502917766571045,0.5285276055229522,0.8199965497882564,-0.21969121178492856,0.05395952427253263,3.0,0
55.380985260009766,17.603273391723633,-2.4876232147216797,-0.0,-0.0,-1.0,0.05405848735252131,1.0,0
55.44667053222656,17.7308349609375,-2.5076229572296143,-0.0,-0.0,-1.0,0.06278482389231074,2.0,0
56.12885284423828,16.440954208374023,-1.6745498180389404,-0.0,-0.0,-1.0,0.14468751474891942,1.0,0
55.53459930419922,16.127487182617188,-2.462115526199341,-0.0,-0.0,-1.0,0.07040402800032167,1.0,0
55.531959533691406,16.66868019104004,-2.4956367015838623,-0.0,-0.0,-1.0,0.08847535895411465,2.0,0
55.632843017578125,16.867918014526367,-2.5258562564849854,-0.0,-0.0,-1.0,0.12460995016628833,2.0,0
55.471595764160156,17.25569725036621,-2.523956060409546,-0.0,-0.0,-1.0,0.10798703380355616,1.0,0
55.63372039794922,17.057857513427734,-2.538513422012329,0.3507118880783972,0.6390625744750718,-0.6845437878366719,0.2096062048832249,4.0,0
55.28564453125,17.47930145263672,-2.5072741508483887,-0.0,-0.0,-1.0,0.04905460435202368,2.0,0
55.98174285888672,16.402252197265625,-1.7450549602508545,0.07346333068822673,0.5485713635936961,-0.8328700967672845,0.08031728594366039,3.0,0
55.615264892578125,17.09664535522461,-1.7393503189086914,-0.0,-0.0,-1.0,0.053118871030862554,1.0,0
57.32709503173828,15.930323600769043,-2.3078453540802,-0.0,-0.0,-1.0,0.10956480037826216,2.0,0
55.801429748535156,16.36317253112793,-2.0913920402526855,0.16107752292005448,0.736090182647792,-0.6574384188800344,0.19306627451560882,3.0,0
57.08851623535156,15.676887512207031,-2.31986665725708,-0.0,-0.0,-1.0,0.0866717423067687,1.0,0
57.25769805908203,15.827542304992676,-2.358186721801758,-0.0,-0.0,-1.0,0.1372147434137857,1.0,0
57.63686752319336,16.008033752441406,-2.4343533515930176,-0.0,-0.0,-1.0,0.10820157871425133,2.0,0
55.980628967285156,16.244600296020508,-2.1675376892089844,-0.0,-0.0,-1.0,0.19098926665627325,2.0,0
55.736610412597656,17.020057678222656,-2.1788411140441895,-0.0,-0.0,-1.0,0.08965783773355371,2.0,0
57.232452392578125,16.055892944335938,-2.2312209606170654,-0.0,-0.0,-1.0,0.06837795559215999,2.0,0
55.80860137939453,16.31458282470703,-2.001364231109619,-0.0,-0.0,-1.0,0.14856527133994582,1.0,0
56.474571228027344,15.688438415527344,-2.430936098098755,-0.0,-0.0,-1.0,0.1379901018010163,1.0,0
56.49763488769531,16.099811553955078,-2.46147084236145,-0.0,-0.0,-1.0,0.04904677910201781,1.0,0
56.679542541503906,15.989825248718262,-2.4914567470550537,-0.0,-0.0,-1.0,0.05058541374347154,1.0,0
56.36349105834961,16.6602783203125,-2.4722278118133545,-0.0,-0.0,-1.0,0.02245024677852936,1.0,0
56.73656463623047,16.537782669067383,-2.5396270751953125,-0.0,-0.0,-1.0,0.010805000873018843,2.0,0
56.294921875,16.789505004882812,-2.467536211013794,-0.0,-0.0,-1.0,0.035851317498155545,1.0,0
56.646766662597656,16.96196937561035,-2.5517971515655518,-0.0,-0.0,-1.0,0.02931278547431974,1.0,0
56.59281539916992,17.453834533691406,-2.5784835815429688,-0.0,-0.0,-1.0,0.04189910156759938,1.0,0
56.6914176940918,17.295001983642578,-2.586132287979126,-0.0,-0.0,-1.0,0.01813604120543104,1.0,0
56.58924102783203,17.552574157714844,-2.585627555847168,0.5222658771423991,0.0030680952516320406,-0.8527771926852918,0.0443177003089841,4.0,0
56.76043701171875,17.730445861816406,-2.634845018386841,-0.0,-0.0,-1.0,0.06849431121141199,1.0,0
56.813751220703125,18.035329818725586,-2.6710927486419678,-0.0,-0.0,-1.0,0.06228821809109465,1.0,0
55.9520263671875,16.27560806274414,-2.361889123916626,-0.0,-0.0,-1.0,0.2201581952240052,1.0,0
55.970375061035156,16.370996475219727,-2.372062921524048,-0.0,-0.0,-1.0,0.22724685440476666,2.0,0
55.783660888671875,17.02740478515625,-2.380948305130005,-0.0,-0.0,-1.0,0.18849042161168897,1.0,0
55.40858840942383,17.816450119018555,-2.367382287979126,-0.0,-0.0,-1.0,0.04732324996120505,1.0,0
55.43400573730469,17.756500244140625,-2.367532968521118,-0.0,-0.0,-1.0,0.049162443127599674,1.0,0
55.74630355834961,18.129806518554688,-2.462707757949829,-0.0,-0.0,-1.0,0.052691595302038735,1.0,0
55.985408782958984,16.438709259033203,-1.7207190990447998,-0.8005047215902629,0.4699995338768137,-0.371877169058916,0.16443681243874697,4.0,0
55.33738708496094,15.6572847366333,-2.3528189659118652,-0.0,-0.0,-1.0,0.09187679131632498,1.0,0
55.69873046875,16.027591705322266,-2.4566311836242676,-0.0,-0.0,-1.0,0.07880965509814883,1.0,0
55.66905975341797,16.526920318603516,-2.482560634613037,-0.0,-0.0,-1.0,0.05849139974107624,2.0,0
55.719051361083984,16.85225486755371,-2.5166666507720947,-0.0,-0.0,-1.0,0.18897904507069346,2.0,0
55.888641357421875,17.2773494720459,-2.586509943008423,0.5274055295814251,0.8165135804219154,-0.23483820037106515,0.039381491202358905,3.0,0
55.43744659423828,17.73073387145996,-2.5210673809051514,-0.0,-0.0,-1.0,0.06278482389231074,2.0,0
55.75585174560547,17.566373825073242,-2.57926082611084,-0.0,-0.0,-1.0,0.037782454885425684,1.0,0
55.40061569213867,18.104400634765625,-2.5444319248199463,-0.0,-0.0,-1.0,0.04763392765964692,1.0,0
56.398563385009766,15.89854621887207,-2.5238749980926514,-0.0,-0.0,-1.0,0.0893675850377813,1.0,0
56.267906188964844,17.155925750732422,-2.585879325866699,-0.0,-0.0,-1.0,0.017142122616331336,1.0,0
56.33759307861328,17.387958526611328,-2.621342897415161,-0.0,-0.0,-1.0,0.016888193464391722,1.0,0
56.362552642822266,17.592557907104492,-2.6446573734283447,-0.0,-0.0,-1.0,0.02115485937174312,1.0,0
56.22468185424805,17.83774185180664,-2.6339216232299805,-0.0,-0.0,-1.0,0.02625812133936979,1.0,0
56.35546875,17.908733367919922,-2.670818567276001,-0.0,-0.0,-1.0,0.03989692473060719,1.0,0
55.389984130859375,15.757546424865723,-2.2783565521240234,-0.0,-0.0,-1.0,0.091876791316325,1.0,0
56.156551361083984,16.073869705200195,-2.4789717197418213,-0.0,-0.0,-1.0,0.053031361175617686,1.0,0
55.846839904785156,16.297706604003906,-2.4219095706939697,-0.0,-0.0,-1.0,0.12957844098588717,1.0,0
55.95909118652344,16.464988708496094,-2.460293769836426,-0.0,-0.0,-1.0,0.1507749842591123,1.0,0
55.784889221191406,16.986780166625977,-2.459205389022827,-0.0,-0.0,-1.0,0.22613234888157827,1.0,0
55.951072692871094,16.772228240966797,-2.481428861618042,-0.0,-0.0,-1.0,0.0887931673686186,1.0,0
56.189823150634766,17.235883712768555,-2.574141025543213,-0.0,-0.0,-1.0,0.02586132316027242,1.0,0
55.447025299072266,17.70675277709961,-2.4406802654266357,-0.0,-0.0,-1.0,0.06278482389231071,1.0,0
55.59844207763672,18.035799026489258,-2.505892038345337,-0.35201166566019115,-0.8943149711021045,-0.2762037648218789,0.0679814123810515,3.0,0
55.968807220458984,16.33128547668457,-1.866849422454834,-0.0,-0.0,-1.0,0.1092596919717624,2.0,0
57.44071960449219,17.562660217285156,-2.68509578704834,-0.0,-0.0,-1.0,0.016129025654932128,2.0,0
56.73249816894531,15.687854766845703,-2.3861708641052246,-0.0,-0.0,-1.0,0.12712464659531403,1.0,0
56.38416290283203,16.23750877380371,-2.3372199535369873,-0.0,-0.0,-1.0,0.0936012928221485,1.0,0
57.12217330932617,16.067611694335938,-2.5017542839050293,-0.0,-0.0,-1.0,0.10781229149069804,1.0,0
55.89586639404297,16.342098236083984,-2.228059768676758,-0.0,-0.0,-1.0,0.13527238424229293,1.0,0
56.90016174316406,16.599437713623047,-2.4842560291290283,-0.0,-0.0,-1.0,0.0250525693754269,1.0,0
56.950294494628906,16.432815551757812,-2.4847233295440674,-0.0,-0.0,-1.0,0.03493034189177531,1.0,0
55.842803955078125,17.01859474182129,-2.263472557067871,-0.0,-0.0,-1.0,0.11980027041913198,1.0,0
56.865325927734375,16.96055793762207,-2.5019001960754395,-0.0,-0.0,-1.0,0.014398868295404176,2.0,0
57.11078643798828,16.839447021484375,-2.5513498783111572,-0.0,-0.0,-1.0,0.011425951001452469,1.0,0
56.957244873046875,17.18914222717285,-2.540966510772705,-0.0,-0.0,-1.0,0.024440692301079387,1.0,0
57.02867889404297,17.333953857421875,-2.5691864490509033,-0.0,-0.0,-1.0,0.03125501293764528,1.0,0
56.7844352722168,17.722103118896484,-2.542775869369507,-0.0,-0.0,-1.0,0.06695622668658986,1.0,0
57.20964050292969,17.486875534057617,-2.6242141723632812,-0.0,-0.0,-1.0,0.019118912511748222,1.0,0
56.92881393432617,18.08307456970215,-2.607783317565918,-0.0,-0.0,-1.0,0.0679904616629281,1.0,0
56.11250686645508,16.42491340637207,-1.7327854633331299,-0.0,-0.0,-1.0,0.14624933791308375,2.0,0
56.53157043457031,15.64622688293457,-2.2832412719726562,-0.0,-0.0,-1.0,0.15060131251291015,1.0,0
56.913211822509766,15.813976287841797,-2.3881149291992188,-0.0,-0.0,-1.0,0.08882234550770793,1.0,0
57.063846588134766,16.099348068237305,-2.442943572998047,-0.0,-0.0,-1.0,0.10521569456434429,1.0,0
55.344970703125,16.623491287231445,-2.5463318824768066,-0.0,-0.0,-1.0,0.047055764276990576,1.0,0
57.3314323425293,16.57894515991211,-2.54115629196167,-0.0,-0.0,-1.0,0.04960848812896587,1.0,0
55.3536376953125,16.978254318237305,-2.5754218101501465,-0.0,-0.0,-1.0,0.07097110833382733,1.0,0
56.958396911621094,17.030603408813477,-2.4803953170776367,-0.0,-0.0,-1.0,0.01517979552445272,1.0,0
57.20841598510742,16.843643188476562,-2.5290064811706543,-0.0,-0.0,-1.0,0.030610857242337003,1.0,0
56.75188446044922,17.395017623901367,-2.4569849967956543,-0.0,-0.0,-1.0,0.0516205042803321,1.0,0
57.087135314941406,17.261838912963867,-2.5300302505493164,-0.0,-0.0,-1.0,0.02452043236827688,2.0,0
57.34579849243164,17.443601608276367,-2.608725070953369,-0.0,-0.0,-1.0,0.015786563583191613,1.0,0
56.71757507324219,17.655107498168945,-2.4695892333984375,-0.0,-0.0,-1.0,0.07844950314160419,1.0,0
56.873558044433594,17.787567138671875,-2.5195441246032715,-0.0,-0.0,-1.0,0.06521590427431996,1.0,0
55.891334533691406,16.305143356323242,-2.163412570953369,0.39273466294992415,0.041934637522485,-0.9186952545286535,0.16683656150902834,4.0,0
55.99699020385742,16.256603240966797,-2.1866350173950195,-0.0,-0.0,-1.0,0.20189290590996048,2.0,0
55.7069091796875,17.025527954101562,-2.16802978515625,-0.0,-0.0,-1.0,0.08653789457050753,2.0,0
55.96556091308594,16.42893409729004,-1.6786283254623413,-0.0,-0.0,-1.0,0.16443681243874694,2.0,0
56.22884750366211,16.382726669311523,-1.7316182851791382,-0.0,-0.0,-1.0,0.13131316172461424,2.0,0
55.549766540527344,15.679116249084473,-2.340803623199463,-0.0,-0.0,-1.0,0.1326005366157142,1.0,0
55.904300689697266,15.844297409057617,-2.4543778896331787,-0.0,-0.0,-1.0,0.07612377836832823,1.0,0
57.422664642333984,15.901190757751465,-2.366818428039551,-0.0,-0.0,-1.0,0.08929289650965098,1.0,0
55.85240936279297,16.221994400024414,-2.4624216556549072,-0.0,-0.0,-1.0,0.14191628892658198,2.0,0
57.64592361450195,16.105195999145508,-2.436601161956787,-0.0,-0.0,-1.0,0.06271140432391989,1.0,0
55.803977966308594,16.607988357543945,-2.474613904953003,-0.0,-0.0,-1.0,0.08532235082260285,1.0,0
57.68365478515625,16.58609390258789,-2.4779036045074463,-0.0,-0.0,-1.0,0.044263095410102156,1.0,0
55.7523193359375,17.035306930541992,-2.49176287651062,-0.0,-0.0,-1.0,0.20418646806286514,2.0,0
55.84661865234375,16.95005226135254,-2.512833833694458,-0.0,-0.0,-1.0,0.1676981958574134,1.0,0
56.01890563964844,17.39216423034668,-2.5997493267059326,-0.0,-0.0,-1.0,0.01727753077823565,1.0,0
55.60148620605469,17.86054039001465,-2.5198493003845215,-0.0,-0.0,-1.0,0.06714154049013993,1.0,0
55.93690490722656,17.65699005126953,-2.5989999771118164,-0.0,-0.0,-1.0,0.019540269517212095,1.0,0
57.18434143066406,15.707773208618164,-2.294477701187134,-0.0,-0.0,-1.0,0.11077239667488122,1.0,0
55.96819305419922,16.343942642211914,-2.021425247192383,-0.0,-0.0,-1.0,0.1529904483637607,1.0,0
55.795249938964844,17.08417320251465,-2.0300137996673584,-0.0,-0.0,-1.0,0.0655798226187,1.0,0
56.05078887939453,16.482269287109375,-1.574237585067749,-0.0,-0.0,-1.0,0.14468751474891942,1.0,0
56.362586975097656,16.440855026245117,-1.639962911605835,-0.0,-0.0,-1.0,0.14219841647363965,1.0,0
55.607547760009766,15.915669441223145,-2.433032512664795,-0.19847473149129974,0.18866457082338325,-0.9617762009300735,0.09014248931312811,3.0,0
55.848167419433594,15.803877830505371,-2.506423234939575,-0.0,-0.0,-1.0,0.0631345183914322,1.0,0
56.918678283691406,15.69322395324707,-2.3724851608276367,-0.0,-0.0,-1.0,0.10105914707232046,2.0,0
57.056495666503906,15.891275405883789,-2.4240312576293945,-0.0,-0.0,-1.0,0.08485237082295051,1.0,0
55.69264602661133,16.30139923095703,-2.4852397441864014,0.8641797628734222,0.4947278312004814,-0.09185701103183916,0.07532328014742491,3.0,0
55.76704788208008,16.273178100585938,-2.5078530311584473,-0.0,-0.0,-1.0,0.08353141884355512,1.0,0
57.138397216796875,16.092676162719727,-2.459987163543701,-0.0,-0.0,-1.0,0.0934823980093123,1.0,0
57.42814636230469,16.20319175720215,-2.5519003868103027,-0.0,-0.0,-1.0,0.05531778089302934,1.0,0
55.688026428222656,16.695493698120117,-2.511752128601074,-0.0,-0.0,-1.0,0.11608512106025111,1.0,0
57.32388687133789,16.75534439086914,-2.5591259002685547,-0.0,-0.0,-1.0,0.04869248084955415,1.0,0
57.384010314941406,16.595415115356445,-2.565241575241089,-0.0,-0.0,-1.0,0.04657852724310496,1.0,0
55.69695281982422,17.030712127685547,-2.54148006439209,-0.5038514747830838,0.18519847784869975,-0.8437032743574223,0.23698483596974038,4.0,0
55.83401107788086,17.23114776611328,-2.6040616035461426,-0.0,-0.0,-1.0,0.05246177659373939,1.0,0
57.11384582519531,16.993358612060547,-2.515671730041504,-0.0,-0.0,-1.0,0.009614637746116777,1.0,0
55.765499114990234,17.61416244506836,-2.6170566082000732,-0.0,-0.0,-1.0,0.01759446670428607,1.0,0
55.88453674316406,17.433361053466797,-2.6392390727996826,-0.0,-0.0,-1.0,0.08723822520418971,1.0,0
57.127220153808594,17.336671829223633,-2.5473690032958984,-0.0,-0.0,-1.0,0.026197509630244437,1.0,0
57.63555145263672,17.545751571655273,-2.713926076889038,-0.0,-0.0,-1.0,0.012475879979169352,1.0,0
55.522377014160156,17.859514236450195,-2.561811923980713,-0.0,-0.0,-1.0,0.06798141238105153,1.0,0
56.70982360839844,17.920982360839844,-2.477922201156616,-0.0,-0.0,-1.0,0.05308056373334978,1.0,0
55.7562370300293,16.436229705810547,-2.0766892433166504,-0.0,-0.0,-1.0,0.17892910683376875,1.0,0
55.827392578125,16.356746673583984,-2.0922255516052246,-0.0,-0.0,-1.0,0.1930662745156089,2.0,0
55.592369079589844,17.091167449951172,-2.07769513130188,-0.0,-0.0,-1.0,0.0683411255879851,2.0,0
56.002593994140625,16.462968826293945,-1.7118041515350342,-0.0,-0.0,-1.0,0.16443681243874694,2.0,0
57.2064094543457,16.722251892089844,-2.532296657562256,-0.0,-0.0,-1.0,0.04284899550406966,1.0,0
57.296546936035156,16.66160011291504,-2.556946277618408,-0.0,-0.0,-1.0,0.04436802058089406,2.0,0
57.167240142822266,17.369821548461914,-2.5711822509765625,-0.0,-0.0,-1.0,0.020000381083602373,1.0,0
57.44743347167969,17.54537582397461,-2.6772522926330566,-0.0,-0.0,-1.0,0.015683672159848283,2.0,0
57.64313888549805,17.840248107910156,-2.7680373191833496,-0.0,-0.0,-1.0,0.017011296321223418,1.0,0
57.70695495605469,17.840877532958984,-2.7884669303894043,-0.0,-0.0,-1.0,0.017011296321223415,1.0,0
57.007728576660156,15.93574047088623,-2.417387008666992,-0.0,-0.0,-1.0,0.08407219446297863,1.0,0
55.76648712158203,16.323219299316406,-2.0383400917053223,0.5269432265595793,0.5362384834985159,0.6593778315944444,0.1884220779228538,3.0,0
57.0288200378418,16.139646530151367,-2.435856342315674,-0.0,-0.0,-1.0,0.06737505245518738,2.0,0
55.690948486328125,17.030941009521484,-2.0655136108398438,-0.0,-0.0,-1.0,0.06557982261870002,1.0,0
57.04838562011719,17.046781539916992,-2.5058908462524414,-0.0,-0.0,-1.0,0.011052235939700282,1.0,0
56.667701721191406,17.6655216217041,-2.4370980262756348,-0.0,-0.0,-1.0,0.07200338169238124,1.0,0
57.06789779663086,17.298192977905273,-2.532896041870117,-0.0,-0.0,-1.0,0.026147026167242068,2.0,0
56.77454376220703,17.840547561645508,-2.4884896278381348,-0.0,-0.0,-1.0,0.05569688367119061,1.0,0
56.9416618347168,17.950960159301758,-2.553246021270752,-0.0,-0.0,-1.0,0.06981380996092229,1.0,0
55.914981842041016,16.43536376953125,-1.6916755437850952,-0.0,-0.0,-1.0,0.10555679388998716,1.0,0
56.14289093017578,16.4005126953125,-1.7545305490493774,-0.0,-0.0,-1.0,0.15233825016466535,2.0,0
55.941810607910156,16.481931686401367,-1.6689038276672363,-0.0,-0.0,-1.0,0.1644368124387469,1.0,0
56.216461181640625,16.41804313659668,-1.751772403717041,-0.0,-0.0,-1.0,0.1313131617246141,2.0,0
56.608619689941406,15.834736824035645,-2.360090970993042,-0.0,-0.0,-1.0,0.0946488612061623,2.0,0
56.93919372558594,15.663958549499512,-2.3998305797576904,-0.0,-0.0,-1.0,0.10105914707232037,2.0,0
55.51206588745117,16.044437408447266,-2.245483875274658,-0.0,-0.0,-1.0,0.14713813949933796,1.0,0
55.75138854980469,15.755485534667969,-2.2487545013427734,-0.0,-0.0,-1.0,0.13517646394777696,1.0,0
55.52775192260742,16.678468704223633,-2.5107316970825195,-0.0,-0.0,-1.0,0.07343594436952441,2.0,0
55.55735778808594,16.491230010986328,-2.504912853240967,-0.0,-0.0,-1.0,0.05229887331078315,2.0,0
55.64997100830078,17.270347595214844,-2.5505685806274414,-0.0,-0.0,-1.0,0.15967773623543588,1.0,0
55.606956481933594,17.3983154296875,-2.5523386001586914,-0.0,-0.0,-1.0,0.09266920549040074,1.0,0
56.46467590332031,17.8148136138916,-2.6567459106445312,-0.0,-0.0,-1.0,0.04275458437387883,1.0,0
55.90711975097656,16.543113708496094,-1.8949328660964966,-0.0,-0.0,-1.0,0.16472920076377764,2.0,0
57.08549499511719,15.777806282043457,-2.277090072631836,-0.0,-0.0,-1.0,0.10388373978795078,1.0,0
57.317901611328125,16.334806442260742,-2.3352434635162354,-0.0,-0.0,-1.0,0.06744337345645737,1.0,0
57.494651794433594,16.035980224609375,-2.330734968185425,-0.0,-0.0,-1.0,0.08242314781568855,2.0,0
55.94355010986328,15.681446075439453,-1.9407613277435303,-0.0,-0.0,-1.0,0.11073014094176789,1.0,0
55.623313903808594,17.099605560302734,-1.8463417291641235,-0.0,-0.0,-1.0,0.0683411255879851,1.0,0
56.02118682861328,16.34283447265625,-2.025850296020508,-0.0,-0.0,-1.0,0.14926319362112217,1.0,0
55.61382293701172,17.08948516845703,-2.0896458625793457,-0.0,-0.0,-1.0,0.0683411255879851,2.0,0
56.73074722290039,15.667686462402344,-2.32083797454834,-0.0,-0.0,-1.0,0.07384861859463827,1.0,0
56.780120849609375,15.674955368041992,-2.326785087585449,-0.0,-0.0,-1.0,0.06310874634535583,1.0,0
55.93577194213867,16.371673583984375,-2.2825927734375,-0.5670447019942954,0.7610531103611462,-0.31505312115550593,0.204929456082177,3.0,0
57.36952590942383,16.01420021057129,-2.4154727458953857,-0.0,-0.0,-1.0,0.09838902761999238,1.0,0
55.719173431396484,17.086606979370117,-2.3107798099517822,-0.0,-0.0,-1.0,0.14861344134593438,1.0,0
57.231109619140625,15.976173400878906,-2.3700199127197266,-0.0,-0.0,-1.0,0.10295865786073866,1.0,0
55.96887969970703,16.338871002197266,-2.2452502250671387,-0.0,-0.0,-1.0,0.14715124194650778,1.0,0
57.477630615234375,16.186498641967773,-2.410676956176758,-0.0,-0.0,-1.0,0.07539159044732717,1.0,0
55.910762786865234,16.422592163085938,-1.882083535194397,0.850261883199335,0.4707755049896348,-0.23542547415280785,0.100314811653534,3.0,0
56.09986877441406,16.375171661376953,-1.8984609842300415,-0.0,-0.0,-1.0,0.13835422980144965,1.0,0
55.90217208862305,16.516368865966797,-1.8878191709518433,-0.0,-0.0,-1.0,0.1287643920997827,2.0,0
55.59856414794922,17.095911026000977,-1.8979383707046509,-0.0,-0.0,-1.0,0.0683411255879851,1.0,0
56.40526580810547,15.659448623657227,-2.375697374343872,-0.0,-0.0,-1.0,0.1379901018010163,1.0,0
56.75993347167969,15.883657455444336,-2.4396908283233643,-0.0,-0.0,-1.0,0.0501038234086546,1.0,0
55.81820297241211,16.340404510498047,-2.3472108840942383,-0.0,-0.0,-1.0,0.1255231911964517,1.0,0
56.10741424560547,16.287464141845703,-2.3819260597229004,-0.0,-0.0,-1.0,0.19282268770496858,1.0,0
56.36133575439453,16.18208885192871,-2.408071994781494,-0.0,-0.0,-1.0,0.06321879117039075,1.0,0
56.91739273071289,16.10173988342285,-2.4768385887145996,-0.0,-0.0,-1.0,0.05607430255032946,1.0,0
56.77812957763672,16.7076416015625,-2.5035886764526367,-0.0,-0.0,-1.0,0.015910072556409523,1.0,0
55.67375946044922,17.049123764038086,-2.383126974105835,-0.0,-0.0,-1.0,0.12878630140426198,2.0,0
56.22825622558594,16.953344345092773,-2.4493017196655273,-0.0,-0.0,-1.0,0.04505080338616122,1.0,0
56.71746063232422,17.012210845947266,-2.519049882888794,-0.0,-0.0,-1.0,0.03161720471126778,1.0,0
56.79655456542969,16.943532943725586,-2.5242550373077393,-0.0,-0.0,-1.0,0.015727534615017403,1.0,0
56.721099853515625,17.523706436157227,-2.5599424839019775,-0.0,-0.0,-1.0,0.0669288772547772,2.0,0
55.68221664428711,18.09076690673828,-2.4696450233459473,-0.0,-0.0,-1.0,0.06330971684726015,2.0,0
56.779441833496094,17.63645362854004,-2.576737642288208,-0.0,-0.0,-1.0,0.08246701392327274,1.0,0
56.85222625732422,18.03411865234375,-2.6187479496002197,-0.0,-0.0,-1.0,0.06226381248860461,2.0,0
56.95303726196289,18.13610076904297,-2.6404688358306885,-0.0,-0.0,-1.0,0.06799046166292802,1.0,0
56.02991485595703,16.606319427490234,-1.5269110202789307,-0.0,-0.0,-1.0,0.14468751474891936,1.0,0
56.687522888183594,16.013935089111328,-2.4418578147888184,-0.0,-0.0,-1.0,0.04976478287160571,1.0,0
56.874176025390625,15.977713584899902,-2.4650678634643555,-0.0,-0.0,-1.0,0.05408020496262975,2.0,0
55.87016296386719,16.338031768798828,-2.353675365447998,-0.0,-0.0,-1.0,0.17416725239952346,2.0,0
56.291053771972656,16.2913761138916,-2.4082632064819336,-0.0,-0.0,-1.0,0.05639722412990508,1.0,0
56.43177032470703,16.202550888061523,-2.4208486080169678,-0.0,-0.0,-1.0,0.06234368224588686,2.0,0
57.048744201660156,16.24648094177246,-2.509881019592285,-0.0,-0.0,-1.0,0.0698081242955513,1.0,0
56.77819061279297,16.832965850830078,-2.518465042114258,-0.0,-0.0,-1.0,0.015963723600777587,2.0,0
55.62686538696289,17.077728271484375,-2.3800690174102783,-0.0,-0.0,-1.0,0.13117532513723645,2.0,0
56.73759460449219,17.22271728515625,-2.5444226264953613,-0.0,-0.0,-1.0,0.017696696654724044,1.0,0
56.886863708496094,17.593870162963867,-2.5955495834350586,-0.0,-0.0,-1.0,0.06697244700803512,1.0,0
56.82969284057617,18.02423095703125,-2.6240499019622803,-0.0,-0.0,-1.0,0.062263812488604624,2.0,0
57.70412826538086,17.962539672851562,-2.738168716430664,-0.0,-0.0,-1.0,0.017011296321223463,1.0,0
57.26213073730469,15.645882606506348,-2.2056684494018555,-0.0,-0.0,-1.0,0.10274162012304376,1.0,0
57.217010498046875,16.102184295654297,-2.227299213409424,-0.0,-0.0,-1.0,0.06661044615279077,2.0,0
57.67865753173828,15.972208023071289,-2.282402515411377,-0.0,-0.0,-1.0,0.0983218957633943,1.0,0
55.76669692993164,16.33077621459961,-2.0446534156799316,0.5269432265595793,0.5362384834985159,0.6593778315944444,0.19152272888539335,3.0,0
56.00361251831055,16.323955535888672,-2.0763158798217773,-0.0,-0.0,-1.0,0.17523601767470387,1.0,0
55.891578674316406,16.454566955566406,-1.8874294757843018,-0.0,-0.0,-1.0,0.09652147541503357,2.0,0
55.84130859375,16.26704978942871,-2.06240177154541,-0.0,-0.0,-1.0,0.16055949082313795,1.0,0
57.33807373046875,15.962974548339844,-2.2811708450317383,-0.0,-0.0,-1.0,0.10618879345647766,2.0,0
55.33270263671875,15.709449768066406,-2.420351982116699,-0.0,-0.0,-1.0,0.09187679131632498,1.0,0
55.52809143066406,16.073450088500977,-2.479306221008301,-0.0,-0.0,-1.0,0.05988773721917665,1.0,0
55.58791732788086,16.50485610961914,-2.5197885036468506,-0.0,-0.0,-1.0,0.05029073442536233,2.0,0
55.53052520751953,17.280847549438477,-2.5673892498016357,-0.0,-0.0,-1.0,0.10381105683667644,1.0,0
55.36981964111328,17.751434326171875,-2.577158212661743,-0.0,-0.0,-1.0,0.05948152817732734,2.0,0
55.44364929199219,17.436145782470703,-2.5644984245300293,-0.0,-0.0,-1.0,0.0669351062320348,1.0,0
55.69133758544922,17.236406326293945,-2.5919268131256104,-0.0,-0.0,-1.0,0.09551540667403031,1.0,0
55.36073303222656,17.987354278564453,-2.5951056480407715,-0.0,-0.0,-1.0,0.04670994168851743,1.0,0
55.966148376464844,16.345190048217773,-1.8472061157226562,0.7719327662507091,0.5634498334598685,-0.2943536810752912,0.10211442005735383,3.0,0
56.229957580566406,16.298376083374023,-1.8826918601989746,-0.0,-0.0,-1.0,0.09492976033969484,1.0,0
55.972984313964844,16.509445190429688,-2.115760087966919,-0.0,-0.0,-1.0,0.17390261934925638,1.0,0
57.15016174316406,15.751923561096191,-2.157778024673462,-0.0,-0.0,-1.0,0.12976664160644572,1.0,0
56.80771255493164,17.90751075744629,-2.4594244956970215,-0.0,-0.0,-1.0,0.06624828980136434,1.0,0
57.05949020385742,17.63821792602539,-2.452808380126953,-0.0,-0.0,-1.0,0.037409817611814125,1.0,0
55.66228485107422,17.309412002563477,-2.338742733001709,-0.0,-0.0,-1.0,0.18077734231776976,2.0,0
56.18876647949219,16.674644470214844,-2.318930149078369,-0.0,-0.0,-1.0,0.10392035826222133,1.0,0
55.905517578125,16.734691619873047,-2.3062543869018555,-0.0,-0.0,-1.0,0.1734533074587581,1.0,0
56.0799560546875,16.11188507080078,-2.2287731170654297,-0.0,-0.0,-1.0,0.17076871795224297,1.0,0
55.84122848510742,16.390275955200195,-2.2576208114624023,-0.0,-0.0,-1.0,0.11480052142637047,1.0,0
55.78795623779297,16.77691078186035,-2.305677890777588,-0.0,-0.0,-1.0,0.16260493899064446,1.0,0
56.15008544921875,16.175155639648438,-2.2420871257781982,-0.0,-0.0,-1.0,0.14124045432215462,1.0,0
55.51168441772461,15.705748558044434,-2.162370443344116,-0.0,-0.0,-1.0,0.13260053661571417,1.0,0
55.83394241333008,16.554784774780273,-1.6198866367340088,-0.0,-0.0,-1.0,0.156160763959734,1.0,0
55.61052703857422,17.150842666625977,-2.627002239227295,-0.0,-0.0,-1.0,0.14853490196491392,1.0,0
55.47614288330078,16.692352294921875,-2.568542957305908,-0.0,-0.0,-1.0,0.0541425456524817,1.0,0
55.581878662109375,16.982027053833008,-2.606873035430908,-0.0,-0.0,-1.0,0.10056789047584545,1.0,0
56.031986236572266,16.30629539489746,-2.139583110809326,-0.0,-0.0,-1.0,0.2070084825269735,1.0,0
55.80546569824219,16.311771392822266,-2.124976634979248,0.7221847771436438,0.6860456738377578,-0.08826370188522008,0.20870974738163792,3.0,0
55.94971466064453,16.371660232543945,-1.8396339416503906,0.8532181685824011,0.5205755945450449,0.031934419753089006,0.10211442005735373,3.0,0
55.845664978027344,16.297794342041016,-2.3495469093322754,-0.0,-0.0,-1.0,0.14606077689468885,2.0,0
56.113990783691406,16.35019302368164,-2.081490993499756,-0.0,-0.0,-1.0,0.13944555551127574,1.0,0
55.928653717041016,16.406761169433594,-1.849125623703003,0.8584551139810146,0.4471492618768447,-0.251221724543951,0.10073670655156654,3.0,0
56.51311492919922,17.568111419677734,-2.6338272094726562,-0.0,-0.0,-1.0,0.03231331442875102,1.0,0
56.050010681152344,15.980774879455566,-2.4681715965270996,-0.0,-0.0,-1.0,0.0525329119163907,1.0,0
56.029109954833984,17.33460235595703,-2.5650949478149414,-0.0,-0.0,-1.0,0.018177079450087237,1.0,0
55.67406463623047,16.405227661132812,-2.458622455596924,-0.0,-0.0,-1.0,0.08004576124871875,1.0,0
55.65850067138672,16.85031509399414,-2.4896860122680664,0.43640939180892097,0.8911456443249443,0.12412205018306673,0.14202597547611856,3.0,0
55.73120880126953,17.149219512939453,-2.5196738243103027,-0.0,-0.0,-1.0,0.24890533252099561,1.0,0
55.21152877807617,15.70819091796875,-2.3596014976501465,-0.0,-0.0,-1.0,0.09077228289174646,1.0,0
55.49311065673828,17.43023681640625,-2.5159316062927246,-0.0,-0.0,-1.0,0.0686429048794681,2.0,0
55.332794189453125,17.668928146362305,-2.5175156593322754,-0.0,-0.0,-1.0,0.06334737302170068,2.0,0
55.405113220214844,18.02765464782715,-2.5531373023986816,-0.0,-0.0,-1.0,0.047633927659646885,1.0,0
55.89476776123047,17.277284622192383,-2.572976589202881,0.5270950646149154,0.8199134001641641,-0.22341174787785228,0.05564371489180968,4.0,0
55.50347900390625,15.797033309936523,-2.4216268062591553,-0.0,-0.0,-1.0,0.09187679131632498,1.0,0
55.632259368896484,16.301851272583008,-2.4716639518737793,-0.0,-0.0,-1.0,0.08491369722254379,1.0,0
55.758819580078125,17.033863067626953,-2.539684534072876,0.6284767862004466,0.7753624366332097,0.061887163979051606,0.22878535153755072,3.0,0
55.21623611450195,15.853018760681152,-2.394172430038452,-0.0,-0.0,-1.0,0.0828436373567765,1.0,0
55.392982482910156,17.449722290039062,-2.5322580337524414,-0.0,-0.0,-1.0,0.05912966496835921,1.0,0
55.3812370300293,17.77611541748047,-2.5567924976348877,-0.0,-0.0,-1.0,0.05423489751318965,2.0,0
56.86265563964844,16.92229461669922,-2.505241870880127,-0.0,-0.0,-1.0,0.01248160144594898,2.0,0
56.829978942871094,17.25955581665039,-2.5119805335998535,-0.0,-0.0,-1.0,0.02553736062957481,1.0,0
56.77131652832031,17.519248962402344,-2.513875961303711,-0.0,-0.0,-1.0,0.06673899395843683,2.0,0
56.653541564941406,16.127296447753906,-2.45928692817688,-0.0,-0.0,-1.0,0.038044131291452045,1.0,0
56.5531120300293,15.842421531677246,-2.440779685974121,-0.0,-0.0,-1.0,0.09834475753422628,1.0,0
56.232879638671875,16.68277931213379,-2.4262423515319824,-0.0,-0.0,-1.0,0.08047083129905279,1.0,0
56.085792541503906,16.176490783691406,-2.395465612411499,-0.0,-0.0,-1.0,0.17971903075054227,1.0,0
55.67240905761719,16.995811462402344,-2.3717002868652344,-0.0,-0.0,-1.0,0.1656780993552405,1.0,0
55.41745376586914,16.90949249267578,-2.5395145416259766,-0.0,-0.0,-1.0,0.07924255350597241,1.0,0
57.042503356933594,15.845208168029785,-2.30684232711792,-0.0,-0.0,-1.0,0.10630510007913366,1.0,0
55.830963134765625,16.403383255004883,-2.168883800506592,-0.0,-0.0,-1.0,0.173537139534067,1.0,0
56.795166015625,17.54222869873047,-2.5137064456939697,-0.0,-0.0,-1.0,0.058844592477036564,2.0,0
56.73838806152344,17.427946090698242,-2.508821487426758,-0.0,-0.0,-1.0,0.0609420305145274,2.0,0
55.62181091308594,15.981328010559082,-2.448795795440674,-0.0,-0.0,-1.0,0.07475346420977753,1.0,0
55.80992126464844,15.77039909362793,-2.4513700008392334,-0.0,-0.0,-1.0,0.09939802394022065,1.0,0
55.733436584472656,17.055923461914062,-2.5583019256591797,0.0877834516462164,-0.5916865453446426,-0.8013745052565616,0.20776312876684447,4.0,0
55.86224365234375,16.445472717285156,-2.068272590637207,-0.0,-0.0,-1.0,0.19638137742225922,1.0,0
55.96508026123047,16.398954391479492,-2.269442558288574,-0.5670447019942954,0.7610531103611462,-0.31505312115550593,0.24637916847107735,3.0,0
56.524269104003906,15.774474143981934,-2.2975220680236816,-0.0,-0.0,-1.0,0.09487175183640564,1.0,0
55.64339065551758,17.182228088378906,-2.267519474029541,-0.0,-0.0,-1.0,0.11652406566814837,1.0,0
57.09037780761719,16.112625122070312,-2.357865810394287,-0.0,-0.0,-1.0,0.06604398332822595,1.0,0
57.29045867919922,16.41759490966797,-2.3853111267089844,-0.0,-0.0,-1.0,0.05467643718943483,1.0,0
57.557151794433594,16.870290756225586,-2.4234838485717773,-0.0,-0.0,-1.0,0.038895461279428396,1.0,0
57.28223419189453,15.740930557250977,-2.2472963333129883,-0.0,-0.0,-1.0,0.12943234888483954,1.0,0
55.96752166748047,16.510482788085938,-1.8411891460418701,-0.0,-0.0,-1.0,0.16706582233280104,1.0,0
56.12481689453125,16.701736450195312,-1.6405221223831177,-0.0,-0.0,-1.0,0.14468751474891942,1.0,0
55.786956787109375,16.634191513061523,-2.3256492614746094,-0.0,-0.0,-1.0,0.13613093022117698,1.0,0
56.437538146972656,15.997928619384766,-2.3797378540039062,-0.0,-0.0,-1.0,0.07801344405107116,1.0,0
56.75254821777344,15.759965896606445,-2.4077486991882324,-0.0,-0.0,-1.0,0.06032361132939644,1.0,0
56.84589767456055,15.656062126159668,-2.4154887199401855,-0.0,-0.0,-1.0,0.05618642825326868,1.0,0
55.668182373046875,17.346878051757812,-2.329148292541504,-0.0,-0.0,-1.0,0.14182478258218523,2.0,0
56.69953536987305,15.872964859008789,-2.40437650680542,-0.0,-0.0,-1.0,0.06291941387157796,1.0,0
57.03062438964844,16.332237243652344,-2.447293758392334,-0.0,-0.0,-1.0,0.04329527746483261,1.0,0
57.707889556884766,16.760225296020508,-2.5254898071289062,-0.0,-0.0,-1.0,0.04527853314384471,1.0,0
55.715110778808594,16.328954696655273,-2.3851141929626465,-0.0,-0.0,-1.0,0.13610204240050003,1.0,0
55.92041015625,16.308570861816406,-2.406344413757324,-0.0,-0.0,-1.0,0.1725981192188474,1.0,0
56.0054931640625,16.657459259033203,-2.4319405555725098,-0.0,-0.0,-1.0,0.07629637477138541,1.0,0
56.21355438232422,16.341720581054688,-2.439591407775879,-0.0,-0.0,-1.0,0.07339599973610401,1.0,0
56.66075897216797,17.475006103515625,-2.5412330627441406,-0.0,-0.0,-1.0,0.055368973507962924,1.0,0
56.67463684082031,17.241052627563477,-2.5316972732543945,-0.0,-0.0,-1.0,0.026384618446667788,1.0,0
55.69175720214844,17.132099151611328,-2.3822531700134277,-0.0,-0.0,-1.0,0.1264529351130028,1.0,0
55.46742630004883,16.843822479248047,-2.440370559692383,-0.0,-0.0,-1.0,0.09921339207993021,1.0,0
55.734779357910156,16.938404083251953,-2.468223810195923,-0.12065362270456746,0.941934435245061,-0.31337233928321034,0.22270457693664072,3.0,0
55.7531852722168,16.92768669128418,-2.5075247287750244,-0.0,-0.0,-1.0,0.17896908834487482,2.0,0
55.48365020751953,17.909299850463867,-2.5608527660369873,-0.0,-0.0,-1.0,0.06798141238105153,1.0,0
55.31609344482422,17.71330451965332,-2.518446445465088,-0.0,-0.0,-1.0,0.059481528177327346,2.0,0
57.06328201293945,16.170848846435547,-2.409527540206909,-0.0,-0.0,-1.0,0.06518757191929422,1.0,0
56.415260314941406,15.781274795532227,-2.3442132472991943,-0.0,-0.0,-1.0,0.11462904551615798,1.0,0
55.708255767822266,17.81926727294922,-2.4312186241149902,-0.0,-0.0,-1.0,0.0514856699096745,1.0,0
55.34082794189453,15.904370307922363,-2.350283622741699,-0.0,-0.0,-1.0,0.07766943296030611,1.0,0
56.719688415527344,17.443241119384766,-2.5331592559814453,-0.0,-0.0,-1.0,0.06094203051452741,2.0,0
57.00992202758789,17.717090606689453,-2.5714454650878906,-0.0,-0.0,-1.0,0.04505222345893422,1.0,0
56.37908935546875,17.293922424316406,-2.5387914180755615,-0.0,-0.0,-1.0,0.02146527028733209,1.0,0
56.43142318725586,17.28337860107422,-2.5447657108306885,-0.0,-0.0,-1.0,0.03896879636006167,2.0,0
56.58143615722656,17.581117630004883,-2.568303346633911,-0.0,-0.0,-1.0,0.04434544773398217,2.0,0
55.69941711425781,16.29786491394043,-2.4405734539031982,0.8641797628734222,0.4947278312004814,-0.09185701103183916,0.09720713412473707,3.0,0
55.58477020263672,18.027008056640625,-2.460003614425659,-0.35201166566019115,-0.8943149711021045,-0.2762037648218789,0.0679814123810515,3.0,0
55.60588836669922,18.029701232910156,-2.495638132095337,-0.35201166566019115,-0.8943149711021045,-0.2762037648218789,0.0679814123810515,3.0,0
56.37507247924805,17.243072509765625,-2.5702431201934814,-0.0,-0.0,-1.0,0.025413991825523816,2.0,0
56.331295013427734,17.009170532226562,-2.5599052906036377,-0.0,-0.0,-1.0,0.02046915284040387,1.0,0
56.545467376708984,17.533422470092773,-2.597153902053833,-0.0,-0.0,-1.0,0.03942109619185681,2.0,0
55.890628814697266,16.19549560546875,-2.3562142848968506,-0.0,-0.0,-1.0,0.212554035681223,1.0,0
56.838104248046875,16.81311798095703,-2.473764657974243,-0.0,-0.0,-1.0,0.009935510823448311,1.0,0
56.9398078918457,17.271146774291992,-2.491971731185913,-0.0,-0.0,-1.0,0.02269133676677962,1.0,0
56.89942932128906,17.116947174072266,-2.4850828647613525,-0.0,-0.0,-1.0,0.01978331695108528,1.0,0
56.39762496948242,15.941827774047852,-2.4581055641174316,-0.0,-0.0,-1.0,0.06429868493807014,1.0,0
56.92716979980469,17.158700942993164,-2.510364055633545,-0.0,-0.0,-1.0,0.02025617607763811,1.0,0
56.282127380371094,16.146469116210938,-2.4339165687561035,-0.0,-0.0,-1.0,0.049978727972616044,1.0,0
56.40292739868164,16.361370086669922,-2.4475245475769043,-0.0,-0.0,-1.0,0.02179895926666397,1.0,0
56.437286376953125,15.770662307739258,-2.4991536140441895,-0.0,-0.0,-1.0,0.1313120224719736,1.0,0
57.15587615966797,16.87665557861328,-2.5627989768981934,-0.0,-0.0,-1.0,0.01745356819057959,1.0,0
56.94344711303711,17.06766128540039,-2.5169119834899902,-0.0,-0.0,-1.0,0.01719389894875229,1.0,0
57.067283630371094,15.738790512084961,-2.3459949493408203,-0.0,-0.0,-1.0,0.09094800306381853,2.0,0
57.648719787597656,15.962310791015625,-2.427027702331543,-0.0,-0.0,-1.0,0.10658994472763396,2.0,0
56.28587341308594,15.865714073181152,-2.483041286468506,-0.0,-0.0,-1.0,0.08062291277132339,1.0,0
55.92860412597656,16.193153381347656,-2.3944554328918457,-0.0,-0.0,-1.0,0.15712061340074793,1.0,0
56.336753845214844,16.049560546875,-2.481590747833252,-0.0,-0.0,-1.0,0.049027060773792874,1.0,0
56.76499938964844,16.554410934448242,-2.5337700843811035,-0.0,-0.0,-1.0,0.011000264114354138,2.0,0
55.66253662109375,16.871620178222656,-2.303802967071533,-0.0,-0.0,-1.0,0.14738405984637976,1.0,0
56.84917449951172,16.835451126098633,-2.53358793258667,-0.0,-0.0,-1.0,0.00993551082344831,1.0,0
56.334835052490234,15.712593078613281,-2.439512252807617,-0.0,-0.0,-1.0,0.1050719911867854,1.0,0
56.44769287109375,16.078271865844727,-2.456571578979492,-0.0,-0.0,-1.0,0.05265282941540233,1.0,0
56.27676010131836,16.402280807495117,-2.420344352722168,-0.0,-0.0,-1.0,0.04912500236911071,1.0,0
56.75528335571289,16.829008102416992,-2.507880210876465,-0.0,-0.0,-1.0,0.014860504951680726,2.0,0
56.73410415649414,17.268024444580078,-2.500748634338379,-0.0,-0.0,-1.0,0.018240873673737355,1.0,0
56.87944793701172,17.559473037719727,-2.526874542236328,-0.0,-0.0,-1.0,0.0603679884629995,1.0,0
55.862552642822266,15.99252700805664,-2.3456363677978516,-0.0,-0.0,-1.0,0.11754522841224652,1.0,0
55.77536392211914,16.70818519592285,-2.5842461585998535,-0.0,-0.0,-1.0,0.07846294453172592,1.0,0
55.68875503540039,16.436573028564453,-2.5377230644226074,-0.0,-0.0,-1.0,0.054494751694020176,1.0,0
55.861270904541016,16.905681610107422,-2.622209072113037,-0.0,-0.0,-1.0,0.07133555089770367,1.0,0
55.73944854736328,15.920635223388672,-2.4872403144836426,-0.0,-0.0,-1.0,0.09221476107144069,1.0,0
