x,y,z,nx,ny,nz,curvature,density,label
39.987125396728516,0.4892244338989258,-1.0785794258117676,-0.0,-0.0,-1.0,0.006129144474401015,2.0,0
40.13874053955078,0.2714548110961914,-1.0848188400268555,-0.0,-0.0,-1.0,0.01144962006976716,1.0,0
37.79690933227539,-1.6663475036621094,-0.841517448425293,-0.0,-0.0,-1.0,0.1861295141670606,2.0,0
37.86455535888672,-1.823319435119629,-0.847750186920166,0.6388376587419557,0.5417231093761904,-0.5462806225200456,0.09480210716343195,3.0,0
38.84646224975586,0.5036230087280273,-0.5927034616470337,-0.0,-0.0,-1.0,0.1739292796130086,1.0,0
38.412086486816406,-1.6646785736083984,-0.7906529903411865,-0.07452600982795103,-0.6106511188205409,-0.7883851120755294,0.19272904041147612,7.0,0
38.66571807861328,-1.7532854080200195,-0.7769925594329834,-0.0,-0.0,-1.0,0.14396165563159982,2.0,0
39.495513916015625,0.5241298675537109,-1.074847936630249,-0.0,-0.0,-1.0,0.01023478734195426,1.0,0
39.78868103027344,0.2065439224243164,-1.0739717483520508,-0.0,-0.0,-1.0,0.007355272743712384,1.0,0
39.8939208984375,0.008975028991699219,-1.082500696182251,-0.0,-0.0,-1.0,0.01603358774982377,2.0,0
39.96616744995117,0.00756072998046875,-1.0749316215515137,-0.0,-0.0,-1.0,0.023980154305615255,2.0,0
40.11576843261719,-0.12168312072753906,-1.0723929405212402,0.06614815336727473,-0.9803321570000998,-0.1859389248049775,0.029164652286102336,3.0,0
38.733123779296875,0.5000333786010742,-0.5614022016525269,-0.0,-0.0,-1.0,0.12862731500338412,1.0,0
38.78106689453125,0.3831939697265625,-0.5652635097503662,-0.0,-0.0,-1.0,0.18498279714611351,2.0,0
38.23628234863281,-1.7976865768432617,-0.7705569267272949,0.8120269151382274,0.40751945304152626,-0.4177800671212417,0.13765066208773544,5.0,0
38.12042999267578,-1.8264493942260742,-0.7823612689971924,-0.3662967671586105,-0.2904258555999527,-0.8840132921897644,0.14528737865972732,6.0,0
38.4595947265625,-1.788924217224121,-0.7514417171478271,0.6231205279835373,-0.24400224246381993,-0.7430906494352792,0.10499116696217121,3.0,0
39.690406799316406,0.4424428939819336,-1.0551214218139648,-0.0,-0.0,-1.0,0.006497328424701751,2.0,0
39.98448944091797,0.1431283950805664,-1.0592894554138184,-0.0,-0.0,-1.0,0.014599570333999615,1.0,0
38.7657470703125,0.5717191696166992,-0.5491764545440674,-0.0,-0.0,-1.0,0.1353938901240574,1.0,0
38.331058502197266,-1.6508722305297852,-0.7721917629241943,0.044953614329073806,0.609539266073728,-0.7914802939259157,0.14761426638754113,5.0,0
38.00604248046875,-1.8103370666503906,-0.8107082843780518,0.4024128269069781,-0.05774488266029166,-0.9136352911678071,0.11996318665095469,5.0,0
38.61025619506836,-1.7345952987670898,-0.7588467597961426,-0.0,-0.0,-1.0,0.1136377364220831,1.0,0
39.96257019042969,0.5057535171508789,-1.0952473878860474,-0.0,-0.0,-1.0,0.006425745283540169,2.0,0
38.43157196044922,-0.47069358825683594,-0.7720447778701782,-0.0,-0.0,-1.0,0.11938771041933147,1.0,0
37.981407165527344,-0.7463893890380859,-0.8350602388381958,-0.0,-0.0,-1.0,0.19984396894659281,2.0,0
37.7318000793457,-0.905970573425293,-0.870684027671814,-0.0,-0.0,-1.0,0.09589756251650328,1.0,0
40.141143798828125,0.3927459716796875,-1.09091055393219,0.014628222006463859,0.48893396289074575,-0.8721981397898534,0.011077706568886445,3.0,0
37.99441146850586,-1.2606353759765625,-0.8831835985183716,-0.0,-0.0,-1.0,0.08296473237071578,1.0,0
38.326133728027344,-1.4876155853271484,-0.8789957761764526,-0.0,-0.0,-1.0,0.03450997592968996,1.0,0
38.13822937011719,-1.377267837524414,-0.8829768896102905,0.12327441803333392,-0.6625358507602187,-0.7388163941846283,0.10121507760693875,4.0,0
38.57372283935547,-1.7655839920043945,-0.8874233961105347,-0.0,-0.0,-1.0,0.10425210866110292,1.0,0
38.809417724609375,0.4914541244506836,-0.6502482891082764,0.5620415963885431,0.29438630428671114,-0.7729462774199961,0.12265608182504496,5.0,0
38.867244720458984,0.2830972671508789,-0.6648842096328735,-0.0,-0.0,-1.0,0.18205556049620378,1.0,0
39.12575149536133,0.5184535980224609,-1.0281020402908325,-0.0,-0.0,-1.0,0.0850887236141212,1.0,0
39.392765045166016,0.22370433807373047,-1.0278037786483765,-0.0,-0.0,-1.0,0.020661920478067836,2.0,0
39.78081512451172,-0.2171459197998047,-1.0316029787063599,-0.0,-0.0,-1.0,0.014467998753902034,1.0,0
39.5689582824707,-0.13620567321777344,-1.0462290048599243,-0.0,-0.0,-1.0,0.042523070325084136,1.0,0
39.96419906616211,-0.4187355041503906,-1.0340036153793335,-0.0,-0.0,-1.0,0.020544984463997957,2.0,0
38.283058166503906,-1.813685417175293,-0.7460588216781616,0.7917018341348666,0.3656153616251826,-0.4894217130156511,0.17889910277988869,5.0,0
38.118324279785156,-1.8111467361450195,-0.7600904703140259,-0.3662967671586105,-0.2904258555999527,-0.8840132921897644,0.13703770414492916,6.0,0
38.41178894042969,0.5565118789672852,-0.5491743087768555,-0.0,-0.0,-1.0,0.1416465213953893,1.0,0
38.46072769165039,0.27504825592041016,-0.565588116645813,-0.01791958564781651,-0.23026152202775715,-0.9729637814038462,0.09808689474982303,5.0,0
39.330299377441406,0.6207752227783203,-0.9899659156799316,-0.0,-0.0,-1.0,0.0497416733227959,1.0,0
39.397403717041016,0.33615970611572266,-1.0124692916870117,-0.0,-0.0,-1.0,0.0159747760891367,2.0,0
39.695430755615234,-0.016776084899902344,-1.0164363384246826,-0.0,-0.0,-1.0,0.02735629110363061,1.0,0
40.04965591430664,-0.5602474212646484,-1.038262128829956,-0.0,-0.0,-1.0,0.017670995310809606,1.0,0
39.9366340637207,-0.40742015838623047,-1.0332071781158447,-0.5871382913595009,-0.5388167686966123,-0.6041068751394798,0.01915244005307631,4.0,0
37.824459075927734,-1.6086664199829102,-0.7951252460479736,-0.0,-0.0,-1.0,0.16111925931618723,1.0,0
38.46347427368164,0.61749267578125,-0.5572049617767334,-0.0,-0.0,-1.0,0.123808783837997,1.0,0
38.90686798095703,0.1716747283935547,-0.5487804412841797,-0.0,-0.0,-1.0,0.20058449399025224,2.0,0
38.66606521606445,0.37101078033447266,-0.5563849210739136,-0.0,-0.0,-1.0,0.1047647434110166,1.0,0
39.01582336425781,0.03249835968017578,-0.5496654510498047,-0.0,-0.0,-1.0,0.21499679266678384,1.0,0
38.13106918334961,0.07270145416259766,-0.9574886560440063,-0.0,-0.0,-1.0,0.19007821212727175,1.0,0
37.874488830566406,0.15472412109375,-0.9768484830856323,-0.0,-0.0,-1.0,0.2760816357451073,1.0,0
39.25716781616211,-0.8108930587768555,-0.937958836555481,-0.0,-0.0,-1.0,0.019436859785203917,1.0,0
39.043968200683594,-0.8368358612060547,-0.9612823724746704,-0.0,-0.0,-1.0,0.02707120543352151,2.0,0
39.59340286254883,-1.2723627090454102,-0.9588474035263062,-0.0,-0.0,-1.0,0.029983080278677257,2.0,0
39.352699279785156,-1.1507854461669922,-0.9671598672866821,-0.0,-0.0,-1.0,0.024186511144991797,1.0,0
39.964324951171875,-1.807220458984375,-0.9884623289108276,-0.0,-0.0,-1.0,0.09043705359628239,2.0,0
39.71284484863281,-1.6188039779663086,-0.9882713556289673,0.352940296181086,0.12655454684864953,-0.9270475144260626,0.021855765850673104,3.0,0
39.10528564453125,0.4972200393676758,-0.8114479780197144,-0.0,-0.0,-1.0,0.11261738986099908,1.0,0
38.71430969238281,0.4814291000366211,-0.8538438081741333,-0.0,-0.0,-1.0,0.25947188618411665,1.0,0
39.380516052246094,-0.04773998260498047,-0.8419214487075806,-0.0,-0.0,-1.0,0.03731979213514773,1.0,0
39.20773696899414,0.14360809326171875,-0.8384593725204468,-0.0,-0.0,-1.0,0.059256219869937635,1.0,0
39.41134262084961,-0.6728305816650391,-0.9078558683395386,-0.0,-0.0,-1.0,0.05305435469261462,1.0,0
38.38996505737305,-1.6746788024902344,-0.7304375171661377,-0.0,-0.0,-1.0,0.1205745731409638,1.0,0
38.2601203918457,-1.688375473022461,-0.7338340282440186,0.5966709920093127,0.5228347150807663,-0.6087919086198798,0.17153278480347037,3.0,0
37.967838287353516,-1.8253211975097656,-0.7545475959777832,-0.0,-0.0,-1.0,0.1398280477726265,2.0,0
37.75657272338867,-0.5809288024902344,-0.6077290773391724,-0.0,-0.0,-1.0,0.10927961176051376,2.0,0
37.790714263916016,-1.657266616821289,-0.7370057106018066,-0.0,-0.0,-1.0,0.2084205555952189,1.0,0
40.175559997558594,-1.271688461303711,-1.0042343139648438,-0.0,-0.0,-1.0,0.0668457000898371,1.0,0
39.9144172668457,-0.4134063720703125,-0.9923326969146729,-0.0,-0.0,-1.0,0.020219192381291013,2.0,0
37.731258392333984,-1.2889328002929688,-0.8319774866104126,-0.0,-0.0,-1.0,0.04549631870820342,2.0,0
37.89898681640625,-1.2940864562988281,-0.7920284271240234,-0.0,-0.0,-1.0,0.06447964271673248,1.0,0
39.97235870361328,-1.5344123840332031,-1.02567720413208,-0.0,-0.0,-1.0,0.0377428999275917,1.0,0
39.73782730102539,-1.8311824798583984,-1.0027027130126953,-0.0,-0.0,-1.0,0.08715526587850186,1.0,0
40.059478759765625,-1.4406099319458008,-1.0344231128692627,-0.0,-0.0,-1.0,0.0314460919343144,1.0,0
38.09901428222656,0.46685123443603516,-0.8052568435668945,-0.5098823557536302,0.19935191242639383,-0.8368266238015306,0.1898959000378678,4.0,0
37.97088623046875,0.3262643814086914,-0.7921562194824219,0.4651343067841879,0.6915539070621016,0.5526330340103959,0.16456373439277805,5.0,0
37.92823028564453,-0.38631439208984375,-0.7930939197540283,-0.0,-0.0,-1.0,0.17715598220918335,2.0,0
37.837646484375,-0.4180583953857422,-0.7834992408752441,-0.0,-0.0,-1.0,0.1658568978407001,2.0,0
38.435577392578125,-0.20130538940429688,-0.8470416069030762,-0.0,-0.0,-1.0,0.09838022950445857,2.0,0
38.331260681152344,-1.5803556442260742,-0.8479292392730713,-0.0,-0.0,-1.0,0.10544187770088956,1.0,0
38.10030746459961,-1.8050317764282227,-0.8253800868988037,-0.0,-0.0,-1.0,0.04691861859127555,2.0,0
40.13377380371094,-1.6151714324951172,-0.9927160739898682,0.36437774478883156,0.7299969000958061,-0.5782156906839515,0.1257657628632651,3.0,0
40.058555603027344,-1.7147941589355469,-0.9861037731170654,-0.0,-0.0,-1.0,0.06003845141209728,2.0,0
38.04508972167969,0.3145637512207031,-0.7501571178436279,0.047761277720166466,0.321038076307335,-0.9458612022445061,0.10433990155019403,4.0,0
37.91914749145508,-0.44524097442626953,-0.7461898326873779,-0.0,-0.0,-1.0,0.14734261588581266,1.0,0
38.154884338378906,-1.8146963119506836,-0.7897498607635498,-0.35141387603980434,-0.2921695830671249,-0.889463446386114,0.09467008761311384,5.0,0
38.438499450683594,-0.3684663772583008,-0.7995989322662354,-0.0,-0.0,-1.0,0.1712143337789832,2.0,0
37.863399505615234,-1.1786127090454102,-0.8613271713256836,-0.0,-0.0,-1.0,0.04278832857969657,2.0,0
37.83750534057617,-1.3000469207763672,-0.8593606948852539,-0.0,-0.0,-1.0,0.05785807730959514,2.0,0
37.77723693847656,0.34537315368652344,-0.8426015377044678,0.5465098604758734,-0.7827645155548256,-0.2976687514517788,0.08617309380542328,5.0,0
37.85620880126953,-0.16213417053222656,-0.8539626598358154,-0.0,-0.0,-1.0,0.22517463141893893,1.0,0
38.0856819152832,-0.6350479125976562,-0.8829967975616455,-0.0,-0.0,-1.0,0.1768883629688278,1.0,0
38.172367095947266,-0.964869499206543,-0.895045280456543,-0.0,-0.0,-1.0,0.04861194518742876,1.0,0
38.39875793457031,-1.1152868270874023,-0.9219708442687988,-0.0,-0.0,-1.0,0.03869553194584462,2.0,0
38.09965515136719,0.5839376449584961,-0.8795828819274902,0.9632435107174415,-0.26468031628313954,0.04589410891384057,0.1635051173930016,3.0,0
37.95048522949219,0.4559345245361328,-0.8624491691589355,0.8055681436512435,-0.374310318337498,-0.45929484160000156,0.12545516580068009,5.0,0
38.40667724609375,-0.9346075057983398,-0.92171311378479,-0.0,-0.0,-1.0,0.07996666741139857,1.0,0
38.8762092590332,-1.7743473052978516,-0.916094183921814,-0.0,-0.0,-1.0,0.03492982105724612,1.0,0
39.32331466674805,-1.3111419677734375,-0.9794133901596069,-0.0,-0.0,-1.0,0.04020339993071598,1.0,0
39.076194763183594,-1.5282258987426758,-0.9448941946029663,-0.0,-0.0,-1.0,0.11984546983119554,1.0,0
39.359649658203125,-1.2343177795410156,-0.985226035118103,-0.0,-0.0,-1.0,0.026351258521330963,2.0,0
38.30065155029297,-1.6225357055664062,-0.8461917638778687,0.910981726639651,-0.3442944373181263,-0.2270982918483426,0.11551923426516124,3.0,0
37.7672233581543,0.203033447265625,-0.8072823286056519,0.9189916111748532,-0.13509066298095257,-0.370411840207105,0.07516552500376349,6.0,0
37.82097625732422,-0.08183479309082031,-0.8093706369400024,0.6473333288770559,-0.32176964782676315,-0.6909586493144076,0.19560197591800121,3.0,0
37.836402893066406,-0.4486351013183594,-0.8054343461990356,-0.0,-0.0,-1.0,0.21782888755879923,2.0,0
38.533607482910156,-1.451857566833496,-0.8778578042984009,-0.0,-0.0,-1.0,0.06384893973145683,1.0,0
38.00567626953125,0.406524658203125,-0.8410574197769165,0.12584265999233474,-0.9726188773815735,0.1953871651031908,0.11247715239420632,5.0,0
38.13736343383789,0.31725311279296875,-0.5875802040100098,0.8814680667178826,-0.44196756412821037,-0.16636922676749688,0.22886206135823015,9.0,0
39.275882720947266,-1.836130142211914,-0.900708794593811,-0.0,-0.0,-1.0,0.08842512389225815,2.0,0
39.64463806152344,-1.6431922912597656,-0.9417809247970581,-0.0,-0.0,-1.0,0.02140463685673269,1.0,0
38.07428741455078,-1.8474788665771484,-0.7582724094390869,0.5612628295934889,-0.827602072347274,-0.007671112253566205,0.10367963329819412,3.0,0
38.25250244140625,-1.7248401641845703,-0.776448130607605,0.49311699822482186,0.7251290074445328,-0.48064909094291214,0.17923012451283918,6.0,0
38.342960357666016,-1.7125577926635742,-0.7868770360946655,-0.0890490587874317,0.05431566196906755,-0.9945451593537289,0.17186095716749947,4.0,0
37.83892059326172,-0.5663309097290039,-0.7036300897598267,-0.3225599388972935,-0.23579140111171926,-0.9167101510184923,0.18788560700829632,6.0,0
38.3963623046875,-0.5504283905029297,-0.7710943222045898,-0.0,-0.0,-1.0,0.12464690086732226,2.0,0
38.38962936401367,-0.39043140411376953,-0.767693281173706,-0.6845230494244705,0.5351312946090434,-0.49503807160325847,0.15976763778425324,3.0,0
38.017433166503906,0.20245075225830078,-0.7129229307174683,-0.3824601746203154,0.1509041508712437,-0.9115657694753719,0.18209858979738913,8.0,0
38.21091079711914,0.47637081146240234,-0.7334043979644775,0.4921996806854367,0.47887583969082903,-0.7269232452560295,0.134158276773841,4.0,0
38.332069396972656,-1.7487783432006836,-0.791502833366394,-0.051414814053634024,-0.11518639976456506,-0.9920124042596989,0.10409317630756086,4.0,0
39.872230529785156,-1.821578025817871,-0.9779225587844849,-0.0,-0.0,-1.0,0.0869815130121317,1.0,0
40.07506561279297,-1.6286869049072266,-0.996322751045227,-0.3637499766316313,0.4079335956799799,-0.8374223164067757,0.06824326539470651,3.0,0
40.16844177246094,-1.493438720703125,-1.0035287141799927,-0.3152734628167046,0.40219954263979857,-0.8595569623613671,0.09845436164639154,3.0,0
38.31245803833008,-0.5556573867797852,-0.7450064420700073,0.43954737288585394,0.33554546620276227,-0.8331910627820697,0.13128818837898937,3.0,0
37.99241256713867,0.2622518539428711,-0.6793303489685059,0.4846012056553841,0.8565585512416445,0.17739537697517274,0.16015592204494267,6.0,0
38.1046028137207,0.43923187255859375,-0.6881866455078125,0.23522190171151175,-0.9717268878193253,0.020433121254188176,0.13847356317719178,7.0,0
38.17583465576172,0.6196823120117188,-0.6920739412307739,-0.8807368086588473,-0.38548011736869875,0.2751504188382117,0.14912279228083014,8.0,0
38.272857666015625,-0.09685420989990234,-0.6086897850036621,-0.0,-0.0,-1.0,0.188814659548193,1.0,0
38.081703186035156,0.2991065979003906,-0.572242259979248,-0.7231039568777282,0.10028779232889,-0.683420095005678,0.24961732243203014,10.0,0
38.163108825683594,0.4730558395385742,-0.5780469179153442,0.15264574290385383,-0.8470777017837328,0.5090762657147944,0.20396107275382366,8.0,0
38.23145294189453,-1.713068962097168,-0.8395516872406006,0.672521281438802,-0.6811661559054398,-0.28935755400700663,0.10275562329260064,5.0,0
38.742984771728516,-1.8129692077636719,-0.9131302833557129,-0.0,-0.0,-1.0,0.08059415349206794,2.0,0
39.11653137207031,-1.68402099609375,-0.9549305438995361,-0.0,-0.0,-1.0,0.11285495788101699,2.0,0
39.52642822265625,-1.3978700637817383,-0.993488073348999,-0.0,-0.0,-1.0,0.017636166872372048,1.0,0
37.79707336425781,-0.5648727416992188,-0.7072758674621582,0.5431026855422723,-0.6660488980995017,-0.5112908548929964,0.18323641241388164,6.0,0
37.880859375,-0.5094442367553711,-0.7149801254272461,-0.00673503132348996,0.07054929277112812,-0.9974855571097581,0.2805151088606736,4.0,0
38.36387252807617,-0.4795198440551758,-0.7787089347839355,-0.26377175306975287,0.25974867200952345,-0.9289537607824183,0.15266813457797804,3.0,0
37.86506652832031,0.06580352783203125,-0.6775033473968506,-0.0,-0.0,-1.0,0.18423256346514005,1.0,0
38.02653503417969,0.20714759826660156,-0.6914966106414795,0.7783363782197685,-0.620987157640609,-0.09256042558875079,0.15950523661252597,11.0,0
38.149192810058594,0.4380197525024414,-0.6955852508544922,-0.6687242442732367,-0.693895281922148,0.26705284654422057,0.13061501703594555,7.0,0
37.911705017089844,-1.5304489135742188,-0.8626440763473511,-0.0,-0.0,-1.0,0.07445449325507644,2.0,0
38.16196060180664,-1.4411191940307617,-0.8872867822647095,0.1346413742538873,-0.42953969474416653,-0.8929542826920719,0.08452453274123423,3.0,0
38.7968635559082,-1.4145030975341797,-0.9689935445785522,-0.0,-0.0,-1.0,0.03062462138035493,1.0,0
38.92346954345703,-1.323974609375,-0.9787591695785522,-0.0,-0.0,-1.0,0.022860698655340447,1.0,0
37.761817932128906,-0.6110954284667969,-0.7653859853744507,0.9595288490194626,-0.23464042440345523,-0.15571852534349248,0.2529156792120828,9.0,0
37.82472229003906,-0.5760650634765625,-0.7708052396774292,0.4650173935534129,-0.8833378224438299,-0.05893314121089374,0.2347839922253461,6.0,0
38.324851989746094,-0.49848461151123047,-0.8317919969558716,-0.0,-0.0,-1.0,0.1724430498110074,2.0,0
40.207210540771484,-0.2885322570800781,-1.0844331979751587,-0.0,-0.0,-1.0,0.031636633839156963,1.0,0
38.081024169921875,0.32427215576171875,-0.7343417406082153,0.6930969651913996,0.42674027411968,-0.58095553641112,0.1786908506968072,5.0,0
37.891056060791016,-0.7406520843505859,-0.8944684267044067,-0.0,-0.0,-1.0,0.12979250173887166,1.0,0
37.8824462890625,-0.43388843536376953,-0.8605078458786011,0.5006302121016221,0.7661515790980853,-0.4029654434025277,0.2714835097384371,4.0,0
37.8231201171875,-0.14118480682373047,-0.8214555978775024,-0.0,-0.0,-1.0,0.18748672467098174,2.0,0
39.68325424194336,0.27911853790283203,-1.0569952726364136,-0.0,-0.0,-1.0,0.006666501660920433,1.0,0
39.80229187011719,0.42297840118408203,-1.0633338689804077,-0.0,-0.0,-1.0,0.004729093711623207,2.0,0
40.10443115234375,0.5540924072265625,-1.1009615659713745,-0.0,-0.0,-1.0,0.011110765739589926,2.0,0
37.7597541809082,0.10362052917480469,-0.787157416343689,0.32559710601468206,0.576155413427113,-0.7496875776838617,0.19529323644954688,5.0,0
37.80488967895508,0.2679166793823242,-0.7765580415725708,0.9231780177073359,0.2178618504954904,-0.3166679044687587,0.14713283246869624,7.0,0
38.065391540527344,0.3966827392578125,-0.8010104894638062,0.9046774048402173,-0.1265744680432815,-0.40686324141058733,0.24709311064345713,5.0,0
37.85504150390625,-1.2927131652832031,-0.8688709735870361,-0.0,-0.0,-1.0,0.05866946258555438,2.0,0
38.385623931884766,-1.076761245727539,-0.911353349685669,-0.0,-0.0,-1.0,0.07145451910409119,2.0,0
38.62496566772461,-1.03466796875,-0.9383969306945801,-0.0,-0.0,-1.0,0.03389372099602721,2.0,0
39.93226623535156,-0.3639822006225586,-1.0538568496704102,-0.0,-0.0,-1.0,0.022514614097095473,2.0,0
39.85014343261719,-0.2671175003051758,-1.0315959453582764,-0.0,-0.0,-1.0,0.015745525378921977,1.0,0
40.117496490478516,-0.12418651580810547,-1.058579444885254,0.06614815336727473,-0.9803321570000998,-0.1859389248049775,0.029164652286102377,3.0,0
37.8732795715332,-0.5940141677856445,-0.7881202697753906,-0.0,-0.0,-1.0,0.2012226885982941,1.0,0
37.763458251953125,0.10271739959716797,-0.6928657293319702,0.9216306128875027,0.08094537900677728,0.3795324215479562,0.23305253992715888,3.0,0
38.03710174560547,0.24216079711914062,-0.7142844200134277,0.23896062715877003,-0.005397473409158475,-0.971014256305583,0.14553335902740738,8.0,0
38.20968246459961,0.5408716201782227,-0.7055075168609619,-0.9878343188935219,-0.1496973208376296,-0.042119716881847256,0.16002289190125865,7.0,0
37.99001693725586,-1.8341007232666016,-0.7996351718902588,0.794283392196399,-0.4920780027651724,-0.3563328950232075,0.11996318665095468,4.0,0
38.22698974609375,-1.7156858444213867,-0.8078303337097168,0.6902374806408474,-0.37707842803235275,-0.6175630165669128,0.1537481008462899,6.0,0
39.27671813964844,-1.8148870468139648,-0.9341385364532471,-0.0,-0.0,-1.0,0.05538691874015636,2.0,0
40.20379638671875,-1.463949203491211,-1.0026977062225342,-0.3152734628167046,0.40219954263979857,-0.8595569623613671,0.09476082136415839,3.0,0
37.71259689331055,0.29404449462890625,-0.8783745765686035,0.16387125966181362,0.1750008714427442,-0.9708351586397821,0.0804212072031846,4.0,0
38.027183532714844,0.43898773193359375,-0.8964297771453857,-0.0,-0.0,-1.0,0.12806408911373174,1.0,0
39.43312072753906,0.5471773147583008,-1.0835890769958496,-0.0,-0.0,-1.0,0.03518950718532826,1.0,0
39.62745666503906,0.6147222518920898,-1.1045315265655518,-0.0,-0.0,-1.0,0.009164491872819565,1.0,0
38.28740692138672,-0.038870811462402344,-0.5988134145736694,-0.0,-0.0,-1.0,0.21010503058264188,1.0,0
38.21554946899414,0.41409873962402344,-0.5342473983764648,0.2632244605491248,-0.5533822104203789,0.7902411103953509,0.1504102956645701,3.0,0
38.48811721801758,0.5110931396484375,-0.5549483299255371,-0.0,-0.0,-1.0,0.0872752128967068,1.0,0
38.44120788574219,-1.814314842224121,-0.7585227489471436,0.5632527614500704,-0.0078103931959983795,-0.8262477379557501,0.10398890021337169,4.0,0
37.8005485534668,-0.3200035095214844,-0.8850812911987305,-0.0,-0.0,-1.0,0.14301704065996357,2.0,0
37.7797737121582,0.04458427429199219,-0.8216359615325928,0.5407827138203362,0.028815383730326913,-0.840668620856986,0.12523134790271243,4.0,0
39.59927749633789,-0.016198158264160156,-1.066185712814331,-0.0,-0.0,-1.0,0.0380447071533502,2.0,0
39.32582473754883,0.2055673599243164,-0.9935822486877441,-0.0,-0.0,-1.0,0.025903604403955484,2.0,0
39.544429779052734,0.11451435089111328,-1.0386052131652832,-0.0,-0.0,-1.0,0.022018617618677683,2.0,0
39.95009994506836,0.095123291015625,-1.1010634899139404,-0.0,-0.0,-1.0,0.016847075485329488,1.0,0
37.82088851928711,0.13051223754882812,-0.812035322189331,0.46632363208161226,0.8577448125952324,0.2163702997829942,0.07928159569329621,3.0,0
38.00044631958008,0.2936086654663086,-0.8062512874603271,-0.6914724159963018,-0.27520915104111165,-0.6679265087563656,0.14804483056700532,4.0,0
38.19198989868164,0.4294872283935547,-0.8074567317962646,-0.0,-0.0,-1.0,0.19353077230370838,1.0,0
39.73524475097656,-0.032187461853027344,-1.0756274461746216,-0.0,-0.0,-1.0,0.013392847482469671,1.0,0
39.86845779418945,-0.02652263641357422,-1.091701865196228,-0.0,-0.0,-1.0,0.009935858543994711,2.0,0
39.328643798828125,0.16353797912597656,-0.9903742074966431,-0.0,-0.0,-1.0,0.025903604403955387,2.0,0
39.609371185302734,0.04542827606201172,-1.0460749864578247,-0.0,-0.0,-1.0,0.02379710138068509,2.0,0
40.058162689208984,0.09931373596191406,-1.0950502157211304,-0.0,-0.0,-1.0,0.014300970400861446,1.0,0
38.04500961303711,-1.835214614868164,-0.7981768846511841,0.17734922696191704,-0.20687012902502516,-0.9621600705772299,0.0947830789715149,3.0,0
38.25675582885742,-1.7464780807495117,-0.8004180192947388,0.4512402174694281,0.793076943586488,-0.4091591715819873,0.12491552769699589,5.0,0
38.465728759765625,-1.7315378189086914,-0.8146392107009888,-0.0,-0.0,-1.0,0.14400058405720448,1.0,0
37.7360954284668,0.08288192749023438,-0.8352524042129517,0.34283426683147483,0.1718646938411705,-0.9235405743642265,0.16535639364280344,4.0,0
37.97447967529297,0.23254680633544922,-0.8290911912918091,-0.0,-0.0,-1.0,0.14077299279158415,2.0,0
37.863670349121094,0.2884330749511719,-0.8079158067703247,0.6843811990843867,-0.0668102125092942,0.7260570017872425,0.11197818813471376,5.0,0
38.13037872314453,0.3634223937988281,-0.8200818300247192,-0.23900603961184202,0.5315997199043077,-0.8125748278323196,0.2754615087158244,4.0,0
38.436676025390625,-1.4502668380737305,-0.9270000457763672,-0.0,-0.0,-1.0,0.04233451797353771,1.0,0
37.73930740356445,-1.3212060928344727,-0.8577239513397217,-0.4105436929540492,0.5038856389074015,-0.759969169821073,0.0431667513530203,3.0,0
38.178199768066406,-1.3667211532592773,-0.8936910629272461,-0.27058478628041543,-0.6969452563737779,-0.6641168444269961,0.08010126214799551,4.0,0
38.35149383544922,-1.3545618057250977,-0.9032547473907471,-0.0,-0.0,-1.0,0.046645054019520245,1.0,0
39.45399475097656,-1.3550615310668945,-0.9923732280731201,-0.0,-0.0,-1.0,0.024675592350304518,2.0,0
39.67295455932617,-1.2570228576660156,-0.9953618049621582,-0.0,-0.0,-1.0,0.028253298115066675,1.0,0
39.987178802490234,-1.2335128784179688,-1.0220072269439697,0.41503885450107103,0.9067287232440887,-0.07473802043527461,0.020089215703530484,3.0,0
39.88233184814453,-1.1934757232666016,-1.004474401473999,-0.0,-0.0,-1.0,0.025728125768482015,1.0,0
40.18940734863281,-1.1052093505859375,-1.0206758975982666,-0.0,-0.0,-1.0,0.04070292204959166,2.0,0
37.91451644897461,0.38880252838134766,-0.8920643329620361,0.6938855769904269,0.6885522640713083,-0.2107571723262052,0.18307174747415159,3.0,0
38.15843963623047,0.47458553314208984,-0.8932712078094482,-0.0,-0.0,-1.0,0.2288273882182668,2.0,0
39.171852111816406,0.3083982467651367,-1.029200553894043,-0.0,-0.0,-1.0,0.035000838279446604,2.0,0
39.5356330871582,0.31928157806396484,-1.0689094066619873,-0.0,-0.0,-1.0,0.012124440762438158,1.0,0
39.76264953613281,0.40256786346435547,-1.0792768001556396,-0.0,-0.0,-1.0,0.004549781554686698,2.0,0
39.95579528808594,0.4365577697753906,-1.0971155166625977,-0.7215282750982673,-0.5798040114045483,-0.3784498072306461,0.0057263132746736296,3.0,0
37.755252838134766,-0.5893039703369141,-0.7214014530181885,0.23204680897005217,0.5239626098879123,-0.8195227037039691,0.14458772253994695,6.0,0
38.08448791503906,0.3341045379638672,-0.571976900100708,0.9532909264381028,0.1066606862773959,-0.28259495319913047,0.20057673155664443,9.0,0
38.27808380126953,0.5424966812133789,-0.5487046241760254,-0.0,-0.0,-1.0,0.19178631728666873,1.0,0
38.682518005371094,0.45069313049316406,-0.5990796089172363,-0.0,-0.0,-1.0,0.07665242942285393,1.0,0
38.58641815185547,0.5838842391967773,-0.5666718482971191,-0.0,-0.0,-1.0,0.10328384435267865,1.0,0
37.722415924072266,-1.4767961502075195,-0.8548291921615601,-0.0,-0.0,-1.0,0.11078427281461846,1.0,0
38.17925262451172,-1.4747543334960938,-0.8684998750686646,-0.0,-0.0,-1.0,0.05608997593592546,2.0,0
38.53910446166992,-1.658125877380371,-0.9176305532455444,-0.0,-0.0,-1.0,0.11841418139982668,2.0,0
39.025733947753906,-1.7189950942993164,-0.9509066343307495,-0.0,-0.0,-1.0,0.07337987307237921,2.0,0
39.33307647705078,-1.6757926940917969,-0.9582160711288452,-0.0,-0.0,-1.0,0.022715555054680443,1.0,0
39.50145721435547,-1.6729965209960938,-0.966891884803772,-0.0,-0.0,-1.0,0.01580205098618592,2.0,0
39.84513473510742,-1.6485939025878906,-0.9826406240463257,-0.0,-0.0,-1.0,0.021385860162751524,1.0,0
40.205345153808594,-1.6010026931762695,-0.996829628944397,-0.0,-0.0,-1.0,0.16140251721425244,1.0,0
37.757843017578125,0.32092857360839844,-0.8347424268722534,0.1449486263635603,-0.989385045470727,0.010350242229262556,0.09739790390763466,7.0,0
37.981868743896484,0.40294837951660156,-0.8245762586593628,0.38843466785743386,-0.9037768633422665,0.17973839348814544,0.13137913187085332,5.0,0
39.27606201171875,0.028717041015625,-0.9831396341323853,-0.0,-0.0,-1.0,0.03622568336804151,1.0,0
39.59558868408203,-0.2035083770751953,-1.0585530996322632,-0.0,-0.0,-1.0,0.029773387938128577,1.0,0
39.858924865722656,-0.17310047149658203,-1.0724903345108032,-0.0,-0.0,-1.0,0.011306876735842422,1.0,0
38.98835754394531,0.3267021179199219,-0.8964470624923706,-0.0,-0.0,-1.0,0.14941338534289025,2.0,0
39.157691955566406,0.18138694763183594,-0.9405947923660278,-0.0,-0.0,-1.0,0.044397844116417264,2.0,0
40.09977722167969,-0.1210479736328125,-1.0814305543899536,0.06614815336727473,-0.9803321570000998,-0.1859389248049775,0.02959150313108344,3.0,0
37.75859451293945,-0.5509500503540039,-0.6746927499771118,0.4063643565051126,-0.2028795924550995,-0.8909028458409134,0.15213322918180414,3.0,0
38.17668914794922,0.28306102752685547,-0.526626706123352,0.45452527010119015,0.2643174982259533,-0.8506133310564871,0.14037814739884624,4.0,0
38.35777282714844,0.23440933227539062,-0.5436168909072876,-0.0,-0.0,-1.0,0.11209615688514846,1.0,0
37.75554275512695,-1.8008098602294922,-0.8421964645385742,-0.5183023078947427,0.6150966717818088,-0.5941538538071814,0.19851972567813672,3.0,0
38.04041290283203,-1.7266864776611328,-0.8306772708892822,-0.0,-0.0,-1.0,0.1276450847696958,2.0,0
38.29478454589844,-1.6547966003417969,-0.820817232131958,0.9547846368939997,-0.1772807693651296,-0.2386583875846418,0.14628222487517384,7.0,0
37.73287582397461,-0.24199390411376953,-0.8739101886749268,-0.0,-0.0,-1.0,0.18271228656302257,1.0,0
37.83837890625,0.23027324676513672,-0.7656629085540771,0.5513522195280092,0.5981968486325651,-0.5815249438395617,0.1875482972526699,5.0,0
39.16266632080078,-0.6388778686523438,-1.0071702003479004,-0.0,-0.0,-1.0,0.03242697585836811,1.0,0
39.26298522949219,-0.6937284469604492,-1.0242626667022705,-0.0,-0.0,-1.0,0.016458861390814365,2.0,0
37.89969253540039,0.4661712646484375,-0.8678488731384277,0.5500361692733541,-0.7886806274202129,-0.2746690379768967,0.10277994350887497,3.0,0
39.52885055541992,-0.6241912841796875,-1.0220935344696045,-0.0,-0.0,-1.0,0.053799455782160416,2.0,0
38.84444808959961,0.40006446838378906,-0.7561519145965576,-0.0,-0.0,-1.0,0.10085207957685541,2.0,0
39.81194305419922,-0.4791698455810547,-1.005279302597046,-0.0,-0.0,-1.0,0.020088952103864563,2.0,0
40.10499572753906,-0.49193763732910156,-1.0269079208374023,-0.0,-0.0,-1.0,0.03526425056276989,2.0,0
39.024452209472656,0.5879411697387695,-1.0413789749145508,-0.0,-0.0,-1.0,0.13096369420361778,1.0,0
39.32384490966797,0.5141563415527344,-1.0791261196136475,-0.0,-0.0,-1.0,0.05414979195298452,1.0,0
39.595375061035156,0.5112466812133789,-1.0982892513275146,-0.0,-0.0,-1.0,0.009018916283424307,2.0,0
39.872676849365234,0.5570344924926758,-1.1079390048980713,-0.0,-0.0,-1.0,0.004261532244266755,1.0,0
40.124881744384766,0.5843896865844727,-1.121854305267334,-0.0,-0.0,-1.0,0.010658063394960811,2.0,0
38.0325813293457,0.4011268615722656,-0.7296934127807617,0.6286681277910828,0.768308531045298,-0.12032616599339961,0.1485139758836787,3.0,0
38.10641860961914,0.42725467681884766,-0.7253358364105225,0.20973466192648219,0.8151981461996335,-0.5398734611177559,0.12571526974512448,7.0,0
38.756752014160156,0.6049652099609375,-0.7056320905685425,-0.0,-0.0,-1.0,0.15900036142146,2.0,0
38.008827209472656,-1.7862882614135742,-0.8107924461364746,-0.0,-0.0,-1.0,0.11928153009444761,2.0,0
38.5034294128418,-1.6922168731689453,-0.8027698993682861,0.655454557276462,-0.6944368996440674,0.2968782844167841,0.17572354277225619,3.0,0
37.73634338378906,-0.2502470016479492,-0.8209900856018066,-0.0,-0.0,-1.0,0.1677073383039834,1.0,0
37.80042266845703,-0.5381317138671875,-0.890275239944458,-0.0,-0.0,-1.0,0.14030292479006728,1.0,0
37.93732452392578,0.5327892303466797,-0.9380202293395996,0.6290106417451929,0.7202316732868308,0.29259519709959786,0.13126658592460072,4.0,0
39.10971450805664,-0.7028617858886719,-0.9707701206207275,-0.0,-0.0,-1.0,0.027390486619362452,1.0,0
39.292789459228516,-0.8140954971313477,-1.0058999061584473,-0.0,-0.0,-1.0,0.022766260546687244,1.0,0
39.62966537475586,-0.7317714691162109,-1.0055863857269287,-0.0,-0.0,-1.0,0.05022918307666695,1.0,0
39.71166229248047,-0.7590465545654297,-1.0166945457458496,-0.0,-0.0,-1.0,0.01935646246080822,1.0,0
39.031982421875,0.4617147445678711,-1.0022556781768799,-0.0,-0.0,-1.0,0.14287889205917423,1.0,0
39.36204528808594,0.3112459182739258,-1.0635960102081299,-0.0,-0.0,-1.0,0.011111172929825682,1.0,0
39.59617614746094,0.2266216278076172,-1.1025421619415283,-0.0,-0.0,-1.0,0.010360878132866656,1.0,0
39.83708190917969,-0.5706319808959961,-0.9812846183776855,-0.0,-0.0,-1.0,0.02178536605120298,2.0,0
40.09345626831055,-0.6838216781616211,-1.0247724056243896,-0.0,-0.0,-1.0,0.024747383875174077,1.0,0
39.81639862060547,0.2806243896484375,-1.1055235862731934,-0.0,-0.0,-1.0,0.00504414705012673,1.0,0
40.13591003417969,0.3513517379760742,-1.1142029762268066,-0.7731635424193498,0.38243848428240534,-0.5059238504096629,0.010887042326887699,3.0,0
38.30347442626953,-1.675948143005371,-0.794672966003418,0.7515632563356738,-0.00104193513124135,-0.6596602050277858,0.15054016853857793,4.0,0
37.88631820678711,0.18500804901123047,-0.7205550670623779,0.6319247492497199,-0.02406162835975655,-0.7746561490921994,0.10715591086411055,5.0,0
38.09620666503906,0.42162227630615234,-0.6691559553146362,0.809403624816886,-0.21548861170907885,0.5462878640030175,0.19918126671246844,5.0,0
38.77851486206055,0.47860240936279297,-0.6794905662536621,0.10202708522704293,0.7404342666171569,-0.6643399511539155,0.10942164862640609,5.0,0
37.880184173583984,-1.1626405715942383,-0.8930245637893677,-0.0,-0.0,-1.0,0.04872884142008275,2.0,0
38.065032958984375,-1.2275819778442383,-0.9090515375137329,-0.0,-0.0,-1.0,0.06237693295592295,1.0,0
37.7827262878418,0.33261871337890625,-0.827797532081604,0.4485175975505318,-0.2655465095448735,-0.8534149143037246,0.10452133053706855,5.0,0
38.71501541137695,-1.3682231903076172,-0.9510821104049683,-0.0,-0.0,-1.0,0.040470575268915364,1.0,0
38.08171844482422,0.4215421676635742,-0.8050640821456909,0.8587640854439857,-0.40867293679489974,-0.30904801614471944,0.22289611475572108,5.0,0
39.009708404541016,-1.4513263702392578,-0.9780341386795044,-0.0,-0.0,-1.0,0.05772891559763973,2.0,0
39.2469367980957,-1.4540023803710938,-0.985927939414978,-0.0,-0.0,-1.0,0.04084366501920979,2.0,0
39.500999450683594,-1.4411869049072266,-0.9925600290298462,-0.026913358041574464,0.1211288990230846,-0.9922718684818094,0.02961472060734907,3.0,0
38.90280532836914,0.39882707595825195,-0.8315235376358032,-0.0,-0.0,-1.0,0.10918726870346648,1.0,0
39.09380340576172,0.14775753021240234,-0.9068554639816284,-0.0,-0.0,-1.0,0.0635513301145246,2.0,0
39.42573928833008,-0.3195314407348633,-1.047829270362854,-0.0,-0.0,-1.0,0.03454868677771452,1.0,0
39.959312438964844,-1.4032745361328125,-1.0045911073684692,-0.0,-0.0,-1.0,0.025461835379396162,1.0,0
39.6789665222168,-0.2907543182373047,-1.0539950132369995,-0.0,-0.0,-1.0,0.01353383085682342,1.0,0
39.88164138793945,-0.31847190856933594,-1.0739673376083374,-0.0,-0.0,-1.0,0.01834343500443283,1.0,0
40.20516586303711,-1.4040584564208984,-1.0177332162857056,-0.0,-0.0,-1.0,0.08609178796697281,1.0,0
37.79890060424805,-1.6533870697021484,-0.6539404392242432,-0.0,-0.0,-1.0,0.2030377660911349,1.0,0
37.80509948730469,-0.4351348876953125,-0.7217427492141724,-0.0,-0.0,-1.0,0.12775186204575542,2.0,0
38.212928771972656,0.5139293670654297,-0.6382452249526978,-0.9068865632192943,-0.42022731368033117,-0.03107678054930712,0.13115324575394946,5.0,0
38.35400390625,0.3036313056945801,-0.5524643659591675,-0.0,-0.0,-1.0,0.09087251518502311,2.0,0
38.42133331298828,0.29797935485839844,-0.5549565553665161,-0.5056957555564446,-0.5066854143534145,-0.6982418590242965,0.13762432854925152,4.0,0
37.85824203491211,-1.7308659553527832,-0.8214612007141113,-0.0,-0.0,-1.0,0.13308909322006596,2.0,0
37.7753791809082,-0.05986213684082031,-0.7033286094665527,-0.0,-0.0,-1.0,0.1726607131256249,1.0,0
37.88886260986328,-0.5666661262512207,-0.8474464416503906,-0.0,-0.0,-1.0,0.17814925081013824,1.0,0
37.96202850341797,-0.6963629722595215,-0.8869674205780029,0.544616353530017,-0.5463262678486882,-0.6363337461789926,0.22121823799111498,3.0,0
38.253719329833984,-1.6505751609802246,-0.8259921073913574,0.38509176757003877,-0.20718779552084843,-0.8993206035319075,0.09464351062645804,6.0,0
38.49787521362305,-1.7071118354797363,-0.8555161952972412,-0.0,-0.0,-1.0,0.13879380234268016,1.0,0
38.717037200927734,-1.7983670234680176,-0.8929359912872314,-0.0,-0.0,-1.0,0.12008301456191368,2.0,0
39.002323150634766,-0.3820781707763672,-0.881948709487915,-0.0,-0.0,-1.0,0.047347743288086996,1.0,0
39.165916442871094,-1.6265435218811035,-0.8893277645111084,-0.0,-0.0,-1.0,0.12392041884358333,1.0,0
39.05838394165039,-1.743584156036377,-0.9074606895446777,-0.0,-0.0,-1.0,0.1616873036843628,1.0,0
39.28077697753906,-0.6558394432067871,-0.9829962253570557,-0.0,-0.0,-1.0,0.016066672218454647,2.0,0
39.46684646606445,-1.657975673675537,-0.924109935760498,-0.0,-0.0,-1.0,0.015823080172106478,2.0,0
39.66091537475586,-0.5139288902282715,-0.9865736961364746,-0.0,-0.0,-1.0,0.05837612112833913,2.0,0
39.87944030761719,-1.4802985191345215,-0.9243786334991455,-0.0,-0.0,-1.0,0.039402424083040295,1.0,0
39.849876403808594,-1.5743889808654785,-0.9428825378417969,-0.0,-0.0,-1.0,0.029170610226662428,1.0,0
40.05459976196289,-0.42513275146484375,-1.0110974311828613,-0.0,-0.0,-1.0,0.04006789740841025,1.0,0
38.059505462646484,0.3283834457397461,-0.6143913269042969,0.8482949179774248,0.5085036218254473,-0.1477152623261255,0.24008745787238833,9.0,0
38.004547119140625,0.1250782012939453,-0.6661860942840576,0.49813899699089237,0.8664615389985373,-0.033195498387487275,0.1489840216869324,5.0,0
38.173255920410156,0.49483776092529297,-0.5767351388931274,0.5295884253293617,0.24020393904829257,-0.8135343676961971,0.23943635723894233,8.0,0
38.719669342041016,0.538029670715332,-0.6083501577377319,0.947170423034295,0.19409050836708802,0.255337158069169,0.14395655169104798,3.0,0
37.748050689697266,-1.5293192863464355,-0.8643234968185425,-0.0,-0.0,-1.0,0.08930372466575814,2.0,0
38.120792388916016,-1.538306713104248,-0.8904670476913452,-0.0,-0.0,-1.0,0.028710520448994355,2.0,0
38.54704284667969,-1.5432567596435547,-0.9247514009475708,-0.0,-0.0,-1.0,0.0853136870367021,1.0,0
38.612693786621094,-1.57672119140625,-0.9395991563796997,-0.0,-0.0,-1.0,0.07097408574708641,1.0,0
38.95317459106445,-1.5839195251464844,-0.9728797674179077,-0.0,-0.0,-1.0,0.061333705964009534,2.0,0
39.472312927246094,-1.453427791595459,-0.9932762384414673,-0.0,-0.0,-1.0,0.0297996593119487,2.0,0
39.346065521240234,-1.515070915222168,-0.9955319166183472,-0.0,-0.0,-1.0,0.03007001284013243,1.0,0
39.74333953857422,-1.3729629516601562,-1.0048149824142456,-0.0,-0.0,-1.0,0.03582473700384465,1.0,0
39.55867385864258,-1.4553251266479492,-1.003879189491272,-0.08038807372514424,0.9680057868946415,-0.23770265909586785,0.019361508534590788,3.0,0
40.1243782043457,-1.2832932472229004,-1.0314658880233765,-0.0,-0.0,-1.0,0.06926982853203476,1.0,0
38.24327087402344,-0.1354084014892578,-0.5202500820159912,-0.0,-0.0,-1.0,0.13563673210786786,2.0,0
37.74467086791992,-1.763270378112793,-0.6499923467636108,-0.0,-0.0,-1.0,0.18684140733434748,1.0,0
38.429176330566406,0.26946210861206055,-0.8836698532104492,-0.0,-0.0,-1.0,0.190612906173732,2.0,0
38.239044189453125,0.2973031997680664,-0.8611178398132324,-0.0,-0.0,-1.0,0.08896844015318739,1.0,0
37.7373046875,0.33368968963623047,-0.7969833612442017,0.5281474312782094,-0.6748811756879372,0.5153597670912,0.1292722556904193,3.0,0
38.39616775512695,0.19488811492919922,-0.8674710988998413,-0.0,-0.0,-1.0,0.20055845087752674,1.0,0
37.8116455078125,0.22908830642700195,-0.7906461954116821,0.4147911615655652,0.05898805712906508,-0.9080025888747384,0.15150597194723472,9.0,0
37.713287353515625,0.16829156875610352,-1.0444540977478027,-0.0,-0.0,-1.0,0.10499553622956147,1.0,0
37.7886848449707,-0.1464524269104004,-0.9999508857727051,-0.0,-0.0,-1.0,0.12901685332647203,1.0,0
39.20632553100586,-1.2931723594665527,-1.078721523284912,-0.0,-0.0,-1.0,0.03504086077748182,1.0,0
39.00490951538086,-1.1438989639282227,-1.0606818199157715,-0.0,-0.0,-1.0,0.01952408073000636,1.0,0
38.62049102783203,-1.015444278717041,-1.0056428909301758,-0.0,-0.0,-1.0,0.03498994246378504,1.0,0
38.28383255004883,-0.6890339851379395,-0.9947550296783447,-0.0,-0.0,-1.0,0.08068792786974154,1.0,0
38.046173095703125,-0.5464062690734863,-0.9752187728881836,-0.0,-0.0,-1.0,0.10910943923948786,1.0,0
39.31684494018555,-1.447056770324707,-1.0792841911315918,-0.0,-0.0,-1.0,0.03254171142512978,1.0,0
38.594573974609375,0.33152341842651367,-0.8690357208251953,-0.0,-0.0,-1.0,0.13269071037991337,1.0,0
39.17339324951172,-0.17089080810546875,-0.8848862648010254,-0.0,-0.0,-1.0,0.06715960321216641,1.0,0
38.94556427001953,-0.14181280136108398,-0.8533473014831543,-0.0,-0.0,-1.0,0.0783229995426525,1.0,0
38.51406478881836,-0.08670854568481445,-0.7951327562332153,-0.0,-0.0,-1.0,0.1297218580263604,1.0,0
38.607017517089844,-0.39399242401123047,-0.7650253772735596,-0.0,-0.0,-1.0,0.09948864103035675,1.0,0
37.80879592895508,-0.3803677558898926,-0.9618902206420898,-0.0,-0.0,-1.0,0.14253374069746053,2.0,0
37.7709846496582,-0.35289525985717773,-0.9601466655731201,-0.0,-0.0,-1.0,0.14494572504014097,2.0,0
38.176246643066406,-0.8763437271118164,-0.9440829753875732,-0.0,-0.0,-1.0,0.07053668508060751,2.0,0
37.88997268676758,-0.524329662322998,-0.951308012008667,-0.0,-0.0,-1.0,0.15435292829343517,1.0,0
38.23146438598633,-1.0681977272033691,-0.9234025478363037,-0.0,-0.0,-1.0,0.030575304268952316,1.0,0
40.00564193725586,-1.2423806190490723,-1.027061104774475,-0.0,-0.0,-1.0,0.017145673461336264,2.0,0
39.77928161621094,-0.9040307998657227,-1.0376981496810913,-0.0,-0.0,-1.0,0.025211620370253342,1.0,0
39.496456146240234,-0.6465311050415039,-1.029866099357605,-0.0,-0.0,-1.0,0.05265632291514073,2.0,0
39.129798889160156,-0.5489892959594727,-0.9850884675979614,-0.0,-0.0,-1.0,0.03444082747195191,2.0,0
38.16082000732422,0.49828529357910156,-1.0247849225997925,-0.0,-0.0,-1.0,0.17427207090717894,1.0,0
38.110626220703125,0.6338357925415039,-1.0438884496688843,-0.0,-0.0,-1.0,0.1729152807872801,1.0,0
38.81182098388672,-0.5771875381469727,-0.9288970232009888,-0.0,-0.0,-1.0,0.03927769721170717,1.0,0
38.59175109863281,-0.4693789482116699,-0.9125379323959351,-0.0,-0.0,-1.0,0.08924457189013439,1.0,0
38.25604248046875,-0.3554215431213379,-0.880473256111145,-0.0,-0.0,-1.0,0.15136210060695932,1.0,0
37.943206787109375,0.0017542839050292969,-0.8997019529342651,-0.0,-0.0,-1.0,0.24279147298410972,1.0,0
38.06428146362305,-0.29644203186035156,-0.8622533082962036,-0.0,-0.0,-1.0,0.14142932690263124,1.0,0
37.932838439941406,-0.19346046447753906,-0.8617187738418579,0.17276065800522303,0.1719071720238901,-0.9698462142279836,0.16756373283615447,3.0,0
38.05986022949219,-1.7759861946105957,-0.9043604135513306,-0.0,-0.0,-1.0,0.06570005937087321,2.0,0
37.7767333984375,-1.5178136825561523,-0.8961468935012817,-0.10651836183279423,-0.9005123045146364,-0.4215820537098287,0.07059854058888135,3.0,0
37.97047424316406,-1.7654743194580078,-0.8885573148727417,-0.0,-0.0,-1.0,0.12372639555665456,1.0,0
38.53532409667969,0.4098334312438965,-0.707588791847229,-0.0,-0.0,-1.0,0.24564501306036873,1.0,0
38.79951477050781,-0.09313297271728516,-0.6615421772003174,-0.0,-0.0,-1.0,0.15422615871023773,1.0,0
38.517005920410156,0.09494638442993164,-0.6555659770965576,-0.0,-0.0,-1.0,0.17607270342267728,1.0,0
38.39241027832031,-0.03220033645629883,-0.6201151609420776,-0.0,-0.0,-1.0,0.1755163859630579,1.0,0
38.092918395996094,-0.7703089714050293,-0.7820396423339844,-0.0,-0.0,-1.0,0.15523889295219961,1.0,0
37.97819519042969,-0.7685737609863281,-0.7645455598831177,-0.0,-0.0,-1.0,0.17213201144699206,2.0,0
39.80689239501953,-1.7221307754516602,-0.9962402582168579,-0.0,-0.0,-1.0,0.04602183433677126,1.0,0
39.69374465942383,-1.605405330657959,-0.9937139749526978,0.352940296181086,0.12655454684864953,-0.9270475144260626,0.02086045124657471,3.0,0
39.31105041503906,-1.1291112899780273,-1.0036319494247437,-0.0,-0.0,-1.0,0.025810590319854346,1.0,0
39.14049530029297,-0.992884635925293,-0.9979642629623413,-0.0,-0.0,-1.0,0.02234078068827303,1.0,0
39.672569274902344,-1.7057161331176758,-0.9746044874191284,-0.0,-0.0,-1.0,0.02373836389425143,2.0,0
39.25954055786133,-1.2181968688964844,-0.9797512292861938,-0.434143732618895,-0.6282870066014724,-0.645580867717976,0.024772755777988036,4.0,0
38.994667053222656,-0.9157509803771973,-0.9869571924209595,-0.0,-0.0,-1.0,0.03160815145645044,1.0,0
38.7318115234375,-0.7673473358154297,-0.9702819585800171,-0.0,-0.0,-1.0,0.03209935489331464,2.0,0
38.325130462646484,-0.6740193367004395,-0.9220856428146362,-0.0,-0.0,-1.0,0.13048321771232674,1.0,0
38.927703857421875,0.2054281234741211,-0.8201974630355835,-0.0,-0.0,-1.0,0.205811679207792,1.0,0
38.65508270263672,0.20076227188110352,-0.7860833406448364,-0.0,-0.0,-1.0,0.19396605520932114,1.0,0
38.171592712402344,0.6113052368164062,-0.8066412210464478,0.6811105043713117,-0.5719520589977587,-0.4571206876124534,0.146466727820911,6.0,0
38.37196731567383,0.2219233512878418,-0.7560169696807861,-0.0,-0.0,-1.0,0.12829631956190496,2.0,0
38.11430358886719,0.3933067321777344,-0.7584432363510132,0.2403441565433045,0.6397945090459077,-0.7299984058956521,0.2165377637885196,5.0,0
38.19304656982422,-0.5573296546936035,-0.9238215684890747,-0.0,-0.0,-1.0,0.12758769818244395,1.0,0
37.98120880126953,0.15533971786499023,-0.6977144479751587,-0.11010448872053162,-0.3217394526147888,-0.9404045545374217,0.1271055118712981,9.0,0
38.360023498535156,-0.8051648139953613,-0.9028226137161255,-0.0,-0.0,-1.0,0.0937288232883678,2.0,0
38.02967071533203,-0.637214183807373,-0.8826512098312378,-0.0,-0.0,-1.0,0.21655797200196875,2.0,0
37.85540008544922,-0.42665863037109375,-0.8979119062423706,0.5006302121016221,0.7661515790980853,-0.4029654434025277,0.21742014361016487,4.0,0
38.48461151123047,-1.7304086685180664,-0.7609119415283203,-0.0,-0.0,-1.0,0.11862855259713284,2.0,0
37.756263732910156,-1.6170899868011475,-0.6558047533035278,-0.0,-0.0,-1.0,0.16865732524390725,1.0,0
38.44923400878906,-0.5154037475585938,-0.9733554124832153,-0.0,-0.0,-1.0,0.10764297264289627,1.0,0
37.853492736816406,0.5828237533569336,-1.0125614404678345,-0.0,-0.0,-1.0,0.1932460471943796,2.0,0
38.18594741821289,-0.49982357025146484,-0.9226909875869751,-0.0,-0.0,-1.0,0.12526732421870665,2.0,0
37.946083068847656,-0.24066972732543945,-0.9097658395767212,-0.0,-0.0,-1.0,0.12909911511590091,1.0,0
38.15242004394531,-1.063737392425537,-0.8621841669082642,-0.0,-0.0,-1.0,0.04048135500158121,1.0,0
38.07063674926758,-0.8629529476165771,-0.8652292490005493,-0.0,-0.0,-1.0,0.10654516107980437,1.0,0
38.62675094604492,0.16627883911132812,-0.7306174039840698,0.24812434986501575,-0.9345879739915963,0.2549110156002417,0.1710606333886101,3.0,0
38.24159240722656,0.5374431610107422,-0.715694785118103,-0.20250586634268916,0.5408919088430023,-0.8163499966588906,0.14361105817283484,3.0,0
38.28978729248047,0.07922554016113281,-0.6658531427383423,-0.0,-0.0,-1.0,0.22692124228030383,1.0,0
38.13332748413086,0.24985933303833008,-0.6618515253067017,0.8231506458355912,0.5211496600323068,0.22544632644747334,0.26599458872483644,4.0,0
37.84953689575195,-0.42003440856933594,-0.8666623830795288,0.14150643904761112,-0.9887544232872089,0.04837993528358577,0.2442825781045959,5.0,0
38.22356033325195,-1.4396414756774902,-0.8362761735916138,-0.0,-0.0,-1.0,0.051257726368191384,1.0,0
38.14067077636719,-1.3075330257415771,-0.8328603506088257,-0.0,-0.0,-1.0,0.0807605456236087,1.0,0
38.034767150878906,-0.9125161170959473,-0.850993275642395,-0.0,-0.0,-1.0,0.10042596327992967,1.0,0
37.79144287109375,-0.5465302467346191,-0.8385399580001831,0.7853570374235826,0.6132522016640303,0.08447520892826012,0.23896080134296804,4.0,0
37.95876693725586,-1.6810870170593262,-0.7557190656661987,-0.0,-0.0,-1.0,0.14153770700840307,1.0,0
38.02336120605469,-1.431464433670044,-0.7951022386550903,-0.0,-0.0,-1.0,0.0727553799188852,1.0,0
39.910682678222656,-0.7387299537658691,-0.999553918838501,-0.0,-0.0,-1.0,0.03225618222238549,1.0,0
39.727752685546875,-0.3695828914642334,-1.0122849941253662,-0.0,-0.0,-1.0,0.018159501458825725,1.0,0
39.481422424316406,-0.20806384086608887,-0.99155592918396,-0.0,-0.0,-1.0,0.041743173456557675,1.0,0
40.19245529174805,-1.1393601894378662,-1.0020325183868408,-0.0,-0.0,-1.0,0.0063324056036826466,2.0,0
39.83919143676758,-0.7594642639160156,-0.9854564666748047,-0.0,-0.0,-1.0,0.030096654158853996,1.0,0
39.63957214355469,-0.5701491832733154,-0.974492073059082,-0.8129535891200342,-0.5540660858960613,0.1792128187286632,0.06066540137673514,3.0,0
38.93436050415039,-0.03686690330505371,-0.9248592853546143,-0.0,-0.0,-1.0,0.09755139855594934,2.0,0
38.54441452026367,0.05027008056640625,-0.8739743232727051,-0.0,-0.0,-1.0,0.14823864560579525,2.0,0
39.83253479003906,-1.3330490589141846,-0.9218921661376953,-0.0,-0.0,-1.0,0.029980461078167583,1.0,0
