x,y,z,nx,ny,nz,curvature,density,label
26.914031982421875,-32.36000442504883,1.399739146232605,-0.0,-0.0,-1.0,0.252688070001235,1.0,2
25.987695693969727,-32.144752502441406,1.4085649251937866,-0.0,-0.0,-1.0,0.056566807193858114,1.0,2
26.22109603881836,-32.0602912902832,1.4184842109680176,0.8930802281381433,0.12677307063916146,-0.43166687928243946,0.06056698543875727,3.0,2
26.63776969909668,-32.00771713256836,1.4270200729370117,-0.0,-0.0,-1.0,0.16925792104382678,1.0,2
27.456199645996094,-33.72093963623047,1.856949806213379,-0.0,-0.0,-1.0,0.16853600898790805,2.0,2
26.627187728881836,-33.91913986206055,1.3413522243499756,-0.0,-0.0,-1.0,0.17907444261464903,2.0,2
27.237451553344727,-33.97552490234375,1.3420789241790771,-0.0,-0.0,-1.0,0.07217142492564894,2.0,2
26.876056671142578,-33.55634307861328,1.3721668720245361,-0.0,-0.0,-1.0,0.21863780638242072,2.0,2
27.235488891601562,-33.68772506713867,1.364746332168579,-0.0,-0.0,-1.0,0.1352834760252885,1.0,2
27.409923553466797,-33.72928237915039,1.3624435663223267,-0.0,-0.0,-1.0,0.09823490471350359,1.0,2
26.474529266357422,-33.23683166503906,1.391998052597046,-0.0,-0.0,-1.0,0.1406932391968272,1.0,2
26.17218017578125,-32.70314407348633,1.4275999069213867,-0.0,-0.0,-1.0,0.056582430548006095,2.0,2
26.409446716308594,-32.856842041015625,1.4199800491333008,-0.0,-0.0,-1.0,0.1088883384083531,1.0,2
26.045665740966797,-32.216312408447266,1.4615628719329834,-0.45150431265661295,-0.8441635120997232,-0.2890187199679987,0.05218416237838401,3.0,2
25.210187911987305,-31.891069412231445,1.4638628959655762,-0.0,-0.0,-1.0,0.0977951481959823,1.0,2
26.916797637939453,-32.40141296386719,1.4622119665145874,-0.0,-0.0,-1.0,0.2248917940718226,2.0,2
26.077558517456055,-32.042171478271484,1.4751331806182861,-0.0,-0.0,-1.0,0.05515195093851814,1.0,2
26.65507698059082,-32.188385009765625,1.474898099899292,-0.0,-0.0,-1.0,0.12596620170179793,2.0,2
26.745052337646484,-32.25127029418945,1.4714475870132446,-0.0,-0.0,-1.0,0.18861183085167996,1.0,2
26.977275848388672,-33.0405158996582,1.2536811828613281,-0.0,-0.0,-1.0,0.05147589224704048,1.0,2
27.078760147094727,-33.170684814453125,1.2436678409576416,-0.0,-0.0,-1.0,0.07996845553570335,1.0,2
26.996929168701172,-32.661102294921875,1.2883284091949463,-0.0,-0.0,-1.0,0.14546737953003075,1.0,2
27.408151626586914,-32.689727783203125,1.2929233312606812,-0.0,-0.0,-1.0,0.1082191646210856,1.0,2
26.762765884399414,-32.239349365234375,1.3213998079299927,-0.0,-0.0,-1.0,0.19053785570901333,1.0,2
26.784778594970703,-32.39685821533203,1.3078081607818604,0.999359187337837,-0.028079434934580764,-0.022198198512774613,0.15607973408972226,3.0,2
27.587839126586914,-32.308319091796875,1.3305823802947998,-0.0,-0.0,-1.0,0.08072339485327257,1.0,2
27.021263122558594,-31.90906524658203,1.3564162254333496,-0.0,-0.0,-1.0,0.10973419804017573,1.0,2
26.12992286682129,-34.0528564453125,1.7453153133392334,-0.0,-0.0,-1.0,0.18001449945494866,1.0,2
25.92810821533203,-33.92005157470703,1.7508622407913208,-0.6691576607155699,-0.13307822542600292,-0.7311075235716924,0.11196842665609807,3.0,2
26.75674819946289,-33.599708557128906,1.77604079246521,-0.0,-0.0,-1.0,0.1452434228355856,1.0,2
26.9415283203125,-33.75933074951172,1.7680264711380005,-0.0,-0.0,-1.0,0.18763181390904293,1.0,2
25.77346420288086,-31.948471069335938,1.8576879501342773,-0.0,-0.0,-1.0,0.060721521205518915,1.0,2
26.551280975341797,-33.32632064819336,1.3320406675338745,-0.0,-0.0,-1.0,0.1147107147190336,2.0,2
26.56146240234375,-33.45119094848633,1.3228124380111694,-0.0,-0.0,-1.0,0.14926628635071004,1.0,2
26.523881912231445,-32.96320343017578,1.3588688373565674,-0.0,-0.0,-1.0,0.18858630522759334,2.0,2
26.192520141601562,-32.155906677246094,1.4099162817001343,-0.0,-0.0,-1.0,0.06872612431205354,2.0,2
26.418275833129883,-32.303131103515625,1.4057121276855469,-0.0,-0.0,-1.0,0.06538923182556845,1.0,2
26.061695098876953,-31.96910858154297,1.4198276996612549,-0.0,-0.0,-1.0,0.06319334613439298,1.0,2
26.1060733795166,-31.87078094482422,1.4285778999328613,-0.0,-0.0,-1.0,0.07438197361449965,1.0,2
27.34419822692871,-32.083396911621094,1.4492757320404053,-0.0,-0.0,-1.0,0.10971530131011317,1.0,2
25.459945678710938,-33.785400390625,1.863353967666626,-0.0,-0.0,-1.0,0.08453542047512407,1.0,2
25.635173797607422,-33.79566192626953,1.8656898736953735,-0.0,-0.0,-1.0,0.1038690728041711,1.0,2
26.445096969604492,-34.27690505981445,1.8571193218231201,-0.0,-0.0,-1.0,0.1899155086545985,1.0,2
26.14966583251953,-33.60773468017578,1.8819290399551392,-0.0,-0.0,-1.0,0.12298957600116688,1.0,2
26.640533447265625,-33.70280456542969,1.8852312564849854,-0.0,-0.0,-1.0,0.1621498911516466,1.0,2
25.660768508911133,-33.804542541503906,1.4806463718414307,-0.0,-0.0,-1.0,0.08851181630620636,1.0,2
25.78928565979004,-33.40764617919922,1.5090006589889526,-0.0,-0.0,-1.0,0.007464885802044299,1.0,2
26.36662483215332,-33.96820068359375,1.4963231086730957,-0.0,-0.0,-1.0,0.1437020615268118,1.0,2
25.683015823364258,-32.95551300048828,1.5314306020736694,-0.0,-0.0,-1.0,0.03355798626515343,2.0,2
25.79556655883789,-33.19926071166992,1.5215343236923218,-0.0,-0.0,-1.0,0.022179652030873343,1.0,2
27.236291885375977,-34.21940612792969,1.508814811706543,-0.0,-0.0,-1.0,0.1293055808008549,1.0,2
25.440797805786133,-32.075599670410156,1.5722355842590332,-0.0,-0.0,-1.0,0.17241129542114142,2.0,2
26.2258243560791,-33.058631896972656,1.5460588932037354,-0.0,-0.0,-1.0,0.1543701418892239,1.0,2
26.501970291137695,-33.137603759765625,1.5513209104537964,-0.0,-0.0,-1.0,0.2724044382816718,1.0,2
26.940034866333008,-33.49388122558594,1.5445818901062012,-0.0,-0.0,-1.0,0.18921855956800057,1.0,2
27.140947341918945,-33.62030792236328,1.5431931018829346,-0.0,-0.0,-1.0,0.19582001356098863,2.0,2
27.531064987182617,-34.00081253051758,1.5312275886535645,-0.0,-0.0,-1.0,0.18012228352354767,1.0,2
26.641613006591797,-32.02713394165039,1.6229352951049805,-0.0,-0.0,-1.0,0.12834561359383428,1.0,2
26.83385467529297,-32.294918060302734,1.613900899887085,-0.0,-0.0,-1.0,0.0936958781177241,1.0,2
26.138853073120117,-32.06918716430664,2.131788730621338,-0.0,-0.0,-1.0,0.03947733323914673,2.0,3
27.448272705078125,-31.88606071472168,1.2018529176712036,-0.0,-0.0,-1.0,0.091031795708453,1.0,2
27.555557250976562,-32.30345916748047,1.1670572757720947,-0.0,-0.0,-1.0,0.07714330927103778,1.0,2
25.359947204589844,-33.97929763793945,1.50602388381958,-0.0,-0.0,-1.0,0.08142600040939565,1.0,2
25.503829956054688,-34.147010803222656,1.5006537437438965,-0.0,-0.0,-1.0,0.06885025599796145,1.0,2
25.24236297607422,-33.249359130859375,1.5451059341430664,-0.0,-0.0,-1.0,0.0095933704181057,1.0,2
25.646974563598633,-32.99028778076172,1.5742783546447754,-0.0,-0.0,-1.0,0.032958766524655556,2.0,2
26.39353370666504,-33.986419677734375,1.5373950004577637,-0.0,-0.0,-1.0,0.16822605317826858,2.0,2
26.418254852294922,-33.07597732543945,1.5939743518829346,-0.0,-0.0,-1.0,0.1908380330009717,1.0,2
26.796428680419922,-33.58853530883789,1.5734422206878662,-0.2943782049125663,0.8523441391011347,-0.4322625834055048,0.18819473996313146,3.0,2
27.191377639770508,-34.28828811645508,1.5396709442138672,-0.0,-0.0,-1.0,0.1380491702776363,1.0,2
27.064992904663086,-33.59807205200195,1.5800725221633911,-0.0,-0.0,-1.0,0.22272932329351053,1.0,2
27.319366455078125,-33.971004486083984,1.5629980564117432,-0.0,-0.0,-1.0,0.20630859355869116,1.0,2
26.684608459472656,-33.15018844604492,1.2806962728500366,-0.0,-0.0,-1.0,0.10810573010607073,1.0,2
26.379257202148438,-31.949655532836914,1.3687140941619873,-0.0,-0.0,-1.0,0.10113982920809998,1.0,2
26.556880950927734,-32.23005676269531,1.3530491590499878,-0.0,-0.0,-1.0,0.17176325823622876,1.0,2
26.785011291503906,-32.419063568115234,1.3463726043701172,-0.0,-0.0,-1.0,0.164851257634262,2.0,2
26.923845291137695,-33.087799072265625,1.2945663928985596,-0.0,-0.0,-1.0,0.06065559546261103,1.0,2
26.95730209350586,-33.51915740966797,1.2584280967712402,-0.0,-0.0,-1.0,0.1752814346370739,2.0,2
26.91342544555664,-32.487342834472656,1.345464825630188,-0.0,-0.0,-1.0,0.19832969457242397,2.0,2
26.14130973815918,-33.891944885253906,1.7508747577667236,-0.778130634501193,0.5746443485728228,-0.25356771936523576,0.21105809104315076,3.0,2
26.21341323852539,-34.04408645629883,1.7439892292022705,-0.0,-0.0,-1.0,0.20179232135255512,2.0,2
25.937374114990234,-31.929288864135742,1.8494154214859009,-0.0,-0.0,-1.0,0.046975203054330616,1.0,2
26.76475715637207,-33.659263610839844,1.7753005027770996,-0.0,-0.0,-1.0,0.13134953154242815,1.0,2
26.210872650146484,-31.87527084350586,1.8590734004974365,-0.0,-0.0,-1.0,0.08578187118509964,1.0,2
27.119579315185547,-33.72140121459961,1.7777793407440186,-0.0,-0.0,-1.0,0.2001690217980753,1.0,2
27.29932403564453,-33.955162048339844,1.7672345638275146,-0.0,-0.0,-1.0,0.15566925184172806,1.0,2
25.331844329833984,-31.900924682617188,1.4608452320098877,0.1346497425811785,-0.48888964096912174,-0.8618911565713534,0.16776534496683668,4.0,2
25.856285095214844,-32.25916290283203,1.481499195098877,-0.0,-0.0,-1.0,0.026139714787270927,1.0,2
25.9489688873291,-32.76262664794922,1.4616436958312988,-0.0,-0.0,-1.0,0.022383575673659582,1.0,2
25.923677444458008,-31.969043731689453,1.5014138221740723,-0.0,-0.0,-1.0,0.09734042788214974,1.0,2
26.010482788085938,-32.33844757080078,1.4884700775146484,-0.0,-0.0,-1.0,0.044065369801373794,1.0,2
26.061599731445312,-32.77633285522461,1.4688425064086914,-0.0,-0.0,-1.0,0.052957951982710326,1.0,2
26.212657928466797,-33.04826736450195,1.4645473957061768,-0.0,-0.0,-1.0,0.12387047888601044,2.0,2
26.36241912841797,-33.858524322509766,1.4296718835830688,-0.0,-0.0,-1.0,0.09923245174044275,1.0,2
26.903934478759766,-33.4580192565918,1.4877965450286865,-0.0,-0.0,-1.0,0.2065369283382603,1.0,2
27.05248260498047,-33.50245666503906,1.49478280544281,-0.0,-0.0,-1.0,0.17194753193578408,1.0,2
27.16154670715332,-33.68824005126953,1.490905523300171,-0.0,-0.0,-1.0,0.20581063195399585,1.0,2
27.256540298461914,-34.077850341796875,1.4739961624145508,-0.0,-0.0,-1.0,0.04867680584653176,1.0,2
27.393230438232422,-33.45629119873047,1.5189604759216309,-0.0,-0.0,-1.0,0.12509578669118146,1.0,2
27.603410720825195,-32.08189392089844,1.1571677923202515,-0.0,-0.0,-1.0,0.06936491000020846,1.0,2
26.870147705078125,-32.22998809814453,1.5543537139892578,-0.0,-0.0,-1.0,0.22783026457526892,1.0,2
26.915678024291992,-32.549766540527344,1.5398385524749756,-0.0,-0.0,-1.0,0.14077616927896458,1.0,2
25.504220962524414,-32.059417724609375,1.547620415687561,-0.0,-0.0,-1.0,0.16720159443314161,1.0,2
25.444721221923828,-32.640411376953125,1.516037106513977,-0.0,-0.0,-1.0,0.03956899504207923,1.0,2
25.626693725585938,-32.82980728149414,1.519938349723816,-0.0,-0.0,-1.0,0.026929981191397487,1.0,2
25.677692413330078,-33.29076385498047,1.5009125471115112,-0.0,-0.0,-1.0,0.010550559653476376,1.0,2
25.61202621459961,-33.73695373535156,1.4741272926330566,-0.0,-0.0,-1.0,0.09800670799374865,1.0,2
25.754680633544922,-32.51970672607422,1.5440460443496704,-0.0,-0.0,-1.0,0.01858543522450469,2.0,2
25.73972511291504,-32.823917388916016,1.5282422304153442,-0.0,-0.0,-1.0,0.030038434862753247,2.0,2
25.858739852905273,-33.1245002746582,1.5217305421829224,-0.0,-0.0,-1.0,0.022845357479896262,1.0,2
25.829509735107422,-34.21641159057617,1.4642657041549683,-0.0,-0.0,-1.0,0.11060934649606394,1.0,2
26.227216720581055,-32.946136474609375,1.5559303760528564,-0.0,-0.0,-1.0,0.1168853069314733,1.0,2
26.301532745361328,-33.88468933105469,1.5125335454940796,-0.8642156501165972,-0.3968609324244121,0.30924538866210005,0.13149973084775307,3.0,2
26.31371307373047,-33.94404220581055,1.5102285146713257,-0.0,-0.0,-1.0,0.12545088203428081,1.0,2
26.557838439941406,-33.070533752441406,1.5717939138412476,-0.0,-0.0,-1.0,0.27706971596842483,2.0,2
26.732154846191406,-33.39569854736328,1.56609308719635,-0.0,-0.0,-1.0,0.11726644713772152,1.0,2
26.65350341796875,-33.64225769042969,1.5481055974960327,-0.0,-0.0,-1.0,0.19978411449010697,2.0,2
27.232032775878906,-31.877138137817383,1.235575556755066,-0.0,-0.0,-1.0,0.09304848917648435,2.0,2
27.26308822631836,-32.163551330566406,1.2150425910949707,-0.419200615625775,0.30080515756213466,-0.856613740867487,0.0787422333367543,3.0,2
27.04115104675293,-33.481971740722656,1.5812867879867554,-0.0,-0.0,-1.0,0.16142276441995765,1.0,2
27.147146224975586,-33.649261474609375,1.5788724422454834,-0.853963018214665,-0.46660334837486533,-0.23027913237430725,0.20785623176802062,3.0,2
27.185197830200195,-34.231075286865234,1.5493112802505493,-0.0,-0.0,-1.0,0.1380491702776363,1.0,2
27.417015075683594,-32.19437026977539,1.2255364656448364,-0.0,-0.0,-1.0,0.08176792244993522,1.0,2
25.335840225219727,-31.8914794921875,1.5428029298782349,-0.0,-0.0,-1.0,0.09959824010858302,1.0,2
25.47711181640625,-31.95867919921875,1.550236463546753,-0.0,-0.0,-1.0,0.2086486295134039,1.0,2
26.653236389160156,-31.902973175048828,1.637385368347168,-0.0,-0.0,-1.0,0.10707558573247039,1.0,2
26.103111267089844,-31.964887619018555,2.0614542961120605,-0.0,-0.0,-1.0,0.04293681871735985,1.0,3
27.092376708984375,-33.02369689941406,1.1920685768127441,-0.0,-0.0,-1.0,0.07190635055625162,1.0,2
25.214128494262695,-33.09087371826172,1.5170323848724365,-0.0,-0.0,-1.0,0.014090042050918251,1.0,2
25.35382843017578,-33.651329040527344,1.5031514167785645,-0.0,-0.0,-1.0,0.07669599839841235,1.0,2
25.647441864013672,-32.89632797241211,1.5581943988800049,-0.0,-0.0,-1.0,0.028593886567609125,2.0,2
25.76645278930664,-33.0162353515625,1.5618345737457275,-0.0,-0.0,-1.0,0.030403740694665508,2.0,2
25.51134490966797,-33.52012634277344,1.520617961883545,-0.0,-0.0,-1.0,0.06949395941693039,1.0,2
25.410064697265625,-33.89653778076172,1.4963173866271973,-0.0,-0.0,-1.0,0.10850466710667289,1.0,2
26.052927017211914,-33.976078033447266,1.5387731790542603,-0.0,-0.0,-1.0,0.17145402019400202,1.0,2
26.284692764282227,-33.876014709472656,1.5596868991851807,-0.0,-0.0,-1.0,0.17690681572385386,1.0,2
26.354604721069336,-34.0340690612793,1.5569984912872314,-0.0,-0.0,-1.0,0.1667947796089328,1.0,2
27.221637725830078,-31.91262435913086,1.288679599761963,-0.0,-0.0,-1.0,0.0974929627708896,2.0,2
27.19675064086914,-32.44992446899414,1.2455891370773315,-0.0,-0.0,-1.0,0.039179208192775226,1.0,2
27.036766052246094,-33.75530242919922,1.616750955581665,-0.0,-0.0,-1.0,0.24290570571629236,1.0,2
27.1506290435791,-34.24163055419922,1.5999553203582764,-0.0,-0.0,-1.0,0.1515696398361806,2.0,2
25.32648468017578,-31.938011169433594,1.5734878778457642,-0.0,-0.0,-1.0,0.09471723380078469,1.0,2
25.454689025878906,-32.00849151611328,1.5807656049728394,-0.0,-0.0,-1.0,0.15085332606372728,1.0,2
26.252031326293945,-32.97018051147461,1.5994904041290283,-0.0,-0.0,-1.0,0.13296126428632443,1.0,2
26.456605911254883,-33.034061431884766,1.611250638961792,-0.0,-0.0,-1.0,0.19091217735466529,1.0,2
26.949535369873047,-33.5068473815918,1.623051404953003,-0.0,-0.0,-1.0,0.2605869200601588,2.0,2
27.205848693847656,-33.54790115356445,1.6382068395614624,-0.0,-0.0,-1.0,0.19614053839745033,2.0,2
26.371795654296875,-33.03239059448242,1.432201862335205,-0.0,-0.0,-1.0,0.19996878530623882,1.0,2
26.4119815826416,-33.53303146362305,1.4026000499725342,-0.0,-0.0,-1.0,0.13085600843729508,1.0,2
26.430797576904297,-33.85172653198242,1.382824420928955,-0.0,-0.0,-1.0,0.1655997506762934,2.0,2
27.505069732666016,-32.135066986083984,1.15399169921875,-0.0,-0.0,-1.0,0.07540136007102614,2.0,2
27.00758171081543,-33.5263671875,1.4429774284362793,-0.0,-0.0,-1.0,0.12626164179805172,2.0,2
26.706947326660156,-33.72349548339844,1.4099000692367554,-0.20467403304511791,0.9600028583579016,-0.19105771939836688,0.13085782166771903,3.0,2
27.200214385986328,-33.628353118896484,1.4483778476715088,-0.0,-0.0,-1.0,0.24757418577674173,2.0,2
27.2580623626709,-33.948875427246094,1.429680585861206,-0.0,-0.0,-1.0,0.08740099056290979,1.0,2
27.61480140686035,-33.87623596191406,1.456406831741333,-0.0,-0.0,-1.0,0.12127512133945427,1.0,2
25.986366271972656,-32.041831970214844,1.4642237424850464,-0.0,-0.0,-1.0,0.059635221227178445,1.0,2
25.974641799926758,-32.240936279296875,1.4515901803970337,-0.08917543746698396,-0.7757651641763053,-0.6246888436678554,0.053783227267453784,3.0,2
26.142377853393555,-32.17066955566406,1.4687132835388184,-0.0,-0.0,-1.0,0.053682616638905015,2.0,2
26.06114959716797,-32.529693603515625,1.4407929182052612,-0.0,-0.0,-1.0,0.02648237793519707,1.0,2
26.136781692504883,-32.76306915283203,1.4321250915527344,-0.0,-0.0,-1.0,0.05806006873999231,1.0,2
26.653154373168945,-31.998065948486328,1.517815113067627,-0.0,-0.0,-1.0,0.1351186652540841,2.0,2
26.789525985717773,-32.16998291015625,1.517099142074585,-0.0,-0.0,-1.0,0.11129196872827757,2.0,2
26.971778869628906,-32.42962646484375,1.51350736618042,-0.0,-0.0,-1.0,0.19562808363853504,1.0,2
26.602127075195312,-33.04771423339844,1.447509527206421,-0.0,-0.0,-1.0,0.20099560926945745,1.0,2
26.32440948486328,-33.772972106933594,1.8645994663238525,-0.0,-0.0,-1.0,0.22282056221165597,2.0,2
27.03506851196289,-33.3720588684082,1.455277681350708,0.9833540780938952,-0.09167763670878952,-0.15687564509380278,0.11098640392048574,3.0,2
27.302122116088867,-33.54512023925781,1.4605790376663208,-0.0,-0.0,-1.0,0.12605549511169253,2.0,2
25.946918487548828,-31.872055053710938,1.9091800451278687,-0.0,-0.0,-1.0,0.049852292783642393,1.0,2
27.50340461730957,-32.128944396972656,1.1610924005508423,-0.0,-0.0,-1.0,0.07540136007102609,2.0,2
26.657922744750977,-33.73323440551758,1.3852136135101318,-0.0,-0.0,-1.0,0.1683822130941984,2.0,2
26.356164932250977,-33.921932220458984,1.3540221452713013,-0.0,-0.0,-1.0,0.07533214217527508,1.0,2
25.28683853149414,-31.891311645507812,1.448885440826416,0.1346497425811785,-0.48888964096912174,-0.8618911565713534,0.14474579231815765,4.0,2
25.948474884033203,-32.1784782409668,1.4703929424285889,-0.0,-0.0,-1.0,0.05418245074093232,1.0,2
26.643985748291016,-32.02455520629883,1.5241585969924927,-0.0,-0.0,-1.0,0.1351186652540841,2.0,2
26.114238739013672,-32.244232177734375,1.4755234718322754,-0.0,-0.0,-1.0,0.06846021663252144,1.0,2
26.05536460876465,-32.60357666015625,1.4440844058990479,-0.0,-0.0,-1.0,0.03273901718886819,1.0,2
26.781583786010742,-32.18783187866211,1.5190621614456177,-0.0,-0.0,-1.0,0.10886465894480427,2.0,2
26.233552932739258,-32.88495635986328,1.4321401119232178,-0.0,-0.0,-1.0,0.08686092696490194,1.0,2
26.735950469970703,-32.770809173583984,1.469292163848877,-0.0,-0.0,-1.0,0.049959438337568475,1.0,2
26.48541259765625,-33.09560012817383,1.4291263818740845,-0.0,-0.0,-1.0,0.28900504960668805,2.0,2
26.502376556396484,-33.44218826293945,1.4015382528305054,-0.0,-0.0,-1.0,0.13677800719513908,1.0,2
27.028284072875977,-33.40414810180664,1.431503176689148,0.9833540780938952,-0.09167763670878952,-0.15687564509380278,0.1282537530407743,3.0,2
27.144081115722656,-33.57820510864258,1.4221786260604858,-0.0,-0.0,-1.0,0.2363279873427194,2.0,2
27.666545867919922,-33.74629592895508,1.4312694072723389,-0.0,-0.0,-1.0,0.0990483001418669,2.0,2
26.40584945678711,-31.86367416381836,1.9362070560455322,-0.0,-0.0,-1.0,0.04745441747176806,1.0,2
26.99658966064453,-33.49677658081055,1.871355414390564,-0.0,-0.0,-1.0,0.20813022933713357,1.0,2
26.788114547729492,-33.75316619873047,1.8508163690567017,-0.0,-0.0,-1.0,0.1558546376773104,2.0,2
26.323577880859375,-33.79347610473633,1.8337066173553467,-0.0,-0.0,-1.0,0.15865728623320677,2.0,2
27.00702667236328,-33.565975189208984,1.8678628206253052,0.06795062549644147,0.9771653363686595,-0.20132217437273778,0.23091527701416975,3.0,2
25.234148025512695,-31.911895751953125,1.405676007270813,-0.0,-0.0,-1.0,0.1612987145187303,1.0,2
26.079164505004883,-32.22209167480469,1.4261112213134766,-0.6305741567216342,-0.5945202443361357,-0.4989207471626145,0.04968393214959234,3.0,2
25.868803024291992,-32.206871032714844,1.4160710573196411,-0.0,-0.0,-1.0,0.04285535524648678,1.0,2
26.151296615600586,-32.60857391357422,1.3936001062393188,-0.0,-0.0,-1.0,0.034963554308034814,1.0,2
26.984912872314453,-32.255401611328125,1.4687931537628174,-0.0,-0.0,-1.0,0.2543703985065359,1.0,2
26.934066772460938,-32.44060134887695,1.448266863822937,-0.0,-0.0,-1.0,0.19869368359227862,2.0,2
26.317655563354492,-32.92487716674805,1.3716251850128174,-0.0,-0.0,-1.0,0.06900863433131056,1.0,2
26.554107666015625,-33.341094970703125,1.3420190811157227,-0.0,-0.0,-1.0,0.11505248872059402,2.0,2
27.011493682861328,-33.5327262878418,1.342468500137329,-0.0,-0.0,-1.0,0.18307269385798322,1.0,2
26.640600204467773,-33.671566009521484,1.312894344329834,-0.0,-0.0,-1.0,0.20679132889948432,1.0,2
26.52617645263672,-33.754825592041016,1.2996151447296143,-0.0,-0.0,-1.0,0.15563666886569644,2.0,2
27.499244689941406,-33.69761657714844,1.3444578647613525,0.2421477342028971,-0.7831461837693735,-0.5727534632526199,0.08226882151459547,3.0,2
27.164854049682617,-33.608341217041016,1.3409771919250488,-0.0,-0.0,-1.0,0.17234183124738134,1.0,2
26.93431854248047,-33.502197265625,1.7724570035934448,-0.9798129655184812,-0.16258488199079338,0.11633017127950818,0.15066997183734274,6.0,2
26.640522003173828,-33.74380874633789,1.7482571601867676,-0.0,-0.0,-1.0,0.16367727931822235,2.0,2
26.235816955566406,-33.928104400634766,1.725034475326538,-0.0,-0.0,-1.0,0.280745574246778,2.0,2
26.247028350830078,-34.047176361083984,1.7170796394348145,-0.5565663415334575,0.37986739005969683,-0.7388739225614189,0.19086442921562594,3.0,2
27.422718048095703,-33.75764465332031,1.7650282382965088,-0.0,-0.0,-1.0,0.1747564235638063,1.0,2
27.171951293945312,-34.330970764160156,1.7182170152664185,-0.0,-0.0,-1.0,0.13052410323568986,1.0,2
27.27831268310547,-31.89325523376465,1.2260383367538452,-0.0,-0.0,-1.0,0.09304848917648435,2.0,2
27.343172073364258,-32.13737487792969,1.2027090787887573,-0.0,-0.0,-1.0,0.096408659323319,1.0,2
27.237930297851562,-32.19990921020508,1.1875609159469604,-0.0,-0.0,-1.0,0.07805034695144117,2.0,2
27.451692581176758,-32.38082504272461,1.1822841167449951,-0.0,-0.0,-1.0,0.06081973044761676,1.0,2
25.333389282226562,-31.891572952270508,1.456699252128601,0.1346497425811785,-0.48888964096912174,-0.8618911565713534,0.16372303525453563,4.0,2
26.57288360595703,-32.066490173339844,1.5287458896636963,-0.43157262077945546,0.8009654066338452,-0.41496926436717124,0.14906259685380055,5.0,2
26.049518585205078,-32.28251647949219,1.4770582914352417,-0.0,-0.0,-1.0,0.053292244729980585,1.0,2
25.93331527709961,-32.281620025634766,1.4692671298980713,-0.0,-0.0,-1.0,0.0481678917335985,2.0,2
26.903104782104492,-32.422847747802734,1.519576072692871,-0.0,-0.0,-1.0,0.2248917940718226,1.0,2
26.038715362548828,-32.72975158691406,1.440383791923523,-0.0,-0.0,-1.0,0.04043680928990619,2.0,2
26.30367660522461,-33.08305358886719,1.4279961585998535,-0.0,-0.0,-1.0,0.21908994880879318,2.0,2
27.02916145324707,-33.41189956665039,1.441532850265503,0.9833540780938952,-0.09167763670878952,-0.15687564509380278,0.11718766424980973,3.0,2
26.471506118774414,-33.31346130371094,1.4186427593231201,-0.0,-0.0,-1.0,0.13836880712589603,1.0,2
26.42621612548828,-33.45012664794922,1.4043223857879639,-0.0,-0.0,-1.0,0.08176076038781446,1.0,2
27.14359474182129,-33.59375762939453,1.4315134286880493,-0.7218626827017324,-0.33940668791328493,-0.6030898502896496,0.24114691768097796,3.0,2
26.824871063232422,-33.71547317504883,1.403780221939087,-0.0,-0.0,-1.0,0.16246797498078924,1.0,2
26.43727684020996,-33.887001037597656,1.3675193786621094,-0.0,-0.0,-1.0,0.14837205836358527,2.0,2
27.383724212646484,-33.78641891479492,1.4265098571777344,-0.0,-0.0,-1.0,0.1822308046326169,1.0,2
27.163253784179688,-34.04786682128906,1.3920477628707886,-0.0,-0.0,-1.0,0.08981334742970239,1.0,2
26.307029724121094,-31.916912078857422,1.9010518789291382,-0.0,-0.0,-1.0,0.034527617763353655,2.0,2
26.98479652404785,-33.57027053833008,1.8395111560821533,0.06795062549644147,0.9771653363686595,-0.20132217437273778,0.20987312353026458,3.0,2
26.407669067382812,-33.82343673706055,1.8033071756362915,-0.0,-0.0,-1.0,0.1338775130371087,1.0,2
26.226604461669922,-33.87565612792969,1.7932780981063843,-0.0,-0.0,-1.0,0.18866106295221274,1.0,2
27.48836326599121,-33.74995040893555,1.8467283248901367,-0.0,-0.0,-1.0,0.1717687900567556,2.0,2
25.26470375061035,-31.96826171875,1.4844059944152832,-0.0,-0.0,-1.0,0.1346154937023299,2.0,2
27.119600296020508,-32.080448150634766,1.3807917833328247,-0.0,-0.0,-1.0,0.11485951957550024,1.0,2
26.542131423950195,-32.08370590209961,1.5267889499664307,-0.0,-0.0,-1.0,0.14781137196685923,2.0,2
25.901174545288086,-32.29204559326172,1.4787800312042236,-0.0,-0.0,-1.0,0.02863732846420413,2.0,2
27.442413330078125,-32.268592834472656,1.1945751905441284,-0.0,-0.0,-1.0,0.08448184897698058,1.0,2
27.272363662719727,-32.206851959228516,1.195298194885254,0.28098785055405695,0.44735314704133583,-0.8490706623557448,0.07970668684309143,3.0,2
26.855751037597656,-32.53116226196289,1.4896140098571777,-0.0,-0.0,-1.0,0.1604277392764194,1.0,2
26.03177833557129,-32.70039749145508,1.44060218334198,-0.0,-0.0,-1.0,0.04100929158001228,2.0,2
27.69801139831543,-32.79044723510742,1.487162470817566,-0.0,-0.0,-1.0,0.0911346651919715,1.0,2
26.456708908081055,-33.092193603515625,1.4140939712524414,-0.0,-0.0,-1.0,0.2732095238897075,2.0,2
26.26382064819336,-33.058616638183594,1.4107493162155151,-0.17280567876257344,-0.740339066675213,-0.6496431818636145,0.13344138959176216,3.0,2
26.960155487060547,-33.48908233642578,1.3869073390960693,-0.0,-0.0,-1.0,0.18910786563946644,1.0,2
26.611480712890625,-33.45109176635742,1.3798147439956665,-0.0,-0.0,-1.0,0.14040208278759586,1.0,2
27.076791763305664,-33.6328125,1.3743263483047485,-0.0,-0.0,-1.0,0.21379583945205674,2.0,2
26.657733917236328,-33.75971221923828,1.347190499305725,-0.0,-0.0,-1.0,0.13147697172237263,2.0,2
26.44278335571289,-33.83543395996094,1.3318078517913818,-0.0,-0.0,-1.0,0.14856835180850217,1.0,2
27.432893753051758,-33.956504821777344,1.3477871417999268,-0.0,-0.0,-1.0,0.09842315507601544,1.0,2
27.096820831298828,-33.94198989868164,1.3401559591293335,-0.0,-0.0,-1.0,0.10209469044528188,1.0,2
26.199790954589844,-31.920822143554688,1.881828784942627,-0.0,-0.0,-1.0,0.036311310638627775,1.0,2
25.863508224487305,-31.887489318847656,1.8765923976898193,-0.0,-0.0,-1.0,0.04601427482717814,1.0,2
27.257553100585938,-33.776573181152344,1.755375862121582,-0.0,-0.0,-1.0,0.08993918255620684,1.0,2
26.759197235107422,-33.70822525024414,1.7531269788742065,-0.0,-0.0,-1.0,0.13796624622137393,1.0,2
26.26233673095703,-34.019081115722656,1.7199926376342773,-0.0,-0.0,-1.0,0.23424468616849026,2.0,2
26.12514877319336,-33.925289154052734,1.7249023914337158,-0.3669238063564677,0.6757842430628055,-0.639282861616759,0.21698331599936413,3.0,2
26.991880416870117,-34.19272994995117,1.7180595397949219,-0.0,-0.0,-1.0,0.1660280730592568,1.0,2
26.277156829833984,-34.26842498779297,1.700547456741333,-0.0,-0.0,-1.0,0.14909439506433042,1.0,2
26.085229873657227,-32.106689453125,2.222184419631958,-0.0,-0.0,-1.0,0.03947733323914683,2.0,3
27.504974365234375,-32.19493865966797,1.1687488555908203,-0.0,-0.0,-1.0,0.07505193430194157,1.0,2
27.39599609375,-32.179786682128906,1.166393518447876,-0.0,-0.0,-1.0,0.08176792244993522,1.0,2
27.665817260742188,-32.3488883972168,1.1485658884048462,-0.0,-0.0,-1.0,0.04224343421408412,1.0,2
26.68389129638672,-33.245330810546875,1.3048726320266724,-0.0,-0.0,-1.0,0.10290221429521075,1.0,2
26.493791580200195,-33.172752380371094,1.3077646493911743,-0.0,-0.0,-1.0,0.12208595290524714,1.0,2
27.18267250061035,-33.528812408447266,1.2817872762680054,-0.0,-0.0,-1.0,0.17154735197149154,1.0,2
26.873098373413086,-33.52014923095703,1.2729381322860718,-0.0,-0.0,-1.0,0.19639423615641619,1.0,2
27.358192443847656,-33.673160552978516,1.2664164304733276,-0.0,-0.0,-1.0,0.08079863807145972,1.0,2
26.236894607543945,-32.07197570800781,1.447738528251648,-0.0,-0.0,-1.0,0.06056698543875727,2.0,2
25.998991012573242,-32.21574401855469,1.4168294668197632,-0.0,-0.0,-1.0,0.05478637484467031,2.0,2
26.650121688842773,-32.18920135498047,1.4504095315933228,-0.0,-0.0,-1.0,0.15080951560534228,2.0,2
26.41495704650879,-32.45427703857422,1.4038097858428955,-0.0,-0.0,-1.0,0.02502698376793041,1.0,2
26.21143913269043,-32.566078186035156,1.379425287246704,-0.0,-0.0,-1.0,0.04141477291403557,1.0,2
26.96112823486328,-32.50917053222656,1.4184222221374512,-0.0,-0.0,-1.0,0.18668823163268913,2.0,2
26.49681282043457,-32.817176818847656,1.3572185039520264,-0.0,-0.0,-1.0,0.08816658590008736,1.0,2
26.2867374420166,-32.74177169799805,1.3587273359298706,-0.0,-0.0,-1.0,0.06284948354901689,1.0,2
26.53761100769043,-33.12275695800781,1.6697150468826294,-0.0,-0.0,-1.0,0.22044959824086957,1.0,2
27.09419822692871,-33.578369140625,1.6330827474594116,-0.0,-0.0,-1.0,0.144656763722328,1.0,2
26.85710334777832,-33.632232666015625,1.6223154067993164,-0.0,-0.0,-1.0,0.1771348271093118,2.0,2
26.294300079345703,-33.814815521240234,1.5897032022476196,-0.0,-0.0,-1.0,0.13488283135460435,1.0,2
25.273500442504883,-34.08144760131836,1.5332493782043457,0.0654298779511033,-0.2641430623242983,-0.9622615931737304,0.09550419353356884,3.0,2
27.163448333740234,-33.73662185668945,1.6171547174453735,-0.0,-0.0,-1.0,0.22779255460938044,2.0,2
27.039203643798828,-33.83494186401367,1.6040287017822266,-0.0,-0.0,-1.0,0.19610608513956665,1.0,2
26.395809173583984,-34.06510543823242,1.5652995109558105,-0.0,-0.0,-1.0,0.16456647612561504,1.0,2
26.207202911376953,-33.98899841308594,1.568884015083313,-0.0,-0.0,-1.0,0.16512382810829523,1.0,2
25.481342315673828,-34.33439636230469,1.5128984451293945,-0.0,-0.0,-1.0,0.06482625793353154,1.0,2
27.259742736816406,-34.28507614135742,1.5587823390960693,-0.0,-0.0,-1.0,0.12964636047089867,1.0,2
26.21056365966797,-31.8807430267334,1.7910072803497314,-0.0,-0.0,-1.0,0.06350215617342751,1.0,2
26.05265235900879,-31.972911834716797,1.9375513792037964,-0.0,-0.0,-1.0,0.035340950817788125,1.0,2
26.30385971069336,-33.801414489746094,1.967179775238037,-0.0,-0.0,-1.0,0.17360934885208398,1.0,2
26.550216674804688,-32.18439483642578,1.3244545459747314,-0.0,-0.0,-1.0,0.17798395072661438,1.0,2
27.03411293029785,-32.47844314575195,1.2883238792419434,-0.0,-0.0,-1.0,0.13396628393650395,2.0,2
26.785911560058594,-32.35251998901367,1.3027287721633911,-0.0,-0.0,-1.0,0.16155872804138732,2.0,2
27.65154266357422,-32.700653076171875,1.2644708156585693,-0.0,-0.0,-1.0,0.11912583878801683,1.0,2
27.185688018798828,-32.926856994628906,1.2010393142700195,-0.0,-0.0,-1.0,0.07009463709929777,1.0,2
27.345561981201172,-33.075870513916016,1.1754176616668701,-0.0,-0.0,-1.0,0.08801163810087162,1.0,2
25.427284240722656,-32.07368469238281,1.5859291553497314,-0.0,-0.0,-1.0,0.15147583565768816,2.0,2
26.607797622680664,-32.05342483520508,1.502831220626831,-0.0,-0.0,-1.0,0.1490625968538006,2.0,2
25.71910858154297,-32.515892028808594,1.5304814577102661,-0.0,-0.0,-1.0,0.01917228546883155,2.0,2
25.49648666381836,-32.494728088378906,1.5214252471923828,-0.0,-0.0,-1.0,0.02830391895280175,1.0,2
25.218162536621094,-32.69273376464844,1.4731863737106323,-0.0,-0.0,-1.0,0.036470447064644806,2.0,2
26.95000457763672,-32.383304595947266,1.6080268621444702,0.8176652685630346,-0.5304214435483,0.2237780168154992,0.1396635806925807,3.0,2
26.838911056518555,-32.345455169677734,1.610508918762207,-0.0,-0.0,-1.0,0.1015686602519524,1.0,2
25.825328826904297,-32.808963775634766,1.4872701168060303,-0.0,-0.0,-1.0,0.02963920191609068,1.0,2
25.554590225219727,-32.63541030883789,1.501829743385315,-0.0,-0.0,-1.0,0.03302275757996636,2.0,2
25.258127212524414,-32.71710205078125,1.4715882539749146,-0.0,-0.0,-1.0,0.0381285907847632,2.0,2
27.684328079223633,-32.835838317871094,1.549316167831421,-0.0,-0.0,-1.0,0.09592234676370792,1.0,2
26.367868423461914,-33.13898849487305,1.4561619758605957,-0.0,-0.0,-1.0,0.20424309306023355,1.0,2
26.088634490966797,-33.0902099609375,1.4525045156478882,-0.0,-0.0,-1.0,0.06583605332158168,1.0,2
26.916513442993164,-33.45545196533203,1.420878529548645,-0.0,-0.0,-1.0,0.1906195523193779,2.0,2
26.59782600402832,-33.375091552734375,1.4240944385528564,-0.0,-0.0,-1.0,0.14504761836360025,1.0,2
27.02920150756836,-33.63085174560547,1.3934504985809326,-0.0,-0.0,-1.0,0.14277633490883776,2.0,2
26.609371185302734,-33.79996871948242,1.5265886783599854,-0.0,-0.0,-1.0,0.15082354884518415,1.0,2
26.303016662597656,-33.89344787597656,1.5054404735565186,-0.8642156501165972,-0.3968609324244121,0.30924538866210005,0.13149973084775302,3.0,2
25.968172073364258,-34.074058532714844,1.6490132808685303,-0.0,-0.0,-1.0,0.11088129266674326,1.0,2
27.376270294189453,-33.873260498046875,1.3595023155212402,-0.0,-0.0,-1.0,0.09944191275867931,2.0,2
27.13577651977539,-34.06108856201172,1.5009983777999878,-0.0,-0.0,-1.0,0.12286626239132291,1.0,2
26.318010330200195,-34.21527862548828,1.6387635469436646,-0.0,-0.0,-1.0,0.14720296676858693,1.0,2
27.19976234436035,-34.351470947265625,1.6365584135055542,-0.7352789817927963,0.6266344820301788,-0.2582519019572139,0.13082479058667643,3.0,2
25.965675354003906,-32.015323638916016,1.9272502660751343,-0.0,-0.0,-1.0,0.04058868305035993,2.0,2
26.93973731994629,-33.45597839355469,1.7583073377609253,-0.3048919184909257,-0.24593338543072887,-0.9200856959922284,0.17162440470789342,3.0,2
27.00789451599121,-33.694740295410156,1.7260544300079346,-0.0,-0.0,-1.0,0.23640293500865525,2.0,2
26.74340057373047,-33.75061798095703,1.7130794525146484,-0.0,-0.0,-1.0,0.1596647154866601,1.0,2
27.40427017211914,-33.77765655517578,1.7206974029541016,-0.0,-0.0,-1.0,0.172365042055685,2.0,2
26.12909698486328,-32.095069885253906,2.220822334289551,0.010891811082654575,-0.15688441022704022,-0.9875569098938315,0.039477333239146685,3.0,3
26.550127029418945,-31.965778350830078,1.295920968055725,-0.0,-0.0,-1.0,0.15283011364690238,1.0,2
27.074115753173828,-32.161048889160156,1.272060513496399,-0.0,-0.0,-1.0,0.09499110523596875,1.0,2
26.80072593688965,-32.17140579223633,1.2581206560134888,-0.0,-0.0,-1.0,0.13669393759667203,1.0,2
27.596946716308594,-32.580257415771484,1.1825624704360962,-0.0,-0.0,-1.0,0.0954837043851001,1.0,2
27.240543365478516,-32.524173736572266,1.1876147985458374,-0.0,-0.0,-1.0,0.03189734652973058,1.0,2
26.369266510009766,-32.85615158081055,1.3742401599884033,-0.0,-0.0,-1.0,0.09174388340240464,1.0,2
26.208093643188477,-32.78288269042969,1.3823496103286743,-0.0,-0.0,-1.0,0.060229907591682535,1.0,2
27.66735076904297,-32.7802734375,1.1337088346481323,-0.0,-0.0,-1.0,0.07267549122932052,1.0,2
27.40032196044922,-32.73478317260742,1.1396119594573975,-0.0,-0.0,-1.0,0.0712599679717557,1.0,2
26.586387634277344,-33.16082763671875,1.3189626932144165,-0.0,-0.0,-1.0,0.13940335564664239,1.0,2
27.469738006591797,-33.47655487060547,1.2746143341064453,-0.0,-0.0,-1.0,0.15680472696355752,2.0,2
27.00395393371582,-33.51722717285156,1.2565102577209473,-0.0,-0.0,-1.0,0.17036503059941743,2.0,2
26.795637130737305,-33.55881118774414,1.242074966430664,-0.0,-0.0,-1.0,0.18847864064741648,1.0,2
27.49671745300293,-33.596031188964844,1.2494091987609863,-0.0,-0.0,-1.0,0.12472992046191622,1.0,2
27.235380172729492,-33.608863830566406,1.24223792552948,-0.0,-0.0,-1.0,0.15159207187396692,1.0,2
25.391088485717773,-31.87687873840332,1.5181810855865479,-0.0,-0.0,-1.0,0.13653775559450793,1.0,2
26.580270767211914,-32.03199768066406,1.5546550750732422,0.3657057581946037,0.5076505316267235,-0.7800962992877322,0.1458483792991949,3.0,2
25.820648193359375,-32.14799499511719,1.491965889930725,-0.0,-0.0,-1.0,0.04731595632291726,2.0,2
25.51767349243164,-32.09464645385742,1.4836124181747437,-0.0,-0.0,-1.0,0.14919596513325561,1.0,2
27.069442749023438,-32.100284576416016,1.5581908226013184,-0.0,-0.0,-1.0,0.11805109489513677,1.0,2
26.653160095214844,-32.209041595458984,1.5207576751708984,-0.0,-0.0,-1.0,0.11809999484996961,1.0,2
25.994586944580078,-32.43083953857422,1.4440364837646484,-0.0,-0.0,-1.0,0.028203245857539496,1.0,2
26.890165328979492,-32.48664093017578,1.471127986907959,-0.0,-0.0,-1.0,0.1952718774759548,1.0,2
26.181406021118164,-32.66725158691406,1.404961347579956,-0.0,-0.0,-1.0,0.05216465186164292,2.0,2
25.616147994995117,-33.08736038208008,1.605583906173706,-0.0,-0.0,-1.0,0.02783069881914805,1.0,2
25.352367401123047,-33.25800704956055,1.5647910833358765,-0.0,-0.0,-1.0,0.007250974199013188,1.0,2
26.479724884033203,-33.14952087402344,1.626589059829712,-0.0,-0.0,-1.0,0.2050740702729549,2.0,2
26.29783058166504,-33.09291458129883,1.6307828426361084,-0.0,-0.0,-1.0,0.15632744849331384,1.0,2
25.32809829711914,-33.50104904174805,1.5225882530212402,-0.0,-0.0,-1.0,0.03680833763087277,1.0,2
25.255386352539062,-33.6007194519043,1.5025479793548584,-0.0,-0.0,-1.0,0.037970535995307586,1.0,2
27.09972381591797,-33.55095672607422,1.5703362226486206,-0.0,-0.0,-1.0,0.22665659449413067,2.0,2
26.770618438720703,-33.60734176635742,1.55393648147583,-0.2943782049125663,0.8523441391011347,-0.4322625834055048,0.1303949453579858,3.0,2
26.058805465698242,-33.86528015136719,1.4892966747283936,-0.0,-0.0,-1.0,0.11572598277803581,1.0,2
25.609779357910156,-33.870792388916016,1.4719154834747314,-0.0,-0.0,-1.0,0.08966285685985387,1.0,2
27.168697357177734,-33.67429733276367,1.549681544303894,-0.0,-0.0,-1.0,0.22082751594557296,2.0,2
26.789560317993164,-33.708595275878906,1.5366021394729614,-0.0,-0.0,-1.0,0.15642527385008986,1.0,2
26.45441246032715,-33.99144744873047,1.4789447784423828,-0.0,-0.0,-1.0,0.15009036627467603,1.0,2
26.013317108154297,-34.01727294921875,1.4613511562347412,-0.0,-0.0,-1.0,0.1402324602734948,1.0,2
25.76280403137207,-34.13886260986328,1.4318006038665771,-0.0,-0.0,-1.0,0.1085714058923872,1.0,2
27.552839279174805,-33.96603012084961,1.5023123025894165,-0.0,-0.0,-1.0,0.17818832961205297,1.0,2
27.2557430267334,-34.230873107910156,1.4522430896759033,-0.0,-0.0,-1.0,0.06777731633218823,1.0,2
26.434253692626953,-34.34418487548828,1.416808009147644,-0.0,-0.0,-1.0,0.12134058790951448,1.0,2
26.172143936157227,-31.948810577392578,1.8228036165237427,-0.0,-0.0,-1.0,0.1134365586469527,1.0,2
25.98762321472168,-31.979724884033203,1.9455267190933228,-0.0,-0.0,-1.0,0.04240581809888954,2.0,2
26.96385383605957,-33.55999755859375,1.8823049068450928,0.06795062549644147,0.9771653363686595,-0.20132217437273778,0.2801840113938769,3.0,2
26.268693923950195,-33.83811950683594,1.831650733947754,-0.0,-0.0,-1.0,0.16096070030039925,2.0,2
27.44575309753418,-33.789146423339844,1.8542201519012451,-0.0,-0.0,-1.0,0.19060374362653207,1.0,2
26.28178596496582,-33.98940658569336,1.8107924461364746,-0.0,-0.0,-1.0,0.18610855328233558,1.0,2
26.179794311523438,-33.925262451171875,1.8176403045654297,-0.0,-0.0,-1.0,0.1844836868716847,1.0,2
27.031572341918945,-34.275047302246094,1.7819935083389282,-0.0,-0.0,-1.0,0.16743940512687747,1.0,2
25.280025482177734,-31.864721298217773,1.4010804891586304,-0.0,-0.0,-1.0,0.16776534496683673,1.0,2
26.2159366607666,-32.1491584777832,1.3805739879608154,-0.0,-0.0,-1.0,0.053565329449210344,2.0,2
26.053497314453125,-32.073062896728516,1.3929994106292725,-0.0,-0.0,-1.0,0.0473930271902681,1.0,2
26.6861572265625,-32.37364196777344,1.337937593460083,-0.0,-0.0,-1.0,0.15549802104959878,1.0,2
26.438295364379883,-32.268959045410156,1.3579936027526855,-0.0,-0.0,-1.0,0.10575451740733968,1.0,2
26.596250534057617,-33.790103912353516,1.2959233522415161,-0.0,-0.0,-1.0,0.09798347115039302,1.0,2
26.555444717407227,-33.753841400146484,1.3030973672866821,-0.0,-0.0,-1.0,0.14348647124256164,2.0,2
25.231212615966797,-32.11247253417969,1.603097677230835,-0.0,-0.0,-1.0,0.168586593265787,1.0,2
26.588529586791992,-31.94706916809082,1.689242959022522,0.004100319968185634,0.9998538103722409,-0.016599556026274546,0.08266932292138164,3.0,2
26.2125244140625,-32.025169372558594,1.4110649824142456,-0.0,-0.0,-1.0,0.053202535731689427,2.0,2
26.72177505493164,-32.197959899902344,1.6380776166915894,-0.0,-0.0,-1.0,0.0719232495408637,2.0,2
25.58294677734375,-32.649375915527344,1.5091300010681152,-0.0,-0.0,-1.0,0.033953403864485095,2.0,2
25.361785888671875,-32.651100158691406,1.4989826679229736,-0.0,-0.0,-1.0,0.04248587165744701,1.0,2
26.390575408935547,-32.98236846923828,1.4647228717803955,-0.0,-0.0,-1.0,0.1614369863890942,1.0,2
26.057462692260742,-32.9916877746582,1.4542036056518555,-0.0,-0.0,-1.0,0.051583500724911566,1.0,2
25.80225372314453,-32.873844146728516,1.4708877801895142,-0.0,-0.0,-1.0,0.023772930045292753,2.0,2
26.461273193359375,-33.221160888671875,1.5591614246368408,-0.0,-0.0,-1.0,0.17232236561111014,1.0,2
26.27251434326172,-33.15858840942383,1.4246063232421875,-0.0,-0.0,-1.0,0.18429221029768525,1.0,2
26.218835830688477,-33.89630889892578,1.581654667854309,-0.7698701594326235,0.10961619393204426,-0.628716333208419,0.17463195923794197,3.0,2
26.116252899169922,-33.92910385131836,1.5740934610366821,-0.0,-0.0,-1.0,0.17080858015268566,2.0,2
25.43440055847168,-34.10627365112305,1.5269649028778076,-0.0,-0.0,-1.0,0.0629880657474805,1.0,2
25.256929397583008,-34.06736755371094,1.5282576084136963,0.0654298779511033,-0.2641430623242983,-0.9622615931737304,0.08142600040939567,3.0,2
26.35603904724121,-34.130062103271484,1.5421979427337646,-0.0,-0.0,-1.0,0.11066193027139817,1.0,2
26.03807258605957,-34.05264663696289,1.5508006811141968,-0.0,-0.0,-1.0,0.1603614436163097,1.0,2
25.585880279541016,-34.303672790527344,1.4965193271636963,-0.0,-0.0,-1.0,0.06872838017680478,2.0,2
26.499465942382812,-34.34727478027344,1.505365252494812,-0.0,-0.0,-1.0,0.14413306858205627,1.0,2
26.305604934692383,-31.93372917175293,1.9297029972076416,-0.0,-0.0,-1.0,0.03160474287974333,2.0,2
25.977291107177734,-32.039058685302734,2.0277442932128906,-0.0,-0.0,-1.0,0.049986792922575435,2.0,3
26.23944664001465,-33.8614387512207,1.8980281352996826,-0.0,-0.0,-1.0,0.14568113978540967,2.0,2
25.735116958618164,-32.859397888183594,1.4965629577636719,-0.0,-0.0,-1.0,0.0257853660942535,2.0,2
25.405872344970703,-32.71695327758789,1.520926833152771,-0.0,-0.0,-1.0,0.043952678420877696,1.0,2
25.77250862121582,-32.98788833618164,1.468362808227539,-0.0,-0.0,-1.0,0.029148425873925243,1.0,2
25.290451049804688,-34.05712890625,1.527726411819458,0.0654298779511033,-0.2641430623242983,-0.9622615931737304,0.09550419353356886,3.0,2
25.580413818359375,-34.31475067138672,1.4840810298919678,-0.0,-0.0,-1.0,0.06872838017680478,2.0,2
27.017333984375,-32.47492980957031,1.3803461790084839,-0.0,-0.0,-1.0,0.17385180680625167,2.0,2
26.801908493041992,-32.40169143676758,1.4146122932434082,-0.0,-0.0,-1.0,0.2201076356415127,1.0,2
26.629573822021484,-32.66569519042969,1.366554617881775,-0.0,-0.0,-1.0,0.042632607208632455,1.0,2
27.51463508605957,-33.712615966796875,1.371473789215088,-0.0,-0.0,-1.0,0.08629697077694597,2.0,2
27.256603240966797,-33.525978088378906,1.4250677824020386,-0.0,-0.0,-1.0,0.1502603324596511,2.0,2
27.619932174682617,-33.82469940185547,1.3424968719482422,-0.0,-0.0,-1.0,0.11355320168251522,2.0,2
27.10224151611328,-33.6779899597168,1.4049642086029053,-0.0,-0.0,-1.0,0.18039699157340364,1.0,2
26.74968910217285,-33.712703704833984,1.418337345123291,-0.0,-0.0,-1.0,0.13927266764345886,2.0,2
27.06700325012207,-33.99026107788086,1.3453772068023682,-0.0,-0.0,-1.0,0.12077692940058771,1.0,2
26.279762268066406,-31.89203453063965,1.807247281074524,-0.0,-0.0,-1.0,0.051512003500006356,1.0,2
26.746021270751953,-32.12256622314453,1.483109474182129,-0.0,-0.0,-1.0,0.10053288289022333,1.0,2
27.116226196289062,-33.477176666259766,1.5923691987991333,-0.0,-0.0,-1.0,0.2413014638183942,2.0,2
26.844757080078125,-33.33399200439453,1.4883887767791748,-0.0,-0.0,-1.0,0.13249248526652604,1.0,2
26.601118087768555,-33.060874938964844,1.5565434694290161,-0.0,-0.0,-1.0,0.23388017083966547,2.0,2
27.12517547607422,-33.77299880981445,1.6915632486343384,-0.0,-0.0,-1.0,0.17769735054343383,1.0,2
27.12238883972168,-34.255218505859375,1.6126755475997925,-0.0,-0.0,-1.0,0.13288691053206492,2.0,2
26.95699119567871,-33.97276306152344,1.666589379310608,-0.0,-0.0,-1.0,0.14239191162728237,1.0,2
26.327348709106445,-32.124961853027344,2.237203598022461,-0.0,-0.0,-1.0,0.041818921710503866,2.0,3
25.23388671875,-32.798465728759766,1.4381202459335327,-0.0,-0.0,-1.0,0.03265603967772664,1.0,2
25.526710510253906,-33.793357849121094,1.508600115776062,-0.0,-0.0,-1.0,0.10556287658420342,1.0,2
26.987937927246094,-33.46360778808594,1.442223310470581,-0.0,-0.0,-1.0,0.16848268255666501,2.0,2
26.328250885009766,-33.8189582824707,1.4515342712402344,-0.0,-0.0,-1.0,0.1168304372805374,1.0,2
25.24416160583496,-32.05359649658203,1.577582597732544,-0.0,-0.0,-1.0,0.12237708479002307,2.0,2
26.799104690551758,-33.7347412109375,1.4590122699737549,-0.0,-0.0,-1.0,0.1635455631029452,1.0,2
26.285959243774414,-31.89871597290039,1.4082897901535034,-0.0,-0.0,-1.0,0.07710291279938572,1.0,2
25.77899742126465,-34.102867126464844,1.6588969230651855,-0.0,-0.0,-1.0,0.11888488452138267,1.0,2
25.97783851623535,-33.96308135986328,1.6680998802185059,-0.0,-0.0,-1.0,0.15596187350714616,1.0,2
26.84746551513672,-33.6190185546875,1.695906162261963,-0.0,-0.0,-1.0,0.21175192753597424,2.0,2
26.569210052490234,-33.783203125,1.6849064826965332,-0.0,-0.0,-1.0,0.12872074277389295,2.0,2
27.198257446289062,-33.70680236816406,1.6048593521118164,-0.0,-0.0,-1.0,0.23254632619061272,2.0,2
27.302492141723633,-33.34844207763672,1.6065549850463867,-0.0,-0.0,-1.0,0.19159352081982262,1.0,2
26.49424934387207,-33.662567138671875,1.6928114891052246,-0.0,-0.0,-1.0,0.16194856012036832,1.0,2
26.62375831604004,-33.513832092285156,1.6829323768615723,-0.0,-0.0,-1.0,0.13183279090246572,1.0,2
26.99801254272461,-32.142826080322266,1.3699798583984375,-0.0,-0.0,-1.0,0.13977779182716535,1.0,2
25.40570831298828,-31.962146759033203,1.5723905563354492,-0.0,-0.0,-1.0,0.17156793435918963,1.0,2
27.046369552612305,-33.54084777832031,1.6904549598693848,-0.0,-0.0,-1.0,0.18192423087672768,2.0,2
26.299612045288086,-33.85903549194336,1.7222914695739746,-0.0,-0.0,-1.0,0.2116831491708543,1.0,2
27.15620994567871,-33.361148834228516,1.695563793182373,-0.0,-0.0,-1.0,0.13855376690311805,1.0,2
26.20974349975586,-33.915191650390625,1.58949613571167,-0.7698701594326235,0.10961619393204426,-0.628716333208419,0.22452952782869262,3.0,2
26.9246768951416,-33.59774398803711,1.640331745147705,-0.826412432638305,0.07760459637834166,-0.5576916870474163,0.21125628985752948,3.0,2
26.71225929260254,-33.48995590209961,1.3711371421813965,-0.0,-0.0,-1.0,0.2385056124905589,1.0,2
27.07097816467285,-33.520599365234375,1.3708600997924805,-0.0,-0.0,-1.0,0.22717740568307634,1.0,2
27.356290817260742,-33.742652893066406,1.3409075736999512,-0.0,-0.0,-1.0,0.11368089220061836,2.0,2
27.600008010864258,-33.87845230102539,1.323251724243164,-0.0,-0.0,-1.0,0.11227111177601565,1.0,2
26.50417709350586,-32.72899627685547,1.482534408569336,-0.0,-0.0,-1.0,0.06690657722419988,1.0,2
27.682479858398438,-32.8890380859375,1.470595359802246,-0.0,-0.0,-1.0,0.1253680086666226,1.0,2
25.6290283203125,-32.300872802734375,1.5352768898010254,-0.0,-0.0,-1.0,0.043288176107945636,1.0,2
25.78028106689453,-32.27342224121094,1.5415496826171875,-0.0,-0.0,-1.0,0.021722863778821207,1.0,2
27.439208984375,-33.77096176147461,1.3387541770935059,-0.0,-0.0,-1.0,0.10787541470237749,1.0,2
25.365768432617188,-32.99834060668945,1.5687260627746582,-0.0,-0.0,-1.0,0.013719246013981182,1.0,2
25.68081283569336,-32.85076141357422,1.5658478736877441,-0.0,-0.0,-1.0,0.025097741138823855,1.0,2
26.03781509399414,-33.065399169921875,1.517021656036377,-0.0,-0.0,-1.0,0.05278770894857373,2.0,2
26.29345703125,-33.23120880126953,1.4804835319519043,-0.0,-0.0,-1.0,0.17962355314533524,1.0,2
26.48172378540039,-32.126949310302734,1.5956077575683594,-0.0,-0.0,-1.0,0.11471139000015065,1.0,2
26.92013931274414,-33.59321212768555,1.395592212677002,-0.0,-0.0,-1.0,0.20411943963263002,1.0,2
27.649829864501953,-33.00962448120117,1.4106025695800781,-0.0,-0.0,-1.0,0.13836271058134522,2.0,2
27.676361083984375,-32.881412506103516,1.7121238708496094,-0.0,-0.0,-1.0,0.1067494239757649,1.0,2
25.66950225830078,-32.975765228271484,1.5685157775878906,0.46602230964560415,-0.8368639729435519,-0.2871966185415677,0.032281385658307224,3.0,2
26.02606201171875,-32.252925872802734,1.5238761901855469,-0.0,-0.0,-1.0,0.05378322726745375,2.0,2
25.994152069091797,-32.643943786621094,1.5223760604858398,-0.0,-0.0,-1.0,0.018023070038676436,1.0,2
25.885448455810547,-32.8636474609375,1.5360093116760254,-0.0,-0.0,-1.0,0.02684390395385493,1.0,2
25.741683959960938,-33.39295959472656,1.550283432006836,-0.0,-0.0,-1.0,0.005475510226995437,1.0,2
