x,y,z,nx,ny,nz,curvature,density,label
15.491307258605957,-24.73601722717285,1.5583401918411255,-0.0,-0.0,-1.0,0.1297955605480462,1.0,2
17.549592971801758,-25.305862426757812,1.6498674154281616,-0.0,-0.0,-1.0,0.12837344991753777,2.0,2
15.636549949645996,-25.211132049560547,1.5820893049240112,-0.0,-0.0,-1.0,0.13456003615774328,1.0,2
15.461596488952637,-24.992290496826172,1.5528560876846313,-0.0,-0.0,-1.0,0.13636072692363438,2.0,2
17.630338668823242,-25.969629287719727,1.6598912477493286,-0.0,-0.0,-1.0,0.08765602940286994,1.0,2
16.062705993652344,-25.651968002319336,1.6514787673950195,-0.0,-0.0,-1.0,0.2676837016302973,2.0,2
15.796046257019043,-25.490835189819336,1.6070950031280518,-0.0,-0.0,-1.0,0.22272398990010625,2.0,2
15.59048080444336,-25.272157669067383,1.5736676454544067,-0.0,-0.0,-1.0,0.09175602228295926,1.0,2
16.315595626831055,-26.10785484313965,1.6871757507324219,-0.0,-0.0,-1.0,0.18300350655849026,1.0,2
16.139480590820312,-25.965930938720703,1.6593959331512451,-0.0,-0.0,-1.0,0.17239354271365875,2.0,2
15.854202270507812,-25.8601016998291,1.611806869506836,-0.0,-0.0,-1.0,0.2293765104392237,1.0,2
17.57802963256836,-26.67774772644043,1.6284419298171997,-0.0,-0.0,-1.0,0.20334614298609707,1.0,2
17.172168731689453,-26.68632698059082,1.543139934539795,-0.0,-0.0,-1.0,0.14392836169885534,1.0,2
16.3314151763916,-26.224506378173828,1.6871944665908813,-0.0,-0.0,-1.0,0.21634686122663688,1.0,2
15.972206115722656,-26.201126098632812,1.6253142356872559,-0.0,-0.0,-1.0,0.1984848271440948,1.0,2
15.55864429473877,-26.316429138183594,1.5504518747329712,-0.0,-0.0,-1.0,0.1476485002844727,1.0,2
15.850075721740723,-26.840444564819336,1.5851534605026245,-0.0,-0.0,-1.0,0.15655949851619755,2.0,2
15.596211433410645,-26.65898895263672,1.547058343887329,-0.0,-0.0,-1.0,0.1955240426929433,1.0,2
16.315139770507812,-24.474863052368164,2.006275177001953,-0.0,-0.0,-1.0,0.15001160460270446,2.0,3
16.594188690185547,-24.895803451538086,2.0438950061798096,-0.0,-0.0,-1.0,0.20453743641668762,2.0,3
16.32709312438965,-24.58546257019043,2.008009910583496,-0.0,-0.0,-1.0,0.20131518554549424,1.0,3
15.29319953918457,-24.71039390563965,1.8665077686309814,-0.0,-0.0,-1.0,0.07620070260348517,1.0,2
15.374053955078125,-25.083026885986328,2.0432934761047363,0.9395315735783675,-0.3379035489995661,-0.05569213429968718,0.2543058924952654,3.0,3
16.38330078125,-25.78615379333496,2.005505323410034,-0.0,-0.0,-1.0,0.16213361730059755,1.0,3
16.038427352905273,-25.59194564819336,1.9609800577163696,-0.0,-0.0,-1.0,0.14608392055130137,1.0,2
15.930456161499023,-25.39811897277832,1.9486827850341797,-0.0,-0.0,-1.0,0.2095798928217653,1.0,2
16.311437606811523,-26.061819076538086,1.9902771711349487,-0.0,-0.0,-1.0,0.20472872648534707,2.0,2
16.18700408935547,-25.982498168945312,1.9746723175048828,-0.0,-0.0,-1.0,0.2078056590388401,1.0,2
15.316153526306152,-25.713451385498047,2.1947426795959473,-0.0,-0.0,-1.0,0.1625204337834451,2.0,3
17.67647933959961,-26.825796127319336,2.1575684547424316,-0.0,-0.0,-1.0,0.08103502970755842,1.0,3
15.54085636138916,-26.306514739990234,2.0426177978515625,-0.0,-0.0,-1.0,0.11811702824765084,2.0,3
15.737613677978516,-26.846139907836914,1.8902658224105835,-0.0,-0.0,-1.0,0.07785588881922817,1.0,2
15.67494010925293,-26.659465789794922,1.8873282670974731,-0.0,-0.0,-1.0,0.11904923562245791,1.0,2
16.07074546813965,-26.146589279174805,2.263693332672119,-0.0,-0.0,-1.0,0.1292177129704121,1.0,3
15.815571784973145,-26.30612564086914,2.2338919639587402,-0.0,-0.0,-1.0,0.16371712543876116,1.0,3
16.702896118164062,-24.776823043823242,1.0817649364471436,-0.0,-0.0,-1.0,0.0972175475519725,1.0,2
16.653425216674805,-25.093019485473633,1.073268175125122,-0.0,-0.0,-1.0,0.08237661802349837,2.0,2
16.650022506713867,-24.92380142211914,1.0701019763946533,-0.0,-0.0,-1.0,0.10024324432789311,1.0,2
16.667587280273438,-25.319181442260742,1.0787687301635742,-0.0,-0.0,-1.0,0.09488789336931917,1.0,2
17.116230010986328,-24.50403594970703,1.3194029331207275,-0.0,-0.0,-1.0,0.21590510389425388,2.0,2
16.923900604248047,-24.65486717224121,1.2738391160964966,-0.0,-0.0,-1.0,0.19956098465243577,2.0,2
16.665687561035156,-24.647315979003906,1.2107081413269043,0.142013734727203,0.9660579112582954,-0.21578742142231389,0.21116103064757533,3.0,2
16.00143814086914,-24.496837615966797,1.1883381605148315,-0.0,-0.0,-1.0,0.07584629442225686,1.0,2
17.50269889831543,-25.34435272216797,1.3094185590744019,-0.11355488244745002,0.17346418202684222,-0.9782716730162969,0.13476276604271198,4.0,2
17.017202377319336,-25.220386505126953,1.1747685670852661,-0.267928958935914,-0.9490187078280605,-0.16606494258534957,0.18679908035104792,3.0,2
16.786529541015625,-25.225887298583984,1.111182689666748,-0.0,-0.0,-1.0,0.0897604237728605,1.0,2
16.612293243408203,-24.86859893798828,1.3398284912109375,-0.0,-0.0,-1.0,0.16420670591575112,1.0,2
15.945869445800781,-24.759611129760742,1.179862141609192,-0.0,-0.0,-1.0,0.10752268391830822,1.0,2
15.710521697998047,-24.76441192626953,1.2804068326950073,-0.4102883638906615,0.018823475423687206,-0.9117615561257766,0.21532694912919653,3.0,2
15.465296745300293,-24.514751434326172,1.3814085721969604,-0.0,-0.0,-1.0,0.18619189660497398,1.0,2
16.986465454101562,-25.748777389526367,1.296939730644226,-0.0,-0.0,-1.0,0.24451186658016175,2.0,2
16.7108154296875,-25.484210968017578,1.0905146598815918,-0.0,-0.0,-1.0,0.11211827927030685,1.0,2
16.250150680541992,-25.445011138916016,1.2559701204299927,-0.0,-0.0,-1.0,0.1985944228428692,1.0,2
15.924301147460938,-25.19522476196289,1.331308126449585,-0.0,-0.0,-1.0,0.17968221527594455,1.0,2
15.622505187988281,-25.028955459594727,1.4173732995986938,-0.0,-0.0,-1.0,0.17326494882815854,1.0,2
15.258240699768066,-24.913597106933594,1.3435295820236206,-0.0,-0.0,-1.0,0.15118762489019721,1.0,2
17.630584716796875,-26.408340454101562,1.3256508111953735,-0.0,-0.0,-1.0,0.1577361910412563,2.0,2
17.129037857055664,-26.03679656982422,1.1990748643875122,-0.0,-0.0,-1.0,0.11393271876743348,1.0,2
16.887561798095703,-26.05240821838379,1.1316235065460205,-0.0,-0.0,-1.0,0.041444395936574896,1.0,2
16.442359924316406,-25.936315536499023,1.296484351158142,-0.0,-0.0,-1.0,0.21760787057835054,2.0,2
16.193525314331055,-25.71857261657715,1.2402279376983643,-0.0,-0.0,-1.0,0.19114163638428164,1.0,2
17.5301570892334,-26.724716186523438,1.2838189601898193,-0.0,-0.0,-1.0,0.11951263790234301,1.0,2
17.15145492553711,-26.639488220214844,1.3138928413391113,-0.0,-0.0,-1.0,0.13925216436066581,1.0,2
16.898672103881836,-26.3032283782959,1.1277527809143066,-0.0,-0.0,-1.0,0.029231413314880765,1.0,2
16.22806167602539,-26.258920669555664,1.2375361919403076,-0.0,-0.0,-1.0,0.08425407798185502,2.0,2
15.764416694641113,-26.05030059814453,1.437382459640503,-0.0,-0.0,-1.0,0.1574629557278037,2.0,2
17.018024444580078,-26.853748321533203,1.4033875465393066,-0.0,-0.0,-1.0,0.0975507022047525,1.0,2
16.264202117919922,-26.58873176574707,1.2352960109710693,-0.0,-0.0,-1.0,0.161180484494402,2.0,2
15.829484939575195,-26.536731719970703,1.437656044960022,-0.0,-0.0,-1.0,0.06721074121613149,2.0,2
15.562338829040527,-26.408119201660156,1.3875689506530762,-0.0,-0.0,-1.0,0.17458711193168983,1.0,2
15.938557624816895,-26.849925994873047,1.448614478111267,-0.0,-0.0,-1.0,0.11560472783211537,1.0,2
15.851536750793457,-26.77334213256836,1.4340441226959229,-0.0,-0.0,-1.0,0.11463963361557172,2.0,2
15.454225540161133,-26.727867126464844,1.355514645576477,-0.0,-0.0,-1.0,0.12009493025385129,1.0,2
17.191551208496094,-24.44036102294922,1.725333571434021,-0.0,-0.0,-1.0,0.1969755714670148,2.0,2
16.55645751953125,-24.377769470214844,1.8747590780258179,-0.0,-0.0,-1.0,0.17053021146999353,1.0,2
17.583984375,-25.203140258789062,1.8143596649169922,-0.0,-0.0,-1.0,0.1283734499175378,1.0,2
16.964113235473633,-24.685604095458984,1.6846461296081543,-0.0,-0.0,-1.0,0.1309589947037239,1.0,2
16.503860473632812,-24.65928840637207,1.7315027713775635,0.305426592706198,0.2609363380705087,-0.9157657036285185,0.14835262220625672,3.0,2
16.313968658447266,-24.44792938232422,1.83584725856781,-0.0,-0.0,-1.0,0.13314548422200395,1.0,2
16.533687591552734,-24.94193458557129,1.7377604246139526,-0.0,-0.0,-1.0,0.12869584921719973,1.0,2
15.34530258178711,-24.709474563598633,1.6783082485198975,-0.0,-0.0,-1.0,0.15979382377697496,2.0,2
17.62647247314453,-26.046966552734375,1.57783842086792,-0.0,-0.0,-1.0,0.07741233296046461,2.0,2
16.13421630859375,-25.384536743164062,1.5207065343856812,-0.0,-0.0,-1.0,0.11219147156823521,1.0,2
15.993103981018066,-25.32559585571289,1.492357850074768,-0.0,-0.0,-1.0,0.10868829892675617,1.0,2
15.438451766967773,-25.14129638671875,1.6941852569580078,-0.0,-0.0,-1.0,0.27168904130520105,2.0,2
15.24039363861084,-24.92062759399414,1.6614270210266113,-0.804878897993199,0.4127117370774424,-0.4264258219711531,0.12856590104584328,3.0,2
17.622989654541016,-26.443571090698242,1.564618468284607,-0.0,-0.0,-1.0,0.08879200665723497,1.0,2
16.326494216918945,-25.939945220947266,1.6945147514343262,-0.0,-0.0,-1.0,0.15821559846956026,2.0,2
16.12735366821289,-25.70659065246582,1.660563588142395,-0.15561053115787896,-0.9011111457177826,-0.4047024408821224,0.19878234456335966,3.0,2
15.853395462036133,-25.54755401611328,1.6129083633422852,-0.0,-0.0,-1.0,0.17144343724121713,1.0,2
15.354255676269531,-25.44780158996582,1.6784918308258057,-0.0,-0.0,-1.0,0.14391594555891024,1.0,2
17.425127029418945,-26.784669876098633,1.5031685829162598,-0.0,-0.0,-1.0,0.13902018919429826,2.0,2
17.2424259185791,-26.66282081604004,1.4654865264892578,-0.0,-0.0,-1.0,0.20082257494744613,1.0,2
16.29362678527832,-26.16206169128418,1.6833710670471191,-0.0,-0.0,-1.0,0.24544436289985128,1.0,2
16.02545928955078,-26.115148544311523,1.6358182430267334,-0.0,-0.0,-1.0,0.18151120864770204,2.0,2
15.857284545898438,-25.876575469970703,1.7571907043457031,-0.0,-0.0,-1.0,0.13964430083403237,1.0,2
16.10480499267578,-26.641965866088867,1.4898899793624878,-0.0,-0.0,-1.0,0.13894892036171738,2.0,2
15.349586486816406,-26.367429733276367,1.6623690128326416,-0.0,-0.0,-1.0,0.21332470400485276,1.0,2
15.673237800598145,-26.77516746520996,1.7043442726135254,-0.0,-0.0,-1.0,0.08193548142127094,2.0,2
15.331693649291992,-26.684717178344727,1.650309681892395,-0.0,-0.0,-1.0,0.15462203254425677,1.0,2
16.732837677001953,-24.916900634765625,2.1739308834075928,-0.0,-0.0,-1.0,0.20688538915935792,1.0,3
16.594141006469727,-24.790401458740234,2.0208301544189453,-0.0,-0.0,-1.0,0.1593324328910458,1.0,3
16.255477905273438,-24.519283294677734,2.110929250717163,-0.0,-0.0,-1.0,0.16032324199695902,2.0,3
15.417259216308594,-25.135282516479492,2.001615524291992,-0.0,-0.0,-1.0,0.20397947576183864,1.0,3
15.231025695800781,-24.908679962158203,1.9780958890914917,-0.0,-0.0,-1.0,0.09013891816854512,1.0,2
17.540348052978516,-26.26025390625,2.029944896697998,-0.0,-0.0,-1.0,0.017060260686399965,2.0,3
16.271312713623047,-25.958465576171875,2.1044297218322754,-0.0,-0.0,-1.0,0.15857538129893028,1.0,3
15.967662811279297,-25.77348518371582,2.0674328804016113,-0.0,-0.0,-1.0,0.19775549500161682,1.0,3
15.735751152038574,-25.53989028930664,2.0400476455688477,-0.0,-0.0,-1.0,0.16104168089109228,1.0,3
15.380589485168457,-25.4837703704834,1.9940989017486572,-0.0,-0.0,-1.0,0.24644280196988683,1.0,2
17.511455535888672,-26.74994468688965,2.0097925662994385,-0.33886377439783383,0.8276182176054306,-0.44745885653148476,0.10849105326001124,3.0,3
15.642815589904785,-25.98705291748047,2.021355628967285,-0.0,-0.0,-1.0,0.23255778281896072,2.0,3
15.5691499710083,-26.718860626220703,1.995270848274231,-0.0,-0.0,-1.0,0.1537650445403845,1.0,2
15.293926239013672,-25.174724578857422,2.2976183891296387,-0.0,-0.0,-1.0,0.15077817506747632,1.0,3
15.513079643249512,-26.18282699584961,2.3048758506774902,-0.0,-0.0,-1.0,0.1712739512836361,2.0,3
17.64754867553711,-24.369529724121094,1.3778316974639893,-0.0,-0.0,-1.0,0.1255242419700335,1.0,2
16.953638076782227,-24.490049362182617,1.3229329586029053,-0.0,-0.0,-1.0,0.1337943234249786,1.0,2
17.515222549438477,-25.32036590576172,1.3713643550872803,-0.0,-0.0,-1.0,0.10825276426876952,1.0,2
16.621883392333984,-24.804903030395508,1.2448670864105225,-0.0,-0.0,-1.0,0.19761650112022092,1.0,2
16.55484962463379,-24.647048950195312,1.2227267026901245,-0.0,-0.0,-1.0,0.14782725008995873,2.0,2
17.59368324279785,-26.144201278686523,1.3881001472473145,-0.0,-0.0,-1.0,0.09877947550414924,1.0,2
16.998458862304688,-25.664318084716797,1.227792501449585,-0.6712885035857499,0.26092011141619953,-0.6937524345270163,0.1798900221872214,3.0,2
16.730512619018555,-25.36071014404297,1.1512383222579956,-0.0,-0.0,-1.0,0.04356377096031416,2.0,2
16.55379867553711,-25.18946075439453,1.0998706817626953,-0.0,-0.0,-1.0,0.04388842750615959,1.0,2
16.091655731201172,-25.09444236755371,1.2555134296417236,-0.0,-0.0,-1.0,0.1627863359752316,2.0,2
15.759337425231934,-24.758132934570312,1.1684136390686035,-0.0,-0.0,-1.0,0.12950026866780354,1.0,2
15.516439437866211,-24.561185836791992,1.4085896015167236,-0.0,-0.0,-1.0,0.19596905562037087,1.0,2
17.683395385742188,-26.46466827392578,1.4026908874511719,-0.0,-0.0,-1.0,0.13141579296338374,2.0,2
16.616247177124023,-25.721277236938477,1.119849681854248,-0.0,-0.0,-1.0,0.11170728710604384,2.0,2
16.392850875854492,-25.477699279785156,1.1975828409194946,-0.0,-0.0,-1.0,0.13089642171559887,2.0,2
16.07301902770996,-25.20812225341797,1.2523291110992432,-0.0,-0.0,-1.0,0.21827974364928127,1.0,2
15.613381385803223,-24.909887313842773,1.2882330417633057,-0.0,-0.0,-1.0,0.19778120980442715,2.0,2
15.392183303833008,-24.83785629272461,1.388933777809143,-0.0,-0.0,-1.0,0.16599498326647888,1.0,2
17.414836883544922,-26.746519088745117,1.316347360610962,-0.0,-0.0,-1.0,0.1323331215122385,2.0,2
16.95728874206543,-26.506502151489258,1.1995770931243896,-0.0,-0.0,-1.0,0.033356061641353095,1.0,2
16.703136444091797,-26.23517417907715,1.1368285417556763,-0.0,-0.0,-1.0,0.05897665633426223,1.0,2
16.49063491821289,-26.002674102783203,1.2193305492401123,-0.0,-0.0,-1.0,0.14977678316880874,1.0,2
16.119709014892578,-25.77803611755371,1.2653253078460693,-0.0,-0.0,-1.0,0.1554023463736091,1.0,2
16.470596313476562,-26.75730323791504,1.3293671607971191,-0.0,-0.0,-1.0,0.17349233417719387,1.0,2
16.127904891967773,-26.39505386352539,1.2577191591262817,-0.0,-0.0,-1.0,0.12886425223609332,2.0,2
16.36458969116211,-26.811399459838867,1.3020182847976685,-0.0,-0.0,-1.0,0.19824359673359063,1.0,2
16.118011474609375,-26.650493621826172,1.2483412027359009,-0.0,-0.0,-1.0,0.21959016308916074,2.0,2
15.492146492004395,-26.327842712402344,1.4094702005386353,-0.0,-0.0,-1.0,0.16281916871854862,2.0,2
15.311845779418945,-26.448881149291992,1.3701211214065552,-0.0,-0.0,-1.0,0.13445242381360628,1.0,2
15.308011054992676,-26.801057815551758,1.3607556819915771,-0.0,-0.0,-1.0,0.17543864482086244,1.0,2
15.238430976867676,-26.527833938598633,1.3534038066864014,-0.0,-0.0,-1.0,0.17049985466912929,1.0,2
17.521957397460938,-25.099929809570312,1.6026140451431274,0.1254723815463736,-0.5856980483306898,-0.8007586887762768,0.12530957412454147,3.0,2
17.200130462646484,-24.585601806640625,1.7539124488830566,-0.0,-0.0,-1.0,0.14923217623041612,1.0,2
16.981779098510742,-24.526376724243164,1.583251714706421,-0.0,-0.0,-1.0,0.17754507392469798,1.0,2
16.65093994140625,-24.437488555908203,1.6375317573547363,-0.0,-0.0,-1.0,0.1704644300853354,1.0,2
17.54064178466797,-25.297714233398438,1.6099762916564941,-0.0,-0.0,-1.0,0.11919560327988746,2.0,2
16.660371780395508,-24.75487518310547,1.647953748703003,-0.7458758305400652,0.3838526467303874,-0.5443586970135079,0.18355723993286213,4.0,2
16.496143341064453,-24.606399536132812,1.6106797456741333,0.34482074620745373,-0.2982566185048988,-0.8900233943571135,0.1412247671486742,3.0,2
17.597700119018555,-25.935955047607422,1.6230639219284058,-0.0,-0.0,-1.0,0.0812695290101296,2.0,2
15.613831520080566,-24.77579116821289,1.4334564208984375,-0.7708646566201395,0.6279119975628671,0.10721102784006974,0.18592700886597574,3.0,2
15.502857208251953,-24.600421905517578,1.7070722579956055,-0.0,-0.0,-1.0,0.15806934120857127,1.0,2
17.602094650268555,-26.588455200195312,1.60763680934906,-0.0,-0.0,-1.0,0.15174134086276406,1.0,2
16.107370376586914,-25.566980361938477,1.6813074350357056,-0.0,-0.0,-1.0,0.2166118613109492,1.0,2
15.931171417236328,-25.419231414794922,1.6470497846603394,-0.0,-0.0,-1.0,0.28625229381457207,1.0,2
15.559967041015625,-25.07835578918457,1.5773245096206665,-0.0,-0.0,-1.0,0.14293497227572474,1.0,2
15.267946243286133,-24.857683181762695,1.6713262796401978,-0.0,-0.0,-1.0,0.17017728614945396,1.0,2
16.321107864379883,-26.044267654418945,1.5843530893325806,-0.0,-0.0,-1.0,0.19993623818023332,2.0,2
16.051258087158203,-25.721282958984375,1.6702065467834473,-0.0,-0.0,-1.0,0.1278628163938054,1.0,2
15.78622055053711,-25.53887367248535,1.6225229501724243,-0.4277283548414835,-0.8291161378519758,-0.360020672209279,0.21519471502770385,3.0,2
15.402213096618652,-25.309371948242188,1.6982955932617188,-0.0,-0.0,-1.0,0.19370931904687633,2.0,2
16.193971633911133,-26.43707847595215,1.5514013767242432,-0.0,-0.0,-1.0,0.17145142276892894,2.0,2
15.888988494873047,-26.11853790283203,1.6360199451446533,-0.0,-0.0,-1.0,0.23067119874826014,1.0,2
15.649023056030273,-26.056066513061523,1.4457253217697144,-0.0,-0.0,-1.0,0.1478493762680061,1.0,2
15.905357360839844,-26.71529197692871,1.4852882623672485,-0.0,-0.0,-1.0,0.11645827543364132,1.0,2
15.69863224029541,-26.422027587890625,1.4500197172164917,-0.0,-0.0,-1.0,0.17343375771030484,2.0,2
15.306674003601074,-26.310270309448242,1.6777644157409668,-0.0,-0.0,-1.0,0.22438130528929204,1.0,2
16.50657844543457,-24.397384643554688,2.00248384475708,-0.0,-0.0,-1.0,0.14917385043279777,1.0,3
16.617172241210938,-24.861988067626953,1.9003926515579224,-0.0,-0.0,-1.0,0.14844274832954846,1.0,2
16.38764190673828,-24.518230438232422,1.9884247779846191,-0.0,-0.0,-1.0,0.20474478724736148,1.0,2
16.092227935791016,-24.457664489746094,2.080110549926758,0.8796223775993434,0.28456300767643034,0.3811671122862286,0.06821669819383341,4.0,3
17.49999237060547,-26.234758377075195,2.051121711730957,-0.0,-0.0,-1.0,0.01706026068639997,1.0,3
16.418405532836914,-25.766794204711914,1.8718512058258057,-0.0,-0.0,-1.0,0.1677816907832612,1.0,2
15.833768844604492,-25.348981857299805,2.05490779876709,-0.0,-0.0,-1.0,0.19381628490813632,1.0,3
15.465354919433594,-25.04744529724121,2.0036444664001465,-0.0,-0.0,-1.0,0.24594492804626208,2.0,3
15.324280738830566,-24.726774215698242,1.9814887046813965,-0.0,-0.0,-1.0,0.15541423137307356,1.0,2
17.501537322998047,-26.859786987304688,2.0362606048583984,-0.0,-0.0,-1.0,0.10203619114911879,1.0,3
16.294572830200195,-26.066017150878906,1.848459243774414,-0.0,-0.0,-1.0,0.1914312330240771,1.0,2
16.140268325805664,-25.82923698425293,1.9620784521102905,-0.0,-0.0,-1.0,0.16860147846068124,1.0,2
15.82524299621582,-25.646474838256836,2.0539944171905518,-0.0,-0.0,-1.0,0.12002091668064271,1.0,3
15.24219799041748,-25.321779251098633,1.9750434160232544,-0.0,-0.0,-1.0,0.09026158318536613,1.0,2
15.703749656677246,-26.14682388305664,2.035252571105957,-0.0,-0.0,-1.0,0.19219778946160812,1.0,3
15.56518840789795,-25.969820022583008,2.0178799629211426,-0.0,-0.0,-1.0,0.2645572812211334,1.0,3
15.535022735595703,-26.664993286132812,2.0062036514282227,-0.12215604134763922,0.9157542691341928,-0.3827166316281202,0.1406448954549596,4.0,3
16.053884506225586,-24.485557556152344,2.3505430221557617,-0.0,-0.0,-1.0,0.07426589534272014,1.0,3
15.255179405212402,-24.823448181152344,2.275054454803467,-0.0,-0.0,-1.0,0.0775701738935425,1.0,3
15.303084373474121,-25.124439239501953,2.2816319465637207,-0.0,-0.0,-1.0,0.20442958029268732,1.0,3
15.565133094787598,-26.168176651000977,2.306715965270996,-0.0,-0.0,-1.0,0.20354195908338735,2.0,3
15.44814395904541,-26.11811637878418,2.2954273223876953,-0.0,-0.0,-1.0,0.17454328603938474,2.0,3
17.51788330078125,-24.414289474487305,1.40072500705719,-0.0,-0.0,-1.0,0.08259660787643797,1.0,2
17.29676055908203,-24.98813247680664,1.346997857093811,-0.0,-0.0,-1.0,0.250649870097066,1.0,2
17.032400131225586,-24.59302520751953,1.2647286653518677,-0.0,-0.0,-1.0,0.19902433361409763,2.0,2
17.037992477416992,-24.531177520751953,1.2649668455123901,-0.0,-0.0,-1.0,0.21009924544955502,1.0,2
16.937387466430664,-24.669553756713867,1.2386537790298462,-0.0,-0.0,-1.0,0.21302086202440929,2.0,2
16.612384796142578,-24.65182113647461,1.2728396654129028,-0.0,-0.0,-1.0,0.14095778488568242,2.0,2
17.527006149291992,-26.244394302368164,1.3853228092193604,-0.0,-0.0,-1.0,0.20217985035893843,2.0,2
17.012693405151367,-25.742080688476562,1.2559378147125244,-0.0,-0.0,-1.0,0.25469984164268455,2.0,2
16.8829288482666,-25.294334411621094,1.225894808769226,-0.0,-0.0,-1.0,0.11571724377713681,1.0,2
16.571517944335938,-25.144166946411133,1.1354964971542358,-0.0,-0.0,-1.0,0.07753253133311723,2.0,2
16.534835815429688,-24.8706111907959,1.2532628774642944,-0.0,-0.0,-1.0,0.13511964947577257,2.0,2
17.31914520263672,-26.501976013183594,1.3113726377487183,-0.0,-0.0,-1.0,0.11687335924336313,2.0,2
17.176177978515625,-26.465267181396484,1.2726613283157349,-0.0,-0.0,-1.0,0.06517101862634558,1.0,2
16.751371383666992,-25.993669509887695,1.172004222869873,-0.0,-0.0,-1.0,0.1407093225588761,1.0,2
16.6508731842041,-25.65105628967285,1.1526566743850708,-0.0,-0.0,-1.0,0.1425817780441177,1.0,2
16.418113708496094,-25.49126434326172,1.2218961715698242,-0.0,-0.0,-1.0,0.1297286954219227,2.0,2
16.044740676879883,-25.259841918945312,1.2571215629577637,-0.0,-0.0,-1.0,0.21859325602063634,1.0,2
15.826364517211914,-24.94430923461914,1.2019835710525513,-0.0,-0.0,-1.0,0.15021965212190266,2.0,2
17.123680114746094,-26.76390266418457,1.238692283630371,-0.0,-0.0,-1.0,0.08206026627063621,1.0,2
16.919944763183594,-26.546485900878906,1.194278597831726,-0.0,-0.0,-1.0,0.07795160282807422,1.0,2
16.607858657836914,-26.262805938720703,1.250596046447754,-0.0,-0.0,-1.0,0.16556213745499046,2.0,2
16.377609252929688,-26.01494598388672,1.3277137279510498,-0.0,-0.0,-1.0,0.1906952939694109,2.0,2
16.16893768310547,-25.730310440063477,1.2823947668075562,-0.0,-0.0,-1.0,0.17232847231924914,1.0,2
15.748763084411621,-25.09319305419922,1.1825792789459229,-0.0,-0.0,-1.0,0.08851042997763124,1.0,2
16.253314971923828,-26.592626571655273,1.273515224456787,-0.0,-0.0,-1.0,0.26499363275767157,2.0,2
16.146381378173828,-26.372615814208984,1.256820559501648,-0.0,-0.0,-1.0,0.13530505799853185,2.0,2
17.633502960205078,-24.368675231933594,1.6507083177566528,-0.0,-0.0,-1.0,0.14106236041546213,1.0,2
17.649839401245117,-25.24230194091797,1.5597220659255981,-0.0,-0.0,-1.0,0.0855753724380581,1.0,2
17.109914779663086,-24.650110244750977,1.6406980752944946,-0.0,-0.0,-1.0,0.21159961762664303,2.0,2
17.035001754760742,-24.4034481048584,1.616811990737915,-0.0,-0.0,-1.0,0.11148304451502222,1.0,2
17.518022537231445,-25.3887939453125,1.5199322700500488,-0.0,-0.0,-1.0,0.11945546523161535,1.0,2
17.003114700317383,-24.798105239868164,1.7355080842971802,-0.0,-0.0,-1.0,0.2304226971516111,1.0,2
16.60117530822754,-24.696197509765625,1.5230036973953247,-0.0,-0.0,-1.0,0.1640164384421832,1.0,2
17.706172943115234,-26.609262466430664,1.4146740436553955,-0.0,-0.0,-1.0,0.11526370538602426,2.0,2
17.561731338500977,-26.057504653930664,1.6250661611557007,-0.0,-0.0,-1.0,0.07592280515659908,1.0,2
16.97303009033203,-25.81229019165039,1.4842032194137573,-0.0,-0.0,-1.0,0.2156948205839448,2.0,2
16.45780372619629,-24.73800277709961,1.6166527271270752,-0.0,-0.0,-1.0,0.22549719362809106,1.0,2
17.652753829956055,-26.648195266723633,1.5080223083496094,-0.0,-0.0,-1.0,0.16901921152164406,2.0,2
16.177663803100586,-25.37760353088379,1.5559011697769165,-0.0,-0.0,-1.0,0.11120463189774324,1.0,2
15.894100189208984,-25.1746826171875,1.4955260753631592,-0.0,-0.0,-1.0,0.14532623213055548,2.0,2
15.659051895141602,-24.82147216796875,1.4439876079559326,-0.0,-0.0,-1.0,0.18414252666582617,1.0,2
15.465070724487305,-24.483640670776367,1.5453284978866577,-0.0,-0.0,-1.0,0.2156897339383598,1.0,2
16.476673126220703,-26.25303840637207,1.6022695302963257,-0.0,-0.0,-1.0,0.2409854297948114,1.0,2
16.272340774536133,-26.06822967529297,1.5637232065200806,0.12905448287816737,-0.4921513741113387,-0.8608902168159249,0.23547376098261122,4.0,2
15.937780380249023,-25.71249008178711,1.636828064918518,-0.0,-0.0,-1.0,0.19293062218857615,2.0,2
15.845401763916016,-25.48006248474121,1.620700478553772,-0.0,-0.0,-1.0,0.2528933165790386,2.0,2
15.449628829956055,-25.11418914794922,1.5437650680541992,-0.0,-0.0,-1.0,0.14566506021392817,2.0,2
15.253798484802246,-24.904346466064453,1.6518828868865967,-0.804878897993199,0.4127117370774424,-0.4264258219711531,0.1493865099212439,3.0,2
16.193603515625,-26.60799789428711,1.5278840065002441,-0.0,-0.0,-1.0,0.1271855186648225,1.0,2
15.886137008666992,-26.22861099243164,1.4757541418075562,-0.0,-0.0,-1.0,0.23552499022088189,1.0,2
15.775777816772461,-26.042320251464844,1.5958831310272217,-0.0,-0.0,-1.0,0.21331262722115116,1.0,2
15.442129135131836,-25.596433639526367,1.6823596954345703,-0.0,-0.0,-1.0,0.14209727363140218,1.0,2
15.830238342285156,-26.850971221923828,1.5823686122894287,-0.0,-0.0,-1.0,0.10747954752021457,2.0,2
15.60350513458252,-26.5316219329834,1.5503058433532715,-0.0,-0.0,-1.0,0.2028186053546128,1.0,2
15.475052833557129,-26.28835105895996,1.6754857301712036,-0.0,-0.0,-1.0,0.16517379817815503,2.0,2
17.54856300354004,-25.233068466186523,1.8547024726867676,-0.0,-0.0,-1.0,0.12914573774899435,1.0,2
16.446184158325195,-24.594892501831055,1.9915831089019775,-0.0,-0.0,-1.0,0.1886645620408883,1.0,2
16.259315490722656,-24.371530532836914,1.9580028057098389,-0.0,-0.0,-1.0,0.0913565949437927,2.0,2
17.574787139892578,-26.27385902404785,2.051753044128418,-0.0,-0.0,-1.0,0.01789223744656586,2.0,3
16.59992218017578,-24.973167419433594,2.0165538787841797,-0.0,-0.0,-1.0,0.15986777952154085,1.0,3
16.517791748046875,-24.874347686767578,1.8803845643997192,-0.0,-0.0,-1.0,0.12231175987510506,1.0,2
16.130250930786133,-24.49849510192871,1.9379053115844727,-0.0,-0.0,-1.0,0.0607636630287486,1.0,2
17.5242919921875,-26.73649024963379,2.024956703186035,-0.7269603023340707,0.4031203105228956,-0.5558981328213657,0.10849105326001121,4.0,3
15.446945190429688,-24.625404357910156,1.970744013786316,-0.0,-0.0,-1.0,0.12867382065706362,1.0,2
16.435258865356445,-26.281497955322266,1.8477272987365723,-0.0,-0.0,-1.0,0.18167467680386654,1.0,2
16.273502349853516,-26.08329963684082,1.9524861574172974,-0.0,-0.0,-1.0,0.24956294314108102,1.0,2
15.996956825256348,-25.73242950439453,1.913290023803711,-0.0,-0.0,-1.0,0.22802711697844746,2.0,2
15.307938575744629,-25.169668197631836,1.951126217842102,-0.0,-0.0,-1.0,0.15025718764713908,1.0,2
15.249794960021973,-24.845802307128906,1.9430291652679443,-0.0,-0.0,-1.0,0.07646105799173149,1.0,2
15.834457397460938,-26.042205810546875,2.0182456970214844,-0.0,-0.0,-1.0,0.2350747324761295,1.0,3
15.251136779785156,-25.65437126159668,1.9394094944000244,-0.0,-0.0,-1.0,0.16651122018657272,1.0,2
15.211291313171387,-25.457035064697266,1.9353584051132202,-0.0,-0.0,-1.0,0.12150814275810325,1.0,2
15.525235176086426,-26.562166213989258,1.962735891342163,-0.0,-0.0,-1.0,0.1997162022200513,1.0,2
15.487128257751465,-26.329547882080078,1.9624649286270142,-0.0,-0.0,-1.0,0.1622449065042675,2.0,2
15.287251472473145,-26.442516326904297,1.9314255714416504,-0.0,-0.0,-1.0,0.15747878072747254,1.0,2
15.337479591369629,-25.198184967041016,2.2409539222717285,-0.0,-0.0,-1.0,0.13217068503732268,2.0,3
15.344754219055176,-24.972272872924805,2.2423648834228516,-0.0,-0.0,-1.0,0.13909572959074132,2.0,3
15.900983810424805,-26.173885345458984,2.2933285236358643,-0.0,-0.0,-1.0,0.15213221169634583,1.0,3
15.360795974731445,-25.761240005493164,2.239558458328247,-0.0,-0.0,-1.0,0.14442254088169337,1.0,3
15.570671081542969,-26.230619430541992,2.2564809322357178,-0.0,-0.0,-1.0,0.1462526855586124,1.0,3
15.311657905578613,-25.921485900878906,2.232426166534424,-0.0,-0.0,-1.0,0.12041256523010214,1.0,3
15.343968391418457,-26.47641372680664,2.2277724742889404,-0.0,-0.0,-1.0,0.17924793004571757,1.0,3
16.947479248046875,-25.16651153564453,1.301870584487915,-0.0,-0.0,-1.0,0.16890091368597987,1.0,2
16.541139602661133,-24.588071823120117,1.1667587757110596,0.28213763640421746,-0.03607218426213868,-0.9586955469004743,0.13078957399432928,3.0,2
16.51959800720215,-24.54368782043457,1.1587492227554321,0.2966646298344623,-0.028275811305519764,-0.9545630287729542,0.20268819822452575,3.0,2
16.464061737060547,-25.183212280273438,1.1523194313049316,-0.0,-0.0,-1.0,0.031183006538409025,1.0,2
16.489803314208984,-24.845703125,1.1563767194747925,-0.0,-0.0,-1.0,0.2097384700781333,1.0,2
16.496910095214844,-24.56665802001953,1.1523785591125488,0.30238338642846024,-0.034479100667325666,-0.9525625854657682,0.19554674588876111,3.0,2
16.32485580444336,-25.634811401367188,1.1073906421661377,-0.0,-0.0,-1.0,0.1277304740341881,1.0,2
16.432239532470703,-25.447235107421875,1.1421096324920654,0.4696748397740688,0.861124265861829,-0.1946035550218167,0.12664302542966172,3.0,2
15.979637145996094,-25.102468490600586,1.2643399238586426,-0.0,-0.0,-1.0,0.21820253676418996,1.0,2
15.825916290283203,-24.880233764648438,1.2188987731933594,-0.0,-0.0,-1.0,0.1698034991735752,1.0,2
15.810395240783691,-24.99532699584961,1.2168654203414917,-0.0,-0.0,-1.0,0.15948791340207472,1.0,2
15.69758129119873,-24.881916046142578,1.183983325958252,-0.0,-0.0,-1.0,0.11921773892992214,1.0,2
17.455520629882812,-25.194608688354492,1.561680793762207,-0.0,-0.0,-1.0,0.16011204738555496,1.0,2
17.180679321289062,-24.712421417236328,1.585101842880249,-0.0,-0.0,-1.0,0.11211136377698244,1.0,2
17.079666137695312,-24.415904998779297,1.4393318891525269,-0.0,-0.0,-1.0,0.15466149730908732,2.0,2
16.575620651245117,-24.593219757080078,1.5347480773925781,-0.0,-0.0,-1.0,0.23525852281435303,2.0,2
16.548770904541016,-24.378856658935547,1.521172046661377,-0.0,-0.0,-1.0,0.16153029768754168,1.0,2
16.5157527923584,-24.669008255004883,1.521120548248291,-0.0,-0.0,-1.0,0.17831750428245993,1.0,2
16.182329177856445,-25.46221351623535,1.4477217197418213,0.9742480473527044,0.12759650948059775,-0.1859028590361387,0.20566533604314283,3.0,2
16.023237228393555,-25.149066925048828,1.4060604572296143,-0.0,-0.0,-1.0,0.20480711234572072,1.0,2
16.02766227722168,-25.526805877685547,1.4101176261901855,-0.0,-0.0,-1.0,0.16803488750654244,1.0,2
15.771256446838379,-25.22385025024414,1.4747228622436523,-0.0,-0.0,-1.0,0.11546680463089856,2.0,2
15.406556129455566,-24.893144607543945,1.5218911170959473,-0.0,-0.0,-1.0,0.15594232999534238,2.0,2
15.396356582641602,-24.528661727905273,1.37095046043396,-0.0,-0.0,-1.0,0.16302164443587705,1.0,2
15.315155982971191,-25.385591506958008,1.6482373476028442,-0.0,-0.0,-1.0,0.15559968002703387,1.0,2
15.25054931640625,-25.083938598632812,1.4907487630844116,-0.0,-0.0,-1.0,0.2207950723551778,1.0,2
16.899799346923828,-24.37221336364746,1.720800757408142,-0.0,-0.0,-1.0,0.09002771793479766,1.0,2
16.756406784057617,-24.709009170532227,1.8122870922088623,-0.0,-0.0,-1.0,0.2113790647598048,1.0,2
16.512239456176758,-24.749263763427734,1.8737993240356445,-0.0,-0.0,-1.0,0.12094518198369726,1.0,2
16.26883888244629,-24.407854080200195,1.9348725080490112,-0.0,-0.0,-1.0,0.11091510244030411,2.0,2
15.806137084960938,-25.449283599853516,1.7462831735610962,-0.0,-0.0,-1.0,0.2553174241817456,1.0,2
15.695295333862305,-25.464994430541992,1.7245327234268188,-0.0,-0.0,-1.0,0.24857994476475176,1.0,2
15.372835159301758,-24.938405990600586,1.7883856296539307,-0.0,-0.0,-1.0,0.15830046296792508,1.0,2
15.422528266906738,-24.64980697631836,1.9232139587402344,-0.0,-0.0,-1.0,0.10344135066016465,1.0,2
15.455310821533203,-25.42708396911621,1.8140621185302734,-0.0,-0.0,-1.0,0.2400582441217122,1.0,2
15.304220199584961,-25.12494468688965,1.781053900718689,-0.0,-0.0,-1.0,0.1707812495900822,1.0,2
16.703086853027344,-24.85011100769043,2.137774705886841,-0.16994802893000924,0.5545369162042383,-0.8146204490617077,0.2307958246531305,3.0,3
15.335016250610352,-24.825977325439453,2.1834497451782227,0.07692622938752702,-0.9790633650424792,0.1884602941309276,0.12670420397751683,3.0,3
17.695755004882812,-26.703441619873047,1.3702967166900635,-0.0,-0.0,-1.0,0.12798225942110095,1.0,2
17.402130126953125,-26.692476272583008,1.3120996952056885,-0.31063482966459366,-0.21256102601520035,-0.9264576691995239,0.1779841976613718,3.0,2
17.040931701660156,-25.682588577270508,1.3067320585250854,-0.41718360420512346,0.01893513018805992,-0.908624950805988,0.1319280982448399,3.0,2
16.83513832092285,-26.335365295410156,1.1485421657562256,-0.0,-0.0,-1.0,0.12751319108631204,1.0,2
16.844524383544922,-25.53302764892578,1.031059741973877,-0.0,-0.0,-1.0,0.0850671613835946,1.0,2
16.625308990478516,-26.275041580200195,1.1183860301971436,-0.0,-0.0,-1.0,0.050249774209440136,1.0,2
16.556833267211914,-25.992502212524414,1.154415249824524,-0.0,-0.0,-1.0,0.17974442192636528,1.0,2
16.1779727935791,-26.754966735839844,1.2507047653198242,-0.0,-0.0,-1.0,0.1971854591705346,1.0,2
17.559261322021484,-25.21856689453125,1.6063998937606812,-0.0,-0.0,-1.0,0.12837344991753774,1.0,2
16.684219360351562,-25.99285125732422,1.453637957572937,-0.0,-0.0,-1.0,0.16313798629875093,1.0,2
16.379547119140625,-26.717811584472656,1.4390509128570557,-0.0,-0.0,-1.0,0.17787688557197065,1.0,2
16.2960205078125,-26.45572280883789,1.3162202835083008,0.747154549305328,0.09125972474926065,-0.6583553311784155,0.21750486972370695,3.0,2
16.413297653198242,-26.116558074951172,1.3871254920959473,-0.0,-0.0,-1.0,0.203199241821195,2.0,2
16.132646560668945,-26.81063461303711,1.5391228199005127,-0.0,-0.0,-1.0,0.13486581009194704,1.0,2
16.143966674804688,-26.512441635131836,1.2807695865631104,-0.0,-0.0,-1.0,0.18462093625723608,1.0,2
16.48599624633789,-24.437654495239258,2.0973196029663086,-0.0,-0.0,-1.0,0.1785131385958986,1.0,3
16.267353057861328,-24.59718894958496,2.2933619022369385,-0.0,-0.0,-1.0,0.16621419602009951,1.0,3
15.408035278320312,-25.450767517089844,2.1458895206451416,-0.0,-0.0,-1.0,0.09895194073202605,1.0,3
15.39406967163086,-25.032394409179688,2.168008327484131,-0.0,-0.0,-1.0,0.1387860006225247,2.0,3
16.5528621673584,-25.729124069213867,1.113314151763916,-0.0,-0.0,-1.0,0.11398845133695999,2.0,2
16.58124351501465,-25.481935501098633,1.1630630493164062,-0.0,-0.0,-1.0,0.11947413839859407,2.0,2
16.478605270385742,-25.06122398376465,1.2177114486694336,-0.0,-0.0,-1.0,0.06998600092901779,2.0,2
16.612735748291016,-24.537044525146484,1.0694012641906738,0.8020584562789419,0.09345184511000929,-0.5898889601924887,0.1555049382654598,3.0,2
16.37759017944336,-25.912519454956055,1.350496768951416,-0.0,-0.0,-1.0,0.1756458818638334,1.0,2
16.416141510009766,-25.438987731933594,1.13975191116333,0.4696748397740688,0.861124265861829,-0.1946035550218167,0.12702104868505884,3.0,2
16.434988021850586,-25.110458374023438,1.2007676362991333,-0.0,-0.0,-1.0,0.04029419462476945,1.0,2
16.048847198486328,-25.99755859375,1.2845386266708374,-0.0,-0.0,-1.0,0.16191542337462345,1.0,2
16.022035598754883,-25.60428237915039,1.338097333908081,-0.0,-0.0,-1.0,0.14930607338056145,1.0,2
17.222896575927734,-24.573823928833008,1.6892263889312744,-0.0,-0.0,-1.0,0.14843817929691946,2.0,2
17.17902183532715,-24.549074172973633,1.5632679462432861,-0.0,-0.0,-1.0,0.07384942517072882,1.0,2
16.336336135864258,-25.880950927734375,1.4988033771514893,-0.0,-0.0,-1.0,0.14117210494914367,1.0,2
16.265422821044922,-25.471107482910156,1.3981537818908691,-0.0,-0.0,-1.0,0.21101358940717602,1.0,2
16.08481216430664,-25.238327026367188,1.4013900756835938,0.19903632970419902,-0.26547139194001645,-0.9433501362269003,0.24078052638791034,4.0,2
15.899251937866211,-26.15931510925293,1.5517525672912598,-0.0,-0.0,-1.0,0.24277930731689965,1.0,2
15.986306190490723,-25.827373504638672,1.6039652824401855,-0.0,-0.0,-1.0,0.2031752908935041,1.0,2
16.04343605041504,-25.550365447998047,1.498972773551941,-0.0,-0.0,-1.0,0.16436646236593094,1.0,2
16.038057327270508,-25.24797248840332,1.3919739723205566,0.19687456838816372,0.0027932307442352583,-0.9804247050049194,0.2673763735525496,3.0,2
15.69709587097168,-26.18905258178711,1.5196361541748047,-0.0,-0.0,-1.0,0.17148066118768826,1.0,2
16.679107666015625,-24.792028427124023,2.082970380783081,-0.0,-0.0,-1.0,0.2125620957256182,2.0,3
16.237323760986328,-25.82114601135254,1.9349803924560547,-0.0,-0.0,-1.0,0.20136324149964116,2.0,2
16.122339248657227,-25.456642150878906,1.95526921749115,-0.0,-0.0,-1.0,0.25312589442027733,1.0,2
15.847370147705078,-26.134899139404297,1.8597899675369263,-0.0,-0.0,-1.0,0.20751086689192694,1.0,2
16.056171417236328,-25.839832305908203,1.9119821786880493,-0.0,-0.0,-1.0,0.19493265782748756,1.0,2
15.497044563293457,-26.346559524536133,1.9606279134750366,-0.0,-0.0,-1.0,0.1622449065042675,2.0,2
15.701732635498047,-25.97748374938965,1.8570730686187744,-0.0,-0.0,-1.0,0.1834455946355371,1.0,2
15.898176193237305,-26.05777931213379,2.1788997650146484,-0.0,-0.0,-1.0,0.16844367997513301,1.0,3
15.504940032958984,-26.280620574951172,2.1266942024230957,-0.0,-0.0,-1.0,0.173891804191457,1.0,3
15.586507797241211,-26.00638198852539,2.1523871421813965,-0.0,-0.0,-1.0,0.2006617540231403,2.0,3
16.388668060302734,-24.684307098388672,1.211760401725769,-0.0,-0.0,-1.0,0.20805571904012934,1.0,2
16.593936920166016,-24.528581619262695,1.2760273218154907,0.44372620851696676,0.7829039512035822,0.4360830827548537,0.2568017020369207,3.0,2
16.19142723083496,-25.12897491455078,1.4062711000442505,-0.0,-0.0,-1.0,0.12306956729287422,1.0,2
16.210325241088867,-24.879911422729492,1.297649621963501,-0.0,-0.0,-1.0,0.18360155360198113,1.0,2
16.016727447509766,-24.632225036621094,1.1518545150756836,-0.0,-0.0,-1.0,0.1248978069686878,2.0,2
15.841033935546875,-25.193050384521484,1.3415107727050781,-0.0,-0.0,-1.0,0.28313808507870825,1.0,2
15.687413215637207,-24.91135597229004,1.3561983108520508,-0.0,-0.0,-1.0,0.11788551230744872,1.0,2
15.733983993530273,-24.660484313964844,1.2486752271652222,-0.0,-0.0,-1.0,0.14153770961687664,1.0,2
16.784381866455078,-24.52162742614746,1.5880346298217773,-0.0,-0.0,-1.0,0.2095251036135894,1.0,2
16.32884979248047,-24.785741806030273,1.478108286857605,-0.0,-0.0,-1.0,0.15094226937584693,1.0,2
16.195934295654297,-24.499309539794922,1.639676570892334,-0.0,-0.0,-1.0,0.12413683573930157,1.0,2
15.599609375,-25.203275680541992,1.6200257539749146,-0.0,-0.0,-1.0,0.21925326604967965,1.0,2
15.588168144226074,-25.07315444946289,1.6331470012664795,-0.0,-0.0,-1.0,0.24792589874136295,2.0,2
15.902734756469727,-24.5502986907959,1.4423271417617798,-0.0,-0.0,-1.0,0.1715303037386487,1.0,2
15.597038269042969,-25.374479293823242,1.600064992904663,-0.0,-0.0,-1.0,0.10791878514550644,2.0,2
15.467931747436523,-24.980762481689453,1.6263611316680908,-0.0,-0.0,-1.0,0.14521159724786337,1.0,2
15.253161430358887,-25.311199188232422,2.047358989715576,-0.0,-0.0,-1.0,0.09398135729069147,1.0,3
15.480171203613281,-25.062463760375977,1.9331852197647095,-0.0,-0.0,-1.0,0.1715656400074381,1.0,2
15.384899139404297,-24.96240234375,2.240945816040039,-0.0,-0.0,-1.0,0.14340748046950588,2.0,3
17.092060089111328,-24.643632888793945,1.2435035705566406,-0.0,-0.0,-1.0,0.16934356182932137,1.0,2
16.91506004333496,-24.366254806518555,1.1214206218719482,-0.0,-0.0,-1.0,0.09606693041911203,1.0,2
16.77894401550293,-25.11710548400879,1.1100900173187256,-0.0,-0.0,-1.0,0.06996289906386148,1.0,2
16.74965476989746,-24.888080596923828,1.147925615310669,-0.0,-0.0,-1.0,0.1296790200225278,1.0,2
16.607402801513672,-24.553773880004883,1.187185525894165,-0.0,-0.0,-1.0,0.13599893133571678,1.0,2
16.270774841308594,-24.509153366088867,1.1421027183532715,-0.0,-0.0,-1.0,0.12738670031218713,2.0,2
17.23720932006836,-24.422731399536133,1.3055832386016846,-0.23426570540694763,0.02130983409884924,-0.9719390259892152,0.1257623364386104,3.0,2
16.83265495300293,-24.457481384277344,1.5400705337524414,-0.0,-0.0,-1.0,0.1617674456428332,1.0,2
16.7025089263916,-24.557809829711914,1.5075188875198364,0.4032704581072537,-0.9087826149251202,-0.10717787284615181,0.21895149146339915,3.0,2
16.3544979095459,-25.42601203918457,1.330385446548462,-0.0,-0.0,-1.0,0.14223061234824116,1.0,2
16.131908416748047,-25.08135986328125,1.3519389629364014,-0.0,-0.0,-1.0,0.18667308443084948,1.0,2
15.981575012207031,-25.75384521484375,1.5839295387268066,-0.0,-0.0,-1.0,0.13800511129690501,2.0,2
15.86671257019043,-25.39065933227539,1.2695887088775635,-0.0,-0.0,-1.0,0.275550232041961,1.0,2
15.85661506652832,-25.159269332885742,1.3021385669708252,-0.0,-0.0,-1.0,0.21301678859533316,1.0,2
16.792591094970703,-24.650758743286133,1.80910325050354,-0.0,-0.0,-1.0,0.2514788979481689,2.0,2
16.607065200805664,-24.497732162475586,1.8057796955108643,-0.0,-0.0,-1.0,0.2621243633048827,1.0,2
16.232242584228516,-25.55774688720703,1.6362813711166382,-0.0,-0.0,-1.0,0.21376129851408535,2.0,2
16.130701065063477,-25.73470115661621,1.6034109592437744,-0.0,-0.0,-1.0,0.22903594306152722,1.0,2
15.978026390075684,-25.495624542236328,1.783822774887085,-0.0,-0.0,-1.0,0.2107137016348705,1.0,2
15.725528717041016,-26.026033401489258,1.8834290504455566,-0.0,-0.0,-1.0,0.141818140903631,2.0,2
15.682125091552734,-25.5958251953125,1.7446839809417725,-0.0,-0.0,-1.0,0.20853309124708982,1.0,2
15.651309967041016,-25.38677215576172,1.5877009630203247,-0.0,-0.0,-1.0,0.16554300962169066,1.0,2
16.53630828857422,-24.604333877563477,2.2381162643432617,-0.0,-0.0,-1.0,0.14719033210880061,1.0,3
15.961451530456543,-26.14876937866211,2.2537200450897217,-0.0,-0.0,-1.0,0.1679148420596368,1.0,3
15.647192001342773,-26.26256561279297,2.2220211029052734,-0.0,-0.0,-1.0,0.15539009153907138,1.0,3
15.70265007019043,-26.028404235839844,2.239931106567383,-0.0,-0.0,-1.0,0.08886571819274747,1.0,3
15.454597473144531,-25.69655990600586,2.238542079925537,-0.0,-0.0,-1.0,0.16311388704021465,1.0,3
15.390661239624023,-26.779415130615234,2.1716666221618652,-0.0,-0.0,-1.0,0.12889523045997076,1.0,3
15.474733352661133,-26.271038055419922,2.207611083984375,-0.0,-0.0,-1.0,0.12920213741140513,2.0,3
17.65997886657715,-24.53718376159668,1.203262448310852,-0.0,-0.0,-1.0,0.16230748748478832,1.0,2
17.52330207824707,-24.907825469970703,1.1131620407104492,-0.0,-0.0,-1.0,0.14739962470166207,2.0,2
17.228261947631836,-24.444961547851562,1.1759934425354004,-0.0,-0.0,-1.0,0.18557008317587176,1.0,2
17.29988670349121,-24.884593963623047,1.094641923904419,-0.0,-0.0,-1.0,0.14446248362688038,2.0,2
17.11972427368164,-24.667007446289062,1.1187965869903564,-0.0,-0.0,-1.0,0.16104521965704374,1.0,2
16.897445678710938,-24.48612403869629,1.1298351287841797,-0.0,-0.0,-1.0,0.163924287131738,1.0,2
16.869943618774414,-25.956989288330078,1.202326774597168,-0.0,-0.0,-1.0,0.09364053366065635,1.0,2
16.621559143066406,-25.854616165161133,1.1953521966934204,-0.0,-0.0,-1.0,0.1375143977225683,1.0,2
16.306560516357422,-25.82015037536621,1.1693289279937744,-0.0,-0.0,-1.0,0.14906925221427633,1.0,2
16.315410614013672,-25.661500930786133,1.196536898612976,-0.0,-0.0,-1.0,0.16362564292880413,1.0,2
17.19266128540039,-24.459535598754883,1.4858381748199463,-0.0,-0.0,-1.0,0.17376472966224157,2.0,2
17.06369400024414,-25.167022705078125,1.354257583618164,-0.0,-0.0,-1.0,0.20464746565875877,1.0,2
17.203125,-24.694866180419922,1.447296142578125,-0.0,-0.0,-1.0,0.14449454291175406,1.0,2
17.04934310913086,-25.607141494750977,1.2785155773162842,-0.0,-0.0,-1.0,0.12709461399072775,1.0,2
16.557275772094727,-25.930255889892578,1.546571969985962,-0.0,-0.0,-1.0,0.15081556869564108,2.0,2
16.526939392089844,-25.56656265258789,1.2340636253356934,-0.0,-0.0,-1.0,0.15169346005567305,2.0,2
16.331863403320312,-26.299846649169922,1.4775969982147217,-0.0,-0.0,-1.0,0.15815999052967528,1.0,2
16.36177635192871,-25.931459426879883,1.5293776988983154,-0.0,-0.0,-1.0,0.17193994959883316,1.0,2
16.049571990966797,-26.44060516357422,1.4339996576309204,-0.0,-0.0,-1.0,0.22694378371458337,1.0,2
15.906259536743164,-26.680156707763672,1.3894072771072388,-0.0,-0.0,-1.0,0.14916644780166594,1.0,2
16.300800323486328,-25.899810791015625,1.8968247175216675,0.7253845954465524,-0.6870437680753211,-0.04228533360050783,0.18669291361973214,4.0,2
16.13663101196289,-25.972339630126953,2.247360944747925,-0.0,-0.0,-1.0,0.14209483109109325,1.0,3
15.870637893676758,-26.120067596435547,2.2209107875823975,-0.0,-0.0,-1.0,0.20282819816065517,1.0,3
17.291561126708984,-24.839351654052734,1.0790414810180664,-0.0,-0.0,-1.0,0.16682716730059413,2.0,2
17.1849365234375,-24.543659210205078,1.1289637088775635,-0.0,-0.0,-1.0,0.17223450052217482,1.0,2
16.898374557495117,-24.647228240966797,1.0830776691436768,-0.0,-0.0,-1.0,0.13392077893154547,1.0,2
16.5606746673584,-24.513988494873047,1.0777430534362793,-0.06746184262325347,0.8406993184016689,0.5372834967024812,0.24696448044262306,3.0,2
16.511308670043945,-24.558719635009766,1.064215898513794,-0.0,-0.0,-1.0,0.16140418991453656,2.0,2
16.60590934753418,-25.976268768310547,1.191793441772461,-0.0,-0.0,-1.0,0.18862878075312564,1.0,2
16.510499954223633,-25.815509796142578,1.2104367017745972,-0.0,-0.0,-1.0,0.1377239221138122,1.0,2
16.18350601196289,-25.345874786376953,1.2590187788009644,-0.0,-0.0,-1.0,0.14404925095000823,1.0,2
16.625028610229492,-24.72026252746582,1.5730823278427124,-0.0,-0.0,-1.0,0.18576325928526857,1.0,2
16.508831024169922,-25.990703582763672,1.5753849744796753,-0.06064335650647618,-0.6466125875666966,-0.7604041983786843,0.1962799683594862,4.0,2
16.214195251464844,-25.548381805419922,1.610992431640625,-0.0,-0.0,-1.0,0.19016653597551475,2.0,2
16.403654098510742,-26.612577438354492,1.4883439540863037,-0.0,-0.0,-1.0,0.23045160872102832,1.0,2
16.430419921875,-26.04621124267578,1.5628693103790283,0.6893593735155256,-0.14777888413576284,-0.7091861924416403,0.18551824211573364,4.0,2
16.19195556640625,-25.851036071777344,1.5708611011505127,0.7390364018859651,-0.6346703679368675,-0.22587324044766235,0.17683285572017196,3.0,2
16.75281524658203,-24.898679733276367,2.08225679397583,-0.0,-0.0,-1.0,0.18397679705502346,1.0,3
16.570327758789062,-24.624237060546875,1.754228949546814,-0.0,-0.0,-1.0,0.19745592412622265,1.0,2
16.47545051574707,-24.646772384643555,2.089183807373047,-0.0,-0.0,-1.0,0.17446934626924082,1.0,3
16.376415252685547,-25.857757568359375,1.969765543937683,-0.0,-0.0,-1.0,0.1871880154944725,1.0,2
16.51144027709961,-24.519336700439453,1.0799295902252197,-0.08125638291639553,0.36959661935936194,-0.9256326156707503,0.23029239735947554,3.0,2
16.626075744628906,-24.505184173583984,1.0925867557525635,0.8020584562789419,0.09345184511000929,-0.5898889601924887,0.16207010908164837,3.0,2
15.788910865783691,-24.720001220703125,1.3607497215270996,-0.0,-0.0,-1.0,0.23013223493742632,1.0,2
15.806468963623047,-25.559844970703125,1.646762728691101,-0.4277283548414835,-0.8291161378519758,-0.360020672209279,0.20460601590190283,3.0,2
15.647269248962402,-25.123268127441406,1.6850215196609497,-0.0,-0.0,-1.0,0.22188452585423554,1.0,2
15.604713439941406,-25.870262145996094,1.5960273742675781,-0.0,-0.0,-1.0,0.1815901724151431,1.0,2
15.62228775024414,-25.684391021728516,1.6187353134155273,-0.463397136753957,-0.0416355292714043,-0.885172060308347,0.1614867953707514,3.0,2
15.469027519226074,-25.0843505859375,2.069368600845337,-0.0,-0.0,-1.0,0.22507214835288605,1.0,3
15.436212539672852,-24.56354331970215,2.1089744567871094,-0.0,-0.0,-1.0,0.1522849005344328,1.0,3
15.610974311828613,-25.88700294494629,2.0135579109191895,-0.0,-0.0,-1.0,0.16588128540655636,2.0,3
15.35439682006836,-25.83445167541504,2.2490291595458984,-0.0,-0.0,-1.0,0.14670097454035555,1.0,3
17.646018981933594,-26.469524383544922,1.3655320405960083,-0.0,-0.0,-1.0,0.16039618295493777,1.0,2
17.65513038635254,-26.61087417602539,1.359635591506958,0.3117712074028961,-0.9027701355755371,-0.2963187414718596,0.13740702971001234,4.0,2
16.294248580932617,-25.66577911376953,2.0136008262634277,-0.0,-0.0,-1.0,0.21810491269037327,1.0,3
17.582897186279297,-25.77773666381836,1.2246668338775635,-0.0,-0.0,-1.0,0.07804102839724092,1.0,2
16.586196899414062,-24.60287094116211,2.0282630920410156,-0.0,-0.0,-1.0,0.1612231760022316,2.0,3
16.259838104248047,-24.515907287597656,2.082296371459961,-0.0,-0.0,-1.0,0.13288032340953645,2.0,3
16.60680389404297,-24.562557220458984,2.0664525032043457,-0.0,-0.0,-1.0,0.18777091546480462,1.0,3
