x,y,z,nx,ny,nz,curvature,density,label
16.010032653808594,-33.16485595703125,1.9707493782043457,-0.0,-0.0,-1.0,0.17188293893702228,2.0,2
16.200395584106445,-33.412532806396484,1.9664862155914307,-0.0,-0.0,-1.0,0.21329408368472863,1.0,2
17.0495662689209,-31.986526489257812,1.5991828441619873,-0.0,-0.0,-1.0,0.15495447557324282,1.0,2
15.54096794128418,-33.1546745300293,2.5736842155456543,-0.0,-0.0,-1.0,0.08499862680856955,1.0,3
17.386323928833008,-33.14786911010742,2.5279507637023926,-0.0,-0.0,-1.0,0.2627581201981849,1.0,3
15.290225982666016,-33.257991790771484,2.4495043754577637,-0.0,-0.0,-1.0,0.09249813067840508,1.0,3
17.355785369873047,-33.01718521118164,2.3699593544006348,-0.0,-0.0,-1.0,0.1861797558970845,1.0,3
15.287633895874023,-33.18858337402344,2.502470016479492,-0.0,-0.0,-1.0,0.09249813067840504,1.0,3
17.308759689331055,-32.96976089477539,2.4138524532318115,-0.0,-0.0,-1.0,0.24720861215487708,2.0,3
15.293478012084961,-33.18086624145508,2.3874735832214355,-0.0,-0.0,-1.0,0.09349604640790807,1.0,3
15.486400604248047,-33.15180587768555,2.3815505504608154,-0.0,-0.0,-1.0,0.12723533388439184,1.0,3
15.868473052978516,-33.01460647583008,1.9171867370605469,-0.0,-0.0,-1.0,0.22085784090355937,1.0,2
16.09471321105957,-33.14052200317383,1.9155898094177246,-0.0,-0.0,-1.0,0.13860237609083323,1.0,2
16.359901428222656,-33.43412399291992,1.9154791831970215,-0.0,-0.0,-1.0,0.15407192108982934,1.0,2
15.506826400756836,-33.13484573364258,2.10648250579834,-0.0,-0.0,-1.0,0.11609336563217974,1.0,3
17.55253028869629,-31.91688346862793,1.59803307056427,-0.0,-0.0,-1.0,0.10102638849236228,2.0,2
15.450614929199219,-33.257293701171875,2.391170024871826,-0.42693917747726023,0.3085289602106428,-0.8500193053374614,0.0989569039096722,3.0,3
17.598934173583984,-33.131107330322266,2.3522772789001465,-0.0,-0.0,-1.0,0.1575500906877265,1.0,3
15.705118179321289,-33.14445114135742,2.3959460258483887,-0.0,-0.0,-1.0,0.09099046618429918,1.0,3
15.440668106079102,-33.22712326049805,2.4071168899536133,-0.42693917747726023,0.3085289602106428,-0.8500193053374614,0.098956903909672,3.0,3
17.478302001953125,-33.16879653930664,2.3321752548217773,-0.0,-0.0,-1.0,0.17969681840981086,1.0,3
17.323171615600586,-33.11196517944336,2.491577625274658,-0.0,-0.0,-1.0,0.19048238489358732,1.0,3
17.57388687133789,-33.126800537109375,2.4751086235046387,-0.0,-0.0,-1.0,0.2063229877980066,1.0,3
17.123680114746094,-31.93343734741211,1.4553228616714478,-0.0,-0.0,-1.0,0.0975809922448322,1.0,2
17.432884216308594,-33.00519561767578,2.499608039855957,-0.0,-0.0,-1.0,0.1930127978136994,1.0,3
16.14354705810547,-32.14917755126953,1.6901891231536865,-0.0,-0.0,-1.0,0.14511181437848675,2.0,2
15.97775650024414,-33.02116394042969,1.7051491737365723,-0.0,-0.0,-1.0,0.16592536761497517,1.0,2
15.722362518310547,-33.23480224609375,1.708427906036377,-0.0,-0.0,-1.0,0.21523010999481332,1.0,2
16.210176467895508,-33.27485656738281,1.7102642059326172,-0.9881084034828338,0.07042195492562203,0.13668405624307065,0.1605702290020701,3.0,2
15.494537353515625,-33.172325134277344,2.808739423751831,-0.0,-0.0,-1.0,0.22997932386820094,1.0,3
17.382659912109375,-33.19672393798828,2.7848498821258545,-0.0,-0.0,-1.0,0.1447820659844272,1.0,3
17.135526657104492,-33.41539001464844,2.7984719276428223,-0.0,-0.0,-1.0,0.18445730193818874,1.0,3
17.388498306274414,-32.89811706542969,2.1521098613739014,-0.0,-0.0,-1.0,0.1376700011967988,1.0,3
17.102027893066406,-33.114315032958984,2.7649786472320557,-0.0,-0.0,-1.0,0.1035088530386038,1.0,3
16.885387420654297,-32.2847900390625,2.54883074760437,-0.0,-0.0,-1.0,0.12635702464379855,1.0,3
17.389158248901367,-32.15636444091797,2.490112066268921,-0.0,-0.0,-1.0,0.24418441025756488,1.0,3
17.056781768798828,-32.29539489746094,2.530501365661621,-0.0,-0.0,-1.0,0.1816816639879343,1.0,3
17.254711151123047,-33.080322265625,2.1407270431518555,-0.0,-0.0,-1.0,0.1573268959065173,1.0,3
16.914588928222656,-33.3062744140625,2.264324903488159,-0.0,-0.0,-1.0,0.10859195639866136,1.0,3
17.22148323059082,-32.964447021484375,2.2092838287353516,-0.0,-0.0,-1.0,0.1910747851110582,1.0,3
17.619518280029297,-32.968666076660156,2.2731709480285645,-0.0,-0.0,-1.0,0.18128150264259943,1.0,3
17.134414672851562,-33.172306060791016,2.014967441558838,-0.0,-0.0,-1.0,0.10767810882486242,1.0,3
17.618000030517578,-33.25149154663086,2.0700483322143555,-0.0,-0.0,-1.0,0.18029133323031377,1.0,3
15.834693908691406,-33.2213249206543,1.969511866569519,-0.0,-0.0,-1.0,0.13064375384525473,1.0,2
17.48879051208496,-33.16314697265625,1.890750527381897,-0.0,-0.0,-1.0,0.21456956173339492,1.0,2
17.481109619140625,-33.00239562988281,2.5605521202087402,-0.0,-0.0,-1.0,0.1846930054164305,1.0,3
17.287158966064453,-33.35643005371094,2.5823354721069336,-0.0,-0.0,-1.0,0.18571277292308389,1.0,3
17.671554565429688,-31.915475845336914,1.535278558731079,-0.0,-0.0,-1.0,0.11522969895003558,1.0,2
17.2374267578125,-33.052978515625,2.054173469543457,-0.0,-0.0,-1.0,0.14642389197411143,1.0,3
17.32648468017578,-33.118080139160156,2.04622220993042,-0.0,-0.0,-1.0,0.15695653575283586,1.0,3
17.700088500976562,-32.55409622192383,2.023895263671875,-0.0,-0.0,-1.0,0.10564385240385907,1.0,3
17.283519744873047,-32.71758270263672,2.23785400390625,-0.0,-0.0,-1.0,0.14709778958601658,1.0,3
17.42894744873047,-32.97154235839844,2.230985164642334,-0.0,-0.0,-1.0,0.11775776909253807,1.0,3
17.681642532348633,-32.078880310058594,2.2189881801605225,-0.0,-0.0,-1.0,0.0944637617394319,1.0,3
16.45523452758789,-32.067359924316406,1.7560969591140747,-0.0,-0.0,-1.0,0.097850701602246,1.0,2
17.530118942260742,-32.64811325073242,1.7179317474365234,-0.0,-0.0,-1.0,0.19031249912781542,1.0,2
17.54364013671875,-32.010826110839844,1.7415887117385864,-0.0,-0.0,-1.0,0.1249678455041216,1.0,2
17.489089965820312,-31.9747371673584,1.6156764030456543,-0.0,-0.0,-1.0,0.10126023634721197,1.0,2
17.196935653686523,-32.20720672607422,2.5416057109832764,-0.0,-0.0,-1.0,0.2574826103462642,1.0,3
17.199710845947266,-33.051239013671875,2.554309844970703,-0.0,-0.0,-1.0,0.19759606225201207,1.0,3
16.921527862548828,-33.26983642578125,2.5674214363098145,-0.0,-0.0,-1.0,0.14826205186330704,1.0,3
17.401077270507812,-33.06235885620117,2.308382987976074,-0.0,-0.0,-1.0,0.25563665259526347,1.0,3
15.460512161254883,-33.23665237426758,2.393691062927246,-0.42693917747726023,0.3085289602106428,-0.8500193053374614,0.098956903909672,3.0,3
17.56363296508789,-32.65496826171875,2.3335061073303223,-0.0,-0.0,-1.0,0.17916009342087863,1.0,3
17.223773956298828,-33.24904251098633,2.3493223190307617,-0.0,-0.0,-1.0,0.20071383864836906,1.0,3
17.3153018951416,-32.87184524536133,2.0182223320007324,-0.0,-0.0,-1.0,0.11985290037310134,1.0,3
17.295740127563477,-33.192256927490234,2.0165977478027344,-0.0,-0.0,-1.0,0.1539454772069004,1.0,3
17.31521987915039,-32.897125244140625,1.9335274696350098,-0.0,-0.0,-1.0,0.14005901609629517,1.0,2
16.079586029052734,-33.21610641479492,1.9747395515441895,-0.0,-0.0,-1.0,0.17537143152343238,2.0,2
17.350961685180664,-33.181278228759766,1.9298784732818604,-0.0,-0.0,-1.0,0.16566574342834509,2.0,2
15.711299896240234,-32.90929412841797,1.9326227903366089,-0.0,-0.0,-1.0,0.24447556115729047,1.0,2
15.938898086547852,-33.18415832519531,1.9246938228607178,-0.0,-0.0,-1.0,0.08602540441282636,1.0,2
17.341602325439453,-32.9461784362793,1.8885383605957031,-0.0,-0.0,-1.0,0.15372193565632858,1.0,2
17.438255310058594,-33.155609130859375,1.8847826719284058,-0.0,-0.0,-1.0,0.1483024580180832,1.0,2
17.489002227783203,-33.03205108642578,2.651885509490967,-0.0,-0.0,-1.0,0.24637426277914257,1.0,3
16.339584350585938,-32.017215728759766,2.015897035598755,-0.0,-0.0,-1.0,0.11998136699360683,1.0,3
16.102378845214844,-33.34696578979492,2.01301908493042,-0.0,-0.0,-1.0,0.16375548427404052,1.0,3
16.27511215209961,-33.55685806274414,1.9998371601104736,-0.0,-0.0,-1.0,0.15889960374839243,1.0,2
17.367374420166016,-33.026119232177734,1.9409306049346924,-0.0,-0.0,-1.0,0.1633861776806424,1.0,2
17.281227111816406,-33.061805725097656,1.9456311464309692,-0.0,-0.0,-1.0,0.14978720784456567,1.0,2
17.410606384277344,-33.1422233581543,1.936873197555542,-0.0,-0.0,-1.0,0.15166067757072338,1.0,2
16.97484588623047,-33.85173034667969,1.9539271593093872,-0.0,-0.0,-1.0,0.1280735025505914,1.0,2
17.625064849853516,-32.12095260620117,2.6367311477661133,-0.0,-0.0,-1.0,0.21815602246194016,1.0,3
16.32168197631836,-31.971763610839844,1.9378299713134766,-0.0,-0.0,-1.0,0.1897837819466892,2.0,2
16.3144588470459,-32.19776153564453,1.932734489440918,-0.2196283308712577,-0.7832695070683372,-0.5815945972716987,0.2005949225247506,3.0,2
15.835867881774902,-33.153656005859375,1.9319473505020142,-0.0,-0.0,-1.0,0.11642044747626251,1.0,2
16.268016815185547,-33.20296096801758,1.910688877105713,-0.0,-0.0,-1.0,0.17219823368666612,1.0,2
17.314226150512695,-33.00070571899414,1.8664138317108154,-0.0,-0.0,-1.0,0.12482202702610862,1.0,2
16.81612205505371,-33.3448371887207,1.8815809488296509,-0.0,-0.0,-1.0,0.1344533700995746,1.0,2
17.1932315826416,-33.325469970703125,2.5681819915771484,-0.0,-0.0,-1.0,0.20482535603985316,1.0,3
17.55938720703125,-33.03762435913086,2.544745922088623,-0.0,-0.0,-1.0,0.1635818527158399,2.0,3
17.514312744140625,-33.76974868774414,2.5541794300079346,-0.0,-0.0,-1.0,0.18192793330321916,1.0,3
15.238348960876465,-33.21699523925781,1.8735501766204834,-0.0,-0.0,-1.0,0.22629547395104624,1.0,2
16.35969352722168,-32.0247802734375,1.8647900819778442,-0.0,-0.0,-1.0,0.11880783244454138,1.0,2
16.175373077392578,-33.21074295043945,1.8326313495635986,-0.0,-0.0,-1.0,0.14651345046187353,2.0,2
17.68465805053711,-32.182437896728516,1.800175666809082,-0.0,-0.0,-1.0,0.10692736983372894,1.0,2
16.58510971069336,-33.47256088256836,1.8054862022399902,-0.0,-0.0,-1.0,0.15550809164648466,1.0,2
17.385051727294922,-32.950523376464844,1.7873897552490234,-0.0,-0.0,-1.0,0.10940186639691883,1.0,2
15.599092483520508,-33.65180206298828,2.5389862060546875,-0.0,-0.0,-1.0,0.14262493239208876,1.0,3
17.573049545288086,-32.13412094116211,2.4317846298217773,-0.0,-0.0,-1.0,0.17737644442057343,1.0,3
17.59135627746582,-33.08612823486328,2.4303460121154785,-0.0,-0.0,-1.0,0.21286432229747504,2.0,3
17.272497177124023,-33.26589584350586,2.4474995136260986,-0.0,-0.0,-1.0,0.18912754127177317,1.0,3
17.571870803833008,-33.720008850097656,2.431126832962036,-0.0,-0.0,-1.0,0.16547229161185684,1.0,3
17.433712005615234,-33.20528030395508,2.150421142578125,-0.0,-0.0,-1.0,0.13593794411698099,1.0,3
17.31163215637207,-33.48974609375,2.804600954055786,-0.0,-0.0,-1.0,0.12731857599300028,1.0,3
15.949014663696289,-33.14373016357422,2.0021770000457764,-0.0,-0.0,-1.0,0.1451214851903112,2.0,3
16.37332534790039,-33.62061309814453,1.9374823570251465,-0.0,-0.0,-1.0,0.19553990765254026,1.0,2
17.153139114379883,-32.85829544067383,1.9233373403549194,-0.0,-0.0,-1.0,0.12393598575597761,1.0,2
17.31587028503418,-33.0474853515625,1.8972280025482178,-0.0,-0.0,-1.0,0.1443319687896818,2.0,2
17.41518783569336,-32.786582946777344,2.5098021030426025,-0.0,-0.0,-1.0,0.18059231325594755,1.0,3
17.1473445892334,-33.182342529296875,2.522087574005127,-0.0,-0.0,-1.0,0.186246596315684,2.0,3
17.40481185913086,-33.61369323730469,2.4839730262756348,-0.0,-0.0,-1.0,0.18640685767018136,2.0,3
17.58867835998535,-32.062713623046875,2.5169577598571777,-0.0,-0.0,-1.0,0.1514045459372221,1.0,3
16.697511672973633,-31.939495086669922,1.5632247924804688,-0.0,-0.0,-1.0,0.03566610183108422,1.0,2
17.353410720825195,-32.10939025878906,1.5362329483032227,-0.0,-0.0,-1.0,0.11518969382046239,1.0,2
15.596977233886719,-32.930023193359375,2.12025785446167,-0.0,-0.0,-1.0,0.18238148594075157,2.0,3
15.998771667480469,-33.080833435058594,2.102477788925171,-0.0,-0.0,-1.0,0.14261311539824847,1.0,3
16.113765716552734,-33.292083740234375,2.0892884731292725,-0.0,-0.0,-1.0,0.20650919872503165,1.0,3
16.24848175048828,-33.2755126953125,2.086202621459961,-0.0,-0.0,-1.0,0.148601421649459,1.0,3
16.46770477294922,-33.587379455566406,2.064671516418457,-0.0,-0.0,-1.0,0.1189100284510338,1.0,3
17.24930191040039,-32.92073059082031,2.072106122970581,-0.0,-0.0,-1.0,0.14613832033958865,1.0,3
17.27178382873535,-33.157711029052734,2.059705972671509,-0.0,-0.0,-1.0,0.14291848761127626,1.0,3
16.868450164794922,-33.32396697998047,2.6810879707336426,-0.0,-0.0,-1.0,0.16579449926453,1.0,3
17.36878776550293,-33.01509094238281,2.664310932159424,-0.0,-0.0,-1.0,0.179337403136252,1.0,3
17.439498901367188,-33.62724304199219,2.651542901992798,-0.0,-0.0,-1.0,0.14279191899050336,1.0,3
17.54961395263672,-31.998016357421875,2.672323703765869,-0.0,-0.0,-1.0,0.16481609646250436,1.0,3
17.479055404663086,-32.04777145385742,2.6745986938476562,-0.0,-0.0,-1.0,0.24278362420666075,1.0,3
17.706857681274414,-32.88355255126953,2.651454210281372,-0.0,-0.0,-1.0,0.20835742953685907,1.0,3
15.396132469177246,-33.123741149902344,1.9387825727462769,-0.5217526271567909,-0.2476373733585426,-0.8163638449680806,0.19852022322962717,4.0,2
15.731826782226562,-33.025970458984375,1.9364584684371948,-0.0,-0.0,-1.0,0.16828712667597373,1.0,2
15.79753303527832,-33.098731994628906,1.931156039237976,-0.0,-0.0,-1.0,0.16056418514190682,1.0,2
16.13270378112793,-33.19740676879883,1.9177018404006958,-0.0,-0.0,-1.0,0.13377262231660772,2.0,2
16.448528289794922,-33.32218933105469,1.9025840759277344,-0.0,-0.0,-1.0,0.24414929035840147,2.0,2
17.27801513671875,-33.171417236328125,1.8855657577514648,-0.0,-0.0,-1.0,0.14447991483242575,1.0,2
17.206985473632812,-32.83746337890625,1.906398892402649,-0.0,-0.0,-1.0,0.13086050143696784,1.0,2
17.465999603271484,-32.97442626953125,1.8900761604309082,-0.0,-0.0,-1.0,0.17204420279430596,1.0,2
16.326473236083984,-31.967836380004883,1.9777251482009888,-0.0,-0.0,-1.0,0.13639939768026219,2.0,2
15.378692626953125,-33.208778381347656,2.5550734996795654,-0.0,-0.0,-1.0,0.17009217950763325,2.0,3
17.139310836791992,-33.11156463623047,2.488759756088257,-0.0,-0.0,-1.0,0.1848019561337068,2.0,3
17.44192886352539,-32.93044662475586,2.479640245437622,-0.0,-0.0,-1.0,0.20960383017080855,2.0,3
16.319923400878906,-34.32367706298828,1.8311514854431152,-0.0,-0.0,-1.0,0.04604276778470692,1.0,2
15.513422966003418,-32.92458724975586,1.8784077167510986,-0.0,-0.0,-1.0,0.16164393397443474,1.0,2
15.950647354125977,-33.00667953491211,1.881678819656372,-0.0,-0.0,-1.0,0.17275423065711176,2.0,2
16.1461124420166,-33.18281936645508,1.8770384788513184,-0.8798730619545176,0.4582722122896194,-0.1257377202352564,0.10632902372204882,3.0,2
16.451133728027344,-33.290672302246094,1.8759186267852783,-0.0,-0.0,-1.0,0.19794987732624167,2.0,2
16.706865310668945,-33.13261413574219,1.8849437236785889,-0.0,-0.0,-1.0,0.13091466496622,1.0,2
17.294357299804688,-33.059295654296875,1.8921380043029785,-0.0,-0.0,-1.0,0.14433196878968174,2.0,2
16.113868713378906,-32.021278381347656,1.9234527349472046,-0.0,-0.0,-1.0,0.1261144543283677,1.0,2
16.242412567138672,-31.864280700683594,1.9316205978393555,-0.0,-0.0,-1.0,0.2149471755038295,1.0,2
15.441139221191406,-33.21400451660156,2.4844582080841064,-0.0,-0.0,-1.0,0.09285537432533283,1.0,3
17.147836685180664,-33.13113021850586,2.4816904067993164,-0.0,-0.0,-1.0,0.19342055583777398,2.0,3
17.411617279052734,-33.6358757019043,2.4744715690612793,-0.0,-0.0,-1.0,0.1864068576701813,2.0,3
17.407306671142578,-32.91733932495117,2.4823498725891113,-0.0,-0.0,-1.0,0.2203873243018236,2.0,3
17.63182830810547,-33.06230163574219,2.479076385498047,-0.0,-0.0,-1.0,0.18964938024204883,1.0,3
15.553699493408203,-33.13810729980469,1.7992722988128662,-0.0,-0.0,-1.0,0.15745761727432836,1.0,2
16.033233642578125,-33.11932373046875,1.8136036396026611,-0.0,-0.0,-1.0,0.06519546411987673,1.0,2
16.575714111328125,-33.27195358276367,1.8207638263702393,-0.0,-0.0,-1.0,0.16883716771436497,1.0,2
16.816267013549805,-33.41400146484375,1.8200994729995728,-0.0,-0.0,-1.0,0.18280009323697838,1.0,2
17.23003387451172,-33.00739288330078,1.8462268114089966,-0.0,-0.0,-1.0,0.12603288145900604,1.0,2
16.019786834716797,-32.032413482666016,1.8567575216293335,-0.0,-0.0,-1.0,0.15737805242069355,1.0,2
16.3360595703125,-32.16211700439453,1.8606921434402466,-0.0,-0.0,-1.0,0.20531145894705244,1.0,2
17.321392059326172,-32.75031280517578,1.8592525720596313,-0.0,-0.0,-1.0,0.14430421288461165,1.0,2
16.208740234375,-31.901081085205078,1.8675925731658936,-0.0,-0.0,-1.0,0.21494717550382955,1.0,2
16.679340362548828,-32.22258377075195,1.8673356771469116,-0.0,-0.0,-1.0,0.06851390578232835,2.0,2
16.60650634765625,-32.10823440551758,1.870192289352417,-0.0,-0.0,-1.0,0.07862797983205905,1.0,2
17.352813720703125,-31.88632583618164,1.897359013557434,-0.0,-0.0,-1.0,0.08984505185625864,1.0,2
15.338189125061035,-33.010467529296875,2.4133481979370117,-0.0,-0.0,-1.0,0.13738113139322633,1.0,3
17.11075210571289,-33.037105560302734,2.4342141151428223,-0.0,-0.0,-1.0,0.1762752822642329,1.0,3
17.626419067382812,-33.23631286621094,2.43534779548645,-0.0,-0.0,-1.0,0.16359688168628905,1.0,3
17.329524993896484,-32.95454788208008,2.4367547035217285,-0.0,-0.0,-1.0,0.24720861215487702,2.0,3
16.83896827697754,-33.55070495605469,1.6772195100784302,-0.0,-0.0,-1.0,0.11321590807952167,1.0,2
17.324237823486328,-32.81581115722656,1.7271488904953003,-0.0,-0.0,-1.0,0.1328989407670973,1.0,2
16.377704620361328,-32.01463317871094,1.7311605215072632,-0.0,-0.0,-1.0,0.21806756261640942,1.0,2
17.426843643188477,-32.45033645629883,1.747658610343933,-0.0,-0.0,-1.0,0.16673948685539083,1.0,2
17.235363006591797,-31.99432945251465,1.7629793882369995,-0.0,-0.0,-1.0,0.1010187285491224,1.0,2
17.26660919189453,-33.03386688232422,2.3079638481140137,-0.0,-0.0,-1.0,0.2432929779952685,1.0,3
17.125850677490234,-31.969297409057617,1.6406303644180298,-0.0,-0.0,-1.0,0.14354932573986176,1.0,2
17.394882202148438,-33.17109298706055,2.193350315093994,-0.0,-0.0,-1.0,0.15500551885080358,1.0,3
17.084671020507812,-31.917312622070312,2.2187886238098145,-0.0,-0.0,-1.0,0.07789714917164559,1.0,3
17.497333526611328,-31.8852596282959,1.4381561279296875,-0.0,-0.0,-1.0,0.1129983812729735,2.0,2
15.36811351776123,-33.083885192871094,1.939162015914917,-0.4200004501309106,-0.28706624513488144,-0.8609254281260326,0.16012662584899567,3.0,2
15.723860740661621,-33.10096740722656,1.9480221271514893,-0.0,-0.0,-1.0,0.1676371425202119,1.0,2
16.11650276184082,-33.16194152832031,1.956167221069336,-0.0,-0.0,-1.0,0.16632301668210459,2.0,2
16.301101684570312,-33.35765075683594,1.955127477645874,-0.14856286431865431,-0.3704138539006989,-0.9169092933239738,0.2101000997587197,3.0,2
15.558422088623047,-32.909423828125,1.9487619400024414,-0.0,-0.0,-1.0,0.1672200498770123,1.0,2
17.40717315673828,-33.250701904296875,1.9817283153533936,-0.0,-0.0,-1.0,0.13699622571971115,1.0,2
17.456501007080078,-33.01972198486328,1.9896392822265625,-0.0,-0.0,-1.0,0.21428416033713285,1.0,2
16.304485321044922,-32.090599060058594,1.9897600412368774,-0.0,-0.0,-1.0,0.13278391592907035,2.0,2
15.538299560546875,-33.655540466308594,2.6007328033447266,-0.0,-0.0,-1.0,0.1360541002733557,1.0,3
15.384757995605469,-33.220909118652344,2.5982580184936523,-0.0,-0.0,-1.0,0.2299793238682009,2.0,3
17.427291870117188,-33.057823181152344,2.60939359664917,-0.0,-0.0,-1.0,0.25518997147494127,1.0,3
17.19168472290039,-32.51063919067383,1.5508984327316284,-0.0,-0.0,-1.0,0.10310350976176262,1.0,2
17.107837677001953,-31.958250045776367,1.569096326828003,-0.0,-0.0,-1.0,0.13510341969818215,1.0,2
15.63029956817627,-32.96379470825195,2.1238508224487305,-0.0,-0.0,-1.0,0.15434205805135975,2.0,3
17.119274139404297,-32.56726837158203,1.5510245561599731,-0.0,-0.0,-1.0,0.11579477920597055,1.0,2
17.045988082885742,-31.92340660095215,1.5683211088180542,-0.0,-0.0,-1.0,0.14774399664529989,1.0,2
17.601028442382812,-31.981847763061523,1.585445523262024,-0.0,-0.0,-1.0,0.1158866793880944,1.0,2
16.499486923217773,-33.18568420410156,1.5946972370147705,-0.0,-0.0,-1.0,0.17644194617747777,1.0,2
17.589981079101562,-32.80880355834961,1.6589716672897339,-0.0,-0.0,-1.0,0.1402560998664629,1.0,2
16.674789428710938,-31.86702537536621,1.6300439834594727,-0.0,-0.0,-1.0,0.03528296507407795,1.0,2
16.942203521728516,-31.965635299682617,1.6430344581604004,-0.0,-0.0,-1.0,0.07626928871810075,1.0,2
17.252166748046875,-32.017066955566406,1.658818244934082,-0.0,-0.0,-1.0,0.14166198576714775,2.0,2
17.369163513183594,-33.10118103027344,2.339604616165161,-0.0,-0.0,-1.0,0.23703979377117068,1.0,3
17.171005249023438,-32.905113220214844,2.3332972526550293,-0.0,-0.0,-1.0,0.16131161187805323,2.0,3
16.366708755493164,-33.277061462402344,1.628796100616455,-0.0,-0.0,-1.0,0.2190464198013694,2.0,2
17.4515380859375,-33.00372314453125,1.6898572444915771,-0.0,-0.0,-1.0,0.11599915506004052,1.0,2
17.041095733642578,-32.017181396484375,1.6826941967010498,-0.0,-0.0,-1.0,0.15387562175987785,1.0,2
17.28175926208496,-32.015594482421875,1.6959338188171387,-0.0,-0.0,-1.0,0.10286968408429299,2.0,2
17.521743774414062,-31.922718048095703,1.7102513313293457,-0.0,-0.0,-1.0,0.10102638849236233,1.0,2
15.81682014465332,-32.77376174926758,1.7188594341278076,-0.0,-0.0,-1.0,0.15354501587267944,1.0,2
16.694368362426758,-32.84423828125,2.490802049636841,-0.0,-0.0,-1.0,0.14166399751744713,1.0,3
15.678783416748047,-32.71463394165039,1.7709782123565674,-0.0,-0.0,-1.0,0.1158442866228796,1.0,2
15.991483688354492,-32.754608154296875,1.7829043865203857,-0.0,-0.0,-1.0,0.2147887957472482,1.0,2
16.91441535949707,-32.34992218017578,2.5663528442382812,-0.0,-0.0,-1.0,0.14000232282307995,1.0,3
15.428007125854492,-33.286170959472656,1.8589720726013184,-0.0,-0.0,-1.0,0.17125755088100983,1.0,2
15.636117935180664,-33.278751373291016,1.8657984733581543,-0.0,-0.0,-1.0,0.22575297445640133,1.0,2
15.999372482299805,-33.18257141113281,1.8789434432983398,-0.0,-0.0,-1.0,0.11055883128505874,1.0,2
16.20069694519043,-33.32366180419922,1.8830896615982056,-0.0,-0.0,-1.0,0.23582227343834503,1.0,2
17.305395126342773,-33.51984405517578,2.6688880920410156,-0.0,-0.0,-1.0,0.12587401266672776,1.0,3
17.50592803955078,-31.90869140625,1.4878743886947632,-0.0,-0.0,-1.0,0.11373533494788451,2.0,2
15.664041519165039,-33.20991897583008,2.1334729194641113,-0.0,-0.0,-1.0,0.12446010588943678,1.0,3
15.588064193725586,-33.20372009277344,2.2112228870391846,-0.0,-0.0,-1.0,0.12366620929011934,1.0,3
17.242660522460938,-31.915142059326172,2.249952793121338,-0.0,-0.0,-1.0,0.060030251288236906,1.0,3
15.573640823364258,-33.06279754638672,1.9175723791122437,-0.0,-0.0,-1.0,0.20253910612234058,1.0,2
15.929712295532227,-33.050376892089844,1.9338130950927734,-0.0,-0.0,-1.0,0.20369262841298869,2.0,2
16.26056671142578,-33.332271575927734,1.9514424800872803,0.5288740702220122,0.8483323488224833,0.024988873286534208,0.18040347861599781,3.0,2
15.800785064697266,-33.10365295410156,2.0573015213012695,-0.0,-0.0,-1.0,0.1275526047895283,1.0,3
15.864505767822266,-33.23536682128906,2.0583207607269287,-0.0,-0.0,-1.0,0.09585598630892496,1.0,3
15.833253860473633,-33.15243148803711,2.0106756687164307,-0.0,-0.0,-1.0,0.1669920278285497,2.0,3
15.728693008422852,-33.13043975830078,2.0085294246673584,-0.0,-0.0,-1.0,0.1435710130616774,1.0,3
16.040943145751953,-33.276039123535156,2.0131263732910156,-0.0,-0.0,-1.0,0.1516832198026469,1.0,3
16.433059692382812,-32.05900573730469,1.925034761428833,-0.0,-0.0,-1.0,0.11363756856441745,1.0,2
16.28269386291504,-32.17808532714844,1.9182307720184326,-0.0,-0.0,-1.0,0.20854622145414792,2.0,2
16.464397430419922,-32.299232482910156,1.9249836206436157,-0.0,-0.0,-1.0,0.08901061546150606,1.0,2
15.857732772827148,-32.76091766357422,1.897503137588501,-0.0,-0.0,-1.0,0.16054742417499168,1.0,2
15.643033981323242,-33.005218505859375,1.887263536453247,-0.0,-0.0,-1.0,0.2413704112514986,1.0,2
16.013835906982422,-33.06986618041992,1.901784896850586,-0.0,-0.0,-1.0,0.11930399631592835,1.0,2
15.770391464233398,-33.082820892333984,1.8918993473052979,-0.0,-0.0,-1.0,0.13235175937413532,1.0,2
16.262332916259766,-33.33214569091797,1.9097882509231567,-0.0,-0.0,-1.0,0.23848764417041118,2.0,2
16.105974197387695,-33.09813690185547,2.576756477355957,-0.0,-0.0,-1.0,0.07663320563403399,1.0,3
15.868764877319336,-33.16123962402344,2.5750391483306885,-0.0,-0.0,-1.0,0.03476809180032874,1.0,3
17.584182739257812,-33.006134033203125,2.5904834270477295,-0.0,-0.0,-1.0,0.22386004212560934,1.0,3
17.694217681884766,-32.099639892578125,2.165587902069092,-0.0,-0.0,-1.0,0.07291085025177967,1.0,3
15.720029830932617,-33.128387451171875,2.105621814727783,-0.0,-0.0,-1.0,0.1642671347175519,2.0,3
15.414876937866211,-33.12086486816406,2.1031908988952637,-0.0,-0.0,-1.0,0.15082893215174129,1.0,3
15.85595989227295,-31.91573715209961,1.797672986984253,-0.0,-0.0,-1.0,0.11596760243967669,1.0,2
17.430545806884766,-31.913429260253906,1.8549453020095825,-0.0,-0.0,-1.0,0.12938743910721984,1.0,2
17.415058135986328,-32.01840591430664,1.8487803936004639,-0.0,-0.0,-1.0,0.19329322274547586,1.0,2
16.73210906982422,-32.17158508300781,1.8162503242492676,-0.0,-0.0,-1.0,0.07228224403662933,1.0,2
17.640119552612305,-32.290061950683594,1.8420038223266602,-0.0,-0.0,-1.0,0.0799126235190818,1.0,2
16.07274627685547,-33.08123779296875,1.7441223859786987,-0.0,-0.0,-1.0,0.09175603031610309,1.0,2
16.094402313232422,-33.141624450683594,1.7416093349456787,-0.0,-0.0,-1.0,0.11414906304206987,1.0,2
15.997820854187012,-32.00551223754883,1.7514262199401855,-0.0,-0.0,-1.0,0.13300490881422447,1.0,2
17.30440902709961,-31.862464904785156,1.8395439386367798,-0.0,-0.0,-1.0,0.08026755226283591,1.0,2
16.544782638549805,-32.06216812133789,1.7807255983352661,-0.0,-0.0,-1.0,0.065525890405586,1.0,2
16.377811431884766,-32.096866607666016,1.7684577703475952,-0.0,-0.0,-1.0,0.21338127964804982,1.0,2
17.488651275634766,-32.031768798828125,1.8389227390289307,-0.0,-0.0,-1.0,0.20302871543659906,1.0,2
16.941938400268555,-32.19019317626953,1.795863389968872,-0.0,-0.0,-1.0,0.0934779154772048,2.0,2
16.805809020996094,-32.21206283569336,1.7863143682479858,-0.0,-0.0,-1.0,0.07130714142368832,1.0,2
16.73511505126953,-32.692222595214844,1.7491371631622314,-0.0,-0.0,-1.0,0.07651858195468254,1.0,2
16.18814468383789,-33.10869598388672,1.688291072845459,-0.0,-0.0,-1.0,0.15141346177927886,1.0,2
16.203392028808594,-33.302642822265625,1.6755344867706299,-0.0,-0.0,-1.0,0.16476173352805815,2.0,2
15.496615409851074,-33.152645111083984,2.2273311614990234,-0.0,-0.0,-1.0,0.13573463306042066,1.0,3
15.460366249084473,-33.73070526123047,2.197084903717041,-0.0,-0.0,-1.0,0.14683846549922522,1.0,3
17.46137237548828,-33.107025146484375,2.2851550579071045,-0.0,-0.0,-1.0,0.22003945763262037,1.0,3
16.274492263793945,-32.03532409667969,1.86080002784729,-0.0,-0.0,-1.0,0.23763668913056463,2.0,2
15.817190170288086,-32.01258087158203,1.8321630954742432,-0.0,-0.0,-1.0,0.11811450785976303,1.0,2
15.586301803588867,-31.99571990966797,1.8179128170013428,-0.0,-0.0,-1.0,0.06695409177442363,1.0,2
16.773834228515625,-32.23371505737305,1.8801751136779785,-0.0,-0.0,-1.0,0.06917358808045661,1.0,2
16.44388771057129,-32.17318344116211,1.8629117012023926,-0.0,-0.0,-1.0,0.100839646145863,2.0,2
16.134593963623047,-32.93558883666992,1.7924250364303589,-0.0,-0.0,-1.0,0.19821050285486888,1.0,2
16.165407180786133,-33.1872673034668,1.7771575450897217,-0.0,-0.0,-1.0,0.10180724707317705,1.0,2
16.847183227539062,-33.24958801269531,1.8149449825286865,-0.0,-0.0,-1.0,0.09956733239873425,1.0,2
16.212169647216797,-33.44569396972656,1.7621427774429321,-0.0,-0.0,-1.0,0.21364619044867278,1.0,2
17.441429138183594,-31.98348617553711,1.9395054578781128,-0.0,-0.0,-1.0,0.15457029202420725,1.0,2
15.389300346374512,-33.164878845214844,2.277383327484131,-0.0,-0.0,-1.0,0.08061408358829275,2.0,3
16.2453670501709,-33.17809295654297,2.305617094039917,-0.27645076022493603,0.9341652263537507,-0.22563312487864157,0.1328317118134056,3.0,3
17.41000747680664,-31.9017391204834,1.5875502824783325,-0.0,-0.0,-1.0,0.06987648122575094,1.0,2
16.113971710205078,-32.8364143371582,1.8684483766555786,-0.0,-0.0,-1.0,0.22621529138683474,1.0,2
15.638721466064453,-32.853302001953125,1.8363728523254395,-0.0,-0.0,-1.0,0.18201542812793176,1.0,2
16.137392044067383,-33.208553314208984,1.8442693948745728,-0.13474034969497617,0.7964017525389064,-0.5895670332685116,0.10722455265482053,3.0,2
15.751617431640625,-33.133384704589844,1.824782371520996,-0.0,-0.0,-1.0,0.17279793857479053,1.0,2
15.435894966125488,-33.160518646240234,1.802491545677185,-0.0,-0.0,-1.0,0.18284004113630345,1.0,2
16.20215606689453,-33.458255767822266,1.830783724784851,-0.0,-0.0,-1.0,0.21592597559455318,1.0,2
16.105655670166016,-33.48908233642578,1.822555422782898,-0.0,-0.0,-1.0,0.18275257957106972,1.0,2
16.161964416503906,-32.08438491821289,1.9215672016143799,-0.0,-0.0,-1.0,0.18463683482703575,1.0,2
15.861632347106934,-31.988737106323242,1.9075225591659546,-0.0,-0.0,-1.0,0.13161127262944472,1.0,2
15.654627799987793,-31.942148208618164,1.8964213132858276,-0.0,-0.0,-1.0,0.08802663024536153,1.0,2
16.8164005279541,-32.179290771484375,1.9585059881210327,-0.0,-0.0,-1.0,0.06653344864251977,1.0,2
16.357826232910156,-32.20541000366211,1.926658272743225,-0.0,-0.0,-1.0,0.2031528382056445,2.0,2
16.09750747680664,-32.33572006225586,1.9008852243423462,-0.0,-0.0,-1.0,0.08650703788003003,1.0,2
17.11468505859375,-32.39094924926758,1.963397741317749,-0.0,-0.0,-1.0,0.16794803793926413,1.0,2
16.53628921508789,-32.59543228149414,1.9121205806732178,-0.0,-0.0,-1.0,0.0360509114522276,1.0,2
15.323128700256348,-33.17974853515625,2.3053393363952637,-0.0,-0.0,-1.0,0.08449563771391419,1.0,3
17.0029296875,-33.07833480834961,2.3688018321990967,-0.0,-0.0,-1.0,0.16646574530861302,1.0,3
16.218114852905273,-33.17860794067383,2.3368749618530273,-0.0,-0.0,-1.0,0.11103731345707653,2.0,3
17.486366271972656,-31.918746948242188,1.6232905387878418,-0.0,-0.0,-1.0,0.08048274898662577,1.0,2
16.409259796142578,-32.1102294921875,1.9254069328308105,-0.0,-0.0,-1.0,0.10505674098583402,1.0,2
16.139564514160156,-31.977460861206055,1.916737675666809,-0.0,-0.0,-1.0,0.14316428634170433,1.0,2
15.69494915008545,-32.04129409790039,1.8807287216186523,-0.0,-0.0,-1.0,0.08831825136301609,1.0,2
15.4306001663208,-32.195823669433594,1.8505481481552124,-0.0,-0.0,-1.0,0.03777506422859817,1.0,2
17.019134521484375,-32.202606201171875,1.9597803354263306,-0.0,-0.0,-1.0,0.16685796961713406,1.0,2
16.530094146728516,-32.281219482421875,1.920408010482788,-0.0,-0.0,-1.0,0.07600698216118074,1.0,2
15.793509483337402,-32.65907669067383,1.8406089544296265,-0.0,-0.0,-1.0,0.1363424331896585,1.0,2
15.38992691040039,-32.81025695800781,1.8011808395385742,-0.0,-0.0,-1.0,0.0995196044017658,1.0,2
17.656158447265625,-32.52616882324219,1.9754327535629272,-0.0,-0.0,-1.0,0.09988569473538028,1.0,2
16.721712112426758,-32.555747985839844,1.9116222858428955,-0.0,-0.0,-1.0,0.06585527312602542,1.0,2
15.962153434753418,-33.04933166503906,1.8212422132492065,-0.0,-0.0,-1.0,0.13248916771072636,1.0,2
15.591132164001465,-33.01115036010742,1.7992559671401978,-0.0,-0.0,-1.0,0.159725392715611,1.0,2
17.659744262695312,-32.980445861816406,1.9372591972351074,-0.0,-0.0,-1.0,0.205402865959389,1.0,2
16.32648277282715,-33.29542541503906,1.8252804279327393,-0.0,-0.0,-1.0,0.236824695407682,1.0,2
16.125320434570312,-33.31073760986328,1.8108700513839722,-0.0,-0.0,-1.0,0.18640040879726272,1.0,2
17.52046775817871,-32.19643020629883,2.386183261871338,-0.0,-0.0,-1.0,0.17737644442057346,1.0,3
15.460022926330566,-33.22064971923828,2.246274948120117,-0.0,-0.0,-1.0,0.0673392734916221,1.0,3
16.209070205688477,-33.19593048095703,2.276237964630127,-0.0,-0.0,-1.0,0.132045828502382,2.0,3
15.349090576171875,-33.135284423828125,2.7188689708709717,-0.0,-0.0,-1.0,0.22997932386820097,1.0,3
16.8355655670166,-32.04499053955078,1.872218370437622,-0.0,-0.0,-1.0,0.06487717190550016,1.0,2
16.296175003051758,-32.06645965576172,1.833551049232483,-0.0,-0.0,-1.0,0.23763668913056454,2.0,2
15.861336708068848,-32.058067321777344,1.8041493892669678,-0.0,-0.0,-1.0,0.11811450785976303,1.0,2
15.641646385192871,-32.01064682006836,1.7932586669921875,-0.0,-0.0,-1.0,0.07872297116092808,1.0,2
17.520519256591797,-31.92296028137207,1.5784754753112793,-0.0,-0.0,-1.0,0.11087587925789434,2.0,2
17.088512420654297,-32.352439880371094,1.8534518480300903,-0.0,-0.0,-1.0,0.12785960063923504,1.0,2
16.69373321533203,-32.22218704223633,1.8432588577270508,-0.0,-0.0,-1.0,0.06897787798566615,2.0,2
16.434534072875977,-32.18436813354492,1.8303488492965698,-0.0,-0.0,-1.0,0.10083964614586294,2.0,2
16.89472198486328,-32.56672286987305,1.816573143005371,-0.0,-0.0,-1.0,0.09973173785640176,1.0,2
16.104446411132812,-32.98674774169922,1.7191044092178345,-0.0,-0.0,-1.0,0.21174481976196383,1.0,2
16.702091217041016,-33.274085998535156,1.7202110290527344,-0.0,-0.0,-1.0,0.19639918052602162,1.0,2
16.21123695373535,-33.233638763427734,1.6966944932937622,-0.0,-0.0,-1.0,0.1311800355088072,2.0,2
17.618270874023438,-32.08057403564453,1.9171408414840698,-0.0,-0.0,-1.0,0.13872160173232212,1.0,2
17.373680114746094,-32.01050567626953,1.9106202125549316,-0.0,-0.0,-1.0,0.17950359713177944,1.0,2
15.715811729431152,-33.141517639160156,2.1022825241088867,-0.0,-0.0,-1.0,0.16093231492433296,2.0,3
15.59438705444336,-33.17613983154297,2.094813585281372,-0.0,-0.0,-1.0,0.16490897116602107,1.0,3
15.849991798400879,-33.353271484375,2.0869054794311523,-0.0,-0.0,-1.0,0.07688194824191177,1.0,3
17.37234878540039,-33.282249450683594,2.1384685039520264,-0.0,-0.0,-1.0,0.11451175503779283,1.0,3
15.75797176361084,-33.7381477355957,2.0467309951782227,-0.0,-0.0,-1.0,0.16330477841640498,1.0,3
17.683141708374023,-32.08625030517578,2.442943572998047,-0.0,-0.0,-1.0,0.129932928359262,1.0,3
15.2496337890625,-33.13075637817383,2.522406578063965,-0.0,-0.0,-1.0,0.0924981306784051,1.0,3
17.531436920166016,-33.06884002685547,2.536670684814453,-0.0,-0.0,-1.0,0.15467429085781412,2.0,3
17.576330184936523,-33.15049362182617,2.5299553871154785,-0.0,-0.0,-1.0,0.15164635306131977,2.0,3
17.197757720947266,-32.0438232421875,1.4300800561904907,-0.0,-0.0,-1.0,0.1125618822715162,1.0,2
16.77307891845703,-31.902599334716797,1.7596232891082764,-0.0,-0.0,-1.0,0.04306970690580316,1.0,2
16.498685836791992,-31.980239868164062,1.7255709171295166,-0.0,-0.0,-1.0,0.08907290668421954,1.0,2
15.880532264709473,-32.07052230834961,1.656174659729004,-0.0,-0.0,-1.0,0.1067082754996332,1.0,2
16.77750015258789,-32.21307373046875,1.7279767990112305,-0.0,-0.0,-1.0,0.056762044392081656,1.0,2
15.888751983642578,-32.15646743774414,1.6484817266464233,-0.0,-0.0,-1.0,0.09142482076345307,1.0,2
16.297649383544922,-33.13898468017578,1.583228349685669,-0.0,-0.0,-1.0,0.19887582961496889,1.0,2
17.53087615966797,-31.98480987548828,1.8222370147705078,-0.0,-0.0,-1.0,0.09513737441599238,1.0,2
17.20755386352539,-31.93545150756836,1.7976350784301758,-0.0,-0.0,-1.0,0.09749837000975849,1.0,2
17.630695343017578,-32.66100311279297,1.7545114755630493,-0.0,-0.0,-1.0,0.18115093333031898,1.0,2
15.86783504486084,-32.69791030883789,1.994721531867981,-0.0,-0.0,-1.0,0.16769416095361625,1.0,2
15.321938514709473,-32.75178909301758,1.953816533088684,-0.0,-0.0,-1.0,0.11882737050977975,1.0,2
16.03255271911621,-33.17716598510742,1.9640223979949951,-0.0,-0.0,-1.0,0.1693775196712107,2.0,2
15.67431640625,-33.108482360839844,1.9472070932388306,-0.0,-0.0,-1.0,0.22747084430090378,1.0,2
15.399657249450684,-33.12787628173828,1.9277065992355347,-0.0,-0.0,-1.0,0.19852022322962734,2.0,2
17.539592742919922,-33.45469665527344,2.0267891883850098,-0.0,-0.0,-1.0,0.13957655918718875,1.0,3
16.075756072998047,-33.5067024230957,1.9372622966766357,-0.0,-0.0,-1.0,0.15967887424485844,1.0,2
15.836812973022461,-33.796329498291016,1.8964593410491943,-0.0,-0.0,-1.0,0.07288368911297868,1.0,2
17.60134506225586,-32.320640563964844,2.309321403503418,-0.0,-0.0,-1.0,0.14136816590528428,1.0,3
17.297407150268555,-32.85127639770508,2.434990882873535,-0.0,-0.0,-1.0,0.18769433298964786,1.0,3
17.584396362304688,-33.07762908935547,2.4278788566589355,-0.0,-0.0,-1.0,0.21286432229747507,2.0,3
17.263477325439453,-33.152809143066406,2.412468910217285,-0.0,-0.0,-1.0,0.20320121876446257,1.0,3
17.510190963745117,-31.888639450073242,1.4465094804763794,0.043961484843945874,-0.900747072503773,-0.4321135258542576,0.10298716426764247,3.0,2
17.015914916992188,-32.13089370727539,1.702294111251831,-0.0,-0.0,-1.0,0.12992530544236164,1.0,2
16.846240997314453,-32.02075958251953,1.693727970123291,-0.0,-0.0,-1.0,0.06461352267075189,1.0,2
16.191619873046875,-31.874786376953125,1.6317955255508423,-0.0,-0.0,-1.0,0.12464920618005934,1.0,2
17.590824127197266,-32.65433883666992,1.7123172283172607,-0.0,-0.0,-1.0,0.17974081529938732,1.0,2
17.468502044677734,-32.62874984741211,1.7019850015640259,-0.0,-0.0,-1.0,0.20327733889781593,1.0,2
16.642974853515625,-32.724884033203125,1.6027345657348633,-0.0,-0.0,-1.0,0.058628144132822545,1.0,2
16.758296966552734,-32.96608352661133,1.591196060180664,-0.0,-0.0,-1.0,0.09756416779192188,1.0,2
16.5635929107666,-32.92013168334961,1.5745879411697388,-0.0,-0.0,-1.0,0.13937719153386935,1.0,2
17.4046573638916,-31.924713134765625,1.7656747102737427,-0.0,-0.0,-1.0,0.11795295197152025,1.0,2
17.482830047607422,-32.35202407836914,1.9049584865570068,-0.0,-0.0,-1.0,0.1395137968668278,1.0,2
16.326133728027344,-32.10703659057617,1.9953080415725708,-0.0,-0.0,-1.0,0.14283379661140058,2.0,2
15.840242385864258,-31.97954559326172,1.9619507789611816,-0.0,-0.0,-1.0,0.11322229422167665,1.0,2
15.417654037475586,-32.4495964050293,1.8920915126800537,-0.0,-0.0,-1.0,0.04345982266509591,1.0,2
17.682897567749023,-33.04316329956055,2.034559726715088,-0.0,-0.0,-1.0,0.13696854410481799,1.0,3
15.9864501953125,-33.01307678222656,1.899815320968628,-0.0,-0.0,-1.0,0.17512503196516005,2.0,2
15.709295272827148,-32.7966194152832,1.8923771381378174,-0.0,-0.0,-1.0,0.21817045427165402,1.0,2
15.237672805786133,-32.744873046875,1.8555161952972412,-0.0,-0.0,-1.0,0.09111916870874161,1.0,2
16.3840389251709,-33.352210998535156,1.9065479040145874,-0.0,-0.0,-1.0,0.2606704719681954,1.0,2
16.10492706298828,-33.26326370239258,1.8905870914459229,-0.0,-0.0,-1.0,0.12447605805850759,1.0,2
15.6088228225708,-33.090782165527344,1.8621906042099,-0.0,-0.0,-1.0,0.21375071650716376,1.0,2
16.487327575683594,-33.72213363647461,1.8855502605438232,-0.0,-0.0,-1.0,0.0967746990674898,1.0,2
15.657561302185059,-34.31396484375,1.7720904350280762,-0.0,-0.0,-1.0,0.2187270759481585,1.0,2
17.519304275512695,-33.151649475097656,2.3706984519958496,-0.0,-0.0,-1.0,0.18869526303420228,1.0,3
17.14021873474121,-32.91971969604492,2.3636112213134766,-0.0,-0.0,-1.0,0.17648828657773527,2.0,3
15.419418334960938,-33.14629364013672,2.255777359008789,-0.0,-0.0,-1.0,0.1360354011549799,2.0,3
15.463751792907715,-33.691383361816406,2.2292673587799072,-0.0,-0.0,-1.0,0.15195125098007684,1.0,3
17.477128982543945,-31.884828567504883,1.5633559226989746,-0.0,-0.0,-1.0,0.07638748771840172,1.0,2
17.54150390625,-32.602108001708984,1.481038212776184,-0.0,-0.0,-1.0,0.1404038195343667,1.0,2
17.25543975830078,-32.23789978027344,1.4923268556594849,-0.0,-0.0,-1.0,0.13841618153224186,1.0,2
16.608551025390625,-32.159873962402344,1.7702194452285767,-0.0,-0.0,-1.0,0.07310387359844553,1.0,2
17.519699096679688,-32.71783447265625,1.4634649753570557,-0.0,-0.0,-1.0,0.12994305791989666,1.0,2
16.75160026550293,-32.35316848754883,1.7662192583084106,-0.0,-0.0,-1.0,0.0910052931058036,1.0,2
16.119529724121094,-32.137393951416016,1.7216877937316895,-0.0,-0.0,-1.0,0.13267371282944906,2.0,2
15.855803489685059,-31.9276065826416,1.7125744819641113,-0.0,-0.0,-1.0,0.10497939110754913,1.0,2
16.338354110717773,-33.26191711425781,1.6358821392059326,-0.0,-0.0,-1.0,0.2234618813249951,2.0,2
16.226207733154297,-33.14551544189453,1.6365164518356323,-0.0,-0.0,-1.0,0.14670606137732825,1.0,2
16.31450653076172,-33.42378234863281,1.617314100265503,-0.0,-0.0,-1.0,0.18671109718571327,1.0,2
16.17038345336914,-33.379756927490234,1.6077758073806763,-0.0,-0.0,-1.0,0.1397760397835336,1.0,2
17.412776947021484,-31.958885192871094,1.8705462217330933,-0.0,-0.0,-1.0,0.12938743910721986,1.0,2
17.236413955688477,-32.2088623046875,1.8285109996795654,-0.0,-0.0,-1.0,0.17876035439076077,1.0,2
16.935422897338867,-32.150390625,1.8042021989822388,-0.0,-0.0,-1.0,0.07490930153874456,2.0,2
16.02505111694336,-33.22641372680664,1.996394157409668,-0.0,-0.0,-1.0,0.16571967655302153,1.0,2
15.72478199005127,-33.06425476074219,1.9861208200454712,-0.0,-0.0,-1.0,0.2246680380339341,1.0,2
15.229097366333008,-32.683223724365234,1.9753118753433228,-0.0,-0.0,-1.0,0.13796266612541921,1.0,2
16.02634048461914,-33.31912612915039,1.9895472526550293,-0.0,-0.0,-1.0,0.1118663555330523,1.0,2
15.60828685760498,-33.15201187133789,1.971099853515625,-0.0,-0.0,-1.0,0.14581844021853776,1.0,2
15.355446815490723,-33.11271667480469,1.954954981803894,-0.483027928971067,-0.30600371100823337,-0.8203936547067581,0.16915009927938385,4.0,2
17.635089874267578,-32.09464645385742,2.197481393814087,-0.0,-0.0,-1.0,0.10083789903846362,1.0,3
15.58598804473877,-33.097320556640625,2.3668723106384277,-0.0,-0.0,-1.0,0.11606521340517319,1.0,3
16.751951217651367,-33.312191009521484,1.7081290483474731,-0.0,-0.0,-1.0,0.17941038419070135,1.0,2
16.545345306396484,-33.62471389770508,2.071178674697876,-0.0,-0.0,-1.0,0.08134920943133991,1.0,3
16.272584915161133,-31.930803298950195,1.7240078449249268,-0.0,-0.0,-1.0,0.19092139361275756,1.0,2
15.918998718261719,-33.12665557861328,2.013033390045166,-0.0,-0.0,-1.0,0.15229399426952658,2.0,3
15.908596992492676,-32.976131439208984,2.0214481353759766,-0.0,-0.0,-1.0,0.1823369582580677,1.0,3
15.803194999694824,-33.155696868896484,2.0025296211242676,-0.0,-0.0,-1.0,0.16360576881173988,2.0,3
15.60318374633789,-33.01311492919922,1.9958405494689941,-0.0,-0.0,-1.0,0.2778363814097628,1.0,2
15.33029556274414,-33.10078430175781,1.9694418907165527,-0.0,-0.0,-1.0,0.23964634158751033,2.0,2
15.509721755981445,-33.02360153198242,2.420819044113159,-0.0,-0.0,-1.0,0.1373811313932263,1.0,3
15.23284912109375,-33.001827239990234,2.405032157897949,-0.0,-0.0,-1.0,0.11416300948204547,1.0,3
17.32959747314453,-33.0940055847168,1.800597906112671,-0.0,-0.0,-1.0,0.12247112837775961,1.0,2
17.44246482849121,-33.1584587097168,1.7948989868164062,-0.0,-0.0,-1.0,0.19006655454525065,1.0,2
17.35573959350586,-33.195308685302734,1.9499101638793945,-0.0,-0.0,-1.0,0.16566574342834517,2.0,2
17.69165802001953,-32.699466705322266,2.0324459075927734,-0.0,-0.0,-1.0,0.17285722500856265,1.0,3
17.292755126953125,-34.10115432739258,1.7269372940063477,-0.0,-0.0,-1.0,0.11230539205434187,1.0,2
17.529827117919922,-33.2054443359375,1.8667349815368652,-0.0,-0.0,-1.0,0.2241233298182702,1.0,2
17.34695816040039,-34.19744873046875,1.7636675834655762,-0.0,-0.0,-1.0,0.12279771898221015,1.0,2
17.392332077026367,-33.23357009887695,1.8938546180725098,-0.0,-0.0,-1.0,0.2217442804585093,1.0,2
17.67619514465332,-32.84360885620117,1.9396672248840332,-0.0,-0.0,-1.0,0.16150932187060704,1.0,2
17.10687828063965,-33.73931121826172,1.6313180923461914,-0.0,-0.0,-1.0,0.040054112669053524,1.0,2
17.027124404907227,-34.05670166015625,1.600581169128418,-0.0,-0.0,-1.0,0.05851767265102725,1.0,2
17.09886360168457,-34.144569396972656,1.8618478775024414,-0.0,-0.0,-1.0,0.1619502378662597,1.0,2
17.229055404663086,-32.59688949584961,1.9787631034851074,-0.0,-0.0,-1.0,0.18177477781238424,1.0,2
16.95474624633789,-33.7727165222168,1.597890853881836,-0.0,-0.0,-1.0,0.05961599702902461,1.0,2
16.88441276550293,-34.09672546386719,1.5787487030029297,-0.0,-0.0,-1.0,0.057414725649663996,1.0,2
16.73838233947754,-34.24509811401367,1.5854787826538086,-0.0,-0.0,-1.0,0.060691525304975895,1.0,2
15.23382568359375,-32.58250045776367,1.786264419555664,-0.0,-0.0,-1.0,0.07013235706297238,1.0,2
15.592456817626953,-32.53176498413086,1.729909896850586,-0.0,-0.0,-1.0,0.061874232047905986,1.0,2
15.548925399780273,-32.71149444580078,1.7262611389160156,-0.0,-0.0,-1.0,0.0828322620674827,1.0,2
15.509925842285156,-33.409873962402344,1.6906867027282715,-0.0,-0.0,-1.0,0.10682285319207963,1.0,2
15.265207290649414,-33.52665710449219,1.7243714332580566,-0.0,-0.0,-1.0,0.20670732489903632,1.0,2
15.243537902832031,-34.1506462097168,1.6907086372375488,-0.0,-0.0,-1.0,0.1433890115866865,1.0,2
15.229023933410645,-32.796409606933594,1.9310693740844727,-0.0,-0.0,-1.0,0.1390575295129409,1.0,2
15.623894691467285,-33.03434753417969,1.847794532775879,-0.0,-0.0,-1.0,0.1784569354147405,1.0,2
15.94221019744873,-34.23829650878906,1.7409067153930664,-0.0,-0.0,-1.0,0.06834701092232964,1.0,2
16.069616317749023,-33.030967712402344,2.0391483306884766,-0.0,-0.0,-1.0,0.18248252115074662,1.0,3
16.327219009399414,-33.16533660888672,1.9849724769592285,-0.0,-0.0,-1.0,0.13199627741018657,1.0,2
16.547082901000977,-33.13141632080078,1.9418573379516602,-0.0,-0.0,-1.0,0.10933026249449063,1.0,2
16.05609130859375,-33.10099792480469,2.008453369140625,-0.0,-0.0,-1.0,0.18005501081061845,1.0,3
16.367263793945312,-33.20112991333008,1.9319524765014648,-0.0,-0.0,-1.0,0.10591194452194291,1.0,2
16.425838470458984,-32.950382232666016,1.9132304191589355,-0.0,-0.0,-1.0,0.14642069463896834,2.0,2
16.820270538330078,-33.150001525878906,1.8174715042114258,-0.0,-0.0,-1.0,0.12065357787354028,1.0,2
15.970306396484375,-34.328697204589844,1.7876381874084473,-0.0,-0.0,-1.0,0.04578816746470474,1.0,2
15.685491561889648,-33.15922546386719,1.845597743988037,-0.0,-0.0,-1.0,0.20853146549973978,1.0,2
15.926382064819336,-32.844871520996094,1.7778515815734863,-0.0,-0.0,-1.0,0.18537522203580567,1.0,2
15.874826431274414,-32.98533630371094,1.7934422492980957,-0.0,-0.0,-1.0,0.1595632781489032,1.0,2
15.414054870605469,-33.141990661621094,2.389470100402832,-0.0,-0.0,-1.0,0.098956903909672,1.0,3
17.530487060546875,-33.37453842163086,1.873786449432373,-0.0,-0.0,-1.0,0.29214198890081655,1.0,2
15.485962867736816,-34.184452056884766,2.7777233123779297,-0.0,-0.0,-1.0,0.07371132882425552,1.0,3
15.880900382995605,-34.21341323852539,2.7679944038391113,-0.0,-0.0,-1.0,0.1156394856808309,1.0,3
15.550594329833984,-33.77827453613281,2.8279166221618652,-0.0,-0.0,-1.0,0.11693419726747091,1.0,3
16.598011016845703,-34.339805603027344,1.896653652191162,-0.0,-0.0,-1.0,0.04125613035070651,1.0,2
16.101926803588867,-33.49691390991211,2.0295777320861816,-0.0,-0.0,-1.0,0.14801057971654485,1.0,3
15.741525650024414,-33.227108001708984,2.0692930221557617,-0.0,-0.0,-1.0,0.15099592330319733,1.0,3
16.199899673461914,-32.926666259765625,1.8980093002319336,-0.0,-0.0,-1.0,0.18371616907572927,1.0,2
16.46233558654785,-32.82269287109375,1.8382697105407715,-0.0,-0.0,-1.0,0.14422910219255916,1.0,2
16.352386474609375,-34.05592727661133,1.8587241172790527,-0.0,-0.0,-1.0,0.06016892600370884,1.0,2
16.74214744567871,-34.1357421875,1.7691798210144043,-0.0,-0.0,-1.0,0.06069152530497587,1.0,2
15.873661994934082,-32.8343391418457,2.0181922912597656,-0.0,-0.0,-1.0,0.14498671076961409,1.0,3
16.196002960205078,-32.95838165283203,1.9419937133789062,-0.0,-0.0,-1.0,0.1466053025394597,1.0,2
16.698074340820312,-34.355735778808594,1.821094036102295,-0.0,-0.0,-1.0,0.0583899899327206,1.0,2
16.430286407470703,-32.944488525390625,1.8867106437683105,-0.0,-0.0,-1.0,0.1871042035346638,2.0,2
16.75534439086914,-33.185630798339844,1.8095459938049316,-0.0,-0.0,-1.0,0.16210628056951215,1.0,2
15.830723762512207,-32.959415435791016,1.7145943641662598,-0.0,-0.0,-1.0,0.13161147904690876,1.0,2
15.667316436767578,-34.34580993652344,1.682520866394043,-0.0,-0.0,-1.0,0.06251270729663899,1.0,2
15.923332214355469,-34.15184020996094,1.646921157836914,-0.0,-0.0,-1.0,0.06992185177502688,1.0,2
15.337966918945312,-32.79745864868164,1.8243660926818848,-0.0,-0.0,-1.0,0.09410214435240428,1.0,2
15.845937728881836,-33.008262634277344,1.7207484245300293,-0.0,-0.0,-1.0,0.18323564299206765,1.0,2
16.032413482666016,-33.061866760253906,1.6837592124938965,-0.0,-0.0,-1.0,0.08906999133702727,1.0,2
17.691804885864258,-33.36061096191406,2.446775436401367,-0.0,-0.0,-1.0,0.157224037188192,1.0,3
17.531949996948242,-33.204673767089844,2.299224853515625,-0.0,-0.0,-1.0,0.17595446242024304,1.0,3
17.398632049560547,-33.4578857421875,1.7279505729675293,-0.0,-0.0,-1.0,0.22034055067089922,1.0,2
15.362451553344727,-33.312496185302734,1.9319782257080078,-0.0,-0.0,-1.0,0.18661304066223794,1.0,2
15.610445022583008,-33.22340774536133,1.9195556640625,-0.0,-0.0,-1.0,0.17291476706483694,1.0,2
15.227540016174316,-33.00244140625,1.8124275207519531,-0.0,-0.0,-1.0,0.12390519118228221,1.0,2
