x,y,z,nx,ny,nz,curvature,density,label
65.44679260253906,26.376432418823242,-2.715968608856201,-0.0,-0.0,-1.0,0.08025746335590293,1.0,0
65.26538848876953,26.030797958374023,-3.0716686248779297,-0.0,-0.0,-1.0,0.07247381970426008,1.0,0
65.38276672363281,26.538522720336914,-3.67271089553833,-0.0,-0.0,-1.0,0.07315101647134804,1.0,0
65.29723358154297,26.372146606445312,-2.881026268005371,-0.0,-0.0,-1.0,0.06963650721767126,1.0,0
65.43328094482422,26.542842864990234,-3.620058059692383,-0.0,-0.0,-1.0,0.07315101647134806,1.0,0
65.22722625732422,27.255373001098633,-3.6526670455932617,-0.0,-0.0,-1.0,0.04646921413740548,1.0,0
65.27032470703125,26.523223876953125,-2.967255115509033,-0.0,-0.0,-1.0,0.12113104601743037,1.0,0
65.51045989990234,26.52960968017578,-2.7511792182922363,-0.0,-0.0,-1.0,0.0802574633559029,1.0,0
65.56228637695312,26.508670806884766,-2.608759880065918,-0.0,-0.0,-1.0,0.05983180590957234,1.0,0
65.44625091552734,26.520721435546875,-3.5424985885620117,-0.0,-0.0,-1.0,0.06980269913213166,1.0,0
65.30646514892578,27.64922332763672,-3.717684745788574,-0.0,-0.0,-1.0,0.04606994864093112,1.0,0
65.62483978271484,27.483644485473633,-3.739698886871338,-0.0,-0.0,-1.0,0.04613243431509337,1.0,0
65.2655029296875,27.094444274902344,-3.6687943935394287,-0.0,-0.0,-1.0,0.04630065916889165,1.0,0
65.30126953125,27.710975646972656,-3.7427480220794678,-0.0,-0.0,-1.0,0.04606994864093112,1.0,0
65.52415466308594,26.452369689941406,-3.629513740539551,-0.0,-0.0,-1.0,0.07315101647134804,1.0,0
65.36512756347656,27.71704864501953,-3.748776912689209,-0.0,-0.0,-1.0,0.04613243431509338,1.0,0
65.51604461669922,26.486495971679688,-2.679196357727051,-0.0,-0.0,-1.0,0.0802574633559029,2.0,0
65.44102478027344,26.519643783569336,-2.8243627548217773,-0.0,-0.0,-1.0,0.08025746335590285,2.0,0
65.32662200927734,26.50607681274414,-2.828692674636841,-0.0,-0.0,-1.0,0.08025746335590295,1.0,0
65.53594970703125,26.511810302734375,-2.6625266075134277,-0.0,-0.0,-1.0,0.05983180590957236,2.0,0
65.49063110351562,26.577390670776367,-2.6628708839416504,-0.0,-0.0,-1.0,0.05983180590957234,1.0,0
65.31216430664062,26.60323715209961,-3.5731120109558105,-0.0,-0.0,-1.0,0.07315101647134804,1.0,0
65.39083862304688,26.64453887939453,-3.5933995246887207,-0.0,-0.0,-1.0,0.07315101647134804,1.0,0
65.20995330810547,27.19935417175293,-3.6372785568237305,-0.0,-0.0,-1.0,0.04646921413740548,1.0,0
65.45816040039062,27.751171112060547,-3.76126766204834,-0.0,-0.0,-1.0,0.046132434315093354,1.0,0
65.29338073730469,27.876962661743164,-3.74935245513916,-0.0,-0.0,-1.0,0.04606994864093112,1.0,0
65.45085906982422,26.572160720825195,-2.809040069580078,-0.0,-0.0,-1.0,0.08025746335590284,1.0,0
65.52909088134766,26.54146385192871,-3.3435311317443848,-0.0,-0.0,-1.0,0.051187318151317836,1.0,0
65.5412368774414,26.437580108642578,-2.6340904235839844,-0.0,-0.0,-1.0,0.05983180590957236,1.0,0
65.49552154541016,26.446582794189453,-3.471365451812744,-0.0,-0.0,-1.0,0.05887704011157507,1.0,0
65.48329162597656,26.58212661743164,-2.546794891357422,-0.0,-0.0,-1.0,0.05983180590957238,1.0,0
65.48986053466797,26.49696922302246,-2.61102294921875,-0.0,-0.0,-1.0,0.05983180590957236,2.0,0
65.39785766601562,26.51947021484375,-2.8195810317993164,-0.0,-0.0,-1.0,0.08025746335590293,2.0,0
65.44650268554688,26.56574249267578,-2.59605073928833,-0.0,-0.0,-1.0,0.0598318059095723,1.0,0
65.31218719482422,26.56926918029785,-2.843489170074463,-0.0,-0.0,-1.0,0.08025746335590295,1.0,0
65.42086791992188,26.53575897216797,-2.7697370052337646,-0.0,-0.0,-1.0,0.08025746335590293,1.0,0
65.3670654296875,26.372787475585938,-2.961491584777832,-0.0,-0.0,-1.0,0.12445801538773556,1.0,0
65.50700378417969,26.53326416015625,-2.5918796062469482,-0.0,-0.0,-1.0,0.059831805909572384,2.0,0
65.292236328125,26.622804641723633,-2.771522283554077,-0.0,-0.0,-1.0,0.08025746335590297,1.0,0
65.35589599609375,26.4448299407959,-2.9039556980133057,-0.0,-0.0,-1.0,0.06963650721767124,1.0,0
65.48493194580078,26.44359588623047,-2.8208653926849365,-0.0,-0.0,-1.0,0.08025746335590293,1.0,0
65.4520034790039,26.502487182617188,-2.540151596069336,-0.0,-0.0,-1.0,0.05983180590957234,1.0,0
65.61292266845703,27.027246475219727,-3.387460231781006,-0.0,-0.0,-1.0,0.06311732776483173,1.0,0
65.64586639404297,26.944766998291016,-3.1216554641723633,-0.0,-0.0,-1.0,0.05372778708195122,1.0,0
65.27568054199219,26.655609130859375,-2.945587635040283,-0.0,-0.0,-1.0,0.12113104601743051,1.0,0
65.58322143554688,26.664974212646484,-3.4173295497894287,-0.0,-0.0,-1.0,0.07282736303425517,1.0,0
65.54288482666016,26.628023147583008,-2.5004005432128906,-0.0,-0.0,-1.0,0.042811020879775924,1.0,0
65.31558227539062,26.579374313354492,-2.685863494873047,-0.0,-0.0,-1.0,0.0802574633559029,1.0,0
65.4808120727539,26.33585548400879,-2.768892288208008,-0.0,-0.0,-1.0,0.0802574633559029,1.0,0
65.42182922363281,26.492658615112305,-2.9086506366729736,-0.0,-0.0,-1.0,0.08025746335590293,1.0,0
65.26532745361328,25.75332260131836,-3.1507675647735596,-0.0,-0.0,-1.0,0.06164921802902129,1.0,0
65.3581314086914,26.712081909179688,-3.02825927734375,-0.0,-0.0,-1.0,0.109732300910968,1.0,0
65.65412902832031,26.940147399902344,-2.141879081726074,-0.0,-0.0,-1.0,0.08901782299664261,1.0,0
65.61457061767578,26.857908248901367,-2.397890090942383,-0.0,-0.0,-1.0,0.08901782299664261,1.0,0
65.26082611083984,26.462556838989258,-3.5769686698913574,-0.0,-0.0,-1.0,0.06737406062764596,1.0,0
65.61626434326172,27.060195922851562,-3.124837875366211,-0.0,-0.0,-1.0,0.0743172071140798,1.0,0
