x,y,z,nx,ny,nz,curvature,density,label
4.612461090087891,23.194971084594727,-1.049306869506836,-0.0,-0.0,-1.0,0.04043751430614073,1.0,0
3.453587055206299,24.205509185791016,-1.3454203605651855,-0.0,-0.0,-1.0,0.06560141418940943,1.0,0
4.122842311859131,25.278736114501953,-1.3356208801269531,0.21176556400041646,0.6833583506686489,-0.6986964365695659,0.0685737197592728,3.0,0
3.2723312377929688,24.213794708251953,-1.3091983795166016,-0.0,-0.0,-1.0,0.08812538098573358,1.0,0
5.005406856536865,23.449155807495117,-0.9484949111938477,-0.0,-0.0,-1.0,0.06589989061903347,1.0,0
3.0902605056762695,24.95110321044922,-1.3899996280670166,-0.0,-0.0,-1.0,0.043146814749343926,2.0,0
2.942603588104248,25.543237686157227,-1.3458609580993652,-0.0,-0.0,-1.0,0.04177455751179386,1.0,0
3.1961727142333984,24.668603897094727,-1.470071792602539,-0.0,-0.0,-1.0,0.023480514235913255,1.0,0
2.8787550926208496,25.438243865966797,-1.3731803894042969,-0.0,-0.0,-1.0,0.0761275850095048,1.0,0
3.105012893676758,24.928255081176758,-1.428894281387329,-0.0,-0.0,-1.0,0.04630716890973809,2.0,0
2.75160551071167,24.15354347229004,-1.294379472732544,-0.9084298803463119,-0.4114505298000291,-0.07391626357751502,0.15287770692441935,7.0,0
5.16096305847168,23.334959030151367,-0.8369567394256592,-0.0,-0.0,-1.0,0.0781516451026176,1.0,0
3.9196319580078125,25.2584171295166,-1.3051872253417969,-0.0,-0.0,-1.0,0.04196096312989225,1.0,0
3.770327568054199,25.405426025390625,-1.3351118564605713,-0.0,-0.0,-1.0,0.04124023288176942,1.0,0
3.10410213470459,25.205020904541016,-1.4552576541900635,-0.0,-0.0,-1.0,0.06830011997729428,2.0,0
5.196624755859375,23.179405212402344,-0.8388446569442749,-0.0,-0.0,-1.0,0.07748554189551703,1.0,0
2.76114559173584,25.55425262451172,-1.375874400138855,-0.0,-0.0,-1.0,0.07077429437467503,2.0,0
2.8055219650268555,24.15467071533203,-0.7274298667907715,-0.1910838462838823,-0.5598806754315212,-0.8062385459451199,0.1436545189642777,4.0,0
3.4264988899230957,24.238445281982422,-1.4116172790527344,-0.0,-0.0,-1.0,0.040738475750191454,1.0,0
2.794553279876709,24.103525161743164,-1.1426622867584229,-0.0,-0.0,-1.0,0.12142970850222724,2.0,0
3.088730812072754,25.074853897094727,-1.4028291702270508,-0.12142582339824229,-0.9704509152910217,-0.20852047962460843,0.04958923938901398,3.0,0
2.8052773475646973,24.156326293945312,-1.2433116436004639,-0.0,-0.0,-1.0,0.19033740356959425,2.0,0
5.098905563354492,23.331701278686523,-0.8384430408477783,-0.0,-0.0,-1.0,0.07815164510261773,2.0,0
3.639293670654297,25.505268096923828,-1.3647279739379883,-0.0,-0.0,-1.0,0.02961339891296933,1.0,0
2.830512523651123,24.162311553955078,-1.1587257385253906,-0.0,-0.0,-1.0,0.20820368408516154,1.0,0
4.170228481292725,25.269201278686523,-1.3305842876434326,0.018932638012679935,-0.3918037592852886,-0.9198539935379944,0.06377821612823241,3.0,0
3.0690226554870605,25.081317901611328,-1.421436071395874,-0.0,-0.0,-1.0,0.05277321743209855,2.0,0
2.825448513031006,24.170310974121094,-1.2435321807861328,-0.0,-0.0,-1.0,0.15958742306675044,2.0,0
4.985278129577637,25.475276947021484,-1.3438324928283691,-0.0,-0.0,-1.0,0.030787856861236505,1.0,0
3.029852867126465,24.80499267578125,-1.3989710807800293,-0.0,-0.0,-1.0,0.027577799247079714,1.0,0
3.2018280029296875,25.370086669921875,-1.3618261814117432,-0.0,-0.0,-1.0,0.022881491866156903,1.0,0
3.3906354904174805,25.62853240966797,-1.3864872455596924,-0.0,-0.0,-1.0,0.018405630920197723,1.0,0
2.8453407287597656,24.20245361328125,-1.1867029666900635,-0.0,-0.0,-1.0,0.12389968702652263,1.0,0
3.273317337036133,25.12648582458496,-1.4064786434173584,-0.0,-0.0,-1.0,0.04446935802290943,1.0,0
3.8172245025634766,25.127845764160156,-1.4087932109832764,-0.0,-0.0,-1.0,0.035627494920025274,1.0,0
4.2385053634643555,25.300973892211914,-1.457068681716919,-0.0,-0.0,-1.0,0.03949862678421948,1.0,0
5.117804527282715,23.27056312561035,-0.9493916034698486,-0.0,-0.0,-1.0,0.07748554189551711,1.0,0
3.5956153869628906,24.68300437927246,-1.3969740867614746,-0.0,-0.0,-1.0,0.014071823225750346,1.0,0
3.491955280303955,24.66061019897461,-1.3997151851654053,-0.0,-0.0,-1.0,0.022065609796372256,2.0,0
3.9384756088256836,24.589962005615234,-1.4232177734375,-0.0,-0.0,-1.0,0.008686049080487321,1.0,0
2.9226222038269043,25.462875366210938,-1.3450980186462402,-0.0,-0.0,-1.0,0.04315938853423398,1.0,0
4.77583122253418,25.32984161376953,-1.396155834197998,-0.0,-0.0,-1.0,0.025855047613764955,1.0,0
2.8108363151550293,23.982688903808594,-1.3410439491271973,-0.0,-0.0,-1.0,0.21946128612758545,1.0,0
3.966501235961914,24.84343719482422,-1.36607027053833,-0.0,-0.0,-1.0,0.040111020078770494,1.0,0
4.863247394561768,25.342334747314453,-1.4010605812072754,-0.0,-0.0,-1.0,0.02862091370943919,1.0,0
4.3114190101623535,25.402484893798828,-1.32509183883667,-0.0,-0.0,-1.0,0.024048427637844604,1.0,0
3.1561741828918457,24.13673973083496,-1.058769702911377,-0.0,-0.0,-1.0,0.14623478463635892,1.0,0
4.971380233764648,25.58611297607422,-1.512190341949463,-0.0,-0.0,-1.0,0.028614380199545732,1.0,0
4.9019880294799805,24.008441925048828,-1.0313525199890137,-0.0,-0.0,-1.0,0.06969647931419097,1.0,0
4.402082443237305,23.559770584106445,-1.1431384086608887,-0.0,-0.0,-1.0,0.057595786425199906,1.0,0
4.2431230545043945,23.541536331176758,-1.1450843811035156,-0.0,-0.0,-1.0,0.03609289819094495,1.0,0
2.8449196815490723,23.26947784423828,-1.3242316246032715,-0.0,-0.0,-1.0,0.022950667399625813,1.0,0
4.813248157501221,23.257978439331055,-1.029292106628418,-0.0,-0.0,-1.0,0.06626368137846299,1.0,0
4.319748878479004,23.571537017822266,-1.1359658241271973,-0.0,-0.0,-1.0,0.05089933804560202,1.0,0
4.440887451171875,24.125347137451172,-1.2591462135314941,-0.0,-0.0,-1.0,0.0544750404441952,1.0,0
3.519174575805664,24.318889617919922,-1.3675837516784668,-0.0,-0.0,-1.0,0.0367929800375134,1.0,0
3.730165958404541,24.58768081665039,-1.4164762496948242,-0.0,-0.0,-1.0,0.011111878808596307,1.0,0
4.005015850067139,24.737621307373047,-1.433183193206787,-0.0,-0.0,-1.0,0.029830224746918373,2.0,0
2.9066052436828613,24.133655548095703,-1.367887020111084,-0.0,-0.0,-1.0,0.0848659887878289,2.0,0
3.208878517150879,24.350082397460938,-1.3969874382019043,-0.0,-0.0,-1.0,0.018727149040084802,1.0,0
4.459943771362305,23.455474853515625,-1.1898741722106934,-0.0,-0.0,-1.0,0.05415933926281878,2.0,0
4.047158718109131,23.799665451049805,-1.2954297065734863,-0.0,-0.0,-1.0,0.0410678676216425,1.0,0
4.034423828125,23.86729621887207,-1.3134331703186035,-0.0,-0.0,-1.0,0.038413166499619324,1.0,0
3.651874542236328,23.760217666625977,-1.302438735961914,-0.0,-0.0,-1.0,0.02232572888727124,1.0,0
3.1792049407958984,23.716861724853516,-1.3137497901916504,-0.0,-0.0,-1.0,0.041248332712506705,1.0,0
2.835610866546631,23.634334564208984,-1.3103256225585938,-0.0,-0.0,-1.0,0.04161847105989491,2.0,0
5.077817916870117,25.57760238647461,-1.355698585510254,-0.0,-0.0,-1.0,0.029420409602858803,1.0,0
4.192441463470459,25.31669807434082,-1.3407812118530273,-0.0,-0.0,-1.0,0.04600085514451436,2.0,0
4.32888650894165,25.45241355895996,-1.3664069175720215,-0.0,-0.0,-1.0,0.021840791297404967,1.0,0
3.898256778717041,25.357398986816406,-1.3694963455200195,0.0676099336323685,-0.8368662245879881,-0.5432161807402962,0.04070561831971828,3.0,0
3.5327024459838867,25.356616973876953,-1.3934969902038574,-0.0,-0.0,-1.0,0.025713320964385195,1.0,0
3.01999568939209,25.268842697143555,-1.4079041481018066,-0.0,-0.0,-1.0,0.10039674697303652,2.0,0
3.2908525466918945,25.348072052001953,-1.4080171585083008,-0.17456355251689182,0.732013848457003,-0.6585463474956414,0.036281776816011885,3.0,0
5.18996524810791,23.483633041381836,-0.8239250183105469,-0.0,-0.0,-1.0,0.06254603118633628,1.0,0
2.7647252082824707,24.24592399597168,-1.1750388145446777,-0.0,-0.0,-1.0,0.11022432734810256,1.0,0
5.061500549316406,23.373538970947266,-0.8034634590148926,-0.0,-0.0,-1.0,0.07815164510261773,1.0,0
4.312220573425293,24.927722930908203,-1.3994054794311523,-0.0,-0.0,-1.0,0.039228229435736645,1.0,0
3.9678778648376465,24.756603240966797,-1.3849077224731445,-0.0,-0.0,-1.0,0.027924001451552785,1.0,0
4.171145439147949,24.87799835205078,-1.3986048698425293,-0.0,-0.0,-1.0,0.041728135559886005,1.0,0
3.4179611206054688,24.519662857055664,-1.374678134918213,-0.0,-0.0,-1.0,0.012860335129610925,1.0,0
3.631214141845703,24.57964515686035,-1.3697404861450195,-0.0,-0.0,-1.0,0.011822347350317041,1.0,0
2.9761738777160645,24.18454360961914,-1.3320674896240234,-0.0,-0.0,-1.0,0.08559620403929236,2.0,0
3.17795991897583,24.363679885864258,-1.3579378128051758,-0.0,-0.0,-1.0,0.017831731173193206,1.0,0
2.7822232246398926,24.069704055786133,-1.3227953910827637,-0.0,-0.0,-1.0,0.17934725018398517,1.0,0
5.082456111907959,23.41655921936035,-0.9335241317749023,-0.0,-0.0,-1.0,0.07815164510261771,1.0,0
4.6777262687683105,24.301530838012695,-1.2021636962890625,-0.0,-0.0,-1.0,0.049373023151845774,1.0,0
2.8701229095458984,24.03325080871582,-1.3039450645446777,-0.0,-0.0,-1.0,0.24522807978768468,1.0,0
2.724597454071045,24.010408401489258,-1.3136491775512695,-0.0,-0.0,-1.0,0.15447484769906572,2.0,0
4.418218612670898,25.34531021118164,-1.3626420497894287,-0.0,-0.0,-1.0,0.02259558256550783,2.0,0
4.551989555358887,25.43341827392578,-1.371049165725708,0.14455516769622284,-0.742844142052732,-0.6536714649655877,0.017215773820850086,3.0,0
4.0528717041015625,25.370941162109375,-1.3966658115386963,-0.0,-0.0,-1.0,0.056648948866400005,2.0,0
3.7047019004821777,25.33247947692871,-1.4169161319732666,0.41207318979034346,0.3544897571216964,-0.8393644609773586,0.04430983338570186,3.0,0
3.150615692138672,25.031902313232422,-1.4014594554901123,-0.0,-0.0,-1.0,0.037794359276510404,2.0,0
3.3216118812561035,25.268985748291016,-1.4359891414642334,-0.5681273685623873,-0.12589309791588632,-0.8132540937416287,0.039369552631604306,3.0,0
2.835940361022949,25.13170623779297,-1.4502813816070557,-0.0,-0.0,-1.0,0.0684728351310082,2.0,0
3.0356006622314453,25.15184783935547,-1.260552167892456,-0.0,-0.0,-1.0,0.16868475309093284,1.0,0
2.740497589111328,25.58755111694336,-1.3735551834106445,0.5160822457612456,0.0657652800270058,-0.8540105640757603,0.07077429437467507,4.0,0
2.7579145431518555,24.088708877563477,-1.0912632942199707,-0.0,-0.0,-1.0,0.11720850577691512,2.0,0
2.8423638343811035,24.266891479492188,-0.4252893924713135,-0.0,-0.0,-1.0,0.11053367462932057,1.0,0
4.462584495544434,25.066448211669922,-1.4265522956848145,-0.0,-0.0,-1.0,0.029217047797223793,1.0,0
4.143989086151123,25.12372589111328,-1.4696903228759766,-0.0,-0.0,-1.0,0.07406987977352274,1.0,0
3.7050938606262207,24.733671188354492,-1.4289274215698242,-0.0,-0.0,-1.0,0.011670787797309758,2.0,0
3.9108080863952637,25.055566787719727,-1.477846622467041,-0.0,-0.0,-1.0,0.025427195770785643,1.0,0
3.355137348175049,24.642061233520508,-1.4467930793762207,-0.0,-0.0,-1.0,0.022222138503199044,1.0,0
2.9990172386169434,24.350553512573242,-1.4244670867919922,-0.0,-0.0,-1.0,0.05564004735113497,1.0,0
4.96042013168335,23.333852767944336,-0.9978024959564209,-0.0,-0.0,-1.0,0.07748554189551696,1.0,0
4.677921295166016,23.860214233398438,-1.1403751373291016,-0.0,-0.0,-1.0,0.06774872886683143,1.0,0
2.825089931488037,24.03046989440918,-1.3767080307006836,-0.0,-0.0,-1.0,0.12023694242512488,1.0,0
3.0582761764526367,24.3011417388916,-1.4069252014160156,-0.0,-0.0,-1.0,0.04679522904444316,1.0,0
2.7407026290893555,24.206783294677734,-0.7629237174987793,-0.8961168156535749,-0.018981304230461755,-0.44341218160150664,0.14569298667037547,4.0,0
2.9223685264587402,25.59885597229004,-1.4019765853881836,-0.0,-0.0,-1.0,0.03985392775196526,1.0,0
5.060703277587891,25.509613037109375,-1.3676798343658447,-0.0,-0.0,-1.0,0.03095007282484563,2.0,0
4.416757106781006,25.36493682861328,-1.391514539718628,-0.0,-0.0,-1.0,0.022595582565507828,2.0,0
4.4894843101501465,25.437606811523438,-1.401907205581665,0.7296438706099423,-0.054112780899026096,-0.6816829387807177,0.020554870856644022,3.0,0
4.187987327575684,25.3323974609375,-1.4062554836273193,-0.0,-0.0,-1.0,0.047663068657144064,1.0,0
3.7475109100341797,25.279399871826172,-1.4389970302581787,-0.0,-0.0,-1.0,0.040251269498194006,1.0,0
3.9018449783325195,25.370193481445312,-1.4441535472869873,-0.0,-0.0,-1.0,0.038097335316438385,1.0,0
3.367237091064453,25.22843360900879,-1.4686906337738037,-0.0,-0.0,-1.0,0.03632088479951707,1.0,0
2.80265474319458,24.920509338378906,-1.4631822109222412,-0.0,-0.0,-1.0,0.08201222416553869,1.0,0
2.951475143432617,25.046695709228516,-1.4744083881378174,-0.0,-0.0,-1.0,0.01628313708213648,1.0,0
5.205846786499023,23.361679077148438,-0.8391766548156738,-0.0,-0.0,-1.0,0.07815164510261766,1.0,0
2.7173476219177246,24.226642608642578,-0.7365312576293945,-0.0,-0.0,-1.0,0.11767314296217211,2.0,0
2.8258509635925293,24.120670318603516,-0.7002286911010742,-0.0,-0.0,-1.0,0.11008084335518326,2.0,0
2.807056427001953,25.46422004699707,-1.3827335834503174,-0.0,-0.0,-1.0,0.04526130476949109,1.0,0
2.7627038955688477,24.067672729492188,-1.0340886116027832,-0.0,-0.0,-1.0,0.08783650404376063,1.0,0
2.7421045303344727,24.11016082763672,-0.7599015235900879,-0.0,-0.0,-1.0,0.1223393168263495,2.0,0
2.8575944900512695,24.101089477539062,-0.7462766170501709,-0.0,-0.0,-1.0,0.14705777670151035,1.0,0
2.834646224975586,24.170028686523438,-0.6743381023406982,-0.0,-0.0,-1.0,0.10487062256196493,1.0,0
2.811224937438965,24.2933406829834,-0.9152238368988037,-0.0,-0.0,-1.0,0.10135916658821739,1.0,0
3.327678680419922,24.80466079711914,-1.4362295866012573,-0.0,-0.0,-1.0,0.02381121488457577,2.0,0
5.146568298339844,23.46548843383789,-0.787844181060791,-0.0,-0.0,-1.0,0.07136386629665176,1.0,0
4.892803192138672,25.421833038330078,-1.363073468208313,-0.0,-0.0,-1.0,0.02981068360620115,1.0,0
5.09181022644043,24.7718505859375,-1.3402842283248901,-0.0,-0.0,-1.0,0.015868484021588823,1.0,0
2.803953170776367,24.022991180419922,-0.9426760673522949,-0.0,-0.0,-1.0,0.04714126128482218,1.0,0
5.085977554321289,25.43747329711914,-1.3395673036575317,-0.0,-0.0,-1.0,0.030950072824845666,1.0,0
4.928804397583008,25.328657150268555,-1.350376009941101,-0.0,-0.0,-1.0,0.03131637335012517,1.0,0
5.20716667175293,25.012659072875977,-1.2989386320114136,-0.0,-0.0,-1.0,0.017066947515252336,1.0,0
5.052589416503906,24.86489486694336,-1.3076530694961548,-0.0,-0.0,-1.0,0.01023969947415895,2.0,0
4.956838607788086,24.49456024169922,-1.2970350980758667,-0.0,-0.0,-1.0,0.02367079452267714,1.0,0
2.7432632446289062,24.120468139648438,-0.9559061527252197,-0.0,-0.0,-1.0,0.06706358593227538,1.0,0
4.785072326660156,25.227092742919922,-1.3448066711425781,-0.0,-0.0,-1.0,0.013582149690871933,1.0,0
4.092624664306641,24.93633270263672,-1.3993232250213623,-0.0,-0.0,-1.0,0.04436518113714423,1.0,0
5.206496238708496,25.390518188476562,-1.312488317489624,-0.0,-0.0,-1.0,0.027680192556299606,1.0,0
4.972911834716797,25.263896942138672,-1.3274734020233154,-0.0,-0.0,-1.0,0.030598079526588277,1.0,0
4.802799224853516,24.7222900390625,-1.3057820796966553,-0.0,-0.0,-1.0,0.010231276698553842,1.0,0
5.073680877685547,24.829753875732422,-1.2839603424072266,-0.0,-0.0,-1.0,0.01654948497282284,2.0,0
4.876153945922852,24.278091430664062,-1.266233205795288,-0.0,-0.0,-1.0,0.040504435302789916,1.0,0
2.9079666137695312,24.358776092529297,-0.4984344244003296,-0.0,-0.0,-1.0,0.10841361038053773,2.0,0
3.0101776123046875,24.42234992980957,-0.9283924102783203,-0.0,-0.0,-1.0,0.10666953036904094,1.0,0
2.910951614379883,24.28012466430664,-0.9356589317321777,-0.0,-0.0,-1.0,0.10778472585093452,1.0,0
4.455244064331055,25.504934310913086,-1.376177191734314,-0.024759786352271048,-0.982368218542807,0.18530956849774774,0.019347769352824458,4.0,0
4.352302551269531,25.377758026123047,-1.3822554349899292,-0.0,-0.0,-1.0,0.02118991580614605,1.0,0
4.107128143310547,25.428909301757812,-1.4111210107803345,-0.0,-0.0,-1.0,0.05264598780095555,1.0,0
3.858936309814453,25.333444595336914,-1.4345453977584839,-0.0,-0.0,-1.0,0.040452182554830386,1.0,0
3.286367416381836,25.311279296875,-1.496709942817688,-0.0,-0.0,-1.0,0.03561085288096456,1.0,0
5.125768661499023,25.036460876464844,-1.2878414392471313,-0.0,-0.0,-1.0,0.01208505402020044,1.0,0
4.513345718383789,25.430049896240234,-1.3757671117782593,0.09311807404010987,-0.9334914090136261,-0.3462987345989232,0.01890607083868118,4.0,0
4.854314804077148,24.447830200195312,-1.3113054037094116,-0.0,-0.0,-1.0,0.02667279466352866,1.0,0
4.894746780395508,24.547531127929688,-1.3079322576522827,-0.0,-0.0,-1.0,0.01756503082334983,1.0,0
4.423698425292969,25.23025131225586,-1.3831452131271362,-0.0,-0.0,-1.0,0.03195355910037292,1.0,0
3.8816184997558594,25.204483032226562,-1.453224778175354,-0.0,-0.0,-1.0,0.03734393573843805,1.0,0
2.7487144470214844,24.214723587036133,-0.7976540327072144,-0.9918081722683278,0.12364609113493878,-0.03206545756431774,0.1456929866703755,4.0,0
3.2680015563964844,25.47425079345703,-1.3759078979492188,-0.0,-0.0,-1.0,0.02425764455384802,2.0,0
2.8212814331054688,25.155574798583984,-1.4265999794006348,-0.0,-0.0,-1.0,0.16588029309854793,2.0,0
2.7249202728271484,24.991539001464844,-1.435929536819458,-0.0,-0.0,-1.0,0.1267028805517263,2.0,0
3.158750534057617,24.759105682373047,-1.289499044418335,-0.0,-0.0,-1.0,0.02443612261406786,1.0,0
2.8351783752441406,23.609264373779297,-1.3234167098999023,-0.0,-0.0,-1.0,0.03851006074498569,2.0,0
3.5287113189697266,25.428009033203125,-1.3643226623535156,-0.0,-0.0,-1.0,0.024091813006294163,1.0,0
3.214029312133789,25.199813842773438,-1.4000463485717773,-0.0,-0.0,-1.0,0.052927710126304046,1.0,0
3.0001163482666016,25.21369171142578,-1.4298558235168457,-0.0,-0.0,-1.0,0.10498836601287748,1.0,0
3.440868377685547,24.67816162109375,-1.3528783321380615,-0.0,-0.0,-1.0,0.022117752412804958,1.0,0
3.248880386352539,24.895648956298828,-1.3858418464660645,-0.0,-0.0,-1.0,0.026983076414984524,1.0,0
2.715719223022461,24.150455474853516,-0.7527759075164795,-0.5929315711346267,-0.2530731592920328,-0.7644515210252201,0.12233931682634952,3.0,0
4.13892936706543,25.022668838500977,-1.2107813358306885,-0.0,-0.0,-1.0,0.05194965035632831,1.0,0
3.145906448364258,25.57343864440918,-1.3707067966461182,-0.0,-0.0,-1.0,0.013310240983859313,1.0,0
2.9770450592041016,25.259990692138672,-1.4078631401062012,-0.0,-0.0,-1.0,0.1411736057815026,2.0,0
3.386432647705078,24.631072998046875,-1.3534107208251953,-0.0,-0.0,-1.0,0.021925278401844255,1.0,0
3.0651397705078125,24.763517379760742,-1.406224012374878,-0.0,-0.0,-1.0,0.02392326136881552,1.0,0
2.8586196899414062,24.948579788208008,-1.4371490478515625,-0.0,-0.0,-1.0,0.11197318793481234,1.0,0
3.7637157440185547,25.34880828857422,-1.3360943794250488,-0.0,-0.0,-1.0,0.04124023288176941,1.0,0
3.3979644775390625,25.409996032714844,-1.4022531509399414,-0.0,-0.0,-1.0,0.022672685142238625,2.0,0
3.258474349975586,25.07259750366211,-1.427438497543335,-0.0,-0.0,-1.0,0.01253024790105389,1.0,0
4.457086563110352,24.222736358642578,-1.2114057540893555,-0.0,-0.0,-1.0,0.04306079075384144,1.0,0
3.5084686279296875,24.68988037109375,-1.3829388618469238,-0.0,-0.0,-1.0,0.018606577978159178,2.0,0
3.353128433227539,24.804611206054688,-1.4108726978302002,-0.0,-0.0,-1.0,0.02253964370251305,2.0,0
4.994686126708984,25.467269897460938,-1.3947104215621948,-0.0,-0.0,-1.0,0.0313163733501251,1.0,0
5.18629264831543,25.093019485473633,-1.3433266878128052,-0.0,-0.0,-1.0,0.017906068938138533,1.0,0
2.865558624267578,25.175575256347656,-1.2449442148208618,-0.0,-0.0,-1.0,0.18806481977643272,1.0,0
5.190715789794922,24.893634796142578,-1.3357614278793335,-0.0,-0.0,-1.0,0.010239699474158934,1.0,0
5.145781517028809,24.783695220947266,-1.341244101524353,-0.0,-0.0,-1.0,0.01654948497282296,1.0,0
5.032419204711914,24.43218231201172,-1.354354977607727,-0.0,-0.0,-1.0,0.026988875449230437,1.0,0
2.768010139465332,24.15250015258789,-0.7087497711181641,-0.0,-0.0,-1.0,0.11008084335518326,2.0,0
2.73635196685791,25.626434326171875,-1.3846853971481323,0.636526844102931,-0.1487592542627799,-0.7567722649566014,0.040948496775765314,3.0,0
2.7504987716674805,24.14350128173828,-1.2952443361282349,-0.9084298803463119,-0.4114505298000291,-0.07391626357751502,0.15287770692441952,7.0,0
5.118093490600586,24.436691284179688,-1.3707822561264038,-0.0,-0.0,-1.0,0.023815751294413816,1.0,0
2.740070343017578,24.170860290527344,-0.7784184217453003,-0.7622099668208905,0.0017336507520625032,-0.6473275530471162,0.1223393168263495,5.0,0
2.9099578857421875,25.287612915039062,-1.249234676361084,-0.0,-0.0,-1.0,0.1523607599001583,1.0,0
2.7916479110717773,24.981151580810547,-1.44532310962677,-0.0,-0.0,-1.0,0.12271256804621307,1.0,0
2.712214469909668,24.830474853515625,-1.43394935131073,-0.0,-0.0,-1.0,0.10536156109152653,1.0,0
3.0682573318481445,24.709962844848633,-1.369874358177185,-0.0,-0.0,-1.0,0.02157935602487609,1.0,0
2.810983657836914,24.350360870361328,-1.3530226945877075,-0.0,-0.0,-1.0,0.08737082847273846,2.0,0
3.7193384170532227,25.3917236328125,-1.3913511037826538,0.724010855782055,0.29822614262897734,-0.621988302592884,0.04430983338570185,3.0,0
4.138922691345215,25.234127044677734,-1.3162890672683716,-0.0,-0.0,-1.0,0.06914174719000718,2.0,0
4.327095985412598,24.973114013671875,-1.2524152994155884,-0.0,-0.0,-1.0,0.03629474556219828,1.0,0
2.7323360443115234,24.218891143798828,-0.85383141040802,-0.0,-0.0,-1.0,0.14547696904704713,2.0,0
2.782939910888672,24.098615646362305,-0.8344966173171997,-0.0,-0.0,-1.0,0.12093049352067022,1.0,0
3.1255102157592773,24.58629608154297,-1.42829430103302,-0.0,-0.0,-1.0,0.023099694611333342,1.0,0
3.0095624923706055,24.196746826171875,-1.391074299812317,-0.0,-0.0,-1.0,0.048737684022838734,2.0,0
2.912588119506836,23.968477249145508,-1.374341368675232,-0.0,-0.0,-1.0,0.13985049435756802,2.0,0
2.7368593215942383,23.54389190673828,-1.3450947999954224,-0.0,-0.0,-1.0,0.03579938727318177,1.0,0
3.1424121856689453,24.084789276123047,-1.3583275079727173,-0.0,-0.0,-1.0,0.10190607567526465,1.0,0
2.97088623046875,23.67555809020996,-1.3286675214767456,-0.0,-0.0,-1.0,0.02871284308624988,2.0,0
2.9138574600219727,23.660316467285156,-1.3346754312515259,-0.0,-0.0,-1.0,0.03600816617206225,1.0,0
4.091118812561035,25.28608512878418,-1.4095820188522339,-0.0,-0.0,-1.0,0.04995900958796405,1.0,0
4.504794120788574,25.436920166015625,-1.3854657411575317,0.09311807404010987,-0.9334914090136261,-0.3462987345989232,0.020554870856644016,4.0,0
4.346837997436523,25.19001007080078,-1.3652864694595337,-0.0,-0.0,-1.0,0.05725380070260823,1.0,0
5.193641662597656,25.60173225402832,-1.3372434377670288,-0.0,-0.0,-1.0,0.02942040960285877,1.0,0
5.052558898925781,25.374982833862305,-1.3155354261398315,-0.0,-0.0,-1.0,0.029790251484135635,1.0,0
5.146349906921387,23.18646812438965,-0.9739322662353516,-0.0,-0.0,-1.0,0.07748554189551703,1.0,0
2.928525924682617,25.33489990234375,-1.4307949542999268,-0.0,-0.0,-1.0,0.05031469840282768,1.0,0
2.863144874572754,24.109447479248047,-1.3088252544403076,0.03754608818715791,-0.9778618697062755,-0.2058554226548075,0.14423357640510767,3.0,0
5.021580696105957,23.31688690185547,-0.9457368850708008,-0.0,-0.0,-1.0,0.07748554189551703,1.0,0
2.85443115234375,25.571453094482422,-1.363847255706787,-0.0,-0.0,-1.0,0.04315938853423399,1.0,0
2.762782096862793,24.10275650024414,-1.2206778526306152,-0.0,-0.0,-1.0,0.14242444044799374,2.0,0
3.2701377868652344,24.708402633666992,-1.4593751430511475,-0.0,-0.0,-1.0,0.023919177713774623,1.0,0
2.9502992630004883,23.587968826293945,-1.3598759174346924,-0.0,-0.0,-1.0,0.026706845012728273,1.0,0
2.7708091735839844,24.0716552734375,-1.2001421451568604,-0.834874007478915,-0.4367137145569379,-0.3350619691250833,0.15856223617623208,3.0,0
2.7892322540283203,24.090362548828125,-1.0819065570831299,-0.0,-0.0,-1.0,0.11141067814933331,2.0,0
2.722750663757324,24.213937759399414,-0.9736318588256836,-0.0,-0.0,-1.0,0.06489007225191235,1.0,0
4.194944381713867,25.2914981842041,-1.375145673751831,-0.3889556386833668,-0.7561943132793363,0.5261973695301099,0.0637782161282324,3.0,0
3.6916894912719727,25.475120544433594,-1.444305419921875,-0.0,-0.0,-1.0,0.03072121534126292,1.0,0
3.342177391052246,25.302949905395508,-1.455613613128662,-0.49073270167542954,0.06953283042002031,-0.8685312895918688,0.03639001267383569,6.0,0
2.962388038635254,25.24983787536621,-1.4854440689086914,-0.0,-0.0,-1.0,0.06127496354992651,1.0,0
2.8620948791503906,24.119293212890625,-1.3557863235473633,0.2499478294932374,-0.9465181464777044,-0.2040330387952661,0.08931218749714896,3.0,0
2.7117490768432617,25.09188461303711,-1.4903936386108398,-0.0,-0.0,-1.0,0.12741685561898686,1.0,0
2.754617691040039,24.012460708618164,-1.35341215133667,-0.0,-0.0,-1.0,0.1544748476990657,2.0,0
2.7637805938720703,24.158447265625,-0.7971465587615967,-0.0,-0.0,-1.0,0.1223393168263495,2.0,0
3.387451648712158,25.39018440246582,-1.439756155014038,-0.0,-0.0,-1.0,0.0268124243260861,2.0,0
2.881863594055176,25.248287200927734,-1.4697210788726807,-0.0,-0.0,-1.0,0.09808372137995648,1.0,0
3.6906847953796387,25.413331985473633,-1.414344072341919,0.4538020225886948,-0.10453348032417421,-0.8849499849063365,0.04284500123760321,4.0,0
3.3196840286254883,25.32806396484375,-1.4378998279571533,0.00032602874509830333,0.7215878564128089,-0.6923227998432703,0.03755671443982093,5.0,0
3.1467761993408203,25.29037094116211,-1.4494953155517578,-0.0,-0.0,-1.0,0.03133758313837832,1.0,0
3.0634841918945312,24.461580276489258,-1.3472366333007812,-0.0,-0.0,-1.0,0.03456640762017062,2.0,0
3.0486068725585938,25.16863250732422,-1.4427928924560547,-0.0,-0.0,-1.0,0.05705260105772861,1.0,0
2.823349952697754,24.111289978027344,-1.3248357772827148,-0.0,-0.0,-1.0,0.1377442906642529,2.0,0
2.989654541015625,24.401384353637695,-1.3465628623962402,-0.0,-0.0,-1.0,0.06234366811860215,1.0,0
2.763148307800293,24.78137969970703,-1.4195051193237305,-0.0,-0.0,-1.0,0.06875144650995019,1.0,0
5.080836772918701,23.25102996826172,-0.9949579238891602,-0.0,-0.0,-1.0,0.07748554189551703,1.0,0
2.890392303466797,24.32647705078125,-0.4758446216583252,-0.0,-0.0,-1.0,0.11665229064210714,2.0,0
4.261294364929199,23.171005249023438,-1.2966063022613525,-0.0,-0.0,-1.0,0.04225174668686603,1.0,0
2.8197903633117676,24.191059112548828,-0.7470009326934814,-0.0,-0.0,-1.0,0.1436545189642777,2.0,0
4.106645584106445,24.700576782226562,-1.4426178932189941,-0.0,-0.0,-1.0,0.03421111787474172,1.0,0
3.746795177459717,23.98694610595703,-1.3476347923278809,-0.0,-0.0,-1.0,0.03823402667858647,1.0,0
3.830260753631592,24.371028900146484,-1.405869960784912,-0.0,-0.0,-1.0,0.010336055952800828,1.0,0
3.435401439666748,24.084749221801758,-1.3855743408203125,-0.0,-0.0,-1.0,0.06093119190326203,1.0,0
3.25846529006958,24.091094970703125,-1.3991913795471191,-0.0,-0.0,-1.0,0.0864179954059028,2.0,0
2.9634876251220703,23.700275421142578,-1.3563196659088135,-0.0,-0.0,-1.0,0.031175391647302764,2.0,0
3.053514003753662,24.016149520874023,-1.4016399383544922,-0.0,-0.0,-1.0,0.06954242833189352,1.0,0
2.817051410675049,23.6506290435791,-1.3591394424438477,-0.0,-0.0,-1.0,0.03865171065425823,1.0,0
2.7588305473327637,24.165992736816406,-1.0647258758544922,-0.0,-0.0,-1.0,0.09695205695016881,1.0,0
2.712451934814453,24.149961471557617,-1.1476593017578125,-0.0,-0.0,-1.0,0.07463278359096792,1.0,0
5.104234218597412,23.350461959838867,-0.848738431930542,-0.0,-0.0,-1.0,0.07815164510261766,2.0,0
4.72703218460083,23.229089736938477,-1.1454784870147705,-0.0,-0.0,-1.0,0.05831425396429615,1.0,0
4.037151336669922,24.108722686767578,-1.3779881000518799,-0.0,-0.0,-1.0,0.02919123704438838,1.0,0
3.658569812774658,23.76731300354004,-1.3565435409545898,-0.0,-0.0,-1.0,0.022040207375762316,1.0,0
3.358363628387451,23.230022430419922,-1.2929117679595947,-0.0,-0.0,-1.0,0.024993979944102195,1.0,0
3.220303535461426,23.5123291015625,-1.3592355251312256,-0.0,-0.0,-1.0,0.00768841787249082,1.0,0
3.1237783432006836,23.20438575744629,-1.31498122215271,-0.0,-0.0,-1.0,0.025533468443213518,1.0,0
2.8831119537353516,25.514698028564453,-1.3878459930419922,-0.0,-0.0,-1.0,0.043159388534234,1.0,0
4.124040603637695,25.250219345092773,-1.3631484508514404,-0.0,-0.0,-1.0,0.07003369873311593,2.0,0
4.2108635902404785,25.62598419189453,-1.4286022186279297,-0.0,-0.0,-1.0,0.0211977626869734,1.0,0
3.7402024269104004,25.430858612060547,-1.4357447624206543,-0.0,-0.0,-1.0,0.043773607948610356,1.0,0
3.4550704956054688,25.388504028320312,-1.4563698768615723,-0.0,-0.0,-1.0,0.022768869113923857,1.0,0
3.088870048522949,25.294675827026367,-1.4767119884490967,-0.0,-0.0,-1.0,0.029627758529236502,1.0,0
2.755033493041992,24.151254653930664,-1.2962136268615723,-0.9084298803463119,-0.4114505298000291,-0.07391626357751502,0.15287770692441946,7.0,0
2.7147955894470215,25.176515579223633,-1.4951207637786865,-0.0,-0.0,-1.0,0.058342815627457516,1.0,0
5.0679450035095215,23.371774673461914,-0.9067449569702148,-0.0,-0.0,-1.0,0.07815164510261773,1.0,0
2.771483898162842,24.109315872192383,-1.2864205837249756,-0.8834778192940757,-0.43752346408737125,-0.1674519668095025,0.15196230683748158,5.0,0
2.7710180282592773,24.22092056274414,-0.6739282608032227,-0.0,-0.0,-1.0,0.10449084802781296,1.0,0
4.425356388092041,25.52298355102539,-1.3664321899414062,-0.47636169664816486,-0.8671829118075152,0.14516656445449588,0.020388057014610595,3.0,0
4.1492390632629395,25.363107681274414,-1.3578908443450928,-0.0,-0.0,-1.0,0.04780823776621098,1.0,0
3.713878631591797,25.38018226623535,-1.4032402038574219,0.4538020225886948,-0.10453348032417421,-0.8849499849063365,0.044309833385701866,4.0,0
3.3190274238586426,25.332481384277344,-1.4328155517578125,0.00032602874509830333,0.7215878564128089,-0.6923227998432703,0.03628177681601189,5.0,0
2.899840831756592,25.175203323364258,-1.4438767433166504,-0.45236197099605724,0.2670349441058586,-0.8509177315245834,0.11040488331406537,3.0,0
2.7476186752319336,24.14529800415039,-1.247516393661499,-0.9887619418388442,0.112448860793948,-0.09851434452515422,0.15931967420467452,6.0,0
2.7201666831970215,25.026521682739258,-1.4324045181274414,-0.0,-0.0,-1.0,0.13058220190176634,2.0,0
3.536355495452881,25.54138946533203,-1.3829083442687988,-0.0,-0.0,-1.0,0.02149833451100447,1.0,0
3.2375078201293945,25.43766975402832,-1.390711784362793,-0.0,-0.0,-1.0,0.024739859857450225,2.0,0
2.840273380279541,25.343364715576172,-1.4122543334960938,-0.0,-0.0,-1.0,0.08589904414338362,1.0,0
2.743147373199463,24.10751724243164,-1.156935214996338,-0.0,-0.0,-1.0,0.14081838148174042,2.0,0
4.071502208709717,25.368873596191406,-1.365743637084961,-0.0,-0.0,-1.0,0.05485080862074605,2.0,0
3.8648123741149902,25.367769241333008,-1.3896350860595703,0.0676099336323685,-0.8368662245879881,-0.5432161807402962,0.03874677745388559,3.0,0
3.677492141723633,25.37274932861328,-1.4132671356201172,0.2546460671516361,0.08388757426153486,-0.9633889429346386,0.04430983338570189,4.0,0
3.349170684814453,25.319042205810547,-1.4412157535552979,-0.090351942880869,0.3636094073618553,-0.9271594929113395,0.036065352123587906,5.0,0
3.1291980743408203,25.071617126464844,-1.411330223083496,-0.21931133453149837,-0.3450871870268059,-0.9125882816998799,0.04796879696116989,3.0,0
2.938897132873535,25.182832717895508,-1.4622454643249512,-0.0,-0.0,-1.0,0.11808937167811598,2.0,0
2.7484540939331055,24.15851593017578,-1.2515807151794434,-0.9887619418388442,0.112448860793948,-0.09851434452515422,0.14876337762149655,6.0,0
2.7726097106933594,25.109878540039062,-1.4673867225646973,-0.0,-0.0,-1.0,0.13350552083057757,1.0,0
5.049858570098877,25.52021598815918,-1.3495123386383057,-0.0,-0.0,-1.0,0.030950072824845656,2.0,0
4.428298473358154,25.51380157470703,-1.411628246307373,-0.47636169664816486,-0.8671829118075152,0.14516656445449588,0.020388057014610595,3.0,0
4.117913246154785,25.334468841552734,-1.399179220199585,-0.0,-0.0,-1.0,0.05077630961155015,1.0,0
3.685391426086426,25.297927856445312,-1.440988540649414,-0.0,-0.0,-1.0,0.04430983338570187,2.0,0
3.2799229621887207,25.1854248046875,-1.4631249904632568,-0.0,-0.0,-1.0,0.027160708226874,1.0,0
2.980523109436035,24.912960052490234,-1.4334297180175781,-0.0,-0.0,-1.0,0.015238824815397234,1.0,0
2.8621273040771484,25.040607452392578,-1.4820570945739746,-0.0,-0.0,-1.0,0.06336899840731954,2.0,0
2.8022899627685547,24.086082458496094,-0.7578377723693848,-0.0,-0.0,-1.0,0.1223393168263495,1.0,0
2.8960585594177246,24.049949645996094,-0.7729887962341309,-0.0,-0.0,-1.0,0.14705777670151038,1.0,0
2.7429680824279785,24.205080032348633,-0.829399824142456,-0.9291377851469038,-0.2717306937266,0.2507297475354016,0.1502786694387557,3.0,0
2.797219753265381,24.25497817993164,-0.5764567852020264,-0.0,-0.0,-1.0,0.10449084802781293,1.0,0
2.793248176574707,23.95931053161621,-0.7507774829864502,-0.0,-0.0,-1.0,0.07271757834754586,1.0,0
2.9839963912963867,25.34246063232422,-1.3910627365112305,-0.0,-0.0,-1.0,0.09305613846866813,1.0,0
2.816194534301758,25.240684509277344,-1.3974456787109375,-0.0,-0.0,-1.0,0.08903814345091961,1.0,0
3.2036914825439453,25.531641006469727,-1.3954482078552246,-0.0,-0.0,-1.0,0.020011855818143576,1.0,0
2.7753515243530273,24.185771942138672,-1.1955604553222656,-0.0,-0.0,-1.0,0.12513295911358063,1.0,0
2.758866310119629,24.0772705078125,-1.1777029037475586,-0.8871747531577882,-0.16524345198090407,-0.4308312418300833,0.14081838148174045,3.0,0
2.8129425048828125,24.09905433654785,-1.172478199005127,-0.0,-0.0,-1.0,0.12142970850222722,2.0,0
3.9388065338134766,23.730026245117188,-1.38197660446167,-0.0,-0.0,-1.0,0.03770063401204622,1.0,0
4.561301231384277,23.3857421875,-1.2031426429748535,-0.0,-0.0,-1.0,0.03892166888783089,1.0,0
2.7154178619384766,24.827857971191406,-1.3286938667297363,-0.0,-0.0,-1.0,0.10536156109152653,1.0,0
2.830613136291504,25.088815689086914,-1.1841914653778076,-0.0,-0.0,-1.0,0.1810494421768741,1.0,0
5.140094757080078,24.724233627319336,-1.3188185691833496,-0.0,-0.0,-1.0,0.017139323525581528,1.0,0
3.6346817016601562,23.56827163696289,-1.302905559539795,-0.0,-0.0,-1.0,0.036455537702715056,2.0,0
3.430636405944824,23.329835891723633,-1.2873530387878418,-0.0,-0.0,-1.0,0.025008520562172988,1.0,0
3.903226852416992,23.85334587097168,-1.3188304901123047,-0.0,-0.0,-1.0,0.03220926853882018,1.0,0
3.7264156341552734,23.602853775024414,-1.295443058013916,-0.0,-0.0,-1.0,0.048985410038981984,1.0,0
4.436267852783203,23.469661712646484,-1.1599302291870117,-0.0,-0.0,-1.0,0.05287547665901074,2.0,0
4.795320510864258,23.16094970703125,-1.0429153442382812,-0.0,-0.0,-1.0,0.05902378830975642,1.0,0
2.7463998794555664,24.153961181640625,-0.852785587310791,-0.0,-0.0,-1.0,0.12093049352067022,1.0,0
2.865278720855713,24.171905517578125,-0.90236496925354,-0.0,-0.0,-1.0,0.13967001032475554,1.0,0
2.902312755584717,25.220685958862305,-1.430917501449585,-0.0,-0.0,-1.0,0.14733448396703583,2.0,0
3.47841215133667,25.261137008666992,-1.4411041736602783,-0.0,-0.0,-1.0,0.022277340028179427,1.0,0
3.1019835472106934,25.19513702392578,-1.4239733219146729,-0.0,-0.0,-1.0,0.06830011997729427,2.0,0
4.01641845703125,25.255233764648438,-1.4430134296417236,-0.0,-0.0,-1.0,0.052400017593928074,1.0,0
3.72658634185791,25.190641403198242,-1.4242222309112549,-0.0,-0.0,-1.0,0.040797882555371694,1.0,0
4.710890769958496,25.223392486572266,-1.4442579746246338,-0.0,-0.0,-1.0,0.01114024663743171,1.0,0
4.502782821655273,25.113201141357422,-1.4126040935516357,-0.0,-0.0,-1.0,0.026960107175320224,1.0,0
2.887083053588867,23.985036849975586,-1.1196091175079346,-0.0,-0.0,-1.0,0.09799894237680486,1.0,0
2.9547572135925293,24.97667121887207,-1.4661316871643066,-0.0,-0.0,-1.0,0.012066298804348145,1.0,0
3.58003306388855,24.794008255004883,-1.4235119819641113,-0.0,-0.0,-1.0,0.012102782679974491,1.0,0
3.260305881500244,24.811546325683594,-1.4267187118530273,-0.0,-0.0,-1.0,0.024066423102424232,1.0,0
4.362935543060303,24.801776885986328,-1.4319090843200684,-0.0,-0.0,-1.0,0.03445742370744327,1.0,0
4.114709854125977,24.938201904296875,-1.4618911743164062,-0.0,-0.0,-1.0,0.04486755140317406,1.0,0
3.8565022945404053,24.756729125976562,-1.416147232055664,-0.0,-0.0,-1.0,0.010182537274862853,1.0,0
4.439850330352783,24.827421188354492,-1.4390463829040527,-0.0,-0.0,-1.0,0.033430940146432005,1.0,0
2.7813827991485596,24.063087463378906,-1.2492570877075195,-0.0,-0.0,-1.0,0.1523330931230914,1.0,0
4.658625602722168,24.071666717529297,-1.2607722282409668,-0.0,-0.0,-1.0,0.0669532785506631,1.0,0
4.939645767211914,23.235626220703125,-1.0644893646240234,-0.0,-0.0,-1.0,0.06436797791876615,1.0,0
5.011725425720215,23.198944091796875,-1.0569448471069336,-0.0,-0.0,-1.0,0.07748554189551696,1.0,0
2.8309524059295654,25.068758010864258,-1.4677107334136963,-0.0,-0.0,-1.0,0.06486243776735344,2.0,0
3.5170669555664062,24.833662033081055,-1.4419934749603271,-0.0,-0.0,-1.0,0.018735840470870947,1.0,0
3.193483829498291,24.84650230407715,-1.430309534072876,-0.0,-0.0,-1.0,0.028074963600691845,1.0,0
4.051557540893555,24.741779327392578,-1.4466712474822998,-0.0,-0.0,-1.0,0.029428908860523687,2.0,0
3.7045955657958984,24.647098541259766,-1.4066827297210693,-0.0,-0.0,-1.0,0.011063555167861377,1.0,0
4.295435905456543,24.667171478271484,-1.4418985843658447,-0.0,-0.0,-1.0,0.02949605037365863,1.0,0
4.500218391418457,23.49494171142578,-1.174680471420288,-0.0,-0.0,-1.0,0.058902875331169585,1.0,0
3.427605152130127,24.839067459106445,-1.4589509963989258,-0.0,-0.0,-1.0,0.019728754605423227,1.0,0
3.709719657897949,24.69850730895996,-1.4384078979492188,-0.0,-0.0,-1.0,0.011670787797309762,2.0,0
2.9616923332214355,24.163108825683594,-1.2911863327026367,-0.0,-0.0,-1.0,0.10431678682449982,2.0,0
2.749347448348999,24.150880813598633,-1.2810544967651367,-0.9084298803463119,-0.4114505298000291,-0.07391626357751502,0.1528777069244194,7.0,0
4.413196086883545,24.630443572998047,-1.4518871307373047,-0.0,-0.0,-1.0,0.024737212549989656,1.0,0
4.156255722045898,24.61681365966797,-1.4380989074707031,-0.0,-0.0,-1.0,0.01841996429406272,1.0,0
4.614656925201416,24.315752029418945,-1.3903865814208984,-0.0,-0.0,-1.0,0.037299074974914026,1.0,0
4.527071952819824,24.281618118286133,-1.3789725303649902,-0.0,-0.0,-1.0,0.03387104839832541,1.0,0
4.657201290130615,23.60169219970703,-1.2330431938171387,-0.0,-0.0,-1.0,0.0724425484876984,1.0,0
4.887784004211426,23.296871185302734,-1.1754016876220703,-0.0,-0.0,-1.0,0.07054023426419338,1.0,0
2.9796009063720703,23.259777069091797,-1.3159494400024414,-0.0,-0.0,-1.0,0.007717539744943242,1.0,0
3.0042219161987305,24.201190948486328,-1.377830982208252,-0.0,-0.0,-1.0,0.051560349879663056,2.0,0
2.91624116897583,24.234882354736328,-1.3787264823913574,-0.0,-0.0,-1.0,0.09492564441311023,1.0,0
3.538463830947876,23.976707458496094,-1.3691153526306152,-0.0,-0.0,-1.0,0.04528691651318979,1.0,0
3.2896268367767334,24.068967819213867,-1.369483470916748,-0.0,-0.0,-1.0,0.0864179954059028,2.0,0
3.8864128589630127,23.686880111694336,-1.3273377418518066,-0.0,-0.0,-1.0,0.05259836331724285,1.0,0
4.3237528800964355,23.21983528137207,-1.2501411437988281,-0.0,-0.0,-1.0,0.024417557095824636,1.0,0
4.186398983001709,23.41255760192871,-1.2861614227294922,-0.0,-0.0,-1.0,0.03762816962240303,1.0,0
3.046477794647217,25.520938873291016,-1.368849277496338,-0.0,-0.0,-1.0,0.03812333922372657,1.0,0
4.56446647644043,25.2533016204834,-1.3597168922424316,-0.0,-0.0,-1.0,0.015877208585917214,1.0,0
4.238545894622803,25.285430908203125,-1.351635456085205,-0.0,-0.0,-1.0,0.03949862678421949,2.0,0
3.8775386810302734,25.34380531311035,-1.351132869720459,0.0676099336323685,-0.8368662245879881,-0.5432161807402962,0.040705618319718286,3.0,0
3.4637269973754883,25.382583618164062,-1.3433356285095215,-0.0,-0.0,-1.0,0.022922054286079928,1.0,0
5.06406307220459,25.004770278930664,-1.3117527961730957,-0.0,-0.0,-1.0,0.011044143705908574,1.0,0
4.826221466064453,25.157522201538086,-1.344973087310791,-0.0,-0.0,-1.0,0.019214022272718574,1.0,0
5.1462554931640625,23.651426315307617,-0.8933734893798828,-0.0,-0.0,-1.0,0.05494308240965611,1.0,0
3.036831855773926,23.819185256958008,-1.3171801567077637,-0.0,-0.0,-1.0,0.03544407318025369,1.0,0
3.6774582862854004,23.429458618164062,-1.277153491973877,-0.0,-0.0,-1.0,0.02987908059446086,1.0,0
3.4007506370544434,23.616201400756836,-1.2997031211853027,-0.0,-0.0,-1.0,0.005769165977775473,1.0,0
3.0147461891174316,23.736101150512695,-1.287778377532959,-0.0,-0.0,-1.0,0.0336657542697072,1.0,0
3.9223885536193848,23.210721969604492,-1.2412304878234863,-0.0,-0.0,-1.0,0.03969235724492502,1.0,0
3.348830223083496,23.833219528198242,-1.3665904998779297,-0.0,-0.0,-1.0,0.04875079408092355,1.0,0
2.9533896446228027,23.98647689819336,-1.3568058013916016,-0.0,-0.0,-1.0,0.13850908574004775,2.0,0
3.9146366119384766,23.29322052001953,-1.2834587097167969,-0.0,-0.0,-1.0,0.041032982284569926,1.0,0
3.6236281394958496,23.597070693969727,-1.3337068557739258,-0.0,-0.0,-1.0,0.035741555933877754,2.0,0
4.129176139831543,23.14002227783203,-1.2695789337158203,-0.0,-0.0,-1.0,0.04144228963498625,1.0,0
4.282304763793945,24.827516555786133,-1.4104857444763184,-0.0,-0.0,-1.0,0.03524008689442357,1.0,0
3.9166412353515625,25.015727996826172,-1.413499355316162,-0.0,-0.0,-1.0,0.039259752460884575,1.0,0
3.6005678176879883,25.166824340820312,-1.41377592086792,-0.0,-0.0,-1.0,0.024718492306466257,1.0,0
3.164017677307129,25.335769653320312,-1.4036459922790527,-0.0,-0.0,-1.0,0.026541193479277685,1.0,0
3.011448860168457,25.406816482543945,-1.404557704925537,-0.0,-0.0,-1.0,0.0482722038223735,1.0,0
4.574889183044434,24.466773986816406,-1.3431172370910645,-0.0,-0.0,-1.0,0.02635288125821108,1.0,0
4.446850776672363,24.67853546142578,-1.3893704414367676,-0.0,-0.0,-1.0,0.03573753497957614,1.0,0
3.904865264892578,24.914222717285156,-1.379138469696045,-0.0,-0.0,-1.0,0.03442969653273427,1.0,0
2.7397279739379883,25.412107467651367,-1.367659091949463,-0.0,-0.0,-1.0,0.0761613196644848,1.0,0
4.7266845703125,24.121763229370117,-1.2592730522155762,-0.0,-0.0,-1.0,0.07009649292867103,1.0,0
4.650027275085449,24.155536651611328,-1.2572579383850098,-0.0,-0.0,-1.0,0.06283777682172562,1.0,0
4.952435493469238,23.65599822998047,-1.1511998176574707,-0.0,-0.0,-1.0,0.060982724999966785,1.0,0
4.785531044006348,23.77389144897461,-1.159989833831787,-0.0,-0.0,-1.0,0.079966028207111,1.0,0
4.999652862548828,23.311918258666992,-1.0520682334899902,-0.0,-0.0,-1.0,0.07748554189551689,1.0,0
2.906888961791992,24.24981689453125,-1.0155644416809082,-0.0,-0.0,-1.0,0.12398415273832225,1.0,0
4.88808012008667,25.205467224121094,-1.3625588417053223,-0.0,-0.0,-1.0,0.02800637456418501,1.0,0
4.97959566116333,25.02355194091797,-1.3218283653259277,-0.0,-0.0,-1.0,0.01123065617738033,1.0,0
4.55099630355835,25.302513122558594,-1.3346047401428223,-0.0,-0.0,-1.0,0.0173584568408766,1.0,0
4.293452739715576,25.558876037597656,-1.3714137077331543,-0.0,-0.0,-1.0,0.0211977626869734,1.0,0
4.291848659515381,24.46169662475586,-1.444349765777588,-0.0,-0.0,-1.0,0.02005447263034817,1.0,0
3.9610486030578613,24.831453323364258,-1.471306324005127,-0.0,-0.0,-1.0,0.030467651308902763,1.0,0
4.364901065826416,24.274917602539062,-1.4073452949523926,-0.0,-0.0,-1.0,0.025432584380719717,1.0,0
4.20353364944458,24.503314971923828,-1.4342122077941895,-0.0,-0.0,-1.0,0.017119901215477316,1.0,0
3.9217143058776855,24.76009178161621,-1.4398798942565918,-0.0,-0.0,-1.0,0.028167306586349895,1.0,0
3.595797061920166,25.15809440612793,-1.47926664352417,-0.0,-0.0,-1.0,0.017958150500366934,1.0,0
3.34672212600708,25.278657913208008,-1.4550280570983887,-0.7357659919675265,0.26348535183342914,-0.6238780926056433,0.03632088479951707,4.0,0
2.966235637664795,25.445890426635742,-1.414379596710205,-0.0,-0.0,-1.0,0.04786003630275907,1.0,0
2.7110648155212402,25.595443725585938,-1.3998627662658691,0.636526844102931,-0.1487592542627799,-0.7567722649566014,0.0707742943746751,3.0,0
4.836613178253174,23.429353713989258,-1.2815308570861816,-0.0,-0.0,-1.0,0.054511814338513515,1.0,0
4.71593713760376,23.817007064819336,-1.3634533882141113,-0.0,-0.0,-1.0,0.07095636485897384,1.0,0
4.4813714027404785,24.10009002685547,-1.3855910301208496,-0.0,-0.0,-1.0,0.05447504044419528,1.0,0
3.2676844596862793,24.10523796081543,-1.0769495964050293,-0.0,-0.0,-1.0,0.16515381622361483,1.0,0
5.0480499267578125,25.483108520507812,-1.4996695518493652,-0.0,-0.0,-1.0,0.029420409602858816,1.0,0
5.159086227416992,25.13894271850586,-1.422670841217041,-0.0,-0.0,-1.0,0.017906068938138533,1.0,0
4.915285110473633,25.29383087158203,-1.4072232246398926,-0.0,-0.0,-1.0,0.02962179254735527,1.0,0
4.566096305847168,25.527515411376953,-1.3912596702575684,-0.0,-0.0,-1.0,0.01536867924034299,1.0,0
4.486978530883789,25.522972106933594,-1.3707804679870605,-0.0,-0.0,-1.0,0.022180368262793956,2.0,0
4.08680534362793,23.338239669799805,-1.1970233917236328,-0.0,-0.0,-1.0,0.04520398527027643,1.0,0
3.2495996952056885,23.323667526245117,-1.229705810546875,-0.0,-0.0,-1.0,0.026422704391659096,1.0,0
3.44516658782959,23.328968048095703,-1.2222900390625,-0.0,-0.0,-1.0,0.02500852056217298,1.0,0
3.848602771759033,23.41412925720215,-1.230642318725586,-0.0,-0.0,-1.0,0.051402900812186535,1.0,0
3.1026318073272705,23.262760162353516,-1.217794418334961,-0.0,-0.0,-1.0,0.026422704391659044,1.0,0
2.992732048034668,23.22830581665039,-1.2124032974243164,-0.0,-0.0,-1.0,0.020882213892822986,1.0,0
4.833714485168457,23.622982025146484,-1.2603645324707031,-0.0,-0.0,-1.0,0.07353511971986157,1.0,0
5.080749034881592,23.669204711914062,-1.2569799423217773,-0.0,-0.0,-1.0,0.05950234917702545,1.0,0
4.159858703613281,23.59531021118164,-1.3029890060424805,-0.0,-0.0,-1.0,0.03482555904391268,1.0,0
4.505270481109619,23.666030883789062,-1.2986736297607422,-0.0,-0.0,-1.0,0.05297517482188562,1.0,0
3.7170653343200684,23.385143280029297,-1.2719736099243164,-0.0,-0.0,-1.0,0.034425126469103305,1.0,0
3.965104103088379,23.49884033203125,-1.2879009246826172,-0.0,-0.0,-1.0,0.05574233260848901,1.0,0
4.803676605224609,23.952280044555664,-1.0237889289855957,-0.0,-0.0,-1.0,0.07227066134745644,1.0,0
5.118889808654785,24.311309814453125,-1.1047492027282715,-0.0,-0.0,-1.0,0.03825254525492556,1.0,0
4.376903057098389,23.8419189453125,-1.0340485572814941,-0.0,-0.0,-1.0,0.061978510877078175,1.0,0
4.661994934082031,23.929296493530273,-1.031324863433838,-0.0,-0.0,-1.0,0.07168821570374632,1.0,0
3.7549102306365967,23.33096694946289,-0.9410891532897949,-0.0,-0.0,-1.0,0.048886897148778155,1.0,0
4.055724620819092,23.902578353881836,-1.088167667388916,-0.0,-0.0,-1.0,0.039487093353979257,1.0,0
3.6986355781555176,24.109375,-1.1935114860534668,-0.0,-0.0,-1.0,0.0514431058520671,1.0,0
3.3754520416259766,24.386159896850586,-1.3182339668273926,-0.0,-0.0,-1.0,0.04116855024525677,1.0,0
2.8562331199645996,24.346113204956055,-1.3672699928283691,-0.0,-0.0,-1.0,0.07674509937702939,2.0,0
3.094285011291504,24.465177536010742,-1.3763175010681152,-0.0,-0.0,-1.0,0.02061347867534392,2.0,0
