x,y,z,nx,ny,nz,curvature,density,label
50.96942138671875,31.48138427734375,-3.095341682434082,-0.0,-0.0,-1.0,0.01543218253406592,1.0,0
51.43235397338867,31.01633071899414,-2.9989523887634277,-0.0,-0.0,-1.0,0.023954066921799206,1.0,0
51.46385955810547,32.35231018066406,-2.980541706085205,-0.0,-0.0,-1.0,0.13151675288666917,2.0,0
52.08313751220703,31.918367385864258,-2.8999929428100586,-0.0,-0.0,-1.0,0.119588124344799,1.0,0
51.62532424926758,32.27095031738281,-2.9713971614837646,-0.0,-0.0,-1.0,0.12033207338483691,2.0,0
50.81353759765625,32.246620178222656,-2.9612481594085693,-0.0,-0.0,-1.0,0.18433008728178915,1.0,0
52.03141784667969,31.976089477539062,-2.916630506515503,0.8750247434898539,-0.09448533543585992,-0.4747675427702367,0.1560971988174578,3.0,0
51.91266632080078,31.573593139648438,-2.986327648162842,-0.0,-0.0,-1.0,0.06874012129686594,1.0,0
51.410465240478516,31.570560455322266,-2.970395088195801,-0.0,-0.0,-1.0,0.05816080436556957,2.0,0
50.796966552734375,32.568294525146484,-2.9930832386016846,-0.7331098224406514,0.301811439036898,-0.6094750556893318,0.21935118503321577,4.0,0
51.53726577758789,32.41001510620117,-2.9626431465148926,-0.0,-0.0,-1.0,0.16780394937581333,2.0,0
51.07678985595703,32.321773529052734,-2.9319186210632324,0.47190264462360204,0.8594368059819256,-0.19666283462015885,0.10598224833848559,4.0,0
52.04375076293945,31.996212005615234,-2.897904872894287,0.8401252627414552,0.1553057142556146,-0.5196822856545666,0.12840043103912932,4.0,0
52.50737380981445,31.17123794555664,-3.134812593460083,-0.0,-0.0,-1.0,0.014724912743382734,1.0,0
51.85013961791992,30.771560668945312,-3.0312440395355225,-0.0,-0.0,-1.0,0.09740948395342361,1.0,0
52.25707244873047,31.975143432617188,-2.9182193279266357,-0.0,-0.0,-1.0,0.1257578813969819,1.0,0
51.62715530395508,32.3583869934082,-2.9797027111053467,-0.0,-0.0,-1.0,0.15251222145817786,1.0,0
51.08944320678711,32.257102966308594,-2.946920156478882,-0.0,-0.0,-1.0,0.07906145000623634,1.0,0
51.79167938232422,32.450889587402344,-2.7544641494750977,-0.0,-0.0,-1.0,0.24635859808857186,1.0,0
51.76996994018555,30.666725158691406,-3.06767201423645,-0.0,-0.0,-1.0,0.06449462135815029,1.0,0
51.570404052734375,32.50429153442383,-2.7077200412750244,-0.15237667824515455,0.9220634803657352,0.35578123348878304,0.1814439598179648,4.0,0
52.1778564453125,30.77560806274414,-2.9971818923950195,-0.0,-0.0,-1.0,0.1298177504057093,1.0,0
52.13178634643555,31.99294090270996,-2.8984861373901367,-0.0,-0.0,-1.0,0.1389248852301679,1.0,0
51.65302658081055,32.15220260620117,-2.896717071533203,-0.0,-0.0,-1.0,0.1940462327111565,1.0,0
50.949424743652344,32.32139587402344,-2.886417865753174,-0.0,-0.0,-1.0,0.09718279272413705,1.0,0
51.489784240722656,32.41885757446289,-2.9224777221679688,-0.0,-0.0,-1.0,0.17608317022871406,1.0,0
50.723060607910156,32.52323913574219,-2.88739013671875,-0.5117989606813925,-0.7253602689561911,-0.460341508084214,0.21638067583424536,4.0,0
52.03129577636719,32.044090270996094,-2.8957605361938477,-0.0,-0.0,-1.0,0.13209375176991398,2.0,0
51.02129364013672,32.23280334472656,-2.942996025085449,0.4549358178838897,0.45916366658303504,-0.7630217093217855,0.12469676900333874,3.0,0
51.646732330322266,31.45609474182129,-2.8849525451660156,-0.0,-0.0,-1.0,0.10584682762644168,2.0,0
51.31487274169922,32.60506057739258,-2.739034652709961,-0.0,-0.0,-1.0,0.19747871615998233,1.0,0
51.31903076171875,32.55683898925781,-2.8192105293273926,-0.0,-0.0,-1.0,0.18451247069644056,1.0,0
51.429534912109375,31.3852596282959,-2.9568827152252197,-0.0,-0.0,-1.0,0.09432451585346206,1.0,0
51.18706130981445,32.49727249145508,-2.756638288497925,-0.0,-0.0,-1.0,0.13819918144708154,1.0,0
51.63927459716797,32.14397430419922,-2.7742197513580322,-0.0,-0.0,-1.0,0.18050865888959056,2.0,0
51.31199645996094,32.501197814941406,-2.6670384407043457,-0.0,-0.0,-1.0,0.1947314878853986,1.0,0
51.67829895019531,32.27324676513672,-3.04780650138855,-0.0,-0.0,-1.0,0.06656412510207844,1.0,0
50.303123474121094,32.59999084472656,-2.9076945781707764,-0.0,-0.0,-1.0,0.22251980774179106,1.0,0
50.799842834472656,32.38067626953125,-2.9445817470550537,-0.0,-0.0,-1.0,0.18334099077769575,2.0,0
51.46446990966797,32.46354675292969,-2.241158962249756,-0.0,-0.0,-1.0,0.10965016542396061,1.0,0
51.37759780883789,32.46767807006836,-2.967273235321045,-0.0,-0.0,-1.0,0.20106276263735529,1.0,0
51.454978942871094,32.38397979736328,-2.9610955715179443,-0.0,-0.0,-1.0,0.16293696006796712,2.0,0
51.327369689941406,32.59657287597656,-2.6393446922302246,-0.0,-0.0,-1.0,0.17388564926152822,2.0,0
51.37187194824219,32.57263946533203,-2.6776463985443115,-0.0,-0.0,-1.0,0.18336235725819455,1.0,0
50.474552154541016,32.510135650634766,-2.7500641345977783,-0.0,-0.0,-1.0,0.10788715131723893,1.0,0
50.33606719970703,32.63906478881836,-2.857781410217285,-0.0,-0.0,-1.0,0.17486347790810178,1.0,0
51.476341247558594,32.299583435058594,-2.998255491256714,0.9431249900023614,0.32611252808930336,-0.06454356866682524,0.1400531682056355,3.0,0
50.5245361328125,32.982749938964844,-2.746967315673828,-0.0,-0.0,-1.0,0.23391477442092565,1.0,0
51.46159362792969,32.50331115722656,-2.607280731201172,-0.0,-0.0,-1.0,0.14469573885997253,2.0,0
51.731048583984375,31.650314331054688,-3.093008518218994,-0.0,-0.0,-1.0,0.07403866013963485,1.0,0
50.648338317871094,32.302650451660156,-2.8881802558898926,-0.0,-0.0,-1.0,0.11544908363479124,1.0,0
50.78804016113281,32.8890380859375,-2.9131226539611816,-0.0,-0.0,-1.0,0.2136583054109912,1.0,0
51.54426574707031,32.52512741088867,-2.787895441055298,-0.0,-0.0,-1.0,0.12395470450429023,1.0,0
52.15384292602539,30.919282913208008,-3.001047134399414,-0.9531056675187874,-0.17861458504130417,-0.24430803620447883,0.12066815904949783,3.0,0
51.04864501953125,32.23649215698242,-2.924468517303467,0.4549358178838897,0.45916366658303504,-0.7630217093217855,0.10055693221955422,3.0,0
50.49776840209961,32.5157470703125,-2.8729476928710938,-0.0,-0.0,-1.0,0.23419737843472882,1.0,0
50.9229736328125,32.40485382080078,-2.9164857864379883,-0.0,-0.0,-1.0,0.13401716330702318,2.0,0
51.47069549560547,32.58232116699219,-2.7072906494140625,-0.5614061108792637,0.40743555665006875,-0.7202912229401861,0.14360848024416872,3.0,0
51.40802001953125,32.52547836303711,-2.8086819648742676,-0.0,-0.0,-1.0,0.12246335456840048,2.0,0
51.987239837646484,31.93178367614746,-2.9912800788879395,-0.0,-0.0,-1.0,0.11234987783485109,1.0,0
51.7748908996582,32.12332534790039,-2.988651752471924,0.557354230225349,-0.7758113925667358,0.2957582546837379,0.11485679879101697,3.0,0
51.49042892456055,32.26371765136719,-2.973618507385254,0.8636373508762144,0.4974016296959438,-0.08198868792299488,0.12316817249120578,4.0,0
50.77992630004883,32.56686782836914,-2.9320273399353027,-0.8313697996997131,0.3107976467356527,0.4606832739864117,0.1997943793376073,4.0,0
51.65309524536133,32.49445343017578,-2.623684883117676,-0.0,-0.0,-1.0,0.1312861607296631,1.0,0
51.80746078491211,32.36386489868164,-2.837239980697632,-0.0,-0.0,-1.0,0.12358298405264616,1.0,0
51.18628692626953,32.20526123046875,-3.0027761459350586,0.3315129647927189,0.9305697251190406,0.1553677600604922,0.07867506549271987,3.0,0
51.07883071899414,32.33399200439453,-2.9972333908081055,-0.0,-0.0,-1.0,0.20639745223232522,1.0,0
50.878623962402344,32.41619873046875,-2.978785514831543,-0.0,-0.0,-1.0,0.14849117004178686,1.0,0
51.91908645629883,32.565494537353516,-2.413094997406006,-0.0,-0.0,-1.0,0.19694269229046488,1.0,0
52.22125244140625,30.905406951904297,-3.0499022006988525,-0.0,-0.0,-1.0,0.0899730743487659,1.0,0
51.70212936401367,32.05434036254883,-2.9735848903656006,-0.0,-0.0,-1.0,0.14081959455711493,1.0,0
51.48368453979492,32.31086349487305,-2.9433181285858154,0.9632798908082574,-0.22035280050503853,-0.15341608544744956,0.1758620828498579,3.0,0
51.13761520385742,32.33971405029297,-2.8962924480438232,-0.0,-0.0,-1.0,0.07604348777813491,2.0,0
51.67509078979492,32.429298400878906,-2.451606035232544,0.41567472438708647,-0.9063028506004825,-0.0763522527444933,0.17128611161706203,4.0,0
51.571903228759766,32.56025695800781,-2.4450809955596924,-0.0,-0.0,-1.0,0.13698371066149453,2.0,0
52.02032470703125,32.33633804321289,-2.3109841346740723,-0.0,-0.0,-1.0,0.16845935142258966,1.0,0
51.751163482666016,32.06621170043945,-2.95455265045166,-0.0,-0.0,-1.0,0.1565943288019681,1.0,0
51.48516845703125,32.30472183227539,-2.9251794815063477,0.9563055787048574,-0.24975129651208355,-0.15199976983042177,0.17586208284985796,4.0,0
50.722633361816406,32.577571868896484,-2.8361740112304688,-0.0,-0.0,-1.0,0.14778993056839937,2.0,0
50.49184036254883,32.66917037963867,-2.8095321655273438,-0.0,-0.0,-1.0,0.1357720433590133,1.0,0
51.1434211730957,32.19477844238281,-2.9615817070007324,-0.2416023891129359,0.014690373663392797,-0.9702641282128036,0.10224056965851744,5.0,0
50.92633056640625,32.462791442871094,-2.942246913909912,-0.6296628105976516,0.7473117293998267,0.2122496738553586,0.18567209025512207,3.0,0
50.61097717285156,32.54320526123047,-2.906064510345459,-0.0,-0.0,-1.0,0.18115754311665327,2.0,0
51.62049102783203,32.42786407470703,-2.7868497371673584,-0.0,-0.0,-1.0,0.17033355639608508,2.0,0
51.43983459472656,32.700782775878906,-2.779081106185913,-0.0,-0.0,-1.0,0.17753058870283914,1.0,0
51.04701614379883,32.33099365234375,-2.9587059020996094,0.6541776949119925,-0.3899953340367251,-0.6480394917821097,0.23523822929599872,4.0,0
52.242828369140625,31.254993438720703,-3.0631096363067627,-0.0,-0.0,-1.0,0.038117557288707166,2.0,0
51.66204833984375,31.85043716430664,-3.0051581859588623,-0.0,-0.0,-1.0,0.0578532805616122,1.0,0
51.53008270263672,32.959747314453125,-3.0178215503692627,-0.0,-0.0,-1.0,0.12471542888113366,1.0,0
51.31740188598633,32.28997039794922,-2.9733641147613525,-0.0,-0.0,-1.0,0.07970948947111799,1.0,0
50.89288330078125,32.422462463378906,-2.923827886581421,0.08568969270866485,-0.2551437539839444,-0.9630986145595242,0.111614528751914,3.0,0
50.84663009643555,32.568599700927734,-2.921926736831665,-0.0,-0.0,-1.0,0.12368766753413984,1.0,0
50.28884506225586,32.68293380737305,-2.855358362197876,-0.0,-0.0,-1.0,0.19913560903962943,2.0,0
51.555301666259766,32.52620315551758,-2.5233073234558105,-0.0,-0.0,-1.0,0.1441974348910902,1.0,0
50.87356185913086,32.87591552734375,-3.1617588996887207,-0.0,-0.0,-1.0,0.15431050875264754,1.0,0
50.701622009277344,32.5898551940918,-3.134465217590332,-0.0,-0.0,-1.0,0.2329511608819036,2.0,0
50.25232696533203,32.45997619628906,-3.071880340576172,-0.0,-0.0,-1.0,0.27790162179000694,1.0,0
51.975677490234375,31.086135864257812,-2.2305710315704346,-0.0,-0.0,-1.0,0.10191040588729128,1.0,0
51.75654602050781,31.242712020874023,-2.205591917037964,-0.0,-0.0,-1.0,0.09734738095908636,1.0,0
51.70024490356445,32.739322662353516,-2.37143611907959,-0.0,-0.0,-1.0,0.20401116194581087,2.0,0
51.86771011352539,32.39337921142578,-2.3387908935546875,-0.0,-0.0,-1.0,0.17777726876751118,1.0,0
51.725223541259766,32.75074005126953,-2.3400893211364746,-0.0,-0.0,-1.0,0.20401116194581087,2.0,0
50.280517578125,32.961090087890625,-3.104304790496826,-0.0,-0.0,-1.0,0.2062195093849972,1.0,0
51.57710266113281,32.400516510009766,-2.1699678897857666,-0.3549787873035542,-0.54119140544849,-0.762300415343706,0.10872541933577896,3.0,0
51.68989562988281,32.536800384521484,-2.1868932247161865,-0.0,-0.0,-1.0,0.12910750558319778,1.0,0
51.78227233886719,31.37143898010254,-2.9646310806274414,-0.0,-0.0,-1.0,0.11572834278262902,1.0,0
51.82904052734375,31.164173126220703,-2.9673409461975098,-0.0,-0.0,-1.0,0.04856935662354408,1.0,0
52.11537551879883,30.73884391784668,-2.9994864463806152,-0.0,-0.0,-1.0,0.12714474458413372,2.0,0
51.74188995361328,31.646207809448242,-2.964231014251709,-0.0,-0.0,-1.0,0.07821328691632908,1.0,0
52.119102478027344,32.86430740356445,-3.0418972969055176,-0.0,-0.0,-1.0,0.062373529058083195,1.0,0
50.3134651184082,32.46631622314453,-2.7843265533447266,-0.0,-0.0,-1.0,0.1871353652563175,1.0,0
50.72957229614258,32.5906982421875,-2.8443603515625,-0.0,-0.0,-1.0,0.14778993056839937,2.0,0
50.89400863647461,32.26288604736328,-2.8599190711975098,-0.0,-0.0,-1.0,0.08743057156391235,1.0,0
51.19829177856445,31.993682861328125,-2.8962488174438477,-0.0,-0.0,-1.0,0.03695494825102802,1.0,0
51.42780303955078,31.789880752563477,-2.9237780570983887,-0.0,-0.0,-1.0,0.07527238158656223,1.0,0
50.94313049316406,32.72418975830078,-2.8767576217651367,-0.0,-0.0,-1.0,0.1452577085815566,1.0,0
51.09409713745117,33.12730026245117,-2.9069347381591797,-0.0,-0.0,-1.0,0.2252334806917837,1.0,0
51.56516647338867,32.19939041137695,-2.194815158843994,-0.0,-0.0,-1.0,0.15990800210083522,1.0,0
51.85858154296875,32.06251525878906,-2.229170322418213,-0.0,-0.0,-1.0,0.13527330704928486,1.0,0
51.319923400878906,32.713035583496094,-2.6868395805358887,-0.0,-0.0,-1.0,0.17634147841870304,1.0,0
51.73003387451172,32.637420654296875,-2.725644111633301,-0.0,-0.0,-1.0,0.13500351416204048,1.0,0
51.571441650390625,31.02787208557129,-3.027198314666748,-0.0,-0.0,-1.0,0.025830196354818608,1.0,0
51.879852294921875,30.982181549072266,-3.0595555305480957,-0.0,-0.0,-1.0,0.051872869619998464,1.0,0
52.1663932800293,30.713356018066406,-3.0638184547424316,-0.0,-0.0,-1.0,0.1407609136114627,1.0,0
51.47010040283203,31.174419403076172,-3.0317845344543457,-0.0,-0.0,-1.0,0.01748452814529337,1.0,0
52.16796875,30.98074722290039,-3.0945820808410645,-0.0,-0.0,-1.0,0.08102314552531828,1.0,0
50.32459259033203,32.578514099121094,-3.058964252471924,-0.7684999195611785,-0.6022916400029157,-0.21599225453024937,0.23364345673551365,4.0,0
50.70554733276367,32.51287078857422,-3.096743106842041,-0.0,-0.0,-1.0,0.2557594229080221,1.0,0
50.966285705566406,32.51483154296875,-3.1282639503479004,-0.0,-0.0,-1.0,0.2000477107413155,1.0,0
50.76795196533203,32.680301666259766,-3.1242265701293945,-0.0,-0.0,-1.0,0.19191701354154675,1.0,0
51.73992156982422,32.37437438964844,-2.528721332550049,-0.0,-0.0,-1.0,0.21843394905986613,1.0,0
51.69795227050781,32.55320739746094,-2.5443925857543945,-0.0,-0.0,-1.0,0.2128680995994541,1.0,0
51.718414306640625,32.43629837036133,-2.3630611896514893,-0.8319114991488518,0.20142964009577707,0.5170583696980405,0.12314689121955728,3.0,0
51.3869514465332,32.654380798339844,-2.3482205867767334,-0.0,-0.0,-1.0,0.1335884155165015,1.0,0
51.86614227294922,32.64826583862305,-2.4003984928131104,-0.0,-0.0,-1.0,0.22412814259803476,1.0,0
51.65509796142578,32.42872619628906,-2.4895505905151367,-0.20157356215008104,0.9751899362534535,0.09150238943389633,0.15437922288341477,3.0,0
51.53008270263672,32.615394592285156,-2.494570732116699,-0.0,-0.0,-1.0,0.23572969632556737,1.0,0
51.81031036376953,30.65374755859375,-3.1991665363311768,-0.0,-0.0,-1.0,0.0613372584154519,1.0,0
51.86039733886719,30.79418182373047,-3.2233951091766357,-0.0,-0.0,-1.0,0.09883437315391384,1.0,0
51.691131591796875,32.336402893066406,-2.2782952785491943,-0.4151908516692287,-0.9064391051470053,-0.07736087738951979,0.1756063240526444,3.0,0
51.793907165527344,32.523338317871094,-2.3098580837249756,-0.020795149577348297,-0.7692682507640527,-0.6385874412486285,0.14875612184626263,3.0,0
51.883544921875,32.19790267944336,-2.301586866378784,-0.0,-0.0,-1.0,0.18685076880341914,2.0,0
51.4334831237793,32.60112762451172,-2.293623208999634,-0.0,-0.0,-1.0,0.12356950655775513,2.0,0
51.82398223876953,32.46946334838867,-2.3241240978240967,-0.0,-0.0,-1.0,0.19634350796809016,1.0,0
51.32726287841797,30.802730560302734,-3.090588331222534,-0.0,-0.0,-1.0,0.027791418674517825,2.0,0
51.45665740966797,30.711942672729492,-3.097966432571411,-0.0,-0.0,-1.0,0.03653965472614087,2.0,0
51.8988151550293,30.794395446777344,-3.1748764514923096,-0.0,-0.0,-1.0,0.08705449021930482,1.0,0
51.752197265625,32.337059020996094,-2.3057405948638916,-0.0,-0.0,-1.0,0.18373689682393432,2.0,0
51.39054870605469,32.58485794067383,-2.2925808429718018,-0.0,-0.0,-1.0,0.12836903447568265,2.0,0
51.84210205078125,32.517478942871094,-2.337129831314087,-0.0,-0.0,-1.0,0.21074481397849051,1.0,0
51.732852935791016,32.15294647216797,-2.874398708343506,-0.0,-0.0,-1.0,0.26514573310999384,1.0,0
52.04619598388672,31.977542877197266,-2.8896827697753906,0.8750247434898539,-0.09448533543585992,-0.4747675427702367,0.1271571803146208,3.0,0
50.62776184082031,32.63121032714844,-2.8035783767700195,-0.0,-0.0,-1.0,0.19355422240497056,2.0,0
50.982704162597656,32.58263397216797,-2.8412179946899414,-0.0,-0.0,-1.0,0.12225249602426275,1.0,0
51.381622314453125,32.44780731201172,-2.8720970153808594,-0.0,-0.0,-1.0,0.12275335213312052,1.0,0
51.65800476074219,32.34175109863281,-2.891979217529297,-0.0,-0.0,-1.0,0.1577692084719768,1.0,0
51.185569763183594,32.670005798339844,-2.8795833587646484,-0.0,-0.0,-1.0,0.18362891185497765,1.0,0
52.16083526611328,30.92374610900879,-3.0315890312194824,-0.8706265404424666,0.3474793243687305,0.34823490091234754,0.10810195254611747,4.0,0
51.344017028808594,31.418481826782227,-2.993363380432129,-0.5723557929921241,0.6175479174154352,-0.5394843982213161,0.07614746697732047,5.0,0
51.662315368652344,31.289180755615234,-3.0159740447998047,-0.0,-0.0,-1.0,0.08430399469742006,1.0,0
52.054351806640625,31.143274307250977,-3.0459728240966797,-0.0,-0.0,-1.0,0.06903518865964822,2.0,0
51.221656799316406,31.85004234313965,-3.0343050956726074,-0.0,-0.0,-1.0,0.038817870037490564,2.0,0
51.083717346191406,32.15901184082031,-3.0580525398254395,-0.0,-0.0,-1.0,0.10790556650469268,2.0,0
51.279075622558594,31.96647071838379,-3.0564990043640137,-0.4784588815733324,0.6146480437486429,-0.6271242946653895,0.06125591863838549,3.0,0
50.61380386352539,32.5728874206543,-3.0566182136535645,0.4099156124130851,-0.32669849664666084,-0.8516086442661422,0.1917233458157032,3.0,0
50.87395477294922,32.473480224609375,-3.0744457244873047,-0.0,-0.0,-1.0,0.23610674247440666,1.0,0
51.590736389160156,32.37964630126953,-2.1614999771118164,-0.4307277161649295,-0.5221965201220733,-0.7360600715293154,0.12746419386565963,4.0,0
51.58900833129883,32.099952697753906,-2.7033331394195557,-0.0,-0.0,-1.0,0.1570811559029187,1.0,0
51.95965576171875,32.212554931640625,-2.756258726119995,-0.0,-0.0,-1.0,0.08324994361125147,2.0,0
51.49103546142578,32.552574157714844,-2.7399704456329346,-0.8506916211857702,-0.5229392653717431,-0.05346298136830358,0.16327475595910756,3.0,0
52.04551315307617,31.881479263305664,-2.9331212043762207,-0.0,-0.0,-1.0,0.09229812470527407,1.0,0
51.777244567871094,32.1988410949707,-2.94083833694458,0.9274520452729701,0.3127575269482902,-0.2049766646625272,0.1601386472224563,4.0,0
50.285804748535156,32.709564208984375,-2.8363637924194336,-0.0,-0.0,-1.0,0.1645059977148189,2.0,0
50.60090637207031,32.69377899169922,-2.869356155395508,-0.0,-0.0,-1.0,0.20207312266568986,1.0,0
50.95008850097656,32.515323638916016,-2.886235237121582,-0.0,-0.0,-1.0,0.10088179038281979,2.0,0
51.361572265625,32.44136428833008,-2.923341751098633,-0.0,-0.0,-1.0,0.14408153869720436,1.0,0
51.95075225830078,32.40058898925781,-2.719106435775757,-0.0,-0.0,-1.0,0.1679488437605713,1.0,0
52.56352233886719,32.314762115478516,-2.7733733654022217,-0.0,-0.0,-1.0,0.09895756904002853,1.0,0
51.321842193603516,32.56281280517578,-2.673309564590454,-0.0,-0.0,-1.0,0.2086954443283932,2.0,0
51.5870361328125,32.49758529663086,-2.6929116249084473,-0.48668321221187366,0.8515972667095222,-0.1947345533900015,0.16804262154976166,4.0,0
51.93141174316406,32.31204605102539,-2.6990411281585693,-0.0,-0.0,-1.0,0.16621567579312213,1.0,0
52.527076721191406,32.25611114501953,-2.7610881328582764,-0.0,-0.0,-1.0,0.10117144130181861,1.0,0
51.54607391357422,32.48529052734375,-2.675718069076538,-0.48668321221187366,0.8515972667095222,-0.1947345533900015,0.12913746443658236,4.0,0
51.80186080932617,32.428184509277344,-2.6980555057525635,-0.0,-0.0,-1.0,0.1865617260756531,1.0,0
51.76439666748047,30.967540740966797,-3.046304702758789,-0.0,-0.0,-1.0,0.035415710335082964,1.0,0
52.18421936035156,30.844003677368164,-3.0838804244995117,-0.0,-0.0,-1.0,0.12794281167674917,2.0,0
52.6539421081543,30.80459213256836,-3.1405515670776367,-0.02278221350408235,-0.9959153634387756,0.08737024444549606,0.025180995224914474,3.0,0
51.42295837402344,31.301483154296875,-3.050299644470215,-0.0,-0.0,-1.0,0.04833004641333164,1.0,0
51.863250732421875,31.26262664794922,-3.10176944732666,-0.0,-0.0,-1.0,0.06723525134832527,1.0,0
52.11473083496094,31.26013946533203,-3.134268283843994,-0.0,-0.0,-1.0,0.060318322908249775,1.0,0
50.3341064453125,32.58592987060547,-3.1046319007873535,-0.0,-0.0,-1.0,0.14891044377880788,2.0,0
50.6002197265625,32.51141357421875,-3.1261377334594727,-0.0,-0.0,-1.0,0.22349120639464903,1.0,0
50.27798080444336,30.852680206298828,-2.8374409675598145,-0.0,-0.0,-1.0,0.07563938643018128,2.0,0
50.71522521972656,31.042428970336914,-2.9213013648986816,-0.0,-0.0,-1.0,0.050339622303000806,1.0,0
51.476051330566406,31.088592529296875,-3.0262064933776855,-0.0,-0.0,-1.0,0.019520243840597064,1.0,0
51.22083282470703,31.335296630859375,-3.0291800498962402,-0.0,-0.0,-1.0,0.04861869709631813,2.0,0
51.93191146850586,32.21293640136719,-2.398482084274292,-0.0,-0.0,-1.0,0.1641711437021894,1.0,0
51.429725646972656,32.65325164794922,-2.4024438858032227,-0.0,-0.0,-1.0,0.13961153118142475,1.0,0
51.696006774902344,32.44782257080078,-2.4036028385162354,-0.0,-0.0,-1.0,0.1716457540726968,2.0,0
51.47021484375,30.710094451904297,-3.0421314239501953,-0.0,-0.0,-1.0,0.037457752181863604,1.0,0
50.997615814208984,30.96874237060547,-3.0159430503845215,-0.0,-0.0,-1.0,0.028557817890150487,1.0,0
51.30821228027344,30.882999420166016,-3.0456323623657227,-0.0,-0.0,-1.0,0.01802860870967616,2.0,0
51.48701858520508,32.50950622558594,-2.4988160133361816,-0.8605952129931689,-0.3653393789699247,-0.3548281521343995,0.22568424592554817,3.0,0
51.726863861083984,32.46650695800781,-2.5193824768066406,-0.0,-0.0,-1.0,0.18424269178824837,2.0,0
51.955726623535156,32.179176330566406,-2.7651991844177246,-0.0,-0.0,-1.0,0.07173109376494784,2.0,0
51.1800537109375,32.64664077758789,-2.7649550437927246,-0.0,-0.0,-1.0,0.12082105723525388,1.0,0
51.50886535644531,32.49132537841797,-2.7715201377868652,-0.0,-0.0,-1.0,0.12395470450429023,2.0,0
51.7378044128418,32.454917907714844,-2.7881407737731934,-0.0,-0.0,-1.0,0.22306275974077208,1.0,0
51.5743408203125,33.12612533569336,-2.0774378776550293,-0.0,-0.0,-1.0,0.16407984568007394,1.0,0
51.758785247802734,31.181638717651367,-3.0167295932769775,-0.23123642029882685,0.96452908624141,-0.12733169174127432,0.046282679188737325,3.0,0
52.11112594604492,31.03304672241211,-3.031574010848999,-0.0,-0.0,-1.0,0.06718622161819231,1.0,0
52.686195373535156,30.887897491455078,-3.075007677078247,0.27679493350865025,0.023428321995013147,-0.9606433669746747,0.018690038388762136,3.0,0
51.3701286315918,31.390743255615234,-3.009936571121216,-0.13189837476580493,0.7651264737489344,-0.6302255928654921,0.0776127137430257,4.0,0
51.60087203979492,31.328533172607422,-3.0251734256744385,-0.0,-0.0,-1.0,0.07028547499797622,1.0,0
51.426849365234375,31.782703399658203,-3.089063882827759,-0.0,-0.0,-1.0,0.049154501396542045,1.0,0
51.48809051513672,31.742237091064453,-3.0885298252105713,-0.0,-0.0,-1.0,0.05184487190230759,2.0,0
50.317039489746094,30.873706817626953,-2.794011354446411,0.6909752840962011,-0.7014062905817946,-0.1748781641613981,0.07563938643018132,3.0,0
50.241329193115234,30.946624755859375,-2.7991936206817627,-0.0,-0.0,-1.0,0.07192279736173265,1.0,0
50.62103271484375,31.062847137451172,-2.8636081218719482,-0.0,-0.0,-1.0,0.06112209185616307,1.0,0
50.71180725097656,31.07758331298828,-2.876629590988159,-0.0,-0.0,-1.0,0.04954135021819411,2.0,0
50.366973876953125,31.41412925720215,-2.901165246963501,-0.0,-0.0,-1.0,0.05865178978328501,1.0,0
51.699310302734375,32.450103759765625,-2.4714949131011963,-0.8863797593555829,0.1854992429780589,-0.42417090076914216,0.20503221464323604,4.0,0
51.46492385864258,32.52674865722656,-2.4629809856414795,-0.0,-0.0,-1.0,0.20590782449349,2.0,0
51.601226806640625,32.571807861328125,-2.482218027114868,-0.0,-0.0,-1.0,0.1820022938358165,2.0,0
50.2396240234375,30.682817459106445,-2.8649075031280518,-0.0,-0.0,-1.0,0.07193781119499576,1.0,0
51.5078010559082,30.646800994873047,-3.0255515575408936,-0.0,-0.0,-1.0,0.03634441510138388,1.0,0
50.300086975097656,31.188941955566406,-2.968709707260132,-0.0,-0.0,-1.0,0.07628249141664345,1.0,0
50.84394836425781,31.01533317565918,-3.005851984024048,-0.0,-0.0,-1.0,0.03365224053584077,1.0,0
51.10670471191406,30.956605911254883,-3.0293595790863037,-0.0,-0.0,-1.0,0.014975823428854416,1.0,0
51.38180160522461,30.915771484375,-3.058270215988159,-0.0,-0.0,-1.0,0.024127415033177498,1.0,0
52.05510330200195,30.9468994140625,-3.1548426151275635,-0.0,-0.0,-1.0,0.08239736286295393,1.0,0
52.056068420410156,30.8492374420166,-3.1371572017669678,-0.0,-0.0,-1.0,0.10657650157931836,1.0,0
51.089149475097656,31.426170349121094,-3.114985227584839,-0.0,-0.0,-1.0,0.03683350977167007,1.0,0
51.63511657714844,32.39933776855469,-2.6193337440490723,-0.0,-0.0,-1.0,0.18473976135003922,1.0,0
51.49454116821289,32.51392364501953,-2.622851610183716,-0.0,-0.0,-1.0,0.13017032777730173,2.0,0
51.85306167602539,32.49742126464844,-2.6582753658294678,-0.0,-0.0,-1.0,0.2485297126582503,2.0,0
52.46089172363281,32.527198791503906,-2.7286126613616943,-0.0,-0.0,-1.0,0.12223869020188939,1.0,0
50.45587921142578,30.640155792236328,-2.933375597000122,-0.0,-0.0,-1.0,0.06923291253505438,1.0,0
51.46371841430664,30.745647430419922,-3.090203046798706,-0.0,-0.0,-1.0,0.03653965472614085,2.0,0
50.21848678588867,30.95563507080078,-2.9649088382720947,-0.0,-0.0,-1.0,0.07305145104627395,1.0,0
50.66035079956055,30.919965744018555,-3.015782594680786,-0.0,-0.0,-1.0,0.05025505786243786,1.0,0
51.00111389160156,30.945634841918945,-3.06632924079895,-0.0,-0.0,-1.0,0.028557817890150446,1.0,0
51.334320068359375,30.79840087890625,-3.082684278488159,-0.0,-0.0,-1.0,0.027791418674517825,2.0,0
52.02850341796875,30.811321258544922,-3.181359052658081,-0.0,-0.0,-1.0,0.12441220912692724,1.0,0
51.23760223388672,32.59620666503906,-2.6982758045196533,-0.0,-0.0,-1.0,0.15489849771619313,1.0,0
51.50099182128906,32.49687957763672,-2.7102138996124268,0.16534866150075547,0.502963368543325,-0.8483440752686731,0.14635589766326396,3.0,0
52.63001251220703,30.81707000732422,-3.0766096115112305,-0.0,-0.0,-1.0,0.028748931153917898,1.0,0
50.502830505371094,31.10706329345703,-2.8467230796813965,-0.0,-0.0,-1.0,0.06938647776357393,1.0,0
50.70440673828125,31.071334838867188,-2.8654627799987793,-0.0,-0.0,-1.0,0.05018352282566942,2.0,0
51.68601608276367,31.168807983398438,-3.013838291168213,-0.0,-0.0,-1.0,0.04579076319354951,1.0,0
52.03087615966797,31.06394386291504,-3.040414333343506,-0.0,-0.0,-1.0,0.07254385074423866,1.0,0
52.395790100097656,30.901342391967773,-3.0597782135009766,-0.0,-0.0,-1.0,0.01931887299025124,1.0,0
51.334136962890625,31.379501342773438,-3.008057117462158,-0.5723557929921241,0.6175479174154352,-0.5394843982213161,0.062368528355385755,5.0,0
51.591102600097656,31.41090965270996,-3.0481557846069336,-0.0,-0.0,-1.0,0.07720533293556898,1.0,0
50.324317932128906,32.09336853027344,-3.0215353965759277,-0.0,-0.0,-1.0,0.21209458696044076,1.0,0
51.31760025024414,31.856401443481445,-3.099626064300537,-0.0,-0.0,-1.0,0.060300113713662104,2.0,0
50.44053268432617,32.35546875,-3.0886025428771973,-0.0,-0.0,-1.0,0.14280671435880676,1.0,0
50.83618927001953,32.315513610839844,-3.129464626312256,-0.0,-0.0,-1.0,0.1520904660611252,1.0,0
50.778533935546875,32.60279846191406,-3.1798386573791504,-0.0,-0.0,-1.0,0.1953324355383625,1.0,0
50.31021499633789,30.86186981201172,-2.7734999656677246,-0.0,-0.0,-1.0,0.07563938643018131,2.0,0
51.777198791503906,32.44527053833008,-2.5647780895233154,-0.0,-0.0,-1.0,0.15148695427172135,2.0,0
51.471317291259766,32.553016662597656,-2.5494279861450195,-0.0,-0.0,-1.0,0.19901844424347795,2.0,0
51.55986022949219,32.43517303466797,-2.5393548011779785,-0.0,-0.0,-1.0,0.13512493154928604,2.0,0
52.09496307373047,30.867334365844727,-2.994434356689453,-0.0,-0.0,-1.0,0.12335764225921104,2.0,0
51.793582916259766,31.190223693847656,-3.014892101287842,-0.0,-0.0,-1.0,0.043164568015211444,2.0,0
52.10280990600586,31.108165740966797,-3.0424675941467285,-0.0,-0.0,-1.0,0.05118464777873417,1.0,0
52.623451232910156,31.26046371459961,-3.1470322608947754,-0.0,-0.0,-1.0,0.014968701538999004,2.0,0
50.93238067626953,31.743865966796875,-3.0076889991760254,-0.0,-0.0,-1.0,0.0195839447857002,1.0,0
51.43559646606445,31.411998748779297,-3.0091142654418945,-0.0,-0.0,-1.0,0.09703333628636746,1.0,0
52.70562744140625,31.297088623046875,-3.1659207344055176,-0.0,-0.0,-1.0,0.014968701538999013,1.0,0
50.99928283691406,31.98968505859375,-3.066133499145508,-0.0,-0.0,-1.0,0.053845402645917605,1.0,0
51.326141357421875,31.829235076904297,-3.0774216651916504,-0.0,-0.0,-1.0,0.060300113713662104,2.0,0
50.31389617919922,32.40471649169922,-3.0621728897094727,-0.0,-0.0,-1.0,0.21362791315972268,1.0,0
50.67641830444336,32.45267868041992,-3.1180548667907715,-0.0,-0.0,-1.0,0.24298846461092033,1.0,0
50.27840805053711,32.62147903442383,-3.1022119522094727,-0.0,-0.0,-1.0,0.2185341724803079,1.0,0
50.6845703125,32.626983642578125,-3.1545629501342773,-0.0,-0.0,-1.0,0.20904428197304653,2.0,0
50.662166595458984,31.140945434570312,-2.8505125045776367,-0.0,-0.0,-1.0,0.0486811074613612,1.0,0
51.41372299194336,32.48403549194336,-2.534317970275879,-0.0,-0.0,-1.0,0.17134849547501588,2.0,0
51.756587982177734,32.48699951171875,-2.5743017196655273,-0.0,-0.0,-1.0,0.16483197083156992,2.0,0
52.23357391357422,31.25,-3.0154340267181396,-0.0,-0.0,-1.0,0.04142929210584468,2.0,0
52.450870513916016,31.308549880981445,-3.0583603382110596,-0.0,-0.0,-1.0,0.013663194396938637,1.0,0
51.80391311645508,31.582693099975586,-3.021528482437134,-0.0,-0.0,-1.0,0.07610194628008252,1.0,0
52.100040435791016,31.52669334411621,-3.0517733097076416,-0.0,-0.0,-1.0,0.046492758846068336,1.0,0
52.56434631347656,31.36575698852539,-3.0861446857452393,-0.0,-0.0,-1.0,0.012621680966709164,1.0,0
51.28721618652344,31.994958877563477,-3.0347883701324463,-0.4784588815733324,0.6146480437486429,-0.6271242946653895,0.0705339520833934,3.0,0
51.51385498046875,31.804969787597656,-3.026559591293335,-0.0,-0.0,-1.0,0.06412590588520191,2.0,0
50.92721176147461,32.34458923339844,-3.059046983718872,-0.0,-0.0,-1.0,0.22292688453708176,1.0,0
50.60569381713867,32.59819793701172,-3.0702316761016846,0.4099156124130851,-0.32669849664666084,-0.8516086442661422,0.22352918544392436,3.0,0
50.78926086425781,32.611289978027344,-3.0963633060455322,-0.0,-0.0,-1.0,0.21116461594904254,1.0,0
51.4071159362793,32.520301818847656,-2.489283800125122,-0.0,-0.0,-1.0,0.21518174239197402,1.0,0
51.71095657348633,32.47352600097656,-2.5167601108551025,-0.34653398841782285,-0.8928331013737679,0.28768602323111775,0.18373548472805304,3.0,0
51.79450988769531,32.15092849731445,-2.953217029571533,0.9814889686875474,-0.19078201742427353,0.016781721371146394,0.16354244774353408,5.0,0
52.03499221801758,32.02981948852539,-2.9591474533081055,-0.0,-0.0,-1.0,0.13598660535327983,1.0,0
52.63592529296875,32.15326690673828,-3.063692092895508,-0.0,-0.0,-1.0,0.09372662942224602,1.0,0
51.482730865478516,32.44982147216797,-2.975985527038574,-0.0,-0.0,-1.0,0.1590020760525624,2.0,0
51.683570861816406,32.353302001953125,-2.9810972213745117,-0.0,-0.0,-1.0,0.11327172630437334,1.0,0
52.54322052001953,32.382530212402344,-3.09828519821167,-0.0,-0.0,-1.0,0.10770484591525405,1.0,0
52.685585021972656,32.662601470947266,-3.174454689025879,-0.0,-0.0,-1.0,0.07394557105977977,1.0,0
51.96659469604492,32.17230987548828,-2.333911180496216,-0.0,-0.0,-1.0,0.20578500158519938,1.0,0
51.72993850708008,32.477806091308594,-2.360689640045166,-0.0,-0.0,-1.0,0.12314689121955728,2.0,0
51.95263671875,31.20013427734375,-3.103571891784668,-0.0,-0.0,-1.0,0.04984119813068363,1.0,0
52.07238006591797,30.91248321533203,-3.0509729385375977,-0.0,-0.0,-1.0,0.09513924757097997,1.0,0
52.30423355102539,30.80145263671875,-3.056241989135742,-0.0,-0.0,-1.0,0.06891178939428422,1.0,0
52.540855407714844,30.766088485717773,-3.0806145668029785,-0.0,-0.0,-1.0,0.038944665878457456,1.0,0
51.42350769042969,30.674297332763672,-3.114943027496338,-0.0,-0.0,-1.0,0.03510623027155782,2.0,0
50.72907638549805,32.54100036621094,-2.9291749000549316,-0.5434217194270555,-0.7396357564386626,-0.39702869247996353,0.24088821389040768,4.0,0
51.0623779296875,32.33815002441406,-2.892451763153076,0.5745942029204225,0.6907061449702925,-0.4390518457659883,0.10789334776938597,5.0,0
51.29955291748047,32.354896545410156,-2.90510892868042,-0.0,-0.0,-1.0,0.13226646883585708,1.0,0
51.56501007080078,32.31916046142578,-2.9072070121765137,-0.0,-0.0,-1.0,0.17067625122274224,2.0,0
51.699180603027344,32.44856262207031,-2.9430813789367676,-0.0,-0.0,-1.0,0.0988806903052461,1.0,0
50.419647216796875,31.353649139404297,-3.0620861053466797,-0.0,-0.0,-1.0,0.058651789783284995,1.0,0
51.107200622558594,31.35552215576172,-3.0691866874694824,-0.0,-0.0,-1.0,0.034825721253575546,1.0,0
50.72913360595703,31.2360897064209,-3.038315773010254,-0.0,-0.0,-1.0,0.032631047678972167,1.0,0
50.4661865234375,30.986906051635742,-2.9809064865112305,-0.0,-0.0,-1.0,0.08664177222384116,1.0,0
50.25651168823242,30.72174644470215,-2.920900344848633,-0.0,-0.0,-1.0,0.07193781119499572,1.0,0
51.29557418823242,31.004987716674805,-2.994147300720215,-0.0,-0.0,-1.0,0.014481821675137013,1.0,0
51.26423263549805,32.492828369140625,-2.5606093406677246,-0.0,-0.0,-1.0,0.13161254564285285,1.0,0
51.439720153808594,32.37464904785156,-2.541107654571533,-0.0,-0.0,-1.0,0.11574143585189442,2.0,0
50.22809600830078,32.95768737792969,-3.0994110107421875,-0.0,-0.0,-1.0,0.19662477119488056,1.0,0
50.518211364746094,32.61872100830078,-3.0299973487854004,-0.0,-0.0,-1.0,0.16908326584891029,1.0,0
50.316917419433594,32.57880783081055,-3.021909236907959,-0.7454540656439865,-0.6496314264378367,-0.14925563908674486,0.2599131833824608,3.0,0
52.669921875,33.12531280517578,-3.155574321746826,-0.0,-0.0,-1.0,0.06715801724815539,1.0,0
50.77358627319336,32.432151794433594,-2.9924802780151367,-0.0,-0.0,-1.0,0.17277807684163818,1.0,0
52.22270202636719,32.53424072265625,-3.027432918548584,-0.0,-0.0,-1.0,0.10718464442699518,1.0,0
51.63479995727539,32.17609786987305,-2.9464197158813477,-0.0,-0.0,-1.0,0.14514295472899216,1.0,0
51.285037994384766,32.22911071777344,-2.953934669494629,-0.0,-0.0,-1.0,0.05655266760018923,1.0,0
51.0244255065918,32.29499053955078,-2.9655070304870605,0.7600810397608916,-0.3769285241482361,-0.5293408171296018,0.20243044784069283,3.0,0
52.285484313964844,32.422935485839844,-3.005858898162842,-0.0,-0.0,-1.0,0.1066531969247859,1.0,0
51.873573303222656,32.00722122192383,-2.9150476455688477,-0.0,-0.0,-1.0,0.15931795376845914,2.0,0
51.25726318359375,32.54157638549805,-2.248058795928955,-0.0,-0.0,-1.0,0.10490656426254882,1.0,0
51.745460510253906,32.36295700073242,-2.221670150756836,-0.0,-0.0,-1.0,0.18603330615722777,1.0,0
51.39846420288086,32.42561340332031,-2.2294273376464844,-0.0,-0.0,-1.0,0.09530769517855985,1.0,0
52.643104553222656,33.077945709228516,-3.148996114730835,-0.0,-0.0,-1.0,0.06715801724815539,1.0,0
52.40384292602539,33.03367614746094,-3.1359150409698486,-0.0,-0.0,-1.0,0.07271197895637929,1.0,0
50.243133544921875,32.80039596557617,-3.0739500522613525,-0.0,-0.0,-1.0,0.19920930939129902,1.0,0
52.28276062011719,32.72187805175781,-3.0710437297821045,-0.0,-0.0,-1.0,0.06879400731371539,1.0,0
50.64443588256836,32.51429748535156,-3.0154025554656982,-0.0,-0.0,-1.0,0.19923248593190346,1.0,0
50.309730529785156,32.589111328125,-3.030860185623169,-0.7454540656439865,-0.6496314264378367,-0.14925563908674486,0.2599131833824608,3.0,0
52.16653060913086,32.42893981933594,-3.0101072788238525,-0.0,-0.0,-1.0,0.1127346541293733,1.0,0
51.525726318359375,32.21023941040039,-2.958184003829956,-0.0,-0.0,-1.0,0.1312587768208978,2.0,0
51.138187408447266,32.212257385253906,-2.9557111263275146,-0.21707229910849282,0.19304701121189627,-0.9568764123030241,0.10224056965851745,4.0,0
50.88994598388672,32.32762908935547,-2.977949857711792,-0.0,-0.0,-1.0,0.19417843953792657,1.0,0
51.88667297363281,31.979694366455078,-2.915428400039673,0.7682277629319594,0.358250929328625,0.5305491267505145,0.15102262169390163,3.0,0
51.74249267578125,31.997529983520508,-2.9172756671905518,-0.0,-0.0,-1.0,0.1346594590825906,1.0,0
51.42763137817383,32.54789733886719,-2.2509472370147705,-0.0,-0.0,-1.0,0.11949869723641958,1.0,0
51.63619613647461,32.38374328613281,-2.224677085876465,-0.0,-0.0,-1.0,0.1615988024063119,1.0,0
52.536041259765625,32.19242858886719,-3.135307788848877,-0.0,-0.0,-1.0,0.1016243661970192,1.0,0
50.807037353515625,32.37936019897461,-3.122559070587158,-0.0,-0.0,-1.0,0.19405827919563198,1.0,0
50.58134460449219,32.45534133911133,-3.133664131164551,-0.0,-0.0,-1.0,0.18258449392885762,1.0,0
52.50176239013672,32.004459381103516,-3.0954604148864746,-0.0,-0.0,-1.0,0.09012819568342038,1.0,0
52.161685943603516,31.761234283447266,-3.0333127975463867,-0.0,-0.0,-1.0,0.05331851038778451,1.0,0
51.267250061035156,31.868572235107422,-3.0280308723449707,-0.0,-0.0,-1.0,0.05576568244339148,2.0,0
50.998905181884766,32.088924407958984,-3.066838264465332,-0.0,-0.0,-1.0,0.1094851198821015,1.0,0
51.99930191040039,31.656768798828125,-3.0062971115112305,-0.0,-0.0,-1.0,0.06583234424534155,1.0,0
51.66960144042969,31.651531219482422,-2.994752883911133,-0.0,-0.0,-1.0,0.08488762866336874,1.0,0
50.242584228515625,30.884586334228516,-2.8015966415405273,-0.0,-0.0,-1.0,0.0756393864301813,2.0,0
51.93422317504883,32.61872482299805,-2.4197001457214355,-0.0,-0.0,-1.0,0.1850202562513038,1.0,0
51.96747970581055,32.34231185913086,-2.37357759475708,-0.0,-0.0,-1.0,0.17743237121761515,1.0,0
51.43046188354492,32.49901580810547,-2.3870763778686523,-0.0,-0.0,-1.0,0.17263623198607372,1.0,0
52.00008773803711,32.07371520996094,-2.328808307647705,-0.0,-0.0,-1.0,0.11451108609390354,1.0,0
51.70823287963867,32.11842346191406,-2.328810214996338,-0.0,-0.0,-1.0,0.1877321732047263,2.0,0
50.64794921875,32.552093505859375,-2.971313238143921,-0.0,-0.0,-1.0,0.16705047782514407,2.0,0
50.458656311035156,32.649322509765625,-2.9665634632110596,-0.0,-0.0,-1.0,0.10660485239700689,1.0,0
52.579071044921875,32.07559585571289,-3.1464269161224365,-0.0,-0.0,-1.0,0.09065040900867849,1.0,0
52.35737609863281,32.06857681274414,-3.1122801303863525,-0.0,-0.0,-1.0,0.052031247290615916,1.0,0
50.981529235839844,32.329124450683594,-2.971287488937378,-0.4440543983457675,0.796995448550446,-0.4094068224879157,0.19411736875722194,4.0,0
50.82183837890625,32.40135955810547,-2.9645917415618896,-0.0,-0.0,-1.0,0.17116493134266594,2.0,0
50.359458923339844,32.58649444580078,-2.9424736499786377,-0.0,-0.0,-1.0,0.19774450993484413,2.0,0
52.57470703125,31.586299896240234,-3.055039167404175,-0.0,-0.0,-1.0,0.018333421419385355,1.0,0
52.084144592285156,31.82046127319336,-3.0262091159820557,-0.0,-0.0,-1.0,0.06860912081105798,1.0,0
51.77919387817383,31.732505798339844,-2.9664180278778076,-0.0,-0.0,-1.0,0.04018910603878579,1.0,0
51.41429138183594,31.99346160888672,-2.965130567550659,-0.0,-0.0,-1.0,0.06291487725812453,1.0,0
51.13216018676758,32.14833450317383,-2.956721067428589,-0.0,-0.0,-1.0,0.10676034427962472,2.0,0
51.39558792114258,31.3739013671875,-2.8458006381988525,-0.0,-0.0,-1.0,0.0840864947891819,1.0,0
51.79896545410156,32.55238342285156,-2.3450117111206055,-0.0,-0.0,-1.0,0.20910418149507837,2.0,0
51.913291931152344,32.18400955200195,-2.303973913192749,-0.0,-0.0,-1.0,0.19496747775884446,2.0,0
51.642860412597656,32.29267883300781,-2.28511118888855,-0.0,-0.0,-1.0,0.1935974848061614,1.0,0
51.381553649902344,32.507904052734375,-2.2846250534057617,-0.0,-0.0,-1.0,0.12644667052635944,1.0,0
52.610191345214844,32.5272331237793,-3.0248889923095703,-0.0,-0.0,-1.0,0.07421854660561816,1.0,0
52.35312271118164,32.084014892578125,-2.927182674407959,-0.0,-0.0,-1.0,0.08926956263015655,1.0,0
51.83380889892578,32.23139190673828,-2.9369044303894043,-0.0,-0.0,-1.0,0.12862224539369224,2.0,0
51.58212661743164,32.38409423828125,-2.9589390754699707,0.8975045050382132,-0.40938974199864187,0.16396860242862718,0.18595233381436954,3.0,0
51.266448974609375,32.350608825683594,-2.942859172821045,-0.0,-0.0,-1.0,0.10347048727543078,2.0,0
50.88914108276367,32.5344123840332,-2.969700336456299,-0.0,-0.0,-1.0,0.17280411959795805,1.0,0
51.01070022583008,32.36832809448242,-2.9395065307617188,-0.0,-0.0,-1.0,0.09628534053795712,2.0,0
50.758697509765625,32.5402717590332,-2.9679417610168457,-0.37754851470024386,0.7721736589716438,-0.5110821454893364,0.2379000799848265,4.0,0
50.505882263183594,32.66905975341797,-2.988368511199951,-0.0,-0.0,-1.0,0.14737238447472437,1.0,0
50.21408462524414,32.423988342285156,-2.9338741302490234,-0.0,-0.0,-1.0,0.20366426901043969,1.0,0
52.18470001220703,31.986663818359375,-2.9013848304748535,0.3335377030526469,0.34789707872938597,-0.8761964524317156,0.11963727889907702,3.0,0
51.97719192504883,32.03048324584961,-2.902228355407715,0.9804205111334088,-0.1492464340410898,0.12845669805395155,0.17404669430483918,3.0,0
51.693485260009766,32.32874298095703,-2.1911215782165527,-0.0,-0.0,-1.0,0.17158423440991516,1.0,0
51.40658187866211,32.51738739013672,-2.214831829071045,-0.0,-0.0,-1.0,0.11053543173496347,1.0,0
52.656639099121094,30.921131134033203,-3.0827133655548096,-0.0,-0.0,-1.0,0.01858390546813324,2.0,0
52.421085357666016,31.006046295166016,-3.0958168506622314,-0.0,-0.0,-1.0,0.013583866128275597,1.0,0
52.129032135009766,30.919132232666016,-3.0698511600494385,-0.0,-0.0,-1.0,0.10166785974185022,2.0,0
51.8350944519043,30.91114044189453,-3.0624725818634033,-0.0,-0.0,-1.0,0.051848768776846986,1.0,0
51.57630920410156,30.953258514404297,-3.0678675174713135,-0.0,-0.0,-1.0,0.023239732401087957,1.0,0
51.24171829223633,30.99380874633789,-3.0729434490203857,-0.0,-0.0,-1.0,0.011962546320086684,1.0,0
50.82953643798828,30.80438232421875,-3.026411294937134,-0.0,-0.0,-1.0,0.027919234055808026,1.0,0
50.76715850830078,31.042747497558594,-3.0803563594818115,-0.0,-0.0,-1.0,0.037829723147060665,1.0,0
52.12051773071289,32.4740104675293,-2.6499080657958984,-0.0,-0.0,-1.0,0.17605613067510112,1.0,0
51.84843444824219,32.52378845214844,-2.6571223735809326,-0.0,-0.0,-1.0,0.2523124173502757,2.0,0
52.42649459838867,32.31809616088867,-2.9942634105682373,-0.0,-0.0,-1.0,0.10524991413295302,1.0,0
52.17954635620117,31.962139129638672,-2.9130842685699463,0.3335377030526469,0.34789707872938597,-0.8761964524317156,0.10608776941971708,3.0,0
51.97677230834961,32.01433181762695,-2.9177911281585693,0.8906309011590989,-0.35435928005639156,0.28496683761176034,0.17404669430483913,4.0,0
51.64092254638672,32.2308349609375,-2.953632116317749,-0.0,-0.0,-1.0,0.09057385473789024,2.0,0
51.233680725097656,32.29345703125,-2.9574429988861084,-0.0,-0.0,-1.0,0.06540386493504864,1.0,0
50.789310455322266,32.52457809448242,-2.9979193210601807,-0.6338555790293887,0.19383932784368116,-0.748767934619551,0.21294204665316047,3.0,0
50.95929718017578,32.31094741821289,-2.955824613571167,-0.0,-0.0,-1.0,0.22829310950037465,2.0,0
50.43336486816406,32.61845397949219,-3.013036012649536,-0.0,-0.0,-1.0,0.12186003597961403,1.0,0
51.791263580322266,32.38839340209961,-2.23940372467041,-0.0,-0.0,-1.0,0.2394045690003768,1.0,0
51.17327880859375,33.02975845336914,-2.341709613800049,-0.0,-0.0,-1.0,0.21092668677942444,1.0,0
51.51289367675781,32.3872184753418,-2.2346277236938477,-0.0,-0.0,-1.0,0.1231132344212562,1.0,0
51.35130310058594,32.47758865356445,-2.247979164123535,-0.0,-0.0,-1.0,0.11050833085141697,1.0,0
52.01682662963867,32.219810485839844,-2.2145369052886963,-0.0,-0.0,-1.0,0.16759561078891738,1.0,0
51.743350982666016,32.294429779052734,-2.22231125831604,-0.0,-0.0,-1.0,0.18796083581159553,1.0,0
52.59614181518555,30.67951202392578,-3.2545032501220703,-0.0,-0.0,-1.0,0.039000391122283005,1.0,0
51.97301483154297,30.70854949951172,-3.176548957824707,-0.0,-0.0,-1.0,0.10210853873997967,1.0,0
51.648162841796875,30.778499603271484,-3.1489968299865723,-0.0,-0.0,-1.0,0.050952771165076544,1.0,0
51.38509750366211,30.700557708740234,-3.1000518798828125,-0.0,-0.0,-1.0,0.0339081007201522,2.0,0
51.159358978271484,30.681289672851562,-3.068606376647949,-0.0,-0.0,-1.0,0.02042162585208546,1.0,0
50.38866424560547,30.889026641845703,-3.023308753967285,-0.0,-0.0,-1.0,0.07832703524993205,1.0,0
51.90382766723633,32.571754455566406,-2.787652015686035,-0.0,-0.0,-1.0,0.18417026876660172,1.0,0
51.553375244140625,32.510093688964844,-2.738741874694824,-0.0,-0.0,-1.0,0.15595906169892312,2.0,0
51.69511032104492,32.37834548950195,-2.7313671112060547,-0.0,-0.0,-1.0,0.2121784273345627,2.0,0
51.45568084716797,32.48765563964844,-2.7245140075683594,0.10444624352056196,0.5515563611006749,-0.8275726933290064,0.16026421882275077,4.0,0
51.4178352355957,32.55108642578125,-1.9853509664535522,-0.0,-0.0,-1.0,0.11132638503418943,1.0,0
52.686763763427734,30.80221176147461,-3.1591265201568604,-0.0,-0.0,-1.0,0.02518099522491449,2.0,0
52.61367416381836,30.804306030273438,-3.1543128490448,-0.0,-0.0,-1.0,0.030273775133730606,2.0,0
52.39232635498047,30.71354103088379,-3.1189873218536377,-0.0,-0.0,-1.0,0.0391994543878979,1.0,0
52.12567138671875,30.761056900024414,-3.1113522052764893,-0.0,-0.0,-1.0,0.11996684623996479,1.0,0
51.7025032043457,30.82701301574707,-3.099013566970825,-0.0,-0.0,-1.0,0.05002255524939185,1.0,0
51.32622528076172,30.878570556640625,-3.0885016918182373,-0.0,-0.0,-1.0,0.022234271263261968,2.0,0
50.958465576171875,30.920101165771484,-3.0780742168426514,-0.0,-0.0,-1.0,0.027549354976556622,1.0,0
50.50734329223633,30.697492599487305,-3.0058157444000244,-0.0,-0.0,-1.0,0.05058415799669827,1.0,0
52.08616256713867,32.46623611450195,-2.7226574420928955,-0.0,-0.0,-1.0,0.156455808846706,1.0,0
51.72019958496094,32.39948272705078,-2.694065570831299,-0.0,-0.0,-1.0,0.21187079115200425,2.0,0
51.42317581176758,32.518226623535156,-2.7045657634735107,-0.7289453779268512,-0.6624690186065565,-0.17254980552161278,0.15553171404926586,3.0,0
52.65766906738281,31.283367156982422,-3.1401190757751465,0.5613461088922403,-0.7106308887137301,-0.42413946531474206,0.014968701538999008,3.0,0
52.3804817199707,31.035659790039062,-3.0668258666992188,-0.0,-0.0,-1.0,0.015241245098405546,1.0,0
52.13850021362305,31.159889221191406,-3.0733985900878906,-0.0,-0.0,-1.0,0.04558400030903757,1.0,0
51.732032775878906,31.171436309814453,-3.045429229736328,-0.0,-0.0,-1.0,0.04410517271230087,2.0,0
51.358680725097656,31.29732894897461,-3.045604705810547,-0.0,-0.0,-1.0,0.044290076037121644,1.0,0
51.033016204833984,31.436111450195312,-3.053637981414795,-0.0,-0.0,-1.0,0.03683350977167005,1.0,0
51.88043975830078,32.4944953918457,-2.570138931274414,-0.0,-0.0,-1.0,0.17323465843418615,1.0,0
51.68054962158203,31.05644989013672,-3.01754093170166,-0.0,-0.0,-1.0,0.02986081039286629,2.0,0
51.148372650146484,31.270336151123047,-3.025827407836914,-0.0,-0.0,-1.0,0.03464203771017606,1.0,0
51.070899963378906,31.259784698486328,-3.0185546875,-0.0,-0.0,-1.0,0.026477504435371214,1.0,0
50.52519226074219,31.149574279785156,-2.961552619934082,-0.0,-0.0,-1.0,0.07737282168446764,1.0,0
50.301544189453125,30.742538452148438,-2.8609490394592285,-0.0,-0.0,-1.0,0.07193781119499572,1.0,0
51.584877014160156,32.44029235839844,-2.545015811920166,-0.0,-0.0,-1.0,0.14265976947545544,2.0,0
51.43516540527344,32.545555114746094,-2.556244373321533,-0.0,-0.0,-1.0,0.18266414243925272,2.0,0
51.82442092895508,32.1887321472168,-2.91501522064209,-0.0,-0.0,-1.0,0.13490335854390031,2.0,0
51.528419494628906,32.38449478149414,-2.9337615966796875,-0.08161524282909557,-0.7343304833246077,-0.6738677120905817,0.1916383995955592,3.0,0
51.341487884521484,32.5020751953125,-2.94502592086792,-0.0,-0.0,-1.0,0.18891461567574402,1.0,0
50.713714599609375,32.6831169128418,-2.9445338249206543,-0.0,-0.0,-1.0,0.14171418786351214,1.0,0
52.20027542114258,31.975343704223633,-2.8999505043029785,0.3335377030526469,0.34789707872938597,-0.8761964524317156,0.10608776941971708,3.0,0
51.896026611328125,32.08677673339844,-2.900317668914795,-0.0,-0.0,-1.0,0.10955851265352111,1.0,0
51.139862060546875,32.40179443359375,-2.9133524894714355,-0.0,-0.0,-1.0,0.14480101923335978,2.0,0
50.787845611572266,32.524009704589844,-2.9172348976135254,0.0524862105691646,-0.3171328266147211,-0.9469276466464831,0.16277764628371846,3.0,0
50.39934539794922,32.602577209472656,-2.912003993988037,0.6434819795238111,-0.7335764770133457,-0.21862409382500914,0.19783347828784706,3.0,0
