x,y,z,nx,ny,nz,curvature,density,label
48.604248046875,30.892196655273438,-2.5597972869873047,-0.0,-0.0,-1.0,0.1330244476704648,1.0,0
48.36054229736328,33.06203079223633,-3.096881151199341,-0.0,-0.0,-1.0,0.004365365725378545,1.0,0
47.98223114013672,31.54492950439453,-2.908337354660034,-0.0,-0.0,-1.0,0.05134350787126832,1.0,0
48.1906623840332,31.541290283203125,-2.7671148777008057,0.747046638244862,0.6030240850110122,-0.2797914816138642,0.17124517103703554,3.0,0
49.84107208251953,32.218727111816406,-2.9173007011413574,-0.3971296573479637,0.33448821738940177,-0.8546377406143199,0.11692071929185566,3.0,0
47.93418884277344,31.391916275024414,-2.8942925930023193,-0.0,-0.0,-1.0,0.03397064650202667,1.0,0
48.24114227294922,31.4417781829834,-2.678828239440918,-0.0,-0.0,-1.0,0.1379689369791835,1.0,0
48.41823959350586,32.97771453857422,-3.0982797145843506,-0.0,-0.0,-1.0,0.004365365725378544,2.0,0
48.687095642089844,30.71350860595703,-2.6778910160064697,-0.0,-0.0,-1.0,0.16661129520480708,1.0,0
48.17927551269531,33.02644729614258,-3.1486189365386963,-0.879259484270167,0.3517206912282773,-0.3212402756238129,0.011711772861419592,3.0,0
48.610809326171875,30.677413940429688,-2.7069880962371826,-0.0,-0.0,-1.0,0.15494355566376827,2.0,0
49.855648040771484,32.118736267089844,-2.929245948791504,-0.0,-0.0,-1.0,0.13853934489637423,2.0,0
48.81514358520508,31.21906280517578,-2.756084442138672,-0.0,-0.0,-1.0,0.11118812821854417,1.0,0
48.417781829833984,30.921464920043945,-2.702296257019043,-0.0,-0.0,-1.0,0.1438229417004345,1.0,0
48.3102912902832,30.928403854370117,-2.7149226665496826,-0.0,-0.0,-1.0,0.1600532406066038,1.0,0
49.90186309814453,32.35108184814453,-2.8434927463531494,-0.16153240688040102,-0.750120001195847,-0.6412700408824407,0.16097710731626094,3.0,0
49.245094299316406,31.188106536865234,-2.578406810760498,-0.0,-0.0,-1.0,0.13774480215025672,2.0,0
49.02308654785156,31.238731384277344,-2.6318132877349854,-0.0,-0.0,-1.0,0.11405844217188119,2.0,0
48.16813278198242,31.16377067565918,-2.7812769412994385,-0.0,-0.0,-1.0,0.11545562271643252,1.0,0
48.31002426147461,31.401386260986328,-2.7921643257141113,-0.8379213898498294,0.5336545112871409,0.11445788314927408,0.13813221349318922,3.0,0
48.62532424926758,31.096328735351562,-2.768775463104248,-0.0,-0.0,-1.0,0.0717062236717091,2.0,0
48.64383316040039,30.685842514038086,-2.7667102813720703,-0.0,-0.0,-1.0,0.15194726768019254,2.0,0
48.713035583496094,30.64107894897461,-2.7727479934692383,-0.0,-0.0,-1.0,0.15494355566376836,2.0,0
48.23628616333008,30.715614318847656,-2.72428560256958,-0.0,-0.0,-1.0,0.0866030171760693,1.0,0
48.4401969909668,31.03378677368164,-2.763524055480957,-0.0,-0.0,-1.0,0.1342919075651656,2.0,0
49.98699951171875,32.4698371887207,-2.9660706520080566,-0.0,-0.0,-1.0,0.0859978265732422,1.0,0
48.59406280517578,30.734973907470703,-2.73593807220459,-0.0,-0.0,-1.0,0.1558749981273995,2.0,0
49.52242660522461,32.63829803466797,-3.0673458576202393,-0.0,-0.0,-1.0,0.042982585457754775,2.0,0
48.59192657470703,32.015716552734375,-2.9165890216827393,-0.0,-0.0,-1.0,0.015809192642358066,1.0,0
48.204376220703125,31.404870986938477,-2.8241913318634033,-0.0,-0.0,-1.0,0.11652604468467316,2.0,0
49.82659912109375,32.344825744628906,-2.761272430419922,-0.0,-0.0,-1.0,0.1357300953490821,1.0,0
49.833984375,32.51459503173828,-2.7711586952209473,-0.0,-0.0,-1.0,0.1172389045670848,1.0,0
48.617637634277344,30.746570587158203,-2.553743362426758,-0.0,-0.0,-1.0,0.11495518868139801,1.0,0
48.47957992553711,31.086345672607422,-2.556985855102539,-0.0,-0.0,-1.0,0.1424752868869097,1.0,0
48.4354133605957,31.311729431152344,-2.5641980171203613,-0.0,-0.0,-1.0,0.12301004724629971,1.0,0
48.36186599731445,31.441967010498047,-2.5635194778442383,-0.0,-0.0,-1.0,0.15755970404691017,1.0,0
48.06924819946289,31.161043167114258,-2.9639644622802734,-0.0,-0.0,-1.0,0.0597571393681775,1.0,0
48.47718048095703,30.873146057128906,-2.903102397918701,-0.0,-0.0,-1.0,0.14220522323163137,1.0,0
48.339637756347656,31.13028335571289,-2.9006099700927734,-0.0,-0.0,-1.0,0.1395325376643796,2.0,0
48.20322799682617,30.641799926757812,-2.8584752082824707,-0.0,-0.0,-1.0,0.09407906424983978,1.0,0
48.146697998046875,31.2867488861084,-2.886392593383789,-0.0,-0.0,-1.0,0.09509395353538286,1.0,0
49.50508117675781,32.63764953613281,-3.0438616275787354,-0.0,-0.0,-1.0,0.04298258545775474,2.0,0
49.32672882080078,32.74094009399414,-3.023916006088257,-0.0,-0.0,-1.0,0.022378782857499436,1.0,0
48.24760437011719,31.102859497070312,-2.846003293991089,0.233533422442048,0.9352351292475025,0.2660777961873403,0.15564406655064023,3.0,0
48.142303466796875,31.279006958007812,-2.836399793624878,-0.6415511316730291,0.6666001362621891,0.3795476304553706,0.08545285322799931,3.0,0
49.821685791015625,32.24867248535156,-2.99357533454895,0.6238386256246814,0.014980422525324217,-0.7814095956153031,0.06974018408690065,3.0,0
49.75666809082031,32.45695877075195,-2.9903366565704346,-0.5552177296146127,-0.7852370296813751,-0.27410961299955505,0.06046188526611491,3.0,0
48.4522819519043,31.230133056640625,-2.795732259750366,-0.0,-0.0,-1.0,0.08108013376045496,2.0,0
48.30012512207031,30.845252990722656,-2.7683804035186768,-0.0,-0.0,-1.0,0.1541227471255272,1.0,0
49.3397331237793,32.65509796142578,-3.0790534019470215,-0.0,-0.0,-1.0,0.03068582522823315,2.0,0
50.16255187988281,30.946056365966797,-2.795933485031128,-0.0,-0.0,-1.0,0.028874550926164005,2.0,0
48.383724212646484,30.877737045288086,-2.8206088542938232,-0.0,-0.0,-1.0,0.16741143444337858,1.0,0
49.320186614990234,32.361656188964844,-3.0125763416290283,-0.0,-0.0,-1.0,0.05267297449066791,1.0,0
49.73282241821289,32.931087493896484,-3.095214605331421,-0.0,-0.0,-1.0,0.04397991257145285,1.0,0
48.47915267944336,31.695972442626953,-2.868910074234009,-0.0,-0.0,-1.0,0.020758275090004337,1.0,0
48.53487014770508,31.962343215942383,-2.8884084224700928,-0.0,-0.0,-1.0,0.019870059991542777,1.0,0
48.97532272338867,32.08919906616211,-2.9535071849823,-0.0,-0.0,-1.0,0.011018550643170527,1.0,0
49.276519775390625,32.71536636352539,-3.023399591445923,-0.0,-0.0,-1.0,0.022378782857499425,1.0,0
49.50788116455078,33.06864547729492,-3.0716216564178467,-0.0,-0.0,-1.0,0.02377863951386646,2.0,0
48.34375,31.834836959838867,-2.8569047451019287,-0.0,-0.0,-1.0,0.027045436005426273,1.0,0
48.09900665283203,30.681785583496094,-2.7741353511810303,-0.0,-0.0,-1.0,0.12201518334109658,2.0,0
48.278846740722656,31.086334228515625,-2.8153398036956787,-0.0,-0.0,-1.0,0.23202855929752048,2.0,0
48.089759826660156,31.29613494873047,-2.79890513420105,-0.0,-0.0,-1.0,0.07304924018458663,2.0,0
49.734432220458984,31.76716423034668,-2.9929986000061035,-0.0,-0.0,-1.0,0.016607489674033585,1.0,0
48.35063552856445,30.7347354888916,-2.794745922088623,-0.0,-0.0,-1.0,0.1422929342631856,2.0,0
48.827003479003906,31.391881942749023,-2.865910053253174,-0.0,-0.0,-1.0,0.06734383488899998,1.0,0
49.47256088256836,31.636266708374023,-2.956021308898926,-0.0,-0.0,-1.0,0.03342197126849268,1.0,0
49.63322448730469,32.04975128173828,-2.9827680587768555,-0.0,-0.0,-1.0,0.03138534153636351,1.0,0
48.29616165161133,30.937606811523438,-2.7893519401550293,-0.0,-0.0,-1.0,0.18417746122226966,1.0,0
48.62104797363281,31.25741958618164,-2.836587905883789,-0.0,-0.0,-1.0,0.08382808394685062,1.0,0
48.804473876953125,31.52971649169922,-2.8643999099731445,-0.0,-0.0,-1.0,0.04059529050591315,1.0,0
49.59047317504883,32.32980728149414,-2.980560302734375,-0.49301974858585107,0.7392279302949024,-0.45877401253368666,0.05879439594114242,3.0,0
48.310123443603516,30.99661636352539,-2.837606430053711,-0.0,-0.0,-1.0,0.22689823255610023,2.0,0
48.33939743041992,30.866121292114258,-2.8431668281555176,-0.0,-0.0,-1.0,0.13292301256258687,1.0,0
48.23374557495117,31.379350662231445,-2.8229990005493164,-0.0,-0.0,-1.0,0.12136437748823246,2.0,0
48.67265701293945,31.75534439086914,-2.882277011871338,-0.0,-0.0,-1.0,0.016442412165759885,1.0,0
49.135536193847656,31.988300323486328,-2.946437358856201,-0.0,-0.0,-1.0,0.009802336339174086,1.0,0
49.57722854614258,32.30435562133789,-3.0073375701904297,-0.0,-0.0,-1.0,0.06429102404765029,2.0,0
49.56648254394531,32.702186584472656,-3.0036516189575195,-0.0,-0.0,-1.0,0.03698013052599247,1.0,0
48.58643341064453,32.361717224121094,-3.1119158267974854,-0.0,-0.0,-1.0,0.00983983065417694,1.0,0
48.41625213623047,32.8718147277832,-3.0999443531036377,-0.0,-0.0,-1.0,0.011711772861419603,1.0,0
48.70188903808594,32.61175537109375,-3.136279344558716,-0.0,-0.0,-1.0,0.0075032222437964105,1.0,0
49.01614761352539,31.080245971679688,-2.5787911415100098,-0.0,-0.0,-1.0,0.10185772625294355,1.0,0
48.66958236694336,32.46478271484375,-3.121520519256592,-0.0,-0.0,-1.0,0.009714138103605996,1.0,0
48.70629119873047,33.0912971496582,-3.1305017471313477,-0.0,-0.0,-1.0,0.005061071805820823,1.0,0
48.354305267333984,32.711246490478516,-3.074084758758545,-0.0,-0.0,-1.0,0.010232477122495677,2.0,0
48.45594787597656,32.961299896240234,-3.0911145210266113,-0.0,-0.0,-1.0,0.004833301680968376,2.0,0
48.22405242919922,30.95423126220703,-2.7388458251953125,-0.16378177195704127,0.7484501085553283,-0.6426491781509792,0.15001939687403507,3.0,0
48.22813415527344,31.448223114013672,-2.7796506881713867,0.3265332864422902,0.8014459181631952,0.5010593309227468,0.20443495647961688,3.0,0
48.316734313964844,31.120952606201172,-2.765125274658203,-0.0,-0.0,-1.0,0.22697168666323722,2.0,0
48.61796569824219,31.95195770263672,-2.874593734741211,-0.0,-0.0,-1.0,0.01620169841337521,1.0,0
49.40282440185547,32.66269302368164,-3.0409984588623047,-0.264976824965546,0.49573964047692864,-0.8270607541716537,0.032351837750668216,3.0,0
49.441490173339844,32.54917907714844,-3.036836624145508,-0.0,-0.0,-1.0,0.05749774430209902,1.0,0
47.897117614746094,30.676603317260742,-2.6713409423828125,-0.0,-0.0,-1.0,0.21032920714916484,2.0,0
49.356163024902344,30.862987518310547,-2.7389893531799316,-0.0,-0.0,-1.0,0.07975653583912923,1.0,0
49.293785095214844,31.01926040649414,-2.7498064041137695,-0.0,-0.0,-1.0,0.080486829945147,2.0,0
50.200843811035156,30.70583724975586,-2.823089122772217,0.9919537224168501,0.02939055194848532,-0.12314222687412307,0.02817292992896134,3.0,0
49.37982940673828,31.434070587158203,-2.809174060821533,-0.0,-0.0,-1.0,0.07456291823113567,1.0,0
49.740631103515625,32.463050842285156,-2.9753050804138184,-0.5552177296146127,-0.7852370296813751,-0.27410961299955505,0.05777594929108486,3.0,0
49.58613967895508,32.7642936706543,-2.9932456016540527,-0.0,-0.0,-1.0,0.05185855565114057,1.0,0
49.62901306152344,32.59320831298828,-2.977665901184082,-0.0,-0.0,-1.0,0.07274519489301756,2.0,0
49.32011795043945,30.65896987915039,-2.7107348442077637,-0.0,-0.0,-1.0,0.06297845195545307,1.0,0
49.072654724121094,31.151687622070312,-2.738755702972412,0.025858332205682392,0.9990077130344059,-0.036262045630474304,0.06153034540798581,3.0,0
48.18047332763672,31.12706756591797,-2.8863179683685303,-0.0,-0.0,-1.0,0.1090054312517625,1.0,0
48.393218994140625,31.07579231262207,-2.9102299213409424,-0.0,-0.0,-1.0,0.14773265614962422,1.0,0
48.04225158691406,31.705507278442383,-2.9360339641571045,-0.0,-0.0,-1.0,0.05522376725803159,1.0,0
48.05158996582031,31.888179779052734,-2.959399461746216,-0.0,-0.0,-1.0,0.037070919294606645,1.0,0
48.29377746582031,32.213016510009766,-3.0324738025665283,-0.0,-0.0,-1.0,0.013921917627832228,1.0,0
48.35356140136719,32.8631477355957,-3.120401620864868,-0.0,-0.0,-1.0,0.011711772861419625,1.0,0
48.74348449707031,32.73546600341797,-3.1585400104522705,-0.0,-0.0,-1.0,0.006526408159705037,1.0,0
48.786460876464844,32.636329650878906,-3.1523869037628174,-0.0,-0.0,-1.0,0.006189194108513561,1.0,0
48.21519470214844,30.74336814880371,-2.8460514545440674,-0.0,-0.0,-1.0,0.10090898056057576,1.0,0
48.00360107421875,31.318557739257812,-2.884242296218872,-0.9309168115431398,-0.09516268268868117,-0.35261587288414536,0.049426613891841234,3.0,0
49.284210205078125,32.73600769042969,-3.1030242443084717,-0.07850387659140624,-0.5741772538315815,-0.8149586630882237,0.02112067865209932,3.0,0
49.42157745361328,32.57167053222656,-3.100536584854126,-0.0,-0.0,-1.0,0.05082273313799981,1.0,0
49.338523864746094,32.95114517211914,-3.1389129161834717,-0.0,-0.0,-1.0,0.013312138890690623,1.0,0
47.887210845947266,30.731937408447266,-2.647444486618042,-0.0,-0.0,-1.0,0.21799629965386763,2.0,0
48.6851806640625,30.657041549682617,-2.750793695449829,-0.036144958138206854,0.7859110281737139,-0.617282267521207,0.1549435556637683,3.0,0
48.42478942871094,31.06316375732422,-2.7656447887420654,-0.0,-0.0,-1.0,0.12011942772028049,2.0,0
48.292320251464844,31.372440338134766,-2.7868125438690186,-0.8379213898498294,0.5336545112871409,0.11445788314927408,0.09851596644102205,3.0,0
48.36774826049805,31.708969116210938,-2.841052293777466,-0.0,-0.0,-1.0,0.025862116929431536,1.0,0
48.67578125,30.677217483520508,-2.724555730819702,-0.0,-0.0,-1.0,0.15494355566376833,2.0,0
48.281166076660156,31.039772033691406,-2.714306116104126,-0.0,-0.0,-1.0,0.15804656262355002,2.0,0
48.64173889160156,30.935945510864258,-2.752901315689087,-0.0,-0.0,-1.0,0.17165512093465635,1.0,0
48.30897903442383,31.393840789794922,-2.7646358013153076,-0.8379213898498294,0.5336545112871409,0.11445788314927408,0.1537423529734309,3.0,0
48.573509216308594,31.914045333862305,-2.8710901737213135,-0.0,-0.0,-1.0,0.02168197927256772,2.0,0
49.28347396850586,32.69833755493164,-3.0764129161834717,-0.07850387659140624,-0.5741772538315815,-0.8149586630882237,0.01977371404962042,3.0,0
49.140159606933594,32.91127014160156,-3.0846097469329834,-0.0,-0.0,-1.0,0.009466449250924951,2.0,0
48.86418914794922,30.78061866760254,-2.7241342067718506,-0.0,-0.0,-1.0,0.052326553406829505,1.0,0
48.43439865112305,31.37432098388672,-2.743757486343384,-0.0,-0.0,-1.0,0.13745375135839363,2.0,0
48.73115539550781,31.807296752929688,-2.8469440937042236,-0.0,-0.0,-1.0,0.016581510215254464,1.0,0
49.40993118286133,32.634037017822266,-3.0604517459869385,-0.264976824965546,0.49573964047692864,-0.8270607541716537,0.03068582522823314,3.0,0
49.508209228515625,32.474212646484375,-3.051983118057251,-0.0,-0.0,-1.0,0.07541702917981573,2.0,0
49.38078689575195,32.97616958618164,-3.1047937870025635,-0.0,-0.0,-1.0,0.012480241594531377,1.0,0
48.24748229980469,31.01875877380371,-2.667311906814575,-0.0,-0.0,-1.0,0.14477195958873912,1.0,0
48.533935546875,30.921268463134766,-2.695363759994507,0.23949229641790712,-0.4147524328917221,-0.8778518436313014,0.1796085379313477,3.0,0
49.83766174316406,32.21644592285156,-2.9166088104248047,-0.3971296573479637,0.33448821738940177,-0.8546377406143199,0.11692071929185566,3.0,0
49.743099212646484,32.549129486083984,-2.950385093688965,0.10656766137225862,-0.17730975513635075,-0.9783683275143032,0.07451918449861357,3.0,0
49.42694091796875,31.141456604003906,-2.7242445945739746,-0.0,-0.0,-1.0,0.09876570036541889,1.0,0
50.18165588378906,30.90966796875,-2.785399913787842,0.7802432382999405,0.4344317929838259,-0.4499883402179224,0.028874550926164033,4.0,0
48.00624084472656,30.755626678466797,-2.873892068862915,-0.0,-0.0,-1.0,0.18067503981928965,1.0,0
47.81732177734375,31.35308074951172,-2.9404194355010986,-0.0,-0.0,-1.0,0.046346108470664844,1.0,0
48.32148361206055,30.64560317993164,-2.8356969356536865,-0.0,-0.0,-1.0,0.09838433374490906,1.0,0
48.088829040527344,31.232379913330078,-2.891159772872925,-0.0,-0.0,-1.0,0.08383958732641814,1.0,0
48.25236511230469,31.13897705078125,-2.899409055709839,-0.0,-0.0,-1.0,0.1404609615787354,2.0,0
48.0035514831543,31.39261817932129,-2.9037554264068604,-0.0,-0.0,-1.0,0.03757832699884982,2.0,0
48.049800872802734,31.841217041015625,-2.9777772426605225,-0.0,-0.0,-1.0,0.04770652525872341,2.0,0
48.40809631347656,32.66217041015625,-3.15044903755188,-0.0,-0.0,-1.0,0.01127560765073352,1.0,0
48.5618896484375,32.71214294433594,-3.1784474849700928,-0.0,-0.0,-1.0,0.006966960698046843,1.0,0
48.169654846191406,32.984161376953125,-3.1685845851898193,-0.879259484270167,0.3517206912282773,-0.3212402756238129,0.011711772861419592,3.0,0
49.49815368652344,33.108428955078125,-3.0888752937316895,-0.0,-0.0,-1.0,0.021849015245844407,2.0,0
49.089073181152344,31.054094314575195,-2.7182083129882812,-0.0,-0.0,-1.0,0.10954899037604389,1.0,0
49.479331970214844,31.077295303344727,-2.7701683044433594,-0.0,-0.0,-1.0,0.07486942432052576,1.0,0
48.16917419433594,31.469972610473633,-2.674562454223633,-0.0,-0.0,-1.0,0.14643559268285045,1.0,0
49.29157257080078,31.309789657592773,-2.782008171081543,-0.0,-0.0,-1.0,0.1127804196434299,1.0,0
49.89036560058594,31.266477584838867,-2.8499932289123535,-0.0,-0.0,-1.0,0.026304078479987107,1.0,0
50.144535064697266,31.40475082397461,-2.9026103019714355,-0.0,-0.0,-1.0,0.022595096708779613,1.0,0
49.803924560546875,32.32463073730469,-2.9997572898864746,-0.0,-0.0,-1.0,0.0662129072648885,2.0,0
49.58866500854492,32.61437225341797,-3.0181965827941895,-0.0,-0.0,-1.0,0.03998248086541642,2.0,0
49.67577362060547,32.47412109375,-3.0070929527282715,-0.0,-0.0,-1.0,0.048935214219093665,1.0,0
48.631500244140625,30.83273696899414,-2.6794257164001465,-0.0,-0.0,-1.0,0.15132336994939985,2.0,0
50.19663619995117,30.679975509643555,-2.8631553649902344,-0.0,-0.0,-1.0,0.028172929928961414,2.0,0
48.357852935791016,31.254697799682617,-2.7113265991210938,-0.0,-0.0,-1.0,0.12267382464486845,2.0,0
48.48560333251953,30.979839324951172,-2.683887481689453,-0.0,-0.0,-1.0,0.2499317165788847,2.0,0
49.023902893066406,30.901958465576172,-2.741461753845215,-0.0,-0.0,-1.0,0.0752019945277769,1.0,0
48.163299560546875,31.509244918823242,-2.727558135986328,-0.0,-0.0,-1.0,0.1762200826663662,1.0,0
48.53122329711914,31.78551483154297,-2.818488121032715,-0.0,-0.0,-1.0,0.01973185323440643,1.0,0
49.162925720214844,32.89178466796875,-3.076443672180176,-0.0,-0.0,-1.0,0.01136917647677677,2.0,0
47.89581298828125,30.71617889404297,-2.5663108825683594,-0.0,-0.0,-1.0,0.2399887137972097,1.0,0
48.30413055419922,30.709495544433594,-2.8414816856384277,-0.0,-0.0,-1.0,0.09808411682142876,1.0,0
48.003196716308594,31.254989624023438,-2.915926933288574,-0.0,-0.0,-1.0,0.04843316568032246,1.0,0
48.20527267456055,31.066301345825195,-2.900940418243408,-0.0,-0.0,-1.0,0.17281008144637477,1.0,0
47.76610565185547,31.43663787841797,-2.926413059234619,-0.0,-0.0,-1.0,0.04564903001898561,2.0,0
49.388092041015625,32.72798156738281,-3.051222085952759,-0.0,-0.0,-1.0,0.026033210865250574,1.0,0
49.54494857788086,32.57115936279297,-3.0363247394561768,-0.0,-0.0,-1.0,0.07689959170184364,2.0,0
49.28525161743164,30.83081817626953,-2.672487497329712,-0.0,-0.0,-1.0,0.09044246947999593,1.0,0
49.653568267822266,30.764976501464844,-2.6999027729034424,-0.0,-0.0,-1.0,0.038096099571582956,1.0,0
48.81755447387695,31.181751251220703,-2.690945863723755,0.18000090488685194,0.0505093684576189,-0.9823688095302736,0.12129163816540017,3.0,0
49.201942443847656,31.14255142211914,-2.723468542098999,-0.0,-0.0,-1.0,0.09171081162101027,1.0,0
49.62436294555664,31.113964080810547,-2.763171911239624,-0.0,-0.0,-1.0,0.05138281660519509,1.0,0
48.228275299072266,31.521474838256836,-2.6979143619537354,-0.0,-0.0,-1.0,0.17555091026323774,2.0,0
48.39302062988281,31.416454315185547,-2.6936066150665283,-0.0,-0.0,-1.0,0.15285525923442567,1.0,0
48.955963134765625,31.366878509521484,-2.741147756576538,-0.0,-0.0,-1.0,0.11434051999170596,1.0,0
49.1146240234375,31.46851348876953,-2.7773239612579346,-0.0,-0.0,-1.0,0.0657992354855696,1.0,0
49.71673583984375,31.368736267089844,-2.821784257888794,-0.0,-0.0,-1.0,0.041120414933564435,1.0,0
50.091854095458984,31.35047149658203,-2.858930826187134,-0.0,-0.0,-1.0,0.026832703979135123,1.0,0
49.806121826171875,32.274444580078125,-3.005506753921509,-0.0,-0.0,-1.0,0.06921219834676216,2.0,0
48.648834228515625,30.79364013671875,-2.6890695095062256,-0.0,-0.0,-1.0,0.15319031085899612,2.0,0
49.12726593017578,30.81363296508789,-2.7506206035614014,-0.0,-0.0,-1.0,0.07018096747731115,1.0,0
48.45375061035156,31.14971160888672,-2.736257791519165,-0.0,-0.0,-1.0,0.22000082999653706,1.0,0
48.537010192871094,30.991294860839844,-2.7146856784820557,-0.0,-0.0,-1.0,0.26545824339005786,2.0,0
49.06756591796875,30.930282592773438,-2.766008138656616,-0.0,-0.0,-1.0,0.07643297319435526,2.0,0
48.20322799682617,31.519275665283203,-2.7810118198394775,-0.0,-0.0,-1.0,0.17124517103703557,2.0,0
48.55879592895508,31.912872314453125,-2.9000003337860107,-0.0,-0.0,-1.0,0.02168197927256771,2.0,0
48.84940719604492,32.76996994018555,-3.1042511463165283,-0.0,-0.0,-1.0,0.00653815360853977,1.0,0
48.31757736206055,33.128055572509766,-3.1178934574127197,-0.0,-0.0,-1.0,0.004365365725378545,1.0,0
48.6661491394043,32.99654769897461,-3.1293389797210693,-0.0,-0.0,-1.0,0.005228106308867061,1.0,0
47.9617919921875,30.828908920288086,-2.6157686710357666,-0.0,-0.0,-1.0,0.24112559738925182,1.0,0
48.22494888305664,31.91400146484375,-2.9189531803131104,-0.0,-0.0,-1.0,0.02951072851120348,1.0,0
48.323020935058594,32.72411346435547,-3.1004626750946045,-0.0,-0.0,-1.0,0.010232477122495677,2.0,0
48.524742126464844,32.76494598388672,-3.1315500736236572,-0.0,-0.0,-1.0,0.006966960698046795,1.0,0
47.829017639160156,32.97886657714844,-3.1007893085479736,-0.0,-0.0,-1.0,0.012050666393903077,1.0,0
48.16508483886719,32.99787521362305,-3.1410610675811768,0.19760384855094518,0.3689826922711485,-0.9081874761535697,0.011711772861419592,4.0,0
47.89535140991211,30.72391128540039,-2.6322145462036133,-0.0,-0.0,-1.0,0.21799629965386763,2.0,0
48.627197265625,30.704891204833984,-2.7146332263946533,0.22665290992620768,-0.38419916368928186,-0.8949969056049517,0.15494355566376833,3.0,0
48.29724884033203,31.02134895324707,-2.7408478260040283,-0.0,-0.0,-1.0,0.19976479769247552,2.0,0
48.58982849121094,31.056114196777344,-2.782574415206909,-0.0,-0.0,-1.0,0.12484716904310925,2.0,0
48.188873291015625,31.472185134887695,-2.822293519973755,-0.0,-0.0,-1.0,0.20696007803102262,2.0,0
49.74601364135742,31.41476058959961,-2.81418514251709,-0.0,-0.0,-1.0,0.03904929110647779,1.0,0
49.734466552734375,32.38037872314453,-3.0089821815490723,-0.0,-0.0,-1.0,0.0480700853186702,1.0,0
50.080474853515625,32.31657409667969,-3.0370678901672363,-0.0,-0.0,-1.0,0.08711437911388509,1.0,0
49.45978546142578,32.70133972167969,-3.0428361892700195,-0.0,-0.0,-1.0,0.031771397990077006,1.0,0
49.5712890625,32.621559143066406,-3.0392937660217285,-0.0,-0.0,-1.0,0.03998248086541645,2.0,0
49.4197998046875,33.04682159423828,-3.109485149383545,-0.0,-0.0,-1.0,0.02587624441171628,1.0,0
49.50404357910156,32.99999237060547,-3.1093897819519043,-0.0,-0.0,-1.0,0.025616250963514157,1.0,0
50.198204040527344,30.913909912109375,-2.769644260406494,-0.0,-0.0,-1.0,0.028874550926164033,2.0,0
48.8549690246582,31.247528076171875,-2.674531936645508,0.46277160155550057,0.821255511941063,-0.33373916297039447,0.12008779336440027,3.0,0
49.19691467285156,31.080692291259766,-2.6805481910705566,-0.0,-0.0,-1.0,0.13878805907939548,1.0,0
49.58634948730469,31.200271606445312,-2.7514429092407227,-0.0,-0.0,-1.0,0.05270688527582358,1.0,0
49.54387664794922,32.48392868041992,-2.9838767051696777,-0.0,-0.0,-1.0,0.07043789252521236,1.0,0
49.769866943359375,32.302772521972656,-2.9737648963928223,-0.0,-0.0,-1.0,0.10910886497730134,2.0,0
49.47043228149414,32.63330078125,-3.006186008453369,-0.0,-0.0,-1.0,0.03196042709893076,1.0,0
50.14376449584961,30.893949508666992,-2.7324609756469727,-0.0,-0.0,-1.0,0.028874550926163964,1.0,0
48.85096740722656,31.26107406616211,-2.64674711227417,0.46277160155550057,0.821255511941063,-0.33373916297039447,0.12083780729967543,3.0,0
49.45875930786133,31.173370361328125,-2.702444553375244,-0.0,-0.0,-1.0,0.07262914476528604,1.0,0
47.900482177734375,30.812660217285156,-2.9577856063842773,-0.0,-0.0,-1.0,0.1310933449018203,1.0,0
47.96806335449219,30.66429901123047,-2.9310412406921387,-0.0,-0.0,-1.0,0.13848090345783517,1.0,0
50.114688873291016,31.168481826782227,-3.0197577476501465,-0.0,-0.0,-1.0,0.026969121666011703,1.0,0
49.8206901550293,30.806976318359375,-2.9393420219421387,-0.0,-0.0,-1.0,0.025760282112585207,1.0,0
47.8131103515625,32.8822021484375,-3.114619255065918,-0.0,-0.0,-1.0,0.010847276329904157,1.0,0
49.4012451171875,32.658653259277344,-3.0429139137268066,-0.264976824965546,0.49573964047692864,-0.8270607541716537,0.030685825228233137,3.0,0
49.95233917236328,32.3210334777832,-2.970205307006836,-0.0,-0.0,-1.0,0.1068250209654322,1.0,0
49.63103103637695,32.3575325012207,-2.9794716835021973,-0.0,-0.0,-1.0,0.061477766382682555,2.0,0
49.92487335205078,32.214927673339844,-2.948568820953369,-0.0,-0.0,-1.0,0.1482553833476622,1.0,0
48.21680450439453,31.309343338012695,-2.785433769226074,-0.0,-0.0,-1.0,0.11146371718583739,2.0,0
49.04157257080078,31.152469635009766,-2.7393760681152344,0.025858332205682392,0.9990077130344059,-0.036262045630474304,0.06870284181768868,3.0,0
48.682533264160156,31.10372543334961,-2.7346930503845215,-0.0,-0.0,-1.0,0.07476562292582231,1.0,0
48.519508361816406,30.925127029418945,-2.701122760772705,0.23949229641790712,-0.4147524328917221,-0.8778518436313014,0.1958913249841522,3.0,0
49.13951110839844,30.79738998413086,-2.6654977798461914,-0.0,-0.0,-1.0,0.07018096747731116,1.0,0
47.73448181152344,32.893035888671875,-3.127978563308716,-0.0,-0.0,-1.0,0.010847276329904182,1.0,0
49.33928680419922,32.623008728027344,-3.0439445972442627,-0.0,-0.0,-1.0,0.027490668760329028,2.0,0
49.197086334228516,32.58330535888672,-3.037487745285034,-0.0,-0.0,-1.0,0.016694339953861995,1.0,0
49.855621337890625,32.26277542114258,-2.966212511062622,-0.0,-0.0,-1.0,0.1263752949142859,2.0,0
49.523868560791016,32.426979064941406,-3.002199411392212,-0.0,-0.0,-1.0,0.07563956774219209,2.0,0
49.85569763183594,32.16997528076172,-2.947242021560669,-0.0,-0.0,-1.0,0.13853934489637423,1.0,0
48.05207824707031,31.29511833190918,-2.795267343521118,-0.0,-0.0,-1.0,0.09906238591874049,2.0,0
49.15755844116211,30.9705867767334,-2.70932936668396,-0.0,-0.0,-1.0,0.10311554437710693,1.0,0
48.817928314208984,30.980886459350586,-2.7163240909576416,-0.0,-0.0,-1.0,0.0616877336306438,1.0,0
48.48500061035156,30.883636474609375,-2.702324628829956,-0.0,-0.0,-1.0,0.15407724655206087,2.0,0
48.20615768432617,30.96290397644043,-2.72418475151062,-0.0,-0.0,-1.0,0.1136486913659725,2.0,0
50.02305221557617,31.21038818359375,-2.8656277656555176,-0.0,-0.0,-1.0,0.027828665177693244,1.0,0
49.6763801574707,31.291763305664062,-2.8777565956115723,-0.0,-0.0,-1.0,0.0411204149335644,1.0,0
49.80678176879883,31.11209487915039,-2.8420701026916504,-0.0,-0.0,-1.0,0.03670523809947471,1.0,0
49.738067626953125,31.13165283203125,-2.845242500305176,-0.0,-0.0,-1.0,0.038395250314066806,1.0,0
48.488250732421875,31.02547836303711,-2.815002918243408,-0.0,-0.0,-1.0,0.2200179781977225,1.0,0
48.03092575073242,31.24856948852539,-2.8622450828552246,-0.0,-0.0,-1.0,0.05776354708489291,2.0,0
48.28581619262695,30.758163452148438,-2.7595577239990234,-0.0,-0.0,-1.0,0.11414124562258614,2.0,0
50.19743728637695,33.072879791259766,-3.015916109085083,-0.0,-0.0,-1.0,0.03420707697214682,1.0,0
50.16495132446289,32.77263259887695,-2.954785108566284,-0.0,-0.0,-1.0,0.05428169942314366,1.0,0
49.64646530151367,32.683292388916016,-2.878094434738159,-0.0,-0.0,-1.0,0.0807365634572926,1.0,0
49.85464859008789,32.35773849487305,-2.839386224746704,-0.0,-0.0,-1.0,0.16412896382056408,2.0,0
49.63203048706055,32.51810836791992,-2.8448688983917236,-0.0,-0.0,-1.0,0.0816387583785944,1.0,0
49.33097839355469,31.356937408447266,-2.589057207107544,-0.0,-0.0,-1.0,0.11278041964342993,1.0,0
48.85260009765625,31.26221466064453,-2.520296573638916,-0.0,-0.0,-1.0,0.12566952027170514,1.0,0
48.32464599609375,31.372203826904297,-2.4892680644989014,-0.0,-0.0,-1.0,0.11601749343891114,1.0,0
49.166290283203125,30.946495056152344,-2.492522716522217,-0.0,-0.0,-1.0,0.08672494762408912,1.0,0
49.847965240478516,33.08639144897461,-3.0619091987609863,-0.0,-0.0,-1.0,0.03074579401103702,2.0,0
50.05881118774414,32.34694290161133,-2.915933132171631,-0.0,-0.0,-1.0,0.10322150001121924,1.0,0
49.92518615722656,32.42183303833008,-2.929065227508545,-0.0,-0.0,-1.0,0.16787347700805821,1.0,0
49.4229736328125,30.895793914794922,-2.615720748901367,-0.0,-0.0,-1.0,0.08586466946261367,1.0,0
49.07147979736328,31.191848754882812,-2.67289400100708,-0.0,-0.0,-1.0,0.08918529088529603,1.0,0
48.30067443847656,31.43179702758789,-2.72097110748291,-0.0,-0.0,-1.0,0.19371190185533263,1.0,0
50.025657653808594,32.272281646728516,-2.936147451400757,-0.0,-0.0,-1.0,0.12266031448765369,1.0,0
49.767417907714844,32.44252014160156,-2.9707486629486084,-0.5552177296146127,-0.7852370296813751,-0.27410961299955505,0.0695773846563068,3.0,0
49.56727600097656,32.54753875732422,-2.992382764816284,-0.0,-0.0,-1.0,0.061655755172264376,2.0,0
48.427024841308594,31.357540130615234,-2.7433173656463623,-0.0,-0.0,-1.0,0.15217428953104162,2.0,0
48.200870513916016,31.45063018798828,-2.765733480453491,0.3265332864422902,0.8014459181631952,0.5010593309227468,0.17057103730041467,3.0,0
48.80929183959961,31.141956329345703,-2.6945059299468994,-0.0,-0.0,-1.0,0.07985385486869126,2.0,0
47.83448028564453,31.510780334472656,-2.923701286315918,-0.0,-0.0,-1.0,0.05264398162280717,1.0,0
48.65771484375,30.668575286865234,-2.8069839477539062,-0.0,-0.0,-1.0,0.15194726768019254,2.0,0
48.26286315917969,31.014385223388672,-2.848865509033203,-0.0,-0.0,-1.0,0.17484436639318152,2.0,0
47.96916961669922,31.257957458496094,-2.8788700103759766,-0.0,-0.0,-1.0,0.04986144751653375,1.0,0
48.086578369140625,30.646751403808594,-2.7555103302001953,-0.0,-0.0,-1.0,0.11474400357937514,2.0,0
48.02817153930664,30.734270095825195,-2.940955877304077,-0.0,-0.0,-1.0,0.14619128134799647,1.0,0
50.16950988769531,31.223159790039062,-2.9573259353637695,-0.0,-0.0,-1.0,0.026969121666011703,1.0,0
49.85477828979492,30.920955657958984,-2.8751769065856934,-0.0,-0.0,-1.0,0.028140858259488578,1.0,0
48.2628059387207,31.31884765625,-2.899223804473877,-0.0,-0.0,-1.0,0.06275683084033308,1.0,0
48.005889892578125,31.363475799560547,-2.902407169342041,-0.935092415162416,-0.09088067305721922,-0.3425534679001025,0.050025153758154056,3.0,0
48.54219055175781,30.774951934814453,-2.7865405082702637,-0.0,-0.0,-1.0,0.10206935609875241,1.0,0
48.427242279052734,30.948890686035156,-2.821491241455078,-0.0,-0.0,-1.0,0.20195140440244017,1.0,0
48.2558479309082,30.771080017089844,-2.776322364807129,-0.0,-0.0,-1.0,0.09856861093319826,2.0,0
47.94035720825195,30.843029022216797,-2.783513069152832,-0.0,-0.0,-1.0,0.23712126662424546,2.0,0
48.16696548461914,30.691017150878906,-2.7557129859924316,-0.0,-0.0,-1.0,0.10267827355927098,1.0,0
50.11846923828125,32.720619201660156,-2.92148494720459,-0.0,-0.0,-1.0,0.05050450336604757,2.0,0
49.33700180053711,31.186105728149414,-2.576389789581299,-0.0,-0.0,-1.0,0.1284317850820764,2.0,0
49.233238220214844,31.19158935546875,-2.5727176666259766,-0.0,-0.0,-1.0,0.13774480215025675,2.0,0
49.40587615966797,31.18720245361328,-2.547468662261963,-0.0,-0.0,-1.0,0.12336210495703191,1.0,0
50.170047760009766,32.64744567871094,-2.9248814582824707,-0.0,-0.0,-1.0,0.05724837054678065,2.0,0
49.31525802612305,31.16269874572754,-2.580930709838867,-0.0,-0.0,-1.0,0.14231608473702514,2.0,0
48.046443939208984,31.15700912475586,-2.888278007507324,-0.0,-0.0,-1.0,0.057848737905499055,1.0,0
47.80738830566406,31.43454360961914,-2.919187068939209,-0.0,-0.0,-1.0,0.04564903001898558,2.0,0
48.35141372680664,30.788455963134766,-2.8484420776367188,-0.0,-0.0,-1.0,0.12964726189977396,1.0,0
47.87274932861328,31.151893615722656,-2.970259666442871,-0.0,-0.0,-1.0,0.037009616345328636,1.0,0
47.75300979614258,31.343746185302734,-2.9975218772888184,-0.0,-0.0,-1.0,0.03673076911139419,1.0,0
47.945682525634766,30.86505889892578,-2.9200191497802734,-0.0,-0.0,-1.0,0.1624927673645767,1.0,0
49.76396179199219,33.06004333496094,-3.0329806804656982,-0.0,-0.0,-1.0,0.038052669753107844,1.0,0
49.786529541015625,32.63862228393555,-2.965390920639038,-0.0,-0.0,-1.0,0.07278140801432467,1.0,0
49.90483856201172,32.15375518798828,-2.898688554763794,-0.0,-0.0,-1.0,0.13853934489637423,2.0,0
49.84878158569336,32.33708190917969,-2.9224884510040283,-0.0,-0.0,-1.0,0.13991672795594812,2.0,0
49.95538330078125,32.03411865234375,-2.8848369121551514,-0.0,-0.0,-1.0,0.0988924979051635,1.0,0
48.923797607421875,31.23003387451172,-2.6402289867401123,-0.0,-0.0,-1.0,0.1256695202717051,2.0,0
49.695335388183594,32.639373779296875,-2.9627976417541504,-0.0,-0.0,-1.0,0.06556754096400771,1.0,0
49.839134216308594,32.29369354248047,-2.92803955078125,-0.0,-0.0,-1.0,0.12102007323456856,2.0,0
49.72304153442383,32.5437126159668,-2.9515881538391113,-0.0,-0.0,-1.0,0.07784925086182697,2.0,0
49.937217712402344,32.07941436767578,-2.908060073852539,-0.0,-0.0,-1.0,0.13853934489637415,1.0,0
49.55915069580078,31.160980224609375,-2.724748134613037,-0.0,-0.0,-1.0,0.0577140334211253,1.0,0
48.889320373535156,31.237045288085938,-2.6526951789855957,0.4026928782938311,0.8362420387578658,-0.37220652652192676,0.12566952027170514,4.0,0
49.2318000793457,30.982940673828125,-2.657162666320801,-0.0,-0.0,-1.0,0.10853321704037579,1.0,0
47.90931701660156,31.38296127319336,-2.962676763534546,-0.0,-0.0,-1.0,0.044023954868439005,1.0,0
47.969417572021484,31.014190673828125,-2.914170503616333,-0.0,-0.0,-1.0,0.07205554602341208,1.0,0
47.75465774536133,31.18505859375,-2.9105846881866455,-0.0,-0.0,-1.0,0.052702594286689546,1.0,0
48.43696594238281,32.72383499145508,-3.1587867736816406,-0.0,-0.0,-1.0,0.01162279367459413,1.0,0
48.122230529785156,33.01439666748047,-3.1608104705810547,-0.0,-0.0,-1.0,0.011711772861419592,2.0,0
48.007511138916016,31.977067947387695,-2.9899215698242188,-0.0,-0.0,-1.0,0.03602505408363863,1.0,0
48.041290283203125,31.79322052001953,-2.9674158096313477,-0.0,-0.0,-1.0,0.05751842790274915,2.0,0
48.26592254638672,31.103689193725586,-2.8988380432128906,-0.0,-0.0,-1.0,0.1782332017131948,2.0,0
48.04393768310547,31.27752685546875,-2.892670154571533,-0.0,-0.0,-1.0,0.07868005443891217,2.0,0
48.390296936035156,30.863019943237305,-2.882521152496338,-0.0,-0.0,-1.0,0.13130171798131593,1.0,0
48.35451889038086,30.719013214111328,-2.8571577072143555,-0.0,-0.0,-1.0,0.12956953787442507,1.0,0
49.891517639160156,33.08964157104492,-3.054220676422119,-0.0,-0.0,-1.0,0.027550343520361942,2.0,0
49.69074249267578,33.08631896972656,-3.030087471008301,-0.0,-0.0,-1.0,0.04350967102855084,1.0,0
49.646278381347656,32.5914306640625,-2.9632463455200195,-0.0,-0.0,-1.0,0.07274519489301758,2.0,0
49.72358703613281,32.321250915527344,-2.9394397735595703,-0.0,-0.0,-1.0,0.09330745665391921,1.0,0
50.19172286987305,30.784259796142578,-2.817516326904297,-0.0,-0.0,-1.0,0.028874550926163964,1.0,0
49.35862731933594,31.109643936157227,-2.749565601348877,-0.0,-0.0,-1.0,0.10061988308415,1.0,0
49.037940979003906,31.1534481048584,-2.7150092124938965,0.025858332205682392,0.9990077130344059,-0.036262045630474304,0.06870284181768867,3.0,0
48.68738555908203,31.176918029785156,-2.6748275756835938,-0.0,-0.0,-1.0,0.10096170423653222,1.0,0
48.13544845581055,31.43332290649414,-2.639707565307617,-0.0,-0.0,-1.0,0.15698185572558992,1.0,0
49.3061637878418,30.76238250732422,-2.7025182247161865,-0.0,-0.0,-1.0,0.0731076512477213,1.0,0
48.90953826904297,30.949481964111328,-2.6749260425567627,-0.0,-0.0,-1.0,0.03713725949624191,1.0,0
48.74919128417969,31.020004272460938,-2.6635544300079346,-0.0,-0.0,-1.0,0.055705202665707956,1.0,0
50.161643981933594,32.62371826171875,-2.8863911628723145,-0.0,-0.0,-1.0,0.08724259321489902,2.0,0
49.96565246582031,32.734130859375,-2.8715882301330566,-0.0,-0.0,-1.0,0.058461099304402395,1.0,0
48.93345642089844,31.259843826293945,-2.59653902053833,-0.0,-0.0,-1.0,0.12479595189124666,1.0,0
48.6243896484375,31.0760440826416,-2.762026786804199,0.6039041494071116,-0.27653293896940634,-0.7475488693014093,0.1031515314098375,3.0,0
47.939971923828125,30.910537719726562,-2.6996960639953613,-0.0,-0.0,-1.0,0.22007704101877573,1.0,0
48.255455017089844,30.971654891967773,-2.7265567779541016,-0.0,-0.0,-1.0,0.18677174479495315,2.0,0
48.21284866333008,31.45643424987793,-2.782823085784912,0.2204632257881269,0.9273285807596313,0.30241969079645165,0.2069600780310225,4.0,0
47.91607666015625,30.870460510253906,-2.6148529052734375,-0.0,-0.0,-1.0,0.22977050951683678,1.0,0
48.61032485961914,30.736351013183594,-2.6630067825317383,-0.0,-0.0,-1.0,0.1549435556637683,1.0,0
48.64509582519531,31.213584899902344,-2.715287208557129,-0.0,-0.0,-1.0,0.10824485457425317,1.0,0
48.899208068847656,31.046558380126953,-2.720883369445801,-0.0,-0.0,-1.0,0.04826848456377335,1.0,0
49.29460525512695,31.023845672607422,-2.754270553588867,-0.0,-0.0,-1.0,0.09360529138965298,2.0,0
50.17816925048828,30.892776489257812,-2.821773052215576,-0.0,-0.0,-1.0,0.028874550926164033,2.0,0
48.21829605102539,31.513442993164062,-2.7085447311401367,-0.0,-0.0,-1.0,0.17555091026323769,2.0,0
49.76618957519531,32.2828254699707,-2.925933837890625,-0.0,-0.0,-1.0,0.1101474415300538,1.0,0
49.75299835205078,32.58717346191406,-2.9562015533447266,-0.0,-0.0,-1.0,0.07182252156054791,2.0,0
49.01953887939453,31.25896453857422,-2.6457643508911133,-0.0,-0.0,-1.0,0.1281140160500038,2.0,0
50.13458251953125,32.697052001953125,-2.8963894844055176,-0.0,-0.0,-1.0,0.055315710925862495,2.0,0
49.1087646484375,31.189117431640625,-2.6330606937408447,-0.0,-0.0,-1.0,0.08673126362158408,2.0,0
50.19732666015625,30.730281829833984,-2.8455867767333984,-0.0,-0.0,-1.0,0.02817292992896133,2.0,0
47.88081741333008,30.668312072753906,-2.634524345397949,-0.0,-0.0,-1.0,0.21032920714916484,2.0,0
48.449405670166016,30.985815048217773,-2.7243590354919434,-0.0,-0.0,-1.0,0.1770007847792914,1.0,0
48.71137237548828,30.82206153869629,-2.7253870964050293,-0.0,-0.0,-1.0,0.12919607239985234,1.0,0
49.079803466796875,30.883094787597656,-2.765326499938965,-0.0,-0.0,-1.0,0.06916521229972257,2.0,0
48.154659271240234,31.61483383178711,-2.7826223373413086,-0.0,-0.0,-1.0,0.14300307582830674,2.0,0
48.33808517456055,31.028425216674805,-2.774712324142456,-0.0,-0.0,-1.0,0.1606038254075747,1.0,0
48.5615348815918,30.887475967407227,-2.7717349529266357,-0.0,-0.0,-1.0,0.19554954830496885,1.0,0
50.030738830566406,32.742332458496094,-3.0618107318878174,-0.0,-0.0,-1.0,0.043595997360679796,1.0,0
48.1176872253418,31.25696563720703,-2.8392975330352783,-0.6415511316730291,0.6666001362621891,0.3795476304553706,0.08616683237976187,3.0,0
49.90675735473633,32.488956451416016,-2.891636610031128,-0.0,-0.0,-1.0,0.11537952996084697,1.0,0
48.865787506103516,31.176082611083984,-2.6823995113372803,-0.0,-0.0,-1.0,0.08394294568206304,2.0,0
49.539947509765625,32.73248291015625,-3.060251235961914,-0.0,-0.0,-1.0,0.040214771178843256,1.0,0
49.691795349121094,33.13123321533203,-3.1226515769958496,-0.0,-0.0,-1.0,0.03396085357239634,1.0,0
48.66826248168945,30.863107681274414,-2.759495258331299,-0.0,-0.0,-1.0,0.12553077916817368,1.0,0
48.582435607910156,31.641267776489258,-2.850470542907715,-0.0,-0.0,-1.0,0.01696434900001945,1.0,0
48.28486251831055,31.085355758666992,-2.7580442428588867,-0.0,-0.0,-1.0,0.17253927676198974,2.0,0
48.344947814941406,31.58633804321289,-2.8259224891662598,-0.0,-0.0,-1.0,0.07455096345296983,1.0,0
49.882869720458984,32.381370544433594,-2.874138355255127,-0.0,-0.0,-1.0,0.16643182348091132,2.0,0
49.33000183105469,32.74942398071289,-3.081681728363037,-0.0,-0.0,-1.0,0.02237878285749944,1.0,0
48.453514099121094,31.936363220214844,-2.91409969329834,-0.0,-0.0,-1.0,0.020529315926363163,1.0,0
48.44722366333008,31.15768051147461,-2.8472585678100586,-0.0,-0.0,-1.0,0.1373854738801548,1.0,0
48.38633346557617,30.76169776916504,-2.807812213897705,-0.0,-0.0,-1.0,0.13737320020929197,2.0,0
48.1211051940918,31.248233795166016,-2.8181843757629395,-0.6415511316730291,0.6666001362621891,0.3795476304553706,0.08616683237976198,3.0,0
48.11948776245117,31.487430572509766,-2.8383522033691406,-0.0,-0.0,-1.0,0.08725756849329702,1.0,0
47.90904998779297,30.826261520385742,-2.7590017318725586,-0.0,-0.0,-1.0,0.23712126662424543,2.0,0
48.976600646972656,33.13302993774414,-3.091243267059326,-0.0,-0.0,-1.0,0.006971208010266214,1.0,0
48.05052185058594,32.361045837402344,-2.9254965782165527,-0.0,-0.0,-1.0,0.009461637010000972,1.0,0
47.76142120361328,31.714740753173828,-2.8441710472106934,-0.0,-0.0,-1.0,0.06053978234413205,1.0,0
47.75299072265625,31.95012855529785,-2.8603196144104004,-0.0,-0.0,-1.0,0.04965204301797335,1.0,0
47.988040924072266,31.317981719970703,-2.8430075645446777,-0.0,-0.0,-1.0,0.04745701277141965,2.0,0
47.8935432434082,31.500320434570312,-2.8445234298706055,-0.0,-0.0,-1.0,0.045964780421575556,1.0,0
47.97038650512695,30.73995590209961,-2.8015551567077637,-0.0,-0.0,-1.0,0.2103292071491647,1.0,0
47.739906311035156,30.845773696899414,-2.7808303833007812,-0.0,-0.0,-1.0,0.15604948324745657,1.0,0
49.85885238647461,32.5070915222168,-2.9227147102355957,-0.0,-0.0,-1.0,0.14095534056762388,1.0,0
49.840904235839844,32.2471809387207,-2.9060864448547363,-0.3971296573479637,0.33448821738940177,-0.8546377406143199,0.1208896619454928,3.0,0
48.582435607910156,30.85655975341797,-2.682013988494873,-0.0,-0.0,-1.0,0.13163664063504335,1.0,0
48.47327423095703,30.980146408081055,-2.675497531890869,-0.0,-0.0,-1.0,0.24084232238538206,2.0,0
50.030277252197266,32.55752944946289,-2.920970916748047,-0.0,-0.0,-1.0,0.07364643585427612,1.0,0
49.88692855834961,32.11669921875,-2.896852970123291,0.661943654478829,-0.35269488649103925,-0.6613901385251258,0.13853934489637423,3.0,0
48.519615173339844,31.025943756103516,-2.699561595916748,-0.0,-0.0,-1.0,0.25635082733188774,2.0,0
48.4947624206543,30.898452758789062,-2.6952712535858154,0.23261827517919562,-0.2051777212101773,-0.9506791471214957,0.16849556759590537,4.0,0
49.144493103027344,31.159093856811523,-2.6483640670776367,-0.0,-0.0,-1.0,0.1262618961173303,2.0,0
48.27723693847656,30.978710174560547,-2.853116273880005,0.30765119630282656,0.23385120580650032,-0.9223146724173295,0.15289753082666419,3.0,0
48.53816604614258,31.065628051757812,-2.8193936347961426,-0.0,-0.0,-1.0,0.14547949060787216,2.0,0
48.55555725097656,31.06099510192871,-2.8600192070007324,-0.0,-0.0,-1.0,0.14849292472943998,2.0,0
48.417686462402344,30.672197341918945,-2.815639019012451,-0.0,-0.0,-1.0,0.08273364774400693,1.0,0
48.31770706176758,31.183717727661133,-2.852234363555908,-0.0,-0.0,-1.0,0.15696518892733355,1.0,0
48.10657501220703,31.335308074951172,-2.8491735458374023,-0.0,-0.0,-1.0,0.06684879433973391,2.0,0
49.68824005126953,32.694149017333984,-2.908177137374878,-0.0,-0.0,-1.0,0.07405283576306942,1.0,0
49.2302131652832,30.759418487548828,-2.7378084659576416,-0.0,-0.0,-1.0,0.06287967637365575,1.0,0
48.80129623413086,30.766277313232422,-2.696019411087036,-0.0,-0.0,-1.0,0.08129900887390724,1.0,0
48.38067626953125,31.285755157470703,-2.68808913230896,-0.0,-0.0,-1.0,0.13956902948828245,2.0,0
48.231563568115234,31.38823699951172,-2.680198907852173,-0.0,-0.0,-1.0,0.14167103942256157,1.0,0
48.101985931396484,31.368152618408203,-2.848348617553711,-0.0,-0.0,-1.0,0.06684879433973394,2.0,0
49.26604461669922,32.69942855834961,-3.075502634048462,-0.07850387659140624,-0.5741772538315815,-0.8149586630882237,0.018120463662091402,3.0,0
49.1661491394043,33.01398468017578,-3.0888431072235107,-0.0,-0.0,-1.0,0.007766702065728908,1.0,0
47.99168014526367,30.677017211914062,-2.789121389389038,-0.0,-0.0,-1.0,0.13354598651823915,1.0,0
48.222923278808594,31.108787536621094,-2.845177412033081,-0.0,-0.0,-1.0,0.13629765083940898,2.0,0
48.272003173828125,30.883819580078125,-2.8576600551605225,-0.0,-0.0,-1.0,0.15617107379177447,2.0,0
48.36395263671875,31.978923797607422,-2.962437868118286,-0.0,-0.0,-1.0,0.02437619660829108,1.0,0
49.10174560546875,32.8631706237793,-3.1256515979766846,-0.0,-0.0,-1.0,0.010546955849309156,1.0,0
49.07854080200195,33.0959587097168,-3.143903970718384,-0.0,-0.0,-1.0,0.00763115281915948,1.0,0
47.92336654663086,31.4751033782959,-2.9028186798095703,-0.0,-0.0,-1.0,0.046139677509088275,1.0,0
49.54973602294922,32.557491302490234,-3.021017551422119,0.7164906868700082,-0.3938606061609878,-0.5757733221876845,0.06394777659013927,3.0,0
48.5140266418457,30.852806091308594,-2.8371472358703613,-0.0,-0.0,-1.0,0.11674135986110366,2.0,0
48.262351989746094,31.16992950439453,-2.785208225250244,-0.0,-0.0,-1.0,0.13253787921072924,2.0,0
49.51433563232422,32.44288635253906,-3.0400357246398926,0.9736320035072974,0.11534918937821463,-0.19681282035516537,0.0761474857700079,3.0,0
48.524288177490234,30.89236068725586,-2.862557888031006,-0.0,-0.0,-1.0,0.18869127059059765,2.0,0
48.257835388183594,31.157756805419922,-2.791445255279541,-0.0,-0.0,-1.0,0.15736874198490614,2.0,0
48.829410552978516,31.66653823852539,-2.906731128692627,-0.0,-0.0,-1.0,0.020268250909935854,1.0,0
49.5135383605957,32.40370559692383,-3.168391227722168,-0.0,-0.0,-1.0,0.05407413060339968,1.0,0
49.73921585083008,32.88928985595703,-3.2209348678588867,-0.0,-0.0,-1.0,0.04212290678695054,1.0,0
48.34279251098633,31.139163970947266,-2.90170955657959,-0.0,-0.0,-1.0,0.1395325376643796,2.0,0
48.63788604736328,31.629112243652344,-2.9687509536743164,-0.0,-0.0,-1.0,0.019426363859371215,1.0,0
49.48628234863281,32.202423095703125,-3.1618213653564453,-0.0,-0.0,-1.0,0.04365706854374088,1.0,0
48.2623291015625,30.921905517578125,-2.8836660385131836,-0.0,-0.0,-1.0,0.13589318561874905,2.0,0
48.16871643066406,31.243064880371094,-2.862046241760254,-0.0,-0.0,-1.0,0.0913413036301499,1.0,0
48.22724533081055,31.357738494873047,-2.764435291290283,-0.0,-0.0,-1.0,0.1453261269213029,1.0,0
48.457035064697266,31.249237060546875,-2.7725043296813965,-0.0,-0.0,-1.0,0.1076865708425812,2.0,0
48.89684295654297,31.015201568603516,-2.784450054168701,-0.0,-0.0,-1.0,0.03863477039513916,1.0,0
47.91127014160156,31.67578887939453,-2.7754225730895996,-0.0,-0.0,-1.0,0.0842736110281568,1.0,0
48.161033630371094,31.569358825683594,-2.785728931427002,0.6181482868394266,0.13949452131257373,-0.7735851433431604,0.1453753111080127,3.0,0
47.85539627075195,32.04646301269531,-2.8185009956359863,-0.0,-0.0,-1.0,0.0448069661844474,1.0,0
48.18846130371094,31.321224212646484,-2.7980918884277344,-0.0,-0.0,-1.0,0.10359984148315346,2.0,0
48.05138397216797,31.62383270263672,-2.84567928314209,-0.0,-0.0,-1.0,0.07939475034772667,1.0,0
49.88605880737305,31.466476440429688,-2.931838035583496,-0.0,-0.0,-1.0,0.016910094835668684,1.0,0
