x,y,z,nx,ny,nz,curvature,density,label
16.5505313873291,-18.433582305908203,0.9891096353530884,-0.32887066867758163,-0.8807041893162052,0.34088739226384707,0.2617071910496788,3.0,1
16.24710464477539,-18.323532104492188,0.9881889224052429,-0.0,-0.0,-1.0,0.23467974790969967,1.0,1
16.70922088623047,-18.64811134338379,0.988173246383667,-0.8260869838157033,-0.4195160003232959,0.3762799764045632,0.25750872648331957,3.0,1
15.323402404785156,-18.321552276611328,1.9044151306152344,-0.0,-0.0,-1.0,0.17512806097075725,1.0,2
16.678686141967773,-16.88273048400879,0.8917887210845947,-0.0,-0.0,-1.0,0.17361373499469984,2.0,1
16.301694869995117,-17.603673934936523,0.8654667139053345,-0.0,-0.0,-1.0,0.2407484460983318,2.0,1
15.954824447631836,-17.59052276611328,0.8686686158180237,-0.0,-0.0,-1.0,0.21382387394087413,1.0,1
17.09984588623047,-17.692720413208008,0.8553317189216614,-0.0,-0.0,-1.0,0.17054615990757174,1.0,1
16.574308395385742,-17.977663040161133,0.8478862643241882,-0.0,-0.0,-1.0,0.1676077396378159,2.0,1
16.457841873168945,-17.80652618408203,0.8559273481369019,-0.6811191063224035,-0.7243108193645015,-0.10700747615982227,0.22369459115083098,3.0,1
16.048646926879883,-17.78316307067871,0.8601321578025818,-0.0,-0.0,-1.0,0.14529408641350194,1.0,1
16.31136703491211,-18.278461456298828,0.8375390768051147,-0.0,-0.0,-1.0,0.1451580035738844,1.0,1
15.436508178710938,-18.087427139282227,1.734021544456482,-0.0,-0.0,-1.0,0.1644934465662581,2.0,2
17.051820755004883,-17.180221557617188,0.8164488077163696,-0.0,-0.0,-1.0,0.21347403100871715,1.0,1
17.250154495239258,-17.49195671081543,0.8134600520133972,-0.0,-0.0,-1.0,0.09754228518154223,1.0,1
16.98366928100586,-18.479328155517578,0.7936629056930542,-0.0,-0.0,-1.0,0.14219517251988306,1.0,1
16.83523178100586,-18.271434783935547,0.7953470945358276,-0.0,-0.0,-1.0,0.17210722734280606,1.0,1
16.52623176574707,-18.243410110473633,0.7921154499053955,-0.0,-0.0,-1.0,0.15001209600991144,1.0,1
16.010202407836914,-18.030744552612305,1.6533637046813965,-0.0,-0.0,-1.0,0.2590644719748046,1.0,2
16.402185440063477,-18.930381774902344,1.6507987976074219,-0.0,-0.0,-1.0,0.14048177266979062,1.0,2
16.105215072631836,-19.05043601989746,1.6559536457061768,-0.0,-0.0,-1.0,0.17239535685798052,1.0,2
15.911848068237305,-17.503128051757812,0.9415210485458374,-0.0,-0.0,-1.0,0.22962415139431072,2.0,1
15.412132263183594,-17.5323543548584,0.9453626871109009,-0.0,-0.0,-1.0,0.15455968695719513,1.0,1
17.29340362548828,-17.837282180786133,0.9155441522598267,0.10529091952119013,-0.5811490903880202,-0.8069569734549414,0.137598300686124,4.0,1
16.420244216918945,-17.96766471862793,0.9189392328262329,-0.0,-0.0,-1.0,0.260183191926522,1.0,1
16.03192138671875,-18.045909881591797,0.9197195768356323,-0.0,-0.0,-1.0,0.2509195902578607,1.0,1
16.67740249633789,-18.41129493713379,0.8998137712478638,-0.0,-0.0,-1.0,0.3006796995064126,2.0,1
16.304594039916992,-18.37259292602539,0.9047845602035522,-0.0,-0.0,-1.0,0.15583128783311154,1.0,1
16.605398178100586,-18.68021011352539,0.8904268145561218,-0.06195751603474812,-0.904185259282835,-0.42262309816482624,0.2163876314697657,3.0,1
15.468378067016602,-18.367202758789062,1.7951726913452148,-0.0,-0.0,-1.0,0.20138471836038738,2.0,2
16.645076751708984,-17.227025985717773,1.2321240901947021,-0.0,-0.0,-1.0,0.12728510379387223,1.0,2
15.961938858032227,-17.61200714111328,1.2311577796936035,0.04667516598795298,-0.21832889119902527,-0.9747583927044697,0.11254064412666705,3.0,2
16.144514083862305,-18.242952346801758,1.2263731956481934,-0.0,-0.0,-1.0,0.21288707859170525,1.0,2
15.619550704956055,-18.4228458404541,1.2263885736465454,-0.0,-0.0,-1.0,0.1346778596167092,2.0,2
17.023462295532227,-18.546239852905273,1.2225301265716553,-0.0,-0.0,-1.0,0.14765086448906314,1.0,2
16.666711807250977,-18.62097930908203,1.222770094871521,-0.0,-0.0,-1.0,0.2513157654402917,1.0,2
16.229358673095703,-18.80522918701172,1.2224955558776855,-0.0,-0.0,-1.0,0.20104644763253507,2.0,2
16.33516502380371,-18.988534927368164,1.2211151123046875,-0.0,-0.0,-1.0,0.22931151419750065,1.0,2
15.640886306762695,-18.99204444885254,1.2225403785705566,-0.0,-0.0,-1.0,0.12804062868298838,1.0,2
15.5726318359375,-19.152772903442383,1.2216417789459229,-0.0,-0.0,-1.0,0.13919222141083357,2.0,2
16.967037200927734,-17.007091522216797,0.6749748587608337,-0.0,-0.0,-1.0,0.1714042472105103,2.0,1
16.664182662963867,-17.509092330932617,0.6540540456771851,-0.0,-0.0,-1.0,0.06196792956508253,1.0,1
15.983600616455078,-17.551185607910156,1.4343986511230469,0.0647043176239259,-0.9526918824772399,-0.29697058497904333,0.0661790182631382,3.0,2
16.597436904907227,-18.769418716430664,1.3992161750793457,-0.0,-0.0,-1.0,0.1705138636462134,1.0,2
15.510759353637695,-18.092605590820312,1.4355090856552124,-0.0,-0.0,-1.0,0.13230822342938636,1.0,2
15.483158111572266,-18.61440086364746,1.4268944263458252,-0.0,-0.0,-1.0,0.18976375088889208,1.0,2
15.219167709350586,-18.708927154541016,1.4312028884887695,-0.9148552578807342,-0.21359649173628992,-0.34266075912763067,0.23006414358723115,3.0,2
15.939840316772461,-17.583297729492188,1.087335467338562,-0.18372223000407198,-0.17548303998846085,-0.9671875954946584,0.18834293388534193,4.0,2
15.645925521850586,-17.653013229370117,1.0914171934127808,-0.0,-0.0,-1.0,0.2520804415496146,1.0,2
15.366640090942383,-18.088062286376953,1.0769569873809814,-0.0,-0.0,-1.0,0.23570914037611088,1.0,2
15.890762329101562,-18.02948570251465,1.0663479566574097,-0.5819073088671808,0.042020547316777256,-0.8121687986435787,0.16773887369939994,3.0,2
16.152603149414062,-18.404565811157227,1.040753960609436,-0.0,-0.0,-1.0,0.2384075370924729,2.0,2
16.49732780456543,-18.570308685302734,1.0233824253082275,-0.0,-0.0,-1.0,0.2605103966047754,1.0,2
16.751392364501953,-18.697755813598633,1.0102555751800537,-0.446804500764025,-0.7536991690048862,-0.4819785272585847,0.2707582416975619,3.0,2
16.685728073120117,-18.99645233154297,0.9968465566635132,-0.0,-0.0,-1.0,0.19476327932947696,1.0,1
15.451215744018555,-18.412824630737305,1.8426730632781982,-0.0,-0.0,-1.0,0.18322583599429865,2.0,2
15.873857498168945,-17.404191970825195,0.9694305658340454,-0.0,-0.0,-1.0,0.18029107995608598,2.0,1
15.550291061401367,-17.53561782836914,0.9631921052932739,-0.0,-0.0,-1.0,0.22429944599330823,1.0,1
15.929340362548828,-17.623882293701172,0.9677094221115112,-0.10633016173452312,-0.9143029207884965,0.3908248530264356,0.2027204141878128,3.0,1
15.925994873046875,-17.935359954833984,0.9636808633804321,-0.8211390821847432,-0.4354679176444752,-0.3689150314248286,0.16680597971371594,3.0,1
16.207645416259766,-18.03379249572754,0.965638279914856,0.3543734720194403,-0.8690628707301505,-0.3451799082321511,0.17720528534329683,5.0,1
16.00834846496582,-18.091676712036133,0.9624582529067993,-0.0,-0.0,-1.0,0.17656484238994163,1.0,1
16.551536560058594,-18.444339752197266,0.9622868299484253,-0.32887066867758163,-0.8807041893162052,0.34088739226384707,0.1853171697637262,3.0,1
16.210908889770508,-18.38715934753418,0.9600232839584351,0.9426529007850472,-0.2517958239762171,0.2190989997003044,0.21786145540170332,3.0,1
16.681650161743164,-18.615612030029297,0.9601024389266968,-0.0,-0.0,-1.0,0.29531402772887866,2.0,1
16.63121795654297,-18.884864807128906,0.9542912244796753,-0.0,-0.0,-1.0,0.21915786587340144,2.0,1
16.74760627746582,-18.88239097595215,0.9551500082015991,-0.0,-0.0,-1.0,0.2380841860394714,2.0,1
16.742019653320312,-19.06476593017578,0.9511507749557495,-0.0,-0.0,-1.0,0.20360187873703647,1.0,1
16.54776954650879,-18.313541412353516,0.9646235704421997,-0.0,-0.0,-1.0,0.22498257160051097,1.0,1
15.891092300415039,-17.39298439025879,0.8805413246154785,-0.0,-0.0,-1.0,0.15047968443035406,1.0,1
15.293636322021484,-17.490890502929688,0.875322699546814,-0.0,-0.0,-1.0,0.1433128583733105,1.0,1
16.912025451660156,-17.345739364624023,0.8867172002792358,-0.0,-0.0,-1.0,0.1941283167664001,1.0,1
15.935747146606445,-17.70195770263672,0.8724319934844971,-0.0,-0.0,-1.0,0.1702253903824047,1.0,1
16.317785263061523,-18.076601028442383,0.86463463306427,-0.0,-0.0,-1.0,0.15861647116522032,1.0,1
16.02765655517578,-18.040313720703125,0.8639925718307495,0.3813794741062564,-0.3223571178381461,-0.866392281423097,0.18768592406275522,3.0,1
16.52933120727539,-18.402009963989258,0.8577091693878174,-0.0,-0.0,-1.0,0.2451495056647892,2.0,1
16.188806533813477,-18.393638610839844,0.8558542728424072,-0.0,-0.0,-1.0,0.21614631559799197,2.0,1
16.622119903564453,-18.635143280029297,0.8525944948196411,0.3451395913077098,-0.38435322365868796,-0.8562425252083206,0.22250133060384616,3.0,1
16.623661041259766,-18.85905647277832,0.8472068309783936,-0.0,-0.0,-1.0,0.18095103338180943,1.0,1
16.739849090576172,-18.856719970703125,0.8480693101882935,-0.0,-0.0,-1.0,0.22409179416218156,1.0,1
15.248699188232422,-18.147769927978516,1.5936671495437622,-0.0,-0.0,-1.0,0.2513086735680207,1.0,2
15.530244827270508,-18.172847747802734,1.586835265159607,-0.0,-0.0,-1.0,0.13316630392667386,1.0,2
15.999061584472656,-18.45684242248535,1.5746219158172607,-0.0,-0.0,-1.0,0.24832273347822464,1.0,2
16.340194702148438,-17.089269638061523,0.8782299757003784,-0.0,-0.0,-1.0,0.18263136971244773,1.0,1
15.721295356750488,-18.277393341064453,0.7989166975021362,-0.0,-0.0,-1.0,0.1794472205202697,1.0,1
15.23062515258789,-18.374645233154297,0.802651047706604,-0.0,-0.0,-1.0,0.13653438751987812,1.0,1
16.301429748535156,-18.484100341796875,0.7678540945053101,-0.0,-0.0,-1.0,0.11923436242337201,1.0,1
15.805288314819336,-18.552417755126953,0.774994969367981,-0.0,-0.0,-1.0,0.14959529186516765,1.0,1
15.674007415771484,-18.612579345703125,0.7733784914016724,-0.0,-0.0,-1.0,0.17181820623157681,1.0,1
16.62032127380371,-18.816017150878906,0.7313333749771118,-0.0,-0.0,-1.0,0.1908469582010942,1.0,1
16.463359832763672,-18.785104751586914,0.7384604215621948,-0.0,-0.0,-1.0,0.16221067336202127,1.0,1
15.648933410644531,-18.936677932739258,0.7478052377700806,-0.0,-0.0,-1.0,0.17179799267676904,1.0,1
16.95254898071289,-19.171775817871094,0.6907109022140503,-0.0,-0.0,-1.0,0.1190551958081092,1.0,1
17.264251708984375,-19.35851287841797,0.6641331911087036,-0.0,-0.0,-1.0,0.1432550602308078,1.0,1
17.335384368896484,-16.913738250732422,0.8681117296218872,-0.0,-0.0,-1.0,0.08176762295941063,1.0,1
15.910723686218262,-18.885639190673828,1.4471296072006226,-0.0,-0.0,-1.0,0.182842280357294,1.0,2
16.651424407958984,-17.37099838256836,1.017339825630188,-0.0,-0.0,-1.0,0.18547465896495563,1.0,2
17.141016006469727,-18.045921325683594,1.0372276306152344,-0.0,-0.0,-1.0,0.17314300934639273,1.0,2
16.722702026367188,-18.140796661376953,1.0311635732650757,-0.0,-0.0,-1.0,0.24014878637324055,1.0,2
16.430648803710938,-17.953645706176758,1.022790789604187,-0.0,-0.0,-1.0,0.14425693812216095,1.0,2
16.700603485107422,-18.417984008789062,1.0347956418991089,-0.0,-0.0,-1.0,0.24904065378779397,2.0,2
16.50344467163086,-18.15409278869629,1.027353048324585,-0.0,-0.0,-1.0,0.1587900480526122,1.0,2
16.711673736572266,-18.69248390197754,1.0388315916061401,-0.0,-0.0,-1.0,0.23884168146621632,2.0,2
16.861141204833984,-17.09042739868164,1.016631007194519,-0.0,-0.0,-1.0,0.12408387755889434,1.0,2
16.68914031982422,-17.064538955688477,1.1032394170761108,-0.0,-0.0,-1.0,0.09034636974730006,2.0,2
16.207778930664062,-17.872520446777344,1.1043875217437744,-0.0,-0.0,-1.0,0.16473057501301078,2.0,2
15.886459350585938,-17.55091667175293,1.0993205308914185,-0.5595793794807581,-0.35815877878535607,-0.7473909333400509,0.22343096437906645,4.0,2
15.600895881652832,-17.38729476928711,1.095543384552002,-0.0,-0.0,-1.0,0.10148689623785191,1.0,2
16.80029296875,-18.475236892700195,1.1133103370666504,-0.0,-0.0,-1.0,0.18471806365420754,1.0,2
16.50503158569336,-18.322734832763672,1.109874963760376,-0.0,-0.0,-1.0,0.16893023540597515,1.0,2
16.203157424926758,-18.117361068725586,1.1059484481811523,-0.0,-0.0,-1.0,0.20729660879568299,1.0,2
15.914284706115723,-17.840269088745117,1.1015613079071045,-0.0,-0.0,-1.0,0.23453251560090643,1.0,2
17.68674087524414,-19.018653869628906,1.1235532760620117,-0.0,-0.0,-1.0,0.15489806050220217,1.0,2
16.71219253540039,-18.768497467041016,1.1143269538879395,-0.0,-0.0,-1.0,0.2447127340548687,1.0,2
16.601545333862305,-18.5311279296875,1.1119749546051025,-0.0,-0.0,-1.0,0.18056875260387797,2.0,2
16.118846893310547,-18.28327178955078,1.1062930822372437,-0.0,-0.0,-1.0,0.23818240412065628,2.0,2
15.773736000061035,-18.159521102905273,1.1024515628814697,-0.0,-0.0,-1.0,0.18300931161543516,2.0,2
16.783512115478516,-18.926021575927734,1.1158366203308105,-0.0,-0.0,-1.0,0.1573023183762077,1.0,2
15.456907272338867,-18.002134323120117,1.7937235832214355,-0.0,-0.0,-1.0,0.1599632075210422,1.0,2
16.501073837280273,-17.837459564208984,0.575468122959137,-0.0,-0.0,-1.0,0.156294672886842,1.0,1
16.514812469482422,-17.53227996826172,0.5778016448020935,-0.0,-0.0,-1.0,0.08829976646616786,1.0,1
15.999813079833984,-17.778724670410156,1.2323048114776611,-0.0,-0.0,-1.0,0.16702897110242756,1.0,2
15.325942993164062,-17.974525451660156,1.2399318218231201,-0.0,-0.0,-1.0,0.2060658253991481,2.0,2
15.635165214538574,-18.29323959350586,1.2283656597137451,-0.0,-0.0,-1.0,0.15412518989569707,1.0,2
15.495916366577148,-18.985122680664062,1.2355632781982422,-0.0,-0.0,-1.0,0.23695188296315797,1.0,2
16.29879379272461,-18.48277473449707,0.9930335283279419,-0.0,-0.0,-1.0,0.1442794094770825,2.0,1
17.473188400268555,-19.096343994140625,0.9222210645675659,-0.0,-0.0,-1.0,0.1763121126144989,1.0,1
17.438720703125,-18.686243057250977,0.93221116065979,-0.0,-0.0,-1.0,0.19713351710358423,1.0,1
17.36226463317871,-18.98056411743164,0.8309988379478455,-0.0,-0.0,-1.0,0.22961708682107507,1.0,1
17.272216796875,-18.45944595336914,0.8419411182403564,-0.4530022481635896,-0.5876784387150996,-0.6703901966975028,0.15045485472805523,3.0,1
17.635820388793945,-18.819969177246094,0.8300095200538635,-0.0,-0.0,-1.0,0.14223474970431538,2.0,1
16.2399959564209,-17.892553329467773,0.8840499520301819,-0.0,-0.0,-1.0,0.15160695051395004,1.0,1
16.614194869995117,-18.48863983154297,0.878106951713562,-0.0,-0.0,-1.0,0.2112369485572207,2.0,1
16.9117374420166,-18.41459083557129,0.8803642988204956,-0.0,-0.0,-1.0,0.19000732004209367,1.0,1
17.021589279174805,-18.86086654663086,0.8750473260879517,-0.0,-0.0,-1.0,0.2015188465037479,1.0,1
17.062664031982422,-19.237834930419922,0.8703246116638184,-0.0,-0.0,-1.0,0.22738107883346476,2.0,1
17.387737274169922,-19.17461585998535,0.8724547624588013,-0.0,-0.0,-1.0,0.22803990136801267,1.0,1
15.94575309753418,-17.797657012939453,0.9866896867752075,-0.5389083503910694,0.5633704831665658,-0.6262519369833885,0.13795401166224888,6.0,1
16.295612335205078,-18.473548889160156,0.9568552374839783,-0.0,-0.0,-1.0,0.15763177662145705,2.0,1
16.642562866210938,-18.500152587890625,0.9427112340927124,-0.0,-0.0,-1.0,0.25476059781417276,1.0,1
16.83601188659668,-18.746849060058594,0.9291478395462036,-0.0,-0.0,-1.0,0.1851750741103187,1.0,1
16.941421508789062,-18.53762435913086,0.9301040172576904,-0.0,-0.0,-1.0,0.2269797059734898,2.0,1
16.94352912902832,-18.682193756103516,0.9265053868293762,-0.0,-0.0,-1.0,0.1498215986022636,1.0,1
17.183923721313477,-19.077632904052734,0.9073935747146606,-0.0,-0.0,-1.0,0.21448598796785287,1.0,1
17.469627380371094,-18.85599136352539,0.901509702205658,-0.0,-0.0,-1.0,0.15903475624766553,1.0,1
17.549205780029297,-19.04206085205078,0.8937975168228149,-0.0,-0.0,-1.0,0.224155883367488,1.0,1
16.542259216308594,-18.395950317382812,0.9053618907928467,0.8654664146247758,-0.46936512168130956,-0.1751121575037697,0.15790247848444927,3.0,1
16.693096160888672,-18.32328987121582,0.8994461297988892,-0.8846583625437253,0.3486306467493705,-0.3095743105113383,0.22976540372004117,3.0,1
16.772930145263672,-18.600929260253906,0.8851042985916138,-0.8088551832617921,-0.48301121734734437,-0.33534080638533853,0.21081447988144328,3.0,1
17.265483856201172,-19.21401023864746,0.8349459171295166,-0.0,-0.0,-1.0,0.23548920339032844,1.0,1
17.601123809814453,-18.62218475341797,0.836656928062439,-0.0,-0.0,-1.0,0.18198470814554182,1.0,1
15.780828475952148,-17.678882598876953,0.9723073840141296,-0.0,-0.0,-1.0,0.13746155133517732,2.0,1
16.29559326171875,-17.88321304321289,0.9370946288108826,-0.0,-0.0,-1.0,0.17763713159127809,1.0,1
17.247314453125,-17.74981689453125,0.8883461952209473,0.24116118460742034,0.6531579253683009,-0.7177924543817124,0.2520278089758871,4.0,1
17.44686508178711,-18.441505432128906,0.8521441221237183,-0.0,-0.0,-1.0,0.17363044243144116,2.0,1
16.93511962890625,-16.875932693481445,0.7811691164970398,-0.0,-0.0,-1.0,0.18912577406295863,1.0,1
16.722705841064453,-17.994613647460938,0.7435646653175354,-0.0,-0.0,-1.0,0.10656869239442303,1.0,1
16.93906593322754,-18.05519676208496,0.7305446267127991,0.6919571335619428,0.3380880261664249,-0.6378807191596485,0.1636499152857577,3.0,1
17.00162696838379,-16.902135848999023,0.776887059211731,-0.0,-0.0,-1.0,0.17924880680338048,2.0,1
17.068235397338867,-18.01993179321289,0.7257879972457886,-0.0,-0.0,-1.0,0.12616896364540606,2.0,1
17.546995162963867,-17.99907112121582,0.7031255960464478,-0.0,-0.0,-1.0,0.0947338795504507,1.0,1
16.028411865234375,-18.104019165039062,1.109209656715393,-0.0,-0.0,-1.0,0.1785065797030288,2.0,2
16.06060028076172,-18.409603118896484,1.097912311553955,-0.0,-0.0,-1.0,0.1867782130609993,1.0,2
16.187602996826172,-18.570335388183594,1.0859334468841553,-0.0,-0.0,-1.0,0.1729864828844047,1.0,2
16.335607528686523,-18.509849548339844,1.0797039270401,0.7263289963281276,0.3474704025876512,-0.5930518598053214,0.1779260648537309,3.0,2
16.546947479248047,-18.578340530395508,1.065924048423767,-0.0,-0.0,-1.0,0.21295055337597973,2.0,2
16.814895629882812,-18.696727752685547,1.047412395477295,-0.0,-0.0,-1.0,0.19102732938171155,1.0,2
16.91018295288086,-19.093656539916992,1.0296090841293335,-0.0,-0.0,-1.0,0.13380576585679702,1.0,2
16.97561264038086,-19.34899139404297,1.0179380178451538,-0.0,-0.0,-1.0,0.17862714707139016,1.0,2
17.165346145629883,-18.36421775817871,1.0384701490402222,-0.0,-0.0,-1.0,0.20233919062177114,1.0,2
17.416990280151367,-18.99694061279297,1.0044686794281006,-0.0,-0.0,-1.0,0.11092972330899098,1.0,2
17.592144012451172,-18.92753791809082,0.99687659740448,-0.0,-0.0,-1.0,0.17548663829449399,2.0,1
15.54973316192627,-18.058408737182617,1.1469848155975342,-0.0,-0.0,-1.0,0.20122921921324788,1.0,2
15.654126167297363,-18.5067138671875,1.1257535219192505,-0.0,-0.0,-1.0,0.21073015462279035,2.0,2
15.746918678283691,-17.979204177856445,1.1395111083984375,0.6507298681926891,0.33751860756055774,-0.6801704405458292,0.19498757593432528,3.0,2
15.826144218444824,-18.532390594482422,1.115769624710083,-0.0,-0.0,-1.0,0.13480040162167492,1.0,2
16.108322143554688,-18.357967376708984,1.1070141792297363,-0.0,-0.0,-1.0,0.2739612381876684,1.0,2
16.288928985595703,-18.561325073242188,1.0900156497955322,-0.0,-0.0,-1.0,0.17345981662532833,2.0,2
16.627138137817383,-18.576475143432617,1.0711266994476318,-0.06826687989638118,0.624715130780307,-0.7778628661167449,0.22162430826307664,3.0,2
16.721914291381836,-18.811519622802734,1.0573577880859375,-0.0,-0.0,-1.0,0.2346888629749956,1.0,2
17.30130386352539,-18.994400024414062,1.0182952880859375,-0.0,-0.0,-1.0,0.12316945677494255,1.0,2
17.094446182250977,-19.237503051757812,1.0209656953811646,-0.0,-0.0,-1.0,0.2319401111296137,1.0,2
17.564373016357422,-18.8812198638916,1.00754976272583,-0.0,-0.0,-1.0,0.17077705344022212,1.0,2
17.361328125,-16.871644973754883,0.6060435771942139,-0.0,-0.0,-1.0,0.06611645827546307,2.0,1
15.588316917419434,-18.060319900512695,1.2044792175292969,-0.0,-0.0,-1.0,0.205900229292025,1.0,2
15.726387977600098,-18.536907196044922,1.1794354915618896,-0.0,-0.0,-1.0,0.17268211844866305,1.0,2
15.948797225952148,-17.5659236907959,1.220206618309021,0.6668423552172842,0.013103753685482604,-0.74508359593244,0.08570979149758663,3.0,2
15.968292236328125,-18.108600616455078,1.194467306137085,-0.0,-0.0,-1.0,0.17276096041006048,1.0,2
16.0616455078125,-18.496549606323242,1.1742297410964966,-0.0,-0.0,-1.0,0.15447944841025074,2.0,2
16.26251792907715,-18.66620635986328,1.1618342399597168,0.4116732133499937,0.9050804473202451,0.10655772749395293,0.20953709771215293,4.0,2
16.490245819091797,-18.73975944519043,1.1532158851623535,0.17177620362764048,0.6369027933758695,-0.7515635486486085,0.27507200464988485,3.0,2
16.684616088867188,-19.065065383911133,1.1331567764282227,-0.0,-0.0,-1.0,0.16494502454885962,1.0,2
17.66299057006836,-19.32290267944336,1.0964776277542114,-0.0,-0.0,-1.0,0.21658766643192764,1.0,2
16.16105079650879,-17.294300079345703,0.7215983867645264,-0.6261161382817165,0.03603033247179138,-0.7788969100755005,0.08819894126184101,3.0,1
16.929759979248047,-16.9074764251709,0.7396496534347534,0.1447116467921364,-0.630727539308796,-0.762391835239714,0.17289212923494268,3.0,1
17.007566452026367,-17.666168212890625,0.6734861135482788,-0.0,-0.0,-1.0,0.17740786326300803,1.0,1
17.30258560180664,-17.484241485595703,0.682573676109314,0.739084320490753,0.659354309969803,0.13786319715198367,0.04171930663781757,3.0,1
17.48122787475586,-17.531145095825195,0.6744247674942017,0.7514188421445982,-0.6441312969057189,-0.14305452113312622,0.042327131566552455,3.0,1
15.325475692749023,-19.084707260131836,1.2780791521072388,-0.0,-0.0,-1.0,0.1527902618382984,1.0,2
15.330628395080566,-19.280902862548828,1.2674676179885864,-0.0,-0.0,-1.0,0.18753671274103892,1.0,2
15.386242866516113,-17.542701721191406,1.3570756912231445,-0.5009842918397559,0.5305207094946658,-0.6837854313504308,0.21349083918238987,3.0,2
15.473102569580078,-18.153409957885742,1.3221421241760254,-0.0,-0.0,-1.0,0.22028000233826572,2.0,2
15.781889915466309,-18.754377365112305,1.279412865638733,-0.0,-0.0,-1.0,0.15927959532600744,2.0,2
15.904473304748535,-17.93093490600586,1.3188650608062744,-0.0,-0.0,-1.0,0.18866520849915758,1.0,2
16.1036376953125,-18.696548461914062,1.2708475589752197,-0.0,-0.0,-1.0,0.13835807002621595,1.0,2
16.360492706298828,-18.80133056640625,1.2557499408721924,-0.0,-0.0,-1.0,0.11927464497369866,1.0,2
16.382905960083008,-18.969459533691406,1.245811939239502,-0.0,-0.0,-1.0,0.17699980921153627,1.0,2
16.632125854492188,-17.523008346557617,1.314612865447998,-0.0,-0.0,-1.0,0.1527094983829435,1.0,2
15.20987606048584,-17.93541145324707,1.1031204462051392,-0.0,-0.0,-1.0,0.1527792271413656,1.0,2
15.276100158691406,-18.344194412231445,1.0749595165252686,-0.0,-0.0,-1.0,0.1706271655979836,1.0,2
15.322644233703613,-17.491878509521484,1.1287384033203125,-0.0,-0.0,-1.0,0.18304569533090423,1.0,2
15.673571586608887,-17.513025283813477,1.118653416633606,-0.0,-0.0,-1.0,0.1177684042407829,1.0,2
15.694379806518555,-18.07750701904297,1.081099271774292,-0.0,-0.0,-1.0,0.2142618857462669,1.0,2
15.858268737792969,-18.520071029663086,1.0468682050704956,-0.0,-0.0,-1.0,0.2020602764294611,1.0,2
15.797957420349121,-17.598573684692383,1.1097944974899292,-0.0,-0.0,-1.0,0.1948070292384833,1.0,2
16.096084594726562,-18.029436111450195,1.0728696584701538,-0.0,-0.0,-1.0,0.220472633444526,2.0,2
16.21934700012207,-18.421772003173828,1.0425149202346802,-0.0,-0.0,-1.0,0.22253091634353883,1.0,2
16.42725944519043,-18.53558921813965,1.0280215740203857,-0.0,-0.0,-1.0,0.12844803985641515,2.0,2
16.606510162353516,-18.68133544921875,1.0118656158447266,-0.0,-0.0,-1.0,0.24436032574778985,2.0,2
16.841819763183594,-18.767440795898438,0.9976379871368408,-0.0,-0.0,-1.0,0.184504122181201,1.0,1
16.99530792236328,-19.278095245361328,0.9555844068527222,-0.0,-0.0,-1.0,0.19950722449294053,1.0,1
17.330406188964844,-19.03645133972168,0.9601231813430786,-0.0,-0.0,-1.0,0.23563091936625719,1.0,1
15.459670066833496,-18.123104095458984,1.7155431509017944,-0.30510960922519126,0.274261623712631,-0.9119696749985506,0.16449344656625803,3.0,2
17.299360275268555,-16.8721923828125,0.6119849681854248,-0.0,-0.0,-1.0,0.0660440186460708,1.0,1
17.525041580200195,-16.961944580078125,0.6071414947509766,-0.0,-0.0,-1.0,0.15285790181146178,1.0,1
15.255505561828613,-17.859619140625,1.1011192798614502,-0.0,-0.0,-1.0,0.17108497194261957,1.0,2
15.323439598083496,-18.270435333251953,1.0790995359420776,-0.0,-0.0,-1.0,0.20586673791226967,1.0,2
15.682548522949219,-17.583030700683594,1.1158287525177002,-0.0,-0.0,-1.0,0.19194662261536494,1.0,2
15.783551216125488,-17.938297271728516,1.096473217010498,-0.0,-0.0,-1.0,0.21402889234305894,1.0,2
15.890987396240234,-18.115970611572266,1.0864638090133667,-0.0,-0.0,-1.0,0.22398900958027435,2.0,2
15.92981243133545,-17.337928771972656,1.1288330554962158,-0.0,-0.0,-1.0,0.17021205829786934,1.0,2
15.890341758728027,-17.585294723510742,1.1155072450637817,-0.5595793794807581,-0.35815877878535607,-0.7473909333400509,0.15286816236422138,4.0,2
16.15668487548828,-18.284954071044922,1.076225757598877,-0.17880942827253665,-0.9689435862754097,-0.17080841600048963,0.2636094152511475,3.0,2
16.325702667236328,-18.518970489501953,1.0622291564941406,0.7263289963281276,0.3474704025876512,-0.5930518598053214,0.18988074085139878,3.0,2
16.65979766845703,-18.832456588745117,1.0422282218933105,-0.0,-0.0,-1.0,0.21365577804741218,1.0,2
16.86124610900879,-19.14746856689453,1.0222527980804443,-0.0,-0.0,-1.0,0.14409210199854253,1.0,2
17.162630081176758,-18.80498504638672,1.039872169494629,-0.0,-0.0,-1.0,0.2512605658550314,1.0,2
17.173938751220703,-19.082103729248047,1.0233523845672607,-0.0,-0.0,-1.0,0.14698449803520894,2.0,2
15.2235746383667,-18.02613067626953,1.703822135925293,-0.0,-0.0,-1.0,0.14730375391289824,1.0,2
15.435274124145508,-18.455677032470703,1.6882816553115845,-0.0,-0.0,-1.0,0.19274065265031085,2.0,2
16.308982849121094,-17.88910484313965,0.8136121034622192,-0.0,-0.0,-1.0,0.14195816440158446,1.0,1
16.444061279296875,-18.131118774414062,0.7998502254486084,-0.0,-0.0,-1.0,0.20045470229288584,1.0,1
16.534297943115234,-17.777725219726562,0.8252899646759033,-0.0,-0.0,-1.0,0.19572872450892162,2.0,1
16.710556030273438,-18.192317962646484,0.8002854585647583,-0.0,-0.0,-1.0,0.14276905842991272,1.0,1
16.810420989990234,-18.851469039916992,0.7563670873641968,-0.0,-0.0,-1.0,0.17503262041818543,1.0,1
16.87550926208496,-19.014846801757812,0.7458583116531372,-0.0,-0.0,-1.0,0.12718150342146856,1.0,1
16.85369873046875,-16.99691390991211,0.8834819197654724,-0.0,-0.0,-1.0,0.17219362811530683,1.0,1
17.29738426208496,-18.321718215942383,0.8004868030548096,-0.0,-0.0,-1.0,0.20452298471723804,1.0,1
17.153276443481445,-18.74686622619629,0.7685866355895996,-0.0,-0.0,-1.0,0.18617807843261716,1.0,1
17.245635986328125,-19.05027198791504,0.748318076133728,-0.0,-0.0,-1.0,0.2174565451128403,1.0,1
17.27468490600586,-17.81293487548828,0.8355691432952881,-0.0,-0.0,-1.0,0.13453417347432434,1.0,1
15.523503303527832,-17.58098793029785,1.3888299465179443,-0.0,-0.0,-1.0,0.14385467444925548,2.0,2
15.411827087402344,-18.131492614746094,1.3682618141174316,-0.0,-0.0,-1.0,0.20978366555097566,1.0,2
15.977022171020508,-17.524120330810547,1.3907856941223145,0.6654521242874794,-0.7034663309646554,-0.24961688941337176,0.06236453702664305,5.0,2
16.715782165527344,-18.492570877075195,1.3513373136520386,-0.03563765420564184,-0.2530432428205485,-0.9667983630859021,0.2605733260546771,3.0,2
16.998126983642578,-18.385408401489258,1.3545032739639282,-0.5964560369969778,-0.583266097890852,-0.5513989979869738,0.11172155545544156,4.0,2
15.85473346710205,-17.179590225219727,0.9490291476249695,-0.0,-0.0,-1.0,0.13098272174221184,1.0,1
15.9055814743042,-17.588489532470703,0.9241531491279602,-0.0,-0.0,-1.0,0.18813807752364262,2.0,1
16.054962158203125,-17.98441505432129,0.9015228152275085,-0.0,-0.0,-1.0,0.2161956351115252,1.0,1
16.363435745239258,-17.956539154052734,0.9088407754898071,-0.0,-0.0,-1.0,0.17596502910203768,2.0,1
16.40170669555664,-18.33378028869629,0.8843950033187866,-0.0,-0.0,-1.0,0.12575341208989566,1.0,1
16.718910217285156,-17.160720825195312,0.9674086570739746,-0.0,-0.0,-1.0,0.1532406237781706,1.0,1
16.63714599609375,-18.341318130493164,0.8875961303710938,-0.0,-0.0,-1.0,0.21717738288056648,1.0,1
16.73426628112793,-18.743715286254883,0.8615596294403076,-0.0,-0.0,-1.0,0.2516374938844982,1.0,1
16.621967315673828,-19.168052673339844,0.8307441473007202,-0.0,-0.0,-1.0,0.12395623772053248,1.0,1
17.233253479003906,-17.78389549255371,0.9344366788864136,-0.0,-0.0,-1.0,0.17014599901900104,1.0,1
17.254966735839844,-18.47965431213379,0.8867847323417664,-0.0,-0.0,-1.0,0.19399987542862893,2.0,1
17.064002990722656,-19.27376937866211,0.8287675380706787,-0.0,-0.0,-1.0,0.2055394477127535,2.0,1
17.350923538208008,-18.536216735839844,0.8840291500091553,-0.0,-0.0,-1.0,0.19362645726275843,2.0,1
17.400800704956055,-18.655763626098633,0.8762297630310059,-0.0,-0.0,-1.0,0.2023090129067654,2.0,1
15.222150802612305,-18.70442008972168,1.420428991317749,-0.9148552578807342,-0.21359649173628992,-0.34266075912763067,0.2300641435872311,3.0,2
15.681066513061523,-17.930681228637695,1.448168396949768,-0.0,-0.0,-1.0,0.1672370551850627,1.0,2
15.48836898803711,-18.230236053466797,1.437496304512024,-0.0,-0.0,-1.0,0.22990487191157596,2.0,2
15.934589385986328,-17.56724739074707,1.4610341787338257,-0.0,-0.0,-1.0,0.048250424795059026,1.0,2
16.51919174194336,-18.731887817382812,1.412542700767517,-0.0,-0.0,-1.0,0.14047171180700294,2.0,2
17.677400588989258,-18.683948516845703,1.405513048171997,-0.8224899280707476,0.07511677866129873,-0.5637976479072314,0.17081505436487832,3.0,2
16.341732025146484,-17.880720138549805,0.8694964051246643,-0.0,-0.0,-1.0,0.17444811687489284,2.0,1
16.378334045410156,-18.203737258911133,0.8491584062576294,-0.0,-0.0,-1.0,0.1455417340865279,1.0,1
16.596912384033203,-18.220317840576172,0.8541477918624878,-0.0,-0.0,-1.0,0.18897990863897424,2.0,1
16.685832977294922,-18.66183853149414,0.8264155387878418,-0.0,-0.0,-1.0,0.2563861812136005,2.0,1
16.611106872558594,-19.040681838989258,0.7982980012893677,-0.0,-0.0,-1.0,0.21000930508801963,1.0,1
17.13165855407715,-17.820964813232422,0.8958264589309692,-0.0,-0.0,-1.0,0.21292522205656297,1.0,1
17.24077606201172,-18.45029067993164,0.8551608324050903,-0.4298724034857796,-0.7496714955846505,-0.5031921754451598,0.1642840635023307,3.0,1
16.918485641479492,-19.195789337158203,0.794907808303833,-0.0,-0.0,-1.0,0.18191538436246957,1.0,1
17.300487518310547,-18.494443893432617,0.8535177111625671,-0.0,-0.0,-1.0,0.17645641868600165,2.0,1
15.512335777282715,-18.504552841186523,1.3421673774719238,-0.0,-0.0,-1.0,0.20432415052296493,1.0,2
15.22754955291748,-18.647972106933594,1.3346617221832275,-0.0,-0.0,-1.0,0.22077830515580255,2.0,2
15.228330612182617,-19.219524383544922,1.311964750289917,-0.0,-0.0,-1.0,0.17596636791966122,2.0,2
16.671600341796875,-16.991764068603516,0.9373297691345215,-0.0,-0.0,-1.0,0.1639784263571124,1.0,1
16.063039779663086,-18.92858123779297,1.3281052112579346,-0.0,-0.0,-1.0,0.17000083929153406,2.0,2
15.991582870483398,-19.18268585205078,1.317309856414795,-0.0,-0.0,-1.0,0.1370922362772294,1.0,2
16.729496002197266,-17.098419189453125,0.932257354259491,-0.0,-0.0,-1.0,0.1188677635654529,2.0,1
17.38375473022461,-16.902894973754883,0.964594841003418,-0.0,-0.0,-1.0,0.09942605971954659,1.0,1
15.347871780395508,-17.5523624420166,1.3776934146881104,-0.0,-0.0,-1.0,0.17111555202754336,2.0,2
15.77058219909668,-17.858491897583008,1.369233250617981,-0.0,-0.0,-1.0,0.16715031166351313,2.0,2
16.511146545410156,-17.231416702270508,1.398818016052246,-0.0,-0.0,-1.0,0.1376231755910635,2.0,2
16.113929748535156,-18.591699600219727,1.3421289920806885,-0.0,-0.0,-1.0,0.20648395389091234,1.0,2
15.288398742675781,-18.441009521484375,1.883985161781311,-0.0,-0.0,-1.0,0.1808798178211963,1.0,2
15.357937812805176,-17.565378189086914,0.9768799543380737,-0.0,-0.0,-1.0,0.20078433968024037,1.0,1
15.25278377532959,-17.92495346069336,0.9481792449951172,-0.0,-0.0,-1.0,0.21926324942906822,1.0,1
15.937868118286133,-17.951879501342773,0.9567528367042542,-0.8211390821847432,-0.4354679176444752,-0.3689150314248286,0.16340491582912042,3.0,1
15.952674865722656,-18.168312072753906,0.9415403604507446,-0.0,-0.0,-1.0,0.1592075523560918,1.0,1
16.115901947021484,-18.043546676635742,0.9521865248680115,-0.0,-0.0,-1.0,0.22402727646687648,1.0,1
16.226959228515625,-18.351558685302734,0.9318816661834717,-0.0,-0.0,-1.0,0.1950651359855572,2.0,1
17.052082061767578,-16.979896545410156,0.6150710582733154,-0.0,-0.0,-1.0,0.1596165733895915,2.0,1
17.152135848999023,-17.271934509277344,0.5901638269424438,-0.0,-0.0,-1.0,0.061011142852224864,1.0,1
16.662574768066406,-18.670061111450195,0.9107120037078857,-0.0,-0.0,-1.0,0.2990152650268969,2.0,1
17.52513885498047,-17.032302856445312,0.6288609504699707,-0.0,-0.0,-1.0,0.15285790181146172,2.0,1
16.75836181640625,-18.67009925842285,0.9115918874740601,-0.0,-0.0,-1.0,0.2724757260395981,1.0,1
16.762950897216797,-18.981460571289062,0.885790228843689,-0.0,-0.0,-1.0,0.16867710262358276,1.0,1
17.165584564208984,-19.159244537353516,0.8737101554870605,-0.0,-0.0,-1.0,0.1780901005526991,1.0,1
17.018001556396484,-19.26633644104004,0.8637169599533081,-0.0,-0.0,-1.0,0.20049680534235212,1.0,1
15.828795433044434,-17.51915168762207,0.9913108348846436,0.8552314805903454,-0.15685793235420026,-0.49393795527860684,0.23054874424047075,5.0,1
15.783365249633789,-17.633956909179688,0.9788522720336914,-0.0,-0.0,-1.0,0.13548201214623684,2.0,1
16.12006378173828,-17.06350326538086,1.0304415225982666,-0.0,-0.0,-1.0,0.11890736418524392,1.0,2
15.920999526977539,-17.55913734436035,0.9896925687789917,-0.0,-0.0,-1.0,0.19328400120517972,2.0,1
15.901378631591797,-17.702064514160156,0.9754948019981384,-0.0,-0.0,-1.0,0.15975979097292042,2.0,1
16.65933609008789,-17.19967269897461,1.0264822244644165,-0.0,-0.0,-1.0,0.14121439585786325,1.0,2
16.350082397460938,-17.99721908569336,0.961577832698822,-0.0,-0.0,-1.0,0.1560650190168758,1.0,1
16.649810791015625,-18.26007080078125,0.9440221190452576,-0.0,-0.0,-1.0,0.21409542611730603,2.0,1
16.627944946289062,-18.43227767944336,0.9297875165939331,-0.0,-0.0,-1.0,0.27843461371120287,2.0,1
16.83774185180664,-18.651599884033203,0.9138267636299133,0.6749882840876369,-0.6096274619900416,-0.4156262430742406,0.24230661179714397,3.0,1
17.264564514160156,-18.440492630004883,0.9349195957183838,-0.0,-0.0,-1.0,0.14630563141577518,1.0,1
17.370540618896484,-18.567752838134766,0.9250373244285583,-0.0,-0.0,-1.0,0.1779791556784222,1.0,1
17.651371002197266,-18.625003814697266,0.922010064125061,-0.0,-0.0,-1.0,0.22926749947504974,2.0,1
15.523141860961914,-18.24471092224121,1.4293007850646973,-0.0,-0.0,-1.0,0.22298110106244903,2.0,2
15.235702514648438,-18.739511489868164,1.4061219692230225,-0.9148552578807342,-0.21359649173628992,-0.34266075912763067,0.20284723695450088,3.0,2
15.680266380310059,-18.567180633544922,1.4133533239364624,-0.0,-0.0,-1.0,0.16928213573762588,2.0,2
16.426422119140625,-17.309551239013672,1.4693739414215088,-0.0,-0.0,-1.0,0.1205661970895858,1.0,2
16.20330238342285,-18.448915481567383,1.4135255813598633,-0.0,-0.0,-1.0,0.11549135927856027,1.0,2
17.696043014526367,-18.670555114746094,1.380101203918457,-0.8224899280707476,0.07511677866129873,-0.5637976479072314,0.14096182456579262,3.0,2
17.26053237915039,-16.915496826171875,0.6041419506072998,-0.0,-0.0,-1.0,0.06814249084261158,1.0,1
17.55908966064453,-17.05148696899414,0.6127762794494629,-0.0,-0.0,-1.0,0.15569653531786443,2.0,1
15.67988395690918,-17.053829193115234,0.9141613245010376,-0.0,-0.0,-1.0,0.09358368321627204,1.0,1
15.486611366271973,-17.61138153076172,0.8716660141944885,-0.0,-0.0,-1.0,0.1354012706253035,1.0,1
15.960612297058105,-17.7672061920166,0.8843514323234558,-0.0,-0.0,-1.0,0.21616551726302088,1.0,1
16.00714111328125,-18.07323455810547,0.8672106266021729,-0.0,-0.0,-1.0,0.142223987163143,2.0,1
16.78411102294922,-17.186317443847656,0.9584880471229553,-0.39824463482379513,0.2398769860133212,-0.8853588212782584,0.10730719812317134,3.0,1
16.45877456665039,-17.940507888793945,0.8957506418228149,-0.0,-0.0,-1.0,0.1977393578873181,1.0,1
16.32638931274414,-18.211393356323242,0.872368335723877,-0.0,-0.0,-1.0,0.145200034974176,1.0,1
16.896743774414062,-17.328060150146484,0.9545509219169617,-0.0,-0.0,-1.0,0.19583600077392058,1.0,1
16.592803955078125,-18.213348388671875,0.8836429119110107,-0.0,-0.0,-1.0,0.21184271695938536,2.0,1
16.472930908203125,-18.444393157958984,0.8632045388221741,-0.0,-0.0,-1.0,0.13373225974105876,1.0,1
17.201478958129883,-17.92348289489746,0.9284777641296387,-0.0,-0.0,-1.0,0.08855550926816488,1.0,1
16.93225860595703,-18.114418029785156,0.9045087099075317,-0.0,-0.0,-1.0,0.1630813719193783,1.0,1
16.74448013305664,-18.690433502197266,0.8578245639801025,-0.0,-0.0,-1.0,0.2655209527357085,1.0,1
16.668060302734375,-18.9735107421875,0.8353461027145386,-0.0,-0.0,-1.0,0.1962503251223651,1.0,1
17.339797973632812,-18.506195068359375,0.8940036296844482,-0.0,-0.0,-1.0,0.15896282449042454,2.0,1
17.337738037109375,-18.682300567626953,0.8815951943397522,-0.0,-0.0,-1.0,0.19991877860454374,1.0,1
17.093034744262695,-19.23804473876953,0.833113431930542,-0.6315292089244231,0.5763124117018531,-0.5186857067566892,0.22741142943565348,3.0,1
15.411760330200195,-17.55918312072754,1.3255927562713623,-0.0,-0.0,-1.0,0.15752802145595712,2.0,2
15.656682014465332,-17.82282829284668,1.3207021951675415,-0.0,-0.0,-1.0,0.15324841205957068,1.0,2
15.217491149902344,-18.265647888183594,1.2946780920028687,-0.0,-0.0,-1.0,0.222269203246246,1.0,2
15.949885368347168,-17.681133270263672,1.3321216106414795,-0.0,-0.0,-1.0,0.10638344988784779,1.0,2
15.916269302368164,-18.010942459106445,1.3185579776763916,-0.0,-0.0,-1.0,0.1169976625386395,2.0,2
15.566472053527832,-18.445087432861328,1.2945295572280884,-0.0,-0.0,-1.0,0.12068748109902773,1.0,2
15.426701545715332,-18.714942932128906,1.2811362743377686,-0.0,-0.0,-1.0,0.20428419654991048,1.0,2
15.323617935180664,-19.221824645996094,1.2587617635726929,-0.0,-0.0,-1.0,0.14170705905041936,2.0,2
16.573749542236328,-17.242761611938477,1.3616752624511719,-0.0,-0.0,-1.0,0.10495944162268954,1.0,2
16.08674430847168,-18.097381591796875,1.3184163570404053,-0.0,-0.0,-1.0,0.1704611782336826,1.0,2
16.0776309967041,-18.482494354248047,1.3026976585388184,-0.0,-0.0,-1.0,0.19408060228028284,1.0,2
15.702486038208008,-19.046154022216797,1.2728207111358643,-0.0,-0.0,-1.0,0.0809153747663288,1.0,2
15.831342697143555,-19.261741638183594,1.2661476135253906,-0.0,-0.0,-1.0,0.15287952063127225,1.0,2
16.211410522460938,-18.934051513671875,1.2863965034484863,-0.0,-0.0,-1.0,0.15778888006968644,1.0,2
16.057785034179688,-19.06060028076172,1.2784502506256104,-0.0,-0.0,-1.0,0.22116100743019396,1.0,2
17.111316680908203,-18.29886817932129,1.3283371925354004,-0.0,-0.0,-1.0,0.17022140023012386,2.0,2
16.96446418762207,-18.522144317626953,1.316417932510376,-0.0,-0.0,-1.0,0.1638959612082967,1.0,2
17.172393798828125,-18.811716079711914,1.3072073459625244,0.7883842901036975,0.5019997779502181,-0.3555930736890423,0.23387895890247326,3.0,2
15.47002124786377,-18.174304962158203,1.7689118385314941,-0.0,-0.0,-1.0,0.13444548513571458,1.0,2
15.509827613830566,-18.515087127685547,1.7632908821105957,-0.0,-0.0,-1.0,0.11853518349729221,1.0,2
16.888595581054688,-16.915599822998047,0.7385566234588623,-0.0,-0.0,-1.0,0.18138504861167232,2.0,1
16.792089462280273,-17.30364227294922,0.6931058168411255,-0.0,-0.0,-1.0,0.17225401303914448,2.0,1
17.467477798461914,-16.974573135375977,0.7645653486251831,-0.0,-0.0,-1.0,0.17493200923350938,1.0,1
16.939189910888672,-17.602214813232422,0.6693857908248901,-0.0,-0.0,-1.0,0.10973412678557984,1.0,1
16.820556640625,-17.6522274017334,0.6578305959701538,-0.0,-0.0,-1.0,0.08827514890561393,2.0,1
17.464614868164062,-17.55653953552246,0.7015055418014526,-0.0,-0.0,-1.0,0.05061711404125393,2.0,1
17.393157958984375,-17.695850372314453,0.6825188398361206,-0.0,-0.0,-1.0,0.07116049254518766,1.0,1
17.694379806518555,-17.67975425720215,0.6991244554519653,-0.0,-0.0,-1.0,0.07520504017632469,1.0,1
17.60735321044922,-17.976720809936523,0.6615266799926758,-0.0,-0.0,-1.0,0.07442732827271646,1.0,1
15.361352920532227,-17.43561553955078,1.014458179473877,0.6962068995643925,-0.6528937051605462,-0.29837185316425113,0.28400567593639076,3.0,2
15.792339324951172,-17.265213012695312,1.0414323806762695,-0.0,-0.0,-1.0,0.14562209192396203,1.0,2
15.620895385742188,-17.704421997070312,1.0018130540847778,0.9996959310899869,-0.02281936078234045,0.009344631378988806,0.18682282261366842,3.0,2
15.364542961120605,-17.853002548217773,0.9822206497192383,-0.0,-0.0,-1.0,0.16593966797258414,2.0,1
16.090801239013672,-17.136533737182617,1.0608736276626587,0.4571358602594397,0.8514409226970829,-0.25705089072322224,0.17067804115160662,4.0,2
15.929191589355469,-17.537456512451172,1.024430274963379,-0.0,-0.0,-1.0,0.23633103085285312,2.0,2
15.908717155456543,-17.822826385498047,1.0010504722595215,-0.4900527063789573,0.6240061314770433,-0.608658108341386,0.20762954652249851,5.0,2
15.684918403625488,-18.242259979248047,0.9606943130493164,-0.0,-0.0,-1.0,0.17001619172759913,2.0,1
16.20702362060547,-18.042072296142578,0.9917616248130798,-0.2575071008995421,-0.9151369138075256,-0.31018465786229754,0.20004294943555898,4.0,1
16.099323272705078,-18.220169067382812,0.9740788340568542,-0.0,-0.0,-1.0,0.15350327617844559,1.0,1
16.02474021911621,-18.560077667236328,0.9438332319259644,-0.0,-0.0,-1.0,0.15099228990751867,1.0,1
16.879573822021484,-17.418472290039062,1.0618095397949219,-0.0,-0.0,-1.0,0.09677754172684079,2.0,2
16.618051528930664,-18.36609649658203,0.9755117893218994,-0.2672910645954001,-0.529138705076964,-0.8053370211140992,0.20765190919453588,5.0,1
16.378921508789062,-18.439468383789062,0.9631590843200684,0.2825067143942097,0.8616319745410954,0.4216400085032268,0.18089181297635032,3.0,1
16.650527954101562,-18.75335693359375,0.942945122718811,-0.0,-0.0,-1.0,0.22791050025998008,2.0,1
16.648807525634766,-19.088125228881836,0.9136837720870972,-0.0,-0.0,-1.0,0.2067499035059748,1.0,1
17.306377410888672,-18.70718765258789,0.9616550207138062,-0.0,-0.0,-1.0,0.23903378905316275,1.0,1
17.061885833740234,-18.917755126953125,0.9377552270889282,-0.0,-0.0,-1.0,0.14891498436086115,1.0,1
16.784461975097656,-19.033527374267578,0.9214984774589539,-0.0,-0.0,-1.0,0.19720448659746026,1.0,1
15.50765609741211,-17.603208541870117,1.4213581085205078,-0.0,-0.0,-1.0,0.18725419971165502,2.0,2
15.966773986816406,-17.549707412719727,1.425990343093872,0.9765812526808636,-0.14472079241406233,-0.15920097096224364,0.06395372590111939,5.0,2
15.552621841430664,-18.48843765258789,1.3705134391784668,-0.0,-0.0,-1.0,0.2245959844008053,1.0,2
16.483224868774414,-17.23466682434082,1.4456019401550293,-0.0,-0.0,-1.0,0.16491098453491562,1.0,2
16.04549789428711,-18.005905151367188,1.399794578552246,-0.7395786544674977,-0.5491995823995777,-0.38910568300678355,0.19571637597152963,5.0,2
15.708765983581543,-18.576202392578125,1.3656401634216309,-0.0,-0.0,-1.0,0.15534380157743893,1.0,2
16.196880340576172,-18.852466583251953,1.349334478378296,-0.0,-0.0,-1.0,0.1525102793395113,1.0,2
16.035707473754883,-19.09951400756836,1.334273099899292,-0.0,-0.0,-1.0,0.19652624727505744,1.0,2
17.050851821899414,-18.207101821899414,1.388444423675537,-0.0,-0.0,-1.0,0.1726206592563048,1.0,2
16.935850143432617,-18.489582061767578,1.3711490631103516,-0.29477719774280997,0.7601551137924272,-0.5790255665047258,0.1935312734529368,3.0,2
17.627105712890625,-19.143587112426758,1.3279575109481812,-0.0,-0.0,-1.0,0.14843272908841387,2.0,2
16.46389389038086,-17.561439514160156,0.6893625259399414,-0.0,-0.0,-1.0,0.09952872972566078,1.0,1
16.74701499938965,-17.530956268310547,0.7109816074371338,-0.0,-0.0,-1.0,0.05643340871521762,1.0,1
16.680463790893555,-17.644569396972656,0.6948714256286621,-0.0,-0.0,-1.0,0.0630754563038211,1.0,1
17.03764533996582,-17.76313591003418,0.7049800157546997,-0.0,-0.0,-1.0,0.10981251433424596,2.0,1
16.11328887939453,-17.148386001586914,1.0678187608718872,0.4571358602594397,0.8514409226970829,-0.25705089072322224,0.1795256525547999,4.0,2
15.822997093200684,-17.529325485229492,1.0267629623413086,0.9616892478442262,-0.23522770796632048,-0.14078961604364915,0.26414970062253773,4.0,2
15.54747200012207,-17.765003204345703,0.99742192029953,-0.0,-0.0,-1.0,0.1416231894433376,1.0,1
16.880359649658203,-16.873132705688477,0.7863911390304565,-0.0,-0.0,-1.0,0.18619608090882456,1.0,1
16.80862045288086,-17.214935302734375,1.0905816555023193,-0.0,-0.0,-1.0,0.12073566962301378,1.0,2
15.957027435302734,-17.760379791259766,1.0141050815582275,-0.30891203260756184,0.622359026131725,-0.719195799975664,0.20126650240229588,3.0,2
15.778048515319824,-18.17345428466797,0.9744173884391785,-0.0,-0.0,-1.0,0.16671562445199098,1.0,1
16.898916244506836,-17.131805419921875,0.7618246078491211,-0.5261370688274818,-0.8443177780372105,-0.10152474819438262,0.1553686933829168,3.0,1
16.22698211669922,-18.05126953125,1.0012139081954956,0.2480646739572579,-0.8112100957466141,-0.5295300728884516,0.17307284921252247,6.0,2
16.06446647644043,-18.36909294128418,0.9692429900169373,-0.0,-0.0,-1.0,0.18600071385311692,1.0,1
17.35405158996582,-17.758869171142578,0.7248013019561768,-0.0,-0.0,-1.0,0.11619128237810057,1.0,1
16.618555068969727,-18.379240036010742,0.9881818890571594,-0.3028397555997327,-0.5934900617051061,-0.7456927176026086,0.19492857129654056,4.0,1
16.211769104003906,-18.463640213012695,0.9668254256248474,-0.0,-0.0,-1.0,0.1687367899844802,1.0,1
17.478313446044922,-17.780658721923828,0.7298319339752197,0.20907423773684775,-0.8108524828036495,-0.5466316989033049,0.1198183586856032,3.0,1
17.524330139160156,-17.903902053833008,0.718899130821228,-0.0,-0.0,-1.0,0.1222177893778128,1.0,1
16.77267837524414,-18.581207275390625,0.9762288928031921,0.16894315003235877,-0.19330567274332514,-0.9664838999913008,0.2409406081599877,3.0,1
16.677494049072266,-18.804601669311523,0.9538429379463196,-0.0,-0.0,-1.0,0.1976063903452304,2.0,1
17.383872985839844,-18.46803092956543,1.0057568550109863,-0.0,-0.0,-1.0,0.16649461587373018,1.0,2
17.209802627563477,-18.994335174560547,0.9538007974624634,-0.0,-0.0,-1.0,0.20611989621644225,1.0,1
16.846607208251953,-19.24304962158203,0.9207789897918701,-0.0,-0.0,-1.0,0.11952203493467559,1.0,1
15.524866104125977,-17.65118980407715,1.3915736675262451,-0.0,-0.0,-1.0,0.14210827402954457,2.0,2
16.63607406616211,-17.19033432006836,1.4312548637390137,-0.0,-0.0,-1.0,0.10495944162268964,2.0,2
15.967692375183105,-17.585622787475586,1.4007940292358398,0.9223134975031779,0.30348474159080835,-0.23923800689902044,0.09327469082384694,4.0,2
15.504806518554688,-18.254465103149414,1.3571712970733643,-0.0,-0.0,-1.0,0.23161032382996288,2.0,2
15.215755462646484,-18.66825294494629,1.3300055265426636,-0.0,-0.0,-1.0,0.19929367681702964,2.0,2
15.730499267578125,-18.619096755981445,1.33833646774292,-0.0,-0.0,-1.0,0.19081786732005004,2.0,2
15.445075035095215,-18.876909255981445,1.320220947265625,-0.0,-0.0,-1.0,0.1589141969019605,1.0,2
16.240827560424805,-18.66191864013672,1.3406736850738525,-0.0,-0.0,-1.0,0.2510654019724486,1.0,2
15.999025344848633,-18.90757179260254,1.3236784934997559,-0.0,-0.0,-1.0,0.1336423182650783,1.0,2
15.845386505126953,-19.075767517089844,1.312146544456482,-0.0,-0.0,-1.0,0.13123090809821672,2.0,2
17.129863739013672,-18.237207412719727,1.3741466999053955,-0.0,-0.0,-1.0,0.19629360635693716,1.0,2
16.738719940185547,-18.50747299194336,1.354392170906067,-0.0,-0.0,-1.0,0.22838812536131545,2.0,2
15.996513366699219,-19.266239166259766,1.3018412590026855,-0.0,-0.0,-1.0,0.2191371731673548,1.0,2
17.178489685058594,-18.79834747314453,1.3395953178405762,0.7883842901036975,0.5019997779502181,-0.3555930736890423,0.25404480317803246,3.0,2
17.500267028808594,-19.268310546875,1.3113234043121338,-0.0,-0.0,-1.0,0.18571765580162605,2.0,2
17.356395721435547,-16.88079833984375,0.5819013118743896,-0.0,-0.0,-1.0,0.06611645827546311,2.0,1
15.340815544128418,-17.456941604614258,1.0132026672363281,-0.0,-0.0,-1.0,0.24243471112151072,2.0,2
16.199018478393555,-17.06389808654785,0.7623007297515869,-0.0,-0.0,-1.0,0.1643408605907877,2.0,1
15.85278606414795,-17.42564582824707,1.0418791770935059,-0.0,-0.0,-1.0,0.20213464195703795,1.0,2
15.603155136108398,-17.65883445739746,1.0123510360717773,-0.0,-0.0,-1.0,0.20816924894073863,1.0,2
15.46420955657959,-17.797672271728516,0.9952489733695984,-0.0,-0.0,-1.0,0.14688543512474012,1.0,1
16.814050674438477,-16.95201301574707,0.821672797203064,-0.0,-0.0,-1.0,0.18577476672849488,1.0,1
