x,y,z,nx,ny,nz,curvature,density,label
50.47144317626953,-9.455459594726562,-0.6309102773666382,0.9326522712003664,-0.3552856430051739,0.06270448866866485,0.12659262067139365,4.0,0
50.22199249267578,-10.827260971069336,-0.707019567489624,-0.0,-0.0,-1.0,0.010602311868792846,1.0,0
51.67759704589844,-9.529071807861328,-0.7904410362243652,-0.0,-0.0,-1.0,0.07198037111667471,1.0,0
50.47724151611328,-9.443662643432617,-0.6467604637145996,0.5263729198787753,-0.4571061245616358,-0.7169278486057956,0.14604745429950775,5.0,0
50.646915435791016,-10.737906455993652,-0.7270879745483398,-0.0,-0.0,-1.0,0.025024879662895936,1.0,0
51.719398498535156,-9.551294326782227,-0.7616357803344727,0.7809975934298138,-0.5349592947772139,0.3222752115635093,0.12687502562379804,5.0,0
51.10225296020508,-11.295584678649902,-0.7857151031494141,-0.0,-0.0,-1.0,0.04733915664527828,1.0,0
51.046546936035156,-11.040631294250488,-0.5882906913757324,-0.0,-0.0,-1.0,0.18138758161368626,2.0,0
51.71435546875,-10.173481941223145,-0.7484602928161621,-0.0,-0.0,-1.0,0.10789255212102725,1.0,0
52.401371002197266,-10.182428359985352,-0.8062920570373535,-0.0,-0.0,-1.0,0.010794827425872757,2.0,0
51.483028411865234,-11.64604377746582,-0.6968727111816406,-0.0,-0.0,-1.0,0.030954343523743252,1.0,0
52.231117248535156,-10.936283111572266,-0.7929782867431641,-0.0,-0.0,-1.0,0.008059219155974883,1.0,0
52.32390594482422,-10.463834762573242,-0.8025655746459961,-0.0,-0.0,-1.0,0.008427046920114242,1.0,0
52.465999603271484,-10.337459564208984,-0.8193235397338867,-0.0,-0.0,-1.0,0.012774244235243329,2.0,0
52.4434928894043,-9.924962997436523,-0.81591796875,-0.0,-0.0,-1.0,0.0073664735413109545,2.0,0
52.185462951660156,-10.506659507751465,-0.7812833786010742,-0.0,-0.0,-1.0,0.020525245040643375,1.0,0
51.9222412109375,-9.834927558898926,-0.7290816307067871,-0.2965867408566515,0.7033015160101093,-0.6460675527573813,0.09625706722707941,4.0,0
50.477073669433594,-9.544468879699707,-0.6277923583984375,-0.0,-0.0,-1.0,0.12742521645368793,2.0,0
50.43552780151367,-9.521072387695312,-0.7095105648040771,-0.0,-0.0,-1.0,0.118244890925583,2.0,0
51.40425109863281,-11.45998764038086,-0.8081705570220947,-0.0,-0.0,-1.0,0.030672427210640837,2.0,0
51.699459075927734,-10.313934326171875,-0.8125662803649902,-0.0,-0.0,-1.0,0.045274386908253916,2.0,0
51.60807418823242,-11.00790786743164,-0.8161735534667969,-0.0,-0.0,-1.0,0.08721155974730734,1.0,0
51.867366790771484,-9.467247009277344,-0.8123946189880371,-0.0,-0.0,-1.0,0.11058716715821455,2.0,0
51.942787170410156,-9.798564910888672,-0.822669267654419,0.9924699805209317,-0.1162957561109915,-0.038453021667410284,0.14206108066698,3.0,0
51.81513977050781,-10.172466278076172,-0.8188693523406982,-0.0,-0.0,-1.0,0.05294644736463839,1.0,0
50.472450256347656,-9.560678482055664,-0.5062453746795654,-0.0,-0.0,-1.0,0.1100025143594203,1.0,0
51.086185455322266,-10.692522048950195,-0.5598354339599609,-0.0,-0.0,-1.0,0.20272685444053998,1.0,0
50.546424865722656,-9.510932922363281,-0.5817406177520752,-0.0,-0.0,-1.0,0.13414943988764075,1.0,0
51.145809173583984,-10.725240707397461,-0.6363556385040283,-0.0,-0.0,-1.0,0.16260724812947533,2.0,0
52.66676712036133,-11.012651443481445,-0.7667536735534668,-0.0,-0.0,-1.0,0.003612802100901788,1.0,0
52.42401123046875,-11.560430526733398,-0.8421483039855957,-0.0,-0.0,-1.0,0.049778285867514226,1.0,0
50.8587646484375,-10.990026473999023,-0.6838018894195557,-0.0,-0.0,-1.0,0.1466714210630472,1.0,0
52.181373596191406,-11.03205680847168,-0.8255050182342529,-0.0,-0.0,-1.0,0.029027950028027903,2.0,0
51.6123046875,-10.016616821289062,-0.7825620174407959,-0.0,-0.0,-1.0,0.02511508100910565,1.0,0
52.293304443359375,-10.39065933227539,-0.8494241237640381,-0.0,-0.0,-1.0,0.008269048370703592,1.0,0
52.1614990234375,-10.701959609985352,-0.8293817043304443,-0.0,-0.0,-1.0,0.021517846236526382,2.0,0
52.259307861328125,-9.963214874267578,-0.8537688255310059,-0.9615484426662744,0.27434581870499747,-0.012608099188487263,0.010332137755973227,4.0,0
52.33082580566406,-10.227235794067383,-0.8565564155578613,-0.0,-0.0,-1.0,0.007512841893356739,1.0,0
50.2181396484375,-9.721895217895508,-0.5323967933654785,-0.0,-0.0,-1.0,0.1045489736489208,1.0,0
51.97727584838867,-11.361875534057617,-0.4419388771057129,-0.0,-0.0,-1.0,0.2377007439358682,1.0,0
52.41204071044922,-11.809812545776367,-0.7211174964904785,-0.0,-0.0,-1.0,0.07741356259662589,1.0,0
50.95679473876953,-10.848690032958984,-0.5492086410522461,-0.0,-0.0,-1.0,0.15384177378973185,1.0,0
50.251949310302734,-11.850028991699219,-0.6148207187652588,-0.0,-0.0,-1.0,0.02976179346130139,1.0,0
51.24150848388672,-11.607168197631836,-0.7064762115478516,-0.0,-0.0,-1.0,0.03080148513741034,2.0,0
50.283424377441406,-11.27083969116211,-0.6146588325500488,-0.0,-0.0,-1.0,0.028707111542063648,1.0,0
51.865081787109375,-11.243448257446289,-0.7647402286529541,-0.0,-0.0,-1.0,0.10095319469356247,2.0,0
51.00538635253906,-10.875265121459961,-0.6810829639434814,-0.0,-0.0,-1.0,0.16141950035446032,1.0,0
52.190799713134766,-11.077753067016602,-0.7957596778869629,-0.2102982299753731,-0.7704147234944726,-0.6018602896787264,0.05949796459899947,3.0,0
50.569122314453125,-10.080854415893555,-0.6364618539810181,-0.9147058529653167,-0.297777430241165,-0.27320652369582965,0.10310878936901746,4.0,0
51.327598571777344,-10.33073616027832,-0.7101502418518066,-0.0011980934273999584,-0.49891794244443005,-0.8666484011865224,0.09406891287549085,4.0,0
52.43090057373047,-10.035158157348633,-0.8172738552093506,-0.0,-0.0,-1.0,0.010239473773645537,1.0,0
50.39411163330078,-9.65144157409668,-0.6181807518005371,0.13302589595859135,-0.9796758517061988,-0.15013106470064,0.14592345658409792,7.0,0
51.94548034667969,-11.272201538085938,-0.56165611743927,-0.0,-0.0,-1.0,0.11708068834612362,1.0,0
50.50398254394531,-11.624582290649414,-0.6443347930908203,-0.0,-0.0,-1.0,0.031170907842584604,1.0,0
51.19502258300781,-11.63663101196289,-0.7097721099853516,-0.0,-0.0,-1.0,0.035576707874252426,1.0,0
50.33076477050781,-11.548505783081055,-0.6270978450775146,-0.0,-0.0,-1.0,0.034795802579129,1.0,0
51.840728759765625,-11.35683822631836,-0.7683751583099365,-0.0,-0.0,-1.0,0.10966124019907163,1.0,0
50.91889953613281,-10.899757385253906,-0.6744387149810791,-0.0,-0.0,-1.0,0.14725522901068155,1.0,0
51.573699951171875,-11.163509368896484,-0.7403848171234131,0.6030325666253381,-0.4865904705271641,-0.6321245427773,0.09637423295093363,3.0,0
52.1602783203125,-10.600631713867188,-0.7913072109222412,0.9352839817279492,0.35041386563649873,-0.049537826888136155,0.022030130079626092,3.0,0
51.28496551513672,-10.323030471801758,-0.7029297351837158,-0.0011980934273999584,-0.49891794244443005,-0.8666484011865224,0.08973558746017818,4.0,0
51.84999465942383,-9.863950729370117,-0.7532832622528076,-0.14443548784101995,0.9885604119369652,-0.043436180807530596,0.09625706722707943,5.0,0
52.19593811035156,-10.060430526733398,-0.7893893718719482,-0.0,-0.0,-1.0,0.009583779432527957,1.0,0
52.489234924316406,-9.825014114379883,-0.8163435459136963,-0.0,-0.0,-1.0,0.005063368744050132,1.0,0
50.308921813964844,-9.655242919921875,-0.6011348962783813,-0.0,-0.0,-1.0,0.10674265890072679,1.0,0
50.45390319824219,-9.669418334960938,-0.6152231693267822,-0.0,-0.0,-1.0,0.3090337217788728,2.0,0
50.69304656982422,-11.650571823120117,-0.7259907722473145,-0.0,-0.0,-1.0,0.021813183236770634,1.0,0
51.09062194824219,-11.834135055541992,-0.7609891891479492,-0.0,-0.0,-1.0,0.008924069891059747,1.0,0
50.29153823852539,-11.55540657043457,-0.6944577693939209,-0.0,-0.0,-1.0,0.034795802579129,1.0,0
51.191261291503906,-11.55162239074707,-0.7575230598449707,-0.0,-0.0,-1.0,0.031329721259841584,1.0,0
51.00337219238281,-10.956199645996094,-0.7218015193939209,-0.0,-0.0,-1.0,0.25929313023430955,1.0,0
51.544639587402344,-11.162633895874023,-0.7687816619873047,0.5879803376563119,-0.5193270386763582,-0.6201439747584538,0.09550623990558157,4.0,0
52.05268859863281,-10.97292709350586,-0.7997119426727295,-0.0,-0.0,-1.0,0.034270528867948236,1.0,0
51.92636489868164,-10.747072219848633,-0.7822365760803223,-0.0,-0.0,-1.0,0.017347261898286583,1.0,0
52.18158721923828,-10.65145492553711,-0.7981407642364502,0.7845649785988899,-0.28600757993165704,-0.5501431255389454,0.020997647689116758,4.0,0
51.31081771850586,-10.28877067565918,-0.7198052406311035,-0.877005308511178,0.06919056525792061,0.47547276948580686,0.09011154418829656,7.0,0
52.185707092285156,-10.229169845581055,-0.7837810516357422,-0.0,-0.0,-1.0,0.02160454709548717,2.0,0
52.6002197265625,-10.091821670532227,-0.811286449432373,-0.9515929907284474,-0.1785397239386857,-0.2501886227876625,0.009031938098943763,3.0,0
51.863590240478516,-9.883417129516602,-0.7470850944519043,-0.46663880967643057,0.6098106154537835,-0.6406084877549169,0.09542970869660311,6.0,0
50.42119598388672,-9.620719909667969,-0.6301727294921875,0.4914744390585882,-0.8495810637126413,-0.19148078737289248,0.20733120375066397,5.0,0
50.462345123291016,-9.481245040893555,-0.6280115842819214,0.9413851441957364,-0.3202352832592893,0.10603477563240851,0.12062806860108737,3.0,0
50.33372497558594,-11.198671340942383,-0.6875143051147461,-0.0,-0.0,-1.0,0.029110834233767657,1.0,0
50.656856536865234,-11.269693374633789,-0.7102220058441162,-0.0,-0.0,-1.0,0.03059542299008099,2.0,0
51.071502685546875,-11.417892456054688,-0.7423417568206787,-0.0,-0.0,-1.0,0.03151880560353551,1.0,0
51.481788635253906,-11.280416488647461,-0.7617852687835693,-0.0,-0.0,-1.0,0.0701339558579248,2.0,0
51.509803771972656,-11.085535049438477,-0.7548911571502686,-0.0,-0.0,-1.0,0.11306348511859991,2.0,0
51.81727600097656,-10.77639389038086,-0.7611067295074463,-0.0,-0.0,-1.0,0.01109685934383977,1.0,0
52.034122467041016,-10.50759506225586,-0.7636828422546387,-0.0,-0.0,-1.0,0.0223143141299133,2.0,0
51.228660583496094,-10.29302978515625,-0.7018253803253174,-0.0,-0.0,-1.0,0.14518050207416677,2.0,0
51.31624221801758,-10.248321533203125,-0.7054784297943115,-0.8309051614880959,-0.08342064182602546,0.5501250849850198,0.079951113273733,3.0,0
52.593101501464844,-10.092361450195312,-0.7838270664215088,-0.0,-0.0,-1.0,0.009307708744647326,2.0,0
51.86864471435547,-9.865917205810547,-0.7251451015472412,-0.14443548784101995,0.9885604119369652,-0.043436180807530596,0.09625706722707943,5.0,0
50.42753601074219,-9.61810302734375,-0.6210378408432007,-0.41566664452392,0.21691698436333212,-0.8832713413922941,0.24838223884082336,4.0,0
50.43903350830078,-9.414464950561523,-0.6126163005828857,-0.0,-0.0,-1.0,0.11187770680614892,1.0,0
50.41197967529297,-9.547491073608398,-0.7683560848236084,0.4718427240937445,0.41161131084843705,-0.7797054395740902,0.12376248428658614,5.0,0
50.741050720214844,-9.710990905761719,-0.8037896156311035,-0.0,-0.0,-1.0,0.045982642805069404,1.0,0
51.04368591308594,-9.806436538696289,-0.8341219425201416,-0.0,-0.0,-1.0,0.01160419809442892,1.0,0
51.23453140258789,-9.513885498046875,-0.8375048637390137,-0.0,-0.0,-1.0,0.04497640251459848,1.0,0
51.49726104736328,-9.396638870239258,-0.8554098606109619,-0.0,-0.0,-1.0,0.05030030716519281,1.0,0
50.29389190673828,-9.479576110839844,-0.819594144821167,-0.0,-0.0,-1.0,0.11748389098450014,1.0,0
50.26637649536133,-10.246864318847656,-0.7685914039611816,-0.0,-0.0,-1.0,0.04721518439087325,1.0,0
50.456382751464844,-10.24578857421875,-0.7848296165466309,-0.0,-0.0,-1.0,0.07446174546655819,1.0,0
50.74344253540039,-9.830965042114258,-0.7858729362487793,-0.0,-0.0,-1.0,0.0304674930851007,1.0,0
51.07777404785156,-9.839025497436523,-0.8159868717193604,-0.0,-0.0,-1.0,0.011267919571818207,1.0,0
50.38410568237305,-9.522970199584961,-0.7367005348205566,-0.17904064037587603,0.6739474883690184,-0.7167560477700118,0.1472490135644171,5.0,0
51.242855072021484,-9.56834602355957,-0.815345287322998,-0.0,-0.0,-1.0,0.03159736623646981,1.0,0
51.40665817260742,-9.481538772583008,-0.8252952098846436,-0.0,-0.0,-1.0,0.07571616424577654,1.0,0
51.01863098144531,-10.946958541870117,-0.8017474412918091,-0.0,-0.0,-1.0,0.23887732802234393,2.0,0
50.43595504760742,-10.716279983520508,-0.7434977293014526,-0.9099000534864922,-0.3815849217431413,0.16271090978652847,0.010581701078454036,3.0,0
51.0687370300293,-10.716085433959961,-0.7912408113479614,-0.0,-0.0,-1.0,0.24795548263020517,1.0,0
51.327266693115234,-10.713245391845703,-0.8111330270767212,-0.0,-0.0,-1.0,0.05861125447656331,1.0,0
51.30472946166992,-10.245187759399414,-0.7803820371627808,-0.7041675347189994,0.69988146807192,-0.11964118729459544,0.09106773832945082,7.0,0
51.58836364746094,-10.414785385131836,-0.8131915330886841,-0.0,-0.0,-1.0,0.03071656906475979,2.0,0
50.6813850402832,-10.002756118774414,-0.7173103094100952,-0.0,-0.0,-1.0,0.09626039632701507,1.0,0
51.93471908569336,-9.859395980834961,-0.8069840669631958,-0.0,-0.0,-1.0,0.18179627119462974,1.0,0
52.18518829345703,-9.880088806152344,-0.8287922143936157,-0.0,-0.0,-1.0,0.009056555960993532,2.0,0
52.38159942626953,-9.73917007446289,-0.8365164995193481,-0.0,-0.0,-1.0,0.004271780526284601,1.0,0
50.361446380615234,-9.56877326965332,-0.666136622428894,0.05671894273231623,-0.8127506139167915,-0.5798442904032142,0.12868288996700963,5.0,0
52.616058349609375,-9.69245719909668,-0.8533931970596313,-0.569104683340102,-0.1708954402867775,-0.8043100197620013,0.005384551137449121,3.0,0
50.40612030029297,-11.748636245727539,-0.64508056640625,-0.0,-0.0,-1.0,0.029761793461301485,1.0,0
52.051307678222656,-11.778558731079102,-0.7555379867553711,-0.0,-0.0,-1.0,0.08779932150996976,2.0,0
51.049583435058594,-10.860404968261719,-0.6316020488739014,-0.0,-0.0,-1.0,0.16245759034034202,2.0,0
51.16519546508789,-10.71475601196289,-0.6303256750106812,-0.0,-0.0,-1.0,0.15918389344553877,2.0,0
50.32341003417969,-10.318944931030273,-0.7903314828872681,-0.0,-0.0,-1.0,0.043102376970719336,1.0,0
50.800987243652344,-10.355796813964844,-0.8103460073471069,-0.0,-0.0,-1.0,0.019778720910863336,1.0,0
51.143009185791016,-10.450309753417969,-0.8302193880081177,-0.0,-0.0,-1.0,0.02790088566349678,2.0,0
51.35246658325195,-10.234830856323242,-0.8221396207809448,-0.0,-0.0,-1.0,0.06685095978796099,1.0,0
51.448970794677734,-10.248855590820312,-0.8269354104995728,-0.0,-0.0,-1.0,0.04760063490097855,1.0,0
52.2498664855957,-9.997726440429688,-0.8405696153640747,-0.0,-0.0,-1.0,0.006449065518191905,2.0,0
50.42900848388672,-9.57807731628418,-0.7385402917861938,0.18961889426223666,-0.6897198397603033,-0.6988069959436499,0.1485275605928422,5.0,0
51.80533218383789,-9.589279174804688,-0.7919961214065552,-0.0,-0.0,-1.0,0.0703961297736066,1.0,0
52.04806137084961,-9.903816223144531,-0.8252633810043335,-0.0,-0.0,-1.0,0.030912031551243904,2.0,0
52.432212829589844,-9.951141357421875,-0.8447800874710083,0.09210772066922705,0.7193782865882311,-0.6884846030075765,0.007366473541310963,3.0,0
51.1002197265625,-10.765359878540039,-0.563360333442688,-0.0,-0.0,-1.0,0.22639075630327046,1.0,0
50.46288299560547,-9.596574783325195,-0.4614368677139282,-0.0,-0.0,-1.0,0.0947700944148886,1.0,0
50.36418151855469,-10.715274810791016,-0.7370004653930664,-0.0,-0.0,-1.0,0.009900752590483716,1.0,0
51.01829147338867,-10.95339584350586,-0.7907044887542725,-0.0,-0.0,-1.0,0.23887732802234393,2.0,0
50.71207809448242,-10.397306442260742,-0.7315561771392822,-0.0,-0.0,-1.0,0.04745380646103843,1.0,0
51.004981994628906,-10.746316909790039,-0.7742421627044678,-0.0,-0.0,-1.0,0.1720529004499151,2.0,0
51.242095947265625,-10.857185363769531,-0.7959175109863281,-0.0,-0.0,-1.0,0.11646865379006767,2.0,0
50.406349182128906,-9.574745178222656,-0.652416467666626,0.13002340850826127,-0.7781696313372224,-0.6144476691341463,0.14451212818086967,6.0,0
50.77785110473633,-9.969980239868164,-0.7026660442352295,-0.0,-0.0,-1.0,0.05131355198608933,1.0,0
51.330848693847656,-10.228199005126953,-0.7531769275665283,-0.9126716040287107,0.40804422413712044,-0.02303159456042889,0.06810968981140325,5.0,0
51.85673141479492,-10.546207427978516,-0.807598352432251,-0.0,-0.0,-1.0,0.016472399982244392,1.0,0
50.48638153076172,-9.421123504638672,-0.6450399160385132,0.9237572159040832,-0.37887033364393774,0.05594529783340886,0.13965483831790296,3.0,0
52.15501022338867,-10.225334167480469,-0.8009033203125,-0.0,-0.0,-1.0,0.021646632213209182,2.0,0
51.968257904052734,-9.864034652709961,-0.762488842010498,-0.0,-0.0,-1.0,0.061820417343459916,2.0,0
52.35832595825195,-10.127914428710938,-0.80572509765625,-0.0,-0.0,-1.0,0.009184391311538613,1.0,0
52.58659744262695,-10.141984939575195,-0.8206427097320557,0.033737173307553506,-0.44439352797219195,-0.8951961770660352,0.010020061146342497,3.0,0
50.66817092895508,-10.455016136169434,-0.7733176946640015,-0.0,-0.0,-1.0,0.024342855819856533,2.0,0
50.931888580322266,-10.551299095153809,-0.7887037992477417,-0.0,-0.0,-1.0,0.08882439202228742,1.0,0
50.36283493041992,-9.548430442810059,-0.6898716688156128,0.1475887974485243,-0.8287181783782455,-0.5398552840281748,0.13418639941895957,4.0,0
51.147010803222656,-10.467068672180176,-0.7880235910415649,-0.5667965181901818,-0.7827085554210973,-0.2571167521537753,0.03872660309205372,3.0,0
51.702552795410156,-10.333588600158691,-0.7942839860916138,0.34504855702488346,-0.6095674858499893,-0.7137008991794593,0.025375762279391444,3.0,0
51.88818359375,-9.866082191467285,-0.7617276906967163,-0.14443548784101995,0.9885604119369652,-0.043436180807530596,0.09625706722707941,5.0,0
52.0621337890625,-10.148633003234863,-0.7910698652267456,-0.0,-0.0,-1.0,0.030334709173804538,1.0,0
52.582611083984375,-10.162190437316895,-0.8107625246047974,0.033737173307553506,-0.44439352797219195,-0.8951961770660352,0.009894226792235207,3.0,0
52.01453399658203,-11.213457107543945,-0.46269166469573975,-0.0,-0.0,-1.0,0.14082301127345764,2.0,0
52.46699142456055,-11.704902648925781,-0.5112272500991821,-0.0,-0.0,-1.0,0.07144393890823438,1.0,0
50.265106201171875,-10.009016990661621,-0.7911006212234497,-0.0,-0.0,-1.0,0.034658942519242855,1.0,0
50.701210021972656,-9.913336753845215,-0.7883626222610474,-0.0,-0.0,-1.0,0.04654062609694978,2.0,0
50.82033920288086,-10.001463890075684,-0.7983618974685669,-0.0,-0.0,-1.0,0.046795425043635125,1.0,0
51.05952072143555,-10.040349006652832,-0.805780291557312,-0.0,-0.0,-1.0,0.01718903017477997,1.0,0
51.590641021728516,-10.122973442077637,-0.8226355314254761,-0.0,-0.0,-1.0,0.10675478218331287,2.0,0
52.32521057128906,-9.935961723327637,-0.8197790384292603,-0.0,-0.0,-1.0,0.005563985082041538,1.0,0
52.67148208618164,-9.912327766418457,-0.825118899345398,-0.0,-0.0,-1.0,0.006062941480221963,1.0,0
50.39939498901367,-9.565993309020996,-0.7517632246017456,0.4718427240937445,0.41161131084843705,-0.7797054395740902,0.13830757327843757,5.0,0
50.479713439941406,-9.514397621154785,-0.7480865716934204,0.4077008220349776,0.4633028769588617,-0.7868484504106523,0.15417694577357238,5.0,0
51.7742805480957,-9.511305809020996,-0.7692469358444214,0.5362684379694556,-0.5740065833981219,-0.618815485143524,0.072598976662765,3.0,0
51.942771911621094,-9.806221961975098,-0.7999054193496704,0.9924699805209317,-0.1162957561109915,-0.038453021667410284,0.14206108066698,3.0,0
50.238311767578125,-11.768924713134766,-0.6511557102203369,-0.0,-0.0,-1.0,0.030091725291008314,1.0,0
50.40550994873047,-9.56100082397461,-0.464288592338562,-0.0,-0.0,-1.0,0.10363341035188695,2.0,0
50.31612777709961,-9.657438278198242,-0.682388186454773,-0.0,-0.0,-1.0,0.15055320277002787,1.0,0
50.4655876159668,-10.111307144165039,-0.7266312837600708,-0.0,-0.0,-1.0,0.09399372735330655,1.0,0
51.22900390625,-10.304121017456055,-0.7504249811172485,-0.9985924449511212,-0.05280309802441733,0.0049961710904668135,0.14518050207416677,3.0,0
50.77188491821289,-10.557228088378906,-0.771203875541687,-0.0,-0.0,-1.0,0.031154965538906374,1.0,0
50.58026885986328,-10.488819122314453,-0.7634438276290894,-0.0,-0.0,-1.0,0.011630376150107247,1.0,0
51.8565559387207,-10.002349853515625,-0.7277058362960815,-0.0,-0.0,-1.0,0.04554045967106032,1.0,0
51.0485725402832,-10.654277801513672,-0.7824963331222534,-0.0,-0.0,-1.0,0.11287038018506482,2.0,0
52.01753234863281,-10.680509567260742,-0.7943352460861206,-0.0,-0.0,-1.0,0.019264977961968407,2.0,0
51.7165412902832,-10.747718811035156,-0.7974742650985718,-0.0,-0.0,-1.0,0.012699463752874673,1.0,0
52.519744873046875,-10.562450408935547,-0.7893956899642944,-0.0,-0.0,-1.0,0.0071847573094525686,1.0,0
52.17455291748047,-10.661651611328125,-0.794402003288269,0.9340787353903393,-0.02956771616438581,-0.35584078778634515,0.021009463963411846,5.0,0
50.376922607421875,-11.668587684631348,-0.6448119878768921,-0.0,-0.0,-1.0,0.03252561192796664,1.0,0
52.7005615234375,-9.612010955810547,-0.8624974489212036,-0.0,-0.0,-1.0,0.004161224021934135,1.0,0
51.91611862182617,-9.805944442749023,-0.6933950185775757,-0.0,-0.0,-1.0,0.09625706722707943,2.0,0
52.70197677612305,-10.333633422851562,-0.7466832399368286,-0.0,-0.0,-1.0,0.01044981972161047,1.0,0
51.86320877075195,-10.341802597045898,-0.7335611581802368,-0.0,-0.0,-1.0,0.03857305671550343,1.0,0
51.74175262451172,-10.293075561523438,-0.7279239892959595,-0.0,-0.0,-1.0,0.08919990647624557,1.0,0
51.376564025878906,-10.169395446777344,-0.7128258943557739,-0.0,-0.0,-1.0,0.13557623237599,1.0,0
52.016868591308594,-10.445552825927734,-0.7439390420913696,-0.0,-0.0,-1.0,0.036371012278167456,1.0,0
51.53738021850586,-10.446968078613281,-0.7366360425949097,-0.0,-0.0,-1.0,0.036593109110756916,1.0,0
51.25954055786133,-10.591224670410156,-0.7436026334762573,-0.0,-0.0,-1.0,0.08355508500798202,1.0,0
51.67805862426758,-9.383708953857422,-0.7987953424453735,-0.0,-0.0,-1.0,0.14116730818058573,1.0,0
51.522544860839844,-9.581249237060547,-0.815290093421936,-0.0,-0.0,-1.0,0.09729430435880425,1.0,0
51.25126647949219,-9.655241012573242,-0.820686936378479,-0.0,-0.0,-1.0,0.03161556304104867,2.0,0
50.830928802490234,-9.535123825073242,-0.8088275194168091,-0.0,-0.0,-1.0,0.05021323256871719,2.0,0
51.13597869873047,-9.727386474609375,-0.8265782594680786,-0.0,-0.0,-1.0,0.0278852980043359,1.0,0
52.02811813354492,-11.292393684387207,-0.48167884349823,-0.0,-0.0,-1.0,0.19824337482756813,2.0,0
51.07807159423828,-10.8461332321167,-0.5916869640350342,-0.0,-0.0,-1.0,0.22280741750763886,2.0,0
50.444549560546875,-9.49122142791748,-0.5257266759872437,-0.0,-0.0,-1.0,0.08951466223952668,1.0,0
51.2269401550293,-11.603772163391113,-0.7326755523681641,-0.0,-0.0,-1.0,0.031329721259841584,2.0,0
51.54072189331055,-11.188565254211426,-0.7525578737258911,0.5879803376563119,-0.5193270386763582,-0.6201439747584538,0.09163831883127932,4.0,0
51.880428314208984,-11.227948188781738,-0.780950665473938,-0.0,-0.0,-1.0,0.0977283693354754,2.0,0
50.96647644042969,-10.910319328308105,-0.7019708156585693,-0.0,-0.0,-1.0,0.15895852111153302,1.0,0
51.04654312133789,-10.846165657043457,-0.7076429128646851,-0.0,-0.0,-1.0,0.20598050167603954,1.0,0
52.166778564453125,-11.065825462341309,-0.8026343584060669,-0.2966821779613126,-0.6132338523313605,-0.7320682533992104,0.04037666489592457,4.0,0
52.17570495605469,-10.642817497253418,-0.7984572649002075,0.9552935534342638,0.2955483474951658,0.008087092172974831,0.020710328554957306,5.0,0
50.58467102050781,-10.110899925231934,-0.6602292060852051,-0.9147058529653167,-0.297777430241165,-0.27320652369582965,0.10849072468672243,4.0,0
52.102455139160156,-10.292710304260254,-0.7884379625320435,-0.0,-0.0,-1.0,0.030967469672686355,1.0,0
52.48369216918945,-10.0858793258667,-0.818461537361145,-0.0,-0.0,-1.0,0.007507610284162903,1.0,0
50.37249755859375,-9.632084846496582,-0.6367264986038208,-0.22239894038783295,-0.9087900119317533,-0.3530430930176268,0.15181112181074988,4.0,0
51.842681884765625,-9.916810035705566,-0.7625657320022583,-0.0,-0.0,-1.0,0.16228544934328126,2.0,0
51.96998596191406,-9.894675254821777,-0.7730637788772583,-0.0,-0.0,-1.0,0.13021740083770927,2.0,0
52.54668426513672,-9.864884376525879,-0.8216806650161743,-0.0,-0.0,-1.0,0.00608250357432942,1.0,0
51.728668212890625,-9.547945976257324,-0.7491124868392944,0.7809975934298138,-0.5349592947772139,0.3222752115635093,0.126875025623798,5.0,0
50.5428352355957,-10.664336204528809,-0.7347267866134644,-0.0,-0.0,-1.0,0.011501389427518318,1.0,0
50.95259094238281,-10.610859870910645,-0.7689566612243652,-0.0,-0.0,-1.0,0.10030271803294517,1.0,0
50.735618591308594,-10.110121726989746,-0.7419164180755615,-0.0,-0.0,-1.0,0.09434294396830772,1.0,0
51.36946105957031,-10.1908597946167,-0.7983748912811279,-0.0,-0.0,-1.0,0.06444200619208142,1.0,0
51.619510650634766,-10.223891258239746,-0.8208017349243164,0.2901199759079758,-0.8252802141077898,-0.4845028047198032,0.03917583666662521,3.0,0
51.60420227050781,-9.933381080627441,-0.8151218891143799,-0.0,-0.0,-1.0,0.021637551836611667,1.0,0
51.643898010253906,-9.632237434387207,-0.8142893314361572,-0.0,-0.0,-1.0,0.06365062050908708,2.0,0
51.88337707519531,-9.455523490905762,-0.8331954479217529,-0.0,-0.0,-1.0,0.11058716715821455,2.0,0
50.4418830871582,-9.5996732711792,-0.708176851272583,-0.0,-0.0,-1.0,0.11543321410224384,2.0,0
52.44489288330078,-11.72929859161377,-0.7074885368347168,-0.0,-0.0,-1.0,0.06800068480278877,1.0,0
51.02996826171875,-10.832900047302246,-0.5811975002288818,-0.0,-0.0,-1.0,0.16819479310333157,2.0,0
51.048179626464844,-10.816814422607422,-0.5725159645080566,-0.045457357081985714,0.5138263118957387,-0.8566890625488012,0.16245759034034202,3.0,0
50.36546325683594,-9.612825393676758,-0.49160611629486084,-0.0,-0.0,-1.0,0.09598845704987394,1.0,0
50.312171936035156,-11.139503479003906,-0.7226678133010864,-0.0,-0.0,-1.0,0.023962726625328522,1.0,0
51.23284149169922,-11.214536666870117,-0.7922621965408325,-0.0,-0.0,-1.0,0.07692873668550168,1.0,0
50.44964599609375,-10.737174987792969,-0.7159385681152344,-0.0,-0.0,-1.0,0.013831003225423409,2.0,0
50.797325134277344,-10.807022094726562,-0.7440215349197388,-0.0,-0.0,-1.0,0.11481128121606288,1.0,0
51.204891204833984,-11.016866683959961,-0.7823036909103394,-0.0,-0.0,-1.0,0.10066155382422373,1.0,0
51.230979919433594,-10.342164993286133,-0.7575520277023315,-0.0,-0.0,-1.0,0.08905517092163481,2.0,0
51.60871887207031,-10.438068389892578,-0.7895547151565552,-0.0,-0.0,-1.0,0.022609942985812936,2.0,0
51.28998947143555,-10.27176284790039,-0.7592140436172485,-0.8119471369282357,0.38845374281111017,0.43571267657721524,0.08989020519282885,7.0,0
51.773292541503906,-10.239191055297852,-0.7943731546401978,-0.0,-0.0,-1.0,0.054953530342077464,1.0,0
51.90287399291992,-10.29499626159668,-0.8063009977340698,-0.0,-0.0,-1.0,0.03763764825149347,1.0,0
50.411781311035156,-9.558225631713867,-0.6658680438995361,0.10209039468507057,-0.7962961935333013,-0.5962297572894374,0.13655229451961942,5.0,0
51.800445556640625,-9.82583999633789,-0.7808295488357544,-0.0,-0.0,-1.0,0.1298780507740964,2.0,0
52.26620101928711,-9.936765670776367,-0.8207417726516724,-0.31096617241473784,0.6466487016900798,-0.696523866221583,0.008268106873768043,4.0,0
52.3853759765625,-9.86314582824707,-0.8272608518600464,-0.0,-0.0,-1.0,0.00448762634412995,2.0,0
51.733612060546875,-9.547374725341797,-0.7653282880783081,0.7809975934298138,-0.5349592947772139,0.3222752115635093,0.070378250426344,5.0,0
50.36949920654297,-10.351167678833008,-0.7676758766174316,-0.0,-0.0,-1.0,0.04782432550914871,1.0,0
50.69898223876953,-10.321163177490234,-0.7807316780090332,-0.0,-0.0,-1.0,0.060564338167544196,1.0,0
51.20629119873047,-10.24591064453125,-0.7993998527526855,-0.0,-0.0,-1.0,0.09084402397895835,1.0,0
51.5413703918457,-10.174261093139648,-0.810605525970459,-0.0,-0.0,-1.0,0.033324426456485305,1.0,0
51.602142333984375,-10.28689956665039,-0.8216593265533447,-0.0,-0.0,-1.0,0.03381011672538838,1.0,0
51.761844635009766,-9.821403503417969,-0.7963073253631592,0.2402494974253276,-0.5924117796764694,-0.7689788438490588,0.11760122136403432,3.0,0
52.159210205078125,-9.918455123901367,-0.8233280181884766,-0.0,-0.0,-1.0,0.013508058050156908,2.0,0
51.74559783935547,-9.531951904296875,-0.7749524116516113,0.6745631606855648,-0.6589558348922452,0.3327788303173224,0.07037825042634403,6.0,0
52.27128601074219,-9.923227310180664,-0.8294029235839844,-0.9461630154248385,0.31852292311594993,-0.057608121752475316,0.008437357516809409,3.0,0
52.39234924316406,-9.93829345703125,-0.836688756942749,-0.0,-0.0,-1.0,0.006386792889055863,2.0,0
50.41841125488281,-9.508966445922852,-0.7078765630722046,0.35635399880554186,0.6004701779870136,-0.715854309816979,0.10700157754456968,3.0,0
50.2205810546875,-9.412247657775879,-0.8474681377410889,-0.0,-0.0,-1.0,0.16801597606380858,1.0,0
50.9742546081543,-11.000596046447754,-0.7945812940597534,-0.0,-0.0,-1.0,0.18083009904698338,1.0,0
51.143043518066406,-11.168580055236816,-0.8152040243148804,-0.0,-0.0,-1.0,0.07386542324692487,1.0,0
51.373374938964844,-11.001107215881348,-0.813430666923523,-0.0,-0.0,-1.0,0.12671565728291337,1.0,0
51.86956024169922,-10.778630256652832,-0.8207906484603882,-0.0,-0.0,-1.0,0.012558761425099367,1.0,0
51.65172576904297,-10.96175479888916,-0.8238085508346558,-0.0,-0.0,-1.0,0.058629745924565844,1.0,0
52.16815185546875,-10.626324653625488,-0.8243964910507202,0.9552935534342638,0.2955483474951658,0.008087092172974831,0.021771971398204706,5.0,0
52.036766052246094,-10.794377326965332,-0.8302186727523804,-0.0,-0.0,-1.0,0.007962000729229136,1.0,0
52.44816970825195,-10.450575828552246,-0.8257573843002319,-0.0,-0.0,-1.0,0.008572966613833366,2.0,0
50.4032096862793,-10.663588523864746,-0.7424567937850952,-0.0,-0.0,-1.0,0.010774874050584601,2.0,0
50.38311004638672,-9.562912940979004,-0.6578760147094727,0.11011740706732126,-0.7850115805937335,-0.6096154320508117,0.12948065305414772,6.0,0
50.587249755859375,-9.977974891662598,-0.6988738775253296,-0.0,-0.0,-1.0,0.10611044515772079,1.0,0
50.71403884887695,-10.695454597473145,-0.7592166662216187,-0.0,-0.0,-1.0,0.031413292758383934,2.0,0
51.30183029174805,-10.220702171325684,-0.751494288444519,-0.9126716040287107,0.40804422413712044,-0.02303159456042889,0.09106773832945084,5.0,0
52.01409912109375,-11.250587463378906,-0.6601314544677734,-0.0,-0.0,-1.0,0.14646140024166332,1.0,0
52.031959533691406,-11.813774108886719,-0.7843948602676392,-0.0,-0.0,-1.0,0.08779932150996972,2.0,0
52.37132263183594,-11.720643997192383,-0.8107699155807495,-0.0,-0.0,-1.0,0.08372441658165623,1.0,0
52.6933708190918,-11.605770111083984,-0.8348697423934937,-0.0,-0.0,-1.0,0.042475631582481375,1.0,0
50.46337127685547,-11.546266555786133,-0.6342450380325317,-0.0,-0.0,-1.0,0.03395931048092504,2.0,0
50.391075134277344,-9.594022750854492,-0.5418344736099243,-0.0,-0.0,-1.0,0.12796917489476017,1.0,0
51.06478500366211,-10.696252822875977,-0.6496964693069458,-0.0,-0.0,-1.0,0.17944597941517687,1.0,0
51.060096740722656,-10.876379013061523,-0.6571213006973267,-0.0,-0.0,-1.0,0.20626541705595744,2.0,0
52.69466781616211,-10.797330856323242,-0.8010307550430298,-0.0,-0.0,-1.0,0.004197565080581408,1.0,0
52.04779052734375,-11.278329849243164,-0.6180601119995117,-0.0,-0.0,-1.0,0.17257320252324046,1.0,0
51.968360900878906,-11.362686157226562,-0.5201019048690796,-0.0,-0.0,-1.0,0.23770074393586813,2.0,0
50.464900970458984,-10.89627456665039,-0.7054973840713501,-0.0,-0.0,-1.0,0.016658046017775062,1.0,0
50.39647674560547,-11.186540603637695,-0.7141196727752686,-0.0,-0.0,-1.0,0.031111772750822737,1.0,0
50.909603118896484,-10.78339958190918,-0.7457594871520996,-0.0,-0.0,-1.0,0.1630349234179479,1.0,0
51.30873107910156,-10.256027221679688,-0.7608885765075684,-0.7261190699926715,0.6866978229303625,-0.03460052276596515,0.09106773832945082,8.0,0
51.124671936035156,-10.73042106628418,-0.7655870914459229,-0.0,-0.0,-1.0,0.20846023434925218,1.0,0
51.72266387939453,-9.568609237670898,-0.7719826698303223,0.7599493515929919,-0.5673707787337805,0.3171236075293269,0.07304250013467888,6.0,0
51.75402069091797,-9.917802810668945,-0.7922534942626953,-0.0,-0.0,-1.0,0.10621830131672833,2.0,0
51.61423110961914,-10.242042541503906,-0.7930450439453125,-0.0,-0.0,-1.0,0.039175836666625205,2.0,0
51.82227325439453,-9.530961990356445,-0.7811338901519775,-0.0,-0.0,-1.0,0.0664056726105894,1.0,0
52.08700942993164,-9.650697708129883,-0.8159639835357666,-0.0,-0.0,-1.0,0.051700484988813446,1.0,0
52.29315185546875,-9.53066635131836,-0.8331737518310547,-0.0,-0.0,-1.0,0.04325451678902756,1.0,0
52.22486114501953,-9.64634895324707,-0.83099365234375,-0.0,-0.0,-1.0,0.03962797355677264,1.0,0
50.437705993652344,-9.643394470214844,-0.636887788772583,0.3759223020616896,-0.29364164025134637,-0.8788953350218321,0.2564593083336264,6.0,0
50.666961669921875,-10.12552261352539,-0.6859525442123413,-0.0,-0.0,-1.0,0.0932280874358829,1.0,0
52.00883483886719,-11.312633514404297,-0.5848935842514038,-0.0,-0.0,-1.0,0.19824337482756807,1.0,0
50.360137939453125,-9.634965896606445,-0.6453676223754883,-0.22239894038783295,-0.9087900119317533,-0.3530430930176268,0.16225137193467623,4.0,0
50.413150787353516,-10.779434204101562,-0.7248804569244385,-0.0,-0.0,-1.0,0.011717034273266593,1.0,0
50.2786979675293,-11.09810733795166,-0.7312815189361572,-0.0,-0.0,-1.0,0.023456142600446036,1.0,0
50.445796966552734,-9.564496994018555,-0.6506876945495605,0.4689013624052659,-0.5933566849988242,-0.6542624524620771,0.15192295974738534,4.0,0
50.55183792114258,-9.664801597595215,-0.6689751148223877,-0.0,-0.0,-1.0,0.14674914489708746,1.0,0
50.709815979003906,-10.077059745788574,-0.7127089500427246,-0.0,-0.0,-1.0,0.09676909972143927,2.0,0
50.7132568359375,-10.71541690826416,-0.7539181709289551,-0.0,-0.0,-1.0,0.03078625094066722,2.0,0
51.0191764831543,-10.652531623840332,-0.7840461730957031,-0.0,-0.0,-1.0,0.10639415447476008,2.0,0
51.52883529663086,-10.251906394958496,-0.8167085647583008,-0.0,-0.0,-1.0,0.036532942206246206,1.0,0
51.764686584472656,-9.488983154296875,-0.7982673645019531,-0.0,-0.0,-1.0,0.06551424651944768,2.0,0
51.761192321777344,-9.708523750305176,-0.8108224868774414,-0.0,-0.0,-1.0,0.03523412443833587,1.0,0
51.6743049621582,-10.065298080444336,-0.8220632076263428,-0.0,-0.0,-1.0,0.029703148593497392,1.0,0
52.308040618896484,-9.413657188415527,-0.8578495979309082,-0.0,-0.0,-1.0,0.04262542836967779,1.0,0
52.210609436035156,-9.547489166259766,-0.854010820388794,-0.0,-0.0,-1.0,0.05033594244926778,1.0,0
52.25157165527344,-9.7433500289917,-0.8345446586608887,-0.0,-0.0,-1.0,0.0036127552131968647,1.0,0
52.55830001831055,-9.538338661193848,-0.8568987846374512,-0.0,-0.0,-1.0,0.0033258736247683217,1.0,0
52.36289596557617,-9.64541244506836,-0.8410801887512207,-0.0,-0.0,-1.0,0.003523896719322904,1.0,0
50.36838912963867,-9.585549354553223,-0.6137052774429321,-0.0,-0.0,-1.0,0.16477011393940172,2.0,0
50.5710563659668,-9.841315269470215,-0.6538103818893433,-0.0,-0.0,-1.0,0.033989133040910446,1.0,0
50.58638381958008,-10.096782684326172,-0.6736817359924316,-0.9147058529653167,-0.297777430241165,-0.27320652369582965,0.10849072468672241,4.0,0
50.5114860534668,-10.835949897766113,-0.7202458381652832,-0.0,-0.0,-1.0,0.01678188929295674,2.0,0
50.45950698852539,-10.97915267944336,-0.7257227897644043,-0.0,-0.0,-1.0,0.01716595509995973,1.0,0
50.988685607910156,-10.749998092651367,-0.7641890048980713,-0.0,-0.0,-1.0,0.15195215484060293,2.0,0
50.87690353393555,-10.898042678833008,-0.7632694244384766,-0.0,-0.0,-1.0,0.1584643610367518,1.0,0
51.27460479736328,-10.26319694519043,-0.7601630687713623,-0.504439691440745,0.8577107621082474,0.09936219735319575,0.08989020519282885,5.0,0
51.234745025634766,-10.718101501464844,-0.7882061004638672,-0.0,-0.0,-1.0,0.11659944957915494,1.0,0
51.690921783447266,-9.598814964294434,-0.7615063190460205,-0.002338269260836902,-0.32548859053693213,-0.9455430767168385,0.13500247028213827,3.0,0
51.796302795410156,-9.891876220703125,-0.7926945686340332,-0.0,-0.0,-1.0,0.13986267922848927,2.0,0
51.66427993774414,-10.220298767089844,-0.8001132011413574,-0.0,-0.0,-1.0,0.11265150141155952,2.0,0
52.136505126953125,-9.760315895080566,-0.822526216506958,-0.0,-0.0,-1.0,0.019365338581636207,1.0,0
50.35889434814453,-9.678345680236816,-0.5894513130187988,-0.0,-0.0,-1.0,0.11558202524213151,1.0,0
50.583431243896484,-10.11361026763916,-0.6444942951202393,-0.9147058529653167,-0.297777430241165,-0.27320652369582965,0.10431361485062546,4.0,0
50.29174041748047,-11.373605728149414,-0.7059160470962524,-0.0,-0.0,-1.0,0.02262022863544917,1.0,0
50.830448150634766,-11.24092960357666,-0.7526214122772217,-0.0,-0.0,-1.0,0.07242546525740665,1.0,0
50.689727783203125,-11.300677299499512,-0.7421414852142334,-0.0,-0.0,-1.0,0.019594850840669188,1.0,0
51.29705810546875,-10.315696716308594,-0.7376048564910889,0.04895192591793352,-0.6550438177799025,-0.7540035183851963,0.0940689128754909,5.0,0
51.2291374206543,-10.867755889892578,-0.768580436706543,-0.0,-0.0,-1.0,0.15823325946454267,2.0,0
51.16578674316406,-11.119695663452148,-0.7798089981079102,-0.0,-0.0,-1.0,0.08308234249455052,1.0,0
52.036033630371094,-9.912071228027344,-0.7948806285858154,-0.0,-0.0,-1.0,0.03250755814434846,2.0,0
51.82839584350586,-10.034597396850586,-0.7789666652679443,-0.0,-0.0,-1.0,0.08208344545109574,1.0,0
51.67133331298828,-10.364594459533691,-0.782895565032959,-0.0,-0.0,-1.0,0.025375762279391534,2.0,0
51.48040771484375,-10.707413673400879,-0.7849302291870117,-0.0,-0.0,-1.0,0.04869557684947461,1.0,0
50.370361328125,-9.581693649291992,-0.605605959892273,-0.0,-0.0,-1.0,0.14525307642498841,2.0,0
51.40044403076172,-9.408500671386719,-0.8241175413131714,-0.0,-0.0,-1.0,0.08318383577179171,1.0,0
51.223121643066406,-9.661323547363281,-0.8193145990371704,-0.0,-0.0,-1.0,0.028654608905198112,2.0,0
50.61436462402344,-9.828926086425781,-0.7823625802993774,-0.0,-0.0,-1.0,0.03551720290539914,1.0,0
50.83293914794922,-9.57961368560791,-0.7895323038101196,-0.0,-0.0,-1.0,0.050126357868594054,2.0,0
50.48517608642578,-9.514714241027832,-0.7632712125778198,0.4077008220349776,0.4633028769588617,-0.7868484504106523,0.15417694577357233,5.0,0
50.38555908203125,-9.56814956665039,-0.758060097694397,0.4718427240937445,0.41161131084843705,-0.7797054395740902,0.10563040527054902,5.0,0
52.100833892822266,-9.602697372436523,-0.5822619199752808,-0.0,-0.0,-1.0,0.07830168813687019,1.0,0
52.07438659667969,-9.397256851196289,-0.5820719003677368,-0.0,-0.0,-1.0,0.0652776911245727,1.0,0
51.44677734375,-11.179698944091797,-0.5227874517440796,-0.0,-0.0,-1.0,0.11039877026375977,1.0,0
51.43915939331055,-10.910873413085938,-0.5235680341720581,-0.0,-0.0,-1.0,0.08817904041269672,1.0,0
51.567649841308594,-10.161909103393555,-0.5376832485198975,-0.0,-0.0,-1.0,0.09164893814300902,1.0,0
51.54580307006836,-9.70676040649414,-0.5393704175949097,-0.0,-0.0,-1.0,0.07698218789686052,1.0,0
51.41179656982422,-11.02400016784668,-0.5209711790084839,-0.0,-0.0,-1.0,0.12130552055832276,1.0,0
51.110801696777344,-10.440250396728516,-0.5018559694290161,-0.0,-0.0,-1.0,0.07000994254574391,1.0,0
50.55217742919922,-10.192543029785156,-0.46186602115631104,-0.0,-0.0,-1.0,0.08084856888352225,1.0,0
50.300086975097656,-9.72750473022461,-0.44586455821990967,-0.0,-0.0,-1.0,0.17401889903282822,1.0,0
50.40756607055664,-9.529892921447754,-0.5085177421569824,-0.0,-0.0,-1.0,0.10697405513969688,1.0,0
52.64520263671875,-10.298425674438477,-0.7968025207519531,-0.0,-0.0,-1.0,0.010449819721610456,2.0,0
52.18061065673828,-10.702518463134766,-0.7863447666168213,0.9127939189647917,0.055528719904352396,-0.40462800541569194,0.010936074180257957,3.0,0
52.45623779296875,-10.457136154174805,-0.7922110557556152,0.9588613366294535,-0.12473110432960861,-0.25500409551592285,0.008572966613833367,3.0,0
51.7616081237793,-11.110435485839844,-0.7794630527496338,-0.0,-0.0,-1.0,0.023618868143595383,1.0,0
51.890281677246094,-9.86463737487793,-0.7455148696899414,-0.3825636364081353,0.8703314984978064,-0.3101098947482106,0.09680524687552372,7.0,0
51.40071105957031,-11.437738418579102,-0.773690938949585,-0.0,-0.0,-1.0,0.044679775360435464,2.0,0
51.46187210083008,-11.094488143920898,-0.764653205871582,0.1709945127925439,0.14685250082984252,-0.9742665033731076,0.11850771272259107,3.0,0
50.68977355957031,-10.081598281860352,-0.6934764385223389,-0.0,-0.0,-1.0,0.09668687742908841,2.0,0
50.39850616455078,-9.633403778076172,-0.66452956199646,0.030507634385095052,-0.9384762258611378,-0.3439936885142809,0.16225137193467626,6.0,0
51.287967681884766,-10.26331901550293,-0.8033678531646729,-0.504439691440745,0.8577107621082474,0.09936219735319575,0.08989020519282886,5.0,0
52.59355163574219,-10.846625328063965,-0.7842065095901489,-0.0,-0.0,-1.0,0.004608829412019255,2.0,0
52.02335739135742,-11.241120338439941,-0.5464093685150146,-0.0,-0.0,-1.0,0.1464614002416633,1.0,0
52.45645523071289,-11.687241554260254,-0.5682189464569092,-0.0,-0.0,-1.0,0.0714439389082344,1.0,0
52.014984130859375,-11.371652603149414,-0.5227799415588379,-0.0,-0.0,-1.0,0.2233021205034278,2.0,0
50.41168212890625,-9.545334815979004,-0.5835942029953003,-0.0,-0.0,-1.0,0.11504956836971408,1.0,0
51.556556701660156,-9.479880332946777,-0.8613009452819824,-0.0,-0.0,-1.0,0.05942228984900838,1.0,0
51.585838317871094,-9.749419212341309,-0.8684396743774414,-0.0,-0.0,-1.0,0.056373459902350216,1.0,0
50.979305267333984,-10.693307876586914,-0.6486754417419434,-0.0,-0.0,-1.0,0.17230212685636093,1.0,0
52.007896423339844,-11.187379837036133,-0.7084650993347168,-0.0,-0.0,-1.0,0.14082301127345773,1.0,0
52.568660736083984,-10.427733421325684,-0.8296959400177002,-0.0,-0.0,-1.0,0.008753245420066036,1.0,0
51.858665466308594,-9.69758415222168,-0.82379150390625,-0.0,-0.0,-1.0,0.044948731901238624,1.0,0
52.23855972290039,-9.865392684936523,-0.8463873863220215,-0.0,-0.0,-1.0,0.00921330694838016,1.0,0
52.60671615600586,-10.093910217285156,-0.8626689910888672,-0.0,-0.0,-1.0,0.009031938098943783,1.0,0
50.99317169189453,-10.716418266296387,-0.515329122543335,-0.0,-0.0,-1.0,0.1363042797105483,1.0,0
52.018577575683594,-11.249350547790527,-0.4532740116119385,-0.0,-0.0,-1.0,0.14646140024166338,2.0,0
50.37382125854492,-9.574914932250977,-0.4383974075317383,0.5855856746147636,-0.7467297503953703,0.3154109978431953,0.10363341035188685,3.0,0
51.98200225830078,-11.20588493347168,-0.41971325874328613,-0.0,-0.0,-1.0,0.1342082043673048,1.0,0
50.398193359375,-9.545930862426758,-0.4150269031524658,-0.0,-0.0,-1.0,0.10301857497003708,2.0,0
52.39120101928711,-11.784502029418945,-0.5113222599029541,-0.0,-0.0,-1.0,0.0685086867939916,1.0,0
52.00062561035156,-11.295400619506836,-0.48820948600769043,-0.0,-0.0,-1.0,0.1968300748001651,2.0,0
50.380699157714844,-11.417844772338867,-0.6799759864807129,-0.0,-0.0,-1.0,0.034795802579128995,1.0,0
50.5518798828125,-11.751675605773926,-0.6961417198181152,-0.0,-0.0,-1.0,0.025454472679143737,1.0,0
50.64058303833008,-11.243894577026367,-0.7321290969848633,-0.0,-0.0,-1.0,0.029822495410804718,2.0,0
50.49322509765625,-10.797269821166992,-0.7271513938903809,-0.6918380474983297,-0.43015459246098264,-0.5799371885113296,0.012399678454403679,3.0,0
50.543731689453125,-10.259885787963867,-0.7623913288116455,-0.0,-0.0,-1.0,0.07058311563027563,1.0,0
50.696685791015625,-10.490445137023926,-0.7765903472900391,-0.0,-0.0,-1.0,0.028301843609803496,2.0,0
50.69340515136719,-9.926597595214844,-0.8051314353942871,-0.0,-0.0,-1.0,0.04654062609694977,2.0,0
52.422630310058594,-11.325000762939453,-0.7695043087005615,-0.0,-0.0,-1.0,0.039055158487313474,1.0,0
52.656333923339844,-11.471071243286133,-0.7935290336608887,-0.0,-0.0,-1.0,0.0361882408219559,2.0,0
52.07646179199219,-10.49105453491211,-0.7839770317077637,-0.0,-0.0,-1.0,0.02260891659769668,2.0,0
52.235992431640625,-10.816068649291992,-0.7812447547912598,-0.0,-0.0,-1.0,0.005846352396584071,1.0,0
52.39248275756836,-11.12069320678711,-0.7806251049041748,-0.0,-0.0,-1.0,0.014081969759840052,1.0,0
52.694801330566406,-11.456914901733398,-0.8002920150756836,-0.0,-0.0,-1.0,0.034483290455804116,2.0,0
51.65736389160156,-9.651018142700195,-0.7947683334350586,-0.0,-0.0,-1.0,0.06356984878052069,2.0,0
51.87123107910156,-9.973199844360352,-0.7975680828094482,-0.0,-0.0,-1.0,0.14578934949644778,1.0,0
52.01112365722656,-10.28325366973877,-0.7916233539581299,-0.0,-0.0,-1.0,0.03418210833712497,1.0,0
51.943016052246094,-9.796464920043945,-0.823112964630127,0.9924699805209317,-0.1162957561109915,-0.038453021667410284,0.14206108066698003,3.0,0
51.19869613647461,-11.051219940185547,-0.6097691059112549,-0.0,-0.0,-1.0,0.1509456630332177,1.0,0
50.50373077392578,-9.788846969604492,-0.6177473068237305,-0.0,-0.0,-1.0,0.1552945985845562,1.0,0
50.759613037109375,-10.196365356445312,-0.6178617477416992,-0.0,-0.0,-1.0,0.0713598184655757,1.0,0
52.58612823486328,-11.842368125915527,-0.7838304042816162,-0.0,-0.0,-1.0,0.053226580127707486,1.0,0
52.17570877075195,-11.648934364318848,-0.7586746215820312,-0.0,-0.0,-1.0,0.10290824623097541,1.0,0
51.249515533447266,-10.13344669342041,-0.7975118160247803,-0.0,-0.0,-1.0,0.06848579064602361,1.0,0
50.846405029296875,-9.842880249023438,-0.7854065895080566,-0.0,-0.0,-1.0,0.031832034041755476,1.0,0
52.68647766113281,-11.238452911376953,-0.7657992839813232,-0.0,-0.0,-1.0,0.02736501204413638,1.0,0
52.545936584472656,-10.762857437133789,-0.7697579860687256,-0.0,-0.0,-1.0,0.004364471680543748,1.0,0
52.62269592285156,-10.335416793823242,-0.7973361015319824,0.36168708829776053,-0.20695079341601877,-0.9090400537177492,0.01103425252764035,3.0,0
52.53553771972656,-10.068807601928711,-0.7996621131896973,-0.0,-0.0,-1.0,0.007266984660376636,1.0,0
52.64948272705078,-9.624892234802246,-0.833449125289917,-0.0,-0.0,-1.0,0.0029238437687145813,2.0,0
52.490318298339844,-11.06843090057373,-0.7504177093505859,-0.0,-0.0,-1.0,0.0037228168899373195,1.0,0
51.99568176269531,-9.941560745239258,-0.744870662689209,-0.0,-0.0,-1.0,0.046632403794599056,1.0,0
51.97392272949219,-10.058744430541992,-0.736868143081665,-0.0,-0.0,-1.0,0.01977203958722392,1.0,0
51.03364944458008,-11.019087791442871,-0.5868449211120605,-0.0,-0.0,-1.0,0.18138758161368615,2.0,0
52.521976470947266,-11.027839660644531,-0.7942521572113037,-0.16554672613822483,-0.2005031204554407,-0.9656048778628591,0.0037579307437743885,3.0,0
52.50143051147461,-10.693653106689453,-0.8068759441375732,-0.0,-0.0,-1.0,0.00452262636293416,1.0,0
52.44429016113281,-10.18545150756836,-0.8241727352142334,-0.0,-0.0,-1.0,0.009842269264576325,2.0,0
52.5431022644043,-9.636232376098633,-0.8626377582550049,-0.0,-0.0,-1.0,0.0033504130590662337,1.0,0
51.95386505126953,-9.974895477294922,-0.7779037952423096,-0.0,-0.0,-1.0,0.12974374207918163,1.0,0
51.12688446044922,-10.925203323364258,-0.6366665363311768,-0.0,-0.0,-1.0,0.17988742894990173,1.0,0
50.83244323730469,-10.573019981384277,-0.7597744464874268,-0.0,-0.0,-1.0,0.067966327483221,2.0,0
51.56072235107422,-10.577903747558594,-0.7898802757263184,-0.0,-0.0,-1.0,0.012682029031457412,1.0,0
51.40476608276367,-10.369441986083984,-0.7759008407592773,-0.0,-0.0,-1.0,0.0690869404556913,1.0,0
51.64338302612305,-11.362229347229004,-0.7843146324157715,-0.0,-0.0,-1.0,0.051809322089707364,1.0,0
51.52479934692383,-10.924614906311035,-0.7783918380737305,-0.0,-0.0,-1.0,0.09225617245390619,2.0,0
52.64326477050781,-10.789422035217285,-0.7594208717346191,-0.0,-0.0,-1.0,0.004368701799136853,1.0,0
51.09258270263672,-10.948114395141602,-0.584601640701294,-0.0,-0.0,-1.0,0.1691862545569539,1.0,0
51.83328628540039,-9.42156982421875,-0.8652708530426025,-0.0,-0.0,-1.0,0.0797813623210987,1.0,0
50.45924377441406,-9.483043670654297,-0.7578542232513428,0.8156124758320906,0.5782471026431192,-0.020163768295773606,0.15635253474842561,4.0,0
50.67216491699219,-10.608037948608398,-0.7856540679931641,-0.0,-0.0,-1.0,0.020158827154104796,1.0,0
51.30415344238281,-10.300643920898438,-0.8385705947875977,-0.0,-0.0,-1.0,0.08989020519282886,1.0,0
51.115447998046875,-10.645572662353516,-0.8247902393341064,-0.0,-0.0,-1.0,0.11833987269374441,1.0,0
51.591224670410156,-10.116806030273438,-0.862419605255127,-0.0,-0.0,-1.0,0.03593069923141064,2.0,0
51.38899230957031,-10.561988830566406,-0.8481044769287109,-0.0,-0.0,-1.0,0.024629970548488585,1.0,0
51.759521484375,-9.855291366577148,-0.875324010848999,-0.0,-0.0,-1.0,0.09951161434181188,1.0,0
51.69914245605469,-10.008111953735352,-0.871119499206543,-0.0,-0.0,-1.0,0.06277253963142693,1.0,0
50.94516372680664,-10.95530891418457,-0.5577707290649414,-0.0,-0.0,-1.0,0.18675921862518632,1.0,0
50.72894287109375,-9.81725025177002,-0.8645071983337402,-0.0,-0.0,-1.0,0.032188193552223965,1.0,0
50.769561767578125,-9.508383750915527,-0.8847880363464355,-0.0,-0.0,-1.0,0.09389769238384042,1.0,0
50.42656707763672,-9.428882598876953,-0.8165020942687988,-0.0,-0.0,-1.0,0.2115780748036519,1.0,0
