x,y,z,nx,ny,nz,curvature,density,label
54.50714874267578,14.040969848632812,-2.4165830612182617,-0.0,-0.0,-1.0,0.05011569365318078,1.0,0
54.49113464355469,13.70343017578125,-2.4239654541015625,-0.0,-0.0,-1.0,0.08755583820478809,1.0,0
54.58778381347656,14.430582046508789,-2.4148406982421875,-0.0,-0.0,-1.0,0.12838771774823965,1.0,0
54.63909912109375,14.147640228271484,-2.4277963638305664,-0.0,-0.0,-1.0,0.06634306952741922,1.0,0
54.848236083984375,14.753686904907227,-2.4342093467712402,-0.0,-0.0,-1.0,0.10817919869957546,1.0,0
53.91834259033203,13.394054412841797,-2.258634090423584,-0.0,-0.0,-1.0,0.07511361331709417,1.0,0
53.86210632324219,13.16263198852539,-2.252687931060791,-0.0,-0.0,-1.0,0.06596295159541125,2.0,0
54.278018951416016,13.814567565917969,-2.2989954948425293,-0.0,-0.0,-1.0,0.08332635456527378,2.0,0
54.55261993408203,14.539728164672852,-2.32979154586792,-0.0,-0.0,-1.0,0.11016506272719803,2.0,0
54.57536697387695,14.197608947753906,-2.332583427429199,-0.0,-0.0,-1.0,0.13539985382473618,2.0,0
54.80561447143555,15.095585823059082,-2.3587594032287598,-0.0,-0.0,-1.0,0.15405546770757678,2.0,0
54.65330123901367,14.748903274536133,-2.341264247894287,-0.0,-0.0,-1.0,0.13780748712440052,2.0,0
55.01758575439453,15.354353904724121,-2.3832154273986816,-0.0,-0.0,-1.0,0.07827953384019838,1.0,0
54.96934509277344,13.248964309692383,-2.207836389541626,-0.0,-0.0,-1.0,0.12893298635908162,2.0,0
54.96308135986328,14.889602661132812,-2.1847565174102783,-0.0,-0.0,-1.0,0.22254242120244583,1.0,0
54.79294204711914,14.636161804199219,-2.169832468032837,-0.0,-0.0,-1.0,0.22121111913573974,1.0,0
55.19306564331055,13.811380386352539,-2.2237184047698975,-0.0,-0.0,-1.0,0.11903313632167924,2.0,0
55.185123443603516,13.486974716186523,-2.227404832839966,-0.0,-0.0,-1.0,0.0997637543346616,2.0,0
52.859619140625,14.208935737609863,-2.2191529273986816,-0.0,-0.0,-1.0,0.033262007834925285,1.0,0
52.91135025024414,13.879473686218262,-2.226935863494873,-0.0,-0.0,-1.0,0.04246553977373812,1.0,0
53.087711334228516,13.419321060180664,-2.2501978874206543,-0.0,-0.0,-1.0,0.023749111014698922,2.0,0
53.18244552612305,15.076904296875,-2.2533230781555176,-0.0,-0.0,-1.0,0.019808310784051913,1.0,0
53.46641159057617,14.518930435180664,-2.289119243621826,-0.0,-0.0,-1.0,0.015172111601919176,1.0,0
53.566078186035156,14.629157066345215,-2.300388813018799,-0.0,-0.0,-1.0,0.015379521061460118,1.0,0
54.242923736572266,14.536744117736816,-2.3805832862854004,-0.0,-0.0,-1.0,0.04447954913817757,1.0,0
54.18673324584961,15.190092086791992,-2.371525287628174,-0.0,-0.0,-1.0,0.020429391514768122,1.0,0
54.46442413330078,14.779218673706055,-2.4057822227478027,-0.0,-0.0,-1.0,0.03864674833782697,1.0,0
54.657596588134766,15.339537620544434,-2.4267334938049316,-0.0,-0.0,-1.0,0.01893659099257453,1.0,0
54.62130355834961,15.195297241210938,-2.4228873252868652,-0.0,-0.0,-1.0,0.05462165287220813,1.0,0
54.92021560668945,13.31895637512207,-2.2968318462371826,-0.0,-0.0,-1.0,0.038759505071624296,1.0,0
54.78145980834961,14.77791976928711,-2.2797982692718506,-0.0,-0.0,-1.0,0.09387081532368026,1.0,0
55.18096923828125,14.016695022583008,-2.3268682956695557,-0.0,-0.0,-1.0,0.060169450926043096,1.0,0
55.191749572753906,13.616877555847168,-2.3283793926239014,-0.0,-0.0,-1.0,0.06478217435536954,1.0,0
54.60493469238281,13.276717185974121,-2.214071750640869,-0.0,-0.0,-1.0,0.05791345832327167,1.0,0
54.903141021728516,14.097246170043945,-2.2314038276672363,-0.0,-0.0,-1.0,0.025936862840858773,1.0,0
54.793270111083984,13.750312805175781,-2.225748062133789,-0.0,-0.0,-1.0,0.14657749807075157,1.0,0
54.73320388793945,13.463333129882812,-2.224583148956299,-0.0,-0.0,-1.0,0.03315727654508065,1.0,0
55.036895751953125,14.733409881591797,-2.234734058380127,-0.0,-0.0,-1.0,0.1563915662053753,1.0,0
55.02083206176758,14.28856372833252,-2.240902900695801,-0.0,-0.0,-1.0,0.02024442708994894,2.0,0
55.08086395263672,13.885441780090332,-2.2549123764038086,-0.0,-0.0,-1.0,0.016038827747315552,1.0,0
54.9528923034668,13.719371795654297,-2.2387077808380127,-0.0,-0.0,-1.0,0.015387149249419653,1.0,0
54.96104431152344,13.263875007629395,-2.2438395023345947,-0.0,-0.0,-1.0,0.10449010331980364,2.0,0
55.080116271972656,14.870357513427734,-2.243779420852661,-0.0,-0.0,-1.0,0.1627853486609185,1.0,0
54.25186538696289,13.755899429321289,-2.2702114582061768,-0.0,-0.0,-1.0,0.08003282414706184,1.0,0
54.08479690551758,13.65471076965332,-2.249669313430786,-0.0,-0.0,-1.0,0.03871669666936046,1.0,0
54.631935119628906,14.295540809631348,-2.3167002201080322,-0.0,-0.0,-1.0,0.1824467369978745,1.0,0
54.524658203125,13.973690032958984,-2.303746461868286,-0.0,-0.0,-1.0,0.06882739238249512,2.0,0
53.88861846923828,13.300565719604492,-2.2261154651641846,-0.0,-0.0,-1.0,0.06542138851264756,1.0,0
54.317962646484375,14.015314102172852,-2.3473429679870605,-0.0,-0.0,-1.0,0.03145021938461138,1.0,0
54.253150939941406,14.305547714233398,-2.35567045211792,-0.0,-0.0,-1.0,0.030011576584239946,1.0,0
53.83141326904297,13.187663078308105,-2.224343776702881,0.4565478734017094,0.8515741509402989,-0.257653846745368,0.06596295159541125,3.0,0
53.98082733154297,13.23369312286377,-2.2495040893554688,-0.0,-0.0,-1.0,0.07116851027030384,1.0,0
53.39109802246094,13.648575782775879,-2.1852264404296875,-0.0,-0.0,-1.0,0.042041385763451865,1.0,0
53.92436981201172,13.4776611328125,-2.255403995513916,-0.0,-0.0,-1.0,0.05537344395127865,2.0,0
54.07844543457031,13.694974899291992,-2.291658878326416,-0.0,-0.0,-1.0,0.02219683453298398,1.0,0
53.28411865234375,13.991231918334961,-2.1898555755615234,-0.0,-0.0,-1.0,0.016745875600717927,2.0,0
54.10344696044922,13.806224822998047,-2.302170753479004,-0.0,-0.0,-1.0,0.03305807819145806,2.0,0
53.58709716796875,14.411105155944824,-2.2616682052612305,-0.0,-0.0,-1.0,0.012533554642211462,1.0,0
53.964752197265625,14.270683288574219,-2.3098840713500977,-0.0,-0.0,-1.0,0.004351702763423672,1.0,0
53.17765808105469,14.932965278625488,-2.2331743240356445,-0.0,-0.0,-1.0,0.0310502492622531,1.0,0
53.77601623535156,14.733457565307617,-2.310713768005371,-0.0,-0.0,-1.0,0.013497040303117724,2.0,0
54.165245056152344,14.601370811462402,-2.361062526702881,-0.0,-0.0,-1.0,0.06891867310524658,1.0,0
53.44293975830078,15.136518478393555,-2.2865748405456543,-0.47214178279605745,0.44190872537159676,-0.7627573764825951,0.01192665020669537,4.0,0
53.77644729614258,15.292858123779297,-2.347329616546631,-0.0,-0.0,-1.0,0.006561958846703127,1.0,0
54.07643127441406,15.454288482666016,-2.403482437133789,-0.0,-0.0,-1.0,0.0036234664314783423,1.0,0
53.141143798828125,13.547595024108887,-2.2050931453704834,-0.0,-0.0,-1.0,0.01938506413683232,1.0,0
52.82768249511719,13.851582527160645,-2.1699092388153076,-0.7748921281705085,-0.08541503268691483,-0.6262958261799877,0.030990523763072587,3.0,0
52.8670768737793,14.160253524780273,-2.1903374195098877,-0.0,-0.0,-1.0,0.037209379534445086,1.0,0
53.169803619384766,14.345333099365234,-2.246417284011841,-0.0,-0.0,-1.0,0.010334859149439199,1.0,0
53.18603515625,14.61796760559082,-2.2621233463287354,-0.0,-0.0,-1.0,0.021399390593299993,1.0,0
52.983863830566406,15.003366470336914,-2.249645471572876,-0.0,-0.0,-1.0,0.029789804289144718,2.0,0
53.15520477294922,15.205821990966797,-2.2867343425750732,-0.0,-0.0,-1.0,0.021738125955544564,1.0,0
53.339210510253906,15.445633888244629,-2.3279879093170166,-0.0,-0.0,-1.0,0.022106439629558855,2.0,0
53.0890007019043,13.423994064331055,-2.217463970184326,-0.0,-0.0,-1.0,0.025440849929220334,2.0,0
52.96019744873047,13.662984848022461,-2.208019256591797,-0.0,-0.0,-1.0,0.03569774999202554,2.0,0
52.944183349609375,14.260392189025879,-2.2350692749023438,-0.0,-0.0,-1.0,0.030248363853860944,2.0,0
53.02317810058594,14.613190650939941,-2.2661209106445312,-0.0,-0.0,-1.0,0.013064057580323557,2.0,0
53.137840270996094,15.43783187866211,-2.3294272422790527,-0.0,-0.0,-1.0,0.02766551443938655,2.0,0
52.807437896728516,13.922266006469727,-2.195929527282715,-0.0,-0.0,-1.0,0.044475849544967805,2.0,0
52.8927001953125,13.76771354675293,-2.202164649963379,0.4225897731272485,0.4273489154558857,-0.7992438852483882,0.03908343977941804,4.0,0
52.83555603027344,14.065309524536133,-2.207597255706787,-0.7938791625807486,-0.15579356972803324,-0.587779073165663,0.04158494147384416,6.0,0
52.89677429199219,14.264591217041016,-2.2276086807250977,-0.0,-0.0,-1.0,0.028877745606872052,2.0,0
52.9518928527832,14.618340492248535,-2.2548532485961914,-0.0,-0.0,-1.0,0.011080500111646659,1.0,0
52.81289291381836,15.040858268737793,-2.254721164703369,-0.0,-0.0,-1.0,0.03559600841850657,2.0,0
52.96795654296875,15.184950828552246,-2.2877755165100098,-0.0,-0.0,-1.0,0.03219446017760188,1.0,0
54.4759521484375,13.74252700805664,-2.1404740810394287,-0.0,-0.0,-1.0,0.16289388032940882,2.0,0
55.13486099243164,13.463356971740723,-2.2304956912994385,-0.0,-0.0,-1.0,0.09976375433466157,2.0,0
55.11063766479492,14.151266098022461,-2.262517213821411,-0.0,-0.0,-1.0,0.07620738644484802,2.0,0
54.71367263793945,14.451737403869629,-2.215803861618042,-0.0,-0.0,-1.0,0.138327707451323,2.0,0
55.01905059814453,14.479018211364746,-2.26578688621521,-0.02235347801603179,-0.9996276147868748,0.015650999204213624,0.06835083780741327,5.0,0
54.95343017578125,14.749466896057129,-2.2702877521514893,0.79958698182938,0.3704524546363573,-0.47267921187934653,0.19747093621068842,3.0,0
55.20563507080078,13.213671684265137,-2.220210313796997,-0.0,-0.0,-1.0,0.20330872606763295,1.0,0
55.195030212402344,13.627679824829102,-2.2390830516815186,0.22521209831646538,-0.5261213036357009,-0.8200462698119935,0.06442968043257329,3.0,0
54.875396728515625,13.184191703796387,-2.1649301052093506,-0.0,-0.0,-1.0,0.07075174601216958,1.0,0
55.03102111816406,13.576424598693848,-2.2097065448760986,-0.6058360841835546,0.08405221972408541,-0.7911370699572804,0.11278082068864499,4.0,0
55.05519104003906,14.183643341064453,-2.244992971420288,-0.0,-0.0,-1.0,0.032829547280799024,2.0,0
54.8311767578125,14.461188316345215,-2.2232253551483154,-0.0,-0.0,-1.0,0.09005387291268134,1.0,0
55.04331588745117,14.291999816894531,-2.2488086223602295,0.06684143824649694,-0.9704861017680749,-0.23170875772863123,0.020562894304287368,3.0,0
54.956031799316406,14.75721549987793,-2.2598140239715576,0.7437568981239111,-0.2558263566409397,-0.6175585411448219,0.1974709362106884,5.0,0
55.081199645996094,14.595680236816406,-2.2713983058929443,-0.0,-0.0,-1.0,0.0637719385838722,1.0,0
54.69892120361328,15.025891304016113,-2.232750654220581,-0.0,-0.0,-1.0,0.2540058862137344,1.0,0
54.64503479003906,13.78153133392334,-2.0054962635040283,-0.45033179338934887,0.7417513019358267,-0.4969972655249109,0.14179755459845508,4.0,0
54.7882080078125,14.74085807800293,-2.0855095386505127,-0.0,-0.0,-1.0,0.12558572792985168,1.0,0
53.83955383300781,13.387444496154785,-2.1422977447509766,-0.0,-0.0,-1.0,0.04628928183285122,1.0,0
54.52634048461914,13.627758026123047,-2.2824482917785645,-0.0,-0.0,-1.0,0.1257847662772408,2.0,0
54.629371643066406,13.43049144744873,-2.2900452613830566,-0.0,-0.0,-1.0,0.05507785530366685,1.0,0
54.550174713134766,13.902627944946289,-2.3030872344970703,-0.0,-0.0,-1.0,0.10385999311367702,1.0,0
54.47761535644531,14.369791030883789,-2.3182878494262695,-0.0,-0.0,-1.0,0.09659891064186518,1.0,0
54.585166931152344,14.176421165466309,-2.326129913330078,-0.0,-0.0,-1.0,0.13192661343173148,2.0,0
54.47230529785156,14.738211631774902,-2.340818405151367,-0.0,-0.0,-1.0,0.0896802494848184,1.0,0
54.6636962890625,15.111797332763672,-2.400862693786621,-0.0,-0.0,-1.0,0.07246654324816909,1.0,0
54.50457000732422,15.468387603759766,-2.3957419395446777,-0.0,-0.0,-1.0,0.013606463852934288,2.0,0
54.67540740966797,15.536943435668945,-2.432178020477295,-0.0,-0.0,-1.0,0.018003511812946467,2.0,0
52.79229736328125,13.3438138961792,-2.258723020553589,-0.0,-0.0,-1.0,0.02749677233025983,1.0,0
52.77046203613281,15.314745903015137,-2.33734130859375,-0.0,-0.0,-1.0,0.021313275397979167,1.0,0
52.80194854736328,15.628623008728027,-2.3574721813201904,-0.0,-0.0,-1.0,0.024964870249789373,1.0,0
53.633270263671875,13.36425495147705,-2.264763355255127,-0.0,-0.0,-1.0,0.04555878075415906,1.0,0
52.952049255371094,13.727777481079102,-2.1703832149505615,-0.0,-0.0,-1.0,0.03908343977941814,1.0,0
53.04895782470703,13.834156036376953,-2.1922221183776855,0.5740306570230133,-0.15173717688007626,-0.8046518712773818,0.024733721841642582,3.0,0
52.95232391357422,14.038050651550293,-2.1872074604034424,-0.0,-0.0,-1.0,0.029583455332634987,1.0,0
53.428138732910156,14.257855415344238,-2.278843641281128,-0.0,-0.0,-1.0,0.015984746143835486,2.0,0
53.59772491455078,14.188502311706543,-2.303274631500244,-0.0,-0.0,-1.0,0.01240454323400486,1.0,0
53.25224304199219,14.701935768127441,-2.2750518321990967,-0.0,-0.0,-1.0,0.0193668446175321,1.0,0
53.440643310546875,14.452796936035156,-2.2920422554016113,0.21037389411092017,-0.5797403755073927,-0.7871746449696885,0.01355935653003473,3.0,0
53.12623596191406,14.982483863830566,-2.270724296569824,-0.3507965131218463,0.19475105059886133,-0.9159769837022074,0.03027068955912486,3.0,0
53.401954650878906,15.240922927856445,-2.332608938217163,-0.0,-0.0,-1.0,0.011272327260401588,1.0,0
53.52439880371094,15.469590187072754,-2.3673958778381348,-0.0,-0.0,-1.0,0.009861077067398884,2.0,0
55.16466522216797,13.342447280883789,-2.1869566440582275,-0.0,-0.0,-1.0,0.1393104568421803,2.0,0
55.099029541015625,14.500251770019531,-2.2390856742858887,-0.0,-0.0,-1.0,0.13280346230290088,1.0,0
55.13932418823242,14.866122245788574,-2.2667927742004395,-0.0,-0.0,-1.0,0.13469834962742747,1.0,0
54.459571838378906,13.731977462768555,-2.0945990085601807,-0.0,-0.0,-1.0,0.15662395387701966,2.0,0
54.791465759277344,14.590524673461914,-2.1949963569641113,-0.0,-0.0,-1.0,0.16836694315671605,2.0,0
55.14978790283203,13.28201675415039,-2.2446534633636475,-0.0,-0.0,-1.0,0.21142583673952978,1.0,0
54.89838409423828,13.649105072021484,-2.2187280654907227,-0.0,-0.0,-1.0,0.019342405104356943,1.0,0
55.107330322265625,13.443498611450195,-2.2447805404663086,0.6108226110870162,-0.7874555596310628,-0.08251956974542102,0.07724827557456836,3.0,0
54.86921310424805,14.0140962600708,-2.2313218116760254,-0.0,-0.0,-1.0,0.03089384589341411,1.0,0
54.8580322265625,14.397063255310059,-2.2486536502838135,-0.0,-0.0,-1.0,0.0730267456043354,2.0,0
55.032020568847656,14.80140209197998,-2.2996933460235596,-0.0,-0.0,-1.0,0.16945712830589527,2.0,0
55.010215759277344,15.520147323608398,-2.3359670639038086,-0.0,-0.0,-1.0,0.07863813497341998,1.0,0
53.716758728027344,13.240480422973633,-2.2908568382263184,-0.0,-0.0,-1.0,0.05932569958825235,1.0,0
53.195003509521484,13.74980354309082,-2.210700035095215,-0.0,-0.0,-1.0,0.027456989294227217,1.0,0
53.55116271972656,13.56052303314209,-2.271808624267578,-0.0,-0.0,-1.0,0.03297397825504491,2.0,0
53.91221237182617,13.793139457702637,-2.3520896434783936,-0.0,-0.0,-1.0,0.01944435535665283,1.0,0
53.270477294921875,14.011340141296387,-2.2370214462280273,-0.0,-0.0,-1.0,0.014929821937234215,1.0,0
53.83259582519531,14.179460525512695,-2.3543572425842285,-0.0,-0.0,-1.0,0.005029960950613959,1.0,0
53.9920654296875,14.095725059509277,-2.381479263305664,-0.0,-0.0,-1.0,0.004302400020124896,1.0,0
53.42283248901367,14.558095932006836,-2.292938232421875,-0.0,-0.0,-1.0,0.015412595356134316,2.0,0
53.69935607910156,14.328584671020508,-2.3355586528778076,-0.0,-0.0,-1.0,0.009340191199867667,1.0,0
53.91865921020508,14.511606216430664,-2.387408494949341,-0.0,-0.0,-1.0,0.006902436656331341,1.0,0
53.22185516357422,14.910871505737305,-2.2719228267669678,-0.0,-0.0,-1.0,0.02181060833843143,2.0,0
53.766998291015625,14.730627059936523,-2.3689675331115723,-0.0,-0.0,-1.0,0.013538458606087551,1.0,0
53.91670227050781,14.649336814880371,-2.3940093517303467,-0.0,-0.0,-1.0,0.00880908670968248,1.0,0
53.41912078857422,15.161200523376465,-2.324045181274414,-0.0,-0.0,-1.0,0.010275420659325192,1.0,0
53.671791076660156,15.316906929016113,-2.3822197914123535,-0.0,-0.0,-1.0,0.006123371064212872,2.0,0
53.84528350830078,15.61231517791748,-2.4333558082580566,-0.0,-0.0,-1.0,0.0051357717895411815,2.0,0
53.912776947021484,15.610987663269043,-2.4464242458343506,-0.0,-0.0,-1.0,0.004258179001150274,2.0,0
53.69964599609375,13.304356575012207,-2.2778329849243164,-0.08721242475944554,-0.2916424542749154,-0.9525432650709793,0.05576408008065785,4.0,0
53.75782012939453,13.33423137664795,-2.2908883094787598,0.5487048723354854,-0.08190126857552975,-0.8319946786374401,0.05748583912475512,3.0,0
53.212493896484375,13.821413040161133,-2.2001237869262695,-0.0,-0.0,-1.0,0.02795128237712376,1.0,0
53.652061462402344,13.54658317565918,-2.278153896331787,-0.0,-0.0,-1.0,0.04361991091276016,1.0,0
53.780906677246094,13.783942222595215,-2.314967632293701,-0.0,-0.0,-1.0,0.015427434639320215,1.0,0
53.70465850830078,14.086923599243164,-2.313427448272705,-0.0,-0.0,-1.0,0.0058574115948543705,1.0,0
53.84342956542969,14.036714553833008,-2.3394546508789062,-0.0,-0.0,-1.0,0.01134555153218874,2.0,0
53.635948181152344,14.49676513671875,-2.319446563720703,-0.0,-0.0,-1.0,0.0154383719789704,1.0,0
53.830726623535156,14.552331924438477,-2.3622941970825195,-0.0,-0.0,-1.0,0.010430739906497741,2.0,0
53.238311767578125,14.938328742980957,-2.260768413543701,-0.0,-0.0,-1.0,0.028949500809853264,2.0,0
53.43679428100586,15.095743179321289,-2.3103575706481934,-0.38839514459905844,0.6348767010892311,-0.6678927953391411,0.010837287721163158,4.0,0
53.643638610839844,15.304985046386719,-2.3650174140930176,-0.0,-0.0,-1.0,0.010774428370656508,2.0,0
53.824581146240234,15.524410247802734,-2.4152674674987793,-0.0,-0.0,-1.0,0.005110773188646537,1.0,0
54.98619079589844,14.822283744812012,-1.9109302759170532,-0.0,-0.0,-1.0,0.20739339830304454,2.0,0
54.70257568359375,14.57485294342041,-1.8488963842391968,-0.0,-0.0,-1.0,0.14587868147182254,1.0,0
54.65632629394531,13.277894973754883,-2.277050256729126,-0.0,-0.0,-1.0,0.06623477147153004,2.0,0
54.527957916259766,13.694221496582031,-2.2680563926696777,-0.0,-0.0,-1.0,0.14151118019029063,2.0,0
54.66019821166992,13.490279197692871,-2.2866570949554443,-0.0,-0.0,-1.0,0.03745339775358968,2.0,0
54.57006072998047,14.002509117126465,-2.2911674976348877,-0.0,-0.0,-1.0,0.07539038803395129,2.0,0
54.462249755859375,14.422160148620605,-2.2897067070007324,-0.0,-0.0,-1.0,0.10110411268268656,2.0,0
54.70317459106445,14.468564987182617,-2.3427953720092773,-0.0,-0.0,-1.0,0.18356154143535597,2.0,0
54.530723571777344,14.756134033203125,-2.3222408294677734,-0.0,-0.0,-1.0,0.09842604469384342,1.0,0
54.78136444091797,14.957229614257812,-2.3864521980285645,-0.0,-0.0,-1.0,0.10986457638013367,1.0,0
54.64744567871094,15.401313781738281,-2.38541579246521,-0.0,-0.0,-1.0,0.018382749226078042,1.0,0
54.82957458496094,15.171630859375,-2.4094715118408203,-0.0,-0.0,-1.0,0.055633953592562395,2.0,0
54.747413635253906,15.586360931396484,-2.4184036254882812,-0.0,-0.0,-1.0,0.026987843998275418,2.0,0
53.5306510925293,13.368285179138184,-2.311875104904175,-0.0,-0.0,-1.0,0.013615727376100346,1.0,0
53.22248840332031,13.893592834472656,-2.253933906555176,-0.0,-0.0,-1.0,0.02649843308184455,1.0,0
53.50690460205078,13.769136428833008,-2.317725896835327,-0.0,-0.0,-1.0,0.0300215950628322,1.0,0
53.52406692504883,14.154973030090332,-2.334804058074951,-0.0,-0.0,-1.0,0.012366985738850833,1.0,0
53.463008880615234,14.561594009399414,-2.3363304138183594,-0.30442072444231966,-0.02633940009685731,-0.9521734393126867,0.015726726755174607,3.0,0
53.47595977783203,15.342498779296875,-2.3770344257354736,-0.0,-0.0,-1.0,0.014076661845790827,2.0,0
55.15925598144531,13.319742202758789,-2.051542043685913,-0.0,-0.0,-1.0,0.14947444939621748,2.0,0
53.06095886230469,13.786754608154297,-2.212249994277954,0.3409613783144752,0.8385017983754052,-0.4250412599020292,0.020688697737662968,4.0,0
54.62920379638672,13.79979133605957,-1.9622828960418701,-0.0,-0.0,-1.0,0.1419506822799497,2.0,0
54.45145034790039,14.708292007446289,-1.9658114910125732,-0.0,-0.0,-1.0,0.2555066912570481,1.0,0
53.17234802246094,14.992021560668945,-2.286356210708618,-0.0,-0.0,-1.0,0.028995414500055078,2.0,0
54.41131591796875,14.7706880569458,-1.960721731185913,-0.0,-0.0,-1.0,0.23250877159513297,2.0,0
55.02199935913086,14.804311752319336,-2.0863118171691895,-0.0,-0.0,-1.0,0.12570184754952768,1.0,0
52.997779846191406,13.401464462280273,-2.26371169090271,-0.0,-0.0,-1.0,0.022265563792490305,1.0,0
55.04951477050781,13.187864303588867,-2.1814255714416504,-0.0,-0.0,-1.0,0.14639439780498845,2.0,0
52.84825897216797,13.819927215576172,-2.2347357273101807,-0.0,-0.0,-1.0,0.037452012273464425,1.0,0
52.91759490966797,14.205723762512207,-2.264071464538574,-0.0,-0.0,-1.0,0.032700975801140016,1.0,0
53.02725601196289,14.585988998413086,-2.3062081336975098,-0.0,-0.0,-1.0,0.013064057580323517,2.0,0
52.96958541870117,14.99270248413086,-2.3082528114318848,-0.18872869688645907,-0.12854378571619648,-0.97357997828904,0.029185381367061742,3.0,0
53.11903381347656,15.296173095703125,-2.36185622215271,-0.0,-0.0,-1.0,0.023594668305294338,1.0,0
53.16474914550781,15.46845817565918,-2.3827755451202393,-0.0,-0.0,-1.0,0.02651951163745485,2.0,0
55.0794792175293,14.289219856262207,-2.2267329692840576,-0.0,-0.0,-1.0,0.02056289430428738,2.0,0
54.62677001953125,14.571006774902344,-2.1373114585876465,-0.0,-0.0,-1.0,0.15849852789426086,1.0,0
55.02349090576172,14.470893859863281,-2.221914291381836,-0.7221910119752066,-0.6895356340075165,-0.054596260458741226,0.14991088076668674,3.0,0
55.11854553222656,14.39979076385498,-2.240156412124634,-0.0,-0.0,-1.0,0.04834099393775917,1.0,0
54.9860954284668,14.757328033447266,-2.2264931201934814,0.6922554455951557,0.35938738345066773,-0.6257979759158186,0.19148433170905615,3.0,0
53.66982650756836,13.31811237335205,-2.2809696197509766,-0.08721242475944554,-0.2916424542749154,-0.9525432650709793,0.05891662934250269,4.0,0
53.65578842163086,13.695450782775879,-2.287029981613159,-0.0,-0.0,-1.0,0.03766446234246652,1.0,0
53.83023452758789,13.750547409057617,-2.335238456726074,-0.0,-0.0,-1.0,0.018258602588685773,1.0,0
53.711612701416016,14.250682830810547,-2.320387601852417,-0.0,-0.0,-1.0,0.006688160879410401,1.0,0
53.823211669921875,14.03774356842041,-2.3427035808563232,-0.0,-0.0,-1.0,0.01134555153218874,2.0,0
53.677207946777344,14.37586784362793,-2.315997838973999,-0.0,-0.0,-1.0,0.010532702855354034,1.0,0
53.856571197509766,14.52642822265625,-2.3706610202789307,-0.0,-0.0,-1.0,0.009759902166805886,2.0,0
53.753700256347656,14.85713005065918,-2.358022928237915,-0.0,-0.0,-1.0,0.007152715068619582,1.0,0
53.840736389160156,14.89671516418457,-2.383380651473999,-0.0,-0.0,-1.0,0.006763475075121921,1.0,0
53.81373596191406,15.3646240234375,-2.40073823928833,-0.0,-0.0,-1.0,0.0038754208048159384,1.0,0
53.848388671875,15.40361213684082,-2.412341833114624,-0.0,-0.0,-1.0,0.00465074341807351,1.0,0
53.88908004760742,15.609548568725586,-2.4355509281158447,-0.07478301873712104,-0.9543176379818392,-0.2892841958098065,0.004258179001150262,3.0,0
55.195762634277344,13.295660018920898,-2.113781690597534,-0.0,-0.0,-1.0,0.14947444939621754,1.0,0
53.33854293823242,13.70775032043457,-2.2023043632507324,-0.0,-0.0,-1.0,0.03181135226742526,2.0,0
54.609249114990234,13.765869140625,-1.9947052001953125,-0.0,-0.0,-1.0,0.189537673046767,2.0,0
54.47264862060547,14.638612747192383,-2.0005741119384766,-0.0,-0.0,-1.0,0.20397720526646132,1.0,0
54.671775817871094,14.774185180664062,-2.053776264190674,-0.0,-0.0,-1.0,0.15614542336508322,1.0,0
53.53496551513672,15.199466705322266,-2.316063642501831,-0.5954795466215868,0.4868505813522381,-0.6390466500908505,0.012249643388908354,3.0,0
54.76805877685547,15.10302448272705,-2.093693733215332,-0.0,-0.0,-1.0,0.2523214024818584,1.0,0
52.78266143798828,13.433916091918945,-2.2646307945251465,-0.0,-0.0,-1.0,0.026244410492366102,2.0,0
54.69729232788086,13.36044692993164,-2.32435941696167,-0.0,-0.0,-1.0,0.058036077633461906,2.0,0
52.782676696777344,13.845171928405762,-2.2683348655700684,-0.0,-0.0,-1.0,0.04829788229536588,2.0,0
54.63166809082031,13.795217514038086,-2.3160696029663086,-0.0,-0.0,-1.0,0.07091567784806076,1.0,0
52.798500061035156,14.205748558044434,-2.27946138381958,-0.0,-0.0,-1.0,0.033262007834925306,1.0,0
52.87031173706055,14.38524055480957,-2.305793523788452,-0.0,-0.0,-1.0,0.015420811168743857,1.0,0
54.730224609375,14.132576942443848,-2.352195978164673,-0.0,-0.0,-1.0,0.0713821067696819,2.0,0
52.84823226928711,14.751395225524902,-2.3098104000091553,-0.0,-0.0,-1.0,0.026080759289284612,2.0,0
52.90694808959961,14.583342552185059,-2.3228259086608887,-0.0,-0.0,-1.0,0.011242280706077898,1.0,0
54.80442428588867,14.631673812866211,-2.3898890018463135,-0.0,-0.0,-1.0,0.1512552793014775,1.0,0
52.82698440551758,14.983901023864746,-2.3117563724517822,-0.0,-0.0,-1.0,0.038181827842175886,2.0,0
52.916378021240234,15.162920951843262,-2.3468263149261475,-0.0,-0.0,-1.0,0.02981479071752248,1.0,0
54.83712387084961,14.993844032287598,-2.4141111373901367,-0.0,-0.0,-1.0,0.07613183151142575,1.0,0
54.917945861816406,14.95438003540039,-2.4345879554748535,-0.0,-0.0,-1.0,0.06185271732423984,1.0,0
52.96432876586914,15.414739608764648,-2.3735239505767822,-0.0,-0.0,-1.0,0.025928141251119235,1.0,0
54.87767028808594,15.383943557739258,-2.444246292114258,-0.0,-0.0,-1.0,0.021823672953661794,1.0,0
54.914493560791016,15.234293937683105,-2.4467110633850098,-0.0,-0.0,-1.0,0.024702664180377948,1.0,0
54.89069747924805,15.57550048828125,-2.45798659324646,-0.0,-0.0,-1.0,0.06349135686315399,1.0,0
54.57189178466797,13.76706314086914,-2.299051284790039,-0.0,-0.0,-1.0,0.10954408276869197,1.0,0
54.58210754394531,14.439189910888672,-2.321932315826416,-0.0,-0.0,-1.0,0.1369272098368184,1.0,0
52.7912712097168,14.987699508666992,-2.3006675243377686,-0.0,-0.0,-1.0,0.038181827842175865,2.0,0
54.57143020629883,15.500380516052246,-2.366229772567749,-0.0,-0.0,-1.0,0.01927912423806549,1.0,0
54.985992431640625,14.863649368286133,-1.9286813735961914,-0.0,-0.0,-1.0,0.2383548735867117,2.0,0
53.311439514160156,13.474620819091797,-2.272122859954834,-0.0,-0.0,-1.0,0.029429578327466288,2.0,0
54.88695526123047,13.418024063110352,-2.2757115364074707,-0.0,-0.0,-1.0,0.034804465628906794,1.0,0
53.3214225769043,13.913236618041992,-2.278329372406006,-0.0,-0.0,-1.0,0.01916161949857819,1.0,0
54.815834045410156,13.845909118652344,-2.2636704444885254,-0.0,-0.0,-1.0,0.044361584284246566,2.0,0
53.41740417480469,14.271726608276367,-2.314821243286133,-0.0,-0.0,-1.0,0.01566734072105207,2.0,0
54.85243225097656,14.237237930297852,-2.2841453552246094,-0.0,-0.0,-1.0,0.05415530020631827,1.0,0
53.3328857421875,14.69156551361084,-2.298156261444092,-0.0,-0.0,-1.0,0.018080395724011097,1.0,0
53.48503875732422,14.549429893493652,-2.3430371284484863,-0.30442072444231966,-0.02633940009685731,-0.9521734393126867,0.01512360260902226,3.0,0
54.95655059814453,14.654080390930176,-2.327570915222168,-0.0,-0.0,-1.0,0.09210172216178104,1.0,0
53.292781829833984,15.079237937927246,-2.298445224761963,-0.0,-0.0,-1.0,0.012546096937890166,1.0,0
54.996551513671875,15.064763069152832,-2.355726718902588,-0.0,-0.0,-1.0,0.05169756461647223,1.0,0
55.19552230834961,15.022733688354492,-2.410612106323242,-0.0,-0.0,-1.0,0.0544351465318075,1.0,0
53.48658752441406,15.363164901733398,-2.3732190132141113,-0.0,-0.0,-1.0,0.01372322106489221,2.0,0
53.520530700683594,15.486662864685059,-2.3901515007019043,-0.0,-0.0,-1.0,0.009861077067398884,2.0,0
54.926414489746094,15.571098327636719,-2.3600964546203613,-0.0,-0.0,-1.0,0.06397471981893954,1.0,0
55.1453742980957,15.36433219909668,-2.412271499633789,-0.0,-0.0,-1.0,0.07849534493133732,1.0,0
54.80923843383789,13.816532135009766,-1.778342604637146,-0.0,-0.0,-1.0,0.23105097071820258,1.0,0
54.96217727661133,14.895272254943848,-1.8546966314315796,-0.0,-0.0,-1.0,0.216052571962646,1.0,0
54.075164794921875,13.173432350158691,-2.2709617614746094,-0.0,-0.0,-1.0,0.05670793012448558,1.0,0
54.13603210449219,13.445510864257812,-2.289910316467285,-0.0,-0.0,-1.0,0.03931700405790194,1.0,0
54.279640197753906,13.836027145385742,-2.3385109901428223,-0.0,-0.0,-1.0,0.08517086682740264,2.0,0
54.3650016784668,14.248991012573242,-2.372389316558838,-0.0,-0.0,-1.0,0.06553604712299126,1.0,0
54.40468215942383,14.647994041442871,-2.395031213760376,-0.0,-0.0,-1.0,0.05266488729700192,1.0,0
54.40967559814453,15.050302505493164,-2.4101202487945557,-0.0,-0.0,-1.0,0.08041300002328725,1.0,0
54.435142517089844,15.449661254882812,-2.4356882572174072,-0.0,-0.0,-1.0,0.012140384430789802,1.0,0
54.65448760986328,13.781792640686035,-2.011004686355591,-0.0,-0.0,-1.0,0.15765467244870737,2.0,0
54.67679977416992,14.668008804321289,-2.040015935897827,-0.0,-0.0,-1.0,0.16870128698475415,1.0,0
54.93690872192383,14.745125770568848,-2.118544816970825,-0.0,-0.0,-1.0,0.12340101019985955,1.0,0
54.8232307434082,15.092058181762695,-2.0988991260528564,-0.0,-0.0,-1.0,0.2737815871951221,1.0,0
54.713172912597656,14.724336624145508,-2.087143659591675,-0.0,-0.0,-1.0,0.19970479010016812,1.0,0
54.7083625793457,15.131791114807129,-2.0983641147613525,-0.0,-0.0,-1.0,0.22409654962393388,2.0,0
54.42304229736328,14.745619773864746,-1.9924795627593994,-0.0,-0.0,-1.0,0.2521555020679886,2.0,0
52.84666442871094,14.052078247070312,-2.298997402191162,-0.0,-0.0,-1.0,0.04281427803095899,1.0,0
53.43451690673828,13.852033615112305,-2.368804931640625,-0.0,-0.0,-1.0,0.023997065056690674,1.0,0
53.072265625,13.485001564025879,-2.339484214782715,-0.0,-0.0,-1.0,0.020235807146157525,1.0,0
53.07647705078125,13.369187355041504,-2.343198776245117,-0.0,-0.0,-1.0,0.02191908268365944,1.0,0
53.595481872558594,13.683544158935547,-2.391103506088257,-0.0,-0.0,-1.0,0.03778995094823402,1.0,0
54.999595642089844,15.348878860473633,-2.1564226150512695,-0.0,-0.0,-1.0,0.1585892238137134,1.0,0
54.558589935302734,15.05717945098877,-2.09890079498291,-0.0,-0.0,-1.0,0.16575672973288058,1.0,0
54.48506546020508,14.311739921569824,-2.0454530715942383,-0.0,-0.0,-1.0,0.1560481559287162,1.0,0
55.16460037231445,15.24212646484375,-2.1644153594970703,-0.0,-0.0,-1.0,0.14408839595008266,1.0,0
55.11701583862305,14.864690780639648,-2.1364855766296387,-0.0,-0.0,-1.0,0.14631949222238025,1.0,0
55.17057418823242,14.559141159057617,-2.122018814086914,-0.0,-0.0,-1.0,0.11955436657483011,1.0,0
53.80971145629883,13.345703125,-2.187354564666748,-0.0,-0.0,-1.0,0.06514699214566248,1.0,0
54.605289459228516,13.58210563659668,-2.276869297027588,-0.0,-0.0,-1.0,0.08697494813247653,2.0,0
54.622127532958984,13.277862548828125,-2.2647786140441895,-0.0,-0.0,-1.0,0.06666041404483362,2.0,0
54.57543182373047,14.613651275634766,-2.3209080696105957,-0.0,-0.0,-1.0,0.1444954536391079,2.0,0
54.585567474365234,14.251228332519531,-2.3053388595581055,-0.0,-0.0,-1.0,0.12401418337074487,2.0,0
54.70343780517578,13.89556884765625,-2.3008170127868652,-0.0,-0.0,-1.0,0.04727227219334462,1.0,0
54.615352630615234,15.17171859741211,-2.35050106048584,-0.0,-0.0,-1.0,0.21021026164199164,1.0,0
54.67806625366211,14.809165954589844,-2.3400416374206543,-0.0,-0.0,-1.0,0.07741673742556875,1.0,0
54.77046585083008,15.375930786132812,-2.375275135040283,-0.0,-0.0,-1.0,0.02326182784151245,1.0,0
55.04110336303711,15.593802452087402,-2.412132740020752,-0.0,-0.0,-1.0,0.07484448218538155,1.0,0
53.76936340332031,13.287382125854492,-2.2786636352539062,0.0461783326896511,-0.24154512061393082,-0.9692902126286047,0.059828714787606235,3.0,0
53.00312423706055,13.788357734680176,-2.227944850921631,0.6817840705322306,0.5485665735985082,-0.4839888381966002,0.03177580509534946,4.0,0
53.412681579589844,13.62819766998291,-2.261927604675293,-0.0,-0.0,-1.0,0.0444973042542275,1.0,0
53.83088684082031,13.565347671508789,-2.303302764892578,-0.0,-0.0,-1.0,0.037643003278998326,1.0,0
52.76634216308594,14.066144943237305,-2.2206525802612305,-0.0,-0.0,-1.0,0.0433067992262083,1.0,0
52.844512939453125,14.079627990722656,-2.2300496101379395,-0.7256456424971297,-0.12174928818138957,-0.6772115713366486,0.04158494147384416,5.0,0
53.03660583496094,14.737337112426758,-2.2953691482543945,-0.0,-0.0,-1.0,0.017102770438912587,1.0,0
53.41364669799805,14.479103088378906,-2.318631172180176,-0.0,-0.0,-1.0,0.012598558317551557,2.0,0
52.975303649902344,14.944717407226562,-2.303025722503662,-0.0,-0.0,-1.0,0.032600464989880666,2.0,0
53.628562927246094,14.723386764526367,-2.3585119247436523,-0.0,-0.0,-1.0,0.014457249051933557,1.0,0
53.10291290283203,15.232818603515625,-2.3368444442749023,-0.0,-0.0,-1.0,0.021109911787589482,2.0,0
53.44281005859375,15.454471588134766,-2.3890886306762695,-0.0,-0.0,-1.0,0.02008017659734754,1.0,0
54.501121520996094,14.730953216552734,-2.009871482849121,-0.0,-0.0,-1.0,0.24218795223999906,1.0,0
53.69404602050781,13.345104217529297,-2.2890663146972656,-0.02260402475392086,-0.26858429165893943,-0.9629909326359153,0.05057318876145539,3.0,0
52.85625457763672,13.983116149902344,-2.215437412261963,-0.0,-0.0,-1.0,0.04226878120333987,1.0,0
53.018150329589844,13.754648208618164,-2.2220230102539062,0.7359209444707168,0.21526798225746302,-0.6419346222974178,0.02858409871032774,3.0,0
53.56608963012695,13.614612579345703,-2.289393424987793,-0.0,-0.0,-1.0,0.045739119578567855,2.0,0
52.85219192504883,14.101350784301758,-2.2233572006225586,0.3138827354618678,-0.928430282695229,-0.19873308369124643,0.04158494147384434,5.0,0
53.1906852722168,14.297956466674805,-2.285086154937744,-0.0,-0.0,-1.0,0.011527910475113902,1.0,0
53.156105041503906,14.578170776367188,-2.300882339477539,-0.0,-0.0,-1.0,0.01832881382234638,2.0,0
52.92177200317383,15.000636100769043,-2.3000316619873047,-0.19055053804529148,-0.9657205813736428,-0.17627890163602492,0.04545394982051366,3.0,0
53.049278259277344,14.806073188781738,-2.3029866218566895,-0.0,-0.0,-1.0,0.01800381130601951,2.0,0
53.15528869628906,15.377227783203125,-2.361691951751709,-0.0,-0.0,-1.0,0.029963678855639813,1.0,0
53.41492462158203,13.28027057647705,-2.2194533348083496,-0.0,-0.0,-1.0,0.012195645322288551,1.0,0
52.92319869995117,13.784671783447266,-2.1817569732666016,-0.0,-0.0,-1.0,0.04038181801335092,2.0,0
53.37468719482422,13.59220027923584,-2.2346384525299072,-0.0,-0.0,-1.0,0.04331356005111266,1.0,0
53.642494201660156,13.43733024597168,-2.263437271118164,-0.0,-0.0,-1.0,0.03588733110776101,1.0,0
52.884769439697266,14.091628074645996,-2.1978566646575928,0.28592560591367566,-0.7150629229855961,-0.6379118779692011,0.04158494147384421,3.0,0
53.08268737792969,14.506280899047852,-2.256864547729492,-0.0,-0.0,-1.0,0.013678430413908564,1.0,0
52.887916564941406,15.001039505004883,-2.2656452655792236,-0.0,-0.0,-1.0,0.04286878107644469,2.0,0
53.049598693847656,14.803431510925293,-2.274132251739502,-0.0,-0.0,-1.0,0.018064951125029833,2.0,0
53.065513610839844,15.289474487304688,-2.313605546951294,-0.0,-0.0,-1.0,0.01983324643039095,2.0,0
53.12546920776367,15.576072692871094,-2.3447587490081787,-0.0,-0.0,-1.0,0.023288922485729807,1.0,0
55.1196174621582,13.32542610168457,-2.045025110244751,-0.0,-0.0,-1.0,0.14947444939621748,2.0,0
54.351322174072266,14.623846054077148,-2.024898052215576,-0.0,-0.0,-1.0,0.2304499019727142,1.0,0
54.721717834472656,14.79975700378418,-2.0770299434661865,-0.0,-0.0,-1.0,0.25995038041082136,1.0,0
53.564208984375,13.525710105895996,-2.269303798675537,-0.0,-0.0,-1.0,0.029296219658409922,2.0,0
53.6588134765625,13.303332328796387,-2.2725300788879395,-0.10542532576125468,-0.432699304294154,-0.8953528984436742,0.055737056120843086,3.0,0
52.995697021484375,13.810647964477539,-2.188488006591797,0.2774004156082308,0.8579261098134315,-0.4324486091095361,0.027055916516298732,3.0,0
53.33799362182617,13.649947166442871,-2.2376365661621094,-0.0,-0.0,-1.0,0.04096986374240874,1.0,0
53.23102569580078,14.269163131713867,-2.259122848510742,-0.0,-0.0,-1.0,0.013135376836190685,1.0,0
53.3394660949707,14.272541999816895,-2.2779812812805176,-0.0,-0.0,-1.0,0.015500548524221185,1.0,0
53.18741226196289,14.719568252563477,-2.2825961112976074,-0.0,-0.0,-1.0,0.01905364940948323,1.0,0
53.41279602050781,14.536575317382812,-2.308497428894043,-0.0,-0.0,-1.0,0.015583308608172374,2.0,0
53.080039978027344,15.07670783996582,-2.2899580001831055,-0.0,-0.0,-1.0,0.03590093119584226,1.0,0
53.28839111328125,15.424776077270508,-2.3513741493225098,-0.0,-0.0,-1.0,0.022342683048559037,1.0,0
54.95445251464844,15.253935813903809,-2.396435260772705,-0.0,-0.0,-1.0,0.07044718483538895,1.0,0
55.035884857177734,15.504858016967773,-2.4311749935150146,-0.0,-0.0,-1.0,0.07863813497342001,1.0,0
54.989051818847656,13.637146949768066,-2.2766456604003906,-0.0,-0.0,-1.0,0.07654830339619569,1.0,0
55.111854553222656,13.451147079467773,-2.284278154373169,-0.0,-0.0,-1.0,0.1190313674847961,2.0,0
54.839637756347656,13.97372817993164,-2.2759974002838135,-0.0,-0.0,-1.0,0.031330908348889186,1.0,0
54.68621826171875,14.522546768188477,-2.2922074794769287,-0.0,-0.0,-1.0,0.10460559534435795,2.0,0
54.9058837890625,14.328339576721191,-2.313960313796997,-0.0,-0.0,-1.0,0.05764520869674883,1.0,0
54.76188278198242,14.815797805786133,-2.3283474445343018,-0.0,-0.0,-1.0,0.07595741310744442,1.0,0
54.85848617553711,14.712370872497559,-2.3361189365386963,-0.0,-0.0,-1.0,0.1489431507446114,2.0,0
54.82182693481445,15.101150512695312,-2.3616573810577393,-0.0,-0.0,-1.0,0.15405546770757678,2.0,0
53.815982818603516,13.188658714294434,-2.2483949661254883,-0.0,-0.0,-1.0,0.06363227465941063,2.0,0
53.465614318847656,13.565235137939453,-2.1960620880126953,-0.0,-0.0,-1.0,0.03913327118787892,1.0,0
53.88707733154297,13.492826461791992,-2.2749791145324707,-0.0,-0.0,-1.0,0.05494395716584529,2.0,0
53.2913703918457,14.002973556518555,-2.1831564903259277,-0.0,-0.0,-1.0,0.015356539380188786,2.0,0
54.07886505126953,13.993753433227539,-2.3352456092834473,-0.0,-0.0,-1.0,0.01811557058403457,1.0,0
53.268226623535156,14.822248458862305,-2.223430633544922,-0.0,-0.0,-1.0,0.019050615778905326,1.0,0
53.95436096191406,14.387266159057617,-2.3308868408203125,-0.0,-0.0,-1.0,0.00665541392589408,1.0,0
54.05690002441406,14.317612648010254,-2.347127914428711,-0.0,-0.0,-1.0,0.02481537438320072,1.0,0
53.281471252441406,14.989110946655273,-2.235898971557617,-0.0,-0.0,-1.0,0.013891055988309113,1.0,0
53.495140075683594,15.16104507446289,-2.286965847015381,-0.739917816952736,0.6514580404132363,0.1677022532253035,0.012158173105517624,3.0,0
53.931732177734375,14.808610916137695,-2.3495302200317383,-0.0,-0.0,-1.0,0.016355469846334715,1.0,0
54.0997200012207,14.589853286743164,-2.3696370124816895,-0.0,-0.0,-1.0,0.026049358358603645,1.0,0
53.919734954833984,15.37310791015625,-2.3806185722351074,-0.0,-0.0,-1.0,0.0059287766960555025,1.0,0
54.001243591308594,15.504430770874023,-2.404269218444824,-0.0,-0.0,-1.0,0.0037102947642681703,1.0,0
54.991058349609375,14.229790687561035,-2.2714529037475586,-0.9738222938598222,-0.014386303766560846,0.22685496301718755,0.030842647667449936,3.0,0
55.125770568847656,13.90579605102539,-2.2798142433166504,-0.0,-0.0,-1.0,0.016267711986173407,1.0,0
54.8919677734375,14.675607681274414,-2.27778697013855,-0.0,-0.0,-1.0,0.1786390984594581,1.0,0
54.9735107421875,14.498357772827148,-2.282745838165283,-0.9633771946127178,-0.07310848166483716,0.2579913386313417,0.05126127198774755,4.0,0
55.0321044921875,13.536015510559082,-2.244978427886963,-0.0,-0.0,-1.0,0.11278082068864498,2.0,0
54.870216369628906,15.152935028076172,-2.429691791534424,-0.0,-0.0,-1.0,0.039532408470688216,2.0,0
54.56780242919922,14.034290313720703,-2.307246208190918,-0.31572465982333486,-0.12747667121498416,-0.9402487104353754,0.05460770124211123,4.0,0
54.590797424316406,13.682449340820312,-2.293630838394165,-0.0,-0.0,-1.0,0.14469859549126865,2.0,0
54.755104064941406,13.404892921447754,-2.311957597732544,-0.0,-0.0,-1.0,0.04624982901837697,1.0,0
54.53810119628906,14.589414596557617,-2.3327319622039795,0.3006121965350211,0.002266067701231273,-0.953743766549257,0.10527058396593517,3.0,0
54.57139587402344,14.28211784362793,-2.321470022201538,-0.0,-0.0,-1.0,0.1539687533771579,2.0,0
54.678558349609375,13.970295906066895,-2.325101852416992,-0.0,-0.0,-1.0,0.05682512580017184,1.0,0
54.585514068603516,14.704766273498535,-2.3484787940979004,-0.0,-0.0,-1.0,0.12637644181019667,2.0,0
53.21951675415039,14.666251182556152,-2.29839825630188,-0.0,-0.0,-1.0,0.020092502032386644,1.0,0
53.64936065673828,14.90853500366211,-2.3822145462036133,-0.0,-0.0,-1.0,0.007045680424507951,1.0,0
53.670570373535156,14.686197280883789,-2.3576905727386475,-0.0,-0.0,-1.0,0.014440153058438382,1.0,0
53.40039825439453,14.341400146484375,-2.281322956085205,-0.0,-0.0,-1.0,0.016978259080772013,1.0,0
54.06263732910156,14.633399963378906,-2.4013497829437256,-0.0,-0.0,-1.0,0.024842833538858397,1.0,0
54.141273498535156,14.476816177368164,-2.3926854133605957,-0.0,-0.0,-1.0,0.035402241086109065,1.0,0
54.245906829833984,14.476097106933594,-2.4061598777770996,-0.0,-0.0,-1.0,0.05323614757671419,1.0,0
54.86229705810547,14.439205169677734,-1.98353111743927,-0.0,-0.0,-1.0,0.15658527630381336,1.0,0
55.134674072265625,14.812596321105957,-2.0527255535125732,-0.0,-0.0,-1.0,0.2057185316529299,1.0,0
55.19416809082031,14.164332389831543,-1.9903974533081055,-0.0,-0.0,-1.0,0.129653436359311,1.0,0
54.987335205078125,14.501919746398926,-2.013873815536499,-0.0,-0.0,-1.0,0.17900849644606498,1.0,0
54.76765441894531,14.688645362854004,-2.021662473678589,-0.0,-0.0,-1.0,0.2495810332255327,1.0,0
53.84713363647461,13.612874984741211,-2.208819627761841,-0.0,-0.0,-1.0,0.03671410541255913,1.0,0
53.3551139831543,13.73968505859375,-2.1864757537841797,-0.0,-0.0,-1.0,0.0272381705006973,2.0,0
53.06776428222656,13.797494888305664,-2.1718924045562744,0.927256346665968,0.2849048467089323,-0.24295039800222915,0.020688697737662957,4.0,0
52.8183479309082,13.883712768554688,-2.1627418994903564,-0.2525525782940508,-0.7373031326831243,-0.6265790339076777,0.04404562603182547,4.0,0
55.206336975097656,14.127374649047852,-2.2834887504577637,-0.0,-0.0,-1.0,0.06363069169399006,1.0,0
55.03554153442383,14.47767448425293,-2.3063607215881348,-0.0,-0.0,-1.0,0.06835083780741326,2.0,0
54.71459197998047,14.538562774658203,-2.2893013954162598,0.49687670685615665,-0.8424968023217148,-0.20811697735039725,0.18505250642494211,3.0,0
54.82950973510742,14.73824691772461,-2.3180575370788574,-0.0,-0.0,-1.0,0.1463058585251621,2.0,0
53.54676818847656,14.571468353271484,-2.324772596359253,-0.0,-0.0,-1.0,0.017733225270959104,1.0,0
53.383514404296875,14.392513275146484,-2.2941157817840576,-0.0,-0.0,-1.0,0.017230424314675915,1.0,0
53.12901306152344,14.606597900390625,-2.2886064052581787,-0.0,-0.0,-1.0,0.01839253349863447,2.0,0
53.175132751464844,15.453126907348633,-2.36784291267395,0.6567747636694019,-0.24859765314169197,-0.7119312583806418,0.027396985364933592,3.0,0
52.848915100097656,13.883735656738281,-2.2005646228790283,-0.7748921281705085,-0.08541503268691483,-0.6262958261799877,0.041305521312385594,3.0,0
52.85054016113281,14.047286987304688,-2.2144992351531982,-0.782359506634668,-0.38952084500792816,-0.48599085761222754,0.04602865775215686,4.0,0
53.03223419189453,14.446229934692383,-2.2656807899475098,-0.0,-0.0,-1.0,0.012572440478458857,1.0,0
52.816810607910156,14.912788391113281,-2.286395788192749,-0.0,-0.0,-1.0,0.038545560640253385,2.0,0
55.044578552246094,13.157491683959961,-2.1749143600463867,-0.0,-0.0,-1.0,0.13723386695099268,2.0,0
55.15688705444336,13.601336479187012,-2.2142138481140137,0.2620852145438448,0.7898390555595334,-0.5544958129962129,0.075783209418631,3.0,0
55.128883361816406,14.13438606262207,-2.244872570037842,-0.0,-0.0,-1.0,0.06646399173276266,2.0,0
54.953041076660156,14.432050704956055,-2.2452445030212402,-0.0,-0.0,-1.0,0.050340246413417264,1.0,0
54.96696090698242,14.798157691955566,-2.2709741592407227,-0.5842039789286273,-0.06458114438090685,-0.8090333656867393,0.16686711893763836,3.0,0
54.82389450073242,14.667718887329102,-2.2469286918640137,-0.0,-0.0,-1.0,0.19051536308800127,2.0,0
55.069923400878906,13.57551097869873,-2.2306952476501465,-0.3948774766908019,-0.587516133810247,-0.7063261080513487,0.11278082068864498,3.0,0
55.1444206237793,13.949674606323242,-2.261331558227539,-0.0,-0.0,-1.0,0.012502435016869894,2.0,0
54.99274826049805,14.24879264831543,-2.262993574142456,-0.9738222938598222,-0.014386303766560846,0.22685496301718755,0.025296996737172076,3.0,0
55.05035400390625,14.726325988769531,-2.299715280532837,-0.0,-0.0,-1.0,0.11969129994328169,1.0,0
55.076438903808594,14.991071701049805,-2.319925546646118,-0.0,-0.0,-1.0,0.06007064204330818,1.0,0
54.78527069091797,14.434368133544922,-2.251776933670044,-0.0,-0.0,-1.0,0.12316517981793834,1.0,0
52.77119445800781,13.150294303894043,-2.2205514907836914,-0.0,-0.0,-1.0,0.027496772330259826,1.0,0
55.18131637573242,13.839366912841797,-2.247145414352417,-0.0,-0.0,-1.0,0.03927000935564921,2.0,0
55.026710510253906,14.213523864746094,-2.2340660095214844,-0.11987001155406371,0.23819382559630856,-0.9637919286743499,0.03317510693181563,3.0,0
55.06909942626953,14.67906665802002,-2.2462267875671387,-0.0,-0.0,-1.0,0.10711411023770555,1.0,0
55.11539840698242,13.184443473815918,-2.2332096099853516,-0.0,-0.0,-1.0,0.20330872606763295,2.0,0
55.07488250732422,13.49461555480957,-2.231180191040039,-0.0,-0.0,-1.0,0.07004589996496477,1.0,0
55.00071716308594,14.212495803833008,-2.2310872077941895,0.2055351561693933,-0.6904157140703945,-0.693600346988877,0.03257261508285525,4.0,0
54.732322692871094,14.4088773727417,-2.2029852867126465,-0.0,-0.0,-1.0,0.16106026188468847,2.0,0
53.355926513671875,15.398725509643555,-2.32681941986084,-0.0,-0.0,-1.0,0.01587784099405939,2.0,0
53.049049377441406,15.136666297912598,-2.2873568534851074,-0.0,-0.0,-1.0,0.03786387444854985,1.0,0
52.735931396484375,14.77804183959961,-2.2472891807556152,-0.0,-0.0,-1.0,0.02608075928928461,1.0,0
52.82725143432617,15.02794075012207,-2.259335994720459,-0.32754327693455626,-0.026670443951223775,-0.9444596810634202,0.04230221593318358,3.0,0
54.58022689819336,15.52391242980957,-2.4173789024353027,-0.0,-0.0,-1.0,0.01700889404342731,1.0,0
54.34965515136719,15.465193748474121,-2.3892364501953125,-0.0,-0.0,-1.0,0.007785140715969314,2.0,0
54.30128479003906,15.569703102111816,-2.384894371032715,-0.0,-0.0,-1.0,0.005173382917927219,1.0,0
54.209136962890625,14.63066291809082,-2.3635568618774414,-0.0,-0.0,-1.0,0.028985731509100596,1.0,0
53.54176330566406,15.240996360778809,-2.2907590866088867,-0.0,-0.0,-1.0,0.011995312860062226,2.0,0
53.898834228515625,14.215518951416016,-2.3236641883850098,-0.0,-0.0,-1.0,0.006067954998430246,1.0,0
53.686119079589844,14.576577186584473,-2.301201343536377,-0.0,-0.0,-1.0,0.015491618222957606,1.0,0
53.412254333496094,15.136491775512695,-2.2742037773132324,-0.0,-0.0,-1.0,0.008689397013074616,2.0,0
53.444801330566406,14.426254272460938,-2.2713828086853027,-0.0,-0.0,-1.0,0.01349142137959781,2.0,0
53.18040466308594,14.82868766784668,-2.243499755859375,-0.0,-0.0,-1.0,0.016920919821483325,1.0,0
53.09651565551758,14.929892539978027,-2.2345705032348633,-0.0,-0.0,-1.0,0.027417215602765194,1.0,0
53.317344665527344,13.461997985839844,-2.2515101432800293,-0.0,-0.0,-1.0,0.02942957832746628,2.0,0
52.82141876220703,14.084980964660645,-2.1952810287475586,-0.85687043601551,0.013310342107114537,-0.5153599622356991,0.04158494147384421,5.0,0
53.05323791503906,13.222888946533203,-2.21988582611084,-0.0,-0.0,-1.0,0.020886139905612333,1.0,0
52.938446044921875,13.678553581237793,-2.2072973251342773,-0.0,-0.0,-1.0,0.03232883004056281,2.0,0
52.79230499267578,13.884940147399902,-2.1908183097839355,0.6755363616996656,-0.36185148989382643,-0.6424283020564991,0.04898604616542549,3.0,0
54.8927001953125,13.231404304504395,-2.1421589851379395,-0.0,-0.0,-1.0,0.07761785027661337,1.0,0
54.76026916503906,13.166268348693848,-2.190443754196167,-0.0,-0.0,-1.0,0.04187237313107117,1.0,0
54.684722900390625,15.017887115478516,-2.305305004119873,-0.0,-0.0,-1.0,0.2540058862137343,1.0,0
55.19013595581055,13.658092498779297,-2.259939193725586,-0.0,-0.0,-1.0,0.06827753427764433,2.0,0
55.10438537597656,15.172080039978027,-2.351579189300537,-0.0,-0.0,-1.0,0.08797956234349512,1.0,0
55.03521728515625,14.807437896728516,-2.3218421936035156,-0.0,-0.0,-1.0,0.15266767324261837,2.0,0
55.0557746887207,15.30729866027832,-2.356180191040039,-0.0,-0.0,-1.0,0.07803744349849447,2.0,0
52.769134521484375,13.600250244140625,-2.2557272911071777,-0.0,-0.0,-1.0,0.021431297568944113,2.0,0
53.0345458984375,13.257668495178223,-2.2783663272857666,-0.0,-0.0,-1.0,0.02010046830834834,1.0,0
