x,y,z,nx,ny,nz,curvature,density,label
8.535452842712402,12.266836166381836,-0.32976090908050537,-0.0,-0.0,-1.0,0.15569688890712285,1.0,0
8.969786643981934,11.71657657623291,-0.32608139514923096,-0.7694768373134916,0.637642160793432,0.036302501521374216,0.16222114842076985,3.0,0
10.192719459533691,10.724716186523438,-0.29089677333831787,-0.7847499917194825,-0.618739805020454,-0.036448651271653386,0.15055008988445268,4.0,0
8.915719985961914,11.68351936340332,0.16456174850463867,0.8079335922538117,0.5501441349041459,-0.211150991800702,0.16030325010340063,11.0,1
9.09249210357666,11.429476737976074,0.15897762775421143,-0.0,-0.0,-1.0,0.1373891710998903,2.0,1
8.707921981811523,10.837347030639648,0.09458410739898682,-0.0,-0.0,-1.0,0.15007817526863076,2.0,1
8.27151870727539,12.741239547729492,-0.5338246822357178,-0.0,-0.0,-1.0,0.11784538187158757,2.0,0
8.731470108032227,12.530519485473633,-0.49427270889282227,-0.0,-0.0,-1.0,0.04286143827512272,1.0,0
9.776426315307617,11.034433364868164,-0.5016623735427856,-0.0,-0.0,-1.0,0.03546431861510522,2.0,0
8.960002899169922,11.62061882019043,-0.07231426239013672,-0.0,-0.0,-1.0,0.17148578725888733,1.0,0
9.115954399108887,11.283395767211914,-0.08668828010559082,-0.0,-0.0,-1.0,0.14170167654278346,1.0,0
8.717576026916504,10.780196189880371,-0.16211748123168945,-0.0,-0.0,-1.0,0.13564407034254505,1.0,0
8.592430114746094,10.815767288208008,0.3178214430809021,-0.0,-0.0,-1.0,0.203046653043048,1.0,1
8.779363632202148,11.551017761230469,0.38071292638778687,-0.1702030022185338,-0.9377864040578873,-0.3026344302949926,0.09184687530617137,3.0,1
9.524904251098633,12.03108024597168,-0.4840221405029297,-0.0,-0.0,-1.0,0.0702921015626047,1.0,0
8.489462852478027,10.92568588256836,-0.2436234951019287,-0.0,-0.0,-1.0,0.2172733470203916,1.0,0
8.910799026489258,11.562222480773926,-0.15697014331817627,-0.0,-0.0,-1.0,0.14603864005820466,1.0,0
8.905632972717285,11.546208381652832,0.2829722762107849,-0.0,-0.0,-1.0,0.16829800010200346,1.0,1
9.018071174621582,11.25958251953125,0.27362799644470215,-0.0,-0.0,-1.0,0.26251119487123153,1.0,1
8.590957641601562,10.74777889251709,0.21261906623840332,-0.7754425678628694,-0.4682570236946825,-0.42358491912110924,0.17654716155126532,3.0,1
8.233925819396973,12.93370532989502,-0.4628382921218872,-0.0,-0.0,-1.0,0.13579869894530422,2.0,0
9.889223098754883,12.585447311401367,-0.620505690574646,0.26102608782292064,0.9630056963610707,0.06697320547793895,0.0980189576269872,3.0,0
9.308989524841309,11.367783546447754,-0.3389955759048462,0.5932084480824497,-0.4275724387801707,-0.6821184257291315,0.20659709114734098,3.0,0
10.131815910339355,11.01025390625,-0.23860323429107666,-0.0,-0.0,-1.0,0.147855485085065,2.0,0
10.155495643615723,10.79123306274414,-0.24426543712615967,-0.9102819299059124,0.4111569367517492,0.04834026735223852,0.16829009561587258,3.0,0
8.899338722229004,11.80101490020752,0.03578484058380127,-0.0,-0.0,-1.0,0.10118465533559828,2.0,1
8.699305534362793,10.938894271850586,-0.005103707313537598,0.24688231507445313,0.8862628894339855,0.3919020455619004,0.21584589543215313,5.0,0
9.114941596984863,11.501725196838379,0.051943182945251465,-0.8767668521318155,0.3579886300616592,-0.32112930067099704,0.21103697376067757,4.0,1
8.922728538513184,11.839146614074707,-0.300290584564209,0.7192785743430932,-0.6599894421475255,-0.21691534926040987,0.16491762379704755,3.0,0
9.172401428222656,11.43127727508545,-0.2824728488922119,-0.42061110613299507,0.15025272037177678,-0.8947124775135636,0.17422384285362424,7.0,0
8.997671127319336,11.716145515441895,0.09792685508728027,0.959198483327747,0.07847073815316292,-0.27162586923091,0.1420955731449457,4.0,1
9.016949653625488,11.488058090209961,0.09113729000091553,-0.7572647531625478,-0.1767753790354561,-0.6287293209200097,0.23695881967024746,11.0,1
8.668161392211914,10.952857971191406,0.03220319747924805,0.8671867485345492,0.15618936415123885,-0.472855184694118,0.21378970490316251,7.0,1
7.969511032104492,12.459814071655273,0.4418996572494507,-0.0,-0.0,-1.0,0.22122036592040192,1.0,1
9.248268127441406,11.337169647216797,-0.41255223751068115,0.7234532045493818,0.6665694875423134,-0.1797236186615663,0.13134719456065339,4.0,0
8.999185562133789,11.695160865783691,-0.09542989730834961,0.8971038957831805,-0.06199164161088136,-0.43744901021836646,0.18300525901838804,3.0,0
8.634801864624023,10.881636619567871,-0.0855635404586792,0.18337863586293174,0.900623394188607,-0.3940174840654191,0.19593119943664664,7.0,0
9.065691947937012,11.437755584716797,-0.06862306594848633,0.14233898475901077,0.5889682442176312,-0.7955224828507202,0.18179941175495185,8.0,0
7.747814178466797,12.266888618469238,0.13163399696350098,-0.7326240408080168,-0.309392973057614,-0.6062491262284044,0.14538363943837526,4.0,1
8.886584281921387,11.765125274658203,0.2689405679702759,-0.0,-0.0,-1.0,0.1613734526266608,1.0,1
8.954581260681152,11.429712295532227,0.2987924814224243,0.33783552508821424,-0.7684968743642749,0.5433964593928731,0.1788286323221967,5.0,1
9.333364486694336,11.355839729309082,-0.41119933128356934,0.5005302891665656,0.6374491532862263,-0.5857712920598858,0.1747410037191236,6.0,0
8.628058433532715,10.922921180725098,-0.12390995025634766,-0.9723446732740968,-0.2172728961808232,-0.08566402360785529,0.15876391601050732,3.0,0
8.909512519836426,11.704686164855957,-0.10524177551269531,0.5061236110923069,0.6872121256251177,0.5211318304313132,0.10267117648430638,4.0,0
9.006695747375488,11.371082305908203,-0.08395648002624512,0.2166506086938429,0.9280457221916532,-0.3029746710112247,0.11765704379001923,12.0,0
10.108830451965332,10.719943046569824,-0.2732975482940674,-0.7473522891780462,0.49145479903997186,-0.44714285900695644,0.15979938428953755,5.0,0
8.522706031799316,10.968231201171875,0.25668227672576904,0.14619316205628682,-0.40698852584805756,-0.9016584160290464,0.2268423490182543,7.0,1
8.949639320373535,11.6778564453125,0.28091514110565186,0.5986684101808748,-0.6845467485192881,-0.41592293005216024,0.2248011295347706,4.0,1
8.90964126586914,11.384458541870117,0.2845040559768677,-0.02190044482379714,-0.5502428861030868,-0.8347173993690711,0.14373840096904905,4.0,1
9.447857856750488,11.404952049255371,-0.4262807369232178,-0.0,-0.0,-1.0,0.13273801401866167,2.0,0
8.446643829345703,10.698151588439941,-0.18367135524749756,-0.37075844697592714,0.5258258059315172,-0.7655360186251648,0.14148115379484902,4.0,0
9.042609214782715,11.605152130126953,-0.11782360076904297,0.6111524347697959,0.11005671760153582,-0.7838241004113908,0.1230487019003108,3.0,0
9.029751777648926,11.348931312561035,-0.1142808198928833,0.7558639182311522,0.44554589079765816,-0.4797484719199961,0.1435069418521577,6.0,0
10.151912689208984,10.671072006225586,-0.29907655715942383,-0.0,-0.0,-1.0,0.14706365348790296,1.0,0
8.561431884765625,10.905570030212402,0.22425758838653564,-0.9173000875372258,-0.39334667349389524,0.06195921122387429,0.18073822314947585,3.0,1
8.939285278320312,11.692267417907715,0.24786531925201416,0.45437349045516384,-0.4794363111447578,-0.7507899538003279,0.18558291746972705,5.0,1
9.016012191772461,11.431171417236328,0.26073431968688965,0.4690737116231161,-0.6020170948707544,0.6461774296178185,0.1598463612214843,10.0,1
10.094161033630371,11.57908821105957,-0.5461810827255249,-0.0,-0.0,-1.0,0.013090088526643158,1.0,0
9.866775512695312,13.002840042114258,-0.6865794658660889,-0.3898325822309079,0.6267253068823873,-0.6747191619810126,0.0553696720457427,3.0,0
8.558072090148926,12.324394226074219,-0.47296416759490967,-0.833522290419818,-0.5236980316275406,0.17601409898851966,0.14532837796075,4.0,0
8.86585807800293,11.912718772888184,-0.4021122455596924,-0.0,-0.0,-1.0,0.15961182601338753,2.0,0
9.23546314239502,11.379928588867188,-0.31886613368988037,-0.8182996909042773,0.5393430133457459,-0.19873281012730273,0.20353101198427026,6.0,0
8.649487495422363,10.872964859008789,0.008524417877197266,0.04550483022272666,0.8941532132238114,0.4454428602053628,0.23930295623480172,9.0,1
8.89987850189209,11.744035720825195,-0.00037276744842529297,0.7778183219874639,0.16729842589214836,-0.6058134157268351,0.0900773157590227,4.0,0
9.081769943237305,11.439559936523438,0.03542649745941162,-0.05000770851205388,0.7409025504398515,-0.6697481913682903,0.154735854104218,3.0,1
7.881817817687988,12.354348182678223,0.2703070640563965,0.6078118875272837,-0.30123496633221275,-0.7347259383194198,0.18981736062873422,3.0,1
8.81258487701416,11.690923690795898,0.37932872772216797,-0.29122686354314664,-0.19615530303235915,-0.9363279399030582,0.13011546782041397,6.0,1
8.819795608520508,11.389772415161133,0.39364588260650635,-0.0,-0.0,-1.0,0.18455355146276434,2.0,1
8.563149452209473,12.315069198608398,-0.47124743461608887,-0.0,-0.0,-1.0,0.14532837796075004,2.0,0
8.527488708496094,12.595368385314941,-0.4969301223754883,-0.5028394823679513,0.033024887987541975,-0.8637486971019644,0.0875950541818267,5.0,0
9.97396183013916,11.296151161193848,-0.5608006715774536,-0.046303904128866875,0.44723706704545974,-0.8932160737038932,0.035905253686770215,4.0,0
8.885900497436523,11.90298080444336,-0.39674949645996094,0.48170768251352963,0.8172809225399779,-0.316242948157975,0.18746001840111604,3.0,0
9.24862289428711,11.406575202941895,-0.31502509117126465,-0.720018468979627,0.2409824405713248,-0.6507694427864003,0.183149736979002,4.0,0
8.680917739868164,10.9053316116333,0.02512228488922119,-0.502289150688257,0.3074902526916843,-0.8081802729592416,0.2275670443060653,7.0,1
8.504493713378906,11.294442176818848,-0.012099146842956543,-0.0,-0.0,-1.0,0.09121033526761504,2.0,0
8.957321166992188,11.731253623962402,0.015341877937316895,-0.0,-0.0,-1.0,0.13911350738840966,1.0,1
9.113990783691406,11.501492500305176,0.04525101184844971,-0.8767668521318155,0.3579886300616592,-0.32112930067099704,0.21103697376067757,4.0,1
8.922897338867188,11.457291603088379,-0.3279247283935547,-0.0,-0.0,-1.0,0.163991633651701,2.0,0
8.984102249145508,11.46805191040039,0.21756792068481445,0.42307834545059053,-0.022534299652092398,-0.9058128498481243,0.16151594955879836,4.0,1
8.963054656982422,11.73013687133789,-0.09765839576721191,-0.0,-0.0,-1.0,0.13838595978324744,2.0,0
9.009368896484375,11.349613189697266,-0.1275728940963745,0.6810220135440663,-0.5001026997003752,-0.5348890602926752,0.09256246718663369,7.0,0
9.053865432739258,11.757051467895508,-0.061423540115356445,-0.0,-0.0,-1.0,0.15807686841617555,1.0,0
8.560537338256836,11.157150268554688,-0.27961230278015137,-0.0,-0.0,-1.0,0.24003054052338196,1.0,0
8.545539855957031,11.192448616027832,-0.22550034523010254,-0.17520808142040362,0.9013011781261052,0.3961796492924333,0.24317480139618972,3.0,0
9.00640869140625,11.8652982711792,0.3507288098335266,-0.0,-0.0,-1.0,0.18860719420879163,1.0,1
7.919599533081055,10.98204231262207,-0.46362459659576416,-0.0,-0.0,-1.0,0.1511403844465002,1.0,0
8.447484970092773,11.414383888244629,-0.199013352394104,0.8492271263661928,-0.4913744665051468,0.19329878817675178,0.1519638362912966,4.0,0
8.541862487792969,11.310773849487305,-0.22624707221984863,-0.0,-0.0,-1.0,0.2638597538385877,2.0,0
8.608009338378906,10.749215126037598,-0.19989657402038574,0.8739302563344561,-0.04801278320507782,0.4836741462101257,0.1462618854950656,3.0,0
8.42715072631836,11.236832618713379,-0.2318023443222046,-0.0,-0.0,-1.0,0.18307292032058073,2.0,0
8.936782836914062,11.333009719848633,-0.06551182270050049,0.44833630625543797,0.4414823412029089,-0.7772309173593317,0.22440527371400418,5.0,0
8.618293762207031,10.942707061767578,-0.07274353504180908,-0.9642981535531007,0.16901435780070298,-0.20387059108978028,0.23712606259581903,3.0,0
7.99394416809082,10.76287841796875,-0.10343921184539795,-0.9901174300704466,-0.1344635966203465,-0.03983736756633413,0.1461559066817732,3.0,0
8.946680068969727,11.325069427490234,-0.15516304969787598,0.6726341697544188,-0.6768880002874138,-0.298974762723696,0.16992513036988868,3.0,0
10.014493942260742,10.715587615966797,-0.3281822204589844,-0.0,-0.0,-1.0,0.21195873942585847,2.0,0
8.340705871582031,10.709587097167969,0.216278076171875,-0.0,-0.0,-1.0,0.19221870388879336,1.0,1
10.04170036315918,12.766407012939453,-0.4147341251373291,-0.0,-0.0,-1.0,0.15159224809846003,1.0,0
8.954961776733398,11.32967758178711,0.05886530876159668,0.4418534014130265,0.8693023295921691,0.22153787808265718,0.22688283844919596,3.0,1
8.317314147949219,10.743354797363281,-0.026870012283325195,0.20372209188243412,-0.616774828011217,-0.7603197490600774,0.1305717288008294,3.0,0
9.081377029418945,11.460254669189453,-0.13289904594421387,0.21451589399427767,-0.6544609747539962,-0.725026733126362,0.20049594659926565,7.0,0
8.397241592407227,10.70026969909668,-0.15725600719451904,-0.0,-0.0,-1.0,0.13447586973625172,2.0,0
9.034456253051758,12.549205780029297,-0.5239181518554688,0.9218135057879154,-0.2784932392790302,0.2696319273062184,0.13150978733328966,3.0,0
8.663942337036133,12.100090980529785,-0.5167742967605591,-0.0,-0.0,-1.0,0.03234489792235195,2.0,0
10.074724197387695,12.79411506652832,-0.6542896032333374,-0.0,-0.0,-1.0,0.18583796865954458,1.0,0
10.083117485046387,12.695621490478516,-0.5439900159835815,0.08398340756658301,0.8935421854007097,-0.4410545886427537,0.26012295842774774,4.0,0
8.484314918518066,12.258926391601562,-0.250507116317749,-0.0,-0.0,-1.0,0.1692791399589343,1.0,0
10.07593059539795,12.746658325195312,-0.5452549457550049,-0.2623767249852599,0.37343674381371605,-0.889777192647585,0.20223552791442956,6.0,0
8.858505249023438,11.753817558288574,-0.2604179382324219,0.9032914350574908,-0.1927728350800038,-0.3832795551643691,0.1457204872528577,5.0,0
9.022195816040039,11.453728675842285,0.23826754093170166,0.8691471261373136,-0.4939444701680956,0.02453840902763436,0.20001107033850501,13.0,1
10.12733268737793,12.750603675842285,-0.5366443395614624,-0.040772025206948746,-0.013629122879826282,-0.9990755171507555,0.17461048804418985,4.0,0
7.938733100891113,11.726139068603516,-0.38694262504577637,-0.9385140365470204,0.23686348015384084,-0.2511714453787075,0.2427367958616158,3.0,0
8.846044540405273,11.78489875793457,-0.2908247709274292,-0.022536409190401726,-0.9235718487395813,-0.382762524911406,0.21660722151283174,9.0,0
9.194072723388672,11.323064804077148,-0.2813432216644287,0.3705527336668086,0.9017958051020685,0.2223847959559452,0.21278052084253865,6.0,0
9.024005889892578,11.45144271850586,0.18915581703186035,0.8759021450398139,-0.44610943749473936,-0.1837982646620477,0.20640217969754565,8.0,1
8.811042785644531,11.715066909790039,0.184525728225708,-0.4134661408260992,0.8853797052671717,0.21248182955581998,0.1249530075797384,9.0,1
10.034200668334961,12.740549087524414,-0.5298575162887573,0.2514060856284144,0.9661035856803963,0.058641639169445786,0.2349740660668285,7.0,0
8.850934982299805,11.785106658935547,-0.3056373596191406,0.04678347262380112,-0.9940431640187498,0.09843523127849453,0.1660478766354731,8.0,0
9.240555763244629,11.323705673217773,-0.31836235523223877,-0.7066701784737399,-0.2723567925613196,-0.6530229983711162,0.17687231458540217,8.0,0
9.069036483764648,11.469293594360352,0.14716148376464844,0.4457887040342175,-0.040875358026223434,-0.8942044712825591,0.17663494706005056,6.0,1
8.830388069152832,11.70263671875,0.15281260013580322,-0.05946907474018574,0.9506532470093884,-0.30450259949638064,0.102461725830692,10.0,1
8.95513916015625,11.684959411621094,-0.25232791900634766,0.20016591719121496,0.9404570942939164,-0.27472542544737943,0.22551241410195802,7.0,0
9.153846740722656,11.336616516113281,-0.27800583839416504,0.9196126217312163,0.39096562419298575,0.03819039999826872,0.19688632779994628,4.0,0
8.2274808883667,11.735962867736816,-0.2973663806915283,0.819049119677215,0.3683629580432622,0.43984914538691194,0.1429587770014579,5.0,0
8.91252326965332,11.686603546142578,0.1913285255432129,0.7439755414342654,0.41347385514858287,0.5249188173957573,0.12948202935017536,8.0,1
9.005857467651367,11.425981521606445,0.17118918895721436,0.5246530718009993,0.2929648040919015,-0.7993189462368383,0.15867915675815508,4.0,1
9.71296215057373,12.361719131469727,-0.5507124662399292,-0.0,-0.0,-1.0,0.10384317054359471,1.0,0
8.81175422668457,11.783924102783203,-0.297623872756958,0.28527662720123576,-0.8199641122365996,-0.496262128936646,0.17659612217171877,8.0,0
8.188668251037598,11.73530101776123,-0.34783005714416504,0.2836988373399772,0.41106867787448614,-0.8663356807626403,0.1421696017495716,4.0,0
9.202969551086426,11.348103523254395,-0.32639479637145996,-0.2767531618122453,0.4063963151392956,-0.8707753570629612,0.248102284761468,9.0,0
10.071172714233398,10.922187805175781,-0.3260359764099121,-0.1171731639325016,-0.9821461834941291,0.14717107019371672,0.2283243378383865,4.0,0
8.80711555480957,11.70270824432373,0.11684012413024902,0.5146126842925752,0.46500892463627763,-0.7203752391454071,0.09431410727333332,8.0,1
9.027288436889648,11.394529342651367,0.09371733665466309,0.1470221459957417,-0.8768221618231878,0.45778530461616845,0.2273652242055488,5.0,1
8.526545524597168,12.765374183654785,-0.40726912021636963,-0.0,-0.0,-1.0,0.10719932615961675,1.0,0
8.268529891967773,12.290953636169434,-0.49676287174224854,-0.0,-0.0,-1.0,0.164211014571095,1.0,0
8.394525527954102,12.039241790771484,-0.5213302373886108,-0.0,-0.0,-1.0,0.0435300313375686,1.0,0
8.35866928100586,11.420511245727539,-0.1958073377609253,0.9769590850670898,-0.0279155375168032,0.21159316829714125,0.1831689297965916,3.0,0
9.058666229248047,11.343908309936523,-0.16598141193389893,0.92627724854525,0.37262988231526106,0.056191010252139885,0.11386908875855029,5.0,0
8.91137981414795,11.657115936279297,0.2595866322517395,-0.3234753892138724,-0.5493554901793113,-0.7704363815285348,0.1338152710673153,7.0,1
8.967092514038086,11.39094066619873,0.23430633544921875,0.3699462281264347,-0.6972238589415176,-0.6140184678148718,0.1470300893515102,5.0,1
9.58855152130127,10.836409568786621,-0.46717822551727295,0.027630390402739707,0.0683630902478871,-0.9972778195758452,0.011638861716906979,3.0,0
9.408703804016113,11.2716064453125,-0.42239701747894287,-0.21283945299967572,-0.6411365911287676,-0.7373216657352352,0.12361079293661216,3.0,0
10.205782890319824,11.101912498474121,-0.3724936246871948,0.2120844942980128,-0.7001062122799753,-0.6818148273580904,0.16682284992921553,4.0,0
8.805299758911133,11.699502944946289,-0.065207839012146,-0.0,-0.0,-1.0,0.13973030731746433,2.0,0
9.042469024658203,11.390106201171875,-0.08035051822662354,0.44546922359653235,-0.2939704522381444,-0.8456586451040415,0.15510872741113718,8.0,0
7.79963493347168,12.29885482788086,0.28172898292541504,-0.21367628345031484,-0.7077259300607585,-0.6733991786529703,0.2305258522168085,3.0,1
8.753263473510742,11.69029426574707,0.2882900834083557,0.5257360026711617,-0.5530709904141198,0.6463080806068366,0.11197662469552454,3.0,1
8.980485916137695,11.41927719116211,0.27769964933395386,0.44100964869116926,-0.46003230517605265,0.7706365991540363,0.162916186925516,8.0,1
8.633338928222656,12.646114349365234,-0.4631410837173462,-0.0,-0.0,-1.0,0.07427010503254142,1.0,0
8.237682342529297,12.58433723449707,-0.5126276016235352,-0.0,-0.0,-1.0,0.19994675799046027,2.0,0
9.736295700073242,12.617979049682617,-0.6588401794433594,-0.0,-0.0,-1.0,0.023856418177026037,1.0,0
7.845900535583496,12.791511535644531,-0.18482112884521484,-0.0,-0.0,-1.0,0.1700036685213758,2.0,0
8.818550109863281,11.784650802612305,-0.3069802522659302,0.3263587467916488,0.42052375860377555,-0.8465516740532368,0.21553440750945765,7.0,0
8.248527526855469,11.47863483428955,-0.3977116346359253,0.4842584158322931,-0.09221196546981326,-0.8700521479312557,0.16918167613674712,3.0,0
9.234809875488281,11.36776065826416,-0.3672217130661011,-0.05156652058140831,0.9515953754582644,-0.30299692302327463,0.22007261192729452,7.0,0
9.066673278808594,10.86063003540039,-0.4766411781311035,-0.1849909040576858,0.03429833479082968,-0.9821415323905697,0.013928134305924766,3.0,0
9.617410659790039,10.72642993927002,-0.4812488555908203,0.28959029824294347,-0.4013178397493731,-0.8689542281745681,0.017978480481678594,4.0,0
10.189651489257812,11.115489959716797,-0.379657506942749,0.2120844942980128,-0.7001062122799753,-0.6818148273580904,0.16682284992921553,4.0,0
7.996964931488037,11.795573234558105,-0.012971878051757812,-0.0,-0.0,-1.0,0.14130048584508598,1.0,0
8.768699645996094,11.695357322692871,-0.003171682357788086,0.9949112675583975,-0.09522677832537993,0.032915503567640995,0.07237081147068604,3.0,0
9.025712966918945,11.374114036560059,-0.04967653751373291,0.09453837127702822,-0.6564335815419805,-0.7484366702535723,0.11342586298847936,11.0,0
7.947234153747559,12.318591117858887,0.3937116265296936,-0.8302170913132316,-0.3414128440397397,-0.4406550251796678,0.2769433924726968,8.0,1
8.661911964416504,11.635650634765625,0.3082887530326843,0.351437606787984,-0.8157131494638706,0.45946019014368056,0.14703282066012321,3.0,1
8.982015609741211,11.521369934082031,0.294156014919281,0.9153934207297978,0.008937849559239977,-0.40246117841334145,0.23991859674324642,5.0,1
8.32613754272461,12.79466438293457,-0.35616135597229004,-0.0,-0.0,-1.0,0.17021253613028917,1.0,0
8.174549102783203,12.099472999572754,-0.528042197227478,-0.0,-0.0,-1.0,0.10336538223692382,1.0,0
8.804141998291016,11.749059677124023,-0.27036023139953613,-0.4250802954637394,-0.47774038237730604,-0.7688113354096995,0.1967469198393525,4.0,0
9.190611839294434,11.273650169372559,-0.36678481101989746,-0.0,-0.0,-1.0,0.13260425727460093,1.0,0
9.589075088500977,10.667549133300781,-0.5028156042098999,-0.0,-0.0,-1.0,0.013458901662154861,1.0,0
10.185771942138672,11.11075210571289,-0.39160263538360596,0.2120844942980128,-0.7001062122799753,-0.6818148273580904,0.1668228499292156,4.0,0
7.96293306350708,11.723511695861816,0.011049389839172363,-0.0,-0.0,-1.0,0.24308538908967114,2.0,1
8.768853187561035,11.704629898071289,0.019013524055480957,0.9949112675583975,-0.09522677832537993,0.032915503567640995,0.07908129447825257,3.0,1
9.028240203857422,11.432106971740723,-0.03237760066986084,0.4989856879839708,-0.7062854680635677,-0.5021694144304193,0.17014545169537013,3.0,0
8.015961647033691,11.470269203186035,0.28601574897766113,-0.0,-0.0,-1.0,0.13306716358427925,2.0,1
8.715885162353516,11.684246063232422,0.31351959705352783,0.5166546727420822,-0.5849637653140937,0.6252082392318015,0.14746855119759858,3.0,1
8.983335494995117,11.46281909942627,0.27248334884643555,0.14949287851887244,-0.11427839756694164,-0.9821366132680696,0.176313791975401,7.0,1
8.165830612182617,12.248015403747559,-0.44318532943725586,-0.0,-0.0,-1.0,0.21434705980796923,1.0,0
8.33268928527832,11.353504180908203,-0.3436182737350464,-0.0,-0.0,-1.0,0.10113480401852684,1.0,0
9.167886734008789,11.336545944213867,-0.3182774782180786,0.39436151016326526,0.9189130973557101,0.008815827237670873,0.22464062664506854,9.0,0
9.701623916625977,10.67444896697998,-0.47282862663269043,-0.0,-0.0,-1.0,0.013550858008006551,2.0,0
8.037467956542969,11.665716171264648,0.015848159790039062,-0.0,-0.0,-1.0,0.15239587239136262,1.0,1
10.09256649017334,12.558717727661133,-0.23199701309204102,-0.0,-0.0,-1.0,0.08980475588530885,2.0,0
10.186822891235352,11.090190887451172,-0.36344242095947266,0.2120844942980128,-0.7001062122799753,-0.6818148273580904,0.14701979259630335,4.0,0
8.76706314086914,11.69196891784668,0.036490797996520996,0.00766957222565987,0.9987055796049481,0.05028263047832641,0.07581114633105984,4.0,1
9.043298721313477,11.472503662109375,-0.004857301712036133,-0.0,-0.0,-1.0,0.18977394623603228,2.0,0
7.996252536773682,11.414873123168945,0.27337944507598877,-0.2776464518755554,-0.9600930389734171,0.03367201027119403,0.1383849459201053,4.0,1
8.639978408813477,11.625617027282715,0.3072521686553955,0.3053892667301234,-0.7288188149953496,-0.6128299361770864,0.15209751029847773,4.0,1
8.977458000183105,11.427770614624023,0.2692599296569824,0.44100964869116926,-0.46003230517605265,0.7706365991540363,0.15006007332541133,8.0,1
8.2315034866333,11.473888397216797,-0.4933643341064453,-0.0,-0.0,-1.0,0.12846662945468237,1.0,0
9.25861930847168,11.056617736816406,-0.5169411897659302,-0.0,-0.0,-1.0,0.038832916792461605,1.0,0
8.237079620361328,12.672521591186523,-0.2351999282836914,0.9326204597792078,0.10061129448732976,-0.34654934053147834,0.1872393009688466,3.0,0
8.233378410339355,12.286993026733398,-0.3151733875274658,0.11857780124451589,-0.7406421967796495,-0.6613534920157534,0.188536004084597,4.0,0
7.962236404418945,11.782258987426758,-0.1596689224243164,0.4390734212613442,-0.8966806233203164,0.056377216175925664,0.12624741879446683,3.0,0
8.822465896606445,11.80171012878418,-0.3681676387786865,0.8958485110242553,-0.3737799957691832,0.24029972962617782,0.14931996751412072,3.0,0
8.80349349975586,11.712100982666016,-0.11986589431762695,-0.0,-0.0,-1.0,0.13415919121877012,2.0,0
9.061447143554688,11.387324333190918,-0.17444300651550293,0.5699820081388067,-0.44752841580592956,-0.6890855008228576,0.09018291173183039,4.0,0
10.051886558532715,10.843433380126953,-0.2634490728378296,-0.0,-0.0,-1.0,0.15099402063033673,2.0,0
8.027461051940918,11.471902847290039,0.07709193229675293,-0.0,-0.0,-1.0,0.11958860272348087,2.0,1
8.753660202026367,11.698697090148926,0.14318406581878662,0.7415509985393209,-0.47510327199005004,0.4736866026284516,0.07462076389134754,7.0,1
9.009035110473633,11.446901321411133,0.10523021221160889,0.8541461535023429,-0.15792060798401872,-0.49547495398971475,0.2518007915462083,8.0,1
8.777368545532227,11.385941505432129,0.36125731468200684,0.9903786986289853,0.10363000858010724,-0.0917107116079933,0.17410831893722503,3.0,1
8.238513946533203,12.546306610107422,-0.2579214572906494,0.4173529221370583,-0.6590814684370696,-0.625642195145512,0.17301490456622046,3.0,0
8.242691040039062,11.759765625,-0.37933218479156494,-0.0,-0.0,-1.0,0.24919508589622275,1.0,0
8.830135345458984,11.71558952331543,-0.2988898754119873,-0.0,-0.0,-1.0,0.1365366333065228,2.0,0
9.206460952758789,11.318751335144043,-0.3203986883163452,0.23702314082898568,0.9292528641815583,0.2833886820639337,0.17897908429661613,7.0,0
9.014496803283691,10.813180923461914,-0.4429086446762085,-0.5635620949660115,-0.3221389044063083,-0.7606735774203174,0.025005902131684556,4.0,0
7.70999813079834,12.34013557434082,-0.10856163501739502,-0.0,-0.0,-1.0,0.1362716549689573,1.0,0
8.016300201416016,11.769159317016602,-0.14105737209320068,-0.0,-0.0,-1.0,0.12095880968314003,2.0,0
10.156564712524414,10.97783088684082,-0.2803596258163452,0.5844672883459875,-0.7936585940761395,-0.16883135047310943,0.17479939853912657,4.0,0
8.09023666381836,11.416084289550781,0.09304213523864746,-0.0,-0.0,-1.0,0.10540955470805959,2.0,1
8.849355697631836,11.693452835083008,-0.0489579439163208,-0.5060493764497499,0.5474958752705343,0.6664550211053787,0.145024049762665,4.0,0
9.095282554626465,11.39930534362793,-0.06737053394317627,0.12383003186146366,-0.043687045603500195,-0.9913412960507729,0.16442202728119854,10.0,0
7.989415168762207,12.96645450592041,0.24964308738708496,0.8839667873216402,0.165583548221249,-0.4372468495835269,0.193429035786036,10.0,1
8.486692428588867,10.905418395996094,0.33780455589294434,-0.10516390213241912,-0.3941486456341269,-0.9130100759756521,0.2201220293327559,3.0,1
8.805633544921875,11.676833152770996,0.192710280418396,0.22748061031674513,-0.2420725088490421,-0.9432144360586574,0.16132233936017007,5.0,1
9.037881851196289,11.399131774902344,0.1767786741256714,0.4412742011715988,-0.16438707148032425,-0.8821870380540001,0.17640249068604483,5.0,1
8.235705375671387,11.758913040161133,-0.32823383808135986,-0.8056455013601308,0.5834170306386938,0.10276134730000835,0.23010961831249974,5.0,0
8.80158805847168,11.673467636108398,-0.24225342273712158,-0.0,-0.0,-1.0,0.15479498509725745,2.0,0
9.099998474121094,11.295252799987793,-0.26219868659973145,0.9324575370965041,0.3569839416865116,0.0555464390387259,0.11724936149406716,5.0,0
8.388731002807617,12.747695922851562,-0.1537916660308838,0.07513740908943568,0.9958798978185048,-0.05077005885688081,0.20784824753046233,4.0,0
8.124374389648438,11.787961959838867,-0.10398674011230469,-0.4781994731622398,-0.8659750291159496,-0.14633015005454672,0.21528541938632395,4.0,0
8.637425422668457,10.791464805603027,-0.18496036529541016,0.9466493958610108,0.3021156656102586,-0.1121652615957977,0.21317031451288937,4.0,0
8.043994903564453,11.42183780670166,0.07820701599121094,-0.05741576434367882,-0.9780411730689045,-0.20034693355984376,0.13922314976260505,3.0,1
8.834640502929688,11.664395332336426,-0.016848325729370117,-0.0,-0.0,-1.0,0.11888370763342396,2.0,0
8.607344627380371,10.81641960144043,0.059470295906066895,-0.0,-0.0,-1.0,0.2244350849486269,1.0,1
9.05844497680664,11.36185359954834,-0.03413951396942139,0.13435855613792028,0.978429860442338,0.1569164955870488,0.1354722214235543,4.0,0
8.00129508972168,12.349063873291016,0.4072036147117615,0.9746715122561329,-0.05778101209991737,-0.21604813777733073,0.27327639954545246,5.0,1
8.075481414794922,11.49118709564209,0.331758975982666,-0.0,-0.0,-1.0,0.12353844381441799,2.0,1
8.4158353805542,10.891731262207031,0.29443806409835815,-0.9076062420287103,-0.3767059721939106,0.18532004733423643,0.15235222332569667,5.0,1
8.799030303955078,11.655472755432129,0.19606244564056396,-0.2053136027350154,-0.08947756371649929,-0.9745973989926958,0.15835045693733654,3.0,1
9.005643844604492,11.361623764038086,0.17900431156158447,0.7411068390001477,-0.4656069738692919,-0.4837052812110801,0.18602108416721713,4.0,1
8.295576095581055,12.972969055175781,0.5140082836151123,-0.0,-0.0,-1.0,0.06010494040996891,2.0,1
8.192449569702148,12.062179565429688,0.39441347122192383,-0.0,-0.0,-1.0,0.12860282562475175,2.0,1
8.788713455200195,10.801054000854492,-0.17421376705169678,-0.0,-0.0,-1.0,0.12916391619098774,1.0,0
8.116337776184082,12.399466514587402,-0.17586290836334229,-0.0,-0.0,-1.0,0.17318528059079394,1.0,0
8.166901588439941,12.90456771850586,-0.14319515228271484,-0.0,-0.0,-1.0,0.23044988597380042,1.0,0
8.729899406433105,10.8194580078125,0.05270528793334961,-0.0,-0.0,-1.0,0.19586455602073974,1.0,1
8.146088600158691,11.627935409545898,0.02242588996887207,-0.6151048371765941,-0.49986354613223494,-0.6097396776740565,0.07391371829448658,3.0,1
8.962568283081055,11.675298690795898,-0.04670608043670654,-0.0,-0.0,-1.0,0.1384605258598451,1.0,0
9.191917419433594,11.356507301330566,-0.031630754470825195,-0.0,-0.0,-1.0,0.2347996077990374,2.0,0
8.642589569091797,10.87244701385498,0.27865052223205566,-0.0,-0.0,-1.0,0.163607149265055,1.0,1
7.99794340133667,12.257795333862305,0.27218174934387207,-0.0,-0.0,-1.0,0.15442704007808208,1.0,1
8.951713562011719,11.671180725097656,0.1664339303970337,0.3543270913232453,0.9320193816064387,0.07610640357000151,0.20417793412730537,11.0,1
9.131406784057617,11.37145709991455,0.17190754413604736,-0.0,-0.0,-1.0,0.1428071257626978,1.0,1
8.012713432312012,12.953885078430176,0.29516148567199707,-0.0,-0.0,-1.0,0.19342903578603604,2.0,1
8.982752799987793,11.393037796020508,0.36455732583999634,0.5520229368265951,-0.45482306022485963,-0.6988609740892924,0.2664303667659132,6.0,1
8.675533294677734,10.839601516723633,-0.2085719108581543,-0.0,-0.0,-1.0,0.1728887411513695,1.0,0
8.635040283203125,10.86343002319336,0.04074251651763916,0.43671165953280794,0.8878952554555957,0.14465456013393896,0.20781926170616846,7.0,1
8.113299369812012,11.716611862182617,-0.05225646495819092,-0.0,-0.0,-1.0,0.12117864116715545,1.0,0
8.89183235168457,11.697649955749512,-0.15649306774139404,-0.15003587662714693,0.8126813312030223,-0.5630615327287124,0.13461827629051581,3.0,0
9.092195510864258,11.381752014160156,-0.11540341377258301,0.915888257154173,-0.12982877310653473,-0.37985943463437066,0.168152376226643,4.0,0
8.342015266418457,11.012250900268555,0.2548588514328003,-0.8173228790865832,0.510001147773823,0.2681084493092334,0.12646832985942325,3.0,1
8.068620681762695,12.10632038116455,0.2035655975341797,-0.0,-0.0,-1.0,0.11455244519560669,2.0,1
8.852752685546875,11.702601432800293,0.07697749137878418,-0.0,-0.0,-1.0,0.08796102301517206,2.0,1
9.037461280822754,11.401476860046387,0.11107289791107178,0.060772648325935145,0.26005049500129196,-0.9636806656071478,0.19735518007278702,4.0,1
8.503607749938965,10.906901359558105,0.2771308422088623,0.3837370254819891,0.46028562972393877,-0.8005517062275693,0.28326843518255634,9.0,1
8.880998611450195,11.697888374328613,0.31986045837402344,0.5711873052836965,-0.7950825208636133,0.20393343840555264,0.20018668175359935,5.0,1
8.470711708068848,11.102771759033203,-0.3240255117416382,-0.0,-0.0,-1.0,0.26199085240034986,1.0,0
9.11462688446045,11.37436294555664,-0.19482839107513428,0.6817435955781574,0.47244136718746826,-0.5585918227634575,0.10036805026502839,5.0,0
8.9746675491333,11.680489540100098,-0.22447288036346436,-0.27076322467026753,0.892055899388973,-0.3618335923204042,0.10712668441041809,5.0,0
8.655250549316406,10.934501647949219,-0.00975024700164795,-0.15689171728483048,0.4428132312721465,-0.8827805113717324,0.2883909875998714,7.0,0
9.029341697692871,11.370826721191406,0.05142366886138916,0.9629356316111581,-0.21265700764380494,0.1659275940692262,0.21568557131736674,3.0,1
8.466314315795898,10.874906539916992,0.2425587773323059,-0.5753337265579106,0.2864718449435141,-0.766110295675268,0.1852122955478206,4.0,1
8.409793853759766,11.084797859191895,0.23457062244415283,-0.05675828346048,0.912352396088836,-0.40545234320395696,0.1358359788956528,4.0,1
9.038726806640625,11.458385467529297,0.31194353103637695,0.33558077016370125,-0.8171317602451575,-0.4687016461406847,0.2513063119603532,7.0,1
8.583710670471191,11.3306245803833,-0.21491289138793945,-0.0,-0.0,-1.0,0.21226979991559644,2.0,0
9.21087646484375,11.613122940063477,-0.17280364036560059,-0.0,-0.0,-1.0,0.17115201093577576,1.0,0
8.250847816467285,10.68050765991211,-0.06566417217254639,-0.0,-0.0,-1.0,0.1567895178310029,2.0,0
8.73045539855957,10.857715606689453,-0.03886246681213379,0.3860553532613727,0.2559633846344828,-0.886252791219693,0.23387906160368774,3.0,0
9.117069244384766,11.415727615356445,-0.03533172607421875,0.8871755242958165,0.3062097703802824,0.3451885942699993,0.2415747980678191,7.0,0
10.143720626831055,10.769155502319336,-0.2782173156738281,-0.8718066927109752,-0.4162802789340028,0.2581933769773732,0.17529680685446591,10.0,0
8.514833450317383,10.93838882446289,0.19428002834320068,0.5663449655990503,0.8220038979614346,-0.05969063307436207,0.1545195889708742,6.0,1
9.048351287841797,11.252197265625,0.1920560598373413,-0.0,-0.0,-1.0,0.1985586819905162,2.0,1
8.665519714355469,10.77319049835205,0.07721972465515137,-0.0,-0.0,-1.0,0.25143049815823976,1.0,1
9.039534568786621,11.527436256408691,0.04084599018096924,-0.26770531663088115,-0.9625234804681332,-0.043386783645145977,0.19462326038693223,8.0,1
8.19029426574707,10.681055068969727,0.1878269910812378,-0.7798995571961543,-0.037592347331374086,-0.6247747562981074,0.17877683649431844,4.0,1
8.473615646362305,10.88076400756836,0.12392592430114746,-0.0,-0.0,-1.0,0.21247454238141875,2.0,1
9.107398986816406,11.527992248535156,-0.05692291259765625,-0.3612182308888772,-0.24822488987648036,-0.8988357990864174,0.22119851830642756,3.0,0
8.413575172424316,10.753079414367676,-0.048303842544555664,0.24781877057580143,0.7134687435083895,-0.6553992744784345,0.16051366919322652,3.0,0
9.181846618652344,11.402969360351562,-0.23060059547424316,0.7064365237171699,0.7069163740193461,0.03488091314373211,0.14322674467903787,6.0,0
9.447412490844727,11.245203971862793,-0.4690988063812256,-0.0,-0.0,-1.0,0.0788084836308831,2.0,0
9.241464614868164,11.413586616516113,-0.3096747398376465,-0.720018468979627,0.2409824405713248,-0.6507694427864003,0.14923756887319417,4.0,0
9.075264930725098,11.491450309753418,0.27240514755249023,0.4316052211232827,0.1470740619371505,-0.8899922209797282,0.21546792211240415,5.0,1
9.622796058654785,10.889619827270508,-0.4950997829437256,-0.0,-0.0,-1.0,0.01180315126124427,1.0,0
9.310771942138672,10.646256446838379,-0.4743478298187256,-0.0,-0.0,-1.0,0.007809957625898183,2.0,0
9.117044448852539,11.476602554321289,-0.10101437568664551,0.4821695848606318,-0.6045165623598278,-0.6340916473728244,0.19802172655437872,5.0,0
8.307609558105469,10.776406288146973,-0.05628180503845215,0.29044750540124387,-0.5592018351232788,-0.7764879614011746,0.14684675274329814,4.0,0
10.173210144042969,10.910297393798828,-0.33763742446899414,-0.0,-0.0,-1.0,0.15087568020480993,2.0,0
9.092802047729492,11.489665985107422,-0.04047250747680664,-0.4072702506956046,-0.18136952615985388,-0.895117890492023,0.16925186389065344,4.0,0
8.475969314575195,10.882965087890625,0.004828214645385742,-0.0,-0.0,-1.0,0.2295078819760464,2.0,1
9.307541847229004,11.240755081176758,-0.41192054748535156,0.8164653193826638,0.1681986573432171,0.5523527803073899,0.10677581495606979,4.0,0
8.75623893737793,10.64708423614502,-0.3430604934692383,-0.0,-0.0,-1.0,0.1022301720997335,2.0,0
9.14306640625,11.426353454589844,0.027078866958618164,-0.0,-0.0,-1.0,0.20044420242392236,2.0,1
8.538763999938965,10.821829795837402,0.07594013214111328,-0.0,-0.0,-1.0,0.14604958053513628,1.0,1
9.451242446899414,11.237339973449707,-0.4669170379638672,-0.0,-0.0,-1.0,0.07457752367336654,2.0,0
9.152938842773438,11.49539566040039,-0.09703564643859863,-0.0,-0.0,-1.0,0.1768869052880064,2.0,0
8.931015014648438,11.311654090881348,-0.08332991600036621,0.44833630625543797,0.4414823412029089,-0.7772309173593317,0.18737331225380735,5.0,0
8.581782341003418,10.829630851745605,-0.02677607536315918,0.12532943057851104,-0.5590959791686916,-0.8195756340376819,0.18174075972556997,4.0,0
9.090574264526367,11.484087944030762,0.3544154167175293,0.75109243208824,-0.5669173242033345,-0.33832662617344184,0.19334627495096254,3.0,1
9.587138175964355,11.452191352844238,-0.49968576431274414,-0.030520760763800656,-0.9861843099417886,0.16281581614522925,0.17691555197254874,3.0,0
10.03952407836914,10.819070816040039,-0.2963595390319824,-0.44355791900923075,0.7492965155888146,-0.49174292492181537,0.12798798631843597,5.0,0
9.129378318786621,11.449737548828125,-0.12093400955200195,0.9147356967104153,-0.3982190573565701,-0.06841189605438196,0.14248632562295493,5.0,0
8.708513259887695,10.885279655456543,-0.040459632873535156,0.48317732398785435,0.1198494816687859,-0.86728067851628,0.14596120207718974,5.0,0
8.881868362426758,11.384730339050293,0.2854139804840088,0.1588956659057664,-0.15499485834150997,-0.9750532094424685,0.14975831702922773,6.0,1
9.130922317504883,11.494182586669922,-0.17377281188964844,-0.16400541809006966,0.5353374549574759,-0.8285626301956625,0.1614829474751338,3.0,0
8.747119903564453,10.941878318786621,-0.08002686500549316,-0.14950908173011582,0.8840269193111011,-0.44288084222908247,0.2586648144087677,3.0,0
9.113826751708984,11.692096710205078,0.16635656356811523,-0.0,-0.0,-1.0,0.2059557565821693,1.0,1
8.848752975463867,11.368753433227539,0.20847535133361816,-0.0,-0.0,-1.0,0.21910600180859804,2.0,1
8.346901893615723,10.914852142333984,0.24896883964538574,-0.3925107985541101,0.8794387345825173,0.26930054796512276,0.2580534742827624,5.0,1
9.109414100646973,11.441459655761719,-0.07667756080627441,0.8024057858419213,0.41819193377143665,0.42574694523380313,0.18709070861712263,11.0,0
8.796140670776367,11.344011306762695,-0.077423095703125,0.5657335857124451,-0.3761418266369895,0.7338002699993559,0.09297443137401014,5.0,0
8.574506759643555,10.886791229248047,0.024281978607177734,0.20363024161261606,-0.11717500052776621,-0.972010670698684,0.2288227147830757,5.0,1
7.959271430969238,10.771753311157227,-0.012586593627929688,-0.6147467258815869,-0.5109375808811539,-0.6008570973710667,0.1735889038427278,4.0,0
9.08182430267334,11.545169830322266,0.24347257614135742,0.7252245491953195,-0.19141645610912317,0.6613691053980898,0.14316163765540463,3.0,1
7.969690322875977,11.373750686645508,0.1844797134399414,0.1989769709177056,0.4447896891388735,-0.8732527111209898,0.09726575051239672,5.0,1
9.072657585144043,11.514041900634766,0.15029549598693848,-0.9116456349301069,-0.2114215382148884,-0.3524247004563285,0.17548209011853308,7.0,1
8.506102561950684,10.952792167663574,0.26854515075683594,0.1979222924141451,-0.4011445795235061,-0.8943767620440723,0.25142361542117414,11.0,1
9.045037269592285,11.516654014587402,0.1647791862487793,-0.4088305234848073,0.5349744274210542,-0.7393645684455359,0.16743351416880398,6.0,1
8.757625579833984,11.41737174987793,0.16982603073120117,-0.0,-0.0,-1.0,0.15781333963868693,2.0,1
8.519630432128906,10.980712890625,0.27640199661254883,-0.9558302667470445,-0.16098753188604714,0.24590956823091017,0.23638918730872546,9.0,1
8.206127166748047,10.961838722229004,0.24833250045776367,-0.0,-0.0,-1.0,0.19366049458856735,1.0,1
9.032845497131348,11.576688766479492,0.349475622177124,0.9184627803671985,0.0704956250885471,0.3891741100375646,0.23444204577769576,6.0,1
8.762411117553711,11.461214065551758,0.3666985034942627,-0.0,-0.0,-1.0,0.20687544598946508,2.0,1
8.932394027709961,11.788314819335938,-0.23042511940002441,-0.0,-0.0,-1.0,0.13747192993672777,1.0,0
7.775402069091797,11.874180793762207,-0.22179269790649414,-0.0,-0.0,-1.0,0.2166881100084362,1.0,0
9.2344970703125,11.526349067687988,-0.2899134159088135,0.506771108262247,0.8092621881050955,0.2971157261640774,0.12920362114307576,3.0,0
9.0314302444458,11.70215129852295,0.2755446434020996,-0.0,-0.0,-1.0,0.20553536536152542,2.0,1
8.959511756896973,11.791193962097168,-0.33589959144592285,-0.0,-0.0,-1.0,0.18584143686466648,2.0,0
8.985090255737305,11.707802772521973,0.18207907676696777,-0.0,-0.0,-1.0,0.24354039198300598,2.0,1
9.504667282104492,10.984561920166016,-0.4767420291900635,-0.0,-0.0,-1.0,0.026403992965613892,2.0,0
8.941417694091797,11.787129402160645,-0.3001885414123535,0.4904555180137312,-0.8008017267938542,-0.34375860602152736,0.1828572345885057,5.0,0
9.06872844696045,11.690361976623535,0.22383379936218262,-0.0,-0.0,-1.0,0.23800364707867142,2.0,1
9.569550514221191,11.473036766052246,-0.4548072814941406,-0.0,-0.0,-1.0,0.16507265875761626,2.0,0
8.891216278076172,11.867415428161621,-0.35889387130737305,-0.0,-0.0,-1.0,0.19123115256960047,2.0,0
9.072518348693848,11.578665733337402,0.14248085021972656,0.8249107595088134,-0.5597844344708564,0.07850876238188899,0.25479194307197056,4.0,1
8.745985984802246,11.674131393432617,0.16455674171447754,0.8706835673738097,-0.47987118556951536,0.10785995904562627,0.06819789123958021,5.0,1
8.860369682312012,11.780851364135742,-0.33618617057800293,0.8851809672891265,-0.030549138974905077,0.46424283005446426,0.11896320809647966,6.0,0
8.274744033813477,11.344871520996094,0.1590259075164795,0.5640153424812752,-0.6630924119615155,-0.49213326106329136,0.07032677516078828,3.0,1
8.70394515991211,11.567704200744629,0.18790125846862793,-0.2464875747574597,-0.31617698075709455,-0.9161200752791707,0.1486873972011573,4.0,1
9.026105880737305,11.600221633911133,0.18728041648864746,0.9715107796783282,0.2235067535725895,0.07881329885398945,0.13794237211955365,4.0,1
9.252449035644531,11.336122512817383,-0.3563809394836426,0.6640764611569374,0.6063390915047356,0.4374418359627832,0.24605510925728086,8.0,0
8.840965270996094,11.730585098266602,-0.28059816360473633,0.5733986747155839,-0.5766835918223523,0.5819364181397162,0.148789391928233,6.0,0
8.99542236328125,11.565672874450684,0.24729013442993164,0.917609453580007,0.061343851282630875,0.3927210493599949,0.24402128699913744,9.0,1
8.657012939453125,11.691038131713867,-0.3349182605743408,-0.26426375641538724,-0.8556100514665018,-0.44507988819392746,0.09215078278125374,3.0,0
9.311714172363281,11.259172439575195,-0.4235382080078125,0.7679141581381178,-0.27598960583227466,0.5780463503937825,0.12739703443442332,6.0,0
8.02021598815918,11.27999496459961,0.15335488319396973,-0.0,-0.0,-1.0,0.17101034240448174,1.0,1
8.492341041564941,11.549345016479492,0.1942601203918457,-0.0,-0.0,-1.0,0.13956491341013297,2.0,1
8.800556182861328,11.455660820007324,0.1774580478668213,0.9474372331764594,-0.05342098341443368,-0.31545029358358534,0.11550184482049874,3.0,1
8.326066017150879,12.879471778869629,-0.5429069995880127,-0.3445643727368475,-0.42204938393332986,-0.8385402259653137,0.16641801370626833,5.0,0
8.61832332611084,12.862312316894531,-0.5400893688201904,-0.0,-0.0,-1.0,0.09476474583381514,2.0,0
8.69748306274414,11.651505470275879,-0.26001620292663574,0.8275295834394613,-0.42353805115889254,0.3685245008856801,0.08795359949038305,4.0,0
9.232730865478516,11.368391990661621,-0.3115196228027344,-0.14429795353824904,0.07371055294871351,-0.9867851108466668,0.24765216276514265,7.0,0
8.772662162780762,11.713944435119629,0.29274868965148926,0.28492928216463087,-0.6600774122105675,0.6950633885154278,0.1433609204727578,4.0,1
8.964001655578613,12.382594108581543,-0.517031192779541,-0.0,-0.0,-1.0,0.08037546341029383,1.0,0
9.664067268371582,12.185009002685547,-0.5516560077667236,-0.6752991086658798,0.5972112632217543,-0.43279304628903714,0.1047819448531147,3.0,0
10.115737915039062,10.962763786315918,-0.27186083793640137,0.10474045643396225,-0.5473552247542985,-0.8303202362463392,0.2779635261532036,5.0,0
8.792060852050781,11.76653003692627,-0.1244959831237793,0.903767266947881,-0.33319882893241626,0.26866943925877435,0.1249792069017632,3.0,0
9.093348503112793,11.482133865356445,-0.17412018775939941,0.40591174451140694,0.7619833098801476,0.5045959682080312,0.2316227012853723,7.0,0
8.12044906616211,10.92133903503418,0.2682688236236572,0.30460282886074264,0.9409657808708768,-0.14764997758243756,0.17955896234611454,3.0,1
8.930164337158203,11.655052185058594,0.384962797164917,-0.4142296180869541,0.06346001973670488,-0.907957405055189,0.1266811193239201,3.0,1
9.63863468170166,12.233412742614746,-0.5548694133758545,-0.0,-0.0,-1.0,0.1189140787828544,2.0,0
8.53246021270752,12.788681030273438,-0.4626028537750244,-0.0,-0.0,-1.0,0.16697421069379315,2.0,0
9.002195358276367,12.582118034362793,-0.4915645122528076,-0.0,-0.0,-1.0,0.11525518554716511,1.0,0
8.300070762634277,11.787127494812012,-0.17616748809814453,0.32082764551492815,0.04443085235700483,-0.9460948796141845,0.17416204454503462,4.0,0
8.812442779541016,11.792804718017578,-0.16047263145446777,0.903767266947881,-0.33319882893241626,0.26866943925877435,0.15298508996997098,3.0,0
9.129743576049805,11.428000450134277,-0.2241973876953125,-0.717039004736963,0.09233154173081787,-0.6908906947465971,0.16292800296399737,4.0,0
10.076336860656738,10.982022285461426,-0.3014509677886963,0.7670032622919738,-0.6377141924626868,-0.07089854980979954,0.18201151868947824,3.0,0
9.037555694580078,11.646560668945312,0.3302121162414551,-0.11835794638133944,0.20172709260412172,-0.9722641496208113,0.26331450379889737,3.0,1
8.874249458312988,11.792911529541016,-0.2876729965209961,0.24937337752854977,0.1113206934437419,-0.961987849087091,0.1700562721454674,6.0,0
9.291738510131836,11.385000228881836,-0.3647899627685547,0.5932084480824497,-0.4275724387801707,-0.6821184257291315,0.20094321531069723,3.0,0
8.237421035766602,11.451607704162598,0.11691927909851074,-0.20591606383166167,-0.9387215165935492,-0.2764063836823996,0.0724733923213595,6.0,1
8.819393157958984,11.737409591674805,0.1837761402130127,0.2818563127975168,0.9459991633939581,-0.16013307526591647,0.1057926538353338,7.0,1
9.038436889648438,11.49654483795166,0.14470744132995605,-0.07000275173351998,0.7115108100574286,-0.699179506222227,0.1817479995546464,12.0,1
9.980327606201172,10.846334457397461,-0.3231682777404785,-0.013063691281540802,-0.2501370490576923,-0.9681223045973121,0.20276011848006315,3.0,0
8.7034912109375,11.644282341003418,-0.14932703971862793,-0.0,-0.0,-1.0,0.06437052085709387,2.0,0
9.124181747436523,11.39974594116211,-0.19751429557800293,-0.37978451435987365,-0.3242450892786467,-0.8663883913875562,0.13268192848890442,6.0,0
8.676736831665039,11.64118766784668,0.3067796230316162,0.3818563600405761,-0.8885339661127039,0.25434840546107335,0.13140277635644904,4.0,1
9.015311241149902,11.559072494506836,0.293729305267334,0.335596563557156,0.07541690757097325,-0.9389820214365444,0.21778325777328042,7.0,1
7.990024089813232,12.333427429199219,0.42324304580688477,0.6110856973035372,-0.3206419813506453,-0.7237147161323874,0.20836503703803755,8.0,1
8.243013381958008,11.264800071716309,0.18483471870422363,-0.3050315337308016,0.5291927739096862,-0.7917769707888751,0.08962334638853793,3.0,1
