x,y,z,nx,ny,nz,curvature,density,label
50.484920501708984,-14.00304126739502,-0.6029880046844482,-0.0,-0.0,-1.0,0.07611411125116326,2.0,0
50.518882751464844,-13.782034873962402,-0.5288131237030029,-0.0,-0.0,-1.0,0.12636433256906948,1.0,0
51.274391174316406,-12.075143814086914,-0.6851205825805664,-0.0,-0.0,-1.0,0.03073721254339908,2.0,0
52.071571350097656,-12.998178482055664,-0.7723214626312256,-0.0,-0.0,-1.0,0.009010886271874385,1.0,0
52.26427459716797,-14.002381324768066,-0.7236158847808838,-0.0,-0.0,-1.0,0.007603252689921651,2.0,0
51.666439056396484,-13.694670677185059,-0.7008682489395142,-0.0,-0.0,-1.0,0.02082172487920351,1.0,0
50.850467681884766,-13.641303062438965,-0.6997706890106201,-0.0,-0.0,-1.0,0.0480982010290521,1.0,0
51.90313720703125,-14.352413177490234,-0.6781833171844482,-0.6617039775199887,-0.06279669207499865,-0.7471307928325964,0.005880885460736348,3.0,0
51.78529357910156,-13.569171905517578,-0.6548058986663818,-0.0,-0.0,-1.0,0.012307162400591116,1.0,0
52.44941329956055,-13.754204750061035,-0.7562122344970703,-0.0,-0.0,-1.0,0.01315909255762539,1.0,0
52.52219772338867,-13.383504867553711,-0.7482278347015381,-0.0,-0.0,-1.0,0.011374791629294143,2.0,0
50.88490295410156,-13.254924774169922,-0.7073588371276855,-0.0,-0.0,-1.0,0.0276871907234084,1.0,0
51.32789611816406,-13.299911499023438,-0.7548408508300781,-0.0,-0.0,-1.0,0.031471286251661325,1.0,0
52.460514068603516,-13.030592918395996,-0.7931075096130371,-0.0,-0.0,-1.0,0.0077131852003902105,1.0,0
50.379512786865234,-14.162369728088379,-0.563532829284668,-0.0,-0.0,-1.0,0.061227698771336235,1.0,0
51.133827209472656,-14.259657859802246,-0.6679434776306152,-0.0,-0.0,-1.0,0.016913710816122415,2.0,0
51.408660888671875,-13.874517440795898,-0.7253637313842773,-0.0,-0.0,-1.0,0.06040939361314091,2.0,0
51.48444747924805,-13.566959381103516,-0.7520585060119629,-0.0,-0.0,-1.0,0.05021660011070534,1.0,0
51.09294128417969,-14.008576393127441,-0.6751127243041992,-0.0,-0.0,-1.0,0.047561682850211146,1.0,0
50.9258918762207,-13.137662887573242,-0.6982345581054688,-0.0,-0.0,-1.0,0.025339327871458327,1.0,0
51.78766632080078,-13.313745498657227,-0.7568097114562988,-0.0,-0.0,-1.0,0.007490409319103489,1.0,0
51.934051513671875,-13.194103240966797,-0.7728838920593262,-0.0,-0.0,-1.0,0.010318562277004967,1.0,0
51.1295280456543,-13.928382873535156,-0.6863150596618652,-0.0,-0.0,-1.0,0.05057309984135283,1.0,0
51.54766082763672,-13.476043701171875,-0.7302560806274414,-0.0,-0.0,-1.0,0.032286488779493985,2.0,0
51.84706115722656,-12.993696212768555,-0.7607502937316895,-0.0,-0.0,-1.0,0.008868711257854735,1.0,0
51.7847900390625,-12.641992568969727,-0.7503128051757812,-0.0,-0.0,-1.0,0.006783173548307394,1.0,0
52.058475494384766,-12.225297927856445,-0.7795062065124512,-0.0,-0.0,-1.0,0.010659787114876734,1.0,0
52.0958366394043,-12.06852912902832,-0.7828536033630371,-0.0,-0.0,-1.0,0.013737966185704248,1.0,0
50.31999969482422,-14.047176361083984,-0.5932493209838867,-0.0,-0.0,-1.0,0.06489959975515595,2.0,0
50.546104431152344,-13.544618606567383,-0.613494873046875,-0.0,-0.0,-1.0,0.13341072989182068,1.0,0
52.556915283203125,-12.698375701904297,-0.7745933532714844,-0.0,-0.0,-1.0,0.005157925739741594,2.0,0
52.66971969604492,-14.063763618469238,-0.020003080368041992,-0.0,-0.0,-1.0,0.04678122001487226,2.0,0
52.31019592285156,-14.326101303100586,-0.6568057537078857,-0.0,-0.0,-1.0,0.0047893920812007405,1.0,0
50.65040588378906,-14.192880630493164,-0.5530135631561279,-0.0,-0.0,-1.0,0.061065359975340454,1.0,0
50.45378112792969,-13.829916000366211,-0.523982048034668,-0.0,-0.0,-1.0,0.17645405320155105,1.0,0
51.22835159301758,-14.246121406555176,-0.7367138862609863,-0.0,-0.0,-1.0,0.019928684377980965,1.0,0
51.39216613769531,-14.043112754821777,-0.7316098213195801,-0.0,-0.0,-1.0,0.04042628087867485,1.0,0
50.28895568847656,-14.057908058166504,-0.6808791160583496,-0.0,-0.0,-1.0,0.03879927491176137,1.0,0
52.681640625,-14.252857208251953,-0.6876084804534912,-0.0,-0.0,-1.0,0.1485404649980657,1.0,0
51.169925689697266,-12.177188873291016,-0.5400490760803223,-0.0,-0.0,-1.0,0.06163115870054751,1.0,0
52.7001838684082,-14.205413818359375,-0.6608202457427979,-0.0,-0.0,-1.0,0.14316077825588544,2.0,0
51.426815032958984,-11.876518249511719,-0.8160088062286377,-0.0,-0.0,-1.0,0.02372741973942525,1.0,0
50.49601745605469,-14.344305038452148,-0.5386331081390381,-0.0,-0.0,-1.0,0.03388610649421431,1.0,0
52.625980377197266,-14.181241989135742,-0.6985776424407959,0.2598378047099646,-0.14591981930524364,-0.9545636288783642,0.08603738982355935,3.0,0
50.361019134521484,-14.324132919311523,-0.5822196006774902,-0.20088021532522374,0.4812743653366972,-0.8532421252848754,0.04688683925416278,3.0,0
50.6153450012207,-14.107423782348633,-0.6028480529785156,-0.0,-0.0,-1.0,0.05066537752723115,1.0,0
52.61154556274414,-12.823076248168945,-0.76743483543396,-0.0,-0.0,-1.0,0.005901129448320973,1.0,0
50.581485748291016,-13.785625457763672,-0.32584071159362793,-0.627613848693495,0.4171456584782855,-0.657335801961871,0.14841077710481626,3.0,0
52.60314178466797,-13.664693832397461,-0.8248791694641113,-0.0,-0.0,-1.0,0.012706933143129472,1.0,0
52.6393928527832,-14.140487670898438,-0.7011566162109375,-0.0,-0.0,-1.0,0.08603738982355945,2.0,0
50.280029296875,-13.979434967041016,-0.45161938667297363,-0.0,-0.0,-1.0,0.12576280405973786,1.0,0
50.52579116821289,-13.798763275146484,-0.41280198097229004,-0.0,-0.0,-1.0,0.1484107771048163,2.0,0
51.00331115722656,-12.255010604858398,-0.4518089294433594,-0.0,-0.0,-1.0,0.07138946025205155,1.0,0
50.50856399536133,-13.822763442993164,-0.39076662063598633,-0.0,-0.0,-1.0,0.15103347403780643,2.0,0
51.51008605957031,-13.800634384155273,-0.6712613105773926,-0.0,-0.0,-1.0,0.07730344680756648,2.0,0
51.824676513671875,-13.774909973144531,-0.7023673057556152,-0.0,-0.0,-1.0,0.014942578689725847,1.0,0
52.015602111816406,-13.695411682128906,-0.7199246883392334,-0.0,-0.0,-1.0,0.009072977352693589,2.0,0
52.19740295410156,-13.501855850219727,-0.7341358661651611,-0.0,-0.0,-1.0,0.007075434898085194,1.0,0
52.321449279785156,-13.332464218139648,-0.74314284324646,-0.0,-0.0,-1.0,0.006210628689030429,1.0,0
52.638126373291016,-13.30061149597168,-0.7751593589782715,-0.0,-0.0,-1.0,0.009012178114549973,1.0,0
51.346435546875,-13.708629608154297,-0.7268321514129639,-0.0,-0.0,-1.0,0.09029305246726543,2.0,0
51.7635383605957,-13.196151733398438,-0.76296067237854,-0.0,-0.0,-1.0,0.009792205036183645,1.0,0
51.65217208862305,-12.39150619506836,-0.7487318515777588,-0.0,-0.0,-1.0,0.004950958376168878,2.0,0
50.551631927490234,-12.080577850341797,-0.6439443826675415,-0.0,-0.0,-1.0,0.015665766634936237,1.0,0
51.29234313964844,-12.094024658203125,-0.7134160995483398,-0.0,-0.0,-1.0,0.030737212543399083,2.0,0
50.985145568847656,-13.5513916015625,-0.7153244018554688,-0.0,-0.0,-1.0,0.03396047594425237,1.0,0
51.22023010253906,-12.566183090209961,-0.7239570617675781,-0.0,-0.0,-1.0,0.027228253735346278,1.0,0
50.38011932373047,-12.072408676147461,-0.6387889385223389,-0.0,-0.0,-1.0,0.015665766634936257,2.0,0
51.26138687133789,-12.280939102172852,-0.7241640090942383,-0.0,-0.0,-1.0,0.03088087757306963,1.0,0
50.43867111206055,-13.825433731079102,-0.3309910297393799,0.8504317049625209,0.3275113580357293,-0.4117064798520082,0.1645861376704683,3.0,0
52.69137954711914,-14.094463348388672,-0.016216158866882324,-0.0,-0.0,-1.0,0.04098743391099851,2.0,0
52.64130783081055,-14.119768142700195,1.138487696647644,-0.0,-0.0,-1.0,0.0037017435281592186,1.0,2
52.663673400878906,-14.076711654663086,1.0163825750350952,-0.5642753123888752,-0.28968457837835665,-0.7730952185068735,0.00370174352815921,3.0,2
52.58106994628906,-14.12930679321289,0.9094808101654053,-0.0,-0.0,-1.0,0.0037017435281592186,1.0,1
52.707557678222656,-14.07048225402832,-0.2051546573638916,-0.0,-0.0,-1.0,0.09313548967660698,1.0,0
52.67597961425781,-14.080821990966797,0.911906361579895,0.8424537177262241,0.1862307073224847,-0.5055589551569931,0.00370174352815921,3.0,1
52.68162155151367,-14.00526237487793,1.0070592164993286,-0.0,-0.0,-1.0,0.003701743528159197,2.0,2
52.66721725463867,-14.054283142089844,1.0649664402008057,-0.0,-0.0,-1.0,0.0037017435281592103,1.0,2
50.93911361694336,-12.63521957397461,-0.7336635589599609,-0.0,-0.0,-1.0,0.03255483272793834,1.0,0
51.131473541259766,-12.520044326782227,-0.7390222549438477,-0.0,-0.0,-1.0,0.03781320689711858,1.0,0
51.6973762512207,-12.3375244140625,-0.7653687000274658,-0.0,-0.0,-1.0,0.006818316777125816,1.0,0
51.93131637573242,-12.226240158081055,-0.7744975090026855,-0.0,-0.0,-1.0,0.01142827296231951,1.0,0
50.68271255493164,-11.941957473754883,-0.6744792461395264,-0.0,-0.0,-1.0,0.0167087487527958,2.0,0
52.490055084228516,-11.944753646850586,-0.7964534759521484,-0.0,-0.0,-1.0,0.012287715654750913,1.0,0
50.778873443603516,-13.277755737304688,-0.7176697254180908,-0.0,-0.0,-1.0,0.02841763190295212,1.0,0
51.15766525268555,-13.371477127075195,-0.7382702827453613,-0.0,-0.0,-1.0,0.03498532197497474,1.0,0
51.52113342285156,-13.488870620727539,-0.7602660655975342,-0.0,-0.0,-1.0,0.034814478632506904,2.0,0
51.72023010253906,-13.418054580688477,-0.763538122177124,-0.0,-0.0,-1.0,0.012905670123931214,1.0,0
51.96006774902344,-13.260772705078125,-0.7629008293151855,-0.0,-0.0,-1.0,0.010451643694445876,1.0,0
52.261512756347656,-13.199321746826172,-0.7713398933410645,-0.0,-0.0,-1.0,0.008154918213736794,1.0,0
52.50067901611328,-13.199434280395508,-0.7814838886260986,-0.0,-0.0,-1.0,0.009212765340478619,1.0,0
50.55665969848633,-12.15087890625,-0.6345194578170776,-0.0,-0.0,-1.0,0.015665766634936237,1.0,0
52.69620895385742,-14.172327995300293,-0.1331639289855957,-0.0,-0.0,-1.0,0.09545043838273137,1.0,0
52.65715026855469,-14.087347984313965,0.8781255483627319,0.8522648711676785,-0.3210073167283067,-0.41303618725292446,0.003701743528159209,3.0,1
50.417015075683594,-14.05029296875,-0.6237362623214722,-0.0,-0.0,-1.0,0.0667430279726638,2.0,0
50.797237396240234,-14.100574493408203,-0.6364849805831909,-0.0,-0.0,-1.0,0.03428785553711368,1.0,0
50.981666564941406,-14.150075912475586,-0.6446307897567749,-0.0,-0.0,-1.0,0.016926222942968784,1.0,0
51.2745361328125,-14.21888542175293,-0.6571105718612671,-0.0,-0.0,-1.0,0.03973034286065129,1.0,0
51.66071319580078,-14.256458282470703,-0.6701642274856567,-0.0,-0.0,-1.0,0.009716388284407086,1.0,0
51.90325164794922,-14.317155838012695,-0.6812480688095093,-0.6617039775199887,-0.06279669207499865,-0.7471307928325964,0.0060509536657560375,3.0,0
52.20206069946289,-14.233844757080078,-0.6838873624801636,-0.0,-0.0,-1.0,0.0024384642304331613,2.0,0
52.548343658447266,-14.161649703979492,-0.6890245676040649,-0.0,-0.0,-1.0,0.08880457770718872,1.0,0
51.0703239440918,-12.216650009155273,-0.5086401700973511,-0.0,-0.0,-1.0,0.07138946025205156,1.0,0
51.4626579284668,-13.831525802612305,-0.6344002485275269,-0.0,-0.0,-1.0,0.07222727927840832,1.0,0
52.68661880493164,-14.06399154663086,1.2462880611419678,-0.0,-0.0,-1.0,0.00370174352815921,2.0,2
50.29323959350586,-14.065598487854004,-0.6079457998275757,-0.11347803732914072,0.7150974319840437,-0.6897524177657894,0.06762770064807173,3.0,0
50.71472930908203,-14.108490943908691,-0.6104178428649902,-0.0,-0.0,-1.0,0.058512344353957024,2.0,0
51.31538391113281,-13.708308219909668,-0.5812033414840698,-0.0,-0.0,-1.0,0.08688881696351718,1.0,0
51.082096099853516,-14.23635196685791,-0.6196731328964233,-0.0,-0.0,-1.0,0.019900694341260104,1.0,0
52.70888900756836,-14.259621620178223,-0.6261658668518066,-0.0,-0.0,-1.0,0.14854046499806564,1.0,0
52.68396759033203,-14.341204643249512,-0.6320210695266724,-0.0,-0.0,-1.0,0.20864950550189146,1.0,0
52.681297302246094,-13.9923677444458,1.2520065307617188,-0.0,-0.0,-1.0,0.00370174352815921,1.0,2
50.60309982299805,-14.238265037536621,-0.5614815950393677,-0.0,-0.0,-1.0,0.06353739566017436,1.0,0
50.37104797363281,-14.290764808654785,-0.5657593011856079,-0.3651353990045665,0.20702650649543555,-0.9076431931117381,0.04688683925416275,4.0,0
51.332908630371094,-13.622139930725098,-0.5167407989501953,-0.0,-0.0,-1.0,0.07920012460156722,1.0,0
50.83372497558594,-14.290217399597168,-0.56492018699646,-0.0,-0.0,-1.0,0.02299352925960601,1.0,0
52.70824432373047,-14.002545356750488,0.37226343154907227,-0.0,-0.0,-1.0,0.0030766171611367045,1.0,1
50.56361389160156,-11.912862777709961,-0.6654751300811768,-0.0,-0.0,-1.0,0.014785322146030974,1.0,0
51.19435119628906,-12.048667907714844,-0.6821167469024658,-0.0,-0.0,-1.0,0.05229556423031527,1.0,0
50.98955535888672,-12.721492767333984,-0.7375779151916504,-0.0,-0.0,-1.0,0.027627549235487374,1.0,0
50.76998519897461,-12.79507827758789,-0.7420485019683838,-0.0,-0.0,-1.0,0.027261966437938268,1.0,0
51.607269287109375,-13.119348526000977,-0.7773611545562744,-0.0,-0.0,-1.0,0.006580958372031634,1.0,0
52.12843704223633,-13.06734848022461,-0.7789478302001953,-0.0,-0.0,-1.0,0.009265045433321819,1.0,0
52.690589904785156,-13.156885147094727,-0.7940464019775391,-0.0,-0.0,-1.0,0.0060935022471392255,1.0,0
52.56140899658203,-13.198175430297852,-0.795727014541626,-0.0,-0.0,-1.0,0.006800543453497824,1.0,0
52.66550827026367,-14.032047271728516,0.955060601234436,0.5751330105959733,0.8166836882158822,0.04743177758545294,0.0037017435281592103,3.0,1
52.630767822265625,-14.144357681274414,0.673332929611206,-0.0,-0.0,-1.0,0.0037017435281592216,1.0,1
52.37553787231445,-13.970688819885254,-0.7209405899047852,-0.0,-0.0,-1.0,0.007129529143701739,1.0,0
51.959259033203125,-13.800980567932129,-0.7084463834762573,-0.0,-0.0,-1.0,0.007785242702882988,2.0,0
51.75982666015625,-13.710049629211426,-0.7018074989318848,-0.0,-0.0,-1.0,0.018166222751551702,1.0,0
51.42340087890625,-13.883915901184082,-0.7166037559509277,-0.0,-0.0,-1.0,0.06043499047342457,2.0,0
51.03929901123047,-13.705145835876465,-0.7039836645126343,-0.0,-0.0,-1.0,0.05036724061735467,1.0,0
51.00334930419922,-13.440539360046387,-0.683226466178894,-0.0,-0.0,-1.0,0.033280086806116015,1.0,0
50.62016677856445,-13.772011756896973,-0.3541334867477417,-0.627613848693495,0.4171456584782855,-0.657335801961871,0.2599780855527538,3.0,0
52.56963348388672,-14.362018585205078,-0.6653732061386108,-0.0,-0.0,-1.0,0.149169325346071,1.0,0
51.7397575378418,-14.29964828491211,-0.6775177717208862,-0.0,-0.0,-1.0,0.007243592895775429,1.0,0
50.5987434387207,-11.963850975036621,-0.6648780107498169,-0.0,-0.0,-1.0,0.013786485577102178,1.0,0
50.32318115234375,-12.169596672058105,-0.6882137060165405,-0.0,-0.0,-1.0,0.014318206940941882,1.0,0
51.17924118041992,-12.990113258361816,-0.7388597726821899,-0.0,-0.0,-1.0,0.015129429665051904,1.0,0
52.50787353515625,-13.807493209838867,-0.6656893491744995,-0.0,-0.0,-1.0,0.01169290683423525,1.0,0
52.22802734375,-13.736345291137695,-0.6630175113677979,-0.0,-0.0,-1.0,0.011299092944844677,1.0,0
51.930503845214844,-13.61911392211914,-0.6571083068847656,-0.0,-0.0,-1.0,0.009977525010635657,1.0,0
51.48988723754883,-13.580244064331055,-0.65874183177948,-0.0,-0.0,-1.0,0.050216600110705355,1.0,0
51.91281509399414,-14.356973648071289,-0.6863713264465332,-0.6617039775199887,-0.06279669207499865,-0.7471307928325964,0.006050953665756002,3.0,0
51.53807830810547,-14.24237060546875,-0.6787970066070557,-0.0,-0.0,-1.0,0.011422158013746842,1.0,0
51.08489990234375,-14.085996627807617,-0.6685607433319092,-0.0,-0.0,-1.0,0.042622716888546935,1.0,0
50.94694900512695,-14.043174743652344,-0.665818452835083,-0.0,-0.0,-1.0,0.016595829148230545,1.0,0
51.304744720458984,-14.283966064453125,-0.6820063591003418,-0.0,-0.0,-1.0,0.036666518810930006,1.0,0
50.840091705322266,-14.077978134155273,-0.6684584617614746,-0.0,-0.0,-1.0,0.040530061789775376,1.0,0
51.111087799072266,-12.17878532409668,-0.5360838174819946,-0.0,-0.0,-1.0,0.0696941879538798,1.0,0
52.70570755004883,-14.096810340881348,1.2681097984313965,-0.0,-0.0,-1.0,0.0037017435281592177,2.0,2
51.449127197265625,-12.22021770477295,-0.7594472169876099,-0.0,-0.0,-1.0,0.022795099848981457,1.0,0
51.673255920410156,-12.217463493347168,-0.7774258852005005,-0.0,-0.0,-1.0,0.011234834350570518,1.0,0
51.762916564941406,-11.924769401550293,-0.7805589437484741,-0.0,-0.0,-1.0,0.018305414731147877,1.0,0
51.774295806884766,-13.765006065368652,-0.7081223726272583,-0.0,-0.0,-1.0,0.01581968793533282,1.0,0
52.0854606628418,-13.735051155090332,-0.7295458316802979,-0.0,-0.0,-1.0,0.008771013205501542,1.0,0
52.236778259277344,-13.66772747039795,-0.7386927604675293,-0.0,-0.0,-1.0,0.01075499840988433,2.0,0
52.5760383605957,-13.506241798400879,-0.7592329978942871,-0.0,-0.0,-1.0,0.012769528778743652,1.0,0
51.66992950439453,-13.745580673217773,-0.6924450397491455,-0.0,-0.0,-1.0,0.021753127323799422,1.0,0
52.07958221435547,-13.685094833374023,-0.7213420867919922,-0.0,-0.0,-1.0,0.008292726535470729,1.0,0
52.418174743652344,-13.526771545410156,-0.7427829504013062,-0.0,-0.0,-1.0,0.013859972558045086,1.0,0
52.51253128051758,-13.403959274291992,-0.7468984127044678,-0.0,-0.0,-1.0,0.012727127991764372,2.0,0
52.685054779052734,-14.11225700378418,1.0698450803756714,-0.0,-0.0,-1.0,0.0037017435281592103,1.0,2
52.68142318725586,-14.021833419799805,0.799927830696106,-0.0,-0.0,-1.0,0.0037017435281592186,1.0,1
52.675559997558594,-14.031281471252441,0.5648851990699768,-0.0,-0.0,-1.0,0.003701743528159211,1.0,1
51.093685150146484,-13.974781036376953,-0.7147552967071533,-0.0,-0.0,-1.0,0.021449662337566726,1.0,0
51.36454772949219,-13.738656997680664,-0.7243468761444092,-0.0,-0.0,-1.0,0.09029305246726539,2.0,0
51.77693557739258,-13.637544631958008,-0.7515957355499268,-0.0,-0.0,-1.0,0.013787686933398685,1.0,0
52.154014587402344,-13.47828483581543,-0.7736926078796387,-0.0,-0.0,-1.0,0.008038991941730867,1.0,0
52.546024322509766,-13.34263801574707,-0.7983865737915039,-0.0,-0.0,-1.0,0.01137479162929419,1.0,0
52.68314743041992,-14.046548843383789,0.9908664226531982,0.9842950233892099,-0.1521949430145124,-0.08944275404997278,0.0037017435281592103,5.0,1
50.846038818359375,-13.232748031616211,-0.7437320947647095,-0.0,-0.0,-1.0,0.027687190723408455,1.0,0
51.36399841308594,-12.969047546386719,-0.7765651941299438,-0.0,-0.0,-1.0,0.007103667197213402,2.0,0
51.631282806396484,-12.357866287231445,-0.7727020978927612,-0.0,-0.0,-1.0,0.005161423339757347,2.0,0
51.700042724609375,-12.620004653930664,-0.7903741598129272,-0.0,-0.0,-1.0,0.006062181564979341,1.0,0
51.61862564086914,-12.885446548461914,-0.7950307130813599,-0.0,-0.0,-1.0,0.004194266278872752,1.0,0
51.99378967285156,-12.427026748657227,-0.8077510595321655,-0.0,-0.0,-1.0,0.013078326627618696,1.0,0
50.49839782714844,-12.07151985168457,-0.6609498262405396,-0.0,-0.0,-1.0,0.015665766634936257,1.0,0
50.36677169799805,-12.230850219726562,-0.6568044424057007,-0.0,-0.0,-1.0,0.014318206940941826,2.0,0
50.646949768066406,-12.079893112182617,-0.6742105484008789,-0.0,-0.0,-1.0,0.01566576663493623,1.0,0
51.326324462890625,-13.910964965820312,-0.6737661361694336,-0.0,-0.0,-1.0,0.05396509027545444,1.0,0
51.63620376586914,-13.78812026977539,-0.6933341026306152,-0.0,-0.0,-1.0,0.02780972864716312,1.0,0
52.21397018432617,-13.663537979125977,-0.7350404262542725,-0.0,-0.0,-1.0,0.010754998409884302,2.0,0
52.01443099975586,-13.741832733154297,-0.7221359014511108,-0.8241437096531077,0.04767467363163946,-0.5643706861038501,0.008124264340599062,3.0,0
52.44709396362305,-13.604467391967773,-0.7516803741455078,-0.0,-0.0,-1.0,0.014385208673927828,1.0,0
52.42094802856445,-13.662225723266602,-0.7520434856414795,-0.0,-0.0,-1.0,0.013874668053361376,2.0,0
52.687564849853516,-14.12370491027832,0.9154151678085327,-0.0,-0.0,-1.0,0.0037017435281592216,2.0,1
52.22889709472656,-14.26858901977539,-0.6792285442352295,-0.0,-0.0,-1.0,0.002589789288334634,2.0,0
52.62892150878906,-14.062210083007812,-0.6986637115478516,-0.0,-0.0,-1.0,0.009160963954263355,1.0,0
51.042179107666016,-12.307376861572266,-0.4956943988800049,-0.0,-0.0,-1.0,0.07148460465055258,2.0,0
52.68407440185547,-14.152502059936523,1.2460341453552246,-0.0,-0.0,-1.0,0.0037017435281592177,1.0,2
50.37696838378906,-14.231367111206055,-0.5826696157455444,-0.0,-0.0,-1.0,0.0701013411803967,2.0,0
51.03651428222656,-12.302682876586914,-0.540543794631958,0.9846787987714192,-0.10936586235700456,-0.13581889191487256,0.07148460465055258,3.0,0
51.54660415649414,-13.794553756713867,-0.6622414588928223,-0.0,-0.0,-1.0,0.07318100867954831,2.0,0
51.61089324951172,-13.836071014404297,-0.6701780557632446,-0.0,-0.0,-1.0,0.05739071215752978,1.0,0
52.143287658691406,-13.726146697998047,-0.7128711938858032,-0.0,-0.0,-1.0,0.006887904958184585,1.0,0
51.97428512573242,-13.789480209350586,-0.7006527185440063,0.6291375665374783,-0.7740670785886417,-0.07075365867957409,0.008034405296056433,3.0,0
52.47211837768555,-13.55851936340332,-0.7348891496658325,-0.0,-0.0,-1.0,0.01449282037298414,1.0,0
52.41560745239258,-13.710973739624023,-0.7371248006820679,-0.0,-0.0,-1.0,0.013780550274021279,1.0,0
52.683982849121094,-14.07475471496582,0.7156239748001099,-0.0,-0.0,-1.0,0.003701743528159211,1.0,1
50.49015808105469,-13.857528686523438,-0.2840745449066162,-0.0,-0.0,-1.0,0.15454732421067707,2.0,0
50.45439147949219,-13.86401081085205,-0.32920658588409424,0.8504317049625209,0.3275113580357293,-0.4117064798520082,0.16458613767046837,3.0,0
52.651512145996094,-14.16185188293457,0.8619226813316345,-0.0,-0.0,-1.0,0.003701743528159197,2.0,1
50.46352767944336,-13.86287784576416,-0.30943334102630615,0.7395535235615468,0.2149519650901858,-0.6378528345093156,0.16458613767046834,4.0,0
52.68125915527344,-14.175690650939941,0.1804971694946289,-0.0,-0.0,-1.0,0.0029562790039561098,1.0,1
52.63192367553711,-14.121702194213867,0.8527723550796509,0.6153527230617797,0.12276741741339443,-0.7786328964551251,0.003701743528159197,3.0,1
50.5418586730957,-13.651447296142578,-0.29290270805358887,-0.0,-0.0,-1.0,0.15493844064471535,1.0,0
52.2090950012207,-12.925766944885254,-0.8596426248550415,-0.0,-0.0,-1.0,0.0087106010484421,1.0,0
51.88433074951172,-12.93722915649414,-0.831457257270813,-0.0,-0.0,-1.0,0.00873423266962723,1.0,0
51.324012756347656,-11.939310073852539,-0.6786402463912964,-0.0,-0.0,-1.0,0.027310989723500854,1.0,0
51.03571319580078,-12.196086883544922,-0.6216529607772827,-0.0,-0.0,-1.0,0.06806565914381982,1.0,0
51.05937957763672,-12.301027297973633,-0.6012482643127441,-0.0,-0.0,-1.0,0.07075521450594548,1.0,0
52.346923828125,-13.866043090820312,-0.7556577920913696,-0.0,-0.0,-1.0,0.011039292155688798,1.0,0
52.16755676269531,-13.992795944213867,-0.7437199354171753,-0.0,-0.0,-1.0,0.0078067459466338255,1.0,0
51.815826416015625,-14.237768173217773,-0.7206720113754272,-0.0,-0.0,-1.0,0.005989811713618442,1.0,0
51.73739242553711,-14.092416763305664,-0.7121418714523315,-0.0,-0.0,-1.0,0.008828377667866217,1.0,0
51.45143508911133,-13.844100952148438,-0.685940146446228,-0.0,-0.0,-1.0,0.07035089859453356,1.0,0
50.88509750366211,-14.013650894165039,-0.645501971244812,-0.0,-0.0,-1.0,0.02188072520781986,1.0,0
50.71160888671875,-14.076702117919922,-0.633475661277771,-0.0,-0.0,-1.0,0.058975159584500045,2.0,0
50.4817008972168,-14.193161010742188,-0.6183600425720215,-0.0,-0.0,-1.0,0.04026060262601911,1.0,0
50.59539794921875,-13.716171264648438,-0.6179951429367065,-0.0,-0.0,-1.0,0.19022843414951945,1.0,0
52.69413375854492,-14.05398178100586,0.9856327772140503,0.11244551142874232,-0.8045029758181973,-0.5832074835418298,0.0037017435281592103,4.0,1
50.235191345214844,-14.027494430541992,-0.5777062177658081,-0.0,-0.0,-1.0,0.12289135384335265,1.0,0
50.524452209472656,-13.945067405700684,-0.6118472814559937,-0.0,-0.0,-1.0,0.12465974133541734,1.0,0
50.51213073730469,-14.04465389251709,-0.6074477434158325,-0.0,-0.0,-1.0,0.06379082930435326,2.0,0
51.1545524597168,-13.796367645263672,-0.6853433847427368,-0.0,-0.0,-1.0,0.06009291879043361,1.0,0
51.56670379638672,-13.32637882232666,-0.7450741529464722,-0.0,-0.0,-1.0,0.021931699253588524,1.0,0
51.54640579223633,-13.212525367736816,-0.7464107275009155,-0.0,-0.0,-1.0,0.013235097614208984,1.0,0
50.4781608581543,-13.501903533935547,-0.6934938430786133,-0.0,-0.0,-1.0,0.11208833917064442,1.0,0
50.664772033691406,-13.025094032287598,-0.7117824554443359,-0.0,-0.0,-1.0,0.0186104438316336,1.0,0
51.08088684082031,-13.02520751953125,-0.7541275024414062,-0.0,-0.0,-1.0,0.021326219962138356,1.0,0
52.696353912353516,-14.068424224853516,1.1052051782608032,-0.0,-0.0,-1.0,0.003701743528159219,1.0,2
52.69599151611328,-14.124288558959961,0.49058079719543457,-0.0,-0.0,-1.0,0.003076617161136718,1.0,1
50.4006462097168,-14.322310447692871,-0.5905210971832275,-0.20088021532522374,0.4812743653366972,-0.8532421252848754,0.046886839254162746,3.0,0
50.316261291503906,-13.801661491394043,-0.6237750053405762,-0.0,-0.0,-1.0,0.14046144664022434,1.0,0
50.22625732421875,-13.90908432006836,-0.6050028800964355,-0.0,-0.0,-1.0,0.13425919712520998,1.0,0
51.01750564575195,-12.098230361938477,-0.5328054428100586,-0.0,-0.0,-1.0,0.05544981317317727,1.0,0
50.41752624511719,-14.065163612365723,-0.5924808979034424,-0.0,-0.0,-1.0,0.06692308550528621,2.0,0
50.477840423583984,-13.734749794006348,-0.6219453811645508,-0.0,-0.0,-1.0,0.14711079304524569,1.0,0
50.723663330078125,-13.434816360473633,-0.6743814945220947,-0.0,-0.0,-1.0,0.06164031964001622,1.0,0
50.843772888183594,-13.095978736877441,-0.7039849758148193,-0.0,-0.0,-1.0,0.017541938344788847,1.0,0
50.911705017089844,-13.315534591674805,-0.7107141017913818,-0.0,-0.0,-1.0,0.019686404580349492,1.0,0
50.3216552734375,-12.274625778198242,-0.6365823745727539,-0.0,-0.0,-1.0,0.02348330275135062,1.0,0
50.521366119384766,-12.546334266662598,-0.6626231670379639,-0.0,-0.0,-1.0,0.022136069384637153,1.0,0
50.881038665771484,-12.741133689880371,-0.7202987670898438,-0.0,-0.0,-1.0,0.03301161578008962,1.0,0
50.38353729248047,-12.115592956542969,-0.6530394554138184,-0.0,-0.0,-1.0,0.01566576663493624,2.0,0
50.669960021972656,-11.944299697875977,-0.7092397212982178,-0.0,-0.0,-1.0,0.01697008510260867,2.0,0
50.34363555908203,-14.18868350982666,-0.5915560722351074,-0.0,-0.0,-1.0,0.059878014795052246,1.0,0
50.47575378417969,-13.875898361206055,-0.6208548545837402,-0.0,-0.0,-1.0,0.2053176735912007,1.0,0
50.616981506347656,-13.628912925720215,-0.6510663032531738,-0.0,-0.0,-1.0,0.16324565289146845,1.0,0
50.33391189575195,-12.40361213684082,-0.6343157291412354,-0.0,-0.0,-1.0,0.01683586940198237,1.0,0
50.55108642578125,-13.983810424804688,-0.3049733638763428,-0.0,-0.0,-1.0,0.12203777286867593,1.0,0
51.339046478271484,-13.844661712646484,-0.43455028533935547,-0.0,-0.0,-1.0,0.06794832781994684,1.0,0
51.05018997192383,-12.407472610473633,-0.484633207321167,-0.0,-0.0,-1.0,0.06043909948132965,1.0,0
50.55571746826172,-13.957303047180176,-0.4181089401245117,-0.0,-0.0,-1.0,0.1697906759887509,1.0,0
52.637611389160156,-14.205979347229004,-0.6916301250457764,-0.0,-0.0,-1.0,0.08551976348713004,2.0,0
51.64997100830078,-12.277294158935547,-0.7708830833435059,-0.0,-0.0,-1.0,0.011603876807791022,1.0,0
51.396087646484375,-12.46426773071289,-0.7380285263061523,-0.0,-0.0,-1.0,0.0231349523498815,1.0,0
50.3049430847168,-14.254561424255371,-0.592228889465332,-0.0,-0.0,-1.0,0.05954569314829169,1.0,0
52.09264373779297,-14.170210838317871,-0.6576662063598633,-0.0,-0.0,-1.0,0.005151354730473923,1.0,0
51.05167007446289,-12.3645601272583,-0.5439209938049316,-0.0,-0.0,-1.0,0.0632474157631479,2.0,0
51.03228759765625,-12.3317289352417,-0.5477981567382812,0.4416202550721952,0.15638624171098028,-0.8834675397056103,0.06595681302460071,3.0,0
52.66410827636719,-11.986059188842773,-0.6091344356536865,-0.0,-0.0,-1.0,0.014673997180131683,1.0,0
52.25099182128906,-12.071393966674805,-0.5903294086456299,-0.0,-0.0,-1.0,0.012740375671952178,1.0,0
52.6519775390625,-13.953847885131836,-0.7276782989501953,-0.0,-0.0,-1.0,0.011904904906159548,1.0,0
52.40308380126953,-14.031793594360352,-0.7117116451263428,-0.0,-0.0,-1.0,0.009276378664085526,1.0,0
52.160400390625,-14.093513488769531,-0.6959679126739502,-0.0,-0.0,-1.0,0.005253156701514539,1.0,0
50.67041015625,-14.13071060180664,-0.5940330028533936,-0.0,-0.0,-1.0,0.047811565398195796,1.0,0
50.388851165771484,-14.258159637451172,-0.5772519111633301,-0.14507304346709646,-0.25751661060920444,-0.9553214157128175,0.04688683925416275,3.0,0
51.49184036254883,-13.657169342041016,-0.595526933670044,-0.0,-0.0,-1.0,0.07370475844314324,1.0,0
50.64116287231445,-14.300849914550781,-0.6064662933349609,-0.0,-0.0,-1.0,0.03330221776742452,1.0,0
52.37113571166992,-13.661880493164062,-0.7518362998962402,-0.0,-0.0,-1.0,0.013609348775562647,2.0,0
51.96245574951172,-14.191080093383789,-0.6951479911804199,-0.0,-0.0,-1.0,0.0032038764975099916,1.0,0
52.24952697753906,-13.962013244628906,-0.7348771095275879,-0.0,-0.0,-1.0,0.00784759630417682,2.0,0
51.15069580078125,-14.325328826904297,-0.5831484794616699,-0.0,-0.0,-1.0,0.01784606237765373,1.0,0
51.71522521972656,-12.891457557678223,-0.8047637939453125,-0.0,-0.0,-1.0,0.009014422410331385,1.0,0
51.8929443359375,-12.754734992980957,-0.8136177062988281,-0.0,-0.0,-1.0,0.00848422076813366,1.0,0
50.56515884399414,-14.30325984954834,-0.6238031387329102,-0.0,-0.0,-1.0,0.033630475638042466,1.0,0
51.15262985229492,-14.218436241149902,-0.6709318161010742,-0.0,-0.0,-1.0,0.017596305962681996,2.0,0
51.28996658325195,-14.093459129333496,-0.667485237121582,-0.0,-0.0,-1.0,0.05068055434219369,1.0,0
51.79378128051758,-14.054890632629395,-0.7131686210632324,-0.0,-0.0,-1.0,0.0047947318408199605,1.0,0
52.33513641357422,-13.931212425231934,-0.7513456344604492,-0.0,-0.0,-1.0,0.007433401438515257,1.0,0
52.572174072265625,-13.751847267150879,-0.7512664794921875,-0.0,-0.0,-1.0,0.012617249151744466,1.0,0
50.273555755615234,-14.34398365020752,-0.6003918647766113,-0.0,-0.0,-1.0,0.05954569314829169,1.0,0
50.32352828979492,-13.984076499938965,-0.5550565719604492,-0.0,-0.0,-1.0,0.1543591962926992,1.0,0
50.26903533935547,-14.08981704711914,-0.6290721893310547,-0.0,-0.0,-1.0,0.0581695297605613,2.0,0
50.59961700439453,-13.781869888305664,-0.6643638610839844,-0.0,-0.0,-1.0,0.2047043505386152,1.0,0
50.92982482910156,-13.65762710571289,-0.7097001075744629,-0.0,-0.0,-1.0,0.025478889014142803,1.0,0
51.12309646606445,-13.570560455322266,-0.7356963157653809,-0.0,-0.0,-1.0,0.04352492306183578,1.0,0
51.20660400390625,-13.42744255065918,-0.7418437004089355,-0.0,-0.0,-1.0,0.03936422244101259,1.0,0
51.457611083984375,-12.642831802368164,-0.7452898025512695,-0.0,-0.0,-1.0,0.015150259136114848,1.0,0
51.400245666503906,-12.971149444580078,-0.7509961128234863,-0.0,-0.0,-1.0,0.007126928385563814,2.0,0
51.658851623535156,-12.45742416381836,-0.7693190574645996,-0.0,-0.0,-1.0,0.007192811699336209,1.0,0
51.716732025146484,-12.127182006835938,-0.7647128105163574,-0.0,-0.0,-1.0,0.018573044644360687,1.0,0
51.722713470458984,-14.198561668395996,-0.659055233001709,-0.0,-0.0,-1.0,0.007875467908791905,1.0,0
52.00422668457031,-13.764369010925293,-0.7091383934020996,0.25316204727682967,-0.5667922545063028,-0.7839996926340385,0.008124264340599038,3.0,0
52.17845153808594,-13.289921760559082,-0.7422785758972168,-0.0,-0.0,-1.0,0.0058920336502379855,1.0,0
52.21731185913086,-11.983256340026855,-0.7629961967468262,-0.0,-0.0,-1.0,0.01372323381596034,1.0,0
52.172210693359375,-12.316217422485352,-0.7508912086486816,-0.0,-0.0,-1.0,0.01105859374451452,1.0,0
52.3304328918457,-12.718903541564941,-0.7737555503845215,-0.0,-0.0,-1.0,0.007510869626917617,1.0,0
50.36420440673828,-12.461042404174805,-0.613440990447998,-0.0,-0.0,-1.0,0.016835869401982367,1.0,0
50.38977813720703,-12.831090927124023,-0.6060042381286621,-0.0,-0.0,-1.0,0.012783956361802523,1.0,0
50.36854553222656,-13.336971282958984,-0.5870003700256348,-0.0,-0.0,-1.0,0.06435286496919261,1.0,0
50.62939453125,-11.86418342590332,-0.6818199157714844,-0.0,-0.0,-1.0,0.016970085102608674,1.0,0
50.488739013671875,-12.337003707885742,-0.6400036811828613,-0.0,-0.0,-1.0,0.024696176097594565,1.0,0
50.21930694580078,-11.998649597167969,-0.6028528213500977,-0.0,-0.0,-1.0,0.013545230694071436,1.0,0
50.61238098144531,-13.806977272033691,-0.4711165428161621,-0.0,-0.0,-1.0,0.1762158285015109,1.0,0
50.76439666748047,-12.827544212341309,-0.5151519775390625,-0.0,-0.0,-1.0,0.029343674399534978,1.0,0
50.9603157043457,-13.259392738342285,-0.5320167541503906,-0.0,-0.0,-1.0,0.036865067914390946,1.0,0
51.22980499267578,-13.513375282287598,-0.56292724609375,-0.0,-0.0,-1.0,0.06675203875973094,1.0,0
51.473724365234375,-14.28217601776123,-0.5774407386779785,-0.0,-0.0,-1.0,0.02908641948168815,1.0,0
52.03824996948242,-12.830216407775879,-0.6893491744995117,-0.0,-0.0,-1.0,0.008300773045239978,1.0,0
52.02555465698242,-13.24338436126709,-0.6782665252685547,-0.0,-0.0,-1.0,0.010048514720690915,1.0,0
52.11787414550781,-12.636054039001465,-0.7045073509216309,-0.0,-0.0,-1.0,0.005920270765731004,1.0,0
52.5256233215332,-12.18191146850586,-0.7698431015014648,-0.0,-0.0,-1.0,0.01422116734558982,1.0,0
52.47480392456055,-12.486542701721191,-0.756507396697998,-0.0,-0.0,-1.0,0.01390054588953514,1.0,0
50.22346878051758,-12.880678176879883,-0.7335128784179688,-0.0,-0.0,-1.0,0.008835210135759984,1.0,0
50.66754913330078,-14.192208290100098,-0.48392534255981445,-0.0,-0.0,-1.0,0.1125598905950151,1.0,0
50.8486442565918,-14.047257423400879,-0.5378680229187012,-0.0,-0.0,-1.0,0.06462025032839376,1.0,0
51.40119171142578,-13.8556489944458,-0.6633257865905762,-0.0,-0.0,-1.0,0.06436522353436239,1.0,0
51.20267105102539,-13.53857421875,-0.67913818359375,-0.0,-0.0,-1.0,0.0505149491019774,1.0,0
50.743385314941406,-13.188638687133789,-0.6553406715393066,-0.0,-0.0,-1.0,0.018461109576906925,1.0,0
52.7069206237793,-14.207709312438965,-0.626162052154541,-0.0,-0.0,-1.0,0.1431607782558855,2.0,0
52.69677734375,-13.661226272583008,-0.6811532974243164,-0.0,-0.0,-1.0,0.011321793337447894,1.0,0
52.70768356323242,-13.387356758117676,-0.7118849754333496,-0.0,-0.0,-1.0,0.008941954349759362,1.0,0
52.598018646240234,-12.552268028259277,-0.7835540771484375,-0.0,-0.0,-1.0,0.012237127968763072,1.0,0
52.54704666137695,-12.725844383239746,-0.7560453414916992,-0.0,-0.0,-1.0,0.006089628997952929,2.0,0
52.556095123291016,-12.180829048156738,-0.8175716400146484,-0.0,-0.0,-1.0,0.014511516667740167,1.0,0
50.2963981628418,-14.142960548400879,-0.5508699417114258,-0.0,-0.0,-1.0,0.05799158693834734,1.0,0
50.3831672668457,-13.642203330993652,-0.5958681106567383,-0.0,-0.0,-1.0,0.16935471279288017,1.0,0
50.43314743041992,-13.220329284667969,-0.6309657096862793,-0.0,-0.0,-1.0,0.05282813142144895,1.0,0
50.363563537597656,-12.260062217712402,-0.6835155487060547,-0.0,-0.0,-1.0,0.02213306602196236,2.0,0
50.396629333496094,-12.009623527526855,-0.7067031860351562,-0.0,-0.0,-1.0,0.015665766634936257,1.0,0
52.25836181640625,-11.911770820617676,-0.7395086288452148,-0.0,-0.0,-1.0,0.013344678802114856,1.0,0
51.977020263671875,-12.114317893981934,-0.7359223365783691,-0.0,-0.0,-1.0,0.010886466755187382,1.0,0
51.57940673828125,-12.365620613098145,-0.7263002395629883,-0.0,-0.0,-1.0,0.012155341810324322,1.0,0
50.66664505004883,-12.38832950592041,-0.6232414245605469,-0.0,-0.0,-1.0,0.02717844839454941,1.0,0
52.400325775146484,-12.688004493713379,-0.7919225692749023,-0.0,-0.0,-1.0,0.0060579149887965535,1.0,0
52.43953323364258,-12.493324279785156,-0.808558464050293,-0.0,-0.0,-1.0,0.014893543155997464,1.0,0
52.325626373291016,-12.05453872680664,-0.8154706954956055,-0.0,-0.0,-1.0,0.012740375671952178,1.0,0
50.43429946899414,-14.347654342651367,-0.44903087615966797,-0.0,-0.0,-1.0,0.04688683925416277,1.0,0
50.501319885253906,-13.772385597229004,-0.3734607696533203,-0.0,-0.0,-1.0,0.1484107771048163,1.0,0
50.610740661621094,-13.790509223937988,-0.3568720817565918,-0.627613848693495,0.4171456584782855,-0.657335801961871,0.25997808555275376,3.0,0
52.59187316894531,-14.249999046325684,1.2547823190689087,-0.0,-0.0,-1.0,0.0037017435281592186,1.0,2
