x,y,z,nx,ny,nz,curvature,density,label
34.85030746459961,-16.50343894958496,0.6307632923126221,-0.0,-0.0,-1.0,0.19641675937697511,1.0,1
32.99052429199219,-16.613283157348633,0.0403592586517334,-0.0,-0.0,-1.0,0.03242759505751275,2.0,1
33.0762939453125,-16.78049087524414,0.027702808380126953,-0.0,-0.0,-1.0,0.03589047380034424,1.0,1
34.129207611083984,-16.711883544921875,0.07159900665283203,-0.0,-0.0,-1.0,0.2070251006252965,2.0,1
32.85810089111328,-16.276098251342773,0.05114865303039551,-0.0,-0.0,-1.0,0.044658326619878064,2.0,1
34.20621109008789,-16.412004470825195,0.028825759887695312,-0.0,-0.0,-1.0,0.1519956053172294,2.0,1
34.30146026611328,-16.36638641357422,0.0005512237548828125,-0.0,-0.0,-1.0,0.14887877699157107,1.0,1
34.267478942871094,-16.0147647857666,-0.020142793655395508,-0.0,-0.0,-1.0,0.08428000152074754,2.0,0
34.31970977783203,-16.00933837890625,-0.03408193588256836,-0.0,-0.0,-1.0,0.07297781246056546,2.0,0
34.96154022216797,-15.912742614746094,0.18175458908081055,-0.0,-0.0,-1.0,0.10817625148515898,1.0,1
33.78572463989258,-15.708367347717285,0.07661271095275879,-0.36356147304378306,-0.06880030567614853,-0.9290261423970282,0.1999766865924621,5.0,1
34.285850524902344,-15.667571067810059,-0.05674266815185547,-0.0,-0.0,-1.0,0.08155753342462162,2.0,0
34.564937591552734,-15.557653427124023,0.05261373519897461,-0.0,-0.0,-1.0,0.17767294401924902,1.0,1
34.939659118652344,-15.755023956298828,0.1732630729675293,-0.7576335234976872,-0.30497042832304316,-0.5770480759182369,0.185935878190226,3.0,1
33.47368621826172,-14.9374418258667,0.07446670532226562,-0.0,-0.0,-1.0,0.1634026325451754,2.0,1
33.95042037963867,-14.992565155029297,-0.04072713851928711,-0.0,-0.0,-1.0,0.07337071887252374,1.0,0
34.11065673828125,-15.191648483276367,-0.059953927993774414,-0.0,-0.0,-1.0,0.19875286849036272,1.0,0
34.429649353027344,-15.365662574768066,-0.12363100051879883,-0.0,-0.0,-1.0,0.09455632510560168,1.0,0
35.1027717590332,-15.295377731323242,0.09583806991577148,-0.0,-0.0,-1.0,0.287168127493898,1.0,1
33.6070442199707,-14.575299263000488,-0.002949237823486328,-0.0,-0.0,-1.0,0.15803130356609152,1.0,0
33.85106658935547,-14.783003807067871,-0.03970193862915039,-0.0,-0.0,-1.0,0.13381537973671487,1.0,0
34.77558898925781,-14.704273223876953,0.10932350158691406,-0.0,-0.0,-1.0,0.14050500763785528,2.0,1
35.188262939453125,-15.05875015258789,0.05448126792907715,0.3466173601882094,0.06539678162058647,-0.9357241402089755,0.106263720979459,5.0,1
33.602317810058594,-14.42020320892334,-0.021300315856933594,-0.0,-0.0,-1.0,0.1797477448083319,1.0,0
34.397789001464844,-16.76930809020996,0.3721885681152344,-0.0,-0.0,-1.0,0.21152843075629604,1.0,1
34.67143630981445,-16.808439254760742,0.3135666847229004,-0.0,-0.0,-1.0,0.214140931246781,1.0,1
34.18140411376953,-16.52292251586914,0.4035611152648926,-0.0,-0.0,-1.0,0.22356924525945457,2.0,1
34.33998107910156,-16.391252517700195,0.3582267761230469,0.790106050721299,0.47931050614999066,-0.38209143841210547,0.17434515978884205,3.0,1
34.74864196777344,-16.536815643310547,0.6518789529800415,-0.0,-0.0,-1.0,0.17974489903864313,2.0,1
32.90461349487305,-15.66788387298584,0.30001020431518555,-0.0,-0.0,-1.0,0.2308822140141494,2.0,1
34.21267318725586,-16.097312927246094,0.3638794422149658,-0.0,-0.0,-1.0,0.2083792085638979,2.0,1
34.24298095703125,-15.141305923461914,0.2709195613861084,-0.0,-0.0,-1.0,0.06289762161784185,1.0,1
34.3213005065918,-14.615678787231445,0.19908404350280762,-0.0,-0.0,-1.0,0.1011133607316582,1.0,1
35.18742752075195,-15.042832374572754,0.4516716003417969,-0.0,-0.0,-1.0,0.11830641597693245,1.0,1
34.247703552246094,-14.540504455566406,0.2068800926208496,0.8945257776524688,-0.12493040779667088,-0.4292039449061526,0.0815774235381042,5.0,1
34.636474609375,-16.30251121520996,-0.05794119834899902,-0.0,-0.0,-1.0,0.06084335819804884,1.0,0
34.47761154174805,-15.888884544372559,-0.047919511795043945,-0.0,-0.0,-1.0,0.058947912196934,1.0,0
34.49744415283203,-15.510379791259766,-0.09066319465637207,-0.0,-0.0,-1.0,0.049076176237096265,1.0,0
34.251590728759766,-15.061593055725098,-0.07029032707214355,-0.0,-0.0,-1.0,0.17189011968801649,1.0,0
34.45824432373047,-15.173072814941406,-0.11597061157226562,-0.0,-0.0,-1.0,0.13590098516602517,1.0,0
34.137413024902344,-16.68700408935547,0.11524748802185059,-0.0,-0.0,-1.0,0.19412305588152481,1.0,1
34.315338134765625,-16.6895751953125,0.2292768955230713,-0.0,-0.0,-1.0,0.1897755698198512,1.0,1
34.81688690185547,-16.838623046875,0.2738370895385742,-0.0,-0.0,-1.0,0.16937644260168727,1.0,1
34.203529357910156,-16.094341278076172,0.3755161762237549,-0.0,-0.0,-1.0,0.20837920856389788,2.0,1
34.35791015625,-16.324119567871094,0.1889500617980957,-0.0,-0.0,-1.0,0.16959357160244362,1.0,1
32.984291076660156,-15.605003356933594,0.35050463676452637,-0.0,-0.0,-1.0,0.20263634424671856,1.0,1
33.09884262084961,-15.606768608093262,0.3181569576263428,-0.0,-0.0,-1.0,0.15170868447797797,1.0,1
33.799739837646484,-15.7194185256958,0.13019156455993652,0.4747836684487464,0.5615177119357414,-0.6777007653506085,0.1391908364035451,3.0,1
34.182926177978516,-16.03590965270996,0.375870943069458,-0.0,-0.0,-1.0,0.21826520860294485,1.0,1
34.357688903808594,-15.833928108215332,-0.018447160720825195,-0.6187048532355489,-0.1676262554915239,-0.7675322423538102,0.11248857691797251,3.0,0
34.89258575439453,-15.834402084350586,0.18107032775878906,-0.1116641451229959,-0.9551853180675549,-0.2741388823974703,0.16806694590762444,4.0,1
34.81271743774414,-15.69796085357666,0.18912744522094727,0.8423408157061721,0.41754672648672086,-0.340758978452049,0.26792585167541527,3.0,1
33.90839385986328,-14.8500337600708,0.000362396240234375,0.8357781045753983,0.01813389944716872,-0.5487678212169464,0.12491350479684724,3.0,1
34.07452392578125,-15.07818603515625,0.14536166191101074,-0.0,-0.0,-1.0,0.19298530325512667,1.0,1
34.37934494018555,-15.065505981445312,0.23473095893859863,-0.3978940419767942,-0.4367580494476649,-0.806797829448022,0.14446868516739284,4.0,1
35.027225494384766,-15.217883110046387,0.09041762351989746,0.12161302812897544,-0.1739567654020194,-0.9772150813204676,0.22230222535197752,6.0,1
35.189453125,-15.151304244995117,0.043357133865356445,-0.0,-0.0,-1.0,0.12697007947299147,2.0,1
33.600528717041016,-14.538427352905273,0.04471445083618164,-0.0,-0.0,-1.0,0.1621493570601756,2.0,1
33.805118560791016,-14.6631441116333,0.004709959030151367,-0.0,-0.0,-1.0,0.15959747770798277,1.0,1
34.81877517700195,-14.69658088684082,0.08649277687072754,-0.0,-0.0,-1.0,0.12031289761030398,2.0,1
34.65515899658203,-14.465869903564453,0.09964370727539062,-0.0,-0.0,-1.0,0.1612864751451472,1.0,1
34.132877349853516,-16.49703025817871,0.4240288734436035,0.04587744903394781,-0.24967501197549677,-0.9672422902588438,0.24821247590996834,3.0,1
34.760231018066406,-16.586284637451172,0.6101512908935547,-0.08103347981659526,0.9607951131666834,-0.2651534002494277,0.17974489903864319,3.0,1
35.02030944824219,-15.767080307006836,0.49518299102783203,-0.0,-0.0,-1.0,0.2009282679970146,2.0,1
33.87682342529297,-15.573761940002441,0.41071152687072754,0.8341782159690598,0.22340190054762182,-0.5042204823630108,0.10777291347889463,3.0,1
33.93013381958008,-15.591694831848145,0.3991982936859131,-0.0,-0.0,-1.0,0.06673543656406024,2.0,1
35.06132125854492,-15.230953216552734,0.4406008720397949,-0.0,-0.0,-1.0,0.24594118611089727,2.0,1
34.37091827392578,-16.643943786621094,0.3855438232421875,-0.0,-0.0,-1.0,0.19750762764828206,2.0,1
34.588722229003906,-16.684690475463867,0.32691264152526855,-0.0,-0.0,-1.0,0.18228526723005226,2.0,1
34.332157135009766,-16.36867332458496,0.37037229537963867,-0.0,-0.0,-1.0,0.1696944424931219,2.0,1
34.70532989501953,-16.193754196166992,0.24629497528076172,-0.0,-0.0,-1.0,0.23512965751725864,1.0,1
34.91071701049805,-15.825989723205566,0.14749526977539062,-0.1477266154655235,-0.9376247025724658,-0.31470107119137175,0.19206444854474503,3.0,1
35.14271545410156,-16.00040054321289,0.10139656066894531,-0.0,-0.0,-1.0,0.1919707053277215,1.0,1
34.58414077758789,-15.613079071044922,0.21387863159179688,-0.0,-0.0,-1.0,0.16549539445889677,1.0,1
34.79632568359375,-15.686056137084961,0.16319513320922852,0.762352100899446,0.18519344243290245,-0.6200989139919953,0.21340393187716364,5.0,1
34.10826873779297,-15.187847137451172,0.2897458076477051,-0.0,-0.0,-1.0,0.07647085220274338,2.0,1
35.010555267333984,-15.2744722366333,0.05118608474731445,0.2930958451161447,0.7031555327895312,0.6478171981995562,0.23230016195213474,3.0,1
35.16497802734375,-15.208040237426758,0.16480660438537598,0.0426096940652569,0.40066714380801177,-0.9152323496491998,0.10998906871427439,6.0,1
34.107486724853516,-14.567018508911133,0.19547224044799805,-0.0,-0.0,-1.0,0.10874295816230867,2.0,1
34.768150329589844,-16.596134185791016,0.5720407962799072,-0.2008775350854033,0.9375323240060179,-0.2840446396992693,0.19421139414648797,3.0,1
33.88435363769531,-15.60604190826416,0.40886735916137695,-0.05114576937982469,0.8161236300763632,-0.5756095297209081,0.0692345672464231,4.0,1
34.9473876953125,-15.75955581665039,0.4455230236053467,-0.0,-0.0,-1.0,0.24766354206817817,1.0,1
35.03333282470703,-15.69785213470459,0.4176769256591797,-0.0,-0.0,-1.0,0.17659090578920195,1.0,1
35.140316009521484,-15.894125938415527,0.375199556350708,0.4759198552834202,-0.6445088663624261,-0.5984217680927296,0.19738335525009906,3.0,1
35.16315460205078,-15.152596473693848,0.2655460834503174,-0.007992500038961674,0.4465861472849747,-0.8947049418642379,0.24522593297861697,5.0,1
34.79276657104492,-16.595911026000977,0.5553686618804932,-0.0,-0.0,-1.0,0.17941506910755203,2.0,1
34.98777389526367,-15.749100685119629,0.39948415756225586,-0.0,-0.0,-1.0,0.2193358073273852,2.0,1
33.99770736694336,-15.419964790344238,0.5745997428894043,-0.4260807721915814,0.8399975583899699,-0.33594534892972483,0.04354665094647449,3.0,1
34.78023147583008,-14.364739418029785,-0.005202770233154297,0.1428620269879509,0.045949237006535984,-0.988675431505917,0.15041373565049276,4.0,0
34.78307342529297,-14.539684295654297,0.04381132125854492,-0.0,-0.0,-1.0,0.141754046908151,1.0,1
33.11756896972656,-14.448920249938965,0.09514451026916504,-0.0,-0.0,-1.0,0.21607175155666372,1.0,1
34.221824645996094,-14.679153442382812,0.11878180503845215,-0.0,-0.0,-1.0,0.08374233869401815,1.0,1
33.88575744628906,-14.640759468078613,0.12453866004943848,-0.0,-0.0,-1.0,0.14184210555359897,2.0,1
33.63713455200195,-14.604094505310059,0.12456035614013672,-0.6869785480020282,0.6306650248157005,-0.36100152500957255,0.20003737627229085,3.0,1
34.32748031616211,-15.044920921325684,0.2165355682373047,-0.0,-0.0,-1.0,0.1641221078155451,1.0,1
34.05635070800781,-15.087479591369629,0.2440652847290039,-0.0,-0.0,-1.0,0.12436877592268455,1.0,1
34.88174057006836,-15.152364730834961,0.2079482078552246,0.5798782249862193,0.46534604778007377,-0.6687258780713491,0.24934673523443648,3.0,1
34.76239776611328,-15.203425407409668,0.23154354095458984,-0.29271946504042934,0.5283692413511366,-0.7969575017405065,0.19846025437594209,3.0,1
33.84052276611328,-15.520773887634277,0.3786478042602539,-0.0,-0.0,-1.0,0.08748161998378046,1.0,1
35.10882568359375,-15.39858627319336,0.257457971572876,-0.0,-0.0,-1.0,0.15623705049823255,1.0,1
34.80481719970703,-15.546818733215332,0.32408738136291504,-0.0,-0.0,-1.0,0.15064682497650753,1.0,1
35.03522872924805,-15.005488395690918,0.47564220428466797,-0.0,-0.0,-1.0,0.24873411718368355,1.0,1
34.83686065673828,-15.270980834960938,0.5538651943206787,-0.0,-0.0,-1.0,0.11228608446388931,1.0,1
34.659053802490234,-16.461620330810547,0.5904037952423096,-0.0,-0.0,-1.0,0.1651596171389929,1.0,1
34.87335968017578,-14.413101196289062,0.14895200729370117,-0.21356687259626644,-0.6542861251731484,0.7254645803451448,0.15971049758233247,6.0,1
34.83318328857422,-14.58912181854248,0.19183850288391113,-0.0,-0.0,-1.0,0.10828841423399856,2.0,1
34.92489242553711,-15.0325927734375,0.2753932476043701,-0.0,-0.0,-1.0,0.19372728476673537,2.0,1
34.02326965332031,-15.18289566040039,0.4147195816040039,0.5163943027189158,0.7121054375669024,-0.4756498395953641,0.0750213548806211,3.0,1
35.111507415771484,-15.172097206115723,0.280689001083374,0.17133228962355204,0.9799867699027417,0.10134681715743166,0.20355291535499243,6.0,1
35.0779914855957,-15.234670639038086,0.2982614040374756,-0.1293467382434927,0.803680502181332,0.5808330842155355,0.1497061519915195,5.0,1
33.915523529052734,-15.54150676727295,0.5057518482208252,0.31746156930567176,0.4032128618728934,-0.8582759113678137,0.04927702358433355,3.0,1
33.90568542480469,-15.552590370178223,0.5711617469787598,-0.0,-0.0,-1.0,0.04158308463521968,1.0,1
33.68941879272461,-14.54920768737793,0.20716476440429688,-0.0,-0.0,-1.0,0.13240460424430986,2.0,1
33.5615234375,-14.565312385559082,0.22716045379638672,0.042097901927404924,0.9243032011476392,-0.3793301451262974,0.14280531020957984,4.0,1
34.112483978271484,-14.691305160522461,0.18156671524047852,-0.0,-0.0,-1.0,0.02816781153987857,2.0,1
33.9229736328125,-14.642056465148926,0.1967463493347168,-0.0,-0.0,-1.0,0.05497094145010831,2.0,1
33.05987548828125,-14.406901359558105,0.035762786865234375,-0.0,-0.0,-1.0,0.17731680491332824,2.0,1
33.83605194091797,-14.748808860778809,0.0022161006927490234,-0.0,-0.0,-1.0,0.16264720006256553,1.0,1
33.63893127441406,-14.729804992675781,0.026444673538208008,-0.0,-0.0,-1.0,0.19318546277958443,2.0,1
33.91745376586914,-14.861551284790039,0.01378011703491211,0.8357781045753983,0.01813389944716872,-0.5487678212169464,0.11823468620661355,3.0,1
33.831939697265625,-14.839028358459473,0.021680355072021484,-0.0,-0.0,-1.0,0.1377930412547715,1.0,1
33.17889404296875,-14.496000289916992,-0.03610968589782715,-0.0,-0.0,-1.0,0.13000960435399422,1.0,0
32.974700927734375,-14.365999221801758,-0.03351736068725586,-0.0,-0.0,-1.0,0.11149592670838795,2.0,0
33.38080596923828,-14.703527450561523,-0.024002552032470703,-0.0,-0.0,-1.0,0.0900767760756363,2.0,0
34.69688415527344,-14.395527839660645,0.04114079475402832,-0.0,-0.0,-1.0,0.15844117984077916,1.0,1
33.87268829345703,-14.536762237548828,0.1885678768157959,-0.0,-0.0,-1.0,0.07626169819018272,1.0,1
33.70812225341797,-14.505273818969727,0.20891380310058594,-0.8163546952580004,0.3653451062340473,-0.4473119324152336,0.16168956776132123,3.0,1
34.0423698425293,-14.604637145996094,0.17216730117797852,-0.0,-0.0,-1.0,0.08559453519967171,1.0,1
32.90874099731445,-15.721059799194336,0.027094364166259766,-0.0,-0.0,-1.0,0.028647584070185538,1.0,1
33.576900482177734,-15.822226524353027,-0.07451462745666504,-0.0,-0.0,-1.0,0.10148653910848565,1.0,0
33.22917175292969,-15.892828941345215,-0.00014662742614746094,-0.0,-0.0,-1.0,0.02532207986020717,1.0,0
32.97776794433594,-15.891510963439941,0.04417014122009277,-0.0,-0.0,-1.0,0.03071961874069511,1.0,1
33.51199722290039,-14.479602813720703,0.2345414161682129,-0.0,-0.0,-1.0,0.14537443333996947,1.0,1
34.19971466064453,-14.71718692779541,0.15101385116577148,0.5087228675861285,0.5011819415315445,-0.7000126466554856,0.03350493157590684,5.0,1
33.87013244628906,-14.639276504516602,0.18152737617492676,-0.0,-0.0,-1.0,0.09807030508269042,2.0,1
33.595733642578125,-14.58106803894043,0.2069993019104004,0.3890474856605563,0.8479433604742369,-0.3600473737285942,0.17415485935595199,7.0,1
34.957557678222656,-15.24838924407959,0.12728452682495117,0.692316139347583,0.7195188965300776,0.0546893109757063,0.20863380580307345,4.0,1
34.75540542602539,-15.162800788879395,0.1432642936706543,-0.0,-0.0,-1.0,0.16785194396104552,1.0,1
34.84823226928711,-15.799642562866211,0.22286319732666016,0.5241430953587698,0.15423317087767618,-0.8375476969037317,0.15680054288904108,3.0,1
33.63087463378906,-16.005474090576172,-0.06502175331115723,-0.0,-0.0,-1.0,0.07010255348043802,1.0,0
33.36833953857422,-15.995587348937988,-0.02483844757080078,-0.0,-0.0,-1.0,0.03314955151784966,1.0,0
33.578495025634766,-16.37302017211914,0.008841991424560547,-0.0,-0.0,-1.0,0.07880914288552689,2.0,1
33.14802169799805,-16.16702651977539,0.04105806350708008,-0.0,-0.0,-1.0,0.027595105724062912,1.0,1
32.783729553222656,-16.102426528930664,0.08532857894897461,-0.34373060029400654,-0.9390367688791238,0.007695525620574957,0.04777835745833249,3.0,1
33.686485290527344,-16.59063720703125,0.028926610946655273,-0.0,-0.0,-1.0,0.09504814686744138,1.0,1
34.210933685302734,-16.17780303955078,0.3697335720062256,-0.0,-0.0,-1.0,0.14617455712388,1.0,1
34.078369140625,-16.041942596435547,0.3687467575073242,-0.0,-0.0,-1.0,0.24021655849763668,1.0,1
34.580848693847656,-16.607717514038086,0.3763160705566406,-0.0,-0.0,-1.0,0.17484649694582946,1.0,1
34.344539642333984,-16.54741096496582,0.40308165550231934,-0.09200715381152888,0.921776826472081,-0.37664594226748394,0.18584657472961535,4.0,1
34.110408782958984,-16.417526245117188,0.41892528533935547,0.5952069128801989,0.20839219459560576,-0.7760808102841162,0.16738738623607824,3.0,1
34.63352966308594,-16.747478485107422,0.3875725269317627,-0.0,-0.0,-1.0,0.23754839175081902,1.0,1
34.300376892089844,-16.68329620361328,0.4288179874420166,-0.0,-0.0,-1.0,0.1891234697114807,2.0,1
34.59516525268555,-14.932334899902344,-0.0978689193725586,-0.0,-0.0,-1.0,0.0438119154490723,1.0,0
34.70405578613281,-15.087837219238281,-0.09122467041015625,-0.3113850244739246,-0.7780690449002571,-0.5455711941638549,0.055052006833996595,3.0,0
34.46474838256836,-14.98294734954834,-0.07060718536376953,-0.0,-0.0,-1.0,0.1343530987358652,1.0,0
34.054039001464844,-14.945208549499512,-0.015214681625366211,-0.0,-0.0,-1.0,0.07420847145186711,1.0,0
33.752960205078125,-14.734734535217285,-0.004544734954833984,-0.0,-0.0,-1.0,0.13739193663030558,1.0,0
33.49197769165039,-14.621576309204102,0.014306068420410156,-0.0,-0.0,-1.0,0.137172885907804,2.0,1
33.12596893310547,-14.389500617980957,0.026504993438720703,-0.0,-0.0,-1.0,0.18705961725537842,1.0,1
34.4609260559082,-15.555242538452148,0.015358448028564453,-0.0,-0.0,-1.0,0.1767951416715832,1.0,1
34.25075912475586,-16.10184097290039,0.12776517868041992,-0.0,-0.0,-1.0,0.19282123580205815,2.0,1
33.75075912475586,-15.63772201538086,0.13607001304626465,-0.0,-0.0,-1.0,0.11752660288796588,1.0,1
35.010589599609375,-16.8214111328125,0.10243654251098633,-0.0,-0.0,-1.0,0.16184764234903928,2.0,1
34.75429153442383,-16.76495361328125,0.13808155059814453,-0.0,-0.0,-1.0,0.17693827810610147,1.0,1
34.10884475708008,-16.106828689575195,0.15082263946533203,-0.0,-0.0,-1.0,0.1684722730973016,1.0,1
35.16769790649414,-15.158808708190918,0.4045872688293457,-0.0,-0.0,-1.0,0.12303905332061668,2.0,1
35.033714294433594,-15.031749725341797,0.40680599212646484,-0.0,-0.0,-1.0,0.27369785424617615,1.0,1
34.95720672607422,-15.215169906616211,0.4389021396636963,-0.0,-0.0,-1.0,0.13897134527187657,1.0,1
34.114662170410156,-16.299175262451172,0.17766213417053223,-0.0,-0.0,-1.0,0.21125891092076918,1.0,1
34.53257369995117,-16.812175750732422,0.18133139610290527,-0.0,-0.0,-1.0,0.17520346822047142,1.0,1
34.15372085571289,-16.70449447631836,0.22861146926879883,0.22254069581093397,-0.693470877349285,-0.685254537362868,0.21202917040339514,3.0,1
33.927528381347656,-16.576671600341797,0.24707746505737305,-0.0,-0.0,-1.0,0.18801525926390694,2.0,1
34.183616638183594,-15.669121742248535,-0.07317614555358887,-0.0,-0.0,-1.0,0.04996392665558823,1.0,0
34.07179260253906,-15.35942554473877,-0.10585355758666992,-0.0,-0.0,-1.0,0.15101712662331568,1.0,0
33.83739471435547,-15.238608360290527,-0.09025979042053223,-0.0,-0.0,-1.0,0.03940714882678859,1.0,0
33.37378692626953,-14.970257759094238,-0.0677034854888916,-0.0,-0.0,-1.0,0.11866848734049792,1.0,0
34.97545623779297,-16.79022789001465,-0.032857418060302734,-0.0,-0.0,-1.0,0.1513280684902717,1.0,0
34.19514465332031,-16.23238182067871,0.013077020645141602,-0.0,-0.0,-1.0,0.10835811599800484,1.0,1
34.22480010986328,-15.933542251586914,-0.03801107406616211,-0.0,-0.0,-1.0,0.049691611965817374,1.0,0
33.82813262939453,-15.563990592956543,-0.03556656837463379,-0.0,-0.0,-1.0,0.13397105924775976,1.0,0
33.42108154296875,-15.390793800354004,-0.003489255905151367,-0.0,-0.0,-1.0,0.016428715678682367,1.0,0
33.26673889160156,-15.197552680969238,-0.013787031173706055,-0.0,-0.0,-1.0,0.07446867866694606,2.0,0
33.03563690185547,-15.018404006958008,-0.011598825454711914,0.553370777850799,0.8180586943508091,-0.156718712404905,0.040086671342367576,3.0,0
35.03722381591797,-15.22102165222168,0.28014707565307617,0.012301834543416821,0.673592192880626,0.7390008271694533,0.17051109906211628,8.0,1
34.81352233886719,-15.105778694152832,0.29404115676879883,-0.0,-0.0,-1.0,0.21570864586474034,1.0,1
34.92719268798828,-15.64339828491211,0.3496675491333008,-0.0,-0.0,-1.0,0.20634308371911228,2.0,1
34.043880462646484,-16.588590621948242,0.0917503833770752,0.298964053590218,-0.8924308535453169,-0.33791665585064384,0.12694968422670946,3.0,1
34.056461334228516,-16.82697296142578,0.12557625770568848,-0.0,-0.0,-1.0,0.20484305387412868,1.0,1
34.67528533935547,-16.58841323852539,0.5030655860900879,-0.0,-0.0,-1.0,0.19231313647996642,1.0,1
34.670108795166016,-16.656394958496094,0.5121457576751709,-0.0,-0.0,-1.0,0.21067876936181917,1.0,1
34.89921188354492,-14.931193351745605,-0.12249970436096191,-0.0,-0.0,-1.0,0.028698369780192027,2.0,0
34.810333251953125,-15.254473686218262,-0.061540842056274414,-0.0,-0.0,-1.0,0.09121697005851376,2.0,0
34.34232711791992,-14.92576789855957,-0.040918588638305664,-0.0,-0.0,-1.0,0.15182938002901414,1.0,0
34.61017990112305,-15.801199913024902,0.04790616035461426,-0.0,-0.0,-1.0,0.10828390613504488,1.0,1
34.59537887573242,-15.544075012207031,0.013295650482177734,-0.0,-0.0,-1.0,0.22487684135919156,1.0,1
34.093421936035156,-15.102845191955566,0.02233433723449707,-0.0,-0.0,-1.0,0.2634358121282205,1.0,1
33.91078186035156,-14.820852279663086,0.00496363639831543,0.9203012834299159,-0.0181728917615684,-0.39078804193868555,0.13781749311643138,4.0,1
33.562652587890625,-14.554885864257812,0.011361360549926758,-0.0,-0.0,-1.0,0.16349102880221678,1.0,1
34.84251403808594,-16.77651596069336,0.1445775032043457,-0.0,-0.0,-1.0,0.17702534023779518,1.0,1
33.814414978027344,-15.70287036895752,0.15418386459350586,0.4747836684487464,0.5615177119357414,-0.6777007653506085,0.1253788669142483,3.0,1
33.35467529296875,-14.98812484741211,0.10959172248840332,-0.0,-0.0,-1.0,0.12274847499657754,2.0,1
34.654483795166016,-16.835519790649414,0.1829984188079834,-0.0,-0.0,-1.0,0.1727635222873273,1.0,1
34.1035041809082,-16.161218643188477,0.17764043807983398,-0.0,-0.0,-1.0,0.10160724896923219,1.0,1
33.729339599609375,-15.714412689208984,0.16850781440734863,-0.6673409071247847,0.6451027126153552,0.3721540055597683,0.13425045373437908,3.0,1
34.92132568359375,-15.329119682312012,0.4820423126220703,-0.0,-0.0,-1.0,0.13218730617300029,1.0,1
34.4180793762207,-16.833560943603516,0.22117066383361816,-0.0,-0.0,-1.0,0.18710241555245652,1.0,1
34.195228576660156,-16.701297760009766,0.23885631561279297,-0.0,-0.0,-1.0,0.18566090722226594,2.0,1
34.143829345703125,-16.86042022705078,0.2688791751861572,-0.0,-0.0,-1.0,0.19041902703497007,1.0,1
34.69941711425781,-16.552249908447266,0.6534631252288818,-0.0,-0.0,-1.0,0.16184415957228837,2.0,1
34.61782455444336,-15.55736255645752,-0.07913446426391602,-0.0,-0.0,-1.0,0.07098723493723065,2.0,0
34.46489715576172,-15.288915634155273,-0.10458159446716309,-0.0,-0.0,-1.0,0.09893768390995474,1.0,0
35.02473831176758,-16.815122604370117,0.06884527206420898,-0.0,-0.0,-1.0,0.14126052730157596,2.0,1
34.429325103759766,-16.04000473022461,0.031194686889648438,-0.0,-0.0,-1.0,0.07805121638359826,1.0,1
34.43798828125,-15.693939208984375,-0.02960491180419922,-0.0,-0.0,-1.0,0.08624261408348709,1.0,0
34.064029693603516,-15.282622337341309,-0.05014777183532715,-0.0,-0.0,-1.0,0.20655640974582143,1.0,0
33.970184326171875,-15.20112133026123,-0.05211496353149414,-0.0,-0.0,-1.0,0.22461272999390344,2.0,0
33.673709869384766,-14.929166793823242,-0.06266164779663086,-0.0,-0.0,-1.0,0.06821256740403045,1.0,0
34.1798210144043,-16.13370704650879,0.08335447311401367,-0.0,-0.0,-1.0,0.26126866947131044,2.0,1
33.81626892089844,-15.738259315490723,0.06587648391723633,-0.32170544597487843,0.011324060783062737,-0.9467720801108819,0.23055803752178577,3.0,1
33.61065673828125,-15.256688117980957,0.00651097297668457,-0.0,-0.0,-1.0,0.05813508082762392,1.0,1
33.36278533935547,-14.9754056930542,-0.01329493522644043,-0.0,-0.0,-1.0,0.11860309290141798,2.0,0
33.15496063232422,-14.997966766357422,0.017847299575805664,-0.0,-0.0,-1.0,0.07950817543029126,2.0,1
35.18281555175781,-15.099736213684082,0.3221094608306885,-0.0,-0.0,-1.0,0.1425968443724314,1.0,1
35.1184196472168,-15.013802528381348,0.3163564205169678,-0.0,-0.0,-1.0,0.19909328503835158,1.0,1
35.10984802246094,-15.255062103271484,0.35390329360961914,0.24479974436834168,0.9687263688581784,0.04052539248475308,0.18280695848399198,3.0,1
34.31158447265625,-16.761917114257812,0.16875624656677246,-0.0,-0.0,-1.0,0.10487970104547942,1.0,1
34.117332458496094,-16.470373153686523,0.14954519271850586,-0.0,-0.0,-1.0,0.14595759821024384,1.0,1
34.14360046386719,-16.73967742919922,0.19033193588256836,-0.0,-0.0,-1.0,0.203862534042868,1.0,1
34.066768646240234,-16.567296981811523,0.17322969436645508,-0.0,-0.0,-1.0,0.14160336021594602,2.0,1
33.03561019897461,-15.00939655303955,0.035325050354003906,0.553370777850799,0.8180586943508091,-0.156718712404905,0.04833477259141522,3.0,1
33.958412170410156,-15.53214168548584,0.5260152816772461,0.44750174597670334,-0.1373834858231441,-0.8836673385221862,0.04503709705887184,3.0,1
35.14104461669922,-15.359848022460938,0.0918583869934082,-0.0,-0.0,-1.0,0.19941422438496148,1.0,1
35.044830322265625,-15.13686752319336,0.07251214981079102,0.38794170241543036,0.8023418681130371,0.45359537277170203,0.2274276407692291,4.0,1
34.86351013183594,-14.443562507629395,-0.009341955184936523,-0.36563577508290535,-0.7673674597953369,0.5267425003042522,0.20215154877757507,6.0,0
34.89301300048828,-15.837480545043945,0.19771456718444824,-0.0,-0.0,-1.0,0.18326775142596075,2.0,1
34.81496810913086,-15.794561386108398,0.20298194885253906,0.013451173552714293,-0.9772456831704119,0.21168358617249805,0.22987061986715857,5.0,1
34.260292053222656,-14.75583553314209,0.12288665771484375,-0.0,-0.0,-1.0,0.04678443814042109,1.0,1
34.186927795410156,-14.746513366699219,0.1313614845275879,0.4673967206524433,0.34239207504319497,-0.815050901766851,0.02824883751856781,3.0,1
34.70014190673828,-16.669326782226562,0.34275102615356445,-0.0,-0.0,-1.0,0.17240227207948622,1.0,1
34.189125061035156,-15.12425422668457,0.19106435775756836,-0.0,-0.0,-1.0,0.08053929434971842,2.0,1
33.8887939453125,-14.655513763427734,0.15659523010253906,-0.06172613357707183,0.9974678766811482,-0.03532307210347644,0.11453495972939615,4.0,1
33.626094818115234,-14.38258171081543,0.14577150344848633,-0.7090328298934246,-0.14953906245898152,-0.6891375152552724,0.1559543995877753,5.0,1
34.56986999511719,-16.6864013671875,0.3648664951324463,-0.0,-0.0,-1.0,0.2513072855241403,2.0,1
34.39347839355469,-16.45550537109375,0.3595590591430664,-0.0,-0.0,-1.0,0.16431598954814577,2.0,1
33.58967208862305,-14.576343536376953,0.18306970596313477,0.6575196717943297,0.7236887422943058,-0.20962462994591738,0.21366959501513272,7.0,1
33.97113037109375,-16.804306030273438,-0.019587039947509766,-0.0,-0.0,-1.0,0.17788307381158194,1.0,0
33.617820739746094,-16.561771392822266,0.00470280647277832,-0.0,-0.0,-1.0,0.0318269510280006,1.0,1
33.38115692138672,-16.379932403564453,0.01591014862060547,-0.0,-0.0,-1.0,0.023534795886516444,1.0,1
33.0623664855957,-16.330196380615234,0.06265878677368164,-0.0,-0.0,-1.0,0.02021525954340644,1.0,1
32.85535430908203,-16.192874908447266,0.07374095916748047,-0.0,-0.0,-1.0,0.052776018976697425,1.0,1
34.420616149902344,-16.649463653564453,0.38228869438171387,-0.0,-0.0,-1.0,0.2131098150816963,2.0,1
34.205448150634766,-16.45805549621582,0.3879237174987793,-0.5939776011764697,0.7312502507636877,-0.33535604968255867,0.2508891575034456,3.0,1
35.20271301269531,-14.36825942993164,-0.1597592830657959,-0.0,-0.0,-1.0,0.09252751802657784,2.0,0
35.19483947753906,-15.335356712341309,-0.03116464614868164,-0.0,-0.0,-1.0,0.16542021181899919,2.0,0
35.190643310546875,-14.936412811279297,-0.08174395561218262,-0.36967098341551774,-0.009765586319221269,-0.9291114020097082,0.13503181935519737,4.0,0
35.150367736816406,-14.588376998901367,-0.1213080883026123,-0.0,-0.0,-1.0,0.08617152971195952,2.0,0
34.934417724609375,-15.92910385131836,0.08684945106506348,-0.0,-0.0,-1.0,0.1031899723429307,1.0,1
35.01593017578125,-15.362248420715332,0.0026810169219970703,-0.0,-0.0,-1.0,0.1967391883678874,1.0,1
34.8261833190918,-14.757328033447266,-0.04499006271362305,-0.0,-0.0,-1.0,0.20888402943718748,2.0,0
34.84364318847656,-16.858539581298828,0.20955300331115723,-0.0,-0.0,-1.0,0.1605956113829316,1.0,1
34.546302795410156,-15.823432922363281,0.140580415725708,-0.0,-0.0,-1.0,0.228689386574871,1.0,1
34.389617919921875,-15.110219955444336,0.07459831237792969,-0.0,-0.0,-1.0,0.15252601100809335,1.0,1
34.1998291015625,-14.785758972167969,0.06122946739196777,-0.0,-0.0,-1.0,0.03359587380196786,2.0,1
33.87147903442383,-14.822578430175781,0.11942601203918457,-0.0,-0.0,-1.0,0.17365186348137351,1.0,1
33.77059555053711,-14.566263198852539,0.09868049621582031,-0.0,-0.0,-1.0,0.22136636306976648,1.0,1
33.129981994628906,-16.772245407104492,0.040267229080200195,-0.0,-0.0,-1.0,0.03537810206365251,2.0,1
32.951629638671875,-16.48525619506836,0.035575151443481445,-0.0,-0.0,-1.0,0.034981835767516095,1.0,1
35.052947998046875,-15.30090045928955,0.5287153720855713,-0.0,-0.0,-1.0,0.13559774612891284,1.0,1
34.39202117919922,-16.792640686035156,0.2824411392211914,-0.0,-0.0,-1.0,0.18331198177728988,1.0,1
34.23654556274414,-16.51653480529785,0.2779228687286377,0.9912799397820723,0.08146821321408933,0.1035712856990517,0.23118636220615651,4.0,1
34.20398712158203,-16.143077850341797,0.23875808715820312,-0.0,-0.0,-1.0,0.16867797691625436,1.0,1
33.91563415527344,-15.674673080444336,0.22825145721435547,-0.0,-0.0,-1.0,0.14882132983585322,1.0,1
35.092430114746094,-15.271995544433594,0.04592561721801758,-0.0,-0.0,-1.0,0.2739343425299114,1.0,1
35.16082000732422,-15.035078048706055,0.004787921905517578,-0.8770123506349853,-0.3828609388948673,-0.29028750972482137,0.09792857706352814,3.0,1
34.89781188964844,-15.823461532592773,0.14602065086364746,-0.1477266154655235,-0.9376247025724658,-0.31470107119137175,0.19417176635546302,3.0,1
34.47304153442383,-15.772566795349121,0.21564793586730957,-0.0,-0.0,-1.0,0.18731829475971842,1.0,1
34.347965240478516,-15.07912826538086,0.15127110481262207,-0.0,-0.0,-1.0,0.18629590819402514,2.0,1
34.1602668762207,-14.704551696777344,0.13370013236999512,0.22423860658765205,0.4654995929428311,-0.8561700627128273,0.030549753475654532,6.0,1
33.931480407714844,-14.638837814331055,0.16326904296875,-0.36349860835655196,0.9315905333160867,-0.0027999926249596937,0.08905132849821679,3.0,1
33.844337463378906,-16.728477478027344,-0.03326988220214844,-0.0,-0.0,-1.0,0.11586407238871228,1.0,0
33.46220016479492,-16.681102752685547,0.03675985336303711,-0.0,-0.0,-1.0,0.135001049405582,2.0,1
33.34315872192383,-16.468257904052734,0.034453392028808594,-0.0,-0.0,-1.0,0.036669380196541694,1.0,1
32.823333740234375,-16.116844177246094,0.09500551223754883,-0.34373060029400654,-0.9390367688791238,0.007695525620574957,0.04777835745833263,3.0,1
34.51189422607422,-16.661724090576172,0.31549763679504395,-0.6454820540637057,0.6565089460693776,0.39031899980986556,0.21218601239092055,3.0,1
34.324974060058594,-16.598012924194336,0.3424046039581299,-0.5556242111106982,0.5294011334720498,-0.6411054327535551,0.238801145709166,3.0,1
34.23194885253906,-16.258102416992188,0.31612467765808105,-0.0,-0.0,-1.0,0.13690158569474142,1.0,1
34.139225006103516,-16.053939819335938,0.308185338973999,-0.0,-0.0,-1.0,0.18083392431820403,2.0,1
33.836578369140625,-15.628461837768555,0.30980396270751953,0.5969531178192259,0.06873286905247895,-0.7993264463520018,0.1243213567185027,3.0,1
33.72682189941406,-14.600513458251953,0.19211459159851074,-0.0,-0.0,-1.0,0.06914093151239091,1.0,1
33.637088775634766,-14.420875549316406,0.1816258430480957,0.6215502949590512,0.392661764706799,-0.6778583697009715,0.22115502561722947,4.0,1
35.18970489501953,-15.55399227142334,-0.0662391185760498,-0.0,-0.0,-1.0,0.09602155882355926,1.0,0
35.03106689453125,-15.381336212158203,-0.049684762954711914,-0.0,-0.0,-1.0,0.1438861981377379,1.0,0
35.12321090698242,-15.074949264526367,-0.09699440002441406,-0.0,-0.0,-1.0,0.12923491286385613,1.0,0
35.147117614746094,-14.59807014465332,-0.14933228492736816,-0.0,-0.0,-1.0,0.08617152971195956,2.0,0
34.7593994140625,-16.017099380493164,0.061618804931640625,-0.0,-0.0,-1.0,0.1255521503609907,1.0,1
34.772647857666016,-15.784067153930664,0.03906536102294922,-0.691090257540815,-0.6138200982261057,-0.38160076381719155,0.24004829464651595,3.0,1
34.52366638183594,-15.745611190795898,0.08645367622375488,-0.0,-0.0,-1.0,0.2251756058056606,1.0,1
34.285118103027344,-14.973367691040039,0.05987906455993652,-0.0,-0.0,-1.0,0.16495726697718657,1.0,1
34.11700439453125,-14.790441513061523,0.07392191886901855,0.556130540344384,-0.7242582552318847,-0.40763807700548543,0.05198532180720673,3.0,1
33.974212646484375,-14.750347137451172,0.0975039005279541,-0.0,-0.0,-1.0,0.07564214879286967,2.0,1
35.07060623168945,-15.120866775512695,0.44529032707214355,-0.0,-0.0,-1.0,0.19337349288704556,1.0,1
34.25938415527344,-16.667192459106445,0.21637558937072754,-0.0,-0.0,-1.0,0.16742918682257224,1.0,1
34.21794128417969,-16.632287979125977,0.22249531745910645,0.8370380434599282,-0.5464531235895524,0.027500863986364647,0.15925144593891932,3.0,1
34.06877136230469,-16.299823760986328,0.22717928886413574,-0.0,-0.0,-1.0,0.18798256321061288,1.0,1
33.73967742919922,-14.63795280456543,0.13050007820129395,-0.0,-0.0,-1.0,0.1314268040899909,1.0,1
33.65895080566406,-14.383525848388672,0.1168665885925293,-0.1230785299874335,0.974482115733314,-0.18771329620476346,0.13028966785085574,5.0,1
33.611812591552734,-14.615516662597656,0.15279316902160645,-0.6738904946344944,0.7227941928993086,-0.15310178298215127,0.22038120351021934,7.0,1
34.72270965576172,-16.622859954833984,0.6137592792510986,-0.0,-0.0,-1.0,0.17974489903864324,1.0,1
34.83316421508789,-15.316068649291992,-0.07566142082214355,-0.6997288498054683,0.6207166313410303,0.3536812128549663,0.10852058505739123,3.0,0
34.966575622558594,-15.095928192138672,-0.1222381591796875,-0.0,-0.0,-1.0,0.09030583671959605,1.0,0
34.788963317871094,-14.744012832641602,-0.11470651626586914,-0.0,-0.0,-1.0,0.16588365202368452,1.0,0
34.721065521240234,-16.21073341369629,0.013202428817749023,-0.0,-0.0,-1.0,0.10894637480793623,2.0,1
34.74702453613281,-15.815261840820312,-0.019355058670043945,-0.0,-0.0,-1.0,0.17531453868493782,2.0,0
34.727474212646484,-15.500467300415039,-0.038537025451660156,-0.0,-0.0,-1.0,0.18667850344858286,2.0,0
34.6254997253418,-14.996885299682617,-0.057810068130493164,-0.0,-0.0,-1.0,0.07003656146685264,1.0,0
35.070945739746094,-15.291637420654297,0.39113616943359375,-0.5282459706738621,0.07993886972703446,-0.8453200409156247,0.20664296215002412,4.0,1
35.10700988769531,-15.098711967468262,0.3712427616119385,-0.0,-0.0,-1.0,0.19615425468237332,2.0,1
34.16144561767578,-16.679771423339844,0.16516900062561035,-0.0,-0.0,-1.0,0.1554904763009645,2.0,1
34.321407318115234,-16.166173934936523,0.09799504280090332,-0.0,-0.0,-1.0,0.1694873529697337,2.0,1
34.10319137573242,-14.939196586608887,0.04831814765930176,-0.0,-0.0,-1.0,0.14548177959167546,1.0,1
34.07622146606445,-14.83529281616211,0.04446840286254883,-0.0,-0.0,-1.0,0.062375436363279385,2.0,1
34.05751419067383,-16.66948699951172,0.1876697540283203,-0.5432190862989876,-0.6774732503419226,-0.49592642534114273,0.22938228555425638,4.0,1
33.794471740722656,-15.755083084106445,0.18307971954345703,-0.0,-0.0,-1.0,0.13134225664312443,2.0,1
33.74089813232422,-14.73080825805664,0.10505294799804688,-0.0,-0.0,-1.0,0.13929968503266443,1.0,1
33.628780364990234,-14.434150695800781,0.0989375114440918,0.7966889294224523,0.6034257697971793,0.0341187643443926,0.19786636756572143,6.0,1
32.87623977661133,-15.684330940246582,0.37490296363830566,-0.0,-0.0,-1.0,0.20781967998798298,1.0,1
34.82068634033203,-15.908397674560547,-0.010401248931884766,-0.0,-0.0,-1.0,0.11338912887440829,1.0,0
34.847896575927734,-15.710214614868164,-0.02834773063659668,-0.0,-0.0,-1.0,0.14970032540819583,1.0,0
34.865455627441406,-15.288850784301758,-0.05954337120056152,-0.0,-0.0,-1.0,0.1208423868473345,2.0,0
34.893310546875,-14.900910377502441,-0.09374666213989258,-0.0,-0.0,-1.0,0.026441842476367498,2.0,0
34.74346160888672,-16.177093505859375,0.021635055541992188,-0.0,-0.0,-1.0,0.09635169901855997,2.0,1
34.66964340209961,-15.691448211669922,0.010397195816040039,-0.0,-0.0,-1.0,0.15351981948069485,1.0,1
34.71537780761719,-15.470815658569336,-0.013896703720092773,-0.0,-0.0,-1.0,0.17460906766722606,2.0,0
34.67276382446289,-14.842524528503418,-0.049645185470581055,-0.0,-0.0,-1.0,0.13396298349960736,1.0,0
35.167301177978516,-15.113306999206543,0.38370680809020996,-0.0,-0.0,-1.0,0.11971250453518908,2.0,1
35.03464126586914,-15.296089172363281,0.41948914527893066,-0.0,-0.0,-1.0,0.20659527775543857,2.0,1
34.50785446166992,-16.131057739257812,0.0722661018371582,-0.0,-0.0,-1.0,0.0649010063860024,1.0,1
34.17523956298828,-16.829071044921875,0.1808605194091797,0.4190604975681681,0.7977637876145357,-0.43354496715891994,0.18123013955292977,3.0,1
34.19935607910156,-16.559524536132812,0.16339993476867676,0.602883242072107,-0.20066212720048823,0.7721829492652635,0.1618314010216027,3.0,1
34.132659912109375,-14.772302627563477,0.06305265426635742,-0.0,-0.0,-1.0,0.05916735501238776,2.0,1
33.950382232666016,-14.729246139526367,0.09926819801330566,-0.007735372402160951,0.07464035385169865,-0.9971805160504761,0.07672026430000967,3.0,1
33.775970458984375,-15.72513198852539,0.21184206008911133,-0.7348948435602195,0.17520011786284415,-0.6551598946894157,0.1100476291482726,3.0,1
33.68134307861328,-14.57070541381836,0.1440105438232422,-0.0,-0.0,-1.0,0.1853552073203369,2.0,1
34.747798919677734,-16.661975860595703,0.5405879020690918,-0.0,-0.0,-1.0,0.18390630088719206,1.0,1
35.129852294921875,-15.184828758239746,0.13350415229797363,-0.2096431709623694,0.9621640191781374,0.17404063050855553,0.2491286901205487,3.0,1
35.20347213745117,-14.776379585266113,0.10612201690673828,-0.0,-0.0,-1.0,0.08426066598517568,1.0,1
34.939979553222656,-14.405784606933594,0.1467270851135254,-0.0,-0.0,-1.0,0.14780989916300505,1.0,1
35.052101135253906,-16.072792053222656,0.16591477394104004,-0.0,-0.0,-1.0,0.12079083381260881,1.0,1
34.91094207763672,-15.714000701904297,0.1907503604888916,-0.7696129110776213,-0.3254120089904497,-0.5493659904903367,0.20082538216908477,3.0,1
34.83818054199219,-14.648990631103516,0.17718791961669922,0.5193188135475734,-0.7124970325965029,0.4718643326600546,0.1735594975210035,3.0,1
34.592124938964844,-15.653868675231934,0.2565019130706787,-0.0,-0.0,-1.0,0.15716024229235245,1.0,1
34.36174011230469,-15.069657325744629,0.2900700569152832,0.8617173434922932,0.26481118591611047,-0.4328027908161967,0.2186141185546058,4.0,1
34.474937438964844,-16.699045181274414,0.2904167175292969,-0.0,-0.0,-1.0,0.1474303495298235,1.0,1
34.3260498046875,-16.621950149536133,0.32170581817626953,-0.0,-0.0,-1.0,0.2927535736533041,2.0,1
34.289764404296875,-16.2849178314209,0.32807111740112305,-0.0,-0.0,-1.0,0.15028229695791726,1.0,1
34.12051773071289,-16.076902389526367,0.36183929443359375,-0.0,-0.0,-1.0,0.24170864711577233,2.0,1
34.0804328918457,-15.206925392150879,0.3525962829589844,-0.0,-0.0,-1.0,0.10939613581866738,1.0,1
34.664939880371094,-15.445953369140625,-0.06843924522399902,-0.0,-0.0,-1.0,0.14761960721987752,1.0,0
34.71322250366211,-15.099937438964844,-0.07919979095458984,-0.3113850244739246,-0.7780690449002571,-0.5455711941638549,0.05918817260679851,3.0,0
34.4122428894043,-14.924001693725586,-0.01257467269897461,-0.0,-0.0,-1.0,0.12131849484280138,1.0,0
34.50205612182617,-15.972818374633789,-0.03630638122558594,-0.0,-0.0,-1.0,0.04961870788207599,1.0,0
34.43988037109375,-15.769469261169434,-0.02008056640625,0.23135330899099096,-0.7660401672535424,-0.5997150228008999,0.1393427292673383,3.0,0
34.07714080810547,-14.813997268676758,0.06138896942138672,-0.12326220382122802,0.6206064951398718,-0.7743732997071493,0.05524058471547105,3.0,1
33.9058723449707,-14.739378929138184,0.09885501861572266,-0.0,-0.0,-1.0,0.13433275011962692,2.0,1
34.2640266418457,-16.482864379882812,0.00794363021850586,-0.0,-0.0,-1.0,0.15939618119404525,1.0,1
34.2782096862793,-16.24289894104004,0.009648323059082031,-0.0,-0.0,-1.0,0.08625996673720342,1.0,1
34.25798797607422,-15.834632873535156,0.020142316818237305,-0.0,-0.0,-1.0,0.06566748904614937,2.0,1
34.071319580078125,-15.291760444641113,0.06493401527404785,-0.0,-0.0,-1.0,0.16372480499066333,1.0,1
33.795745849609375,-14.705049514770508,0.12301063537597656,-0.0,-0.0,-1.0,0.13069773268944493,1.0,1
34.095584869384766,-16.720722198486328,0.03969860076904297,-0.0,-0.0,-1.0,0.20077053180307833,2.0,1
35.170928955078125,-15.156023025512695,0.3616313934326172,-0.9959810601596677,-0.044383041227492016,-0.07779378802078794,0.15504122191148437,3.0,1
34.93296813964844,-15.824165344238281,0.40194010734558105,-0.0,-0.0,-1.0,0.16337032157403442,2.0,1
34.583641052246094,-16.7989501953125,0.4487149715423584,-0.0,-0.0,-1.0,0.20074775186146082,1.0,1
34.46810531616211,-16.598358154296875,0.4756031036376953,0.32566609194237117,0.4475601445936197,-0.8328454319562073,0.23861112136269322,4.0,1
33.620323181152344,-14.601728439331055,0.16068553924560547,-0.7525863603859076,0.22087504136303804,-0.6203450541948163,0.22543818092336698,7.0,1
33.625919342041016,-14.420907020568848,0.1565258502960205,0.9002195540471576,0.07868780310378691,-0.42826742130803763,0.24468072296454535,7.0,1
34.36772155761719,-16.84086799621582,0.4882071018218994,-0.0,-0.0,-1.0,0.1745167161657343,1.0,1
33.12160873413086,-15.6514253616333,0.2768840789794922,-0.0,-0.0,-1.0,0.13433570175177384,2.0,1
33.98324966430664,-15.47675609588623,0.5836319923400879,0.5748830318569164,0.7788653714824121,-0.2507553245467858,0.11783787784199425,3.0,1
33.28990173339844,-14.62495231628418,-0.027785778045654297,-0.0,-0.0,-1.0,0.06580773499895902,2.0,0
33.194496154785156,-14.387434005737305,-0.0072553157806396484,-0.0,-0.0,-1.0,0.1631420170648913,1.0,0
34.86653518676758,-14.394740104675293,0.15984773635864258,-0.44681905907322017,0.14510902828080213,-0.8827774908550416,0.1544689518934763,4.0,1
35.111045837402344,-15.4163179397583,0.10929179191589355,-0.0,-0.0,-1.0,0.21608735441065907,2.0,1
35.01573181152344,-15.177438735961914,0.13007283210754395,0.6882549656513641,0.7229321484419854,0.06061527039694764,0.24984835003551667,5.0,1
34.83537292480469,-14.657876968383789,0.16685986518859863,0.5193188135475734,-0.7124970325965029,0.4718643326600546,0.2012575938463254,3.0,1
34.922080993652344,-15.936348915100098,0.13912081718444824,-0.0,-0.0,-1.0,0.15323916827529635,1.0,1
34.817840576171875,-15.729537963867188,0.16309881210327148,0.8423408157061721,0.41754672648672086,-0.340758978452049,0.22263680674794453,3.0,1
34.355106353759766,-15.091202735900879,0.26047372817993164,0.9336234702396904,-0.35632817001644906,-0.03711402794532345,0.13982175269984065,7.0,1
34.249977111816406,-16.408737182617188,0.26076602935791016,-0.0,-0.0,-1.0,0.211877495323743,1.0,1
34.175804138183594,-16.141094207763672,0.2818105220794678,-0.0,-0.0,-1.0,0.25094328557010487,1.0,1
33.806644439697266,-15.639130592346191,0.3632533550262451,-0.0,-0.0,-1.0,0.15776188037639538,2.0,1
33.13404083251953,-14.581880569458008,0.008399486541748047,-0.0,-0.0,-1.0,0.1321230948035891,1.0,1
34.19139099121094,-16.84552001953125,0.25952887535095215,-0.0,-0.0,-1.0,0.16411941115685225,2.0,1
34.12713623046875,-16.641511917114258,0.2785472869873047,-0.0,-0.0,-1.0,0.17657049379031678,2.0,1
33.103904724121094,-14.808045387268066,0.016373395919799805,-0.0,-0.0,-1.0,0.04986745424367778,2.0,1
32.90531921386719,-16.561281204223633,0.0355684757232666,-0.0,-0.0,-1.0,0.03469854896676149,1.0,1
32.826438903808594,-16.258495330810547,0.06302475929260254,-0.0,-0.0,-1.0,0.045984044851906096,2.0,1
34.893402099609375,-14.438697814941406,0.13439464569091797,-0.9919038236478822,-0.10879613220036594,0.06549966603694471,0.15971049758233252,5.0,1
35.20631790161133,-15.458439826965332,0.07123804092407227,-0.0,-0.0,-1.0,0.10552143706448805,2.0,1
35.04173278808594,-15.258932113647461,0.10451245307922363,-0.7495605271622954,-0.037970788364159604,0.660845848402777,0.22949944639984163,4.0,1
35.018672943115234,-16.13732147216797,0.09670877456665039,-0.0,-0.0,-1.0,0.16268648027060204,2.0,1
34.86888885498047,-15.878235816955566,0.13007426261901855,-0.0,-0.0,-1.0,0.18693585525493245,1.0,1
34.74341583251953,-16.383834838867188,0.1436619758605957,-0.0,-0.0,-1.0,0.3051362562193752,1.0,1
33.0962028503418,-14.367918014526367,-0.03044891357421875,-0.0,-0.0,-1.0,0.15100269760339063,1.0,0
32.96536636352539,-14.835593223571777,0.00034427642822265625,-0.0,-0.0,-1.0,0.0376025437395182,1.0,1
32.852752685546875,-14.683283805847168,0.026170730590820312,-0.010374214294374835,0.3338450814013591,-0.9425708659309887,0.06440721798615806,3.0,1
32.725807189941406,-16.378398895263672,0.02742290496826172,-0.0,-0.0,-1.0,0.030970897815326734,1.0,1
34.77357482910156,-15.676834106445312,0.1514146327972412,0.34579845379990215,-0.2877720718236275,-0.8930905127857613,0.20082128519192005,3.0,1
34.72904586791992,-15.51368236541748,0.16201496124267578,-0.0,-0.0,-1.0,0.24513072223388202,1.0,1
34.39142990112305,-15.072427749633789,0.23041081428527832,-0.0,-0.0,-1.0,0.1444686851673929,2.0,1
34.06370162963867,-15.217287063598633,0.2922983169555664,-0.41644356678597155,0.7144308177472161,-0.5622840584043105,0.0663124038993967,3.0,1
34.241825103759766,-16.506267547607422,0.23584628105163574,0.959716061914983,0.17707112408420667,0.21815338071630244,0.22842257059719884,6.0,1
34.12651824951172,-16.153623580932617,0.26644039154052734,-0.0,-0.0,-1.0,0.20003697987747254,1.0,1
33.90383529663086,-15.667434692382812,0.31787824630737305,-0.0,-0.0,-1.0,0.1370562979772035,1.0,1
34.139427185058594,-16.72914695739746,0.2489175796508789,-0.0,-0.0,-1.0,0.18412763708826418,2.0,1
35.185340881347656,-15.090940475463867,0.06925725936889648,0.47668818327941603,-0.4020962061899324,-0.7817205491027039,0.10743253849310434,3.0,1
34.87689971923828,-14.441131591796875,0.13605427742004395,-0.4555200606374662,-0.8898033940870836,0.02741157105941051,0.15971049758233238,7.0,1
35.19634246826172,-15.49542236328125,0.05830097198486328,-0.0,-0.0,-1.0,0.11031739423763065,2.0,1
35.033294677734375,-15.291128158569336,0.09309244155883789,-0.0,-0.0,-1.0,0.2282368469216648,2.0,1
34.813140869140625,-14.717379570007324,0.14437484741210938,-0.0,-0.0,-1.0,0.11565621814464706,1.0,1
35.04403305053711,-16.19565200805664,0.06523561477661133,-0.0,-0.0,-1.0,0.11667991933708305,1.0,1
34.8022575378418,-15.859395980834961,0.12055325508117676,-0.0,-0.0,-1.0,0.17156178552798226,1.0,1
34.715206146240234,-15.611117362976074,0.14374732971191406,-0.0,-0.0,-1.0,0.19362900588799678,1.0,1
34.61799621582031,-16.440458297729492,0.1340775489807129,-0.0,-0.0,-1.0,0.2667018428971851,1.0,1
34.188575744628906,-16.531757354736328,0.208420991897583,-0.0,-0.0,-1.0,0.15899644884069913,2.0,1
34.15889358520508,-16.193815231323242,0.22700905799865723,-0.0,-0.0,-1.0,0.1837286751541796,1.0,1
34.098915100097656,-16.807064056396484,0.21272993087768555,-0.2225661555953076,-0.44939623735805473,-0.8651631801180334,0.1715959967562355,3.0,1
32.72496795654297,-14.377893447875977,0.018993854522705078,-0.0,-0.0,-1.0,0.0749233144907224,1.0,1
34.078521728515625,-15.26294231414795,0.2696692943572998,-0.0,-0.0,-1.0,0.0663124038993968,1.0,1
33.83274459838867,-15.657866477966309,0.3044123649597168,-0.0,-0.0,-1.0,0.1290254573346913,2.0,1
33.05274963378906,-14.387554168701172,-0.06280851364135742,-0.0,-0.0,-1.0,0.1475250591985206,1.0,0
35.168922424316406,-15.03521728515625,0.10996389389038086,-0.954801628215428,0.29722483345792833,-0.003353972730149815,0.16069444394990237,4.0,1
34.85377502441406,-14.643247604370117,0.16869688034057617,0.5193188135475734,-0.7124970325965029,0.4718643326600546,0.17355949752100353,3.0,1
