x,y,z,nx,ny,nz,curvature,density,label
40.771392822265625,-21.019346237182617,0.10471677780151367,-0.0,-0.0,-1.0,0.03926073603052967,1.0,1
40.6905517578125,-20.600133895874023,0.13312888145446777,-0.0,-0.0,-1.0,0.21928567316254788,2.0,1
40.75068664550781,-20.29514503479004,0.1460726261138916,-0.0,-0.0,-1.0,0.21249793266648992,1.0,1
40.604896545410156,-20.366342544555664,0.15144705772399902,-0.0,-0.0,-1.0,0.18620403518969517,2.0,1
40.614376068115234,-20.43963623046875,0.2627534866333008,-0.6140274985473726,-0.3225579944001036,-0.7203655816849102,0.22614177978700725,4.0,1
40.72296905517578,-20.25900650024414,0.2686901092529297,-0.0,-0.0,-1.0,0.17769263637232324,1.0,1
42.37126159667969,-20.947765350341797,-0.06894135475158691,-0.0,-0.0,-1.0,0.01770664286827199,1.0,0
42.51456832885742,-20.780498504638672,-0.07051944732666016,-0.0,-0.0,-1.0,0.02223836659679061,1.0,0
40.9246826171875,-20.296083450317383,0.10786700248718262,-0.0,-0.0,-1.0,0.20316539987779364,1.0,1
41.0171012878418,-20.220836639404297,0.25075435638427734,-0.0,-0.0,-1.0,0.20880968533389271,1.0,1
41.60643768310547,-20.081432342529297,0.20574712753295898,-0.0,-0.0,-1.0,0.19708454621360846,2.0,1
40.75971603393555,-20.346887588500977,0.13324666023254395,-0.0,-0.0,-1.0,0.23759750542639493,2.0,1
41.546512603759766,-20.253774642944336,0.07712912559509277,0.2905762115136994,0.2903029619618322,-0.9117508736373839,0.1722198706609203,3.0,1
42.12490463256836,-21.67506217956543,0.022699594497680664,-0.0,-0.0,-1.0,0.008294567326433655,2.0,1
42.433555603027344,-20.317106246948242,0.012189149856567383,-0.0,-0.0,-1.0,0.025091368504421594,1.0,1
42.35824966430664,-20.559297561645508,0.015556573867797852,-0.0,-0.0,-1.0,0.028493448607299653,2.0,1
40.842323303222656,-20.347993850708008,0.17444658279418945,0.800194276414686,-0.5502758858219039,0.23850695896785865,0.19774028705567243,4.0,1
40.988014221191406,-20.264036178588867,0.1631605625152588,-0.0,-0.0,-1.0,0.19431476704986989,1.0,1
41.52459716796875,-20.181337356567383,0.12012887001037598,-0.0,-0.0,-1.0,0.19987834479346886,1.0,1
41.80404281616211,-20.14720344543457,0.0976262092590332,-0.0,-0.0,-1.0,0.14500885883308948,1.0,1
42.34992218017578,-20.552873611450195,0.05078291893005371,-0.0,-0.0,-1.0,0.028493448607299632,2.0,1
42.57769012451172,-20.268281936645508,0.03393197059631348,-0.0,-0.0,-1.0,0.04575419473445494,1.0,1
40.871246337890625,-20.311378479003906,0.3359200954437256,0.979549348659679,-0.07248533735337649,-0.187693764971472,0.15013485350919442,4.0,1
41.599761962890625,-20.068614959716797,0.2859923839569092,-0.0,-0.0,-1.0,0.14928290936191252,2.0,1
40.9308967590332,-20.28414535522461,0.2702763080596924,-0.0,-0.0,-1.0,0.19832278863869895,1.0,1
41.41984558105469,-19.995254516601562,0.24123024940490723,-0.0,-0.0,-1.0,0.15498043686199137,1.0,1
40.7186279296875,-20.385189056396484,0.3702784776687622,-0.9055235780639487,-0.08499683919810493,-0.4156953053578971,0.1998549889963363,4.0,1
40.916748046875,-20.307090759277344,0.3567984104156494,0.5757565759300554,0.4713868985675297,-0.6680559535938467,0.19518413003922838,3.0,1
41.51188278198242,-20.05638885498047,0.3160386085510254,-0.0,-0.0,-1.0,0.13555040297682774,2.0,1
40.29609298706055,-19.92096710205078,0.04744386672973633,-0.0,-0.0,-1.0,0.08363727211700911,2.0,1
40.79597091674805,-20.173805236816406,0.0043604373931884766,-0.0,-0.0,-1.0,0.1743243911283482,1.0,1
40.900108337402344,-19.634830474853516,0.02030158042907715,-0.0,-0.0,-1.0,0.03817106991173454,1.0,1
40.57821273803711,-20.356689453125,0.2310035228729248,-0.0,-0.0,-1.0,0.1982290218016064,2.0,1
40.7743034362793,-20.331195831298828,0.2224820852279663,0.5375339679370547,0.7706396701487497,0.3423035671839714,0.2069645515177275,6.0,1
42.288360595703125,-19.64319610595703,0.16519081592559814,-0.18412605757970701,0.9828875829506161,-0.005440055298506469,0.15235473975339522,3.0,1
40.25994873046875,-19.98655128479004,0.06730079650878906,-0.0,-0.0,-1.0,0.0462430466459322,1.0,1
40.877750396728516,-19.80314064025879,0.030074715614318848,-0.0,-0.0,-1.0,0.07535575905340539,1.0,1
42.118309020996094,-19.435365676879883,-0.04762852191925049,-0.0,-0.0,-1.0,0.18639386976857475,1.0,0
41.60699462890625,-21.698678970336914,0.047998905181884766,-0.0,-0.0,-1.0,0.019665567827764522,1.0,1
40.49182891845703,-20.449663162231445,0.1352076530456543,-0.0,-0.0,-1.0,0.1503053381306954,1.0,1
42.14336395263672,-20.590654373168945,0.03731083869934082,-0.0,-0.0,-1.0,0.01777597530241704,1.0,1
40.67274475097656,-20.358327865600586,0.12681174278259277,-0.0,-0.0,-1.0,0.20449015421908331,2.0,1
41.674476623535156,-20.31294059753418,0.07012820243835449,-0.0,-0.0,-1.0,0.12786305305187576,2.0,1
42.066307067871094,-19.795671463012695,0.056546688079833984,0.43815425715104533,0.547114359107569,-0.7132227737521634,0.15945778949104508,3.0,1
42.194122314453125,-19.5241641998291,0.053856611251831055,-0.0,-0.0,-1.0,0.18950730401235868,1.0,1
40.639068603515625,-19.43209457397461,-0.015808463096618652,-0.0,-0.0,-1.0,0.07223988174338435,1.0,0
41.666683197021484,-21.741100311279297,0.08515763282775879,0.4861198388819319,0.6281454531533147,-0.6075531186062841,0.019771733958049726,3.0,1
42.21350860595703,-21.75855255126953,0.05569791793823242,-0.0,-0.0,-1.0,0.022951358783511996,1.0,1
42.49983215332031,-21.162574768066406,0.053467750549316406,-0.0,-0.0,-1.0,0.020386604622577426,2.0,1
42.22731399536133,-20.519939422607422,0.08260416984558105,-0.0,-0.0,-1.0,0.02599830578808159,2.0,1
40.62216567993164,-20.37230682373047,0.17032527923583984,-0.0,-0.0,-1.0,0.2083605644474776,2.0,1
40.81425094604492,-20.344036102294922,0.16117072105407715,0.46046208059078114,-0.8702196122642298,0.17519274747746358,0.2596623188924221,4.0,1
41.708980560302734,-20.2313232421875,0.11695671081542969,-0.0,-0.0,-1.0,0.17701605827565367,1.0,1
41.47528839111328,-20.04745864868164,0.13350892066955566,-0.0,-0.0,-1.0,0.2300830855236814,2.0,1
41.933258056640625,-19.75061798095703,0.11569082736968994,-0.0,-0.0,-1.0,0.21583833569972727,2.0,1
42.268375396728516,-19.48416519165039,0.10335290431976318,-0.0,-0.0,-1.0,0.24431373916364243,1.0,1
42.48322677612305,-21.643251419067383,0.07676661014556885,-0.0,-0.0,-1.0,0.060775328573810204,1.0,1
40.56978988647461,-20.356958389282227,0.2193819284439087,-0.0,-0.0,-1.0,0.19748144167781104,2.0,1
40.75016784667969,-20.277162551879883,0.21053969860076904,-0.5292864275729819,-0.5138273273126971,-0.6751572818934276,0.2088289795758436,3.0,1
41.41276550292969,-19.965974807739258,0.1777251958847046,-0.0,-0.0,-1.0,0.16890641056131125,1.0,1
42.23318862915039,-19.52036476135254,0.13670575618743896,0.9894518075492534,0.13057021797601978,0.06274184182194742,0.26797502049368216,3.0,1
40.68149185180664,-20.55953025817871,0.3521270751953125,-0.0,-0.0,-1.0,0.2226317947486761,1.0,1
40.66215133666992,-20.431713104248047,0.4019012451171875,-0.9529115914067278,0.2984740423754465,-0.053597994279240065,0.2486611573613381,3.0,1
40.707794189453125,-20.475671768188477,0.39215004444122314,0.40925799839111726,-0.5926714965876474,-0.6937206843430964,0.12976044833777092,3.0,1
40.71623611450195,-20.33771324157715,0.39532625675201416,0.24092471618030284,0.9299210314768068,-0.2778527601996291,0.2423815781626055,3.0,1
40.96785354614258,-20.32419776916504,0.38327276706695557,-0.08314670893709446,-0.0037756362181533614,-0.9965301648038951,0.20554513183088022,5.0,1
40.78913116455078,-20.29716682434082,0.44575631618499756,-0.0,-0.0,-1.0,0.1537063467175291,1.0,1
41.52107238769531,-19.479244232177734,-0.022210240364074707,-0.0,-0.0,-1.0,0.12981580674552237,1.0,0
40.986915588378906,-20.47384262084961,0.3447880148887634,-0.0,-0.0,-1.0,0.17333388714252448,1.0,1
41.730716705322266,-20.003719329833984,0.343720018863678,-0.0,-0.0,-1.0,0.15869829945712244,1.0,1
40.68128204345703,-20.340869903564453,0.21269476413726807,-0.0,-0.0,-1.0,0.17500088852340084,1.0,1
40.819541931152344,-20.340965270996094,0.207513689994812,0.28239493613410027,-0.9166646831831251,0.28280551382637265,0.21181178413206397,6.0,1
41.530120849609375,-20.059833526611328,0.1917095184326172,-0.0,-0.0,-1.0,0.2335959233566312,2.0,1
40.85983657836914,-20.289608001708984,0.276993989944458,-0.0,-0.0,-1.0,0.19703328766587455,2.0,1
41.03870391845703,-20.335132598876953,0.27359282970428467,-0.0,-0.0,-1.0,0.1777737988202757,1.0,1
41.59126663208008,-19.980728149414062,0.27988898754119873,-0.0,-0.0,-1.0,0.1151845385690687,1.0,1
40.37656021118164,-19.92786407470703,0.014665722846984863,-0.0,-0.0,-1.0,0.05210656078879919,1.0,1
40.55638122558594,-19.9342041015625,0.017302989959716797,-0.0,-0.0,-1.0,0.09154099946471134,2.0,1
40.690940856933594,-20.306991577148438,0.006144523620605469,-0.0,-0.0,-1.0,0.1771773796461203,1.0,1
41.01444625854492,-20.46224594116211,0.005515456199645996,-0.0,-0.0,-1.0,0.09270282145210472,1.0,1
41.505104064941406,-20.06291961669922,0.02704155445098877,0.34567418104606723,-0.3180483897059829,-0.8828106152304476,0.21210666236230574,3.0,1
41.236534118652344,-20.360477447509766,0.012453079223632812,-0.0,-0.0,-1.0,0.06995617839807115,1.0,1
41.67982482910156,-20.09939956665039,0.02822732925415039,-0.0,-0.0,-1.0,0.14161788419846583,1.0,1
42.591285705566406,-21.12070083618164,0.0033197402954101562,-0.0,-0.0,-1.0,0.01625825605820245,1.0,1
40.32618713378906,-20.562850952148438,0.038022756576538086,-0.0,-0.0,-1.0,0.07536272611608331,1.0,1
40.796234130859375,-20.26260757446289,0.056105613708496094,-0.0,-0.0,-1.0,0.22141261305242407,1.0,1
41.507747650146484,-19.96310806274414,0.07770860195159912,-0.0,-0.0,-1.0,0.19637492881551313,1.0,1
41.025115966796875,-20.524776458740234,0.05068778991699219,-0.0,-0.0,-1.0,0.075778217001974,2.0,1
40.9387092590332,-21.441207885742188,0.017512083053588867,-0.0,-0.0,-1.0,0.01285056106812381,1.0,1
41.20940399169922,-21.64141845703125,0.014667034149169922,-0.0,-0.0,-1.0,0.020014035232904053,1.0,1
40.837642669677734,-20.44290542602539,0.5528794527053833,-0.0,-0.0,-1.0,0.14453197942593468,2.0,1
40.4844856262207,-19.856319427490234,0.017453670501708984,-0.0,-0.0,-1.0,0.08981255464472204,2.0,1
41.60514450073242,-19.852453231811523,0.012955188751220703,-0.0,-0.0,-1.0,0.08722817862450374,1.0,1
41.323036193847656,-19.697031021118164,0.018101096153259277,-0.0,-0.0,-1.0,0.046180465169837426,1.0,1
40.88969802856445,-20.27484893798828,0.3562358021736145,0.36370168347790105,0.3108331219022403,-0.8781251936733441,0.1775315690436906,4.0,1
41.215885162353516,-20.052024841308594,0.30706650018692017,-0.0,-0.0,-1.0,0.08545565981492545,1.0,1
41.62763595581055,-20.06207275390625,0.2067551612854004,-0.0,-0.0,-1.0,0.2038018055211815,2.0,1
41.93768310546875,-20.27423667907715,0.1846451759338379,-0.0,-0.0,-1.0,0.11906771387676021,1.0,1
42.41909408569336,-19.557090759277344,0.11914169788360596,-0.0,-0.0,-1.0,0.24231127411655765,1.0,1
40.71015930175781,-20.53512954711914,0.44395673274993896,-0.0,-0.0,-1.0,0.12755564221897764,1.0,1
41.60356140136719,-20.008514404296875,0.36546260118484497,0.6849041659566881,0.014779096238976183,-0.72848326114574,0.16686563552115916,5.0,1
40.76457977294922,-20.39572525024414,0.44186270236968994,-0.0,-0.0,-1.0,0.17260925631415824,1.0,1
40.790958404541016,-20.391448974609375,0.20990657806396484,0.3535642260236092,-0.8316681430264584,-0.42815936046202235,0.18034986956291538,3.0,1
41.45497512817383,-20.140722274780273,0.18823397159576416,-0.0,-0.0,-1.0,0.14947216181753986,2.0,1
41.6649169921875,-20.12830352783203,0.18017566204071045,-0.0,-0.0,-1.0,0.2522672450722322,2.0,1
42.11090850830078,-19.707035064697266,0.16801190376281738,-0.0,-0.0,-1.0,0.139965465161758,1.0,1
40.81879425048828,-20.314123153686523,0.31785881519317627,0.21741526762056182,0.6988949421095602,-0.6813783539995634,0.18630340044406887,3.0,1
40.63872528076172,-20.441051483154297,0.24467337131500244,-0.0,-0.0,-1.0,0.19603749102485174,2.0,1
40.78777313232422,-20.356414794921875,0.2614251375198364,0.6395524948799967,-0.5281596117618396,-0.5585875319019883,0.16801009162850813,4.0,1
41.4842643737793,-20.097599029541016,0.3289715051651001,0.24217397041895225,0.8791385426909809,-0.4104475493978484,0.13596912325260263,3.0,1
40.723243713378906,-20.415084838867188,0.3507424592971802,-0.9267047209929474,0.34260398543178583,-0.15440488740852784,0.2076003279380674,5.0,1
40.88092803955078,-20.35391616821289,0.3436732292175293,-0.5312139837279449,-0.4327986145473327,-0.7283522930133438,0.1376957321723816,5.0,1
40.991790771484375,-20.327491760253906,0.33849895000457764,-0.04896194877547819,-0.8070825084774188,-0.588405091821871,0.1773426625442843,7.0,1
40.79108810424805,-20.382492065429688,0.370247483253479,-0.12063767269827755,0.9689998006555601,-0.2156059791736484,0.1956386331304245,3.0,1
41.002445220947266,-20.350513458251953,0.3649078607559204,0.05374458995038721,-0.6412310766013927,-0.7654634056907512,0.23818080079665563,8.0,1
40.73674011230469,-20.357566833496094,0.5701309442520142,-0.0,-0.0,-1.0,0.16432558839026645,2.0,1
40.660099029541016,-20.435741424560547,0.6082091331481934,0.5965974908656321,0.3832738655221169,-0.7051046574094985,0.1779627803348966,3.0,1
40.67484664916992,-20.52742576599121,0.5835080146789551,-0.5501682071580133,0.17314907158482618,-0.816905345093206,0.17439231028014537,3.0,1
40.60414123535156,-20.400644302368164,0.2553485631942749,-0.0,-0.0,-1.0,0.16248335356826893,2.0,1
40.80879211425781,-20.401823043823242,0.24478411674499512,-0.0,-0.0,-1.0,0.10025552552899736,2.0,1
41.51465606689453,-20.08401870727539,0.2201746702194214,0.5239758371092922,-0.5945669997693761,-0.609868350474805,0.17742337145715079,5.0,1
42.31383514404297,-19.638263702392578,0.19413721561431885,-0.0,-0.0,-1.0,0.1741639831083004,2.0,1
42.19229507446289,-19.90879249572754,0.19038152694702148,-0.0,-0.0,-1.0,0.14089351703104797,2.0,1
42.67120361328125,-21.83478355407715,0.08980154991149902,-0.0,-0.0,-1.0,0.05619943074985948,2.0,1
40.66609191894531,-20.413372039794922,0.4339790344238281,-0.0,-0.0,-1.0,0.2134297362226422,2.0,1
41.61433792114258,-20.084165573120117,0.4070580005645752,0.8503999877251476,-0.46662533786082566,-0.24306512490141208,0.19229901495911542,3.0,1
41.889286041259766,-19.76532554626465,0.4065803289413452,-0.0,-0.0,-1.0,0.10846312489873489,1.0,1
40.32465744018555,-20.074995040893555,0.07469284534454346,-0.0,-0.0,-1.0,0.052945992624141444,2.0,1
40.676387786865234,-20.379478454589844,0.039415955543518066,-0.0,-0.0,-1.0,0.1891793647769959,1.0,1
40.87635803222656,-20.481294631958008,0.023166298866271973,-0.0,-0.0,-1.0,0.07532869411925903,1.0,1
40.99852752685547,-20.538532257080078,0.013466238975524902,-0.0,-0.0,-1.0,0.04382122471628099,2.0,1
41.36035919189453,-19.946142196655273,0.02629673480987549,-0.0,-0.0,-1.0,0.15147769931019986,2.0,1
41.85090255737305,-19.85152816772461,0.004276275634765625,-0.0,-0.0,-1.0,0.10069199702176027,1.0,1
42.2968635559082,-19.59088706970215,-0.006772398948669434,-0.0,-0.0,-1.0,0.24884415474977914,1.0,0
42.174400329589844,-20.03200912475586,-0.02384018898010254,-0.0,-0.0,-1.0,0.1262800564520947,1.0,0
42.55985641479492,-19.423603057861328,-0.012823343276977539,-0.0,-0.0,-1.0,0.11832984695950778,1.0,0
42.50751876831055,-19.548545837402344,-0.016614913940429688,-0.0,-0.0,-1.0,0.12139259238812862,1.0,0
42.53560256958008,-19.942073822021484,-0.039623260498046875,-0.0,-0.0,-1.0,0.04767170402722008,2.0,0
40.596046447753906,-20.32081413269043,0.37638211250305176,-0.0,-0.0,-1.0,0.2391692712921943,2.0,1
40.98902893066406,-20.335124969482422,0.36811333894729614,0.05374458995038721,-0.6412310766013927,-0.7654634056907512,0.20248493951891697,8.0,1
40.78303146362305,-20.43568992614746,0.36782288551330566,-0.0,-0.0,-1.0,0.22601345217109206,2.0,1
41.59715270996094,-20.0526180267334,0.3676493763923645,0.678162982385903,0.0034555815105119874,-0.7349034142510713,0.22112496921764424,8.0,1
41.93369674682617,-19.657352447509766,0.37718909978866577,-0.0,-0.0,-1.0,0.1029268759321837,1.0,1
40.86094284057617,-20.357044219970703,0.37182730436325073,-0.0,-0.0,-1.0,0.1845251061909733,2.0,1
40.662025451660156,-20.437469482421875,0.37208348512649536,0.05019141391223,0.9805936729570202,-0.18951746760167545,0.264598299542214,3.0,1
41.4867057800293,-20.07843780517578,0.3714534640312195,-0.0,-0.0,-1.0,0.17109846257177508,2.0,1
41.03314208984375,-20.33173370361328,0.369547963142395,0.14812543044022788,-0.5333921787316573,-0.8327974786974279,0.17617850739786375,4.0,1
41.61970138549805,-20.04488754272461,0.3700827360153198,0.48308328146926527,0.05744489552522217,-0.8736879460900113,0.2062746309722822,8.0,1
40.74982452392578,-20.362071990966797,0.12378525733947754,0.5704758259371577,0.13334826942001926,-0.8104169118817818,0.2166502066398479,3.0,1
40.47929382324219,-20.343433380126953,0.13367915153503418,-0.0,-0.0,-1.0,0.15526724132631387,1.0,1
40.360626220703125,-20.917789459228516,0.10429775714874268,-0.0,-0.0,-1.0,0.05855462551159895,2.0,1
41.446407318115234,-20.056278228759766,0.11774575710296631,-0.0,-0.0,-1.0,0.21281619635431703,2.0,1
40.913272857666016,-20.3477783203125,0.11919021606445312,-0.0,-0.0,-1.0,0.16734251961526295,2.0,1
41.05120849609375,-20.630104064941406,0.09830594062805176,-0.0,-0.0,-1.0,0.18895402764477584,1.0,1
40.63465118408203,-21.28531265258789,0.07429230213165283,-0.0,-0.0,-1.0,0.006437243975372573,1.0,1
41.95611572265625,-19.712980270385742,0.11921811103820801,-0.0,-0.0,-1.0,0.1928840576820301,2.0,1
41.61594772338867,-20.168611526489258,0.10530674457550049,-0.0,-0.0,-1.0,0.1842018843873556,1.0,1
42.275146484375,-19.640396118164062,0.11156773567199707,-0.3896096407773327,0.7545929982331521,-0.5280092185093551,0.1462876367246601,4.0,1
41.87446975708008,-20.21192169189453,0.09363460540771484,-0.0,-0.0,-1.0,0.12288462391900226,2.0,1
41.362701416015625,-21.48366928100586,0.03860032558441162,-0.0,-0.0,-1.0,0.019443203184016294,1.0,1
42.20866012573242,-20.55913543701172,0.06161963939666748,-0.0,-0.0,-1.0,0.024928672360394893,2.0,1
42.096580505371094,-21.15022087097168,0.0319136381149292,-0.0,-0.0,-1.0,0.009964218131265114,1.0,1
40.433448791503906,-19.79062843322754,0.15542089939117432,-0.0,-0.0,-1.0,0.07668717076065464,1.0,1
40.826290130615234,-20.385089874267578,0.10508859157562256,-0.0,-0.0,-1.0,0.21786504450210195,1.0,1
40.73580551147461,-20.39814567565918,0.10798120498657227,-0.0,-0.0,-1.0,0.2124866103460527,2.0,1
40.28818130493164,-20.823945999145508,0.10085606575012207,-0.0,-0.0,-1.0,0.07073045826344047,1.0,1
41.38267517089844,-20.215425491333008,0.09194350242614746,-0.0,-0.0,-1.0,0.18135704013931508,2.0,1
41.33855438232422,-20.33475112915039,0.08689093589782715,-0.0,-0.0,-1.0,0.10965653224616548,1.0,1
40.998382568359375,-20.6618595123291,0.08200132846832275,-0.0,-0.0,-1.0,0.22637140724798127,1.0,1
42.23875045776367,-19.541751861572266,0.09350264072418213,0.9305997578694672,0.366036938326375,0.0010249067968651198,0.2541578652088502,4.0,1
41.910362243652344,-19.792438507080078,0.09367585182189941,-0.0,-0.0,-1.0,0.1820388166090362,1.0,1
41.63627624511719,-20.2547607421875,0.07888185977935791,-0.0,-0.0,-1.0,0.16469591940449,1.0,1
41.22752380371094,-21.06003189086914,0.04947638511657715,-0.0,-0.0,-1.0,0.003018522689751298,1.0,1
41.3748893737793,-21.131567001342773,0.03921353816986084,-0.0,-0.0,-1.0,0.0034807309201848294,1.0,1
42.613338470458984,-20.425643920898438,0.02599811553955078,-0.0,-0.0,-1.0,0.026749088712113643,1.0,1
42.27460479736328,-20.56240463256836,0.03334701061248779,-0.0,-0.0,-1.0,0.027895575672724618,1.0,1
42.00708770751953,-20.89372444152832,0.02604353427886963,-0.0,-0.0,-1.0,0.006062421337005405,1.0,1
40.61726760864258,-20.379329681396484,0.32878220081329346,-0.0,-0.0,-1.0,0.18702401394048349,1.0,1
40.97596740722656,-20.309040069580078,0.3225995898246765,-0.22258969658884392,-0.7710275836565789,-0.5966324599057479,0.1320721545067139,4.0,1
40.778099060058594,-20.394468307495117,0.3236902952194214,0.838527187605399,0.4482445599153162,-0.3097563076886489,0.14067311249677414,6.0,1
42.58820343017578,-19.38815689086914,0.10343670845031738,-0.0,-0.0,-1.0,0.10563957894319906,1.0,1
40.27006149291992,-19.926902770996094,0.040308356285095215,-0.0,-0.0,-1.0,0.08363727211700916,2.0,1
42.42342758178711,-19.556251525878906,0.23547375202178955,-0.0,-0.0,-1.0,0.22180973744637494,1.0,1
41.13745880126953,-20.06073760986328,0.44428586959838867,-0.0,-0.0,-1.0,0.12580474167680297,1.0,1
40.96802520751953,-20.164424896240234,0.4711967706680298,-0.0,-0.0,-1.0,0.17723971743521394,1.0,1
42.04005813598633,-20.149311065673828,0.3210124969482422,-0.0,-0.0,-1.0,0.10075919371865087,1.0,1
42.6223030090332,-21.670225143432617,0.28621208667755127,-0.0,-0.0,-1.0,0.06065002165162463,1.0,1
42.615840911865234,-21.778844833374023,0.29044437408447266,-0.0,-0.0,-1.0,0.06077532857381032,1.0,1
40.754966735839844,-19.97625160217285,0.1576251983642578,-0.0,-0.0,-1.0,0.15453220451232563,1.0,1
40.476261138916016,-20.023448944091797,0.18499571084976196,-0.0,-0.0,-1.0,0.08911990396142443,1.0,1
40.592071533203125,-20.306074142456055,0.1730213761329651,-0.0,-0.0,-1.0,0.17708974133991226,1.0,1
40.42320251464844,-20.154258728027344,0.18986546993255615,-0.0,-0.0,-1.0,0.06524709109639004,1.0,1
40.95392608642578,-20.34685516357422,0.36072951555252075,0.4245201060733685,-0.747991761468357,-0.5101872247664776,0.20248493951891702,7.0,1
41.13995361328125,-20.203529357910156,0.35529524087905884,-0.0,-0.0,-1.0,0.14558876345976052,1.0,1
40.91652297973633,-20.374919891357422,0.07941699028015137,-0.0,-0.0,-1.0,0.13004718657305253,2.0,1
40.79561996459961,-20.469520568847656,0.09835958480834961,-0.0,-0.0,-1.0,0.20189500167269242,1.0,1
41.037086486816406,-20.2799072265625,0.06051993370056152,-0.0,-0.0,-1.0,0.1944288637728911,1.0,1
40.76357650756836,-20.437618255615234,0.38155949115753174,-0.03097859156226486,-0.7058861483623148,-0.7076475622900391,0.19915942594058722,4.0,1
40.64354705810547,-20.320205688476562,0.44005823135375977,-0.0,-0.0,-1.0,0.23126577537062767,1.0,1
40.88409423828125,-20.217117309570312,0.4204840064048767,-0.0,-0.0,-1.0,0.2154743361679174,1.0,1
40.73735046386719,-20.462791442871094,0.3985825181007385,0.4367682310949071,-0.7697945668643699,-0.4654565899547709,0.17109483061151134,3.0,1
40.975425720214844,-20.371597290039062,0.38132184743881226,0.13252080983696257,-0.10063128393598061,-0.9860586086301116,0.23818080079665552,6.0,1
40.654518127441406,-20.525283813476562,0.46552640199661255,-0.0,-0.0,-1.0,0.10505677995083217,1.0,1
41.623470306396484,-20.019161224365234,0.3901587724685669,0.47887017033600743,0.046395105052907906,-0.8766589155364205,0.15506190623374735,7.0,1
40.62824249267578,-20.58945083618164,0.30432403087615967,-0.0,-0.0,-1.0,0.1929838037219368,2.0,1
41.419010162353516,-20.180217742919922,0.20851218700408936,-0.0,-0.0,-1.0,0.17129381458967577,1.0,1
42.01123809814453,-19.84276580810547,0.21390414237976074,-0.0,-0.0,-1.0,0.18371492236351689,2.0,1
42.24226379394531,-19.973636627197266,0.20752418041229248,-0.0,-0.0,-1.0,0.16136675619619759,1.0,1
40.75282669067383,-20.52626609802246,0.3242769241333008,0.09338655999166127,0.8226662799742247,-0.5608022309212886,0.1927777260832341,5.0,1
41.01179122924805,-20.31083869934082,0.3099609613418579,-0.22258969658884392,-0.7710275836565789,-0.5966324599057479,0.17514410316870802,4.0,1
41.613861083984375,-20.084775924682617,0.2708185911178589,-0.0,-0.0,-1.0,0.15167096160573731,2.0,1
42.32124328613281,-19.701143264770508,0.2268460988998413,-0.0,-0.0,-1.0,0.14094087066080924,1.0,1
41.403160095214844,-21.654430389404297,0.07260739803314209,-0.0,-0.0,-1.0,0.020812977477949062,1.0,1
41.698638916015625,-20.30445098876953,0.07544183731079102,-0.0,-0.0,-1.0,0.10758607308585157,2.0,1
41.89970397949219,-21.09099578857422,0.04120755195617676,-0.0,-0.0,-1.0,0.004401675034438274,1.0,1
41.97825241088867,-20.241661071777344,0.05173301696777344,-0.0,-0.0,-1.0,0.10042655819732893,1.0,1
42.387962341308594,-20.475997924804688,0.010314106941223145,-0.0,-0.0,-1.0,0.030231642944370977,1.0,1
40.699031829833984,-20.567798614501953,0.15817856788635254,-0.4546171842651831,0.6169182062983545,-0.6424446610474848,0.2338492685269964,3.0,1
41.587764739990234,-20.266963958740234,0.08607673645019531,-0.0,-0.0,-1.0,0.13856779533616323,2.0,1
41.960052490234375,-19.88390350341797,0.060491085052490234,-0.0,-0.0,-1.0,0.17877989550218576,1.0,1
42.31929397583008,-19.511707305908203,0.03522682189941406,-0.0,-0.0,-1.0,0.25291984399069156,1.0,1
42.123661041259766,-19.820371627807617,0.04701125621795654,-0.0,-0.0,-1.0,0.1329001907203546,2.0,1
42.700706481933594,-21.658824920654297,0.10671186447143555,-0.0,-0.0,-1.0,0.060477446504317064,2.0,1
42.66423797607422,-21.855573654174805,0.1025930643081665,-0.0,-0.0,-1.0,0.056199430749859586,2.0,1
40.88404846191406,-20.165922164916992,0.2862532138824463,0.05348193952872914,-0.49081731907999626,-0.8696194808278909,0.19416841289420653,3.0,1
40.753814697265625,-20.454387664794922,0.2854241132736206,-0.0,-0.0,-1.0,0.2030880464771661,2.0,1
41.58349609375,-20.12139320373535,0.23807835578918457,-0.0,-0.0,-1.0,0.18480220192987926,2.0,1
41.94035339355469,-19.73023796081543,0.22531938552856445,-0.8820859092269744,-0.16719465147696083,-0.44042070485016915,0.11131031433038703,3.0,1
42.31571960449219,-19.557973861694336,0.20358598232269287,-0.3951642409256729,-0.33247745315797994,-0.8563316914812975,0.22779772761867398,3.0,1
42.22724914550781,-19.89523696899414,0.19919359683990479,-0.0,-0.0,-1.0,0.13943643086550583,2.0,1
40.21668243408203,-19.391916275024414,0.31792330741882324,-0.0,-0.0,-1.0,0.11267428098554577,1.0,1
40.80903244018555,-20.33866310119629,0.23946213722229004,0.23500373156178633,0.9562160653823129,0.17442500525098134,0.18919920513132588,5.0,1
40.95262145996094,-19.985328674316406,0.24078059196472168,-0.0,-0.0,-1.0,0.19643953253528154,1.0,1
40.91136932373047,-20.23921775817871,0.2351287603378296,-0.0,-0.0,-1.0,0.25620071209862294,2.0,1
41.60729217529297,-19.90367889404297,0.19287514686584473,-0.0,-0.0,-1.0,0.1532669193534976,1.0,1
41.860023498535156,-20.029905319213867,0.16895341873168945,-0.0,-0.0,-1.0,0.17354977434515187,1.0,1
41.84192657470703,-21.651334762573242,0.11432504653930664,-0.0,-0.0,-1.0,0.018723481240072306,1.0,1
42.30473709106445,-19.54410171508789,0.14993786811828613,-0.0,-0.0,-1.0,0.18024896027114856,2.0,1
40.99591827392578,-20.218307495117188,0.3568967580795288,-0.0,-0.0,-1.0,0.22220053577476218,2.0,1
41.77915954589844,-19.876249313354492,0.3140594959259033,-0.0,-0.0,-1.0,0.10092259216077362,1.0,1
40.805145263671875,-20.26850128173828,0.30239295959472656,-0.0,-0.0,-1.0,0.1695137660824063,2.0,1
41.48051452636719,-20.033754348754883,0.26658105850219727,-0.0,-0.0,-1.0,0.17655470164484888,2.0,1
42.15814971923828,-19.523544311523438,0.25517117977142334,-0.0,-0.0,-1.0,0.19263157256168534,1.0,1
40.23827362060547,-21.152021408081055,0.10460710525512695,-0.0,-0.0,-1.0,0.011055354495701119,1.0,1
40.24114990234375,-21.44232177734375,0.10780906677246094,-0.0,-0.0,-1.0,0.006761641334124456,1.0,1
40.36329650878906,-19.98541831970215,0.06732177734375,-0.0,-0.0,-1.0,0.04262648355596262,1.0,1
40.4761848449707,-20.20523452758789,0.05450177192687988,-0.0,-0.0,-1.0,0.08877694795440397,1.0,1
40.69353485107422,-20.226093292236328,0.6923277378082275,-0.0,-0.0,-1.0,0.16607203497127979,1.0,1
40.739662170410156,-20.4052734375,0.5724616050720215,-0.0,-0.0,-1.0,0.1435328904277915,2.0,1
41.70470428466797,-19.89594841003418,0.4279627799987793,-0.0,-0.0,-1.0,0.05197630501520552,1.0,1
42.040809631347656,-19.494558334350586,0.41377925872802734,-0.0,-0.0,-1.0,0.07384887478957737,1.0,1
40.761444091796875,-20.325756072998047,0.6193386316299438,-0.0,-0.0,-1.0,0.16538573273989945,1.0,1
42.54475402832031,-21.723852157592773,0.07155346870422363,-0.0,-0.0,-1.0,0.06077532857381018,1.0,1
42.51001739501953,-21.43273162841797,0.06338858604431152,-0.0,-0.0,-1.0,0.013015900495250646,1.0,1
42.4904899597168,-20.966379165649414,0.04419541358947754,-0.0,-0.0,-1.0,0.019915552625439203,1.0,1
42.58296203613281,-21.16462516784668,0.04041647911071777,-0.0,-0.0,-1.0,0.020663445852156397,2.0,1
42.54601287841797,-19.93534278869629,-0.01726508140563965,-0.0,-0.0,-1.0,0.0531302908448734,2.0,0
42.58601379394531,-19.63019561767578,-0.04015493392944336,-0.0,-0.0,-1.0,0.09890139671401528,1.0,0
40.797515869140625,-20.3208065032959,0.25649356842041016,0.9921416317086519,0.05432871021456861,-0.11270924486001585,0.24308730466306663,5.0,1
41.47685241699219,-20.144847869873047,0.1491084098815918,-0.0,-0.0,-1.0,0.2106957868375689,2.0,1
41.574615478515625,-19.996047973632812,0.12702488899230957,-0.0,-0.0,-1.0,0.1874305417517442,1.0,1
41.83416748046875,-20.035200119018555,0.09147047996520996,-0.0,-0.0,-1.0,0.09581424633801756,2.0,1
42.14575958251953,-19.676532745361328,0.026501893997192383,-0.0,-0.0,-1.0,0.13807842603887305,1.0,1
40.81487274169922,-20.38770866394043,0.45206236839294434,-0.0,-0.0,-1.0,0.13981811042860376,1.0,1
42.27525329589844,-19.530990600585938,0.21178317070007324,-0.0,-0.0,-1.0,0.21496276292759045,2.0,1
42.53145980834961,-21.53765296936035,0.06493330001831055,-0.0,-0.0,-1.0,0.06168489579641237,1.0,1
42.57701110839844,-21.148902893066406,0.04655337333679199,-0.0,-0.0,-1.0,0.017833857847032657,2.0,1
40.76555633544922,-20.397844314575195,0.2929039001464844,0.7765702946344193,0.5083855997686088,-0.37213258314654896,0.10709577016668399,3.0,1
40.86497116088867,-20.13738441467285,0.26897311210632324,0.05348193952872914,-0.49081731907999626,-0.8696194808278909,0.14119518531794836,3.0,1
41.618499755859375,-20.071908950805664,0.1534719467163086,-0.0,-0.0,-1.0,0.2501494198729032,2.0,1
41.622276306152344,-19.977375030517578,0.14937567710876465,-0.0,-0.0,-1.0,0.25588322559061816,1.0,1
41.998687744140625,-19.725868225097656,0.08295917510986328,-0.0,-0.0,-1.0,0.18974154009475006,1.0,1
42.51865005493164,-19.481718063354492,-0.005493640899658203,-0.0,-0.0,-1.0,0.12680422295752217,1.0,0
40.2275505065918,-21.365079879760742,0.10752153396606445,-0.0,-0.0,-1.0,0.00742424542369157,2.0,1
40.458160400390625,-20.406267166137695,0.05670499801635742,-0.0,-0.0,-1.0,0.13836536045195008,1.0,1
40.50708770751953,-20.45650291442871,0.0488893985748291,-0.0,-0.0,-1.0,0.17438562955830259,1.0,1
40.227046966552734,-20.523393630981445,0.09920907020568848,-0.0,-0.0,-1.0,0.05877871711326412,1.0,1
40.40331268310547,-20.240432739257812,0.0636451244354248,-0.0,-0.0,-1.0,0.07988932838088282,1.0,1
40.27579879760742,-20.031522750854492,0.08236479759216309,-0.0,-0.0,-1.0,0.04624304664593221,1.0,1
41.66880416870117,-19.97880744934082,0.4163033962249756,-0.0,-0.0,-1.0,0.14668633031612419,1.0,1
40.715084075927734,-20.47537612915039,0.5640583038330078,-0.0,-0.0,-1.0,0.1629881180199183,2.0,1
42.432308197021484,-21.424156188964844,0.04709339141845703,-0.0,-0.0,-1.0,0.013798044765901709,1.0,1
42.46559143066406,-21.111953735351562,0.03348898887634277,-0.0,-0.0,-1.0,0.016620549823736428,1.0,1
41.616600036621094,-20.118511199951172,0.14932489395141602,-0.0,-0.0,-1.0,0.2002631764937721,2.0,1
41.74991989135742,-20.089338302612305,0.12518906593322754,-0.0,-0.0,-1.0,0.20455010671527357,1.0,1
42.09282302856445,-19.81814956665039,0.055593252182006836,-0.21526548266066745,-0.02471542726439992,-0.9762427565057821,0.14821010937442908,4.0,1
42.440834045410156,-19.599504470825195,-0.013784408569335938,-0.0,-0.0,-1.0,0.13821153737662462,1.0,0
42.61646270751953,-19.76238250732422,-0.037766456604003906,-0.0,-0.0,-1.0,0.0808471945271856,1.0,0
42.48250961303711,-19.419601440429688,-0.028704404830932617,-0.0,-0.0,-1.0,0.12135680988904952,1.0,0
40.77162551879883,-20.47201919555664,0.30667853355407715,0.7015843010199319,0.6867577773391268,0.19011371288414813,0.1254831697470365,4.0,1
40.87168884277344,-20.3372802734375,0.28531837463378906,0.9002443561009136,0.15261665478215272,-0.40776004707616575,0.17908295005287952,3.0,1
40.67548751831055,-19.9183349609375,0.3053760528564453,-0.0,-0.0,-1.0,0.06601368652160955,1.0,1
40.907745361328125,-20.13949203491211,0.2727932929992676,0.05348193952872914,-0.49081731907999626,-0.8696194808278909,0.19848145300755451,3.0,1
40.34217071533203,-21.487686157226562,0.11693596839904785,-0.0,-0.0,-1.0,0.006589708554497442,1.0,1
40.34687805175781,-21.2036075592041,0.1130669116973877,-0.0,-0.0,-1.0,0.010780689260458096,1.0,1
40.45146942138672,-20.643558502197266,0.08226418495178223,-0.0,-0.0,-1.0,0.11501348100999914,1.0,1
40.60700607299805,-20.423908233642578,0.045075178146362305,-0.0,-0.0,-1.0,0.22298381582752388,1.0,1
40.34615707397461,-20.06302833557129,0.09000611305236816,-0.0,-0.0,-1.0,0.05294599262414144,2.0,1
40.572593688964844,-19.926382064819336,0.038460731506347656,-0.0,-0.0,-1.0,0.0836265435045308,2.0,1
40.83789825439453,-20.5701904296875,0.4835512638092041,-0.0,-0.0,-1.0,0.16803120649306402,1.0,1
40.87894058227539,-20.350078582763672,0.46942973136901855,-0.0,-0.0,-1.0,0.15260349674506402,2.0,1
41.57252502441406,-20.045047760009766,0.3381197452545166,-0.0,-0.0,-1.0,0.16172430936919024,2.0,1
41.66911315917969,-20.00836944580078,0.3198819160461426,-0.0,-0.0,-1.0,0.10023140042452704,1.0,1
41.9246826171875,-19.75185203552246,0.2649104595184326,-0.0,-0.0,-1.0,0.11117794516548354,2.0,1
42.37889862060547,-19.593515396118164,0.17854547500610352,-0.0,-0.0,-1.0,0.19633752758233142,1.0,1
42.338130950927734,-19.4571533203125,0.17954111099243164,-0.0,-0.0,-1.0,0.25397051887951005,1.0,1
41.67085266113281,-21.516977310180664,0.03641104698181152,-0.0,-0.0,-1.0,0.017336737571256675,1.0,1
41.75360107421875,-21.19241714477539,0.014908790588378906,-0.0,-0.0,-1.0,0.010502518666902017,1.0,1
41.4029655456543,-20.20746612548828,0.06769418716430664,-0.7385787410231403,0.4978439277997448,-0.45459087855080826,0.16534806969498858,3.0,1
41.59654998779297,-20.12467384338379,0.024074316024780273,-0.0,-0.0,-1.0,0.140840591824176,1.0,1
41.835304260253906,-19.93194007873535,-0.03316974639892578,-0.0,-0.0,-1.0,0.08549290084587206,1.0,0
41.85670471191406,-19.594511032104492,-0.049799442291259766,-0.0,-0.0,-1.0,0.16423590123421575,1.0,0
40.80732345581055,-20.56924819946289,0.20280814170837402,-0.0,-0.0,-1.0,0.1734834315546208,1.0,1
40.84263610839844,-20.29801368713379,0.18915128707885742,-0.0,-0.0,-1.0,0.23396639381212944,2.0,1
41.67105484008789,-20.15761375427246,0.4771759510040283,-0.0,-0.0,-1.0,0.2111331621875981,1.0,1
41.99711608886719,-19.565044403076172,0.3953216075897217,-0.0,-0.0,-1.0,0.07631685921900852,1.0,1
40.8277702331543,-20.37065887451172,0.6336785554885864,-0.0,-0.0,-1.0,0.13527319923316491,1.0,1
40.248252868652344,-21.385059356689453,0.09573793411254883,-0.0,-0.0,-1.0,0.007109347808089596,2.0,1
42.34702682495117,-21.662168502807617,0.04922795295715332,-0.0,-0.0,-1.0,0.05382583561780329,1.0,1
42.41649627685547,-21.66217803955078,0.03453230857849121,-0.0,-0.0,-1.0,0.061733748346903344,2.0,1
42.38246154785156,-21.274316787719727,0.035504817962646484,-0.0,-0.0,-1.0,0.01578034392419619,1.0,1
40.415767669677734,-20.592315673828125,0.0511012077331543,-0.0,-0.0,-1.0,0.09507903747522684,1.0,1
40.513885498046875,-20.576635360717773,0.026312589645385742,-0.0,-0.0,-1.0,0.08497328734899255,1.0,1
42.38123321533203,-21.02022933959961,0.03058910369873047,-0.0,-0.0,-1.0,0.02101513742841904,1.0,1
40.39505386352539,-20.18565559387207,0.0499272346496582,-0.0,-0.0,-1.0,0.060965191693573804,1.0,1
40.46729278564453,-19.839506149291992,0.023232698440551758,-0.0,-0.0,-1.0,0.08981255464472204,2.0,1
40.637451171875,-19.868074417114258,-0.01937246322631836,-0.0,-0.0,-1.0,0.06313385645219853,1.0,0
42.40315628051758,-19.982751846313477,-0.005485057830810547,-0.0,-0.0,-1.0,0.07560043182117827,1.0,0
42.487342834472656,-19.645050048828125,-0.03776717185974121,-0.0,-0.0,-1.0,0.10311981893226303,1.0,0
40.833805084228516,-20.536895751953125,0.35555362701416016,-0.0,-0.0,-1.0,0.21973301686007957,1.0,1
40.91825866699219,-20.4985294342041,0.33630943298339844,-0.0,-0.0,-1.0,0.07980561739442583,1.0,1
40.85165023803711,-20.265335083007812,0.3446221351623535,-0.0,-0.0,-1.0,0.22247537130392042,2.0,1
40.97903060913086,-20.309423446655273,0.3181116580963135,-0.22258969658884392,-0.7710275836565789,-0.5966324599057479,0.13207215450671392,4.0,1
41.58979797363281,-20.24755859375,0.1826176643371582,-0.0,-0.0,-1.0,0.12123581864918757,2.0,1
41.84058380126953,-20.216768264770508,0.12661051750183105,-0.0,-0.0,-1.0,0.12675421349538232,2.0,1
41.63163757324219,-20.023990631103516,0.16603946685791016,-0.0,-0.0,-1.0,0.22978024044728004,1.0,1
40.25394058227539,-19.427616119384766,0.44751930236816406,-0.0,-0.0,-1.0,0.11267428098554579,1.0,1
41.716552734375,-19.475021362304688,0.12570619583129883,-0.0,-0.0,-1.0,0.0617588162597815,1.0,1
42.06330490112305,-19.786182403564453,0.0619814395904541,0.43815425715104533,0.547114359107569,-0.7132227737521634,0.1594577894910451,3.0,1
41.430030822753906,-21.81825828552246,0.05644679069519043,-0.0,-0.0,-1.0,0.021740088500108237,1.0,1
41.420833587646484,-21.507789611816406,0.05984139442443848,-0.0,-0.0,-1.0,0.020502922498136802,1.0,1
41.48161315917969,-21.733657836914062,0.04409289360046387,-0.0,-0.0,-1.0,0.023296148493356966,1.0,1
41.49260711669922,-21.195159912109375,0.040973663330078125,-0.0,-0.0,-1.0,0.00940368128659194,2.0,1
41.51318359375,-21.19112205505371,0.03578305244445801,-0.0,-0.0,-1.0,0.00872586845124456,2.0,1
41.37298583984375,-20.852298736572266,0.06852269172668457,-0.0,-0.0,-1.0,0.007822193452376528,1.0,1
41.480560302734375,-20.290733337402344,0.031087160110473633,-0.0,-0.0,-1.0,0.13299532174270953,1.0,1
40.23316955566406,-19.867656707763672,-0.008191108703613281,-0.0,-0.0,-1.0,0.08363727211700922,1.0,0
41.4864501953125,-20.07476234436035,0.024003982543945312,-0.0,-0.0,-1.0,0.21375460017904055,2.0,1
41.70878601074219,-19.853124618530273,-0.040480613708496094,-0.0,-0.0,-1.0,0.10498560777978169,1.0,0
41.42418670654297,-19.44635009765625,0.018460988998413086,-0.0,-0.0,-1.0,0.08021921951876403,2.0,1
41.76578140258789,-19.692068099975586,-0.061058998107910156,0.2757497884080849,0.6139553460207762,-0.7396086041180194,0.09610618224771748,4.0,0
40.7420539855957,-20.583328247070312,0.22579693794250488,-0.0,-0.0,-1.0,0.22774637697311834,1.0,1
40.80381774902344,-20.6634464263916,0.21112728118896484,-0.0,-0.0,-1.0,0.16339652216999195,1.0,1
40.77665328979492,-20.30695152282715,0.2124474048614502,-0.31485794502376446,-0.33676962388473886,-0.8873841867443572,0.23289476220456312,3.0,1
40.837100982666016,-20.30864143371582,0.19674944877624512,-0.7945555046412699,0.1931068401189147,-0.5756659607303053,0.2227169355009325,4.0,1
40.97454833984375,-20.071517944335938,0.15626120567321777,-0.0,-0.0,-1.0,0.1981486745446931,1.0,1
41.619110107421875,-20.037012100219727,0.38454413414001465,0.47887017033600743,0.046395105052907906,-0.8766589155364205,0.15506190623374744,7.0,1
42.39712905883789,-19.956323623657227,0.20787382125854492,-0.0,-0.0,-1.0,0.11268286765245271,1.0,1
41.939327239990234,-19.713085174560547,0.3002586364746094,-0.0,-0.0,-1.0,0.09639769018424585,1.0,1
42.32692337036133,-19.581289291381836,0.20746827125549316,-0.0,-0.0,-1.0,0.22704089092068205,2.0,1
40.719051361083984,-20.44658088684082,0.5963568687438965,-0.5462005311272703,0.6574561894829665,-0.5190533100817541,0.19823398966239736,3.0,1
40.61029052734375,-21.803293228149414,0.13602614402770996,-0.0,-0.0,-1.0,0.011790270723541545,1.0,1
40.82326889038086,-21.658954620361328,0.08991813659667969,-0.0,-0.0,-1.0,0.012083145726296866,1.0,1
41.007545471191406,-21.396495819091797,0.05819392204284668,-0.0,-0.0,-1.0,0.01193742484642721,1.0,1
42.40220260620117,-21.69287872314453,0.05896639823913574,-0.0,-0.0,-1.0,0.05690052937568271,2.0,1
42.417877197265625,-21.855243682861328,0.04690241813659668,-0.0,-0.0,-1.0,0.056900529375682636,1.0,1
40.88932418823242,-20.9083251953125,0.12095475196838379,-0.0,-0.0,-1.0,0.042213598710779204,1.0,1
41.01688003540039,-21.156450271606445,0.07111048698425293,-0.0,-0.0,-1.0,0.011978480819142793,1.0,1
42.472496032714844,-21.35917854309082,0.057523250579833984,-0.0,-0.0,-1.0,0.014608443558359963,1.0,1
42.5611572265625,-21.320905685424805,0.03772783279418945,-0.0,-0.0,-1.0,0.014255583718266194,1.0,1
40.8786735534668,-20.67977523803711,0.13595962524414062,-0.0,-0.0,-1.0,0.16796392094222518,1.0,1
41.06475830078125,-20.40950584411621,0.09579896926879883,-0.0,-0.0,-1.0,0.18820301059959668,1.0,1
42.66382598876953,-20.896373748779297,0.02845931053161621,-0.0,-0.0,-1.0,0.0214815344540355,1.0,1
41.03564453125,-20.301795959472656,0.1082308292388916,-0.0,-0.0,-1.0,0.18159152827262823,1.0,1
41.32963562011719,-20.246654510498047,0.0265963077545166,-0.0,-0.0,-1.0,0.09244315508007639,1.0,1
42.48721694946289,-20.52272605895996,0.08341336250305176,-0.0,-0.0,-1.0,0.030550021231643347,1.0,1
41.33839416503906,-20.04088020324707,0.030777454376220703,-0.0,-0.0,-1.0,0.1837988419391205,1.0,1
41.709861755371094,-19.807615280151367,-0.0700225830078125,-0.0,-0.0,-1.0,0.10127092702135554,1.0,0
41.39060974121094,-19.378795623779297,0.028576374053955078,-0.0,-0.0,-1.0,0.07093085350693495,2.0,1
41.72003173828125,-19.68877601623535,-0.0706477165222168,-0.0,-0.0,-1.0,0.12923607449585223,2.0,0
40.77932357788086,-20.49526023864746,0.33996009826660156,-0.8534968819271095,0.5165004054097537,-0.06906810951706559,0.16408798789523096,4.0,1
40.97663497924805,-20.377647399902344,0.4614286422729492,-0.0,-0.0,-1.0,0.15336508102537144,1.0,1
41.301300048828125,-20.239154815673828,0.38484930992126465,-0.0,-0.0,-1.0,0.09581567240475808,1.0,1
41.754032135009766,-20.24337387084961,0.2725811004638672,-0.0,-0.0,-1.0,0.12224536746879051,1.0,1
41.71326446533203,-19.955541610717773,0.2885167598724365,-0.0,-0.0,-1.0,0.11847179754577249,1.0,1
42.112892150878906,-19.873180389404297,0.1900930404663086,-0.0,-0.0,-1.0,0.1725608204455636,1.0,1
41.92751693725586,-19.6981143951416,0.23883366584777832,-0.0,-0.0,-1.0,0.14121438829489374,2.0,1
42.35365676879883,-19.625070571899414,0.13236355781555176,-0.0,-0.0,-1.0,0.23682586260214786,1.0,1
41.678688049316406,-21.769800186157227,0.06509041786193848,-0.0,-0.0,-1.0,0.01977173395804974,2.0,1
41.91642379760742,-21.589269638061523,0.02953815460205078,-0.0,-0.0,-1.0,0.016169784814324344,1.0,1
42.02811813354492,-21.357810974121094,0.028911590576171875,-0.0,-0.0,-1.0,0.0066537499168725514,1.0,1
42.17483139038086,-21.13733673095703,0.016887187957763672,-0.0,-0.0,-1.0,0.011639525540087198,1.0,1
41.77082824707031,-20.248004913330078,0.2032167911529541,-0.0,-0.0,-1.0,0.2063398953816557,1.0,1
42.13531494140625,-20.409141540527344,0.09713387489318848,-0.0,-0.0,-1.0,0.040029998386248974,1.0,1
41.99557113647461,-19.846420288085938,0.17765021324157715,-0.0,-0.0,-1.0,0.2025153460570989,2.0,1
42.68656921386719,-20.208833694458008,-0.025979995727539062,-0.0,-0.0,-1.0,0.03729529073840286,1.0,0
42.44980239868164,-19.684160232543945,0.07268166542053223,-0.0,-0.0,-1.0,0.14060241091310519,1.0,1
40.77508544921875,-20.65090560913086,0.41514158248901367,-0.0,-0.0,-1.0,0.22008814649916963,1.0,1
40.94287872314453,-20.408031463623047,0.39739084243774414,-0.0,-0.0,-1.0,0.2394574575271874,1.0,1
41.44035720825195,-20.115802764892578,0.29804420471191406,-0.2587233025717661,0.03242315295591471,-0.9654071637701659,0.18983603508900437,3.0,1
42.57878112792969,-21.42676544189453,0.05248904228210449,-0.0,-0.0,-1.0,0.010913731690411828,2.0,1
42.579322814941406,-21.66281509399414,0.038428306579589844,-0.0,-0.0,-1.0,0.061667061566190576,1.0,1
42.28502655029297,-19.764095306396484,0.18788790702819824,-0.0,-0.0,-1.0,0.0957186256344359,2.0,1
40.65732955932617,-20.523860931396484,0.5960609912872314,-0.7738180323445399,0.1072865387204543,-0.6242557580253538,0.1743923102801454,4.0,1
41.599605560302734,-20.088563919067383,0.36395835876464844,0.9105961658497744,-0.204054839887767,-0.3594109695850535,0.2211249692176441,5.0,1
41.62937927246094,-20.176555633544922,0.3537299633026123,-0.0,-0.0,-1.0,0.16465289889094573,1.0,1
41.799808502197266,-19.78629493713379,0.3171069622039795,-0.0,-0.0,-1.0,0.1640123323002909,1.0,1
42.67939758300781,-21.628929138183594,0.05039262771606445,-0.0,-0.0,-1.0,0.06047744650431699,1.0,1
42.39008331298828,-19.659008026123047,0.1792440414428711,-0.0,-0.0,-1.0,0.22140825089304303,1.0,1
41.24596405029297,-20.249710083007812,0.49045872688293457,-0.0,-0.0,-1.0,0.09044635599228565,2.0,1
41.62765884399414,-20.050168991088867,0.3883981704711914,0.4686675350947004,-0.3985406573386269,-0.7883629151579575,0.1550619062337474,7.0,1
41.897674560546875,-19.79869270324707,0.31555700302124023,-0.0,-0.0,-1.0,0.1251630293168294,1.0,1
42.26321029663086,-19.69121742248535,0.21422600746154785,-0.0,-0.0,-1.0,0.18079188385809997,1.0,1
42.296443939208984,-19.946285247802734,0.20467233657836914,-0.0,-0.0,-1.0,0.13025991122664737,1.0,1
40.69257736206055,-20.43195343017578,0.6377484798431396,0.6497953133436903,0.1825697516344881,-0.7378579379153529,0.19635755496524537,3.0,1
41.65238571166992,-20.04380226135254,0.38835573196411133,0.35650954406792423,0.39044719902209085,-0.8487943978162701,0.17067026709720096,5.0,1
41.67670440673828,-20.17821502685547,0.38480401039123535,-0.0,-0.0,-1.0,0.18989966308411346,1.0,1
42.706504821777344,-21.668132781982422,0.08481431007385254,-0.0,-0.0,-1.0,0.06047744650431692,2.0,1
42.27750015258789,-19.786508560180664,0.1963186264038086,-0.0,-0.0,-1.0,0.09331441559149352,2.0,1
40.71807861328125,-20.394792556762695,0.6704874038696289,-0.0,-0.0,-1.0,0.16336255815441567,2.0,1
41.30866622924805,-20.2830867767334,0.49517035484313965,-0.0,-0.0,-1.0,0.07009915458707194,2.0,1
41.68974304199219,-19.601612091064453,0.3407433032989502,-0.0,-0.0,-1.0,0.1337064237139905,1.0,1
40.64762878417969,-20.394481658935547,0.5235989093780518,-0.0,-0.0,-1.0,0.1190551201529182,1.0,1
40.79402160644531,-19.797250747680664,-0.005167484283447266,-0.0,-0.0,-1.0,0.07315373248244884,1.0,0
40.71442413330078,-19.541351318359375,-0.005909919738769531,-0.0,-0.0,-1.0,0.04593733896552683,1.0,0
40.86787033081055,-20.169370651245117,0.0013697147369384766,-0.0,-0.0,-1.0,0.16568235722631067,1.0,1
40.738311767578125,-20.108795166015625,0.019742727279663086,-0.0,-0.0,-1.0,0.11005779706345205,1.0,1
40.717132568359375,-20.919918060302734,0.05983424186706543,-0.0,-0.0,-1.0,0.04864725722098848,1.0,1
40.63121032714844,-20.781763076782227,0.06836462020874023,-0.0,-0.0,-1.0,0.09575054716189248,2.0,1
40.51058578491211,-20.30457305908203,0.0665895938873291,-0.0,-0.0,-1.0,0.15094291450954156,1.0,1
40.88507843017578,-21.54166030883789,0.05505204200744629,-0.0,-0.0,-1.0,0.013089984276674774,2.0,1
40.663917541503906,-21.211694717407227,0.0802614688873291,-0.0,-0.0,-1.0,0.006089833240059995,1.0,1
40.44679641723633,-20.734106063842773,0.09694862365722656,-0.0,-0.0,-1.0,0.1177087208404799,1.0,1
40.738677978515625,-21.822595596313477,0.08901166915893555,-0.0,-0.0,-1.0,0.010688823984352815,1.0,1
41.756805419921875,-19.661876678466797,-0.03784489631652832,0.2978569478056652,0.5965751034508471,-0.7452378040508311,0.13546716204890488,4.0,0
42.02452850341797,-21.209163665771484,0.036208152770996094,-0.0,-0.0,-1.0,0.007283618260104707,1.0,1
41.94392395019531,-20.990650177001953,0.03362631797790527,-0.0,-0.0,-1.0,0.005862709793659708,1.0,1
41.851871490478516,-20.733957290649414,0.029659032821655273,-0.0,-0.0,-1.0,0.005780935588278755,1.0,1
41.444828033447266,-20.01508140563965,0.03658151626586914,-0.0,-0.0,-1.0,0.18803956405874375,1.0,1
41.27813720703125,-19.438899993896484,0.014101743698120117,-0.0,-0.0,-1.0,0.06171296762078198,1.0,1
41.98011016845703,-21.457359313964844,0.05892753601074219,-0.0,-0.0,-1.0,0.015105659666669534,2.0,1
41.56141662597656,-20.6590518951416,0.06782054901123047,-0.0,-0.0,-1.0,0.017962164775200365,1.0,1
41.683204650878906,-21.82849884033203,0.12696099281311035,-0.4655130090042573,-0.2866721686182505,-0.8373271201791516,0.019091994913029025,3.0,1
40.73126983642578,-20.666767120361328,0.19250082969665527,-0.0,-0.0,-1.0,0.1708729240769348,1.0,1
40.68354034423828,-20.45132064819336,0.18346095085144043,-0.0,-0.0,-1.0,0.2694790553677309,2.0,1
42.29813003540039,-19.654521942138672,0.08734607696533203,-0.3896096407773327,0.7545929982331521,-0.5280092185093551,0.22075852712928937,4.0,1
42.23711395263672,-19.526844024658203,0.0882863998413086,0.9894518075492534,0.13057021797601978,0.06274184182194742,0.2541578652088502,3.0,1
40.734535217285156,-20.416093826293945,0.35372352600097656,0.697269248255089,0.30685052512914124,-0.6478104280310354,0.14769200621277548,6.0,1
