x,y,z,nx,ny,nz,curvature,density,label
26.513851165771484,-7.513723373413086,0.008186578750610352,-0.0,-0.0,-1.0,0.07463968420928886,1.0,1
26.498027801513672,-8.856541633605957,-0.08147430419921875,-0.0,-0.0,-1.0,0.026962737007801864,1.0,0
25.240550994873047,-9.016036987304688,-0.08960020542144775,-0.0,-0.0,-1.0,0.00690961235702135,1.0,0
26.693313598632812,-7.099380970001221,0.021480798721313477,-0.44438066363398454,-0.22381284716110247,-0.8674293257861764,0.08549871420602309,6.0,1
26.473369598388672,-7.383270263671875,-0.02349841594696045,-0.0,-0.0,-1.0,0.25418081606502135,2.0,0
26.477296829223633,-7.915959358215332,-0.05720317363739014,-0.0,-0.0,-1.0,0.046793637975340675,2.0,0
26.229360580444336,-7.6117448806762695,-0.13888847827911377,-0.0,-0.0,-1.0,0.027370406079120394,1.0,0
26.560197830200195,-7.990151405334473,-0.127646803855896,-0.0,-0.0,-1.0,0.060916227597690296,2.0,0
27.1850643157959,-8.584779739379883,-0.10529971122741699,-0.0,-0.0,-1.0,0.1356979937290486,2.0,0
26.972366333007812,-9.022045135498047,-0.18052875995635986,-0.0,-0.0,-1.0,0.03381666229931642,1.0,0
27.637989044189453,-6.983222961425781,-0.22088444232940674,-0.0,-0.0,-1.0,0.09958210588817402,1.0,0
26.355587005615234,-6.948185920715332,0.04330742359161377,-0.2578568821065264,-0.1612821670634326,-0.9526268371915753,0.07104682209630832,4.0,1
26.479652404785156,-7.176068305969238,0.040035128593444824,-0.1854419835890469,0.6597407054453043,-0.7282537142377595,0.13761073096767265,4.0,1
26.864070892333984,-9.109952926635742,-0.14130735397338867,-0.0,-0.0,-1.0,0.03693223307158187,1.0,0
25.4201717376709,-7.9377593994140625,-0.09981429576873779,0.19417653612227478,-0.28893635585504035,-0.9374493346761544,0.020281201895423834,3.0,0
27.177167892456055,-8.617685317993164,-0.09447360038757324,0.2920408948721613,-0.2743355710898359,-0.916216191822149,0.1187540306754978,5.0,0
27.135875701904297,-8.802730560302734,-0.1260848045349121,-0.0,-0.0,-1.0,0.045441565934548,2.0,0
26.906749725341797,-8.003155708312988,-0.16719567775726318,-0.0203947422420707,0.8339688253081988,-0.5514345409048497,0.050512236211831006,4.0,0
26.205732345581055,-7.416650772094727,-0.1320558786392212,-0.0,-0.0,-1.0,0.042153989227838244,1.0,0
27.235767364501953,-8.54378890991211,-0.1259763240814209,-0.0,-0.0,-1.0,0.19059278022658,1.0,0
27.157833099365234,-8.74436092376709,-0.16687381267547607,-0.0,-0.0,-1.0,0.07295664142597973,1.0,0
25.469161987304688,-7.893744468688965,-0.09912109375,0.03190311000921367,0.1734765373525482,-0.984321127762637,0.018285802135612247,3.0,0
26.48253631591797,-9.131545066833496,-0.16547834873199463,-0.0,-0.0,-1.0,0.032957137572927536,1.0,0
26.746110916137695,-7.040812969207764,-0.11803817749023438,-0.0,-0.0,-1.0,0.22018643970073856,1.0,0
26.54448127746582,-7.127079010009766,-0.018152356147766113,-0.0,-0.0,-1.0,0.14705484245372394,1.0,0
25.408939361572266,-7.5588059425354,-0.14586865901947021,-0.0,-0.0,-1.0,0.02702572325187933,1.0,0
27.551105499267578,-6.8984575271606445,-0.2200155258178711,-0.08835450102532297,-0.8853801112048552,-0.4563940630983758,0.09833460217590247,4.0,0
26.523284912109375,-9.110584259033203,-0.06847000122070312,-0.29188921116523003,0.338147893377751,-0.8946824523871744,0.041620841893197286,5.0,0
26.429061889648438,-6.987435340881348,0.05064737796783447,0.4589517284028664,-0.009912424864559252,-0.8884059065704858,0.08288942431634781,4.0,1
25.22739028930664,-8.400747299194336,0.025640010833740234,-0.0,-0.0,-1.0,0.07351200984866978,1.0,1
26.19927978515625,-7.940883636474609,-0.10985147953033447,0.8497512134162593,0.04727438400088256,-0.5250600041089897,0.032066861656239676,5.0,0
26.31596565246582,-6.996482849121094,-0.028975486755371094,0.8193832632012247,-0.40322707016454995,-0.4074542893039977,0.16538532011281923,4.0,0
26.845338821411133,-6.873974800109863,-0.05225491523742676,-0.0,-0.0,-1.0,0.20304874377195922,2.0,0
26.08087730407715,-7.010148525238037,-0.0701289176940918,-0.0,-0.0,-1.0,0.06386745211126402,1.0,0
26.293556213378906,-7.026555061340332,-0.016525983810424805,0.7226293117809521,-0.6900532517773331,-0.04041518856218028,0.15330604386489297,5.0,0
26.255840301513672,-7.0349249839782715,-0.04015326499938965,0.5620177916376371,-0.8250715139205688,-0.05824945321266567,0.13453439826371513,5.0,0
27.16609764099121,-7.381344318389893,-0.17546474933624268,-0.0,-0.0,-1.0,0.019934905193389557,2.0,0
26.470542907714844,-8.415205001831055,-0.12274742126464844,-0.0,-0.0,-1.0,0.033501853746419286,2.0,0
26.43968391418457,-7.0881028175354,0.0679616928100586,-0.0,-0.0,-1.0,0.08200775831791951,1.0,1
26.045949935913086,-8.639649391174316,-0.06539833545684814,-0.2782430489107409,-0.9463591296584758,-0.1642717365979516,0.014653651867751059,4.0,0
27.298015594482422,-7.25665807723999,-0.15323960781097412,-0.0,-0.0,-1.0,0.02597223064444715,2.0,0
26.346364974975586,-7.03135871887207,0.03113532066345215,-0.0,-0.0,-1.0,0.07921950148157882,2.0,1
26.812145233154297,-6.953048229217529,-0.007739424705505371,-0.5690161115875484,-0.30418369140605006,-0.7639980017227636,0.20189125869196392,5.0,0
27.375656127929688,-8.783454895019531,-0.07169818878173828,-0.0,-0.0,-1.0,0.10894398768944759,2.0,0
25.59786605834961,-8.939356803894043,-0.12788772583007812,-0.0,-0.0,-1.0,0.038290157781098545,1.0,0
26.105613708496094,-7.875990867614746,-0.1351933479309082,-0.0,-0.0,-1.0,0.030422762477965035,1.0,0
26.41912078857422,-7.042022705078125,0.01282358169555664,0.326821530211344,-0.3497841042754797,-0.8779742409584215,0.0890678551855652,3.0,1
25.76209259033203,-9.252046585083008,-0.07706952095031738,-0.0,-0.0,-1.0,0.05742368800861306,1.0,0
26.597261428833008,-8.103423118591309,-0.07749104499816895,-0.0,-0.0,-1.0,0.04495505733877482,1.0,0
26.40354347229004,-7.318019866943359,0.04503345489501953,-0.0,-0.0,-1.0,0.12682298059459945,1.0,1
25.348438262939453,-8.314823150634766,-0.0977180004119873,-0.5518188286364258,-0.823983686192517,0.1286346191774001,0.11647001116805575,3.0,0
27.595226287841797,-7.019412040710449,-0.18813347816467285,-0.0,-0.0,-1.0,0.10361960627770392,1.0,0
26.373302459716797,-8.068613052368164,-0.07506394386291504,-0.0,-0.0,-1.0,0.06685473146926174,2.0,0
26.757545471191406,-6.95719051361084,-0.007986307144165039,-0.0,-0.0,-1.0,0.19550253421310249,2.0,0
26.5064754486084,-7.289102554321289,0.032423973083496094,-0.0,-0.0,-1.0,0.16190086245667637,2.0,1
27.2416934967041,-8.685702323913574,-0.08417630195617676,-0.0,-0.0,-1.0,0.11344306439626888,1.0,0
26.447725296020508,-9.018548011779785,-0.07122230529785156,-0.2538914354312984,0.22345618217129096,-0.9410666680230819,0.040095222418660675,4.0,0
26.02134132385254,-7.5352020263671875,-0.08815526962280273,-0.0,-0.0,-1.0,0.03152139201331296,2.0,0
26.552509307861328,-7.479318618774414,-0.06740570068359375,-0.0,-0.0,-1.0,0.09843286117109609,2.0,0
26.513229370117188,-7.4703826904296875,-0.07806205749511719,-0.0,-0.0,-1.0,0.13300052493570133,2.0,0
26.529457092285156,-7.059093475341797,0.030349016189575195,0.5633903612307236,-0.6204446266820948,-0.5455637140551329,0.10918071023295435,5.0,1
26.832733154296875,-6.901189804077148,-0.07286357879638672,-0.0,-0.0,-1.0,0.19421754900802463,2.0,0
26.476102828979492,-7.362936019897461,0.006819963455200195,-0.0,-0.0,-1.0,0.16708873911006641,2.0,1
26.90069580078125,-9.111337661743164,-0.18665409088134766,-0.0,-0.0,-1.0,0.036221321556919504,2.0,0
26.12078857421875,-6.90839958190918,-0.0181121826171875,-0.0,-0.0,-1.0,0.06814007766784286,1.0,0
27.352754592895508,-7.22734260559082,-0.1020510196685791,-0.0,-0.0,-1.0,0.024938460722312452,1.0,0
26.563617706298828,-7.398216247558594,0.013009786605834961,-0.0,-0.0,-1.0,0.1545330084249107,1.0,1
26.994626998901367,-8.224523544311523,-0.1644120216369629,-0.08874138456347468,-0.12004617943729962,-0.9887941552559183,0.019187130579905492,3.0,0
27.55855369567871,-8.246103286743164,-0.19320225715637207,-0.0,-0.0,-1.0,0.024381368170292485,1.0,0
26.830787658691406,-7.195789337158203,-0.0924978256225586,-0.0,-0.0,-1.0,0.07914191657859351,1.0,0
25.727495193481445,-6.893665313720703,-0.14484047889709473,-0.0,-0.0,-1.0,0.020974469132797765,2.0,0
26.48664093017578,-7.914384841918945,-0.08181524276733398,0.1083204568170383,0.8380815534243985,-0.5346830728989793,0.04597977044680434,4.0,0
27.16066551208496,-7.645223617553711,-0.18568801879882812,-0.3882797137584152,-0.9190797670112082,-0.06731452855295582,0.017786351915652407,3.0,0
26.709068298339844,-8.004154205322266,-0.11177396774291992,-0.0,-0.0,-1.0,0.028771971000242702,1.0,0
27.162677764892578,-6.914239883422852,-0.136796236038208,-0.0,-0.0,-1.0,0.07026399280522891,1.0,0
26.69049644470215,-7.336481094360352,-0.05967974662780762,-0.0,-0.0,-1.0,0.1077814550785801,2.0,0
25.254785537719727,-8.221694946289062,0.09076118469238281,-0.0,-0.0,-1.0,0.09311224720124653,2.0,1
26.497848510742188,-7.2783918380737305,-0.06470680236816406,-0.0,-0.0,-1.0,0.17710171059075094,2.0,0
26.846044540405273,-6.960936546325684,-0.034618377685546875,-0.5603306536959568,-0.42831022924876117,-0.7089287030791849,0.24343917183958313,5.0,0
26.566486358642578,-9.092912673950195,-0.07376694679260254,-0.24062533262550143,0.31487597155626934,-0.9181244860231985,0.04817109663203872,4.0,0
25.238994598388672,-8.402231216430664,-0.026394128799438477,-0.0,-0.0,-1.0,0.08049548084338953,1.0,0
26.552413940429688,-7.308306694030762,-0.013147115707397461,-0.2926510323421895,0.17283120740908023,-0.9404704923678202,0.18031353905708203,3.0,0
26.82756805419922,-8.018654823303223,-0.1316821575164795,-0.14920545626628665,0.9008019473180077,-0.40779110280688363,0.04981796259803693,4.0,0
26.54590606689453,-9.127945899963379,-0.07989263534545898,-0.26471451699435466,0.16076858981461806,-0.9508310496725821,0.055382551283843104,6.0,0
26.450592041015625,-7.292970180511475,-0.13580012321472168,-0.0,-0.0,-1.0,0.17995254324931134,1.0,0
25.862628936767578,-8.42422866821289,-0.13254880905151367,-0.42909700851490334,-0.5999183977652448,-0.6752582271296981,0.052732554536101615,3.0,0
26.94413185119629,-6.879080772399902,-0.15695714950561523,-0.0,-0.0,-1.0,0.12657439592297512,2.0,0
27.454082489013672,-8.529163360595703,-0.08343887329101562,-0.0,-0.0,-1.0,0.08399902359591846,1.0,0
26.71741485595703,-8.892727851867676,-0.12188863754272461,-0.0,-0.0,-1.0,0.02821453402835535,2.0,0
26.802352905273438,-7.8329668045043945,-0.17324447631835938,-0.0,-0.0,-1.0,0.03642426051888083,1.0,0
26.85662841796875,-9.040993690490723,-0.06992578506469727,-0.0,-0.0,-1.0,0.03491677913799537,1.0,0
26.715303421020508,-7.791500568389893,-0.0973672866821289,-0.0,-0.0,-1.0,0.02641007566867669,1.0,0
25.290077209472656,-8.683673858642578,0.020783424377441406,-0.0,-0.0,-1.0,0.09847708813512586,1.0,1
27.40216064453125,-8.582635879516602,-0.09121513366699219,0.005011879425211179,0.3617717132476545,-0.9322532427181385,0.12702876742955546,4.0,0
26.652135848999023,-7.353729724884033,-0.06714820861816406,0.017056134656455748,0.36509880796171135,-0.93081252070195,0.11759613942321176,3.0,0
26.904571533203125,-8.45112133026123,-0.10255956649780273,-0.0,-0.0,-1.0,0.03050505248264978,1.0,0
26.979339599609375,-7.499435901641846,-0.17786121368408203,-0.0,-0.0,-1.0,0.016301191614736386,2.0,0
27.6834774017334,-8.416738510131836,-0.20864248275756836,-0.0,-0.0,-1.0,0.026790051929534264,2.0,0
26.833328247070312,-7.305469989776611,-0.10974264144897461,-0.0,-0.0,-1.0,0.03222177253219207,2.0,0
27.194290161132812,-8.771554946899414,-0.13125181198120117,-0.0,-0.0,-1.0,0.07238057696832098,1.0,0
26.33370590209961,-6.965373516082764,-0.0009036064147949219,-0.0,-0.0,-1.0,0.07497037347239753,2.0,0
27.226423263549805,-8.641288757324219,-0.15433406829833984,-0.0,-0.0,-1.0,0.144626191248535,2.0,0
25.366588592529297,-9.03714656829834,-0.08505797386169434,0.12231060724204088,-0.08259403439766652,-0.9890492105239251,0.008515548831265676,3.0,0
25.446380615234375,-8.7180814743042,-0.09185528755187988,-0.0,-0.0,-1.0,0.0263268774725765,1.0,0
25.662565231323242,-8.340452194213867,-0.11546039581298828,-0.7886813715008594,-0.4906134194098842,-0.37051338294650615,0.02199608509285443,3.0,0
25.73845100402832,-8.164968490600586,-0.12355589866638184,-0.0,-0.0,-1.0,0.016688857136774697,2.0,0
25.44214630126953,-7.969951629638672,-0.08534049987792969,0.8384971248502047,0.41204843956272286,-0.3565650783123126,0.021698495597825013,3.0,0
25.768959045410156,-7.825600624084473,-0.12508606910705566,-0.7273695431826579,0.2759527432759968,-0.628318097088333,0.017294461799302868,3.0,0
25.813953399658203,-7.546828746795654,-0.12911295890808105,-0.0,-0.0,-1.0,0.015295045283595118,2.0,0
25.832237243652344,-7.17739725112915,-0.12964630126953125,-0.0,-0.0,-1.0,0.04662739857042173,1.0,0
26.031709671020508,-9.072770118713379,-0.20981693267822266,-0.0,-0.0,-1.0,0.03728702412056059,1.0,0
26.393522262573242,-8.611605644226074,-0.2447519302368164,-0.0,-0.0,-1.0,0.04004926074011798,1.0,0
26.374271392822266,-8.062189102172852,-0.2128901481628418,-0.0,-0.0,-1.0,0.062263683003423144,1.0,0
26.67184829711914,-8.280769348144531,-0.2747764587402344,-0.0,-0.0,-1.0,0.030159039916605967,1.0,0
26.886594772338867,-7.963553428649902,-0.2959632873535156,-0.0,-0.0,-1.0,0.06246526404524804,1.0,0
27.028732299804688,-7.817141532897949,-0.31357765197753906,-0.0,-0.0,-1.0,0.05502503496029415,1.0,0
26.386301040649414,-7.343490123748779,-0.18145132064819336,-0.0,-0.0,-1.0,0.13218231527371066,1.0,0
27.60289764404297,-6.987726211547852,-0.37874507904052734,-0.0,-0.0,-1.0,0.10438314570848066,1.0,0
26.271398544311523,-6.998262882232666,-0.14693737030029297,-0.0,-0.0,-1.0,0.1265307922163141,1.0,0
27.587350845336914,-9.241775512695312,-0.14677190780639648,-0.0,-0.0,-1.0,0.026682511257200774,2.0,0
27.68006134033203,-8.820980072021484,-0.15781497955322266,-0.0,-0.0,-1.0,0.025257980459765284,2.0,0
25.968669891357422,-9.1219482421875,-0.07396841049194336,-0.769893313035582,0.27568908538354653,-0.575551748102183,0.030875841212000116,4.0,0
26.185863494873047,-8.579110145568848,-0.08916425704956055,-0.2642993142155587,-0.9131890672373351,0.310212185420546,0.01895710999601979,3.0,0
26.30870819091797,-8.317545890808105,-0.10202693939208984,-0.0,-0.0,-1.0,0.017572413374041054,2.0,0
26.367305755615234,-8.104782104492188,-0.10420417785644531,0.9550909703393267,0.07301716181549779,-0.28717543846348215,0.05675392615278237,3.0,0
26.399486541748047,-7.807620048522949,-0.09747743606567383,-0.0,-0.0,-1.0,0.02356520897091795,2.0,0
26.40131378173828,-7.384466648101807,-0.07981443405151367,0.01957375009590141,-0.7944026663754498,-0.6070760018010587,0.15979058741157187,3.0,0
26.279804229736328,-6.947207450866699,-0.036177635192871094,-0.1384606292559972,-0.9090005994218757,0.3931241081347013,0.14213044210693415,4.0,0
25.266632080078125,-7.570405960083008,-0.09392499923706055,-0.0,-0.0,-1.0,0.03157463834432186,2.0,0
25.455806732177734,-7.099852561950684,-0.11229419708251953,-0.0,-0.0,-1.0,0.0205160299645786,1.0,0
26.36618423461914,-9.197908401489258,-0.0778346061706543,-0.8334093063560446,-0.5202541055630268,-0.18645265813055972,0.06060579642871872,3.0,0
26.631305694580078,-8.873575210571289,-0.10252618789672852,-0.0,-0.0,-1.0,0.02316972316530306,2.0,0
26.831695556640625,-8.572677612304688,-0.11784172058105469,-0.0,-0.0,-1.0,0.024719260419185925,1.0,0
27.095138549804688,-8.251800537109375,-0.14584636688232422,-0.0,-0.0,-1.0,0.022670783526242126,1.0,0
27.292383193969727,-7.956395626068115,-0.16386985778808594,-0.0,-0.0,-1.0,0.021273005073433368,2.0,0
27.408519744873047,-7.740179538726807,-0.17197132110595703,-0.0,-0.0,-1.0,0.010348020199447498,2.0,0
26.30003547668457,-9.210235595703125,-0.06591176986694336,-0.0,-0.0,-1.0,0.05238695259548474,1.0,0
26.428516387939453,-8.980058670043945,-0.07103586196899414,-0.048313801453170914,-0.01927454231397411,-0.9986462179409334,0.033486784689252584,3.0,0
26.626686096191406,-7.081508159637451,0.03798961639404297,-0.0,-0.0,-1.0,0.05045705029629902,1.0,1
27.58356475830078,-9.171455383300781,-0.12213897705078125,-0.6649796338282922,-0.549146765802222,-0.506201458119739,0.03896801133450511,3.0,0
27.64944076538086,-9.352229118347168,-0.13473844528198242,-0.0,-0.0,-1.0,0.02610721414502524,2.0,0
25.54195785522461,-7.07790470123291,-0.13572406768798828,-0.0,-0.0,-1.0,0.015159844347426912,2.0,0
25.852588653564453,-6.89171028137207,-0.1044464111328125,-0.0,-0.0,-1.0,0.04958279878280306,2.0,0
25.367557525634766,-7.12320613861084,-0.1357879638671875,-0.0,-0.0,-1.0,0.04164950391867182,2.0,0
27.673736572265625,-8.477350234985352,-0.16448402404785156,-0.0,-0.0,-1.0,0.03291015022749568,2.0,0
27.005138397216797,-9.142263412475586,-0.14260053634643555,-0.0,-0.0,-1.0,0.04056732798770693,1.0,0
27.137866973876953,-8.855743408203125,-0.12581253051757812,-0.5798809935115263,-0.16109101264442627,-0.7986161274412622,0.03206933142030489,4.0,0
27.28265380859375,-8.536489486694336,-0.10775327682495117,-0.8280139601010146,0.06446866841551342,-0.5569889340647317,0.20289759096612592,7.0,0
26.610271453857422,-9.241661071777344,-0.0934758186340332,-0.4166938251363094,-0.16648929904799564,-0.8936708395129479,0.03162561742559938,5.0,0
27.4521484375,-9.342915534973145,-0.14260196685791016,-0.0,-0.0,-1.0,0.019465494381966254,1.0,0
27.587749481201172,-9.244672775268555,-0.1466672420501709,-0.0,-0.0,-1.0,0.026682511257200774,2.0,0
26.295536041259766,-7.852405548095703,-0.10820460319519043,-0.0,-0.0,-1.0,0.018385457057890128,1.0,0
26.019224166870117,-8.534992218017578,-0.1225137710571289,-0.0,-0.0,-1.0,0.017832603748018348,2.0,0
26.11736297607422,-8.352195739746094,-0.11864995956420898,-0.5023026648640355,-0.017629058165258154,-0.8645121451886577,0.040856868495052136,3.0,0
27.3873291015625,-8.38785171508789,-0.18087267875671387,-0.0,-0.0,-1.0,0.042535038737694854,1.0,0
27.61184310913086,-8.344268798828125,-0.1897735595703125,0.26932514390318796,-0.4303628263078827,-0.8615403673617495,0.02804376483311727,4.0,0
25.66591453552246,-7.069498062133789,-0.12417340278625488,-0.0,-0.0,-1.0,0.022465041081203688,1.0,0
26.079334259033203,-9.128223419189453,-0.08657121658325195,-0.0,-0.0,-1.0,0.037756075496486796,1.0,0
26.31839370727539,-8.924942016601562,-0.09601163864135742,-0.0,-0.0,-1.0,0.016099723667407285,2.0,0
26.51230239868164,-8.026960372924805,-0.06522417068481445,-0.0,-0.0,-1.0,0.07045292974417428,2.0,0
26.598583221435547,-8.667886734008789,-0.10634803771972656,-0.0,-0.0,-1.0,0.029708859294853944,2.0,0
26.68799591064453,-8.759988784790039,-0.1189110279083252,-0.0,-0.0,-1.0,0.03083144544972815,1.0,0
27.530231475830078,-8.352760314941406,-0.170989990234375,-0.27696540617614884,-0.8624919731597233,-0.42355372742631814,0.02739665776852411,3.0,0
26.37670135498047,-6.899648666381836,0.00561833381652832,0.12082837138493308,-0.7165870789867768,-0.6869523003074259,0.19405473120279965,4.0,1
26.667964935302734,-9.189895629882812,-0.016330718994140625,-0.0,-0.0,-1.0,0.1618647094890223,1.0,0
25.361534118652344,-7.041934967041016,-0.11667847633361816,0.5268093966582408,-0.17199775525937547,-0.8323993223076989,0.03412970263855087,4.0,0
25.291887283325195,-8.786354064941406,-0.057846784591674805,-0.0,-0.0,-1.0,0.023531223692804446,1.0,0
25.235586166381836,-8.957658767700195,-0.06292176246643066,-0.0,-0.0,-1.0,0.014134076676482496,1.0,0
25.382707595825195,-8.75191879272461,-0.06481337547302246,-0.0,-0.0,-1.0,0.02601945776846397,1.0,0
25.54397201538086,-8.614463806152344,-0.07255792617797852,-0.0,-0.0,-1.0,0.014910992542559289,1.0,0
25.828861236572266,-8.377519607543945,-0.08698916435241699,0.5337994775791043,0.6465435467030253,-0.5450133575913052,0.043934233112858996,3.0,0
26.046794891357422,-7.947141647338867,-0.08306479454040527,-0.0,-0.0,-1.0,0.030974058794900727,2.0,0
26.226055145263672,-7.887014389038086,-0.0981290340423584,-0.0,-0.0,-1.0,0.017438944484636423,2.0,0
26.029415130615234,-6.917600631713867,-0.01830124855041504,-0.0,-0.0,-1.0,0.029785598246489672,1.0,0
27.025535583496094,-7.303859710693359,-0.14873909950256348,-0.0,-0.0,-1.0,0.024719126980761907,2.0,0
27.29180335998535,-7.344120025634766,-0.18044805526733398,-0.0,-0.0,-1.0,0.023701242170788086,2.0,0
27.512937545776367,-7.174249649047852,-0.1950373649597168,0.10684950644737695,0.18462583706966393,-0.9769833587417331,0.055005261157482804,3.0,0
25.431331634521484,-7.7423248291015625,-0.11277198791503906,-0.0,-0.0,-1.0,0.01984245349431126,2.0,0
25.6174373626709,-7.57171630859375,-0.11641860008239746,-0.0,-0.0,-1.0,0.016044610850025554,1.0,0
25.72674560546875,-7.277679443359375,-0.10421061515808105,-0.0,-0.0,-1.0,0.02285657973077093,1.0,0
25.337892532348633,-7.023019790649414,-0.12909722328186035,0.5268093966582408,-0.17199775525937547,-0.8323993223076989,0.03412970263855085,4.0,0
25.48679542541504,-6.918676376342773,-0.13571810722351074,-0.0,-0.0,-1.0,0.020759449779897604,2.0,0
26.533184051513672,-9.31561279296875,-0.07245254516601562,-0.0,-0.0,-1.0,0.12023425387300425,2.0,0
27.152315139770508,-8.748662948608398,-0.07787752151489258,-0.0,-0.0,-1.0,0.07883693235461506,1.0,0
27.618755340576172,-9.117576599121094,-0.1436328887939453,-0.8838312828466549,0.435210413366972,-0.1715638643729662,0.034249100416103025,6.0,0
27.318836212158203,-8.664812088012695,-0.0850529670715332,-0.0,-0.0,-1.0,0.06002754491812081,2.0,0
26.35336685180664,-9.350025177001953,-0.0656280517578125,-0.7946262870516796,0.4660596480969291,0.38904687165202695,0.0571800713525541,3.0,0
27.674283981323242,-9.305784225463867,-0.13985657691955566,-0.0,-0.0,-1.0,0.026682511257200774,2.0,0
27.109947204589844,-8.654285430908203,-0.05086088180541992,0.9130438742665398,0.14805409867240255,-0.3800406130016241,0.0943735766382672,3.0,0
27.69721221923828,-8.807018280029297,-0.09996914863586426,-0.0,-0.0,-1.0,0.024313799417422656,1.0,0
25.22426986694336,-7.985282897949219,-0.10963010787963867,-0.0,-0.0,-1.0,0.045033862414610416,2.0,0
25.547441482543945,-7.936834335327148,-0.12086629867553711,0.954814080693751,0.007862478230233765,-0.2970997353499776,0.02352373329699686,3.0,0
25.755212783813477,-7.859186172485352,-0.12392330169677734,-0.7273695431826579,0.2759527432759968,-0.628318097088333,0.017864006717909872,3.0,0
25.995189666748047,-7.662788391113281,-0.11757278442382812,0.5919267627790576,-0.50119178626908,-0.6312127223704493,0.04896293074671215,4.0,0
27.238204956054688,-7.6714324951171875,-0.18970346450805664,-0.0,-0.0,-1.0,0.017145688797626967,1.0,0
27.53294563293457,-7.621667861938477,-0.20328211784362793,-0.0,-0.0,-1.0,0.00467587691794498,2.0,0
25.413753509521484,-8.946746826171875,-0.07880067825317383,-0.0,-0.0,-1.0,0.013105244497177038,1.0,0
25.852924346923828,-8.897275924682617,-0.09156131744384766,-0.0,-0.0,-1.0,0.03295699657797468,2.0,0
26.24900245666504,-8.826980590820312,-0.10165643692016602,0.05965185667938731,0.09048686167964139,-0.9941095431883107,0.016149954224295802,4.0,0
26.734827041625977,-8.860549926757812,-0.12674784660339355,-0.0,-0.0,-1.0,0.025000008614408292,2.0,0
26.464092254638672,-8.715181350708008,-0.10055303573608398,-0.28108207565442106,0.41272844387686247,-0.8663995027473099,0.04576774793180681,3.0,0
26.990272521972656,-8.718446731567383,-0.12540745735168457,0.5658251361017332,0.4438768317927653,-0.6948491012824816,0.053635513169689814,4.0,0
27.53119468688965,-8.745376586914062,-0.15494918823242188,-0.0,-0.0,-1.0,0.04446321052647396,1.0,0
27.705705642700195,-8.686054229736328,-0.15843939781188965,-0.0,-0.0,-1.0,0.03454314567526866,1.0,0
27.19527816772461,-8.504575729370117,-0.1152184009552002,-0.0,-0.0,-1.0,0.1837477198431232,2.0,0
27.331687927246094,-8.528783798217773,-0.12432408332824707,-0.0,-0.0,-1.0,0.14849488080651363,2.0,0
26.456911087036133,-7.22370719909668,0.041121721267700195,-0.0,-0.0,-1.0,0.10473046934705951,2.0,1
25.341690063476562,-8.882650375366211,-0.04648423194885254,-0.0,-0.0,-1.0,0.01918629217322515,1.0,0
25.519283294677734,-8.845409393310547,-0.0494687557220459,-0.0,-0.0,-1.0,0.012922269716954832,1.0,0
26.040098190307617,-8.832490921020508,-0.06858468055725098,-0.0,-0.0,-1.0,0.015924599830764902,1.0,0
26.43665313720703,-8.798347473144531,-0.08185577392578125,-0.0,-0.0,-1.0,0.01258472003745472,2.0,0
26.875038146972656,-8.861570358276367,-0.10737490653991699,-0.0,-0.0,-1.0,0.02789330732683924,1.0,0
27.048254013061523,-8.878599166870117,-0.11700654029846191,-0.0,-0.0,-1.0,0.023258388942049575,1.0,0
27.660520553588867,-8.820512771606445,-0.14133143424987793,-0.0,-0.0,-1.0,0.03173256775845694,2.0,0
25.21343994140625,-8.744867324829102,-0.028744935989379883,-0.0,-0.0,-1.0,0.02478841615310911,1.0,0
25.73653793334961,-8.771060943603516,-0.05064558982849121,-0.09723803434000773,-0.7782680540000403,-0.6203576394312249,0.0325045095211405,4.0,0
26.042339324951172,-8.77706527709961,-0.06333494186401367,-0.0,-0.0,-1.0,0.015744654129629068,1.0,0
26.308589935302734,-8.770626068115234,-0.07375288009643555,-0.0,-0.0,-1.0,0.013272078108445303,1.0,0
27.295019149780273,-8.499732971191406,-0.0926961898803711,-0.9161127633848346,0.32697136022473794,-0.23200675497964712,0.1449191255112952,5.0,0
27.655744552612305,-8.710962295532227,-0.13069486618041992,-0.0,-0.0,-1.0,0.04023431858294249,2.0,0
26.535491943359375,-7.193140029907227,0.06696724891662598,-0.0,-0.0,-1.0,0.13837604124595385,2.0,1
25.22533416748047,-9.307428359985352,-0.05209946632385254,-0.0,-0.0,-1.0,0.014243521736363257,1.0,0
26.35719108581543,-9.355337142944336,-0.051453590393066406,-0.7946262870516796,0.4660596480969291,0.38904687165202695,0.09145235505126474,3.0,0
26.76803207397461,-9.244638442993164,-0.06881046295166016,-0.0,-0.0,-1.0,0.0855340588096713,1.0,0
26.168283462524414,-8.839603424072266,-0.07031643390655518,-0.0,-0.0,-1.0,0.017032254363031126,1.0,0
26.44561767578125,-8.906021118164062,-0.06426799297332764,-0.0,-0.0,-1.0,0.021948217232178744,2.0,0
25.55467987060547,-8.358148574829102,-0.07151341438293457,-0.0,-0.0,-1.0,0.011199061134514908,1.0,0
25.302227020263672,-7.909093856811523,-0.0628514289855957,-0.0,-0.0,-1.0,0.01770088653348664,2.0,0
25.49083709716797,-8.048627853393555,-0.06142258644104004,-0.0,-0.0,-1.0,0.02137726751612915,2.0,0
26.782798767089844,-6.927091598510742,0.029055118560791016,-0.0,-0.0,-1.0,0.09727922811291537,2.0,1
27.674198150634766,-7.168123245239258,-0.18085002899169922,0.5987500137721479,0.34342903873489644,-0.7235709477041476,0.08045002479014494,3.0,0
27.507495880126953,-7.012290954589844,-0.18019413948059082,-0.0,-0.0,-1.0,0.09744939875027932,1.0,0
27.525218963623047,-8.329809188842773,-0.11678266525268555,-0.0,-0.0,-1.0,0.028320092524082057,1.0,0
26.98563575744629,-8.036691665649414,-0.11517632007598877,-0.0,-0.0,-1.0,0.04527123152930561,2.0,0
27.290435791015625,-8.262138366699219,-0.1187446117401123,-0.0,-0.0,-1.0,0.022839731644057882,2.0,0
26.819602966308594,-7.755641937255859,-0.10602843761444092,-0.0,-0.0,-1.0,0.01847246074893883,1.0,0
26.876880645751953,-7.435657501220703,-0.08962106704711914,-0.0,-0.0,-1.0,0.025708416245196684,1.0,0
26.927343368530273,-6.866113662719727,-0.061914682388305664,-0.0,-0.0,-1.0,0.16538493131515758,2.0,0
26.745765686035156,-9.068044662475586,-0.08713912963867188,-0.0,-0.0,-1.0,0.041786299170570224,2.0,0
26.644207000732422,-8.74439811706543,-0.07492613792419434,-0.0,-0.0,-1.0,0.01999457437185179,2.0,0
26.36927032470703,-8.536239624023438,-0.07162690162658691,-0.0,-0.0,-1.0,0.030875185462186493,1.0,0
26.558605194091797,-8.608238220214844,-0.07074165344238281,-0.0,-0.0,-1.0,0.025223617185054364,2.0,0
27.17716407775879,-8.4947509765625,-0.05355119705200195,-0.0,-0.0,-1.0,0.10578838355376667,1.0,0
25.318058013916016,-7.789642333984375,-0.06556344032287598,-0.0,-0.0,-1.0,0.020577534424743228,1.0,0
25.448745727539062,-7.862743377685547,-0.0651397705078125,-0.0,-0.0,-1.0,0.022295717813607063,1.0,0
26.409406661987305,-7.986520767211914,-0.04729795455932617,-0.0,-0.0,-1.0,0.06438983384439506,2.0,0
25.245832443237305,-8.183332443237305,0.09413909912109375,-0.0,-0.0,-1.0,0.08751050596104777,2.0,1
26.998905181884766,-9.28533935546875,-0.11650192737579346,-0.0,-0.0,-1.0,0.030137159995629128,1.0,0
26.787616729736328,-8.927644729614258,-0.10619843006134033,-0.0,-0.0,-1.0,0.02745668956268686,1.0,0
26.347301483154297,-8.448270797729492,-0.09696614742279053,-0.0,-0.0,-1.0,0.028433690691510312,1.0,0
26.584903717041016,-8.569602966308594,-0.09629213809967041,0.20284966857040085,0.10053612797625391,-0.9740351630882845,0.045369660815916917,3.0,0
26.801557540893555,-8.726676940917969,-0.09773910045623779,-0.0,-0.0,-1.0,0.04031311924907598,1.0,0
27.287151336669922,-8.519699096679688,-0.07888901233673096,-0.9417414091542268,0.24961469040861997,-0.2254232122396006,0.11613843861905798,6.0,0
26.077964782714844,-8.256385803222656,-0.09599912166595459,-0.0,-0.0,-1.0,0.04163752155808316,1.0,0
25.318191528320312,-7.737972259521484,-0.0964120626449585,-0.0,-0.0,-1.0,0.020384951454317863,2.0,0
26.597944259643555,-7.848884582519531,-0.06763064861297607,-0.0,-0.0,-1.0,0.03456532100860777,1.0,0
25.25656509399414,-7.558412551879883,-0.09165585041046143,-0.0,-0.0,-1.0,0.026941719510935665,2.0,0
26.872304916381836,-6.997011184692383,-0.028177380561828613,-0.7090408020784683,-0.5861414151440295,-0.3920451280667534,0.18154879525266038,3.0,0
27.340499877929688,-8.106576919555664,-0.14457035064697266,-0.0,-0.0,-1.0,0.022452324822412207,1.0,0
27.109859466552734,-7.72535514831543,-0.13778924942016602,-0.0,-0.0,-1.0,0.06046310005764624,1.0,0
27.189191818237305,-7.789157867431641,-0.13759350776672363,-0.2119829493105519,-0.6502971469741269,-0.729504523521898,0.025575900055063217,3.0,0
27.108001708984375,-7.389186859130859,-0.12588262557983398,-0.0,-0.0,-1.0,0.02176386918608681,2.0,0
27.152379989624023,-7.008811950683594,-0.11111593246459961,-0.0,-0.0,-1.0,0.07995992956269556,1.0,0
25.29901885986328,-6.919431686401367,-0.11371493339538574,-0.0,-0.0,-1.0,0.0339418559091748,1.0,0
25.74500274658203,-6.892215728759766,-0.10606324672698975,-0.0,-0.0,-1.0,0.021886260579250142,2.0,0
27.258708953857422,-7.775257110595703,-0.1319124698638916,-0.0,-0.0,-1.0,0.02069125882985243,1.0,0
27.529706954956055,-8.020833969116211,-0.14198875427246094,-0.0,-0.0,-1.0,0.015061882155273229,1.0,0
27.165454864501953,-7.292144775390625,-0.10798382759094238,-0.0,-0.0,-1.0,0.03471470453429698,2.0,0
27.13495635986328,-6.933597564697266,-0.09005999565124512,-0.0,-0.0,-1.0,0.07723657784239646,1.0,0
26.227643966674805,-8.588643074035645,-0.08163011074066162,-0.2642993142155587,-0.9131890672373351,0.310212185420546,0.032340200095686444,3.0,0
26.43736457824707,-8.789511680603027,-0.0781022310256958,-0.0,-0.0,-1.0,0.012129933202292147,2.0,0
26.686922073364258,-9.114789009094238,-0.07608151435852051,-0.0,-0.0,-1.0,0.039089228644698014,1.0,0
25.480642318725586,-7.250845909118652,-0.0843731164932251,-0.0,-0.0,-1.0,0.02415183183569954,1.0,0
26.24815559387207,-8.408123970031738,-0.07704246044158936,-0.0,-0.0,-1.0,0.014705539083817356,1.0,0
26.564882278442383,-7.946961402893066,-0.0553433895111084,-0.0,-0.0,-1.0,0.04346289475488429,2.0,0
26.863054275512695,-7.058590888977051,-0.0257568359375,-0.0,-0.0,-1.0,0.13275886369605525,1.0,0
27.62491798400879,-8.374523162841797,-0.16220784187316895,0.4673081415049529,-0.3085839173164249,-0.828492043930922,0.02739925602749777,4.0,0
27.208269119262695,-7.77379035949707,-0.15683603286743164,-0.03288267284620899,-0.5409896507996769,-0.8403861776315295,0.024822346719516813,5.0,0
27.381561279296875,-7.995758056640625,-0.15800881385803223,0.868180463312698,-0.4373278823351125,-0.234535725326516,0.015773910887376945,5.0,0
27.60385513305664,-8.247547149658203,-0.15874814987182617,-0.0,-0.0,-1.0,0.021716690542578115,1.0,0
27.19728660583496,-7.118261337280273,-0.13698959350585938,-0.0,-0.0,-1.0,0.041023534721515806,1.0,0
27.19244956970215,-7.419380187988281,-0.1463567018508911,-0.5855190324317325,-0.6838795322651402,-0.43528869501633155,0.01924846484137185,3.0,0
25.6577205657959,-8.59253215789795,-0.11416232585906982,-0.0,-0.0,-1.0,0.02348562530019647,1.0,0
26.077844619750977,-8.680808067321777,-0.10779416561126709,-0.0,-0.0,-1.0,0.020082140636560823,2.0,0
26.124841690063477,-8.959050178527832,-0.1178056001663208,-0.0,-0.0,-1.0,0.02925733969324262,1.0,0
26.51852035522461,-8.996739387512207,-0.11032402515411377,-0.7377466503651431,0.5060567857346333,-0.446806904027839,0.05296977192159603,4.0,0
26.893577575683594,-7.1158246994018555,-0.026966571807861328,-0.0,-0.0,-1.0,0.10325970565032504,2.0,0
26.765138626098633,-9.304659843444824,-0.11727428436279297,0.3861962079265353,0.2268886004103289,-0.8940772069497165,0.0745021144080764,3.0,0
25.32832145690918,-8.541733741760254,-0.09584224224090576,-0.2295424438823983,-0.2751695537057115,-0.9335909078230654,0.03225063660349659,3.0,0
25.383560180664062,-8.79760456085205,-0.09848690032958984,-0.0,-0.0,-1.0,0.022317631870896373,1.0,0
25.466333389282227,-8.956395149230957,-0.09823811054229736,-0.30479379553176006,-0.05835528987437129,-0.9506289509314458,0.03108298330298378,3.0,0
25.53312873840332,-9.2549409866333,-0.10142886638641357,-0.0,-0.0,-1.0,0.050454159509224786,2.0,0
26.80368423461914,-6.981989860534668,-0.007230997085571289,0.9003496538667215,-0.269220653158583,-0.3418928789766482,0.17738972017026688,3.0,0
25.320049285888672,-8.62397289276123,-0.08006918430328369,-0.0,-0.0,-1.0,0.031016585214738955,1.0,0
25.356855392456055,-9.040539741516113,-0.08597826957702637,0.12231060724204088,-0.08259403439766652,-0.9890492105239251,0.008515548831265676,3.0,0
26.733749389648438,-6.989195823669434,0.006810426712036133,-0.0,-0.0,-1.0,0.13196955550579642,2.0,1
25.444128036499023,-9.27822208404541,-0.08673441410064697,-0.0,-0.0,-1.0,0.03663373203319685,1.0,0
26.857019424438477,-7.094407081604004,0.010118961334228516,-0.0,-0.0,-1.0,0.07558815663677473,1.0,1
25.357948303222656,-8.462039947509766,-0.09943771362304688,-0.0,-0.0,-1.0,0.03593261434769952,2.0,0
26.854049682617188,-6.990243911743164,-0.005279183387756348,-0.7090408020784683,-0.5861414151440295,-0.3920451280667534,0.19151213230407646,3.0,0
25.575777053833008,-8.72464370727539,-0.1003108024597168,-0.0,-0.0,-1.0,0.028485977582198355,1.0,0
25.801822662353516,-8.906946182250977,-0.0985945463180542,-0.0,-0.0,-1.0,0.05346849578522045,1.0,0
25.89153480529785,-9.128839492797852,-0.10264396667480469,-0.0,-0.0,-1.0,0.039713705572796715,1.0,0
26.43227767944336,-9.187721252441406,-0.08721375465393066,-0.0,-0.0,-1.0,0.030256855579772684,1.0,0
26.055065155029297,-9.288589477539062,-0.10244607925415039,-0.0,-0.0,-1.0,0.0255468207748368,1.0,0
26.63216209411621,-9.304389953613281,-0.08462846279144287,-0.0,-0.0,-1.0,0.14911237377085465,1.0,0
26.799144744873047,-6.8978729248046875,-0.004335641860961914,-0.0,-0.0,-1.0,0.21165097486402437,2.0,0
27.624164581298828,-7.043048858642578,-0.23036444187164307,-0.0,-0.0,-1.0,0.10361960627770396,1.0,0
26.912260055541992,-7.100595474243164,-0.13794445991516113,-0.0,-0.0,-1.0,0.11723292579564804,1.0,0
26.710866928100586,-7.679225921630859,-0.16052687168121338,-0.0,-0.0,-1.0,0.029470047124398206,2.0,0
26.835172653198242,-8.03388786315918,-0.16337215900421143,-0.0,-0.0,-1.0,0.046405594649401125,2.0,0
27.311561584472656,-8.30423355102539,-0.1488410234451294,0.3407688531591145,0.6395061516949001,-0.6891360320437475,0.026108539047065116,3.0,0
26.949783325195312,-8.207494735717773,-0.16245484352111816,-0.08874138456347468,-0.12004617943729962,-0.9887941552559183,0.02155453245200324,3.0,0
27.418764114379883,-8.488245010375977,-0.14869320392608643,-0.0,-0.0,-1.0,0.07605121535960431,1.0,0
27.23932456970215,-8.864486694335938,-0.16595697402954102,-0.0,-0.0,-1.0,0.0553172634160359,1.0,0
27.595237731933594,-6.901203155517578,-0.22820794582366943,-0.0,-0.0,-1.0,0.09529137955343676,2.0,0
27.485347747802734,-6.907033920288086,-0.23398351669311523,-0.0,-0.0,-1.0,0.07834481482732514,2.0,0
25.664216995239258,-9.107253074645996,0.00673365592956543,-0.0,-0.0,-1.0,0.03757501650247744,1.0,1
27.28451919555664,-8.793940544128418,0.10296142101287842,-0.0,-0.0,-1.0,0.10729041454693702,1.0,1
26.655166625976562,-9.271943092346191,0.07987809181213379,-0.0,-0.0,-1.0,0.15660227357231302,1.0,1
26.571327209472656,-9.209893226623535,0.0905919075012207,-0.0,-0.0,-1.0,0.1596043525025604,1.0,1
25.248577117919922,-8.525710105895996,0.22539162635803223,-0.0,-0.0,-1.0,0.05530120617037411,1.0,1
26.355669021606445,-9.275452613830566,0.09343230724334717,-0.0,-0.0,-1.0,0.08962577255583666,1.0,1
25.235191345214844,-6.904325485229492,-0.04252457618713379,-0.0,-0.0,-1.0,0.03765130440296944,1.0,0
25.387338638305664,-7.305784225463867,-0.046244263648986816,-0.0,-0.0,-1.0,0.025577701008912917,1.0,0
25.55742073059082,-7.956457138061523,-0.08931446075439453,0.954814080693751,0.007862478230233765,-0.2970997353499776,0.023531821314723568,3.0,0
25.790058135986328,-7.923915863037109,-0.10044002532958984,-0.0,-0.0,-1.0,0.016702707163583942,1.0,0
27.448486328125,-7.753517150878906,-0.18411433696746826,-0.0,-0.0,-1.0,0.009430153294902776,2.0,0
27.64438247680664,-7.718833923339844,-0.19340479373931885,-0.0,-0.0,-1.0,0.005638259726652575,1.0,0
25.676122665405273,-7.154571533203125,-0.12019240856170654,-0.0,-0.0,-1.0,0.018063938568710407,1.0,0
25.589736938476562,-7.402986526489258,-0.12758171558380127,-0.0,-0.0,-1.0,0.028730727452620446,2.0,0
25.755558013916016,-7.669404983520508,-0.10181033611297607,-0.0,-0.0,-1.0,0.021243763547846232,2.0,0
25.85185432434082,-7.0843505859375,-0.0891638994216919,-0.0,-0.0,-1.0,0.052733585047893806,2.0,0
25.824687957763672,-7.326442718505859,-0.09573781490325928,-0.0,-0.0,-1.0,0.019155820452424276,2.0,0
25.935348510742188,-7.125831604003906,-0.09992170333862305,-0.0,-0.0,-1.0,0.05156573993914644,2.0,0
25.789241790771484,-8.382018089294434,-0.1178438663482666,0.30497606082470397,0.6507795386686535,-0.6953240930487455,0.04407061629869105,5.0,0
25.908756256103516,-8.059161186218262,-0.11325490474700928,-0.3657506694261962,-0.22282241975615605,-0.903646289799444,0.009871177643556857,3.0,0
25.972915649414062,-7.699587821960449,-0.10215330123901367,0.03213533308148418,-0.4027435454214965,-0.9147485758333078,0.05067400914607116,3.0,0
27.300338745117188,-6.958632469177246,-0.19249379634857178,-0.0,-0.0,-1.0,0.027613266865992848,1.0,0
27.51445770263672,-7.079073905944824,-0.2186422348022461,-0.0,-0.0,-1.0,0.10361960627770395,2.0,0
25.485759735107422,-7.910099029541016,-0.10146546363830566,0.6379809343730921,0.6950003987703887,-0.33159428988665846,0.026219063102296804,3.0,0
25.649456024169922,-7.775629043579102,-0.10370516777038574,-0.0,-0.0,-1.0,0.016648627277239262,1.0,0
25.698184967041016,-7.702789306640625,-0.10243082046508789,-0.0,-0.0,-1.0,0.02083830892864288,2.0,0
27.507213592529297,-7.203550338745117,-0.2012004852294922,0.10684950644737695,0.18462583706966393,-0.9769833587417331,0.04313460641545873,3.0,0
27.336557388305664,-6.866220474243164,-0.16890370845794678,-0.0,-0.0,-1.0,0.0567116352486629,1.0,0
25.33537483215332,-8.545918464660645,-0.0963430404663086,-0.0,-0.0,-1.0,0.03207960513495171,2.0,0
25.635236740112305,-8.51004695892334,-0.10442805290222168,-0.0,-0.0,-1.0,0.012770470098850456,2.0,0
26.027362823486328,-8.51589298248291,-0.11941802501678467,0.7709914897263686,-0.23243474285543964,-0.5929133267883603,0.01888281456704012,3.0,0
26.111854553222656,-8.394993782043457,-0.11457669734954834,-0.0,-0.0,-1.0,0.03391024611332018,2.0,0
27.3179988861084,-8.355437278747559,-0.16395139694213867,-0.0,-0.0,-1.0,0.03677688962156924,2.0,0
27.682769775390625,-8.320746421813965,-0.17924201488494873,0.1082401676049353,-0.28791135067613854,-0.9515204255656823,0.027599203656022735,3.0,0
26.28990936279297,-6.941651344299316,-0.024410605430603027,-0.1384606292559972,-0.9090005994218757,0.3931241081347013,0.15641074869546315,4.0,0
27.574312210083008,-6.963605880737305,-0.24073505401611328,-0.0,-0.0,-1.0,0.09958210588817398,2.0,0
27.5317440032959,-9.300152778625488,-0.2300781011581421,-0.0,-0.0,-1.0,0.025747333177863645,1.0,0
27.041833877563477,-8.553624153137207,-0.23685157299041748,-0.0,-0.0,-1.0,0.053317078242445304,1.0,0
27.292436599731445,-8.581210136413574,-0.20436537265777588,-0.0,-0.0,-1.0,0.15128649088616156,1.0,0
26.99147605895996,-8.180970191955566,-0.21361887454986572,-0.0,-0.0,-1.0,0.03587778640886207,1.0,0
27.319297790527344,-8.50158405303955,-0.19415795803070068,-0.0,-0.0,-1.0,0.1145107850241127,1.0,0
25.446163177490234,-9.217228889465332,-0.0639944076538086,-0.0,-0.0,-1.0,0.044821159402324603,1.0,0
25.83550453186035,-9.27408504486084,-0.07158482074737549,0.5504165597258073,-0.12416749437141704,-0.8256052592620345,0.0527064510326736,3.0,0
26.23969841003418,-9.234400749206543,-0.07351970672607422,-0.0,-0.0,-1.0,0.04136781635439202,1.0,0
26.61697769165039,-9.24597454071045,-0.07968652248382568,-0.4230721015673616,-0.079344137165418,-0.9026153692314638,0.10500028212283069,4.0,0
25.27222442626953,-7.230360984802246,-0.1314305067062378,-0.0,-0.0,-1.0,0.027832269597310798,1.0,0
27.128889083862305,-7.413752555847168,-0.16460895538330078,-0.0,-0.0,-1.0,0.01779729724897625,2.0,0
27.442413330078125,-7.596941947937012,-0.18538916110992432,-0.0,-0.0,-1.0,0.006700993057377907,2.0,0
25.53367805480957,-7.050482749938965,-0.11789429187774658,-0.2006343648192901,0.49072557597995237,-0.8478999119782387,0.016248814008403178,3.0,0
25.858152389526367,-6.910830497741699,-0.10833394527435303,-0.0,-0.0,-1.0,0.04958279878280306,2.0,0
27.103836059570312,-7.123892784118652,-0.1400892734527588,-0.0,-0.0,-1.0,0.027214867887005396,2.0,0
26.860450744628906,-9.352400779724121,-0.12424933910369873,-0.0,-0.0,-1.0,0.033705117031420845,1.0,0
27.378562927246094,-9.356127738952637,-0.12437283992767334,-0.0,-0.0,-1.0,0.020650412744304153,1.0,0
25.285045623779297,-8.711745262145996,-0.08960092067718506,-0.0,-0.0,-1.0,0.02503019514809558,1.0,0
25.752243041992188,-8.741930961608887,-0.08665955066680908,-0.09723803434000773,-0.7782680540000403,-0.6203576394312249,0.03228440535051843,4.0,0
25.8812313079834,-8.756173133850098,-0.08650851249694824,-0.0,-0.0,-1.0,0.033689826767775086,1.0,0
26.479631423950195,-8.936881065368652,-0.09550166130065918,-0.9183827419783555,-0.2857946163060475,-0.27366873501881206,0.026730807459882624,4.0,0
26.696664810180664,-9.208168983459473,-0.11419117450714111,-0.01069346906692613,-0.034791376625524506,-0.9993373853868449,0.047366358660523473,3.0,0
27.315820693969727,-9.322527885437012,-0.1218491792678833,-0.0,-0.0,-1.0,0.02434358629984885,1.0,0
25.286911010742188,-8.563542366027832,-0.07923269271850586,-0.0,-0.0,-1.0,0.03190607520152789,2.0,0
25.647846221923828,-8.679924964904785,-0.08333075046539307,-0.0,-0.0,-1.0,0.02632363937969202,1.0,0
27.230104446411133,-8.630528450012207,-0.07143259048461914,0.1579658632349506,0.5825532905076003,-0.7972944561272228,0.11877998933134244,4.0,0
26.42363166809082,-6.958714485168457,0.04587352275848389,0.48916361877691,-0.05931701803460658,-0.8701726526595511,0.13313768209133164,4.0,1
26.57664680480957,-7.083874702453613,0.03803527355194092,-0.0,-0.0,-1.0,0.05945492377901425,1.0,1
27.440120697021484,-9.058201789855957,-0.1259537935256958,-0.0,-0.0,-1.0,0.03675008155696497,1.0,0
27.623613357543945,-9.123501777648926,-0.13087713718414307,-0.8838312828466549,0.435210413366972,-0.1715638643729662,0.03424910041610302,6.0,0
25.578229904174805,-8.287047386169434,-0.08185029029846191,-0.9600154645957497,-0.04532745126430137,0.27625301790005774,0.016026312840649024,3.0,0
25.79656410217285,-8.347983360290527,-0.08358323574066162,0.3793237053464764,0.6315323088334428,-0.6762251618076043,0.043172286491090076,4.0,0
26.607358932495117,-8.603991508483887,-0.09516513347625732,0.49708549353967924,0.4341225233681882,-0.7512946471370942,0.026563138379158933,4.0,0
27.014896392822266,-8.705536842346191,-0.10076415538787842,0.6286602552116818,0.045087517414367576,-0.7763719464860852,0.05575298947367734,5.0,0
27.28955078125,-8.530428886413574,-0.08727622032165527,-0.9094068009562986,-0.005410813764257254,-0.41587256878620793,0.17147792863890626,7.0,0
25.458778381347656,-8.079421043395996,-0.06887125968933105,-0.0,-0.0,-1.0,0.021416479646772044,2.0,0
25.729480743408203,-8.239190101623535,-0.07664918899536133,-0.0,-0.0,-1.0,0.01880315938575452,2.0,0
26.71211051940918,-6.914521217346191,0.02721858024597168,-0.0,-0.0,-1.0,0.13968210077453216,1.0,1
27.254863739013672,-7.912837028503418,-0.16988933086395264,-0.0,-0.0,-1.0,0.021502575018368116,1.0,0
27.542882919311523,-8.056132316589355,-0.17536020278930664,-0.0,-0.0,-1.0,0.016142415983009317,2.0,0
27.06867027282715,-7.702803611755371,-0.1579277515411377,0.27418504003709965,0.5171125814496803,-0.8108126429245551,0.049395707115711646,3.0,0
27.36159324645996,-7.884461402893066,-0.16564464569091797,-0.0,-0.0,-1.0,0.01785523033630825,1.0,0
26.965280532836914,-7.37381649017334,-0.13548517227172852,-0.0,-0.0,-1.0,0.0293352564200101,2.0,0
27.00259017944336,-7.06479549407959,-0.11152088642120361,-0.0,-0.0,-1.0,0.07725790052414674,2.0,0
27.682933807373047,-8.35122299194336,-0.17000174522399902,-0.0,-0.0,-1.0,0.027599203656022732,2.0,0
26.75907325744629,-7.79228401184082,-0.14905881881713867,-0.0,-0.0,-1.0,0.0348224963093549,1.0,0
26.94164276123047,-8.030853271484375,-0.16184592247009277,0.44631572556412985,0.38294861949495596,-0.8087970251806518,0.04502726133548126,4.0,0
27.338790893554688,-8.182186126708984,-0.16421902179718018,-0.0,-0.0,-1.0,0.020996000609802862,1.0,0
25.462146759033203,-6.925895690917969,-0.1268024444580078,-0.0,-0.0,-1.0,0.0207594497798976,2.0,0
25.74091911315918,-7.002113342285156,-0.1227729320526123,-0.0,-0.0,-1.0,0.027148166534380666,1.0,0
26.919309616088867,-7.040699005126953,-0.09176778793334961,-0.0,-0.0,-1.0,0.07013285111987519,1.0,0
26.910768508911133,-6.886831283569336,-0.08110427856445312,-0.0,-0.0,-1.0,0.1653849313151576,2.0,0
27.4888916015625,-6.967588901519775,-0.209281325340271,-0.0,-0.0,-1.0,0.08230365981563367,1.0,0
25.37206268310547,-8.199773788452148,-0.09226226806640625,-0.0,-0.0,-1.0,0.11399655396268782,2.0,0
25.601177215576172,-8.356719970703125,-0.09253692626953125,-0.0,-0.0,-1.0,0.013862471299473992,1.0,0
25.793256759643555,-8.46664047241211,-0.09163510799407959,-0.0,-0.0,-1.0,0.027233477893499353,2.0,0
26.028995513916016,-8.63088607788086,-0.09312176704406738,-0.2782430489107409,-0.9463591296584758,-0.1642717365979516,0.017573667446573207,4.0,0
26.241483688354492,-8.783182144165039,-0.09514832496643066,0.05965185667938731,0.09048686167964139,-0.9941095431883107,0.015684492164172243,4.0,0
26.524782180786133,-8.966064453125,-0.09720969200134277,-0.6793253199076438,0.4013327292998032,-0.6143689039373238,0.05296977192159612,3.0,0
26.695232391357422,-9.257905960083008,-0.11244428157806396,-0.0,-0.0,-1.0,0.03664317087898447,2.0,0
27.21865463256836,-8.58366584777832,-0.04178667068481445,-0.7917224485439058,0.25634841058611035,-0.5544917103632999,0.11573438255467032,3.0,0
26.44387435913086,-6.91294527053833,0.042849063873291016,-0.0,-0.0,-1.0,0.1055505453337238,2.0,1
26.540630340576172,-7.043746471405029,0.03873014450073242,-0.31413495990015233,0.6328106484272675,-0.7077216332751108,0.045932094196134685,4.0,1
26.66181755065918,-7.1172404289245605,0.039426326751708984,-0.30948166869613364,-0.22638955798950672,-0.9235631352400183,0.08437058985699489,4.0,1
25.263830184936523,-7.438897609710693,-0.09678566455841064,-0.0,-0.0,-1.0,0.030141413621053735,2.0,0
25.77362060546875,-7.9903178215026855,-0.0952003002166748,-0.0,-0.0,-1.0,0.018051833057842488,1.0,0
25.79521942138672,-8.18585205078125,-0.1052783727645874,-0.0,-0.0,-1.0,0.03166549334041548,1.0,0
25.85232162475586,-8.03287124633789,-0.0928412675857544,-0.0,-0.0,-1.0,0.014682649628350584,2.0,0
26.079914093017578,-8.336082458496094,-0.09721982479095459,-0.0,-0.0,-1.0,0.043803224350061606,2.0,0
26.214336395263672,-8.59271240234375,-0.10494720935821533,-0.2642993142155587,-0.9131890672373351,0.310212185420546,0.03234020009568656,3.0,0
26.476696014404297,-8.698198318481445,-0.09655177593231201,-0.28108207565442106,0.41272844387686247,-0.8663995027473099,0.04718247593809228,3.0,0
26.650676727294922,-9.083259582519531,-0.11170828342437744,-0.0,-0.0,-1.0,0.04810212082520481,2.0,0
26.742599487304688,-9.27440071105957,-0.1193312406539917,0.3861962079265353,0.2268886004103289,-0.8940772069497165,0.03800878900775179,3.0,0
26.52832794189453,-7.337299823760986,-0.01098024845123291,0.04452878301808817,0.13668026160002952,-0.9896139113673958,0.18156639277484665,4.0,0
