x,y,z,nx,ny,nz,curvature,density,label
45.93128204345703,-19.256439208984375,-0.023424744606018066,0.7848521918757265,-0.6170862194369873,0.05667128628180605,0.04352995153979986,3.0,0
47.28697204589844,-18.87555694580078,-0.120033860206604,-0.0,-0.0,-1.0,0.010360614899467036,1.0,0
46.913047790527344,-18.202194213867188,-0.18619096279144287,-0.0,-0.0,-1.0,0.009377257720964505,1.0,0
47.56402587890625,-18.61969757080078,-0.21730196475982666,-0.0,-0.0,-1.0,0.013700034209704708,1.0,0
47.29499053955078,-18.998367309570312,-0.1682882308959961,-0.0,-0.0,-1.0,0.008130580805759234,1.0,0
46.168312072753906,-19.10968589782715,-0.04807126522064209,-0.0,-0.0,-1.0,0.02902177136978905,2.0,0
47.558860778808594,-17.796354293823242,-0.24926316738128662,-0.0,-0.0,-1.0,0.0071216262184487155,1.0,0
46.796058654785156,-18.49339485168457,-0.10461938381195068,-0.0,-0.0,-1.0,0.01566724992321334,2.0,0
46.49578857421875,-18.605077743530273,-0.062074899673461914,-0.7106341769987038,0.6560824665237652,-0.25407649163483725,0.023344583870845297,3.0,0
47.352447509765625,-18.15497589111328,-0.20771217346191406,-0.0,-0.0,-1.0,0.012787137240846102,1.0,0
46.21202087402344,-17.569374084472656,-0.2510190010070801,-0.0,-0.0,-1.0,0.01384697464501358,1.0,0
45.53777313232422,-18.081083297729492,-0.08367490768432617,-0.0,-0.0,-1.0,0.05885286394051364,2.0,0
45.44383239746094,-17.190261840820312,-0.1474463939666748,-0.0,-0.0,-1.0,0.006916978969815865,1.0,0
45.66250991821289,-17.596797943115234,-0.28496885299682617,-0.0,-0.0,-1.0,0.016626847830461353,1.0,0
47.26622009277344,-18.752424240112305,-0.1055760383605957,-0.0,-0.0,-1.0,0.010532423461337398,1.0,0
45.74689483642578,-19.31090545654297,0.19809556007385254,0.9925826459964704,0.11938373074335837,0.022961178115305986,0.04294724220007734,3.0,1
46.83388137817383,-18.693422317504883,-0.07913851737976074,-0.0,-0.0,-1.0,0.012603510064977758,2.0,0
47.41849136352539,-18.997163772583008,-0.15607142448425293,-0.28834797035412923,0.7103737909263974,-0.642047136242748,0.008864554924254824,3.0,0
46.155731201171875,-18.443614959716797,-0.05485820770263672,-0.0,-0.0,-1.0,0.020178552243852916,1.0,0
47.68152618408203,-18.8783016204834,-0.11854386329650879,-0.0,-0.0,-1.0,0.011543070693485502,1.0,0
45.80243682861328,-18.791549682617188,-0.09293937683105469,-0.0,-0.0,-1.0,0.01955177564474681,1.0,0
46.336395263671875,-18.630962371826172,-0.06688880920410156,-0.0,-0.0,-1.0,0.016847076555962816,2.0,0
45.70117950439453,-18.074234008789062,-0.05653691291809082,-0.0,-0.0,-1.0,0.049113397975902896,1.0,0
46.77583312988281,-18.36881446838379,-0.14161443710327148,-0.0,-0.0,-1.0,0.014567036623932819,1.0,0
46.59772491455078,-18.516033172607422,-0.07939386367797852,-0.0,-0.0,-1.0,0.02406607087601622,1.0,0
45.59625244140625,-18.4571533203125,0.31113100051879883,-0.0,-0.0,-1.0,0.11349395772441369,1.0,1
45.626827239990234,-17.957136154174805,-0.22066497802734375,-0.0,-0.0,-1.0,0.04755856570413481,2.0,0
45.367637634277344,-16.918807983398438,-0.20902347564697266,0.40185430720501597,0.8639387875325397,-0.3035175236746336,0.006673107311990406,3.0,0
45.769012451171875,-17.881837844848633,-0.23322296142578125,-0.0,-0.0,-1.0,0.04377867082547721,2.0,0
45.21693801879883,-17.154117584228516,-0.15906286239624023,-0.0,-0.0,-1.0,0.005972976521260992,2.0,0
45.58112335205078,-16.980497360229492,-0.1995091438293457,-0.0,-0.0,-1.0,0.011082500696644754,1.0,0
46.28300857543945,-17.856895446777344,-0.20780706405639648,-0.0,-0.0,-1.0,0.013427262353398299,1.0,0
46.80185317993164,-17.26884651184082,-0.25075197219848633,-0.0,-0.0,-1.0,0.005011069776534723,1.0,0
45.79396057128906,-18.017616271972656,-0.15801763534545898,-0.0,-0.0,-1.0,0.05233376945184228,2.0,0
45.409461975097656,-18.063520431518555,-0.1169276237487793,-0.0,-0.0,-1.0,0.054236596385550305,1.0,0
46.889766693115234,-17.696678161621094,-0.23913955688476562,-0.0,-0.0,-1.0,0.0036100605958335435,1.0,0
46.53316116333008,-17.665916442871094,-0.23457765579223633,-0.0,-0.0,-1.0,0.008130716054213205,1.0,0
45.21059799194336,-17.157060623168945,-0.12653589248657227,-0.0,-0.0,-1.0,0.004947973357063293,2.0,0
46.68073272705078,-18.214111328125,-0.15755057334899902,-0.0,-0.0,-1.0,0.02218062021547881,1.0,0
46.84362030029297,-19.27264404296875,-0.1415863037109375,-0.0,-0.0,-1.0,0.010508992807285282,1.0,0
45.89506530761719,-18.344924926757812,-0.15887737274169922,-0.0,-0.0,-1.0,0.019360214229661214,1.0,0
45.434444427490234,-18.6804141998291,-0.17624878883361816,-0.0,-0.0,-1.0,0.04065043081825735,1.0,0
45.80504608154297,-18.142152786254883,-0.19612693786621094,-0.0,-0.0,-1.0,0.04920120560322676,1.0,0
46.45980453491211,-18.22649574279785,-0.2409818172454834,-0.0,-0.0,-1.0,0.016523381566028988,1.0,0
45.640140533447266,-18.995803833007812,-0.1047515869140625,-0.0,-0.0,-1.0,0.023418447696908144,1.0,0
46.0174674987793,-18.64566421508789,-0.13382291793823242,-0.0,-0.0,-1.0,0.01857334948012949,2.0,0
45.971717834472656,-18.939167022705078,-0.13050150871276855,-0.0,-0.0,-1.0,0.015421318229580264,1.0,0
46.1278190612793,-18.452335357666016,-0.14226770401000977,-0.0,-0.0,-1.0,0.020044216666416464,2.0,0
46.58893585205078,-18.426395416259766,-0.1782059669494629,-0.0,-0.0,-1.0,0.0221879924948102,1.0,0
45.50780487060547,-16.935792922973633,-0.18514657020568848,-0.0,-0.0,-1.0,0.006333060809272526,1.0,0
45.75608825683594,-17.940553665161133,-0.21145081520080566,-0.0,-0.0,-1.0,0.05571621129087888,2.0,0
45.39139175415039,-18.063444137573242,-0.18454289436340332,-0.0,-0.0,-1.0,0.05086294201298956,1.0,0
45.82728576660156,-17.8093318939209,-0.21924543380737305,-0.0,-0.0,-1.0,0.030368430538679193,2.0,0
45.622291564941406,-19.335792541503906,0.0020864009857177734,-0.0,-0.0,-1.0,0.03760843662569078,1.0,1
45.95057678222656,-19.177024841308594,-0.020569801330566406,-0.0,-0.0,-1.0,0.012652897135601582,1.0,0
46.28239440917969,-19.209957122802734,-0.04494190216064453,-0.0,-0.0,-1.0,0.025018983466449783,1.0,0
46.93547058105469,-19.221378326416016,-0.09258723258972168,-0.0,-0.0,-1.0,0.010919198633021748,1.0,0
47.271995544433594,-19.09128189086914,-0.1161952018737793,-0.0,-0.0,-1.0,0.009406850760264688,1.0,0
46.79484176635742,-19.333467483520508,-0.14658546447753906,-0.0,-0.0,-1.0,0.009839949965333853,1.0,0
46.989784240722656,-19.31450080871582,-0.16631054878234863,-0.0,-0.0,-1.0,0.012601752397779012,1.0,0
45.592952728271484,-19.10918426513672,-0.06084561347961426,-0.0,-0.0,-1.0,0.02247307253009526,1.0,0
45.846282958984375,-19.08651351928711,-0.08081173896789551,-0.0,-0.0,-1.0,0.014712485855478625,1.0,0
46.088111877441406,-18.786041259765625,-0.09535789489746094,-0.0,-0.0,-1.0,0.009385212961352899,1.0,0
46.30465316772461,-18.57032012939453,-0.10950422286987305,-0.0,-0.0,-1.0,0.017840341124789057,1.0,0
46.62603759765625,-18.513164520263672,-0.13489747047424316,-0.0,-0.0,-1.0,0.023269182214822107,1.0,0
46.77195739746094,-18.464542388916016,-0.14614605903625488,-0.0,-0.0,-1.0,0.015252931168807543,2.0,0
45.244014739990234,-19.308380126953125,0.027985811233520508,-0.0,-0.0,-1.0,0.040768980588023536,2.0,1
45.442100524902344,-19.213836669921875,0.012730121612548828,-0.0,-0.0,-1.0,0.02754666108773422,1.0,1
45.68383026123047,-19.204635620117188,-0.007563591003417969,-0.0,-0.0,-1.0,0.044992358476414,1.0,0
46.063377380371094,-19.123397827148438,-0.03867840766906738,-0.0,-0.0,-1.0,0.02024450277325751,2.0,0
46.35167694091797,-19.031192779541016,-0.06205940246582031,-0.0,-0.0,-1.0,0.02940159165526866,2.0,0
46.50562286376953,-18.5972900390625,-0.06947112083435059,-0.7106341769987038,0.6560824665237652,-0.25407649163483725,0.0233445838708453,3.0,0
46.960350036621094,-18.633407592773438,-0.10941028594970703,-0.0,-0.0,-1.0,0.0076661642651758045,1.0,0
47.1728515625,-18.689254760742188,-0.12866568565368652,-0.0,-0.0,-1.0,0.010128358281802596,1.0,0
45.406639099121094,-18.744802474975586,-0.13797903060913086,-0.0,-0.0,-1.0,0.056396947423797056,1.0,0
45.527305603027344,-18.330015182495117,-0.13960838317871094,-0.0,-0.0,-1.0,0.023873681365119418,1.0,0
45.94699478149414,-18.517332077026367,-0.17125153541564941,-0.0,-0.0,-1.0,0.015872358289989057,1.0,0
47.4632568359375,-18.264524459838867,-0.27434706687927246,-0.0,-0.0,-1.0,0.01308645087299949,1.0,0
47.4071159362793,-18.136655807495117,-0.26848721504211426,-0.0,-0.0,-1.0,0.012390396577487821,1.0,0
45.228492736816406,-18.996692657470703,-0.0591738224029541,-0.0,-0.0,-1.0,0.03783074115025951,1.0,0
45.7061767578125,-19.015003204345703,-0.08931851387023926,-0.0,-0.0,-1.0,0.02401683622991578,1.0,0
45.98749923706055,-18.653759002685547,-0.09994304180145264,-0.0,-0.0,-1.0,0.019077502760307334,2.0,0
46.080081939697266,-18.546886444091797,-0.10374987125396729,-0.0,-0.0,-1.0,0.021200388316709163,2.0,0
47.40391159057617,-18.641704559326172,-0.19209003448486328,-0.0,-0.0,-1.0,0.010514841576375292,2.0,0
45.304893493652344,-19.09227180480957,-0.05778849124908447,-0.0,-0.0,-1.0,0.04488612277210798,1.0,0
45.54314041137695,-19.02030372619629,-0.0730893611907959,-0.0,-0.0,-1.0,0.035409908746743574,1.0,0
47.255615234375,-18.5494441986084,-0.18825900554656982,-0.0,-0.0,-1.0,0.009543040865987392,1.0,0
47.66859436035156,-18.580785751342773,-0.21971380710601807,-0.0,-0.0,-1.0,0.012632908677616303,2.0,0
45.89231491088867,-18.6473445892334,-0.09075379371643066,-0.0,-0.0,-1.0,0.016935300277197196,1.0,0
45.6451416015625,-18.6170654296875,-0.06985878944396973,-0.0,-0.0,-1.0,0.04194212725057035,1.0,0
45.94634246826172,-18.551990509033203,-0.07420742511749268,-0.0,-0.0,-1.0,0.016182359963255556,2.0,0
46.374427795410156,-18.596908569335938,-0.0861821174621582,-0.0,-0.0,-1.0,0.018851741516183646,2.0,0
46.79176712036133,-18.68512725830078,-0.09991586208343506,-0.0,-0.0,-1.0,0.016207368928130707,2.0,0
47.10460662841797,-18.794784545898438,-0.11214959621429443,-0.0,-0.0,-1.0,0.007248611086128903,2.0,0
47.52546310424805,-18.812366485595703,-0.12358057498931885,-0.0,-0.0,-1.0,0.013250810362812821,1.0,0
46.26203918457031,-18.33254623413086,-0.182265043258667,-0.0,-0.0,-1.0,0.0193723620304457,1.0,0
46.555686950683594,-18.250022888183594,-0.18278908729553223,-0.0,-0.0,-1.0,0.023029486132639023,1.0,0
46.793251037597656,-18.189956665039062,-0.18366849422454834,-0.7794713469156387,-0.6153150351120796,-0.1175237291041288,0.01742677305841895,4.0,0
47.13100051879883,-18.29409408569336,-0.19420206546783447,-0.0,-0.0,-1.0,0.012041262265247897,1.0,0
47.39917755126953,-18.507911682128906,-0.2090219259262085,-0.0,-0.0,-1.0,0.008678913480165563,1.0,0
47.683433532714844,-18.578868865966797,-0.21754300594329834,-0.0,-0.0,-1.0,0.012632908677616303,2.0,0
45.967647552490234,-18.32292938232422,-0.1338566541671753,-0.0,-0.0,-1.0,0.019980253780801663,1.0,0
46.209163665771484,-18.513416290283203,-0.14322435855865479,-0.0,-0.0,-1.0,0.017669648082560847,1.0,0
46.70161056518555,-18.512784957885742,-0.14339971542358398,-0.0,-0.0,-1.0,0.019469420232154647,1.0,0
47.12689971923828,-18.53415870666504,-0.14493930339813232,-0.0,-0.0,-1.0,0.011553559966470024,1.0,0
47.11988830566406,-18.61661720275879,-0.14903318881988525,-0.0,-0.0,-1.0,0.009439233170428099,1.0,0
47.459693908691406,-18.991477966308594,-0.16828489303588867,-0.0,-0.0,-1.0,0.009947650863370497,2.0,0
47.61491394042969,-19.021005630493164,-0.17010998725891113,-0.0,-0.0,-1.0,0.010495116340301178,1.0,0
45.23737716674805,-19.299890518188477,-0.01755988597869873,-0.0,-0.0,-1.0,0.040768980588023536,2.0,0
47.22764587402344,-17.485130310058594,-0.23432254791259766,-0.0,-0.0,-1.0,0.0019025055305960884,2.0,0
47.22736358642578,-17.742618560791016,-0.24784588813781738,-0.0,-0.0,-1.0,0.0077043017197325255,1.0,0
46.923885345458984,-17.587249755859375,-0.2495269775390625,-0.0,-0.0,-1.0,0.002938998899781239,1.0,0
46.727745056152344,-17.43631362915039,-0.24804413318634033,-0.0,-0.0,-1.0,0.005348633414594054,1.0,0
47.102962493896484,-19.329856872558594,-0.06223571300506592,-0.0,-0.0,-1.0,0.015471494200597374,1.0,0
47.46009063720703,-18.537227630615234,-0.18359267711639404,-0.0,-0.0,-1.0,0.01074001396262772,1.0,0
47.092193603515625,-18.252628326416016,-0.1813727617263794,-0.0,-0.0,-1.0,0.010290593638356112,1.0,0
46.80967712402344,-18.203720092773438,-0.18833482265472412,-0.6419189560342149,-0.6074728961829616,-0.4678853858446835,0.015075558709281327,3.0,0
45.42839050292969,-17.962459564208984,-0.22285103797912598,-0.0,-0.0,-1.0,0.04214485126250635,1.0,0
46.325836181640625,-19.106807708740234,-0.11885690689086914,-0.0,-0.0,-1.0,0.02856258882061942,1.0,0
46.10466003417969,-19.025413513183594,-0.11830377578735352,-0.0,-0.0,-1.0,0.0275841736506608,1.0,0
45.70079803466797,-18.94528579711914,-0.12052834033966064,-0.0,-0.0,-1.0,0.02653321091161468,1.0,0
45.25767135620117,-18.926956176757812,-0.1262798309326172,-0.0,-0.0,-1.0,0.04161007253618828,1.0,0
46.02381896972656,-19.112668991088867,-0.04886782169342041,-0.0,-0.0,-1.0,0.023020532208353633,2.0,0
45.74416732788086,-19.00663185119629,-0.045998215675354004,-0.0,-0.0,-1.0,0.018174925804261076,1.0,0
45.371097564697266,-19.01325035095215,-0.0480799674987793,-0.0,-0.0,-1.0,0.04163840653797188,1.0,0
46.47388458251953,-18.85269546508789,-0.03858637809753418,-0.0,-0.0,-1.0,0.010489483745366634,1.0,0
46.14032745361328,-18.86517333984375,-0.0409388542175293,-0.0,-0.0,-1.0,0.01528328713395432,1.0,0
45.78859329223633,-18.805057525634766,-0.040448904037475586,-0.0,-0.0,-1.0,0.015408450309183199,1.0,0
45.308536529541016,-18.82909393310547,-0.0439608097076416,-0.0,-0.0,-1.0,0.06641275250766032,1.0,0
47.102943420410156,-19.209747314453125,-0.04935717582702637,-0.0,-0.0,-1.0,0.01577681222642512,2.0,0
45.918373107910156,-19.306846618652344,0.023309826850891113,-0.0,-0.0,-1.0,0.046057639840657194,2.0,1
47.20988845825195,-19.20697021484375,-0.07773005962371826,-0.0,-0.0,-1.0,0.013923759732886856,1.0,0
47.373046875,-16.880817413330078,-0.3281564712524414,-0.0,-0.0,-1.0,0.0023027582005439064,1.0,0
45.334022521972656,-17.927871704101562,-0.2237110137939453,0.03540166236670242,-0.10943784946057655,-0.9933630149180703,0.040719234254333415,3.0,0
47.13345718383789,-18.10551643371582,-0.2569490671157837,-0.0,-0.0,-1.0,0.010698757990675012,1.0,0
47.2502326965332,-18.115276336669922,-0.2591855525970459,-0.0,-0.0,-1.0,0.014258272949121537,2.0,0
47.48015594482422,-18.01597023010254,-0.2576112747192383,-0.0,-0.0,-1.0,0.011905349021652242,2.0,0
45.33741760253906,-17.88568878173828,-0.22823727130889893,-0.0,-0.0,-1.0,0.04071923425433345,2.0,0
45.385955810546875,-16.915714263916016,-0.17596435546875,0.40185430720501597,0.8639387875325397,-0.3035175236746336,0.006673107311990408,3.0,0
47.28234100341797,-17.95809555053711,-0.2576010227203369,-0.0,-0.0,-1.0,0.012867176245716951,1.0,0
47.3004035949707,-18.00713348388672,-0.2604708671569824,-0.0,-0.0,-1.0,0.012946159170608472,1.0,0
45.910255432128906,-19.281476974487305,-0.0048558712005615234,0.834537735684075,-0.45772815778343845,-0.3066458890829559,0.04787237745459528,4.0,0
47.62749481201172,-19.15941619873047,-0.1114577054977417,-0.0,-0.0,-1.0,0.011367120121130376,1.0,0
45.27956771850586,-18.122385025024414,-0.11083436012268066,-0.0,-0.0,-1.0,0.05086294201298953,1.0,0
45.47138595581055,-18.1478214263916,-0.12475371360778809,-0.0,-0.0,-1.0,0.052420075925809474,1.0,0
45.908538818359375,-18.21425437927246,-0.1571943759918213,-0.0,-0.0,-1.0,0.021734191313369604,1.0,0
47.35101318359375,-18.059539794921875,-0.24794888496398926,-0.0,-0.0,-1.0,0.012404196464246897,2.0,0
47.26445770263672,-18.134119033813477,-0.24568665027618408,-0.0,-0.0,-1.0,0.01406937441966065,2.0,0
47.50498962402344,-17.906328201293945,-0.25102758407592773,-0.0,-0.0,-1.0,0.01064199000101828,1.0,0
45.4039306640625,-19.26544761657715,0.0024133920669555664,-0.0,-0.0,-1.0,0.03963064443985057,2.0,1
45.74996566772461,-19.265161514282227,-0.013547778129577637,-0.0,-0.0,-1.0,0.044353046120776084,2.0,0
46.2144775390625,-19.216550827026367,-0.03277099132537842,-0.0,-0.0,-1.0,0.02613352355037365,1.0,0
46.14759063720703,-19.312490463256836,-0.03476297855377197,-0.0,-0.0,-1.0,0.021418182293082965,1.0,0
47.10643768310547,-19.213788986206055,-0.07600843906402588,-0.0,-0.0,-1.0,0.015776812226425116,2.0,0
45.442874908447266,-19.11366081237793,-0.040711164474487305,-0.0,-0.0,-1.0,0.042642032630298136,1.0,0
46.26713180541992,-18.68841552734375,-0.06300699710845947,-0.3922353558880783,-0.12981373328324025,-0.9106590032731355,0.012817688202431171,3.0,0
46.04701614379883,-19.047582626342773,-0.0699993371963501,-0.0,-0.0,-1.0,0.019914593563403058,1.0,0
45.773929595947266,-19.119203567504883,-0.0589216947555542,-0.0,-0.0,-1.0,0.013938522146839523,1.0,0
46.607330322265625,-18.651153564453125,-0.08026552200317383,-0.7124787811413583,-0.524753080057422,-0.4658413800786418,0.021168004350691237,3.0,0
46.18330001831055,-19.03166961669922,-0.07668328285217285,-0.0,-0.0,-1.0,0.03364369459922503,2.0,0
46.86632537841797,-18.658979415893555,-0.09545004367828369,-0.0,-0.0,-1.0,0.012089309051379527,1.0,0
45.525821685791016,-16.87378692626953,-0.1789931058883667,-0.0,-0.0,-1.0,0.011082500696644754,1.0,0
45.48232650756836,-17.066360473632812,-0.2300325632095337,-0.0,-0.0,-1.0,0.006673107311990409,1.0,0
46.20091247558594,-19.083040237426758,-0.07572376728057861,0.5721815581106213,0.33517291398824745,-0.7485101083397127,0.03053190636741737,3.0,0
46.59808349609375,-18.56294059753418,-0.1546175479888916,-0.0,-0.0,-1.0,0.022591854540173584,1.0,0
46.463623046875,-18.999746322631836,-0.11033594608306885,-0.0,-0.0,-1.0,0.01799810240884007,1.0,0
46.995643615722656,-18.28788185119629,-0.21691656112670898,-0.0,-0.0,-1.0,0.009964800652463943,1.0,0
46.93830108642578,-19.24952507019043,-0.1458289623260498,-0.0,-0.0,-1.0,0.011421726921798311,1.0,0
47.504913330078125,-18.2188663482666,-0.2775789499282837,-0.0,-0.0,-1.0,0.008514984812067868,1.0,0
45.74959945678711,-19.300617218017578,-0.012949824333190918,-0.0,-0.0,-1.0,0.0440167898036604,2.0,0
46.06627655029297,-19.19607162475586,-0.03922760486602783,-0.0,-0.0,-1.0,0.023387496244959068,1.0,0
46.220497131347656,-19.127193450927734,-0.052562832832336426,-0.0,-0.0,-1.0,0.030531906367417386,2.0,0
46.374305725097656,-18.61927032470703,-0.07871222496032715,-0.19469647896492442,-0.30981804376159844,-0.9306481939156152,0.01668740256313563,3.0,0
46.344268798828125,-19.025772094726562,-0.06461989879608154,-0.0,-0.0,-1.0,0.029401591655268646,2.0,0
46.62194061279297,-18.65716552734375,-0.09583890438079834,-0.5500869272067448,-0.8099609668519049,-0.20339027678964677,0.02234397552113594,3.0,0
45.918087005615234,-19.131698608398438,-0.028064966201782227,-0.0,-0.0,-1.0,0.01255914878081725,2.0,0
46.23267364501953,-19.08115005493164,-0.05059826374053955,0.6198591550391465,-0.13091356628754278,-0.7737158820109825,0.03192830298984039,3.0,0
46.58124923706055,-18.626293182373047,-0.06838023662567139,-0.0,-0.0,-1.0,0.023666442398178885,2.0,0
46.43779754638672,-18.878389358520508,-0.06221425533294678,-0.0,-0.0,-1.0,0.008907896776997047,1.0,0
46.879478454589844,-18.60762596130371,-0.0903768539428711,-0.0,-0.0,-1.0,0.012336777313960257,1.0,0
47.25004959106445,-18.651460647583008,-0.11893737316131592,-0.0,-0.0,-1.0,0.011134547846342576,1.0,0
47.66034698486328,-18.713266372680664,-0.15082061290740967,-0.0,-0.0,-1.0,0.013455424993928912,1.0,0
46.10919952392578,-19.18058967590332,0.016884803771972656,-0.0,-0.0,-1.0,0.021629639315147626,1.0,1
46.48524475097656,-18.658092498779297,-0.037563323974609375,-0.0,-0.0,-1.0,0.02013513497459355,1.0,0
46.324195861816406,-19.171825408935547,-0.006379127502441406,-0.0,-0.0,-1.0,0.028001967439270123,1.0,0
46.727596282958984,-18.606670379638672,-0.06498956680297852,-0.0,-0.0,-1.0,0.018777194782203376,1.0,0
46.962379455566406,-19.12765121459961,-0.07599782943725586,-0.0,-0.0,-1.0,0.013452169234899515,1.0,0
46.84384536743164,-19.274192810058594,-0.05931079387664795,-0.0,-0.0,-1.0,0.009867261500529072,1.0,0
47.0024299621582,-18.570817947387695,-0.09549891948699951,-0.0,-0.0,-1.0,0.01049231159509922,2.0,0
47.568450927734375,-18.620033264160156,-0.15501582622528076,-0.0,-0.0,-1.0,0.01370003420970467,1.0,0
46.26879119873047,-18.658496856689453,-0.06798660755157471,-0.3922353558880783,-0.12981373328324025,-0.9106590032731355,0.013552227843825745,3.0,0
46.21019744873047,-18.92674446105957,-0.07055342197418213,-0.0,-0.0,-1.0,0.018960854635445477,2.0,0
46.61228942871094,-18.572656631469727,-0.09236907958984375,-0.0,-0.0,-1.0,0.022730641893518585,1.0,0
47.0894775390625,-18.578754425048828,-0.1296321153640747,-0.0,-0.0,-1.0,0.007434844061118204,1.0,0
47.341529846191406,-18.577821731567383,-0.149269700050354,-0.0,-0.0,-1.0,0.01118900767643182,1.0,0
45.989410400390625,-18.101024627685547,-0.10860085487365723,-0.0,-0.0,-1.0,0.02072720141481428,2.0,0
45.990909576416016,-18.43499183654785,-0.11741423606872559,-0.0,-0.0,-1.0,0.01981422235146059,1.0,0
46.47700881958008,-18.20075798034668,-0.15196776390075684,-0.0,-0.0,-1.0,0.017515738680287114,1.0,0
46.13383865356445,-18.378803253173828,-0.1278548240661621,-0.0,-0.0,-1.0,0.019417808744123737,2.0,0
46.594696044921875,-18.12571907043457,-0.1599428653717041,-0.0,-0.0,-1.0,0.016708668289369108,1.0,0
47.02354049682617,-18.038484573364258,-0.19384479522705078,-0.0,-0.0,-1.0,0.008751240841633062,1.0,0
47.63621139526367,-17.79814910888672,-0.2398369312286377,-0.0,-0.0,-1.0,0.00752430203779985,1.0,0
47.47039031982422,-17.950637817382812,-0.22943782806396484,-0.0,-0.0,-1.0,0.010641990001018281,1.0,0
45.74660873413086,-17.955402374267578,-0.08456015586853027,-0.0,-0.0,-1.0,0.0548548868475319,1.0,0
45.456336975097656,-19.098997116088867,-0.13623130321502686,-0.0,-0.0,-1.0,0.02710228198207393,1.0,0
45.22771453857422,-19.1826171875,0.046816349029541016,-0.0,-0.0,-1.0,0.04207072801780237,1.0,1
45.37257385253906,-19.139568328857422,0.037878990173339844,-0.0,-0.0,-1.0,0.04200881270851883,1.0,1
46.22914123535156,-19.0317440032959,-0.020055174827575684,-0.0,-0.0,-1.0,0.03162905534783016,1.0,0
45.40216064453125,-17.941192626953125,-0.13531970977783203,-0.0,-0.0,-1.0,0.044738963010108414,1.0,0
45.29705047607422,-18.20397186279297,-0.10695409774780273,-0.0,-0.0,-1.0,0.04489581035367521,1.0,0
45.36249923706055,-18.548385620117188,-0.09490299224853516,-0.0,-0.0,-1.0,0.02541203840043394,1.0,0
45.79823303222656,-17.680212020874023,-0.19945478439331055,-0.0,-0.0,-1.0,0.021459471650025954,1.0,0
45.57218933105469,-18.76850700378418,-0.0654611587524414,-0.0,-0.0,-1.0,0.04743670620904179,2.0,0
45.70722198486328,-18.37710189819336,-0.10835075378417969,-0.0,-0.0,-1.0,0.015242381646906174,1.0,0
45.77131652832031,-18.702411651611328,-0.09429073333740234,-0.0,-0.0,-1.0,0.033710352054082515,1.0,0
45.92616271972656,-17.74641990661621,-0.17884159088134766,-0.0,-0.0,-1.0,0.020260258404169004,1.0,0
46.12905502319336,-17.5889949798584,-0.2149033546447754,-0.0,-0.0,-1.0,0.017547336102337708,1.0,0
45.22900390625,-18.979469299316406,-0.009467840194702148,-0.0,-0.0,-1.0,0.03783074115025951,1.0,0
45.444183349609375,-18.838638305664062,-0.04511237144470215,-0.0,-0.0,-1.0,0.06752153052680399,2.0,0
45.44751739501953,-17.970108032226562,-0.1044151782989502,-0.0,-0.0,-1.0,0.046276571465594656,1.0,0
45.34409713745117,-17.98847198486328,-0.18251776695251465,-0.0,-0.0,-1.0,0.04151623339856278,1.0,0
45.613319396972656,-17.787559509277344,-0.23020601272583008,-0.0,-0.0,-1.0,0.03749959750813055,1.0,0
46.26545333862305,-19.276975631713867,0.0060100555419921875,-0.0,-0.0,-1.0,0.02137679220186292,1.0,1
46.88777542114258,-19.125885009765625,-0.0887608528137207,-0.0,-0.0,-1.0,0.010446044879901039,1.0,0
46.65787887573242,-18.685474395751953,-0.08030271530151367,-0.0,-0.0,-1.0,0.022776571428840077,2.0,0
46.91966247558594,-18.846620559692383,-0.10811233520507812,-0.0,-0.0,-1.0,0.0028878721993880253,1.0,0
46.802345275878906,-18.448793411254883,-0.11376714706420898,0.7630110220931554,-0.23133945261078245,-0.603569579940956,0.015585162260980794,3.0,0
47.1831169128418,-18.291311264038086,-0.17606711387634277,-0.0,-0.0,-1.0,0.013851267145064274,1.0,0
47.41551971435547,-18.028995513916016,-0.22402238845825195,-0.0,-0.0,-1.0,0.013787417222187107,1.0,0
47.4895133972168,-17.653411865234375,-0.25708651542663574,-0.0,-0.0,-1.0,0.0041533611797467665,1.0,0
47.396202087402344,-17.221317291259766,-0.27117300033569336,-0.0,-0.0,-1.0,0.0022457776979563607,1.0,0
47.3477783203125,-16.93319320678711,-0.28310489654541016,-0.0,-0.0,-1.0,0.00260648235649485,1.0,0
46.158363342285156,-17.43107032775879,-0.08429622650146484,-0.0,-0.0,-1.0,0.01361567822849361,1.0,0
45.38039779663086,-17.92169952392578,-0.22273826599121094,-0.0,-0.0,-1.0,0.04214485126250633,2.0,0
45.48349380493164,-17.697309494018555,-0.2582097053527832,-0.0,-0.0,-1.0,0.014570970525634252,1.0,0
46.20994186401367,-17.463672637939453,-0.2590000629425049,-0.0,-0.0,-1.0,0.012552146080646656,1.0,0
45.28570556640625,-19.264301300048828,0.0428159236907959,-0.0,-0.0,-1.0,0.040768980588023536,2.0,1
45.51633071899414,-19.11411476135254,-0.010040283203125,-0.0,-0.0,-1.0,0.022873627789645305,1.0,0
45.69677734375,-18.940631866455078,-0.05524325370788574,-0.0,-0.0,-1.0,0.026533210911614688,1.0,0
45.88555145263672,-18.862524032592773,-0.09611296653747559,-0.0,-0.0,-1.0,0.015484663832915895,1.0,0
45.74722671508789,-18.531192779541016,-0.09187984466552734,-0.0,-0.0,-1.0,0.03691639210889608,2.0,0
45.51769256591797,-18.131084442138672,-0.07620954513549805,-0.0,-0.0,-1.0,0.05839643727803156,1.0,0
45.685585021972656,-18.10917091369629,-0.10993027687072754,-0.0,-0.0,-1.0,0.05322687765995928,1.0,0
45.88111114501953,-17.829849243164062,-0.16782379150390625,-0.0,-0.0,-1.0,0.02743924790291213,1.0,0
46.077964782714844,-17.674602508544922,-0.21726632118225098,-0.0,-0.0,-1.0,0.022392592290707634,1.0,0
45.59905242919922,-17.123531341552734,-0.1703634262084961,-0.0,-0.0,-1.0,0.011757264335342127,2.0,0
45.96721649169922,-17.183712005615234,-0.2354879379272461,-0.0,-0.0,-1.0,0.012214202206303487,1.0,0
46.16028594970703,-17.332916259765625,-0.26004648208618164,-0.0,-0.0,-1.0,0.012042397924567084,1.0,0
45.28082275390625,-18.2379150390625,-0.13991260528564453,-0.0,-0.0,-1.0,0.04489581035367519,1.0,0
45.60103988647461,-17.937135696411133,-0.2173612117767334,-0.0,-0.0,-1.0,0.035143194265962525,2.0,0
45.71803283691406,-17.771936416625977,-0.24765300750732422,-0.0,-0.0,-1.0,0.037392699775283866,1.0,0
45.60739517211914,-17.354351043701172,-0.23778200149536133,-0.0,-0.0,-1.0,0.009494945537475938,1.0,0
45.775177001953125,-17.603687286376953,-0.26547861099243164,-0.0,-0.0,-1.0,0.021085926375176485,1.0,0
45.34599685668945,-16.9052677154541,-0.19913434982299805,0.40185430720501597,0.8639387875325397,-0.3035175236746336,0.006673107311990406,3.0,0
45.24626922607422,-18.30168342590332,-0.12388372421264648,-0.0,-0.0,-1.0,0.03377740450576778,2.0,0
45.40388870239258,-18.13614845275879,-0.15446043014526367,-0.0,-0.0,-1.0,0.05242007592580944,1.0,0
47.441131591796875,-19.086750030517578,-0.10274171829223633,-0.0,-0.0,-1.0,0.011176035635554832,1.0,0
45.79359436035156,-17.846359252929688,-0.23438668251037598,-0.3740146050826272,0.22966945921451884,-0.898534926805295,0.03902987106306282,3.0,0
47.58274841308594,-18.85883331298828,-0.12051534652709961,-0.0,-0.0,-1.0,0.011543070693485502,1.0,0
45.606689453125,-17.120014190673828,-0.1829371452331543,-0.0,-0.0,-1.0,0.011757264335342127,2.0,0
45.92878723144531,-17.448867797851562,-0.25771665573120117,-0.0,-0.0,-1.0,0.019692583800382867,1.0,0
45.67524719238281,-16.887184143066406,-0.1968705654144287,-0.0,-0.0,-1.0,0.01087842580435323,1.0,0
45.276527404785156,-18.140338897705078,-0.1775064468383789,-0.0,-0.0,-1.0,0.049027879746867876,1.0,0
45.5080680847168,-17.999406814575195,-0.2352616786956787,-0.0,-0.0,-1.0,0.047708464421775475,1.0,0
45.60076141357422,-17.726030349731445,-0.26598262786865234,-0.0,-0.0,-1.0,0.028916500044202268,1.0,0
45.542510986328125,-17.933326721191406,-0.2453317642211914,-0.0,-0.0,-1.0,0.03901304123571781,1.0,0
45.36385726928711,-17.250518798828125,-0.23064756393432617,-0.0,-0.0,-1.0,0.006044511790158641,1.0,0
45.50704574584961,-17.44868278503418,-0.2550339698791504,-0.0,-0.0,-1.0,0.01009375048460578,1.0,0
47.47118377685547,-18.855430603027344,-0.14378857612609863,-0.0,-0.0,-1.0,0.01159141671274513,1.0,0
45.75229263305664,-19.355655670166016,0.19742870330810547,-0.0,-0.0,-1.0,0.0408034840056185,2.0,1
47.375633239746094,-19.119169235229492,-0.12134075164794922,-0.0,-0.0,-1.0,0.011688028251559525,1.0,0
47.40991973876953,-18.977039337158203,-0.12995576858520508,-0.0,-0.0,-1.0,0.009353905517707267,2.0,0
45.235992431640625,-17.526987075805664,-0.2309587001800537,-0.0,-0.0,-1.0,0.013479632545714685,1.0,0
45.374534606933594,-17.8253173828125,-0.25017833709716797,-0.0,-0.0,-1.0,0.03178064914617916,1.0,0
46.900917053222656,-19.29442024230957,-0.08098483085632324,-0.0,-0.0,-1.0,0.011648267517653245,1.0,0
47.105003356933594,-18.78026008605957,-0.132338285446167,-0.0,-0.0,-1.0,0.008053126376778096,2.0,0
47.06648254394531,-18.983421325683594,-0.1201167106628418,-0.0,-0.0,-1.0,0.01279345616876492,1.0,0
47.367431640625,-18.238975524902344,-0.20004987716674805,-0.0,-0.0,-1.0,0.014846987905318665,1.0,0
47.24376678466797,-18.438426971435547,-0.16919922828674316,-0.0,-0.0,-1.0,0.012334601998858417,1.0,0
47.478450775146484,-18.0078182220459,-0.23004364967346191,-0.0,-0.0,-1.0,0.011905349021652235,2.0,0
47.489707946777344,-17.062925338745117,-0.2698690891265869,-0.0,-0.0,-1.0,0.0022457776979563707,1.0,0
47.57048034667969,-17.378929138183594,-0.27236342430114746,-0.0,-0.0,-1.0,0.0024965386891508262,2.0,0
47.587066650390625,-17.702360153198242,-0.2628178596496582,-0.0,-0.0,-1.0,0.005942785285590543,1.0,0
45.750160217285156,-19.329565048217773,0.15395545959472656,-0.0,-0.0,-1.0,0.042947242200077326,2.0,1
47.59706115722656,-17.84781265258789,-0.2933990955352783,-0.0,-0.0,-1.0,0.008253665796278628,1.0,0
47.3807258605957,-17.581418991088867,-0.280214786529541,-0.0,-0.0,-1.0,0.002926279983362348,1.0,0
47.402442932128906,-17.728416442871094,-0.2693946361541748,-0.0,-0.0,-1.0,0.006618014409535359,1.0,0
47.56580352783203,-18.066486358642578,-0.2666020393371582,-0.0,-0.0,-1.0,0.011905349021652238,1.0,0
47.51483154296875,-18.36610221862793,-0.2293083667755127,-0.0,-0.0,-1.0,0.009804829664744722,1.0,0
47.327857971191406,-18.795928955078125,-0.15625619888305664,-0.0,-0.0,-1.0,0.013003365661902449,1.0,0
47.046974182128906,-18.8675537109375,-0.09734392166137695,-0.0,-0.0,-1.0,0.005394323795418085,1.0,0
45.38991165161133,-17.44029998779297,-0.2813863754272461,-0.0,-0.0,-1.0,0.008794694213208016,1.0,0
45.28256607055664,-17.732566833496094,-0.2507016658782959,-0.0,-0.0,-1.0,0.027577259499469122,1.0,0
47.22767639160156,-17.21288299560547,-0.2948801517486572,-0.0,-0.0,-1.0,0.002606482356494814,1.0,0
47.2101936340332,-16.864267349243164,-0.30860304832458496,-0.0,-0.0,-1.0,0.002622238736206612,1.0,0
47.31788635253906,-17.68625259399414,-0.28597497940063477,-0.0,-0.0,-1.0,0.0036357436783217953,1.0,0
47.228172302246094,-17.48756217956543,-0.2828369140625,-0.0,-0.0,-1.0,0.00190250553059609,2.0,0
46.55784606933594,-18.31887435913086,-0.16162896156311035,-0.0,-0.0,-1.0,0.024453380478640936,1.0,0
46.387908935546875,-18.23863410949707,-0.14274954795837402,-0.0,-0.0,-1.0,0.020978826622796976,1.0,0
46.2255859375,-18.633373260498047,-0.10612082481384277,-0.0,-0.0,-1.0,0.013171220430217057,1.0,0
45.95048522949219,-18.285362243652344,-0.08410787582397461,-0.0,-0.0,-1.0,0.018982809664814894,1.0,0
46.213523864746094,-18.892478942871094,-0.09485983848571777,-0.0,-0.0,-1.0,0.018588794228243177,2.0,0
46.11695861816406,-18.578929901123047,-0.0940561294555664,-0.0,-0.0,-1.0,0.01824110756094056,2.0,0
47.22544860839844,-16.99641990661621,-0.25260281562805176,-0.0,-0.0,-1.0,0.0026064823564948135,1.0,0
47.329734802246094,-18.066431045532227,-0.21666717529296875,-0.0,-0.0,-1.0,0.012404196464246944,2.0,0
47.32821273803711,-17.794902801513672,-0.22825407981872559,-0.0,-0.0,-1.0,0.008307906790274502,1.0,0
47.22698211669922,-17.421947479248047,-0.23256206512451172,-0.0,-0.0,-1.0,0.002311542319610313,1.0,0
47.14491271972656,-17.014253616333008,-0.24190783500671387,-0.0,-0.0,-1.0,0.0026222387362066276,1.0,0
46.96246337890625,-18.221073150634766,-0.1644899845123291,-0.0,-0.0,-1.0,0.009469978484244815,1.0,0
46.434486389160156,-18.526874542236328,-0.08617329597473145,-0.0,-0.0,-1.0,0.022747095486183668,1.0,0
46.27604675292969,-18.854089736938477,-0.05346798896789551,-0.0,-0.0,-1.0,0.013690496283205704,1.0,0
46.25285339355469,-18.68659210205078,-0.05711698532104492,-0.3922353558880783,-0.12981373328324025,-0.9106590032731355,0.012615520161302771,3.0,0
45.936729431152344,-19.24701690673828,0.0037314891815185547,0.7848521918757265,-0.6170862194369873,0.05667128628180605,0.04352995153979984,3.0,1
47.530792236328125,-19.06405258178711,-0.1543266773223877,-0.0,-0.0,-1.0,0.009625847480096207,1.0,0
47.522071838378906,-18.882110595703125,-0.16038846969604492,-0.0,-0.0,-1.0,0.011543070693485502,1.0,0
47.28683090209961,-19.3040828704834,-0.11472344398498535,-0.0,-0.0,-1.0,0.012839842873752007,1.0,0
47.141510009765625,-18.832521438598633,-0.11501264572143555,-0.0,-0.0,-1.0,0.007425154162081365,1.0,0
47.57636260986328,-19.053180694580078,-0.11240291595458984,-0.0,-0.0,-1.0,0.009947650863370494,1.0,0
47.2008171081543,-19.260602951049805,-0.07624340057373047,-0.0,-0.0,-1.0,0.015317218021101307,1.0,0
46.606849670410156,-17.16712188720703,-0.24998021125793457,-0.0,-0.0,-1.0,0.005322879838168028,1.0,0
46.27850341796875,-17.011959075927734,-0.20586943626403809,-0.0,-0.0,-1.0,0.0071086083277995295,1.0,0
45.80457305908203,-17.97971534729004,-0.1689605712890625,-0.0,-0.0,-1.0,0.05654417728009756,2.0,0
45.84883499145508,-17.89224624633789,-0.1722257137298584,-0.0,-0.0,-1.0,0.03706021982014335,1.0,0
45.234962463378906,-18.328893661499023,-0.10769057273864746,-0.0,-0.0,-1.0,0.044775673327150274,2.0,0
45.34333801269531,-18.11542320251465,-0.11525225639343262,-0.0,-0.0,-1.0,0.05086294201298956,1.0,0
47.68756866455078,-16.95256996154785,-0.28696298599243164,-0.0,-0.0,-1.0,0.0023184385678603754,1.0,0
47.57452392578125,-17.384225845336914,-0.27864909172058105,-0.0,-0.0,-1.0,0.0024965386891508267,2.0,0
47.5504264831543,-17.090476989746094,-0.2720761299133301,-0.0,-0.0,-1.0,0.002318438567860375,1.0,0
46.814476013183594,-18.078296661376953,-0.19874143600463867,-0.0,-0.0,-1.0,0.012194476524599939,1.0,0
46.78638458251953,-18.17236328125,-0.19709014892578125,-0.6419189560342149,-0.6074728961829616,-0.4678853858446835,0.017124648142202308,3.0,0
46.43086242675781,-18.31436538696289,-0.1574850082397461,-0.0,-0.0,-1.0,0.02534563381460322,1.0,0
46.13846969604492,-18.3699893951416,-0.1238398551940918,-0.0,-0.0,-1.0,0.01941780874412374,2.0,0
45.92885208129883,-18.533557891845703,-0.10232043266296387,-0.0,-0.0,-1.0,0.016083757784919876,2.0,0
45.550079345703125,-18.10056495666504,-0.04871559143066406,-0.0,-0.0,-1.0,0.06349516224561198,2.0,0
45.70245361328125,-18.837034225463867,-0.08217978477478027,-0.0,-0.0,-1.0,0.04355376390885176,1.0,0
47.09313201904297,-18.410221099853516,-0.14565229415893555,-0.0,-0.0,-1.0,0.010422086963985826,1.0,0
46.675376892089844,-18.541072845458984,-0.10232734680175781,-0.0,-0.0,-1.0,0.0217353620573644,1.0,0
46.35859680175781,-18.784481048583984,-0.07359004020690918,-0.0,-0.0,-1.0,0.011017830731121881,1.0,0
46.19672393798828,-19.047788619995117,-0.0631403923034668,0.825985758570928,0.2739884947408887,-0.4926234174170267,0.03497993952622262,3.0,0
46.28631591796875,-18.920673370361328,-0.06939244270324707,-0.0,-0.0,-1.0,0.017263538634019377,1.0,0
45.90990447998047,-19.144508361816406,-0.034191131591796875,-0.0,-0.0,-1.0,0.012998663844234017,2.0,0
45.42225646972656,-19.284141540527344,0.015494585037231445,-0.0,-0.0,-1.0,0.054048826554848335,2.0,1
45.29881286621094,-19.220136642456055,0.05649733543395996,-0.0,-0.0,-1.0,0.04128799728057707,2.0,1
45.595375061035156,-19.15287208557129,0.03264760971069336,-0.0,-0.0,-1.0,0.04773562122074429,1.0,1
45.96082305908203,-19.055688858032227,0.0032138824462890625,-0.0,-0.0,-1.0,0.018972818280191664,1.0,1
46.39338684082031,-18.578702926635742,-0.03198885917663574,-0.0,-0.0,-1.0,0.024858662442632257,1.0,0
46.36549377441406,-18.97475242614746,-0.029406070709228516,-0.0,-0.0,-1.0,0.026440940955921092,1.0,0
46.64841842651367,-18.482873916625977,-0.052636146545410156,-0.0,-0.0,-1.0,0.022721620054256028,1.0,0
47.0243034362793,-18.513418197631836,-0.0829317569732666,-0.0,-0.0,-1.0,0.009317363161548492,1.0,0
47.28425598144531,-18.542211532592773,-0.10389113426208496,-0.0,-0.0,-1.0,0.010853121117183333,1.0,0
45.30976867675781,-19.25395965576172,-0.005074739456176758,-0.0,-0.0,-1.0,0.040768980588023536,1.0,0
45.65959930419922,-19.16307830810547,-0.03184175491333008,-0.0,-0.0,-1.0,0.040947871243406354,1.0,0
46.133941650390625,-19.085647583007812,-0.06855940818786621,-0.0,-0.0,-1.0,0.029263635883747113,2.0,0
46.48207092285156,-18.632198333740234,-0.09373903274536133,-0.7106341769987038,0.6560824665237652,-0.25407649163483725,0.023214489876937472,3.0,0
47.291046142578125,-18.6590576171875,-0.1578681468963623,-0.0,-0.0,-1.0,0.012147804609843554,1.0,0
47.303489685058594,-18.136768341064453,-0.1718735694885254,-0.0,-0.0,-1.0,0.014398040997903264,1.0,0
45.292755126953125,-18.890892028808594,-0.037546396255493164,-0.0,-0.0,-1.0,0.06668329677286704,1.0,0
45.728477478027344,-18.55060577392578,-0.06434106826782227,-0.0,-0.0,-1.0,0.04066186064129811,2.0,0
45.5656623840332,-18.72259521484375,-0.054871320724487305,-0.0,-0.0,-1.0,0.04632578171375111,2.0,0
45.982357025146484,-18.131793975830078,-0.07731056213378906,-0.0,-0.0,-1.0,0.02055571810072427,2.0,0
45.855308532714844,-18.467086791992188,-0.07235383987426758,-0.0,-0.0,-1.0,0.01671025473291152,1.0,0
46.471134185791016,-18.30025863647461,-0.11427807807922363,-0.0,-0.0,-1.0,0.025643473749134733,1.0,0
46.789756774902344,-18.189529418945312,-0.13572168350219727,-0.0,-0.0,-1.0,0.017186657802271202,2.0,0
47.05799102783203,-18.12731170654297,-0.1541728973388672,-0.0,-0.0,-1.0,0.008872793267863418,1.0,0
47.09416198730469,-19.31239128112793,-0.15891647338867188,-0.0,-0.0,-1.0,0.015471494200597374,1.0,0
47.32583236694336,-18.860416412353516,-0.16545772552490234,-0.0,-0.0,-1.0,0.009255873602035449,1.0,0
46.48007583618164,-19.296058654785156,-0.0861368179321289,-0.0,-0.0,-1.0,0.011661846221091494,1.0,0
45.698184967041016,-19.275192260742188,0.0065765380859375,-0.0,-0.0,-1.0,0.04078241939118735,1.0,1
47.19404983520508,-18.42943572998047,-0.17599821090698242,-0.0,-0.0,-1.0,0.01141998059950789,1.0,0
46.571109771728516,-18.465042114257812,-0.14371728897094727,-0.0,-0.0,-1.0,0.023261868070288138,1.0,0
45.50179672241211,-18.829898834228516,-0.13451051712036133,-0.0,-0.0,-1.0,0.05801403596512892,1.0,0
45.71442413330078,-18.648143768310547,-0.11980009078979492,-0.0,-0.0,-1.0,0.04466676681730754,1.0,0
46.13105773925781,-18.496599197387695,-0.12197160720825195,-0.0,-0.0,-1.0,0.01970954699314924,2.0,0
45.42787170410156,-18.865951538085938,-0.0597233772277832,-0.0,-0.0,-1.0,0.06752153052680394,2.0,0
45.833251953125,-18.72303009033203,-0.0629267692565918,-0.0,-0.0,-1.0,0.011972301749853547,1.0,0
46.26789093017578,-18.59628677368164,-0.0707850456237793,-0.0,-0.0,-1.0,0.014579386985111038,1.0,0
47.00184631347656,-18.57132339477539,-0.1136937141418457,-0.0,-0.0,-1.0,0.010492311595099118,2.0,0
47.38677215576172,-18.631927490234375,-0.14765596389770508,-0.0,-0.0,-1.0,0.010514841576375342,2.0,0
45.32918167114258,-18.17165756225586,-0.1786518096923828,-0.0,-0.0,-1.0,0.05086294201298958,1.0,0
45.709510803222656,-17.956615447998047,-0.21410179138183594,-0.0,-0.0,-1.0,0.05988493671786522,2.0,0
46.11918640136719,-17.751829147338867,-0.2553243637084961,-0.0,-0.0,-1.0,0.02048799232828171,1.0,0
46.312252044677734,-17.417768478393555,-0.25647401809692383,-0.0,-0.0,-1.0,0.00986977118459412,1.0,0
45.69622802734375,-18.156938552856445,0.294527530670166,-0.0,-0.0,-1.0,0.13491255598375146,1.0,1
45.3072624206543,-18.89656639099121,0.041961669921875,-0.0,-0.0,-1.0,0.06668329677286704,1.0,1
45.85017395019531,-18.569854736328125,-0.07257938385009766,-0.0,-0.0,-1.0,0.015024182553805646,1.0,0
46.193180084228516,-18.27666664123535,-0.15195846557617188,-0.0,-0.0,-1.0,0.019662901810255404,1.0,0
46.21794891357422,-17.803674697875977,-0.19434404373168945,-0.0,-0.0,-1.0,0.01610405521620654,1.0,0
46.148109436035156,-17.976531982421875,-0.1690211296081543,-0.0,-0.0,-1.0,0.011237518339223136,1.0,0
46.600807189941406,-16.94455909729004,-0.3258190155029297,-0.0,-0.0,-1.0,0.004428544396485147,1.0,0
45.21931838989258,-19.007280349731445,0.06125211715698242,-0.0,-0.0,-1.0,0.04406759644330732,1.0,1
45.464637756347656,-19.300575256347656,0.04294300079345703,-0.0,-0.0,-1.0,0.04482024180760034,1.0,1
45.57394027709961,-18.033306121826172,-0.0738987922668457,-0.0,-0.0,-1.0,0.0557211319792737,1.0,0
45.864723205566406,-17.734098434448242,-0.14582204818725586,-0.0,-0.0,-1.0,0.026928215607179302,1.0,0
45.98705291748047,-17.475963592529297,-0.18629884719848633,-0.0,-0.0,-1.0,0.01886880509891035,1.0,0
45.505348205566406,-18.682756423950195,0.11859416961669922,-0.0,-0.0,-1.0,0.09776326477057537,1.0,1
46.43608856201172,-18.13806915283203,-0.10169458389282227,-0.0,-0.0,-1.0,0.013387818035387921,1.0,0
46.63530731201172,-17.824386596679688,-0.169586181640625,-0.0,-0.0,-1.0,0.005382928694002461,1.0,0
46.587303161621094,-17.423067092895508,-0.20313501358032227,-0.0,-0.0,-1.0,0.005885900179653374,1.0,0
45.78878402709961,-17.80361557006836,-0.22145891189575195,0.09886043740507235,0.2982560381522781,-0.9493523843240635,0.03211609170772455,3.0,0
45.96384048461914,-17.584001541137695,-0.25602149963378906,-0.0,-0.0,-1.0,0.019636566804131242,1.0,0
45.31138610839844,-17.0643310546875,-0.16451215744018555,-0.0,-0.0,-1.0,0.006916978969815868,1.0,0
