x,y,z,nx,ny,nz,curvature,density,label
38.52903747558594,29.441200256347656,-2.3481903076171875,-0.0,-0.0,-1.0,0.10992216837914248,2.0,0
38.37230682373047,29.046764373779297,-2.472247362136841,-0.0,-0.0,-1.0,0.030164123799927094,1.0,0
39.70381164550781,28.60439682006836,-2.5203921794891357,-0.273321523320297,0.2299732642909065,-0.9340276455230099,0.09588479556291454,3.0,0
38.492713928222656,29.20648193359375,-2.4171721935272217,0.7293122699883894,0.2697753420616136,-0.6287486601655083,0.07170127929088363,5.0,0
40.03002166748047,28.16790008544922,-2.381019353866577,-0.0,-0.0,-1.0,0.0630531117097414,1.0,0
39.8238525390625,28.995162963867188,-2.5117790699005127,-0.0,-0.0,-1.0,0.044331593021329274,1.0,0
38.68981170654297,30.37641143798828,-2.607618570327759,-0.0,-0.0,-1.0,0.03868169009346693,1.0,0
38.45539474487305,29.344879150390625,-2.3418643474578857,-0.8465127953319019,-0.5266200495767316,-0.07802186054671072,0.12162024385230445,5.0,0
39.02488708496094,29.419269561767578,-2.525146484375,-0.0,-0.0,-1.0,0.040621536363915696,1.0,0
38.295318603515625,30.296306610107422,-2.619894504547119,-0.0,-0.0,-1.0,0.05402298934833827,1.0,0
39.16462707519531,29.035560607910156,-2.4625043869018555,-0.0,-0.0,-1.0,0.08882490395799769,1.0,0
38.472503662109375,29.248714447021484,-2.4117774963378906,0.9940187022427664,-0.10870041123876177,-0.010537560824503238,0.06068993550365603,7.0,0
40.03446960449219,29.098358154296875,-2.422778844833374,-0.5940591483440706,0.8040343120471559,-0.02495101840756648,0.12879595186223222,3.0,0
38.534976959228516,29.543251037597656,-2.3200435638427734,-0.0,-0.0,-1.0,0.07399017967937585,1.0,0
38.51861572265625,28.16977310180664,-2.34722638130188,-0.0,-0.0,-1.0,0.04108961166510989,2.0,0
39.61055374145508,28.818675994873047,-2.494776964187622,-0.0,-0.0,-1.0,0.019851991160558007,1.0,0
39.259544372558594,28.99773406982422,-2.4901554584503174,-0.0,-0.0,-1.0,0.06959866798059255,1.0,0
39.917625427246094,29.067867279052734,-2.4236245155334473,0.45059368540588646,0.688864246233432,-0.5678304156467728,0.09806642032897285,3.0,0
39.41901779174805,28.205791473388672,-2.5236802101135254,-0.0,-0.0,-1.0,0.013257419490565902,1.0,0
39.78163146972656,28.200130462646484,-2.478590965270996,-0.0,-0.0,-1.0,0.04839288633384734,2.0,0
38.582786560058594,29.310914993286133,-2.2981607913970947,-0.0,-0.0,-1.0,0.10709589240274277,2.0,0
38.13409423828125,28.412765502929688,-1.7150580883026123,-0.0,-0.0,-1.0,0.11655929941275595,1.0,0
38.54634094238281,29.274333953857422,-2.3224525451660156,0.9196771651197593,-0.21056679031098066,-0.33144462399534286,0.11410919902078542,6.0,0
39.097511291503906,29.657676696777344,-2.4478507041931152,-0.0,-0.0,-1.0,0.0550720158323869,1.0,0
39.62504959106445,29.659412384033203,-2.4211997985839844,-0.0,-0.0,-1.0,0.056470279013533964,2.0,0
38.655216217041016,29.26915740966797,-2.396589756011963,-0.0,-0.0,-1.0,0.14021120130398715,1.0,0
39.100669860839844,29.632673263549805,-2.5176308155059814,-0.0,-0.0,-1.0,0.06076548296811261,2.0,0
38.12148666381836,28.208194732666016,-2.366638660430908,-0.0,-0.0,-1.0,0.07875755879600696,1.0,0
38.31334686279297,29.35880470275879,-2.415787696838379,-0.0,-0.0,-1.0,0.0838360239459536,2.0,0
38.314842224121094,29.294189453125,-2.37593412399292,-0.0,-0.0,-1.0,0.07399445542782886,2.0,0
39.46866226196289,30.295291900634766,-2.390186309814453,-0.0,-0.0,-1.0,0.10466685422449268,1.0,0
39.181697845458984,30.332191467285156,-2.4477765560150146,-0.0,-0.0,-1.0,0.08929475278275197,2.0,0
39.36370849609375,30.3171329498291,-2.2965409755706787,-0.0,-0.0,-1.0,0.14682627002424833,1.0,0
38.12540054321289,30.463151931762695,-2.4339935779571533,-0.0,-0.0,-1.0,0.034780802910712935,1.0,0
39.53509521484375,29.149246215820312,-2.556389331817627,-0.0,-0.0,-1.0,0.04726436178829064,2.0,0
38.442047119140625,29.168590545654297,-2.436260938644409,0.01777913214983077,0.9698929132451879,0.24288194518481906,0.04413154974442135,4.0,0
39.937355041503906,28.18585777282715,-2.4012513160705566,-0.0,-0.0,-1.0,0.06578673042767717,1.0,0
39.91293716430664,29.04707145690918,-2.452573299407959,-0.0,-0.0,-1.0,0.09722161730265415,2.0,0
39.95356369018555,29.297832489013672,-2.4026761054992676,-0.0,-0.0,-1.0,0.07771716594717411,1.0,0
37.925052642822266,28.219722747802734,-2.4424326419830322,-0.0,-0.0,-1.0,0.05025869873112191,1.0,0
39.88050079345703,28.371597290039062,-2.470994472503662,-0.0,-0.0,-1.0,0.04998173368330791,1.0,0
39.79435348510742,28.31310272216797,-2.46246075630188,-0.0,-0.0,-1.0,0.05210232414613508,1.0,0
39.95515823364258,29.499622344970703,-2.427396297454834,-0.0,-0.0,-1.0,0.13892845728081665,2.0,0
39.97894287109375,29.051572799682617,-2.4413352012634277,-0.0,-0.0,-1.0,0.09224214379288603,2.0,0
39.81298828125,29.534883499145508,-2.5535411834716797,-0.0,-0.0,-1.0,0.14851672382097503,1.0,0
39.812644958496094,28.784753799438477,-2.458240509033203,-0.0,-0.0,-1.0,0.03154250214698172,1.0,0
38.23644256591797,29.453765869140625,-2.4432790279388428,-0.0,-0.0,-1.0,0.09673139996330712,1.0,0
39.6431770324707,29.116348266601562,-2.4759140014648438,-0.0,-0.0,-1.0,0.03933223728940921,1.0,0
40.00994873046875,29.447998046875,-2.3980867862701416,-0.0,-0.0,-1.0,0.13091254969973756,1.0,0
38.39104461669922,29.333053588867188,-2.3633251190185547,-0.0,-0.0,-1.0,0.10720140519912763,2.0,0
40.027732849121094,28.508647918701172,-2.2395055294036865,-0.0,-0.0,-1.0,0.15935308209050025,1.0,0
39.82107925415039,28.57699966430664,-2.2057290077209473,-0.0,-0.0,-1.0,0.13566334640653946,1.0,0
40.116058349609375,29.968399047851562,-2.3016552925109863,-0.0,-0.0,-1.0,0.06269604872354528,1.0,0
38.49040985107422,29.470378875732422,-2.345860481262207,-0.4408820635552956,-0.732564347177047,-0.5186255713713811,0.08994910333838599,5.0,0
38.39997863769531,29.52425765991211,-2.417022466659546,-0.0,-0.0,-1.0,0.04794054645964014,2.0,0
40.15180206298828,29.562793731689453,-2.3603036403656006,-0.0,-0.0,-1.0,0.12442129677596897,2.0,0
38.2066764831543,29.873733520507812,-2.5360188484191895,-0.0,-0.0,-1.0,0.04868227547831905,1.0,0
40.06410598754883,29.466402053833008,-2.4218268394470215,-0.0,-0.0,-1.0,0.14410564628338315,1.0,0
38.46483612060547,29.70086669921875,-2.511211395263672,-0.0,-0.0,-1.0,0.0859114305178907,2.0,0
40.14252853393555,29.51978874206543,-2.4859328269958496,-0.0,-0.0,-1.0,0.12965864692329734,1.0,0
38.79446792602539,30.07528305053711,-2.5728697776794434,-0.0,-0.0,-1.0,0.009724554666473553,1.0,0
39.85249328613281,29.623565673828125,-2.594313621520996,-0.0,-0.0,-1.0,0.12728282100416674,1.0,0
38.72507095336914,29.238935470581055,-2.3389365673065186,-0.0,-0.0,-1.0,0.12500077450991198,1.0,0
37.80194854736328,28.34758758544922,-2.047759532928467,-0.0,-0.0,-1.0,0.09420491173304699,1.0,0
40.13325119018555,29.15030860900879,-2.447638988494873,0.6135355585365441,-0.04734916227300442,-0.7882462656069461,0.1039065926260763,3.0,0
40.129817962646484,29.671823501586914,-2.4984097480773926,-0.0,-0.0,-1.0,0.17428604479656332,1.0,0
40.180110931396484,28.783645629882812,-2.4543137550354004,-0.0,-0.0,-1.0,0.0648842180132653,1.0,0
39.95158004760742,28.983619689941406,-2.482974052429199,-0.0,-0.0,-1.0,0.07618348860849271,2.0,0
39.852230072021484,29.194293975830078,-2.5198140144348145,-0.0,-0.0,-1.0,0.1553887649395321,1.0,0
39.3189811706543,29.116458892822266,-2.4807534217834473,-0.0,-0.0,-1.0,0.054557552955303755,2.0,0
38.42604446411133,29.17522430419922,-2.4534177780151367,0.46983110034546993,-0.4430989021428558,-0.7634933529952704,0.03849774677658508,4.0,0
38.31258010864258,29.25860023498535,-2.4651126861572266,0.7701079882606175,0.6299360411899506,0.10056972917889974,0.06365815390059334,4.0,0
38.35297775268555,29.607011795043945,-2.5361485481262207,-0.0,-0.0,-1.0,0.1341401688926429,2.0,0
38.26158142089844,29.82352066040039,-2.5754804611206055,-0.0,-0.0,-1.0,0.0905959519994577,2.0,0
37.989776611328125,29.86725616455078,-2.572941780090332,-0.0,-0.0,-1.0,0.028703926351751875,1.0,0
40.18772506713867,28.214094161987305,-2.4306492805480957,-0.0,-0.0,-1.0,0.14572841369350079,1.0,0
40.08322525024414,28.392656326293945,-2.4391674995422363,-0.19210601880776754,0.510530890969582,-0.8381249828657027,0.10105730668278352,3.0,0
39.74932861328125,28.7299747467041,-2.438584804534912,-0.0,-0.0,-1.0,0.01565402840758517,1.0,0
39.5876350402832,29.039098739624023,-2.457097053527832,-0.0,-0.0,-1.0,0.04514259731831167,1.0,0
39.1451530456543,29.382444381713867,-2.4457101821899414,-0.0,-0.0,-1.0,0.06684276662820798,1.0,0
39.13824462890625,29.5551815032959,-2.4670848846435547,-0.0,-0.0,-1.0,0.061806324071362335,1.0,0
38.64780807495117,30.02606773376465,-2.468508720397949,-0.0,-0.0,-1.0,0.009698956428139307,1.0,0
38.80720520019531,30.523193359375,-2.553337574005127,-0.0,-0.0,-1.0,0.04925255209665239,1.0,0
39.7925910949707,28.338165283203125,-2.3953375816345215,-0.0,-0.0,-1.0,0.05347926602707755,1.0,0
39.812660217285156,28.518739700317383,-2.420276641845703,-0.0,-0.0,-1.0,0.10928987216722996,1.0,0
39.221736907958984,29.091684341430664,-2.4180245399475098,-0.0,-0.0,-1.0,0.0488340842721453,1.0,0
38.942867279052734,29.559749603271484,-2.4436440467834473,-0.0,-0.0,-1.0,0.0682819112774292,1.0,0
38.42255401611328,29.382482528686523,-2.356926918029785,-0.2384492506189914,0.03353420821356374,-0.9705758145342026,0.10176560766563772,3.0,0
38.46272659301758,29.6845703125,-2.401257038116455,-0.0,-0.0,-1.0,0.06761526032591159,1.0,0
40.12999725341797,29.0324764251709,-2.4516355991363525,-0.2962524340190849,-0.6190182894805863,-0.7273588197212544,0.12795793861092458,3.0,0
40.115787506103516,29.193849563598633,-2.4638473987579346,0.9324677012534114,0.2899996018552472,-0.21541638062825438,0.10147114158231312,5.0,0
38.5418701171875,29.3194580078125,-2.3129193782806396,0.5705493066475742,0.12115456000159573,-0.8122776996045084,0.13009416070109797,8.0,0
40.08100128173828,28.284929275512695,-2.7465858459472656,-0.0,-0.0,-1.0,0.1459093985489424,1.0,0
39.932273864746094,29.038972854614258,-2.781229019165039,-0.0,-0.0,-1.0,0.1795673080866785,1.0,0
39.929359436035156,29.359012603759766,-2.804621696472168,-0.0,-0.0,-1.0,0.14485513758960078,1.0,0
39.882781982421875,28.385944366455078,-2.7271928787231445,-0.0,-0.0,-1.0,0.14045683389722805,1.0,0
39.85277557373047,28.678159713745117,-2.7442970275878906,-0.0,-0.0,-1.0,0.12182209658800658,1.0,0
39.873077392578125,29.157730102539062,-2.7822017669677734,-0.0,-0.0,-1.0,0.17822315521490556,1.0,0
39.72161102294922,29.53395652770996,-2.790576457977295,-0.0,-0.0,-1.0,0.11025547834965241,1.0,0
38.498207092285156,29.270601272583008,-2.6113500595092773,-0.0,-0.0,-1.0,0.22317714187457077,1.0,0
38.45527648925781,29.397869110107422,-2.615786552429199,-0.0,-0.0,-1.0,0.1433621550758972,1.0,0
39.63312911987305,28.32254409790039,-2.5422441959381104,-0.0,-0.0,-1.0,0.04206937384948943,1.0,0
39.5692138671875,28.785213470458984,-2.560657262802124,-0.919725028247571,0.07660964562741054,-0.38501536931900193,0.01924164768415682,3.0,0
39.558597564697266,29.060546875,-2.5759990215301514,-0.0,-0.0,-1.0,0.0470267948214714,2.0,0
39.28208541870117,29.246185302734375,-2.5484063625335693,-0.0,-0.0,-1.0,0.04229275765099738,1.0,0
39.37968444824219,29.526092529296875,-2.5799720287323,-0.0,-0.0,-1.0,0.023080317102952563,1.0,0
38.43729019165039,29.29212188720703,-2.4325578212738037,-0.10350948436673424,0.9945721215320125,-0.010586865326645906,0.07790408733776057,3.0,0
39.41341018676758,28.15299415588379,-2.4999334812164307,-0.0,-0.0,-1.0,0.015640235199936046,1.0,0
39.55887985229492,28.788429260253906,-2.5353314876556396,-0.919725028247571,0.07660964562741054,-0.38501536931900193,0.01924164768415683,3.0,0
39.40625,29.165142059326172,-2.517679452896118,-0.0,-0.0,-1.0,0.06251110517818532,1.0,0
39.394649505615234,29.543128967285156,-2.524047613143921,-0.0,-0.0,-1.0,0.023767484611054504,2.0,0
39.228782653808594,29.206920623779297,-2.4893529415130615,-0.0,-0.0,-1.0,0.043708223278432295,1.0,0
38.47142791748047,29.415390014648438,-2.370042562484741,-0.2968637635404463,-0.44556652401109387,-0.844595985413898,0.12413153258239354,3.0,0
40.19808578491211,29.498554229736328,-2.3904759883880615,-0.0,-0.0,-1.0,0.12170251073911519,1.0,0
40.12120819091797,28.776206970214844,-2.3467905521392822,-0.0,-0.0,-1.0,0.05324424361878168,1.0,0
40.090511322021484,29.014293670654297,-2.353464365005493,-0.0,-0.0,-1.0,0.07909045552544365,1.0,0
39.765296936035156,30.1784610748291,-2.604123592376709,-0.0,-0.0,-1.0,0.13595714768572761,1.0,0
39.1615104675293,29.224071502685547,-2.485581874847412,-0.0,-0.0,-1.0,0.042710626372117755,1.0,0
39.23735809326172,28.572113037109375,-2.483473777770996,-0.0,-0.0,-1.0,0.016108340954766952,1.0,0
38.95127487182617,28.39251708984375,-2.4349822998046875,-0.0,-0.0,-1.0,0.01188045945285665,1.0,0
39.04523468017578,28.74954605102539,-2.4568610191345215,-0.0,-0.0,-1.0,0.03271456151101982,1.0,0
39.11808395385742,28.985980987548828,-2.4733400344848633,-0.0,-0.0,-1.0,0.08362521904816933,2.0,0
38.50199890136719,29.268831253051758,-2.3836045265197754,0.7646270712815545,0.12385726737739063,-0.6324593419194616,0.11538833284111986,6.0,0
38.55582809448242,29.572540283203125,-2.399813652038574,-0.0,-0.0,-1.0,0.06209136189694432,1.0,0
37.7908935546875,29.369117736816406,-2.5211265087127686,-0.0,-0.0,-1.0,0.10272612450418683,1.0,0
37.868743896484375,29.86794662475586,-2.551255941390991,-0.0,-0.0,-1.0,0.06977296361650653,1.0,0
38.85921096801758,30.535114288330078,-2.6489927768707275,-0.0,-0.0,-1.0,0.04289332443118319,1.0,0
38.59507369995117,30.04285430908203,-2.5893218517303467,-0.0,-0.0,-1.0,0.016459736360150454,1.0,0
38.77167510986328,30.300983428955078,-2.6266300678253174,-0.0,-0.0,-1.0,0.03922015309131085,1.0,0
38.21808624267578,28.43832015991211,-2.4822185039520264,-0.0,-0.0,-1.0,0.059325105013788834,1.0,0
38.1424674987793,28.883930206298828,-2.4810307025909424,-0.0,-0.0,-1.0,0.05869542796354158,2.0,0
38.21814727783203,29.214279174804688,-2.5025246143341064,-0.0,-0.0,-1.0,0.06865499747632534,2.0,0
38.335289001464844,29.60930061340332,-2.533320188522339,-0.0,-0.0,-1.0,0.1341401688926429,2.0,0
38.35593795776367,29.827001571655273,-2.543504476547241,-0.0,-0.0,-1.0,0.08072042374069234,1.0,0
37.98434066772461,28.13798713684082,-2.4370038509368896,-0.0,-0.0,-1.0,0.06971301445821958,2.0,0
39.949615478515625,30.314105987548828,-2.664212226867676,-0.0,-0.0,-1.0,0.10235797692023776,1.0,0
39.706695556640625,30.156471252441406,-2.6207704544067383,-0.0,-0.0,-1.0,0.09248262508376565,1.0,0
39.01517105102539,28.592132568359375,-2.466207504272461,-0.0,-0.0,-1.0,0.016514282423515644,1.0,0
39.00761795043945,29.017942428588867,-2.4760375022888184,-0.0,-0.0,-1.0,0.09624209350930595,1.0,0
39.19721221923828,29.950408935546875,-2.5339512825012207,-0.0,-0.0,-1.0,0.02335904244650183,1.0,0
38.77047348022461,28.292434692382812,-2.420203685760498,-0.0,-0.0,-1.0,0.02421250487065226,1.0,0
38.88417053222656,28.57617950439453,-2.444990634918213,-0.0,-0.0,-1.0,0.016261450034739326,1.0,0
38.51658630371094,29.201553344726562,-2.4036478996276855,0.35647323091469324,-0.4773213772043311,-0.8031756585610652,0.10016309292517585,3.0,0
38.586997985839844,29.623905181884766,-2.4275283813476562,-0.0,-0.0,-1.0,0.056010485347735804,1.0,0
38.38255310058594,29.38267707824707,-2.387911319732666,0.7207449538578757,-0.47893519498495435,-0.5011464760857169,0.10022124355863528,5.0,0
39.89237976074219,30.12837791442871,-2.5995683670043945,-0.0,-0.0,-1.0,0.10237021768965317,2.0,0
39.42803192138672,28.22805404663086,-2.4388346672058105,-0.0,-0.0,-1.0,0.016699008522547378,1.0,0
39.563629150390625,28.499229431152344,-2.471403121948242,-0.0,-0.0,-1.0,0.032668204544171985,1.0,0
39.46727752685547,28.86809539794922,-2.472074508666992,-0.0,-0.0,-1.0,0.033701800844161925,1.0,0
39.68013381958008,29.834590911865234,-2.5512137413024902,-0.0,-0.0,-1.0,0.02914085381609152,1.0,0
39.29808044433594,29.058996200561523,-2.4539670944213867,-0.0,-0.0,-1.0,0.05541152053013291,1.0,0
39.283416748046875,29.210107803344727,-2.458627700805664,-0.0,-0.0,-1.0,0.054337167106191825,1.0,0
38.468387603759766,29.337923049926758,-2.3364181518554688,0.2788910322643395,0.13655634897920868,-0.9505641249679055,0.11644301507882665,6.0,0
40.17222595214844,28.652870178222656,-2.4448964595794678,-0.0,-0.0,-1.0,0.1422175958543154,1.0,0
40.09801483154297,28.918453216552734,-2.4431374073028564,-0.0,-0.0,-1.0,0.0894740256430584,1.0,0
38.40167999267578,30.177902221679688,-2.6150259971618652,-0.0,-0.0,-1.0,0.02833706241521476,2.0,0
38.46977615356445,30.470932006835938,-2.636013984680176,-0.0,-0.0,-1.0,0.03652144921130426,1.0,0
38.08927536010742,29.410968780517578,-2.5399575233459473,-0.0,-0.0,-1.0,0.06738468486537245,1.0,0
38.31394958496094,30.026981353759766,-2.5956168174743652,-0.0,-0.0,-1.0,0.03359840242141819,1.0,0
37.85877227783203,28.511859893798828,-2.4787111282348633,-0.0,-0.0,-1.0,0.009363458924957333,2.0,0
37.89750289916992,28.912490844726562,-2.4947938919067383,-0.0,-0.0,-1.0,0.06219178855418895,2.0,0
37.99036407470703,29.20807647705078,-2.517937183380127,-0.5152806068225495,-0.756274708749134,-0.40315562893130696,0.05137005175378755,3.0,0
40.180694580078125,29.88321876525879,-2.648010015487671,-0.0,-0.0,-1.0,0.05660077890705494,1.0,0
39.478824615478516,28.354503631591797,-2.509927988052368,-0.0,-0.0,-1.0,0.014135485028024121,1.0,0
39.552711486816406,28.753583908081055,-2.5275299549102783,-0.919725028247571,0.07660964562741054,-0.38501536931900193,0.018927204697955138,3.0,0
39.65216064453125,29.6281681060791,-2.5582797527313232,-0.0,-0.0,-1.0,0.11467807886243153,2.0,0
38.572845458984375,28.164113998413086,-2.3623087406158447,-0.0,-0.0,-1.0,0.031242977637522772,2.0,0
38.43918228149414,29.417465209960938,-2.3598034381866455,-0.2983193158804337,0.06349063765629909,-0.9523521012223507,0.10724001215105608,3.0,0
38.422882080078125,28.408828735351562,-2.4436442852020264,-0.0,-0.0,-1.0,0.0485141903985517,1.0,0
37.983619689941406,28.218782424926758,-2.3646695613861084,-0.0,-0.0,-1.0,0.06292082835068111,2.0,0
38.3647575378418,28.67519760131836,-2.4408318996429443,-0.0,-0.0,-1.0,0.04017424802836749,2.0,0
38.29796600341797,28.945945739746094,-2.437103509902954,-0.0,-0.0,-1.0,0.03801166360919719,1.0,0
38.31537628173828,29.195451736450195,-2.4473073482513428,-0.0,-0.0,-1.0,0.04812858485997802,1.0,0
38.341209411621094,29.39790153503418,-2.4578683376312256,0.2451936126195436,0.9676713141865106,-0.059095854601895134,0.09974729125326447,3.0,0
38.4542350769043,29.725597381591797,-2.4875247478485107,-0.0,-0.0,-1.0,0.08027132957702154,2.0,0
38.71155548095703,30.074787139892578,-2.543015241622925,-0.0,-0.0,-1.0,0.009488363002477011,1.0,0
38.90668869018555,30.413129806518555,-2.5883090496063232,-0.0,-0.0,-1.0,0.051764083557154235,1.0,0
38.87192916870117,29.95147705078125,-2.550811767578125,-0.0,-0.0,-1.0,0.010322125522714483,2.0,0
38.90627670288086,30.056198120117188,-2.556884765625,-0.0,-0.0,-1.0,0.010763658888035125,1.0,0
39.04183578491211,30.25325584411621,-2.580554485321045,-0.0,-0.0,-1.0,0.039759419973404826,1.0,0
39.300071716308594,30.588716506958008,-2.625946521759033,-0.0,-0.0,-1.0,0.07887483992928634,1.0,0
38.11369323730469,28.37706756591797,-2.4245028495788574,-0.0,-0.0,-1.0,0.06583572596760012,1.0,0
38.05939865112305,28.641284942626953,-2.4140524864196777,-0.0,-0.0,-1.0,0.04371280669269442,1.0,0
38.18411636352539,28.89013671875,-2.4343814849853516,-0.0,-0.0,-1.0,0.06290722921099756,1.0,0
38.40812683105469,29.193286895751953,-2.471747875213623,0.8618425117276411,0.49317736037618654,0.11833670686379566,0.034831462773237294,4.0,0
38.505943298339844,29.383068084716797,-2.4881577491760254,-0.0,-0.0,-1.0,0.21155833648245073,1.0,0
38.79604721069336,29.85149383544922,-2.5377182960510254,-0.0,-0.0,-1.0,0.01559936139544581,1.0,0
38.4784049987793,29.593517303466797,-2.4834399223327637,-0.059511332022538055,-0.9922595942613729,-0.10899219677187459,0.05930098239372726,3.0,0
37.89496612548828,28.31468963623047,-2.438800811767578,-0.17683477450576562,0.9681452825214599,-0.1772686505193108,0.04658456210203239,3.0,0
37.99028778076172,28.634811401367188,-2.4648566246032715,-0.0,-0.0,-1.0,0.02415687434720154,1.0,0
38.00392532348633,29.06170654296875,-2.479142665863037,-0.0,-0.0,-1.0,0.11112050353230689,2.0,0
38.148956298828125,29.41145133972168,-2.51692533493042,-0.0,-0.0,-1.0,0.0768018885493534,1.0,0
38.29246520996094,29.837038040161133,-2.5577292442321777,-0.0,-0.0,-1.0,0.06891390564141314,2.0,0
38.39067077636719,30.2128963470459,-2.5892558097839355,0.8399501668179703,0.467352571387171,-0.2757993678025077,0.027802434480002018,3.0,0
38.458770751953125,30.397811889648438,-2.6088342666625977,-0.0,-0.0,-1.0,0.036948902694010195,1.0,0
38.50625991821289,30.59044647216797,-2.6250438690185547,-0.0,-0.0,-1.0,0.04471047202387548,1.0,0
39.238494873046875,29.92763900756836,-2.5564327239990234,-0.0,-0.0,-1.0,0.012508685717833175,1.0,0
39.61464309692383,30.080055236816406,-2.619843006134033,-0.0,-0.0,-1.0,0.045804197754143496,1.0,0
39.709590911865234,30.267316818237305,-2.6328492164611816,-0.0,-0.0,-1.0,0.13759639787018865,1.0,0
38.010398864746094,28.18996810913086,-2.3875246047973633,0.4817377784261603,0.8570993572990075,-0.18250864241086212,0.06971301445821952,5.0,0
38.32786560058594,28.22503662109375,-2.442089557647705,-0.0,-0.0,-1.0,0.05571286441224547,1.0,0
38.50007247924805,28.34267807006836,-2.4685745239257812,-0.0,-0.0,-1.0,0.0439802261634255,1.0,0
38.49947738647461,28.72952651977539,-2.4566965103149414,-0.0,-0.0,-1.0,0.015188056435158375,1.0,0
38.53343963623047,28.48202133178711,-2.4700875282287598,-0.0,-0.0,-1.0,0.03694911806150935,1.0,0
38.480079650878906,29.165393829345703,-2.4409804344177246,-0.0628344524110322,0.514761500779388,-0.8550277357522136,0.06463330386661885,3.0,0
38.44889831542969,29.505212783813477,-2.4266581535339355,-0.0,-0.0,-1.0,0.10848806522609858,2.0,0
38.75408935546875,29.79926109313965,-2.473540782928467,-0.0,-0.0,-1.0,0.018217789108621825,1.0,0
39.055259704589844,29.857677459716797,-2.525533676147461,-0.0,-0.0,-1.0,0.01672397490953646,1.0,0
38.17931365966797,28.17756462097168,-2.405395746231079,0.7744507575846227,0.6324695140215629,0.014433915266893551,0.07041317138090142,4.0,0
38.62164306640625,28.52399253845215,-2.4880921840667725,-0.0,-0.0,-1.0,0.0285431107812039,1.0,0
38.69434356689453,28.272741317749023,-2.501199960708618,-0.0,-0.0,-1.0,0.027601055797423786,1.0,0
38.414886474609375,29.16629409790039,-2.452202081680298,0.46983110034546993,-0.4430989021428558,-0.7634933529952704,0.03849774677658516,4.0,0
38.597679138183594,28.80816650390625,-2.484567880630493,-0.0,-0.0,-1.0,0.016513479563986883,1.0,0
38.39771270751953,29.49400520324707,-2.4512851238250732,-0.0,-0.0,-1.0,0.05940932348648335,2.0,0
38.697959899902344,29.034263610839844,-2.504316568374634,-0.0,-0.0,-1.0,0.06350115642834447,1.0,0
38.52393341064453,29.7087345123291,-2.4767138957977295,-0.0,-0.0,-1.0,0.06349538750439694,1.0,0
38.9638786315918,29.890724182128906,-2.560940980911255,-0.0,-0.0,-1.0,0.016578954180691694,1.0,0
39.32814025878906,29.991975784301758,-2.6303369998931885,-0.0,-0.0,-1.0,0.04909010018554922,1.0,0
39.477081298828125,30.171876907348633,-2.6604511737823486,-0.0,-0.0,-1.0,0.07848198242090215,1.0,0
38.2092170715332,28.76404571533203,-2.4411263465881348,-0.0,-0.0,-1.0,0.04994080686242441,1.0,0
38.233943939208984,28.490840911865234,-2.451052188873291,-0.0,-0.0,-1.0,0.0560610300573956,1.0,0
38.168277740478516,28.18667221069336,-2.4449992179870605,0.7744507575846227,0.6324695140215629,0.014433915266893551,0.07631988136318249,4.0,0
38.30260467529297,29.293033599853516,-2.4499635696411133,0.9995949065147085,-0.028258323426765593,0.003389694228012433,0.06576852341313758,4.0,0
38.284454345703125,29.024715423583984,-2.4508233070373535,-0.0,-0.0,-1.0,0.032618706663513804,2.0,0
38.45263671875,29.548004150390625,-2.4747776985168457,-0.0,-0.0,-1.0,0.09004998886289735,2.0,0
38.85744857788086,29.874637603759766,-2.5473833084106445,-0.0,-0.0,-1.0,0.013825480960374151,1.0,0
39.091453552246094,30.037670135498047,-2.5900216102600098,-0.0,-0.0,-1.0,0.03053924261422084,1.0,0
39.352699279785156,30.201250076293945,-2.637986660003662,-0.0,-0.0,-1.0,0.11098024186874042,1.0,0
39.61052703857422,30.41098403930664,-2.6851768493652344,-0.0,-0.0,-1.0,0.046936803068747736,1.0,0
38.39337158203125,28.213054656982422,-2.355346202850342,-0.0,-0.0,-1.0,0.06987974072314646,1.0,0
38.326412200927734,28.852928161621094,-2.4335274696350098,-0.0,-0.0,-1.0,0.04727079770388854,1.0,0
38.87738037109375,28.194652557373047,-2.436163902282715,-0.0,-0.0,-1.0,0.018822788406503897,1.0,0
38.992000579833984,28.162490844726562,-2.4515509605407715,-0.0,-0.0,-1.0,0.010939332601561037,1.0,0
38.04233169555664,29.305246353149414,-2.4500021934509277,-0.0,-0.0,-1.0,0.052828823699904257,1.0,0
38.158973693847656,29.058818817138672,-2.43438720703125,-0.0,-0.0,-1.0,0.03223089482639129,1.0,0
38.113197326660156,29.70891571044922,-2.520325183868408,-0.0,-0.0,-1.0,0.07676726973117502,1.0,0
37.93332290649414,30.08697509765625,-2.5455994606018066,-0.0,-0.0,-1.0,0.036656785485224976,1.0,0
39.52983093261719,30.59217643737793,-2.698274612426758,-0.0,-0.0,-1.0,0.07453019619760916,1.0,0
39.615501403808594,30.515514373779297,-2.6983699798583984,-0.0,-0.0,-1.0,0.0540454899582834,1.0,0
40.11823272705078,28.731731414794922,-2.4826955795288086,-0.0,-0.0,-1.0,0.09643438241159404,1.0,0
39.9996452331543,28.99929428100586,-2.506789207458496,-0.0,-0.0,-1.0,0.11963123703491776,2.0,0
38.55792999267578,29.39818572998047,-2.345428466796875,-0.0,-0.0,-1.0,0.11342569763244649,2.0,0
39.390037536621094,29.52326202392578,-2.4961633682250977,-0.0,-0.0,-1.0,0.02219649423098799,2.0,0
39.65015411376953,29.470947265625,-2.5283913612365723,-0.18357088712448036,0.98131389959399,0.05766073069228234,0.09811680034878922,3.0,0
39.89967346191406,29.37248992919922,-2.5516510009765625,-0.0,-0.0,-1.0,0.18123701217061353,1.0,0
39.63203048706055,29.757701873779297,-2.57320499420166,-0.0,-0.0,-1.0,0.0991373245929231,1.0,0
39.67599105834961,30.01337432861328,-2.622826099395752,-0.0,-0.0,-1.0,0.013551010836378895,1.0,0
39.465087890625,28.15762710571289,-2.503659963607788,0.6240716444857236,-0.7165371019328429,-0.311623433173064,0.018779767946676233,4.0,0
38.979061126708984,28.639314651489258,-2.5036909580230713,-0.0,-0.0,-1.0,0.016325696007882574,1.0,0
39.305999755859375,28.40699005126953,-2.520322561264038,-0.0,-0.0,-1.0,0.009005636509994275,1.0,0
38.646217346191406,28.921985626220703,-2.497393846511841,-0.0,-0.0,-1.0,0.04089087573123811,1.0,0
38.2591552734375,29.333728790283203,-2.5090463161468506,-0.0,-0.0,-1.0,0.05951542174622756,1.0,0
37.96291732788086,29.96139144897461,-2.5840113162994385,-0.0,-0.0,-1.0,0.05129351054786365,1.0,0
38.21253967285156,29.745254516601562,-2.5835893154144287,-0.0,-0.0,-1.0,0.06693457253301356,1.0,0
37.84659957885742,30.1202392578125,-2.596623182296753,-0.0,-0.0,-1.0,0.04679802551320379,1.0,0
38.29801940917969,29.154001235961914,-2.4801523685455322,-0.0,-0.0,-1.0,0.06298525625505824,1.0,0
38.325828552246094,30.344268798828125,-2.623185396194458,-0.0,-0.0,-1.0,0.04219660507713027,1.0,0
38.36688232421875,30.243873596191406,-2.6092116832733154,-0.0,-0.0,-1.0,0.02168436874731617,2.0,0
38.138572692871094,30.526790618896484,-2.6297767162323,-0.0,-0.0,-1.0,0.03528010710092686,1.0,0
39.80450439453125,28.223331451416016,-2.4663894176483154,-0.0,-0.0,-1.0,0.06633708035847623,2.0,0
39.45726776123047,28.72905731201172,-2.498384714126587,-0.0,-0.0,-1.0,0.010124022718002355,1.0,0
39.635902404785156,28.543855667114258,-2.4959933757781982,-0.0,-0.0,-1.0,0.031882021633680445,2.0,0
39.047462463378906,29.12100601196289,-2.500239610671997,-0.0,-0.0,-1.0,0.0947519769098573,1.0,0
39.29026794433594,28.9194393157959,-2.5048530101776123,-0.0,-0.0,-1.0,0.04476400605833336,1.0,0
38.32555389404297,29.403709411621094,-2.427722692489624,0.5749418783051738,-0.6453527094517297,-0.5029529967842222,0.08245278557161789,6.0,0
38.495452880859375,29.325096130371094,-2.4418742656707764,-0.0,-0.0,-1.0,0.1781778600162646,2.0,0
38.88125991821289,29.2783203125,-2.50165057182312,-0.0,-0.0,-1.0,0.07894120205788101,2.0,0
38.3375244140625,29.774673461914062,-2.506361246109009,-0.0,-0.0,-1.0,0.09067099456995355,1.0,0
38.387447357177734,29.716442108154297,-2.5031116008758545,-0.0,-0.0,-1.0,0.09737087743853348,1.0,0
38.348392486572266,30.07438087463379,-2.570577383041382,-0.0,-0.0,-1.0,0.03644567634013833,1.0,0
38.37880325317383,30.007312774658203,-2.561884641647339,-0.0,-0.0,-1.0,0.03728658032457604,1.0,0
40.051170349121094,28.599781036376953,-2.4725229740142822,-0.003240485739919782,-0.0012772152253602135,-0.9999939339683204,0.10877364473999658,3.0,0
39.66000747680664,28.991437911987305,-2.4811151027679443,-0.0,-0.0,-1.0,0.04065923691720331,1.0,0
39.8958625793457,28.76880645751953,-2.4783098697662354,-0.0,-0.0,-1.0,0.033004680645917835,1.0,0
38.53091049194336,29.288414001464844,-2.342756509780884,0.6890317342650543,0.28270341994714526,-0.6673185487650403,0.15785973383746119,6.0,0
38.84700393676758,29.502307891845703,-2.4440605640411377,-0.0,-0.0,-1.0,0.06638171670727454,2.0,0
39.23047637939453,29.370201110839844,-2.483503580093384,-0.0,-0.0,-1.0,0.031701567114750966,1.0,0
39.50894546508789,29.21160125732422,-2.499756097793579,-0.0,-0.0,-1.0,0.04934252172876006,2.0,0
38.59247589111328,29.72894859313965,-2.4490549564361572,-0.00514371699915946,-0.7795829561898031,0.6262778589362712,0.0351333607537344,4.0,0
38.97869873046875,29.554882049560547,-2.4784367084503174,-0.0,-0.0,-1.0,0.07322406047396118,1.0,0
39.04445266723633,29.53426742553711,-2.48555588722229,-0.0,-0.0,-1.0,0.0727665161684409,1.0,0
38.72450256347656,30.171142578125,-2.5683891773223877,-0.0,-0.0,-1.0,0.031582136548406935,1.0,0
38.451820373535156,30.591388702392578,-2.6154191493988037,-0.0,-0.0,-1.0,0.05615770036001852,1.0,0
38.662715911865234,30.44387435913086,-2.617933511734009,-0.0,-0.0,-1.0,0.038249308365133065,2.0,0
38.48474884033203,28.505123138427734,-2.479830741882324,-0.0,-0.0,-1.0,0.043611581338496894,1.0,0
37.91408920288086,29.011646270751953,-2.512667655944824,-0.0,-0.0,-1.0,0.08728052954717036,2.0,0
40.12518310546875,29.565322875976562,-2.3760929107666016,0.48874364973120077,0.4396643305057205,-0.7535415856662335,0.124421296775969,3.0,0
40.0166015625,28.56805992126465,-2.490173816680908,-0.002410296001399089,-0.34157053698079287,-0.939853051673419,0.09652405999238627,4.0,0
39.364017486572266,29.1042423248291,-2.5057616233825684,-0.0,-0.0,-1.0,0.06446563597546838,1.0,0
39.681400299072266,28.898109436035156,-2.508612632751465,-0.0,-0.0,-1.0,0.023635267058908734,2.0,0
39.13220977783203,29.32198143005371,-2.5192794799804688,-0.0,-0.0,-1.0,0.04267502188645015,1.0,0
39.52362060546875,29.161884307861328,-2.541062831878662,-0.0,-0.0,-1.0,0.04702502629316225,2.0,0
38.291683197021484,29.876388549804688,-2.5258374214172363,-0.0,-0.0,-1.0,0.0845260728873728,1.0,0
38.18963623046875,30.296283721923828,-2.6062874794006348,-0.0,-0.0,-1.0,0.05261504377879765,1.0,0
38.28927993774414,30.078311920166016,-2.570457935333252,-0.0,-0.0,-1.0,0.0389168194658728,1.0,0
38.03712844848633,30.43377685546875,-2.6178197860717773,-0.0,-0.0,-1.0,0.03338509130056845,1.0,0
39.89850997924805,28.156890869140625,-2.387629985809326,-0.0,-0.0,-1.0,0.060384085978908535,1.0,0
39.282325744628906,29.090354919433594,-2.4910569190979004,-0.0,-0.0,-1.0,0.057014509351501944,2.0,0
38.416839599609375,29.339885711669922,-2.4242148399353027,-0.0,-0.0,-1.0,0.15744581056162885,2.0,0
38.828346252441406,29.391508102416992,-2.4918174743652344,-0.0,-0.0,-1.0,0.06158173999516275,1.0,0
39.19491195678711,29.16483497619629,-2.494450092315674,-0.0,-0.0,-1.0,0.03992628759456496,1.0,0
38.34141540527344,29.693220138549805,-2.4918503761291504,-0.0,-0.0,-1.0,0.14696333875579418,1.0,0
38.174659729003906,28.193683624267578,-2.438302516937256,0.7744507575846227,0.6324695140215629,0.014433915266893551,0.07631988136318248,4.0,0
38.01120376586914,28.19266128540039,-2.413228750228882,0.9919122477086098,-0.06158257666458341,0.11098503996937886,0.06971301445821952,4.0,0
39.050323486328125,29.557682037353516,-2.2766377925872803,-0.0,-0.0,-1.0,0.07466687070808573,1.0,0
40.15435028076172,29.077836990356445,-2.43499755859375,-0.0,-0.0,-1.0,0.12177365473121682,2.0,0
38.55667495727539,29.418441772460938,-2.2968015670776367,-0.0,-0.0,-1.0,0.0948613399276831,1.0,0
40.04222869873047,29.34933853149414,-2.474013566970825,-0.0,-0.0,-1.0,0.09862161829030613,2.0,0
39.63310241699219,29.586971282958984,-2.4677577018737793,-0.0,-0.0,-1.0,0.05782430191752047,1.0,0
39.92180633544922,29.62680435180664,-2.513746500015259,-0.0,-0.0,-1.0,0.11107076368708728,1.0,0
39.251708984375,30.028564453125,-2.5092098712921143,-0.0,-0.0,-1.0,0.08482961108309961,1.0,0
39.825439453125,30.20580291748047,-2.618530035018921,-0.0,-0.0,-1.0,0.11689922124622845,2.0,0
39.911468505859375,30.095638275146484,-2.6072802543640137,-0.0,-0.0,-1.0,0.08950350829355112,2.0,0
39.6505012512207,30.633953094482422,-2.683954954147339,-0.0,-0.0,-1.0,0.07982511957369565,1.0,0
39.875484466552734,30.39672088623047,-2.6639063358306885,-0.0,-0.0,-1.0,0.13864010330028323,1.0,0
38.9669189453125,29.07693862915039,-2.2778851985931396,-0.0,-0.0,-1.0,0.10634361004497034,1.0,0
39.28129959106445,28.33942413330078,-2.4894044399261475,-0.0,-0.0,-1.0,0.009515651597270134,1.0,0
39.49803924560547,28.179019927978516,-2.4816172122955322,0.6815321187476018,-0.4865100783359484,-0.546646059889719,0.018779767946676188,3.0,0
38.352020263671875,28.746925354003906,-2.4663004875183105,-0.0,-0.0,-1.0,0.041407395462559976,1.0,0
38.5932731628418,28.671226501464844,-2.478170156478882,-0.0,-0.0,-1.0,0.023454466203735327,1.0,0
39.19130325317383,28.429729461669922,-2.4986584186553955,-0.0,-0.0,-1.0,0.008618857897592888,1.0,0
38.08282470703125,28.908735275268555,-2.472979784011841,-0.0,-0.0,-1.0,0.04986512481468676,1.0,0
38.25115966796875,28.811281204223633,-2.469545602798462,-0.0,-0.0,-1.0,0.057384510103637903,2.0,0
37.72562026977539,29.33061981201172,-2.535534143447876,-0.0,-0.0,-1.0,0.13789177440508385,2.0,0
37.808807373046875,29.271347045898438,-2.5303423404693604,-0.0,-0.0,-1.0,0.14725399984416151,2.0,0
39.88138198852539,28.648387908935547,-2.492284059524536,-0.0,-0.0,-1.0,0.11585247398585988,2.0,0
40.175567626953125,28.468692779541016,-2.492433786392212,-0.0,-0.0,-1.0,0.0580761661443375,1.0,0
39.120948791503906,29.118967056274414,-2.501180410385132,-0.0,-0.0,-1.0,0.05877394391712084,1.0,0
39.47644805908203,29.056331634521484,-2.5333080291748047,-0.0,-0.0,-1.0,0.04365724300632362,1.0,0
39.704864501953125,28.872028350830078,-2.520533800125122,-0.6452999583709442,-0.25071601569874874,-0.7216158557006649,0.023075766339063754,3.0,0
38.784305572509766,29.340749740600586,-2.5118558406829834,-0.0,-0.0,-1.0,0.0645775204797506,2.0,0
38.907020568847656,29.245529174804688,-2.504218816757202,0.042500836534625185,0.11115333663537713,-0.9928940601336476,0.10253168142578696,3.0,0
40.11219024658203,29.021602630615234,-2.435128688812256,-0.5085292670053054,-0.48227269445343485,-0.7133099135604872,0.1279579386109246,4.0,0
39.48701858520508,28.199935913085938,-2.513972282409668,0.6815321187476018,-0.4865100783359484,-0.546646059889719,0.01972449918770536,3.0,0
39.55814743041992,28.184329986572266,-2.5016398429870605,-0.0,-0.0,-1.0,0.024949843837965033,1.0,0
39.75325393676758,28.302635192871094,-2.506443500518799,-0.0,-0.0,-1.0,0.10475534536636061,1.0,0
39.999900817871094,28.425823211669922,-2.5072574615478516,-0.0,-0.0,-1.0,0.06027665820694577,1.0,0
37.865638732910156,30.370786666870117,-2.5863046646118164,-0.0,-0.0,-1.0,0.0519693608875145,1.0,0
38.00166320800781,30.607364654541016,-2.6207404136657715,-0.0,-0.0,-1.0,0.03194340529306198,1.0,0
39.61488723754883,28.59074592590332,-2.4896042346954346,-0.0,-0.0,-1.0,0.034507231701989285,2.0,0
39.36341094970703,28.393768310546875,-2.483201265335083,-0.0,-0.0,-1.0,0.012713031545740041,1.0,0
39.034996032714844,28.24365234375,-2.493276596069336,-0.0,-0.0,-1.0,0.0082224090102315,1.0,0
39.63157653808594,28.26280975341797,-2.434385299682617,-0.0,-0.0,-1.0,0.027809289517961557,1.0,0
39.61222839355469,29.462968826293945,-2.513350009918213,-0.0,-0.0,-1.0,0.07892100132648547,2.0,0
39.510948181152344,29.210250854492188,-2.4832353591918945,-0.0,-0.0,-1.0,0.04934252172876006,2.0,0
39.123207092285156,28.949888229370117,-2.4808177947998047,-0.0,-0.0,-1.0,0.08315340412470659,2.0,0
38.85651779174805,28.76860809326172,-2.480010509490967,-0.0,-0.0,-1.0,0.042461924114071875,1.0,0
38.692665100097656,28.625289916992188,-2.4750843048095703,-0.0,-0.0,-1.0,0.011950057696427343,1.0,0
40.12273025512695,29.205989837646484,-2.42482852935791,-0.0,-0.0,-1.0,0.06504192950082203,2.0,0
38.525550842285156,29.26310920715332,-2.296468734741211,-0.0,-0.0,-1.0,0.11639343713982815,2.0,0
38.99706268310547,30.46126937866211,-2.0167760848999023,-0.0,-0.0,-1.0,0.13279710150843127,1.0,0
39.875335693359375,29.706958770751953,-1.8695504665374756,-0.0,-0.0,-1.0,0.09429407770713019,1.0,0
39.46244430541992,29.953105926513672,-1.9200773239135742,-0.0,-0.0,-1.0,0.18956207198604536,1.0,0
39.002628326416016,29.88228988647461,-1.9201500415802002,-0.0,-0.0,-1.0,0.15618328883218666,1.0,0
38.77431869506836,29.647071838378906,-1.8883869647979736,-0.0,-0.0,-1.0,0.15546149076232907,1.0,0
38.52037811279297,29.395050048828125,-1.8558764457702637,-0.0,-0.0,-1.0,0.10200620582914734,1.0,0
38.323463439941406,29.229278564453125,-1.8366031646728516,-0.0,-0.0,-1.0,0.048724451815378086,1.0,0
38.093013763427734,29.105072021484375,-1.826159954071045,-0.0,-0.0,-1.0,0.19599116228385047,1.0,0
37.892738342285156,29.036216735839844,-1.8239552974700928,-0.0,-0.0,-1.0,0.11460584737038092,1.0,0
40.10966873168945,29.665855407714844,-1.8582127094268799,-0.0,-0.0,-1.0,0.09482555083296974,1.0,0
39.816444396972656,29.664417266845703,-1.8635213375091553,-0.0,-0.0,-1.0,0.10534863156235677,1.0,0
39.91111755371094,28.21181869506836,-1.6171000003814697,-0.0,-0.0,-1.0,0.24849964779014327,1.0,0
38.016273498535156,28.417186737060547,-1.721235990524292,-0.0,-0.0,-1.0,0.11722697862955013,1.0,0
37.89208984375,28.43793487548828,-1.7303800582885742,-0.0,-0.0,-1.0,0.10952064686116209,1.0,0
40.17146301269531,28.59613037109375,-2.6016693115234375,-0.0,-0.0,-1.0,0.1089093792524899,1.0,0
39.965553283691406,28.662261962890625,-2.635500192642212,-0.0,-0.0,-1.0,0.15437180552419053,1.0,0
39.7927360534668,28.47173309326172,-2.619612693786621,-0.0,-0.0,-1.0,0.13404608047915756,1.0,0
39.85771942138672,28.20138931274414,-2.4590232372283936,-0.0,-0.0,-1.0,0.05261887511955412,1.0,0
37.82748794555664,30.30392074584961,-2.56925892829895,-0.0,-0.0,-1.0,0.049993545555283375,1.0,0
38.51300048828125,29.35187530517578,-2.338663101196289,-0.14000774487947076,-0.42853662971976225,-0.8926108829507919,0.15842953879908395,8.0,0
38.36711502075195,29.350696563720703,-2.3552582263946533,-0.5618454205984776,-0.4424526934493691,-0.6989744898148416,0.09919248440543904,3.0,0
39.19655227661133,30.38555145263672,-2.5888824462890625,-0.0,-0.0,-1.0,0.11507180516888527,1.0,0
39.53511047363281,29.733314514160156,-2.440485954284668,-0.0,-0.0,-1.0,0.03959868022655903,1.0,0
39.11701965332031,30.13741683959961,-2.5429859161376953,-0.0,-0.0,-1.0,0.06897215602767096,1.0,0
39.01737594604492,29.64508819580078,-2.4498186111450195,-0.0,-0.0,-1.0,0.06852211527456424,1.0,0
38.814697265625,29.47536849975586,-2.4276838302612305,-0.0,-0.0,-1.0,0.04217865171683875,2.0,0
38.011253356933594,29.708229064941406,-2.524303913116455,-0.0,-0.0,-1.0,0.08491136770455342,1.0,0
38.3128776550293,29.272262573242188,-2.4192090034484863,0.9403295784416051,0.3067176963238696,-0.14732460306958728,0.06798505275699562,4.0,0
37.92091369628906,29.339012145996094,-2.459101676940918,-0.0,-0.0,-1.0,0.10825635886008485,1.0,0
39.830474853515625,29.633934020996094,-2.406585693359375,-0.0,-0.0,-1.0,0.08293812165270545,1.0,0
39.973899841308594,29.501686096191406,-2.3731765747070312,-0.0,-0.0,-1.0,0.10011788005257972,1.0,0
38.60288619995117,29.225589752197266,-2.391301155090332,-0.0,-0.0,-1.0,0.11774258658181207,1.0,0
38.52445983886719,29.180038452148438,-2.3873672485351562,-0.3715368892191719,-0.6428531592099359,-0.6698508458180413,0.0742351732537416,3.0,0
39.19282531738281,30.368436813354492,-2.648470163345337,-0.0,-0.0,-1.0,0.10637036405745151,1.0,0
39.5016975402832,29.80115509033203,-2.507040023803711,-0.0,-0.0,-1.0,0.029182863551611322,1.0,0
39.11997985839844,30.0782470703125,-2.6006293296813965,-0.0,-0.0,-1.0,0.035197606876292246,1.0,0
39.09585189819336,29.652620315551758,-2.5219850540161133,-0.0,-0.0,-1.0,0.05578469553208736,2.0,0
38.98704528808594,29.496370315551758,-2.5042531490325928,-0.0,-0.0,-1.0,0.07513195505044183,1.0,0
38.79450607299805,29.31816864013672,-2.492300033569336,-0.0,-0.0,-1.0,0.0602877318076135,2.0,0
40.098854064941406,29.55502700805664,-2.399177074432373,-0.0,-0.0,-1.0,0.14123190943039957,2.0,0
39.933448791503906,29.514867782592773,-2.4077117443084717,-0.0,-0.0,-1.0,0.13807532446608753,2.0,0
38.604164123535156,29.130815505981445,-2.479017972946167,-0.0,-0.0,-1.0,0.07038242672915512,1.0,0
38.499488830566406,28.99201202392578,-2.465402126312256,-0.0,-0.0,-1.0,0.040898249389690555,1.0,0
38.303009033203125,28.892620086669922,-2.4705941677093506,-0.0,-0.0,-1.0,0.049113671525109974,1.0,0
38.09698486328125,28.78817367553711,-2.476661443710327,-0.0,-0.0,-1.0,0.048952959742543406,1.0,0
37.72315979003906,28.59865951538086,-2.48948073387146,-0.0,-0.0,-1.0,0.010702083483371767,1.0,0
38.614166259765625,28.218608856201172,-2.3072009086608887,-0.0,-0.0,-1.0,0.028754750865413656,1.0,0
38.06144714355469,28.23761558532715,-2.3797526359558105,0.4714624635837897,0.06377135685896979,-0.8795773754911331,0.08093342965124016,3.0,0
40.08208084106445,28.534046173095703,-2.5113234519958496,-0.0,-0.0,-1.0,0.09217019462135305,1.0,0
39.69111633300781,28.45771026611328,-2.5339536666870117,-0.0,-0.0,-1.0,0.04051535520965935,1.0,0
39.589900970458984,28.277023315429688,-2.504106044769287,-0.0,-0.0,-1.0,0.028539934484675473,1.0,0
39.325897216796875,28.159381866455078,-2.5067529678344727,-0.0,-0.0,-1.0,0.010418988594569535,1.0,0
38.83592224121094,30.44143295288086,-2.5960474014282227,-0.0,-0.0,-1.0,0.04478936553672974,1.0,0
38.057464599609375,30.093608856201172,-2.5937023162841797,-0.0,-0.0,-1.0,0.016769432246816363,1.0,0
38.840553283691406,29.6264705657959,-2.4236974716186523,-0.0,-0.0,-1.0,0.046598737160542414,1.0,0
38.69059753417969,29.508403778076172,-2.4121599197387695,-0.0,-0.0,-1.0,0.068564766321232,1.0,0
37.81427764892578,29.853200912475586,-2.5677132606506348,-0.0,-0.0,-1.0,0.056144031081829915,1.0,0
38.9555549621582,29.119441986083984,-2.306731700897217,-0.0,-0.0,-1.0,0.10147639059752939,1.0,0
38.50050354003906,29.319347381591797,-2.3899283409118652,-0.6565969776336676,0.6787114742411909,-0.3289850204730943,0.13541960081796123,4.0,0
39.78414535522461,28.64549446105957,-2.5138940811157227,-0.0,-0.0,-1.0,0.10192082830540536,1.0,0
39.605369567871094,28.59690284729004,-2.5137429237365723,-0.0,-0.0,-1.0,0.03214235887829801,2.0,0
39.32484817504883,28.546512603759766,-2.5208544731140137,-0.0,-0.0,-1.0,0.008517041726524299,1.0,0
39.22007751464844,28.540761947631836,-2.527162551879883,-0.0,-0.0,-1.0,0.018874890829285583,2.0,0
40.00506591796875,28.535572052001953,-2.4727635383605957,-0.9466644195999511,0.20130393736692215,-0.2516012747663692,0.0875354130467799,3.0,0
39.78105163574219,28.198400497436523,-2.403275966644287,-0.0,-0.0,-1.0,0.050071590425309564,1.0,0
38.905784606933594,28.348346710205078,-2.5040998458862305,-0.0,-0.0,-1.0,0.012814284869014415,1.0,0
38.92597579956055,30.618907928466797,-2.665707588195801,-0.0,-0.0,-1.0,0.042893324431183176,1.0,0
38.038570404052734,30.302492141723633,-2.6244029998779297,-0.0,-0.0,-1.0,0.03909824122789204,1.0,0
39.902923583984375,29.558198928833008,-2.392515182495117,-0.0,-0.0,-1.0,0.11745900248541638,1.0,0
38.72770690917969,29.665674209594727,-2.4472804069519043,-0.0,-0.0,-1.0,0.034139807604204306,1.0,0
37.82547378540039,30.17108726501465,-2.603675365447998,-0.0,-0.0,-1.0,0.042154007189523,2.0,0
38.910621643066406,29.20323944091797,-2.332146644592285,-0.0,-0.0,-1.0,0.09476426373318025,1.0,0
38.523643493652344,29.352447509765625,-2.3812031745910645,0.997053092516013,-0.07571460859568524,0.012346203848036608,0.14541599081911877,4.0,0
39.93379592895508,30.267383575439453,-2.2966017723083496,-0.0,-0.0,-1.0,0.1286056201256444,1.0,0
39.95012664794922,30.276443481445312,-2.371746063232422,-0.0,-0.0,-1.0,0.13469251555362982,1.0,0
39.41356658935547,30.291179656982422,-2.389953136444092,-0.0,-0.0,-1.0,0.11152594665804524,1.0,0
38.82149124145508,30.478172302246094,-2.4458017349243164,-0.0,-0.0,-1.0,0.04478936553672977,1.0,0
40.0098762512207,30.2736873626709,-2.4455573558807373,-0.0,-0.0,-1.0,0.12627434085107261,1.0,0
39.22337341308594,30.37271499633789,-2.457941770553589,-0.0,-0.0,-1.0,0.1074337575876907,2.0,0
38.65079879760742,30.452632904052734,-2.475574493408203,-0.0,-0.0,-1.0,0.0387280242422837,1.0,0
39.0789680480957,30.447364807128906,-1.8980236053466797,-0.0,-0.0,-1.0,0.15394007297586776,1.0,0
39.01961135864258,30.529891967773438,-0.7785608768463135,-0.0,-0.0,-1.0,0.20719349281286098,1.0,0
39.3189811706543,30.35384750366211,-2.303575038909912,-0.0,-0.0,-1.0,0.18032800964613438,1.0,0
40.031734466552734,30.341785430908203,-2.522517681121826,-0.0,-0.0,-1.0,0.12378467751633748,1.0,0
39.197349548339844,30.371864318847656,-2.4709842205047607,0.3817349081570263,-0.5742578213881275,-0.7242281508398497,0.08628458753432071,3.0,0
38.19134521484375,30.521503448486328,-2.450827121734619,-0.0,-0.0,-1.0,0.04457950277132675,1.0,0
40.0103645324707,29.603532791137695,-2.3523049354553223,-0.0,-0.0,-1.0,0.12623161098071506,1.0,0
38.20355987548828,29.922508239746094,-2.5852930545806885,-0.0,-0.0,-1.0,0.04201064351950333,1.0,0
37.931121826171875,30.093517303466797,-2.5993540287017822,-0.0,-0.0,-1.0,0.03575617377792467,1.0,0
39.56596374511719,29.051876068115234,-2.538897752761841,-0.0,-0.0,-1.0,0.04702679482147139,2.0,0
39.31011199951172,29.137889862060547,-2.527104139328003,-0.0,-0.0,-1.0,0.057206454554216926,1.0,0
38.93112564086914,29.233139038085938,-2.5045740604400635,-0.2996115054151436,-0.5607651427104389,-0.7718648849013744,0.10465674400160331,3.0,0
38.71234130859375,29.321285247802734,-2.5000240802764893,-0.0,-0.0,-1.0,0.11312473497020355,1.0,0
38.33435821533203,29.66413116455078,-2.5385165214538574,-0.0,-0.0,-1.0,0.13205280700679484,1.0,0
39.98699951171875,28.60218048095703,-2.4955801963806152,-0.7379136116252758,-0.6614400782828856,-0.13409147854830847,0.088195254695398,3.0,0
39.70588302612305,28.840587615966797,-2.5105209350585938,-0.0,-0.0,-1.0,0.018936672232379288,2.0,0
39.217010498046875,29.045820236206055,-2.4957425594329834,-0.0,-0.0,-1.0,0.03581658611180392,1.0,0
40.143035888671875,28.371307373046875,-2.4676029682159424,-0.0,-0.0,-1.0,0.050994427922637635,2.0,0
38.47346878051758,29.222442626953125,-2.451916456222534,0.8547355242567192,0.44348495128746035,-0.2697188935820968,0.06185628527691193,3.0,0
38.317222595214844,29.31380271911621,-2.456268787384033,-0.0,-0.0,-1.0,0.06552728621759576,2.0,0
40.12128829956055,30.458698272705078,-2.745844841003418,-0.0,-0.0,-1.0,0.10021339819676012,1.0,0
39.86659622192383,30.55841064453125,-2.7311010360717773,-0.0,-0.0,-1.0,0.13192623538176995,1.0,0
39.90576171875,30.26108741760254,-2.679199695587158,-0.0,-0.0,-1.0,0.09324047431034722,2.0,0
39.46782302856445,29.74338150024414,-2.521672248840332,-0.0,-0.0,-1.0,0.030077807544176507,1.0,0
39.94090270996094,29.399700164794922,-2.5217442512512207,-0.0,-0.0,-1.0,0.11236903504805858,1.0,0
39.725364685058594,29.56869125366211,-2.5234222412109375,-0.0,-0.0,-1.0,0.1363725977823119,1.0,0
38.937705993652344,29.470096588134766,-2.399324417114258,-0.0,-0.0,-1.0,0.07574807139658875,1.0,0
40.03781509399414,29.04810905456543,-2.470841884613037,-0.0,-0.0,-1.0,0.1116649453979031,2.0,0
39.13193893432617,28.81999969482422,-2.3006858825683594,-0.0,-0.0,-1.0,0.043618423182030214,1.0,0
37.79888916015625,30.172279357910156,-2.6085448265075684,-0.0,-0.0,-1.0,0.04215400718952298,2.0,0
38.15739440917969,29.8116455078125,-2.586974620819092,-0.0,-0.0,-1.0,0.0631758625415672,1.0,0
37.91384506225586,29.942054748535156,-2.578451156616211,-0.0,-0.0,-1.0,0.05120252949678978,1.0,0
