x,y,z,nx,ny,nz,curvature,density,label
40.43438720703125,-27.257801055908203,0.603361964225769,-0.0,-0.0,-1.0,0.13364439949458387,2.0,1
40.268638610839844,-27.573097229003906,0.9582523107528687,-0.0,-0.0,-1.0,0.08422806215558883,1.0,1
40.96703338623047,-27.53177833557129,0.5434907674789429,-0.7612382733515868,-0.4409514477243196,-0.4754767207072515,0.05012513098114402,4.0,1
40.484901428222656,-27.306320190429688,0.5641393065452576,-0.002070388091296969,-0.9973799678492378,0.07231122475940423,0.1118069696931302,5.0,1
40.67226791381836,-27.404598236083984,0.8280557990074158,-0.0,-0.0,-1.0,0.20583847372227398,1.0,1
40.49436569213867,-27.4061279296875,0.7222671508789062,-0.41888239711859615,0.13630852370614402,-0.897751370786606,0.13441254660689556,4.0,1
40.467288970947266,-27.429183959960938,0.7338516712188721,0.5514965333118116,-0.7677394146775266,-0.3262326852043837,0.1251211680990753,4.0,1
40.54888153076172,-27.384521484375,0.6919902563095093,-0.0,-0.0,-1.0,0.08980516350998297,1.0,1
40.49219512939453,-27.36332893371582,0.7295675277709961,0.979202614047322,0.08136260647599516,-0.18585576910691634,0.11920222678292405,3.0,1
40.78490447998047,-27.555156707763672,0.6401890516281128,-0.0,-0.0,-1.0,0.06669066166618866,2.0,1
40.60519790649414,-27.164037704467773,0.5819430947303772,0.28866827175875887,0.682359937106338,-0.671606689299657,0.0831785693865484,3.0,1
40.65615463256836,-27.42923355102539,0.6499511003494263,-0.0,-0.0,-1.0,0.08137994793810178,1.0,1
40.87469482421875,-27.576435089111328,0.6259559392929077,-0.0,-0.0,-1.0,0.07141677987201865,1.0,1
40.257965087890625,-27.397663116455078,0.8416554927825928,-0.3046100906557562,-0.07059984679382676,-0.9498570178207774,0.19767907150249753,4.0,1
42.500328063964844,-26.900604248046875,0.47347497940063477,-0.0,-0.0,-1.0,0.013858327783446528,1.0,1
40.36534118652344,-27.378562927246094,0.8417036533355713,-0.0,-0.0,-1.0,0.15052988484085525,1.0,1
40.420780181884766,-27.416561126708984,0.9105857610702515,-0.0,-0.0,-1.0,0.21242109534944847,1.0,1
40.595420837402344,-27.092748641967773,0.48670244216918945,0.6127321245058281,-0.7004804314679831,-0.36590505425451864,0.07435932929379584,3.0,1
40.62554931640625,-27.318042755126953,0.6418662071228027,0.28652222281253537,-0.4559043316845631,-0.842648358561159,0.16004553069294883,3.0,1
40.640167236328125,-27.121732711791992,0.5744020938873291,-0.769070724456838,-0.6358883840195593,0.06462340019240534,0.09283705421059907,3.0,1
40.277488708496094,-27.474910736083984,0.6116049289703369,0.43109440431328444,-0.22673821311366574,-0.8733541076125975,0.1914038050072353,4.0,1
40.5550422668457,-27.558279037475586,0.9267914295196533,-0.0,-0.0,-1.0,0.08563028035934217,2.0,1
40.42070388793945,-27.46463394165039,0.780778169631958,0.5585894231778286,-0.6708528427294124,0.4877851163327221,0.09308748257831843,3.0,1
40.59406661987305,-27.269405364990234,0.5822257995605469,-0.620303755385169,-0.14201221222873434,-0.7713985886900215,0.14939641523213465,4.0,1
41.252281188964844,-27.614614486694336,0.4678068161010742,-0.0,-0.0,-1.0,0.025810557547677512,1.0,1
41.25758361816406,-27.24124526977539,0.5210509300231934,-0.0,-0.0,-1.0,0.06681324313351902,1.0,1
40.41958236694336,-27.72916030883789,0.9638817310333252,-0.0,-0.0,-1.0,0.08023860338977927,2.0,1
40.624176025390625,-27.226177215576172,0.5973567962646484,0.27994477420827,-0.6325170883702954,-0.7221863030500126,0.12352404016898688,3.0,1
40.391719818115234,-27.703603744506836,0.9840106964111328,-0.0,-0.0,-1.0,0.08023860338977924,2.0,1
40.256309509277344,-27.509626388549805,0.643970251083374,-0.0,-0.0,-1.0,0.14250145092870345,2.0,1
40.61556625366211,-27.291431427001953,0.6240739822387695,0.28652222281253537,-0.4559043316845631,-0.842648358561159,0.17335342187157696,3.0,1
41.184329986572266,-27.231714248657227,0.5516061782836914,-0.8608536317584498,-0.05473728192165962,-0.5059000441353179,0.06482219886200419,3.0,1
40.37384033203125,-27.77138900756836,0.9912636280059814,-0.0,-0.0,-1.0,0.08023860338977927,1.0,1
40.58774185180664,-27.469280242919922,0.7377535104751587,-0.0,-0.0,-1.0,0.11448144346451745,2.0,1
40.27113723754883,-27.53955078125,0.5496058464050293,-0.0,-0.0,-1.0,0.2130172163023802,1.0,1
40.655033111572266,-27.141815185546875,0.5537083148956299,-0.0,-0.0,-1.0,0.0961284021738989,2.0,1
40.46105194091797,-27.4760684967041,0.8574284315109253,-0.0,-0.0,-1.0,0.09089550542741887,2.0,1
40.88943099975586,-27.54795265197754,0.7862460613250732,-0.0,-0.0,-1.0,0.09341450922149983,2.0,1
41.278053283691406,-27.190631866455078,0.5117497444152832,-0.0,-0.0,-1.0,0.05845785734804387,1.0,1
41.31907272338867,-27.56020736694336,0.4488389492034912,-0.0,-0.0,-1.0,0.01757663684200279,1.0,1
41.93525314331055,-27.210369110107422,0.38254213333129883,-0.0,-0.0,-1.0,0.01138913653905253,1.0,1
40.66234588623047,-27.26990509033203,0.6132409572601318,-0.0,-0.0,-1.0,0.11634601054309893,1.0,1
40.49892807006836,-27.52828598022461,0.9197129011154175,-0.0,-0.0,-1.0,0.11298819604268151,1.0,1
40.4886360168457,-27.339826583862305,0.721104621887207,-0.0,-0.0,-1.0,0.20460362659986325,2.0,1
40.33391571044922,-27.838930130004883,0.9863444566726685,-0.0,-0.0,-1.0,0.0713098100221955,1.0,1
40.699302673339844,-28.154428482055664,2.5002543926239014,-0.0,-0.0,-1.0,0.036077635796228844,1.0,3
41.3165283203125,-26.878812789916992,0.4824025630950928,-0.0,-0.0,-1.0,0.021332760173606975,1.0,1
40.626853942871094,-27.232471466064453,0.603907585144043,-0.0,-0.0,-1.0,0.13732886156925084,2.0,1
40.627159118652344,-27.22884178161621,0.9314625263214111,-0.0,-0.0,-1.0,0.16199950253407988,1.0,1
40.4200439453125,-27.073179244995117,0.49360084533691406,0.6055450549327219,0.795365575678287,0.026623062792877173,0.047184833325847025,3.0,1
40.379234313964844,-27.171964645385742,0.5377004146575928,-0.0,-0.0,-1.0,0.06311431386271625,2.0,1
40.25921630859375,-27.422189712524414,0.7785828113555908,0.5255756213028898,0.7688504436054729,-0.3641967348285108,0.21702748305369288,3.0,1
40.32219314575195,-27.340028762817383,0.8181960582733154,0.23531195608118552,0.18466733805119323,-0.9542149954713206,0.18837415501681976,4.0,1
40.31745910644531,-27.33123779296875,0.8482441902160645,0.463187543616951,0.8676107008243691,-0.18085621707074925,0.25036149923916134,3.0,1
40.240447998046875,-26.97164535522461,0.7580409049987793,-0.0,-0.0,-1.0,0.1517595763651279,1.0,1
40.457027435302734,-27.22564697265625,0.7827663421630859,-0.0,-0.0,-1.0,0.15329106821592445,1.0,1
40.2366828918457,-27.369367599487305,0.509655237197876,-0.0,-0.0,-1.0,0.141972764832748,1.0,1
40.33592224121094,-27.14592933654785,0.4970839023590088,-0.0,-0.0,-1.0,0.06556849351428727,1.0,1
40.4067268371582,-26.902099609375,0.4874720573425293,-0.0,-0.0,-1.0,0.09917709204186172,1.0,1
40.248477935791016,-27.68450164794922,0.8728427886962891,-0.0,-0.0,-1.0,0.0762109558279058,1.0,1
40.50700378417969,-27.111377716064453,0.5969409942626953,-0.0,-0.0,-1.0,0.06781099330397126,1.0,1
40.23246765136719,-27.16094207763672,0.5675144195556641,-0.0,-0.0,-1.0,0.14466926882127043,1.0,1
40.239341735839844,-27.116878509521484,0.5061218738555908,-0.0,-0.0,-1.0,0.04810700221212116,1.0,1
40.554744720458984,-27.232707977294922,0.49531614780426025,-0.0,-0.0,-1.0,0.08112600151446796,2.0,1
40.776031494140625,-27.148860931396484,0.4907228946685791,-0.0,-0.0,-1.0,0.0451713103680549,1.0,1
40.962196350097656,-26.992252349853516,0.48840653896331787,-0.0,-0.0,-1.0,0.048934136853725406,1.0,1
41.349727630615234,-27.248088836669922,0.47301697731018066,-0.0,-0.0,-1.0,0.05173718589996457,1.0,1
40.21648406982422,-27.331581115722656,0.6107542514801025,-0.0,-0.0,-1.0,0.17799747791028162,1.0,1
40.462989807128906,-27.30810546875,0.5844506025314331,0.05310272653966021,-0.7101058886556975,0.702089543669863,0.07939375158209491,4.0,1
40.72449493408203,-27.077838897705078,0.5647276639938354,-0.0,-0.0,-1.0,0.08569619123306788,1.0,1
41.231964111328125,-27.133434295654297,0.5279245376586914,-0.8798723369736408,-0.0660249582397068,0.4706010789596515,0.03413262558550181,3.0,1
40.48783874511719,-27.238529205322266,0.537914514541626,-0.13788912159701297,-0.6055983902282811,-0.7837328498271072,0.11997821653413528,3.0,1
41.21982192993164,-27.075454711914062,0.48279476165771484,-0.0,-0.0,-1.0,0.047297658943346185,2.0,1
40.34042739868164,-27.625917434692383,0.5344665050506592,-0.0,-0.0,-1.0,0.165563606410359,1.0,1
42.4747428894043,-26.92151641845703,0.5151872634887695,-0.0,-0.0,-1.0,0.013858327783446504,1.0,1
40.42578125,-27.242219924926758,0.4848942756652832,-0.0,-0.0,-1.0,0.04667903657030764,1.0,1
40.62506866455078,-27.057851791381836,0.4695439338684082,-0.4637159508285886,0.20550095037818705,-0.861821835613835,0.06900452921167044,4.0,1
41.23869323730469,-27.130945205688477,0.4198634624481201,-0.0,-0.0,-1.0,0.028650693130517334,2.0,1
41.59970474243164,-27.07520866394043,0.3907942771911621,-0.0,-0.0,-1.0,0.012840011727908338,1.0,1
40.46520233154297,-27.430795669555664,0.7295174598693848,0.5514965333118116,-0.7677394146775266,-0.3262326852043837,0.12646040962365077,4.0,1
40.24991989135742,-27.518810272216797,0.8122143745422363,-0.0,-0.0,-1.0,0.1725318680335032,1.0,1
40.261863708496094,-27.274127960205078,0.5131769180297852,-0.0,-0.0,-1.0,0.0843615945082726,2.0,1
41.360801696777344,-27.44644546508789,0.43831324577331543,-0.0,-0.0,-1.0,0.020689058673804526,1.0,1
40.458709716796875,-27.102962493896484,0.5039191246032715,0.4803322222946299,0.8384888886573945,-0.25732730096822204,0.06784115297114299,5.0,1
40.92023849487305,-27.19161605834961,0.47219419479370117,-0.0,-0.0,-1.0,0.03943103836478819,1.0,1
41.23371887207031,-27.103248596191406,0.45333361625671387,-0.9290261737949644,0.0913324298098328,-0.3585648555964746,0.02855199376516861,4.0,1
41.636024475097656,-27.01968002319336,0.4283158779144287,-0.0,-0.0,-1.0,0.012694897699875942,1.0,1
40.43135452270508,-27.08132553100586,0.47971105575561523,0.4803322222946299,0.8384888886573945,-0.25732730096822204,0.04746781356799153,5.0,1
40.95057678222656,-27.117015838623047,0.44369077682495117,-0.0,-0.0,-1.0,0.04531517500219258,1.0,1
41.425323486328125,-27.030101776123047,0.4127824306488037,-0.0,-0.0,-1.0,0.028436235568608866,1.0,1
40.310340881347656,-27.423778533935547,0.78816819190979,0.4377988878624051,0.3312056037764832,-0.8358438740659027,0.2740371220648713,4.0,1
40.263427734375,-27.364961624145508,0.8378583192825317,-0.3046100906557562,-0.07059984679382676,-0.9498570178207774,0.21659978160880994,4.0,1
40.622230529785156,-27.346845626831055,0.5381889343261719,-0.0,-0.0,-1.0,0.1488068216271057,2.0,1
41.00066375732422,-27.345945358276367,0.5294532775878906,-0.0,-0.0,-1.0,0.03931313572970391,1.0,1
40.602882385253906,-27.089845657348633,0.5427341461181641,-0.0,-0.0,-1.0,0.08184225561432755,1.0,1
40.43693923950195,-28.19546127319336,2.481189250946045,-0.0,-0.0,-1.0,0.06646971545264685,2.0,3
40.3298225402832,-27.355276107788086,0.5588332414627075,-0.0,-0.0,-1.0,0.10276185124228072,2.0,1
40.58351516723633,-27.225732803344727,0.5573849678039551,-0.6398182590437288,0.5204223558764024,-0.5655025790377154,0.09963732829594885,3.0,1
40.77616882324219,-27.37333869934082,0.5505739450454712,-0.0,-0.0,-1.0,0.05829265430797396,1.0,1
40.4975471496582,-28.2885684967041,2.0519635677337646,-0.0,-0.0,-1.0,0.06693951455368147,2.0,3
40.3105583190918,-27.42361831665039,0.563589870929718,-0.0,-0.0,-1.0,0.16643742502279188,2.0,1
40.7414436340332,-27.200397491455078,0.5634456276893616,-0.0,-0.0,-1.0,0.10290911267788087,1.0,1
40.91087341308594,-27.432308197021484,0.5562418699264526,-0.0,-0.0,-1.0,0.052195517452661724,2.0,1
41.058860778808594,-27.440380096435547,0.5542762279510498,0.488788452230165,-0.8687246023857128,-0.08002133575631298,0.04756207320983266,3.0,1
40.513702392578125,-28.201839447021484,2.029637336730957,-0.0,-0.0,-1.0,0.06230348468389808,1.0,3
40.56110382080078,-28.183216094970703,1.1892939805984497,-0.0,-0.0,-1.0,0.028915745989497935,1.0,2
40.28892135620117,-27.320148468017578,0.8283548355102539,0.463187543616951,0.8676107008243691,-0.18085621707074925,0.1763309253120436,3.0,1
40.49160385131836,-27.386428833007812,0.8267165422439575,-0.0,-0.0,-1.0,0.11340444574213213,2.0,1
40.39027786254883,-28.12457275390625,2.261624574661255,-0.0,-0.0,-1.0,0.07682933553574264,1.0,3
40.974002838134766,-27.782817840576172,0.8456220030784607,-0.0,-0.0,-1.0,0.12299724235422746,1.0,1
40.72623062133789,-27.580917358398438,0.8455511331558228,-0.0,-0.0,-1.0,0.05416840011200257,1.0,1
40.46351623535156,-27.471527099609375,0.8444852232933044,-0.4754261195774709,-0.7979387050334048,-0.3704913330067544,0.10026825182191298,3.0,1
40.30939865112305,-27.540607452392578,0.8425748944282532,-0.0,-0.0,-1.0,0.16003954883071445,1.0,1
40.520503997802734,-27.353431701660156,0.827627420425415,-0.0,-0.0,-1.0,0.1733613534585269,2.0,1
40.300628662109375,-27.37860107421875,0.8258636593818665,-0.30030535568084665,-0.05378060092561482,-0.952325753255408,0.25723853356188325,5.0,1
42.41432189941406,-26.96446990966797,0.43833500146865845,-0.0,-0.0,-1.0,0.01413038112084637,2.0,1
40.25730514526367,-26.930633544921875,0.39482563734054565,-0.0,-0.0,-1.0,0.11739292785366873,1.0,1
41.57102966308594,-27.406307220458984,0.41082173585891724,-0.0,-0.0,-1.0,0.012959394150378991,1.0,1
40.54707336425781,-27.55518341064453,0.9553230404853821,-0.0,-0.0,-1.0,0.08563028035934213,2.0,1
40.31813049316406,-27.388568878173828,0.9494081735610962,-0.0,-0.0,-1.0,0.17875181002452112,1.0,1
40.21440124511719,-27.22382354736328,0.5755560398101807,-0.0,-0.0,-1.0,0.1584974733505664,1.0,1
40.85143280029297,-26.964889526367188,0.5280699729919434,-0.0,-0.0,-1.0,0.06610655073066739,1.0,1
40.650978088378906,-27.229244232177734,0.5462088584899902,-0.0,-0.0,-1.0,0.11261233946503131,2.0,1
40.43822479248047,-27.322162628173828,0.5622007846832275,0.05310272653966021,-0.7101058886556975,0.702089543669863,0.07223395855017466,4.0,1
42.51609802246094,-26.91031265258789,0.4169952869415283,-0.0,-0.0,-1.0,0.013858327783446507,1.0,1
40.519927978515625,-27.205242156982422,0.743292510509491,-0.0,-0.0,-1.0,0.17495625794583355,1.0,1
40.807796478271484,-27.257766723632812,0.712793231010437,-0.0,-0.0,-1.0,0.16857894675443127,1.0,1
40.69670867919922,-28.069889068603516,2.334742546081543,-0.0,-0.0,-1.0,0.031470974079800776,1.0,3
40.51052474975586,-27.28290557861328,0.5175873041152954,0.7067756828422068,-0.6993500744296531,0.10666586866552283,0.12901506275183133,3.0,1
40.715171813964844,-26.868919372558594,0.48737096786499023,-0.0,-0.0,-1.0,0.13048011065120177,1.0,1
40.66339874267578,-27.088741302490234,0.4983100891113281,-0.0,-0.0,-1.0,0.08583810137998901,2.0,1
40.318973541259766,-27.443645477294922,0.6240958571434021,0.4820555064118269,-0.09790120821826093,-0.8706536867018031,0.0916950720145345,4.0,1
40.58808135986328,-27.329261779785156,0.6019869446754456,-0.1337155931696522,-0.8324882332083968,0.5376648414326998,0.1747163405037079,3.0,1
40.94502258300781,-27.528751373291016,0.5802050232887268,-0.7612382733515868,-0.4409514477243196,-0.4754767207072515,0.08925609330224195,4.0,1
41.16802978515625,-27.30797576904297,0.5591059923171997,-0.0530584453671813,-0.6407442938677044,-0.7659187628274913,0.04460734907422486,3.0,1
40.377838134765625,-28.291820526123047,2.168222665786743,-0.9132279964031346,0.3788247765144262,0.15002138275696475,0.10275898462012495,3.0,3
40.36253356933594,-27.401140213012695,0.5567889213562012,-0.8082959642948581,-0.09224050391419783,-0.5815060821197836,0.12173566162734242,3.0,1
40.531524658203125,-27.257516860961914,0.5449004173278809,-0.1175383936641593,0.09007061372985409,-0.9889752325297012,0.11768164799783329,4.0,1
41.22017288208008,-27.16208839416504,0.5018585920333862,-0.8798723369736408,-0.0660249582397068,0.4706010789596515,0.03643212651209135,3.0,1
40.335784912109375,-27.49311065673828,0.8748488426208496,-0.0,-0.0,-1.0,0.22195021446855046,1.0,1
40.35566711425781,-27.44702911376953,0.7285162210464478,0.2760329302413308,-0.7251269329301271,-0.630869838050395,0.09776551560430678,4.0,1
40.45170211791992,-27.431358337402344,0.7910444736480713,0.6259049130212166,-0.7272782241908573,0.2816192899531146,0.13064765486141106,4.0,1
40.352638244628906,-27.45135498046875,0.8373068571090698,0.16016639677093944,-0.3408255852489208,-0.9263825590894643,0.21484309579460031,3.0,1
40.40398406982422,-27.337745666503906,0.6962853670120239,0.34271678842608455,-0.7243935855356445,-0.598163135077483,0.1742089768364593,3.0,1
40.35960006713867,-27.3675479888916,0.7334790229797363,-0.0,-0.0,-1.0,0.13599173701075526,2.0,1
40.47885513305664,-27.37567138671875,0.6492010354995728,-0.0,-0.0,-1.0,0.12415471010465447,2.0,1
40.35072326660156,-27.34210205078125,0.5302989482879639,-0.5050370535628407,-0.28382722027089036,-0.8150948923664433,0.08535798097877967,4.0,1
40.477088928222656,-27.31482696533203,0.5298442840576172,0.6942761233529285,-0.7194225993306581,0.02029256303053622,0.09581010139506227,3.0,1
41.068389892578125,-27.360942840576172,0.5241890549659729,-0.0,-0.0,-1.0,0.039973253020521966,1.0,1
41.232200622558594,-27.14205551147461,0.527157187461853,-0.8798723369736408,-0.0660249582397068,0.4706010789596515,0.034132625585501786,3.0,1
41.36127853393555,-27.189903259277344,0.5251463651657104,-0.0,-0.0,-1.0,0.04844641834255753,1.0,1
42.37864303588867,-27.005863189697266,0.5200632810592651,-0.0,-0.0,-1.0,0.013793289169727834,1.0,1
40.520877838134766,-28.216964721679688,1.8281919956207275,-0.0,-0.0,-1.0,0.04434485457934924,1.0,2
40.42949295043945,-27.296117782592773,0.5790545344352722,-0.3472648063521166,-0.5150028340420947,0.7836958818303423,0.10469572307018103,4.0,1
40.828792572021484,-27.415925979614258,0.5774157643318176,-0.0,-0.0,-1.0,0.07384700510104776,1.0,1
41.30829620361328,-27.01425552368164,0.4111413359642029,-0.0,-0.0,-1.0,0.03208327353301975,2.0,1
41.79623031616211,-26.891204833984375,0.4099676012992859,0.0841457520832459,-0.47748269655170045,-0.874602633714341,0.004218554470205435,3.0,1
42.06911087036133,-27.005748748779297,0.40501463413238525,-0.0,-0.0,-1.0,0.01347965359865533,1.0,1
40.31397247314453,-27.27627182006836,0.5131310820579529,0.11027955214916844,-0.993886145336637,0.005361947935228361,0.08674379424118113,3.0,1
40.87778854370117,-27.367237091064453,0.5122897624969482,-0.0,-0.0,-1.0,0.02813410487597906,1.0,1
41.105377197265625,-27.188426971435547,0.5165750980377197,-0.8723029318205456,-0.04638136247393187,0.4867610957670526,0.05468279694638571,4.0,1
40.260189056396484,-27.059106826782227,0.4899994134902954,-0.0,-0.0,-1.0,0.12769776396314558,1.0,1
41.10611343383789,-27.036325454711914,0.4479371905326843,-0.6659111805739262,-0.6858091647164591,-0.2936461972809328,0.04508599894307443,3.0,1
41.63737869262695,-26.898263931274414,0.4239150285720825,-0.0,-0.0,-1.0,0.008883009051600452,2.0,1
41.125083923339844,-27.047510147094727,0.4310389757156372,-0.6659111805739262,-0.6858091647164591,-0.2936461972809328,0.04508599894307442,3.0,1
41.24500274658203,-27.069520950317383,0.42360353469848633,-0.0,-0.0,-1.0,0.044667962355025355,2.0,1
41.637516021728516,-26.8918399810791,0.4040405750274658,-0.0,-0.0,-1.0,0.008883009051600452,2.0,1
40.403472900390625,-28.302030563354492,1.664743423461914,0.8869234375157686,0.22814528890678706,0.401642307451358,0.038242296057741924,4.0,2
40.23512268066406,-27.473506927490234,0.5179494619369507,-0.0,-0.0,-1.0,0.20763335730907836,1.0,1
40.65568923950195,-26.972896575927734,0.5058023929595947,-0.0,-0.0,-1.0,0.05466630077985752,1.0,1
40.9627571105957,-27.22893524169922,0.4847603440284729,-0.0,-0.0,-1.0,0.037576723706765375,1.0,1
40.978214263916016,-27.40259552001953,0.4805789589881897,-0.0,-0.0,-1.0,0.04229894509042571,1.0,1
41.24726486206055,-27.204364776611328,0.4703317880630493,-0.0,-0.0,-1.0,0.06367852441318328,1.0,1
40.413673400878906,-28.28546905517578,1.6731469631195068,-0.22043522570658666,0.8523599880502095,0.47422648812432733,0.03824229605774188,5.0,2
40.43329620361328,-28.26610565185547,2.1638736724853516,-0.0,-0.0,-1.0,0.11456515348456899,2.0,3
40.30899429321289,-28.337657928466797,2.3019704818725586,-0.0,-0.0,-1.0,0.06843996029522194,1.0,3
40.35519027709961,-27.408586502075195,0.6653804779052734,-0.0,-0.0,-1.0,0.09615188268807502,1.0,1
40.55217742919922,-27.34284210205078,0.6568813323974609,-0.23572513362418218,-0.9606059436298108,-0.14720693747558938,0.14354611550565252,3.0,1
40.76001739501953,-27.587392807006836,0.641578733921051,-0.0,-0.0,-1.0,0.13075316825807928,2.0,1
40.39454650878906,-28.266563415527344,1.6706243753433228,0.355710057442013,0.23932734838840355,-0.9034338798982334,0.03824229605774188,3.0,2
40.27233123779297,-27.66070556640625,0.9979600310325623,-0.0,-0.0,-1.0,0.0826547216064309,1.0,1
40.36736297607422,-28.260486602783203,1.9537343978881836,-0.0,-0.0,-1.0,0.04871464481938524,2.0,2
40.48997497558594,-27.35560417175293,0.6420556306838989,0.8099093953758325,-0.5346744304451966,-0.2411846278477503,0.0968673958396953,3.0,1
40.77696228027344,-27.505971908569336,0.6303848624229431,-0.0,-0.0,-1.0,0.054993376794216474,1.0,1
40.43690490722656,-28.292238235473633,1.5669752359390259,0.5650284069997705,0.7236457090135787,0.3963329245842895,0.019794288676023803,3.0,2
40.44960021972656,-28.237192153930664,2.5096421241760254,-0.0,-0.0,-1.0,0.06550318195657417,2.0,3
40.27617263793945,-27.448184967041016,0.601033627986908,0.44382003566007067,-0.2211268246622141,-0.868404688703084,0.19370021863038875,5.0,1
40.71026611328125,-27.370311737060547,0.5879132747650146,-0.0,-0.0,-1.0,0.12699497696076298,1.0,1
40.98442459106445,-27.459104537963867,0.5763018131256104,-0.0,-0.0,-1.0,0.06926381660395281,1.0,1
42.263694763183594,-27.094345092773438,0.5397887229919434,-0.0,-0.0,-1.0,0.01362940742281103,2.0,1
40.42705535888672,-28.303524017333984,1.4910187721252441,-0.0,-0.0,-1.0,0.01391357820518258,1.0,2
40.53023910522461,-27.50691795349121,0.8344250917434692,-0.0,-0.0,-1.0,0.09455533272290631,1.0,1
40.39198684692383,-27.435726165771484,0.8383600115776062,-0.0825694817509331,0.27248130258056513,-0.9586116108348474,0.16601227598378693,3.0,1
40.41641616821289,-28.300811767578125,1.7166788578033447,0.6491491496301839,-0.7473833841452312,-0.14150427074131405,0.03950376427750454,6.0,2
40.2351188659668,-27.40570068359375,0.7786173224449158,-0.0,-0.0,-1.0,0.19715955281316455,2.0,1
40.55599594116211,-28.110206604003906,2.1499433517456055,-0.0,-0.0,-1.0,0.0768941402755148,1.0,3
40.56884002685547,-27.324501037597656,0.5092463493347168,-0.0,-0.0,-1.0,0.13722176932763763,1.0,1
40.49933624267578,-28.238677978515625,2.350327968597412,-0.2942882413790042,-0.015205662181366698,-0.9555957402707899,0.07388840270593633,3.0,3
40.37959289550781,-28.29446029663086,2.185570240020752,-0.9132279964031346,0.3788247765144262,0.15002138275696475,0.10275898462012495,3.0,3
40.42198181152344,-28.340349197387695,1.3777134418487549,-0.0,-0.0,-1.0,0.01610486530465686,2.0,2
40.46563720703125,-28.30440330505371,1.548224925994873,0.5650284069997705,0.7236457090135787,0.3963329245842895,0.016776053854264363,3.0,2
40.486236572265625,-27.369430541992188,0.590645432472229,-0.24044903134122894,-0.2945686361046237,-0.9248857129129666,0.05687415301143933,4.0,1
40.38591003417969,-28.381885528564453,2.289597988128662,-0.0,-0.0,-1.0,0.07719440802794546,1.0,3
40.40252685546875,-28.32803726196289,1.6970537900924683,0.9239988917447562,-0.3106487817303573,-0.22298740427187272,0.03950376427750449,3.0,2
40.445091247558594,-28.280620574951172,1.682773232460022,0.20902662520080212,0.9683281343184333,0.1365594897637861,0.03882307455797688,5.0,2
40.44355773925781,-27.35394287109375,0.6033613681793213,-0.13236854238156134,0.16293757575943427,-0.9777166846246508,0.16261687348174117,5.0,1
40.90552520751953,-27.570926666259766,0.5752547383308411,-0.0,-0.0,-1.0,0.08925609330224202,1.0,1
40.37507629394531,-27.335044860839844,0.5257781744003296,-0.12530307793275025,-0.19122781269318237,-0.9735147981993704,0.05561165890017524,3.0,1
40.56087112426758,-27.061283111572266,0.5096758008003235,-0.0,-0.0,-1.0,0.06572650800655047,1.0,1
40.218101501464844,-27.474716186523438,0.6104597449302673,-0.0,-0.0,-1.0,0.17823504353929273,1.0,1
40.40357971191406,-27.37924575805664,0.5964796543121338,0.4207464105820045,-0.8209107199024998,-0.3861062650767515,0.12760737413971351,7.0,1
40.627525329589844,-27.349178314208984,0.5809589624404907,-0.4478808545949469,-0.8940682689812727,0.006683598441757774,0.1811127264599808,3.0,1
40.973182678222656,-27.547706604003906,0.5609675645828247,-0.6761425463146553,-0.6472484825715266,-0.3519952540475375,0.08689322560792256,3.0,1
41.15857696533203,-27.289459228515625,0.5442704558372498,-0.052060083525427195,-0.6344223281712668,-0.7712315198570887,0.04460734907422485,4.0,1
40.28300857543945,-27.404178619384766,0.7270957827568054,-0.0,-0.0,-1.0,0.0954630692801689,1.0,1
40.61293411254883,-27.364791870117188,0.7253295183181763,-0.0,-0.0,-1.0,0.10774347996680478,1.0,1
40.626365661621094,-28.222209930419922,2.0458922386169434,-0.0,-0.0,-1.0,0.056049323827165355,1.0,3
40.22400665283203,-27.391677856445312,0.8923991322517395,-0.0,-0.0,-1.0,0.1692035711524238,1.0,1
40.53008270263672,-27.432838439941406,0.8816936612129211,-0.0,-0.0,-1.0,0.10176029121092765,1.0,1
40.48284912109375,-28.319276809692383,1.157273292541504,-0.0,-0.0,-1.0,0.018255945612445004,2.0,2
40.507606506347656,-28.30750846862793,1.5919822454452515,-0.0,-0.0,-1.0,0.022628816689562632,1.0,2
40.454856872558594,-28.28718376159668,2.184551477432251,-0.9120576510122975,0.3808384816540675,0.15202924758530695,0.11456515348456899,4.0,3
40.52709197998047,-27.31966781616211,0.5738210678100586,0.20316196257949734,-0.06641634683701803,-0.9768900070292825,0.14132306612404363,3.0,1
40.34941101074219,-27.441814422607422,0.5814812183380127,0.12691166704355047,-0.5443378702108033,-0.8292102940886551,0.11828047185109747,3.0,1
40.63679122924805,-27.189250946044922,0.5699055194854736,-0.8527634425331305,-0.424328946529105,-0.3045315356683845,0.08515076075032624,5.0,1
40.95228576660156,-27.500062942504883,0.5483193397521973,-0.8258478903143729,-0.3125627236074874,-0.46933975526729965,0.05351913145473821,3.0,1
40.42782974243164,-28.30757713317871,1.2496182918548584,-0.4598116433054014,0.8408183383770896,-0.28565324176276424,0.018255945612444997,3.0,2
40.47391891479492,-28.304109573364258,2.317084789276123,-0.0,-0.0,-1.0,0.07630234744322027,2.0,3
40.30420684814453,-27.386476516723633,0.8269042372703552,-0.287098169236982,-0.1232114155055256,-0.9499439921963283,0.25723853356188325,5.0,1
40.33050537109375,-27.428760528564453,0.8251674771308899,0.7725685330253842,0.5145711862642072,-0.371960153841312,0.2742105044390591,4.0,1
40.576927185058594,-27.456350326538086,0.8005536794662476,-0.0,-0.0,-1.0,0.09469245897095438,2.0,1
40.44447326660156,-28.289934158325195,1.868074893951416,-0.0,-0.0,-1.0,0.048626841502594664,2.0,2
40.41118621826172,-27.589935302734375,0.9698311686515808,-0.0,-0.0,-1.0,0.09899110074392184,1.0,1
40.33045196533203,-28.376129150390625,1.919352650642395,-0.0,-0.0,-1.0,0.03552547917318833,1.0,2
40.28668212890625,-27.587692260742188,0.8884188532829285,-0.0,-0.0,-1.0,0.10177725430770325,1.0,1
40.547996520996094,-28.15899658203125,1.7853517532348633,-0.0,-0.0,-1.0,0.03159238413573338,1.0,2
40.35441207885742,-28.377321243286133,1.7942841053009033,-0.0,-0.0,-1.0,0.03992216635183056,1.0,2
40.39006805419922,-27.640697479248047,0.9677191972732544,-0.0,-0.0,-1.0,0.08023860338977927,1.0,1
40.78990936279297,-28.08658790588379,1.8352528810501099,-0.0,-0.0,-1.0,0.029730697335401842,1.0,2
40.49864959716797,-28.260478973388672,1.2593132257461548,-0.0,-0.0,-1.0,0.018255945612445004,2.0,2
40.45469665527344,-28.238723754882812,2.1256136894226074,-0.0,-0.0,-1.0,0.10655411261791249,1.0,3
40.43070983886719,-28.26786994934082,1.062898874282837,-0.0,-0.0,-1.0,0.02611101759311564,1.0,2
40.38104248046875,-28.24933433532715,1.9076943397521973,-0.0,-0.0,-1.0,0.03861349433497046,2.0,2
40.48567199707031,-26.891613006591797,0.4815354347229004,-0.0,-0.0,-1.0,0.10552331334591297,2.0,1
40.553531646728516,-28.157268524169922,1.2593326568603516,-0.0,-0.0,-1.0,0.01753301852042999,1.0,2
40.464141845703125,-28.25857162475586,2.361483097076416,-0.5432137030915422,0.7545566142858109,-0.36818906639267235,0.074033467688085,3.0,3
41.30048370361328,-27.696016311645508,2.297206163406372,-0.0,-0.0,-1.0,0.008050441320287207,1.0,3
40.529117584228516,-28.270957946777344,1.6766328811645508,-0.0,-0.0,-1.0,0.029597714625420456,2.0,2
40.49364471435547,-28.21047592163086,2.421337127685547,-0.0,-0.0,-1.0,0.0664697154526469,2.0,3
40.980159759521484,-27.98495864868164,2.378835678100586,-0.0,-0.0,-1.0,0.023287963129568923,1.0,3
40.35448455810547,-27.445470809936523,0.964171290397644,-0.0,-0.0,-1.0,0.16290091020126415,2.0,1
40.518951416015625,-28.242570877075195,1.7023251056671143,-0.0,-0.0,-1.0,0.03882307455797685,2.0,2
40.414512634277344,-27.189311981201172,0.5112624168395996,-0.0,-0.0,-1.0,0.05930101685985144,2.0,1
40.632652282714844,-27.033647537231445,0.4811677932739258,0.015620075374115038,0.4288732602636697,-0.9032296163634791,0.05759648510067521,3.0,1
40.256202697753906,-27.497737884521484,0.6867605447769165,-0.0,-0.0,-1.0,0.11393310806046399,2.0,1
40.44103240966797,-27.405860900878906,0.6643600463867188,0.5622719023830804,0.662422391416247,-0.49502210368921146,0.14530653447528086,4.0,1
42.45069885253906,-26.979469299316406,0.41659021377563477,-0.0,-0.0,-1.0,0.013793289169727843,2.0,1
40.48260498046875,-28.327268600463867,1.3764482736587524,-0.1638512645957762,0.8208865867536078,-0.5470813237338457,0.018255945612445052,3.0,2
40.42646026611328,-28.32990074157715,2.0918402671813965,-0.0,-0.0,-1.0,0.06089596792057006,2.0,3
40.49513244628906,-28.323673248291016,1.0843770503997803,-0.0,-0.0,-1.0,0.026433213444657173,2.0,2
40.42756652832031,-28.31546974182129,1.7725721597671509,0.820352152537481,0.4918620026911129,-0.29170895792863366,0.045893597415856455,6.0,2
40.44105529785156,-28.281517028808594,2.449796676635742,-0.0,-0.0,-1.0,0.07159111319083299,1.0,3
40.294498443603516,-27.435802459716797,0.6103730201721191,0.29920778947368193,0.3775628047242162,-0.8763110333706042,0.17868178036985288,6.0,1
40.4431266784668,-27.365840911865234,0.5937273502349854,-0.13236854238156134,0.16293757575943427,-0.9777166846246508,0.1626168734817412,5.0,1
40.57476043701172,-27.211177825927734,0.5806849002838135,-0.6398182590437288,0.5204223558764024,-0.5655025790377154,0.08488406559749326,3.0,1
41.10316467285156,-27.195812225341797,0.5155482292175293,-0.8723029318205456,-0.04638136247393187,0.4867610957670526,0.04577590970362081,4.0,1
41.45504379272461,-27.15232276916504,0.472365140914917,-0.0,-0.0,-1.0,0.029705806253657603,1.0,1
41.813232421875,-27.259490966796875,0.4256289005279541,-0.0,-0.0,-1.0,0.004773222632593447,1.0,1
41.81221389770508,-26.92685317993164,0.4309673309326172,0.0841457520832459,-0.47748269655170045,-0.874602633714341,0.008664699631855144,3.0,1
40.43189239501953,-28.25763702392578,2.516252279281616,-0.6604895785183628,0.3588259378440721,-0.6595433746153156,0.06646971545264689,3.0,3
40.34328842163086,-27.467552185058594,0.9535167217254639,-0.0,-0.0,-1.0,0.18229443149338384,2.0,1
40.376220703125,-27.378650665283203,0.5341963768005371,-0.30921126656246073,-0.36713684539782265,-0.8772678777786029,0.07108959095876423,4.0,1
40.57533264160156,-27.12417984008789,0.5132346153259277,-0.0,-0.0,-1.0,0.07984747075713183,2.0,1
40.66627502441406,-26.884986877441406,0.5066947937011719,-0.0,-0.0,-1.0,0.14045325244001317,1.0,1
41.28504943847656,-27.01959991455078,0.41244983673095703,-0.0,-0.0,-1.0,0.03403146195333074,2.0,1
40.46651840209961,-28.34781837463379,1.0794637203216553,-0.0,-0.0,-1.0,0.023282396121967374,2.0,2
40.468482971191406,-28.30585289001465,1.6658620834350586,-0.0,-0.0,-1.0,0.02959771462542048,2.0,2
40.40455627441406,-28.287677764892578,2.2526261806488037,0.5128660080943814,0.8423301674574715,0.16567542585550163,0.08888764350746697,4.0,3
41.02077865600586,-27.496505737304688,0.5670225620269775,-0.0,-0.0,-1.0,0.07709344842489389,1.0,1
41.18558883666992,-27.247087478637695,0.5511274337768555,-0.8608536317584498,-0.05473728192165962,-0.5059000441353179,0.06467159702012833,3.0,1
42.10067367553711,-27.223493576049805,0.4163930416107178,-0.0,-0.0,-1.0,0.013226797208236513,1.0,1
40.425262451171875,-27.398639678955078,0.6556005477905273,0.7170786364466126,0.32087299925720264,-0.6187396443574261,0.13498025945985667,5.0,1
40.459312438964844,-28.298892974853516,1.725419044494629,-0.003224337224533831,0.9999396262179894,0.010504645091080093,0.03950376427750454,4.0,2
40.4332389831543,-28.30927276611328,2.2777838706970215,-0.0,-0.0,-1.0,0.09076806847271604,2.0,3
40.28057861328125,-27.42510986328125,0.803246259689331,0.18355892562216095,0.16669104561469678,-0.9687725306470643,0.20772448698706986,4.0,1
40.55885314941406,-27.431182861328125,0.7629650831222534,-0.0,-0.0,-1.0,0.11023432581003394,2.0,1
40.874351501464844,-27.519729614257812,0.7140147686004639,-0.0,-0.0,-1.0,0.08455387043676504,1.0,1
40.45964050292969,-28.282630920410156,1.2718420028686523,-0.5087592417749263,0.8154356634477308,-0.27609547748226715,0.018255945612445066,4.0,2
40.455711364746094,-28.30420684814453,1.79637610912323,0.47929714136906515,0.4865812506553459,-0.7304196990676808,0.04589359741585643,4.0,2
40.47101974487305,-28.275432586669922,2.3167812824249268,-0.9883296360639613,-0.10112332132668954,-0.11392367779147926,0.07630234744322027,3.0,3
40.51473617553711,-27.09878921508789,0.47634100914001465,-0.0,-0.0,-1.0,0.07113753854241692,2.0,1
40.37168884277344,-27.53255271911621,0.9536910057067871,-0.0,-0.0,-1.0,0.11817077453051082,1.0,1
40.50469207763672,-28.305456161499023,1.4025623798370361,-0.0,-0.0,-1.0,0.0164456008820588,2.0,2
40.488319396972656,-28.310529708862305,1.9002434015274048,-0.0,-0.0,-1.0,0.04321977437205616,1.0,2
40.81584548950195,-27.638273239135742,0.714181661605835,-0.0,-0.0,-1.0,0.12503228946920814,1.0,1
40.23271942138672,-27.471668243408203,0.8037725687026978,-0.0,-0.0,-1.0,0.17660396470911563,1.0,1
40.58604431152344,-27.48245620727539,0.7580395936965942,-0.0,-0.0,-1.0,0.09607155268148752,2.0,1
40.329288482666016,-27.499143600463867,0.5729160308837891,-0.0,-0.0,-1.0,0.18293052471430035,1.0,1
40.53562927246094,-27.34143829345703,0.5770766735076904,-0.9322506366324624,-0.35958026315650843,0.04013458417206329,0.14385694553566616,3.0,1
41.024959564208984,-27.446073532104492,0.5145819187164307,0.0176515467047429,-0.4236027929167865,-0.9056760440312137,0.045284821369502674,3.0,1
41.1395263671875,-27.26894187927246,0.5289041996002197,-0.16103862755124737,-0.28937810984937884,-0.9435713380430816,0.057313150134549476,5.0,1
40.23705291748047,-27.704360961914062,0.9794461727142334,-0.0,-0.0,-1.0,0.08400901451661394,2.0,1
40.45193099975586,-28.347087860107422,1.3325320482254028,-0.0,-0.0,-1.0,0.01825594561244501,2.0,2
40.4426383972168,-28.323265075683594,1.7788057327270508,0.47929714136906515,0.4865812506553459,-0.7304196990676808,0.04589359741585646,4.0,2
40.43231201171875,-28.298145294189453,2.2212753295898438,0.2689044179748298,0.9458640868135603,-0.18174582050206245,0.08962226760867954,5.0,3
42.04192352294922,-27.143535614013672,0.4155235290527344,-0.0,-0.0,-1.0,0.013062118458651874,1.0,1
42.15928649902344,-27.036279678344727,0.4109671115875244,-0.0,-0.0,-1.0,0.014130381120846362,1.0,1
40.41769790649414,-27.387771606445312,0.6028873920440674,0.4207464105820045,-0.8209107199024998,-0.3861062650767515,0.12760737413971346,7.0,1
40.55475616455078,-27.27017593383789,0.6006643772125244,-0.620303755385169,-0.14201221222873434,-0.7713985886900215,0.1186952092828413,4.0,1
41.03936004638672,-27.447795867919922,0.5156681537628174,0.08497805811368007,-0.9841472153563688,0.15566948366822783,0.04454266326326985,4.0,1
41.115997314453125,-27.226238250732422,0.5329413414001465,-0.5777653253883481,-0.3837956693416686,-0.72033888758936,0.04617893213144454,6.0,1
41.65412902832031,-27.42587661743164,0.43630504608154297,-0.0,-0.0,-1.0,0.009784361848908761,1.0,1
41.79930877685547,-27.328388214111328,0.4280128479003906,-0.0,-0.0,-1.0,0.005059254463663398,1.0,1
40.2139778137207,-27.740188598632812,0.9977420568466187,-0.0,-0.0,-1.0,0.07802140804096176,2.0,1
40.39928436279297,-28.280860900878906,1.781602382659912,0.6786370929559582,0.39261674509255434,0.6207284330020771,0.04589359741585646,3.0,2
40.392974853515625,-28.27099609375,2.207780122756958,-0.8773102237952013,-0.025335425482198613,0.4792545121749508,0.09282916921582268,6.0,3
41.74410629272461,-27.443180084228516,2.1775527000427246,-0.0,-0.0,-1.0,0.007856739254166438,1.0,3
40.40687561035156,-27.396026611328125,0.6388247013092041,-0.1001882825529529,-0.9519595659273861,-0.28937051141820325,0.12272763884363501,7.0,1
40.5845832824707,-27.313520431518555,0.6254899501800537,0.45540749127692454,0.2612499601881295,-0.8510889936960524,0.14001969786868812,5.0,1
40.88206100463867,-27.476032257080078,0.5636851787567139,-0.0,-0.0,-1.0,0.046090058623977664,1.0,1
41.138916015625,-27.58538055419922,0.5140509605407715,-0.0,-0.0,-1.0,0.03111584337459579,1.0,1
41.13683319091797,-27.295188903808594,0.550570011138916,-0.05829248642622754,-0.636466977147074,-0.7690980256297073,0.04398106027960769,5.0,1
41.46949768066406,-27.618383407592773,0.4630599021911621,-0.0,-0.0,-1.0,0.011825537184554407,1.0,1
41.774024963378906,-27.43495750427246,0.44132399559020996,-0.0,-0.0,-1.0,0.006684156844713708,1.0,1
42.231658935546875,-27.106828689575195,0.41074609756469727,-0.0,-0.0,-1.0,0.013629407422811032,1.0,1
42.271217346191406,-26.892114639282227,0.4286613464355469,-0.0,-0.0,-1.0,0.013933534852019909,1.0,1
40.44456481933594,-28.304302215576172,1.336515188217163,-0.0,-0.0,-1.0,0.01825594561244507,2.0,2
40.4299430847168,-28.276798248291016,1.7455137968063354,0.5497844315001563,0.8025211233073141,0.2317259707620546,0.046171997988949075,5.0,2
40.255859375,-28.43824577331543,2.1518564224243164,-0.0,-0.0,-1.0,0.0812210785488127,1.0,3
40.407711029052734,-28.237831115722656,2.551243782043457,-0.0,-0.0,-1.0,0.06818465091274448,2.0,3
40.44204330444336,-27.102375030517578,0.45921754837036133,0.43355538478231886,0.8758855035819777,-0.21178836828589231,0.04556855754734471,4.0,1
40.63405990600586,-26.899045944213867,0.4528625011444092,-0.0,-0.0,-1.0,0.04212072151922718,1.0,1
40.287818908691406,-27.462984085083008,0.7846813201904297,-0.43874406265705906,0.326499340490759,-0.8371987984596476,0.23698294409346712,3.0,1
40.45674133300781,-27.44940185546875,0.7604584693908691,0.7141137876269433,-0.6796310858652685,0.1677590100313441,0.11882216686565535,5.0,1
40.457672119140625,-28.320411682128906,1.3942043781280518,-0.18478139841205415,0.8013580864175613,-0.5689297427047298,0.015821035120357804,3.0,2
40.4306526184082,-28.32883071899414,1.7626359462738037,0.47929714136906515,0.4865812506553459,-0.7304196990676808,0.04617199798894911,4.0,2
40.50722122192383,-28.317495346069336,2.1226868629455566,-0.0,-0.0,-1.0,0.07074348564067895,1.0,3
40.7789421081543,-28.12643814086914,2.475950241088867,-0.0,-0.0,-1.0,0.0329200693981321,1.0,3
40.944374084472656,-27.28570556640625,0.47973179817199707,-0.0,-0.0,-1.0,0.045156655931881784,1.0,1
41.11403274536133,-27.18105697631836,0.4665529727935791,-0.0,-0.0,-1.0,0.05468279694638573,1.0,1
41.04163360595703,-27.332477569580078,0.45506763458251953,-0.0,-0.0,-1.0,0.044287947680679444,1.0,1
41.55416488647461,-27.048995971679688,0.4067842960357666,-0.0,-0.0,-1.0,0.01628295245327582,1.0,1
40.377750396728516,-27.37137222290039,0.7219775915145874,-0.5536674306539325,-0.18789909171742253,-0.8112621694402129,0.15185285533493514,3.0,1
40.33941650390625,-27.449596405029297,0.7157490253448486,0.619416998007994,-0.2870693776903346,-0.730694022810676,0.11173703358875059,3.0,1
40.61211395263672,-27.196535110473633,0.5518980026245117,-0.3737079788475269,0.4960773414094844,-0.7837407848809415,0.12131924518165718,5.0,1
40.866798400878906,-27.57097053527832,0.7862101793289185,-0.0,-0.0,-1.0,0.0862651100621076,2.0,1
40.435482025146484,-28.270315170288086,1.423467755317688,-0.0,-0.0,-1.0,0.016750495370476674,1.0,2
40.45730972290039,-28.27979278564453,1.9257968664169312,-0.0,-0.0,-1.0,0.04584512433524493,1.0,2
41.910789489746094,-27.357799530029297,2.071033000946045,-0.0,-0.0,-1.0,0.007155797039947122,1.0,3
40.49989700317383,-28.2259464263916,2.4272875785827637,-0.0,-0.0,-1.0,0.0664697154526469,2.0,3
41.203216552734375,-27.232847213745117,0.5195908546447754,-0.8608536317584498,-0.05473728192165962,-0.5059000441353179,0.06763936930123476,3.0,1
41.029502868652344,-27.45357322692871,0.5181782245635986,0.08497805811368007,-0.9841472153563688,0.15566948366822783,0.04689777479446058,4.0,1
41.50423812866211,-27.32370948791504,0.4494755268096924,-0.0,-0.0,-1.0,0.01595245710612095,1.0,1
41.24817657470703,-27.499357223510742,0.47114109992980957,-0.0,-0.0,-1.0,0.027008380186052377,1.0,1
41.92914581298828,-26.963584899902344,0.4171602725982666,-0.0,-0.0,-1.0,0.013264671818845154,2.0,1
41.755184173583984,-27.21308135986328,0.4170801639556885,-0.0,-0.0,-1.0,0.008725682100579285,1.0,1
40.24421310424805,-27.442367553710938,0.6585538387298584,-0.0,-0.0,-1.0,0.14282909314411088,1.0,1
40.53478240966797,-27.33380699157715,0.6257772445678711,-0.19007094642730613,-0.9816782373432037,0.013448927502536746,0.11979030918952194,4.0,1
40.41194152832031,-27.401779174804688,0.6364119052886963,0.8691364335310272,-0.16123194695403018,-0.4675533329903435,0.1321460421871829,8.0,1
41.053306579589844,-27.2988224029541,0.5373382568359375,-0.0,-0.0,-1.0,0.043323448486704164,1.0,1
40.41154861450195,-27.48319435119629,0.9388011693954468,-0.0,-0.0,-1.0,0.12578841111695654,1.0,1
40.473026275634766,-28.30750846862793,1.145594835281372,-0.0,-0.0,-1.0,0.03617736607964994,2.0,2
40.489540100097656,-28.282140731811523,1.4768798351287842,-0.0,-0.0,-1.0,0.018900218438969423,1.0,2
40.4587287902832,-28.253646850585938,1.9694936275482178,-0.0,-0.0,-1.0,0.04664089427777852,1.0,2
40.917137145996094,-28.035245895385742,2.1208600997924805,-0.0,-0.0,-1.0,0.02211435914831294,1.0,3
41.6708984375,-27.516246795654297,1.7678313255310059,-0.0,-0.0,-1.0,0.02888095831173753,1.0,2
40.30614471435547,-28.423534393310547,2.453022003173828,-0.0,-0.0,-1.0,0.06120307959056016,1.0,3
40.42716979980469,-28.224308013916016,2.454530715942383,-0.0,-0.0,-1.0,0.07159111319083304,2.0,3
40.99505615234375,-27.954879760742188,2.448298692703247,-0.0,-0.0,-1.0,0.02310903028102182,1.0,3
40.39918518066406,-27.430360794067383,0.7235738039016724,-0.0,-0.0,-1.0,0.11211306743133262,2.0,1
40.924076080322266,-27.61228370666504,0.6023111343383789,-0.0,-0.0,-1.0,0.0892560933022421,1.0,1
40.455810546875,-28.298383712768555,1.231638789176941,-0.4598116433054014,0.8408183383770896,-0.28565324176276424,0.01825594561244507,3.0,2
40.44804763793945,-28.293733596801758,1.553820013999939,0.5650284069997705,0.7236457090135787,0.3963329245842895,0.019794288676023803,3.0,2
40.44483947753906,-28.29370880126953,1.872029423713684,-0.0,-0.0,-1.0,0.04862684150259467,2.0,2
40.52167510986328,-28.272014617919922,2.3439788818359375,-0.0,-0.0,-1.0,0.0738884027059362,2.0,3
40.4245491027832,-28.378705978393555,2.0674729347229004,-0.0,-0.0,-1.0,0.060213052548968415,1.0,3
40.83373260498047,-26.932462692260742,0.5830841064453125,-0.0,-0.0,-1.0,0.0731944770584161,1.0,1
40.66444396972656,-27.148210525512695,0.6027755737304688,-0.0,-0.0,-1.0,0.06812957820132852,2.0,1
40.67622756958008,-27.218202590942383,0.92337965965271,-0.0,-0.0,-1.0,0.16012238024538797,1.0,1
41.66752624511719,-27.384601593017578,1.8009941577911377,-0.0,-0.0,-1.0,0.01980600453135602,1.0,2
40.505157470703125,-26.87099266052246,0.47948122024536133,-0.0,-0.0,-1.0,0.105523313345913,2.0,1
40.4940185546875,-27.070100784301758,0.5229713916778564,-0.0,-0.0,-1.0,0.055923455735174384,2.0,1
42.24220275878906,-27.1346435546875,0.543004035949707,-0.0,-0.0,-1.0,0.013629407422811032,2.0,1
40.4122314453125,-28.294281005859375,2.090320587158203,-0.0,-0.0,-1.0,0.06308339893256297,2.0,3
40.42295837402344,-28.32266616821289,2.1797733306884766,-0.7069311528335032,0.6671530650060211,-0.2348512997761907,0.10275898462012494,3.0,3
40.391090393066406,-28.229446411132812,2.185861110687256,-0.0,-0.0,-1.0,0.10275898462012495,2.0,3
41.091712951660156,-27.257038116455078,0.5598258972167969,-0.7356394959358771,-0.011164625942956054,-0.6772812437582799,0.04572791116599179,3.0,1
40.56370544433594,-27.279281616210938,0.6155219078063965,-0.5563488727672956,-0.49368876922104377,-0.6683915999738252,0.1568218812249595,5.0,1
40.40336990356445,-27.445396423339844,0.6226768493652344,-0.0,-0.0,-1.0,0.09608322563669303,2.0,1
42.290496826171875,-27.0062313079834,0.4363441467285156,-0.0,-0.0,-1.0,0.014130381120846372,2.0,1
41.10169982910156,-27.290409088134766,0.5495285987854004,-0.44465000696706963,-0.24666697977761615,-0.8610701320981781,0.047534333151515,4.0,1
41.125038146972656,-27.21826934814453,0.5511066913604736,-0.8723029318205456,-0.04638136247393187,0.4867610957670526,0.05825238840286116,4.0,1
40.4681396484375,-27.411334991455078,0.6100380420684814,-0.0,-0.0,-1.0,0.04943498558438143,2.0,1
40.56234359741211,-27.251937866210938,0.609356164932251,-0.620303755385169,-0.14201221222873434,-0.7713985886900215,0.0954814521037099,4.0,1
40.31343078613281,-27.460309982299805,0.623483419418335,0.44382003566007067,-0.2211268246622141,-0.868404688703084,0.10799571235558679,5.0,1
40.64546203613281,-27.05889129638672,0.4694030284881592,0.75691845676269,0.25603560545449083,-0.6012655141878172,0.06981839462651084,4.0,1
40.427703857421875,-27.44472885131836,0.8327245712280273,-0.3536530015324354,-0.7856807684472723,-0.507577860627513,0.12737223564504163,4.0,1
40.46653747558594,-26.916698455810547,0.42182183265686035,-0.0,-0.0,-1.0,0.0350195001106411,1.0,1
40.28156280517578,-27.2799015045166,0.5069077014923096,-0.02191252191916767,-0.9991281938158195,0.035534401718336835,0.08166550082403506,4.0,1
41.11807632446289,-27.052873611450195,0.4594566822052002,-0.6659111805739262,-0.6858091647164591,-0.2936461972809328,0.03600357758315925,3.0,1
41.76946258544922,-26.917577743530273,0.42179036140441895,0.0841457520832459,-0.47748269655170045,-0.874602633714341,0.004486147235155389,3.0,1
40.2913932800293,-27.158353805541992,0.45003390312194824,-0.0,-0.0,-1.0,0.05332093094443094,1.0,1
40.49688720703125,-28.319473266601562,2.046889305114746,-0.0,-0.0,-1.0,0.0669395145536815,2.0,3
40.50419616699219,-28.184486389160156,2.523667097091675,-0.0,-0.0,-1.0,0.0655031819565741,1.0,3
40.568233489990234,-28.157440185546875,2.0010576248168945,-0.0,-0.0,-1.0,0.0557267546126646,1.0,3
40.297630310058594,-26.888137817382812,0.46802711486816406,0.45338565702835104,-0.8792295417593812,-0.1462766519255878,0.1644468460964271,3.0,1
41.58323669433594,-26.93115997314453,0.4152867794036865,-0.0,-0.0,-1.0,0.014080036402836074,1.0,1
40.835113525390625,-26.93561553955078,0.681520938873291,-0.0,-0.0,-1.0,0.2575563957158811,1.0,1
40.51178741455078,-26.932586669921875,0.7235002517700195,-0.0,-0.0,-1.0,0.20133592148714985,1.0,1
40.24602508544922,-27.265762329101562,0.7836055755615234,-0.0,-0.0,-1.0,0.2143108179468469,1.0,1
40.248653411865234,-27.347576141357422,0.9107475280761719,-0.0,-0.0,-1.0,0.18599576387161376,1.0,1
40.373085021972656,-27.33523941040039,0.6755466461181641,-0.0,-0.0,-1.0,0.13874498908371824,2.0,1
40.317481994628906,-26.87464141845703,0.44843435287475586,-0.0,-0.0,-1.0,0.16458097724446524,2.0,1
40.396278381347656,-27.38681411743164,0.6214447021484375,-0.14858577066608608,-0.9455655505784153,-0.2895307553868909,0.13922742858990123,6.0,1
40.89114761352539,-27.395877838134766,0.5575761795043945,-0.0,-0.0,-1.0,0.05046337329607546,2.0,1
41.003692626953125,-27.28299331665039,0.5506420135498047,-0.0,-0.0,-1.0,0.044287947680679424,1.0,1
41.49321365356445,-27.49323272705078,0.47345829010009766,-0.0,-0.0,-1.0,0.011430181961688423,1.0,1
41.704708099365234,-27.35630989074707,0.45494985580444336,-0.0,-0.0,-1.0,0.009122354849981808,1.0,1
41.8298454284668,-27.135643005371094,0.4528689384460449,-0.0,-0.0,-1.0,0.009814867773291986,1.0,1
40.28035354614258,-27.405561447143555,0.6395583152770996,-0.0,-0.0,-1.0,0.18390911715749342,2.0,1
40.559654235839844,-27.7532958984375,0.6175398826599121,-0.0,-0.0,-1.0,0.2065260489297143,1.0,1
40.540748596191406,-28.049299240112305,0.6451973915100098,-0.0,-0.0,-1.0,0.07964555358075597,1.0,1
