x,y,z,nx,ny,nz,curvature,density,label
14.824056625366211,-25.414030075073242,2.071589231491089,-0.0,-0.0,-1.0,0.22313399692337327,2.0,3
14.592514038085938,-26.24974250793457,2.0780060291290283,-0.0,-0.0,-1.0,0.13594707969729372,1.0,3
15.001632690429688,-25.134395599365234,2.0728280544281006,-0.0,-0.0,-1.0,0.1740249055139549,1.0,3
15.07598876953125,-25.572284698486328,2.0831751823425293,-0.5376202570463416,-0.43192958631538186,-0.7241555714615807,0.13678786884401656,3.0,3
14.86398696899414,-25.83037567138672,2.0802717208862305,-0.0,-0.0,-1.0,0.23494399717294417,1.0,3
15.113983154296875,-26.406513214111328,2.098811626434326,-0.0,-0.0,-1.0,0.13546182960643216,1.0,3
13.706808090209961,-25.313207626342773,1.9597163200378418,-0.0,-0.0,-1.0,0.1402270633471406,1.0,2
14.144744873046875,-24.814531326293945,1.9652538299560547,-0.0,-0.0,-1.0,0.22377580484930362,2.0,2
15.042591094970703,-24.70549774169922,1.997594952583313,-0.0,-0.0,-1.0,0.2366542147529586,1.0,2
15.002492904663086,-25.574535369873047,2.015840530395508,-0.0,-0.0,-1.0,0.18227393231067918,1.0,3
14.91534423828125,-25.803852081298828,2.0175819396972656,-0.0,-0.0,-1.0,0.2204384453553027,1.0,3
14.507146835327148,-26.31325912475586,2.013031244277954,-0.0,-0.0,-1.0,0.1328456529953817,1.0,3
15.162649154663086,-25.460233688354492,2.0194740295410156,0.2854524582900683,-0.3332566718481583,-0.8985860474795089,0.1006843878025633,5.0,3
15.013229370117188,-25.853397369384766,2.0224666595458984,-0.0,-0.0,-1.0,0.2828080801401286,2.0,3
14.421331405639648,-24.746780395507812,1.7001118659973145,-0.0,-0.0,-1.0,0.16691971696009802,1.0,2
15.059429168701172,-25.504934310913086,1.755483865737915,-0.0,-0.0,-1.0,0.18460526556921686,1.0,2
14.776424407958984,-26.175256729125977,1.7584891319274902,-0.0,-0.0,-1.0,0.19851495211912953,1.0,2
15.163066864013672,-25.99437713623047,1.774031162261963,-0.0,-0.0,-1.0,0.13416801429835398,1.0,2
13.74302864074707,-24.5889892578125,2.3691046237945557,-0.0,-0.0,-1.0,0.1762230839341578,1.0,3
13.134069442749023,-25.281631469726562,2.381528615951538,-0.0,-0.0,-1.0,0.185852608774783,1.0,3
14.02927017211914,-24.555301666259766,2.3731820583343506,-0.0,-0.0,-1.0,0.21077098880030506,2.0,3
13.928289413452148,-24.85980987548828,2.381728410720825,-0.0,-0.0,-1.0,0.21032013324067397,1.0,3
14.189416885375977,-24.918243408203125,2.3884739875793457,-0.0,-0.0,-1.0,0.07882172178787451,2.0,3
13.947782516479492,-25.23471450805664,2.3947722911834717,-0.43350433905129754,0.3848750537319132,-0.8148283138419745,0.0822306122747337,3.0,3
13.760074615478516,-25.926515579223633,2.414458990097046,-0.0,-0.0,-1.0,0.18270936993458325,1.0,3
14.658857345581055,-24.92350196838379,2.3972253799438477,-0.0,-0.0,-1.0,0.15874475852242817,1.0,3
14.824726104736328,-25.857316970825195,2.4314613342285156,-0.0,-0.0,-1.0,0.13436261303055191,1.0,3
14.541370391845703,-26.191091537475586,2.437317132949829,-0.0,-0.0,-1.0,0.12779885616480266,1.0,3
14.547307968139648,-26.260231018066406,2.439688205718994,-0.0,-0.0,-1.0,0.1635049302375017,1.0,3
13.228670120239258,-25.252857208251953,1.9464830160140991,-0.0,-0.0,-1.0,0.1799267912276448,1.0,2
14.446277618408203,-24.75579833984375,1.9856529235839844,-0.0,-0.0,-1.0,0.1439277224876473,1.0,2
14.242183685302734,-24.78199577331543,1.9783204793930054,-0.0,-0.0,-1.0,0.21572286351863168,1.0,2
14.795461654663086,-24.915451049804688,2.000952959060669,-0.0,-0.0,-1.0,0.14786455557362826,2.0,3
13.872804641723633,-25.87169647216797,1.9780133962631226,-0.0,-0.0,-1.0,0.19480308679108913,1.0,2
14.60211181640625,-25.61299705505371,2.0023133754730225,-0.0,-0.0,-1.0,0.25363365850309083,1.0,3
15.186138153076172,-25.47483253479004,2.0225300788879395,0.2854524582900683,-0.3332566718481583,-0.8985860474795089,0.07301863186256395,5.0,3
14.619644165039062,-26.192583084106445,2.009150981903076,-0.0,-0.0,-1.0,0.14840948722452313,2.0,3
15.119810104370117,-26.39682388305664,2.0295987129211426,-0.0,-0.0,-1.0,0.12478099802622193,1.0,3
13.712139129638672,-25.9543399810791,2.678086996078491,-0.0,-0.0,-1.0,0.1256403079680514,1.0,3
14.972984313964844,-24.69211769104004,1.4468207359313965,-0.0,-0.0,-1.0,0.17894953706812236,1.0,2
13.919408798217773,-24.64609146118164,2.050217390060425,-0.0,-0.0,-1.0,0.21722668734504239,1.0,3
14.626117706298828,-24.64874839782715,2.0729284286499023,-0.0,-0.0,-1.0,0.15693151472802172,1.0,3
15.135339736938477,-24.918500900268555,2.089144706726074,-0.0,-0.0,-1.0,0.16920368829730953,1.0,3
15.194133758544922,-25.196826934814453,2.0906567573547363,-0.0,-0.0,-1.0,0.17878082701406697,1.0,3
14.781618118286133,-25.433547973632812,2.0770163536071777,-0.0,-0.0,-1.0,0.2060308751123392,2.0,3
14.908269882202148,-25.876632690429688,2.0797359943389893,-0.0,-0.0,-1.0,0.24295999895780374,1.0,3
14.542448043823242,-26.63721466064453,2.0648345947265625,-0.0,-0.0,-1.0,0.16592316405636837,1.0,3
15.187080383300781,-26.83186149597168,2.0838427543640137,-0.0,-0.0,-1.0,0.1594155466656245,1.0,3
14.27682113647461,-24.696887969970703,1.791882038116455,-0.0,-0.0,-1.0,0.16807287214928734,1.0,2
15.184011459350586,-24.9293155670166,1.8383567333221436,-0.0,-0.0,-1.0,0.09409982035545536,1.0,2
14.905794143676758,-24.863229751586914,1.8242123126983643,-0.0,-0.0,-1.0,0.1772611508135747,1.0,2
15.051467895507812,-25.34332847595215,1.8379383087158203,-0.0,-0.0,-1.0,0.20006692259236317,1.0,2
14.44284439086914,-25.708881378173828,1.8140590190887451,-0.0,-0.0,-1.0,0.16210342407415015,1.0,2
15.033565521240234,-25.60680389404297,1.8405061960220337,-0.0,-0.0,-1.0,0.22908520236894675,1.0,2
14.279510498046875,-25.796512603759766,1.8074800968170166,-0.0,-0.0,-1.0,0.07835487029468469,1.0,2
15.012134552001953,-25.943695068359375,1.843691110610962,-0.0,-0.0,-1.0,0.23973845759843002,1.0,2
13.844045639038086,-26.660655975341797,1.796949028968811,-0.0,-0.0,-1.0,0.2352193173770381,1.0,2
14.109066009521484,-26.812002182006836,1.8108402490615845,-0.0,-0.0,-1.0,0.13533225940600022,1.0,2
13.81163215637207,-24.453723907470703,2.423633098602295,-0.0,-0.0,-1.0,0.13198300817862252,2.0,3
14.639760971069336,-24.648895263671875,2.4376535415649414,-0.0,-0.0,-1.0,0.16188826303325873,1.0,3
14.17340087890625,-24.686355590820312,2.432490825653076,-0.0,-0.0,-1.0,0.13695664307011485,1.0,3
13.589250564575195,-24.899879455566406,2.429084539413452,-0.0,-0.0,-1.0,0.154768874239995,1.0,3
14.643926620483398,-25.027450561523438,2.444610118865967,-0.0,-0.0,-1.0,0.11367107775861927,1.0,3
14.046331405639648,-25.089895248413086,2.438258409500122,-0.0,-0.0,-1.0,0.06366657631545718,1.0,3
13.608797073364258,-25.402313232421875,2.4383862018585205,-0.0,-0.0,-1.0,0.06162953054915748,1.0,3
13.573453903198242,-25.825986862182617,2.4454164505004883,-0.47002083390011795,0.8691188036246437,-0.1539900025518073,0.19301356641565787,3.0,3
14.772418975830078,-25.835420608520508,2.460484266281128,-0.0,-0.0,-1.0,0.15717258566292386,2.0,3
14.473407745361328,-26.170907974243164,2.462526321411133,-0.0,-0.0,-1.0,0.158039994148039,1.0,3
14.274085998535156,-24.522172927856445,1.8047022819519043,-0.0,-0.0,-1.0,0.2059388691113404,1.0,2
14.346305847167969,-24.698989868164062,1.801769495010376,-0.0,-0.0,-1.0,0.15661610583191987,2.0,2
14.781667709350586,-25.02188491821289,1.8101723194122314,-0.0,-0.0,-1.0,0.22024153393860432,1.0,2
14.877490997314453,-25.426668167114258,1.7994837760925293,-0.0,-0.0,-1.0,0.20754533661449093,1.0,2
14.978450775146484,-25.888647079467773,1.7862125635147095,-0.0,-0.0,-1.0,0.15225464640692446,2.0,2
13.667484283447266,-26.644533157348633,1.6957100629806519,-0.0,-0.0,-1.0,0.21808728047961243,1.0,2
15.17755126953125,-26.566404342651367,1.7677996158599854,-0.0,-0.0,-1.0,0.14233202694327113,1.0,2
14.435724258422852,-26.854782104492188,1.721944808959961,-0.0,-0.0,-1.0,0.1475785607037609,1.0,2
13.824941635131836,-24.531713485717773,2.4061026573181152,-0.8097497864939264,0.18556667486859302,-0.5566599432788883,0.1253418796274856,3.0,3
14.249971389770508,-24.842090606689453,2.4006359577178955,-0.0,-0.0,-1.0,0.09007363307508909,1.0,3
13.865667343139648,-24.869861602783203,2.395329713821411,-0.0,-0.0,-1.0,0.1821892385193936,1.0,3
13.039756774902344,-25.127573013305664,2.377279758453369,-0.0,-0.0,-1.0,0.14158382741945583,1.0,3
13.96766471862793,-25.234638214111328,2.384230613708496,-0.0,-0.0,-1.0,0.05980711380637111,2.0,3
13.566995620727539,-25.334598541259766,2.3762922286987305,-0.0,-0.0,-1.0,0.11429263263034967,1.0,3
14.608652114868164,-25.64977264404297,2.3773930072784424,-0.0,-0.0,-1.0,0.2304540602294195,1.0,3
13.550935745239258,-25.845123291015625,2.3587207794189453,-0.9212042198821248,-0.2784211046607394,-0.2717801938163634,0.20358878582354498,3.0,3
14.700370788574219,-25.78980827331543,2.373621940612793,-0.0,-0.0,-1.0,0.2886139029711292,2.0,3
14.36192512512207,-26.14312171936035,2.357590675354004,0.2629590572382877,0.8703978371338505,-0.41624528745568495,0.12145353887288776,3.0,3
14.385702133178711,-26.23183822631836,2.3547747135162354,-0.0,-0.0,-1.0,0.16272341186955586,1.0,3
14.46469497680664,-26.6500186920166,2.3410167694091797,-0.0,-0.0,-1.0,0.1508076922774299,1.0,3
14.910187721252441,-24.428863525390625,1.5097055435180664,-0.0,-0.0,-1.0,0.18130360770117385,1.0,2
15.102116584777832,-26.598140716552734,1.4490669965744019,-0.0,-0.0,-1.0,0.19459801821097872,1.0,2
14.111701965332031,-24.517555236816406,2.020789861679077,-0.32921534907700917,-0.8271795722133649,-0.4554022499340751,0.217292698231326,3.0,3
13.974082946777344,-24.6375732421875,2.0114827156066895,-0.0,-0.0,-1.0,0.29373090696040743,1.0,3
15.17202091217041,-24.840944290161133,2.0572805404663086,-0.0,-0.0,-1.0,0.1545647202742124,1.0,3
14.799039840698242,-24.93330192565918,2.038545846939087,-0.0,-0.0,-1.0,0.16116198663699147,2.0,3
13.323188781738281,-25.204627990722656,1.9669349193572998,-0.0,-0.0,-1.0,0.1590595932109672,1.0,2
15.128270149230957,-25.346141815185547,2.0403075218200684,-0.0,-0.0,-1.0,0.1596344913863881,2.0,3
14.98169994354248,-25.260784149169922,2.036604881286621,-0.0,-0.0,-1.0,0.23396374898802286,2.0,3
14.704541206359863,-25.49449920654297,2.017503499984741,-0.0,-0.0,-1.0,0.1857854894747424,1.0,3
13.727437973022461,-25.761362075805664,1.9671707153320312,-0.0,-0.0,-1.0,0.22986134955666235,1.0,2
15.179181098937988,-25.503799438476562,2.0375967025756836,0.2854524582900683,-0.3332566718481583,-0.8985860474795089,0.08931238795725045,5.0,3
14.80435562133789,-25.7040958404541,2.015181303024292,-0.0,-0.0,-1.0,0.210398665448454,1.0,3
15.1800537109375,-25.93769073486328,2.023719310760498,-0.0,-0.0,-1.0,0.20896696141393825,2.0,3
14.464151382446289,-26.199195861816406,1.9844694137573242,0.901887546638125,0.2105248249247414,-0.37719776153825546,0.157099656469885,3.0,2
15.021025657653809,-26.343935012817383,2.0033483505249023,-0.0,-0.0,-1.0,0.13794939092125644,1.0,3
13.949779510498047,-26.86197853088379,1.9398746490478516,-0.0,-0.0,-1.0,0.19462246615031617,1.0,2
13.219549179077148,-25.22206687927246,2.5687079429626465,-0.0,-0.0,-1.0,0.11226731967649659,1.0,3
13.546722412109375,-25.883468627929688,2.553025007247925,-0.0,-0.0,-1.0,0.25979033904807675,2.0,3
14.277730941772461,-26.176753997802734,2.550656318664551,-0.0,-0.0,-1.0,0.10299294520888529,2.0,3
13.9675874710083,-24.562185287475586,1.9355764389038086,-0.0,-0.0,-1.0,0.2324857331987349,1.0,2
13.86484432220459,-24.64549446105957,1.9262125492095947,-0.0,-0.0,-1.0,0.1770716383520433,1.0,2
15.14775276184082,-24.426671981811523,2.024214506149292,-0.0,-0.0,-1.0,0.18760184449286027,1.0,3
14.95433521270752,-24.83580207824707,2.0006916522979736,-0.0,-0.0,-1.0,0.18648731785472394,1.0,3
14.645855903625488,-24.79191780090332,1.9793895483016968,-0.0,-0.0,-1.0,0.1569384744880436,1.0,2
14.133007049560547,-24.69597816467285,1.9444823265075684,-0.0,-0.0,-1.0,0.23645648806680117,1.0,2
13.584890365600586,-25.150142669677734,1.8935145139694214,-0.0,-0.0,-1.0,0.2128621854540559,1.0,2
15.18425178527832,-25.00347137451172,2.013127088546753,-0.0,-0.0,-1.0,0.1193117411451174,1.0,3
14.743781089782715,-25.202678680419922,1.976082682609558,-0.0,-0.0,-1.0,0.17378203471045242,1.0,2
14.268645286560059,-25.280792236328125,1.9395911693572998,-0.0,-0.0,-1.0,0.23945518640820024,1.0,2
15.117268562316895,-25.424367904663086,1.9970557689666748,-0.0,-0.0,-1.0,0.1540439695287372,1.0,2
14.717806816101074,-25.517070770263672,1.9655705690383911,-0.0,-0.0,-1.0,0.20303830721043192,1.0,2
14.89073657989502,-25.970556259155273,1.9645708799362183,-0.0,-0.0,-1.0,0.23778386415741345,1.0,2
14.517119407653809,-26.11332893371582,1.933173656463623,-0.0,-0.0,-1.0,0.18503203370154486,1.0,2
15.14358139038086,-26.353879928588867,1.970371127128601,-0.0,-0.0,-1.0,0.11393752022304342,1.0,2
13.733011245727539,-26.691272735595703,1.8577210903167725,-0.0,-0.0,-1.0,0.19376080251606753,1.0,2
13.51030158996582,-26.741731643676758,1.8400506973266602,-0.0,-0.0,-1.0,0.16080377639213808,1.0,2
13.93375301361084,-26.848953247070312,1.8666244745254517,-0.0,-0.0,-1.0,0.21629167981917016,1.0,2
13.987236022949219,-24.705101013183594,2.481597900390625,-0.0,-0.0,-1.0,0.15739558729199846,1.0,3
13.69041919708252,-24.571475982666016,2.4734621047973633,-0.0,-0.0,-1.0,0.09244348736859564,1.0,3
13.165939331054688,-24.89146614074707,2.4464898109436035,-0.0,-0.0,-1.0,0.08082299501933807,1.0,3
12.962615966796875,-24.838912963867188,2.440091133117676,-0.0,-0.0,-1.0,0.10306720355068921,2.0,3
13.916766166687012,-24.92560577392578,2.4738364219665527,-0.0,-0.0,-1.0,0.1252839718270644,1.0,3
13.386444091796875,-25.194307327270508,2.447516441345215,-0.35442748230839155,0.9337703967347566,0.04953792452607042,0.10013779287626635,3.0,3
12.95212173461914,-25.09818458557129,2.4335720539093018,-0.0,-0.0,-1.0,0.12895580014042818,1.0,3
13.603242874145508,-25.81084632873535,2.4399452209472656,-0.47002083390011795,0.8691188036246437,-0.1539900025518073,0.20908722984427444,3.0,3
14.335663795471191,-26.167766571044922,2.45756196975708,-0.03582803744528257,0.9192790970154873,-0.39197231218953427,0.18424622844760796,3.0,3
14.406425476074219,-24.432483673095703,2.503427028656006,-0.0,-0.0,-1.0,0.16960863074548493,1.0,3
14.608770370483398,-25.795486450195312,2.477884292602539,-0.0,-0.0,-1.0,0.21470479124613523,1.0,3
14.562928199768066,-24.527751922607422,1.5536342859268188,-0.0,-0.0,-1.0,0.13878988376873708,2.0,2
14.35570240020752,-24.596923828125,1.5291190147399902,-0.0,-0.0,-1.0,0.13740783961969946,1.0,2
14.957559585571289,-24.89259910583496,1.5910444259643555,-0.0,-0.0,-1.0,0.2698519400455907,1.0,2
15.130974769592285,-26.512388229370117,1.5652732849121094,-0.0,-0.0,-1.0,0.17370590100449085,1.0,2
14.930899620056152,-26.568374633789062,1.5410016775131226,-0.0,-0.0,-1.0,0.1946953552552779,1.0,2
14.353437423706055,-24.405363082885742,2.0350162982940674,-0.0,-0.0,-1.0,0.0889980702525632,1.0,3
14.073470115661621,-24.497377395629883,2.011777639389038,-0.32921534907700917,-0.8271795722133649,-0.4554022499340751,0.23380402757671453,3.0,3
14.170707702636719,-24.950908660888672,2.0104477405548096,-0.0,-0.0,-1.0,0.24933766921221961,1.0,3
14.770947456359863,-25.359310150146484,2.04768705368042,-0.0,-0.0,-1.0,0.2035095494154789,1.0,3
14.145538330078125,-25.607568740844727,1.9935400485992432,-0.0,-0.0,-1.0,0.18005521458476886,1.0,2
14.689788818359375,-25.629276275634766,2.0349349975585938,-0.0,-0.0,-1.0,0.1911673349084188,1.0,3
14.614068984985352,-25.826862335205078,2.024033546447754,-0.0,-0.0,-1.0,0.2952429231443174,1.0,3
14.346514701843262,-25.942276000976562,2.000380039215088,-0.0,-0.0,-1.0,0.17793455355848456,1.0,3
14.47956657409668,-26.23285675048828,2.002540349960327,-0.0,-0.0,-1.0,0.1689553367794116,2.0,3
14.142889976501465,-26.313228607177734,1.9743797779083252,-0.0,-0.0,-1.0,0.10710298367839755,1.0,2
14.265729904174805,-26.810956954956055,1.9686219692230225,-0.0,-0.0,-1.0,0.17216375290930797,1.0,2
12.975940704345703,-24.746116638183594,2.4705796241760254,-0.0,-0.0,-1.0,0.07972332341215159,1.0,3
13.275147438049316,-24.85321617126465,2.481034994125366,-0.0,-0.0,-1.0,0.05524101855795577,1.0,3
12.954109191894531,-24.935239791870117,2.4658098220825195,-0.0,-0.0,-1.0,0.10743483127243117,1.0,3
15.079917907714844,-24.830001831054688,2.0830721855163574,-0.0,-0.0,-1.0,0.2065422739739524,1.0,3
15.124626159667969,-25.252683639526367,2.0774285793304443,-0.0,-0.0,-1.0,0.18461274029197786,1.0,3
14.989752769470215,-25.25628662109375,2.066971778869629,-0.0,-0.0,-1.0,0.22109350965413438,2.0,3
15.055896759033203,-25.985116958618164,2.053774833679199,-0.0,-0.0,-1.0,0.23220302867677425,1.0,3
15.041610717773438,-26.32053565979004,2.0431153774261475,-0.0,-0.0,-1.0,0.14462858913831664,1.0,3
13.546640396118164,-24.541048049926758,2.4986233711242676,-0.0,-0.0,-1.0,0.17080737148018227,2.0,3
14.135188102722168,-24.50412368774414,2.5241146087646484,-0.0,-0.0,-1.0,0.15744629901944496,1.0,3
13.807048797607422,-24.676271438598633,2.506965160369873,-0.0,-0.0,-1.0,0.10970986390060604,2.0,3
13.517757415771484,-25.169816970825195,2.4846765995025635,0.843339215746869,0.5238697922630852,-0.11974726693201748,0.07686415804023652,3.0,3
13.62741756439209,-25.717510223388672,2.4770936965942383,-0.0,-0.0,-1.0,0.19923349669752574,1.0,3
13.404067993164062,-25.59688949584961,2.4704747200012207,-0.0,-0.0,-1.0,0.1345680043192348,2.0,3
13.801079750061035,-25.88693618774414,2.480407238006592,-0.0,-0.0,-1.0,0.16708592466525204,1.0,3
14.350915908813477,-26.15032958984375,2.4970622062683105,-0.17441677457016028,0.9543218294036439,-0.2425873753356198,0.1842462284476079,4.0,3
13.53388786315918,-26.381717681884766,2.4569997787475586,-0.0,-0.0,-1.0,0.1992822856949622,1.0,3
14.416446685791016,-24.590784072875977,1.6302299499511719,-0.0,-0.0,-1.0,0.12844931181788438,1.0,2
14.402959823608398,-26.67513084411621,1.5803415775299072,-0.0,-0.0,-1.0,0.20835135257598897,1.0,2
15.13416862487793,-24.409332275390625,1.7143486738204956,-0.0,-0.0,-1.0,0.11661208329421359,1.0,2
14.899991035461426,-24.823556900024414,1.6820591688156128,-0.0,-0.0,-1.0,0.2131215366014575,1.0,2
14.990294456481934,-25.273944854736328,1.6844285726547241,-0.0,-0.0,-1.0,0.26259586579303057,1.0,2
13.84270191192627,-25.49352264404297,2.033085823059082,-0.0,-0.0,-1.0,0.19963299741140772,1.0,3
15.153343200683594,-25.621702194213867,1.6955046653747559,-0.0,-0.0,-1.0,0.1763767762230789,1.0,2
14.641425132751465,-25.70175552368164,1.6351999044418335,-0.0,-0.0,-1.0,0.14157972836235042,1.0,2
15.041489601135254,-25.99359893798828,1.6733084917068481,-0.0,-0.0,-1.0,0.16772834043545784,1.0,2
13.40689754486084,-26.63799285888672,1.9703543186187744,-0.0,-0.0,-1.0,0.1893544588469888,2.0,2
14.999862670898438,-26.437358856201172,1.655792474746704,-0.0,-0.0,-1.0,0.20349871376447312,1.0,2
14.35744571685791,-24.480579376220703,2.091902732849121,-0.0,-0.0,-1.0,0.23724436419718697,2.0,3
13.991759300231934,-24.61349105834961,2.0610547065734863,-0.0,-0.0,-1.0,0.23500094293122423,1.0,3
15.133630752563477,-24.781286239624023,2.1485180854797363,-0.0,-0.0,-1.0,0.23016564759784666,2.0,3
14.812232971191406,-24.8347225189209,2.122220277786255,-0.0,-0.0,-1.0,0.23482506016094623,2.0,3
14.02540111541748,-24.900171279907227,2.0589795112609863,-0.0,-0.0,-1.0,0.17025600963524376,1.0,3
14.901521682739258,-25.243019104003906,2.1218576431274414,-0.0,-0.0,-1.0,0.20002324258412585,1.0,3
14.654668807983398,-25.279813766479492,2.101641893386841,-0.0,-0.0,-1.0,0.21714750399206562,1.0,3
15.008416175842285,-25.65130615234375,2.1217100620269775,-0.0,-0.0,-1.0,0.1723650605997235,2.0,3
14.546868324279785,-25.845935821533203,2.080803394317627,-0.0,-0.0,-1.0,0.19787730095592018,1.0,3
15.045585632324219,-26.00080108642578,2.116405963897705,-0.0,-0.0,-1.0,0.13219745316350068,1.0,3
14.885895729064941,-25.965173721313477,2.1046876907348633,-0.0,-0.0,-1.0,0.22482151008358853,1.0,3
14.370712280273438,-26.17710304260254,2.0586862564086914,-0.0,-0.0,-1.0,0.27337705283831504,1.0,3
13.63197135925293,-24.47813606262207,2.5245609283447266,-0.6636479877717744,0.4490190424790365,-0.5982919419628547,0.12630027815159467,3.0,3
13.747626304626465,-24.67864990234375,2.5261855125427246,-0.0,-0.0,-1.0,0.11530567501301166,1.0,3
13.534613609313965,-24.865262985229492,2.5134758949279785,-0.0,-0.0,-1.0,0.13715503604142956,1.0,3
12.969094276428223,-24.796289443969727,2.4898810386657715,-0.06780939640805173,0.3024873790221292,-0.9507382769674826,0.08882363044756825,3.0,3
12.983765602111816,-25.10260772705078,2.484802722930908,-0.0,-0.0,-1.0,0.13924536021727216,1.0,3
13.45229434967041,-25.20789909362793,2.5033607482910156,-0.0,-0.0,-1.0,0.09525472611013966,1.0,3
13.428266525268555,-25.67574119567871,2.4927189350128174,-0.0,-0.0,-1.0,0.1887456795222258,1.0,3
13.21915054321289,-25.857954025268555,2.479593276977539,-0.0,-0.0,-1.0,0.18879529458643968,1.0,3
13.845924377441406,-25.879684448242188,2.50665020942688,-0.0,-0.0,-1.0,0.17091822904433435,1.0,3
14.331295013427734,-26.162187576293945,2.521533727645874,-0.5888395438973683,-0.43348391593405644,-0.6821727685632253,0.16341393245372554,3.0,3
14.772706985473633,-24.495113372802734,1.3377442359924316,-0.0,-0.0,-1.0,0.11872635507991532,1.0,2
15.202410697937012,-24.36446762084961,1.8119295835494995,-0.0,-0.0,-1.0,0.14513113129406235,2.0,2
14.444622993469238,-24.529949188232422,1.720170259475708,-0.0,-0.0,-1.0,0.12475390243632521,2.0,2
15.050521850585938,-24.97319793701172,1.7821770906448364,-0.0,-0.0,-1.0,0.15410865990457165,1.0,2
14.578865051269531,-24.967527389526367,1.72673499584198,-0.0,-0.0,-1.0,0.24370855366654023,1.0,2
15.076814651489258,-25.314773559570312,1.7768466472625732,-0.0,-0.0,-1.0,0.224697823192718,1.0,2
14.676936149597168,-25.253889083862305,1.731359601020813,-0.0,-0.0,-1.0,0.2186806666152744,1.0,2
14.462238311767578,-25.65483283996582,1.6948294639587402,-0.0,-0.0,-1.0,0.21377575382525377,1.0,2
14.954340934753418,-25.736652374267578,1.7503361701965332,-0.0,-0.0,-1.0,0.1749990487991899,1.0,2
14.31580638885498,-26.33935546875,1.6546180248260498,-0.0,-0.0,-1.0,0.1443298792243628,1.0,2
13.951154708862305,-26.624439239501953,1.6008212566375732,-0.0,-0.0,-1.0,0.22541486209222156,1.0,2
15.050461769104004,-26.38020896911621,1.7395477294921875,-0.0,-0.0,-1.0,0.16585732932634828,1.0,2
14.495744705200195,-26.774795532226562,1.6586581468582153,-0.0,-0.0,-1.0,0.18098363621979208,2.0,2
14.320557594299316,-26.68268585205078,1.6419026851654053,-0.0,-0.0,-1.0,0.19311299416096298,1.0,2
13.865646362304688,-26.8541202545166,1.5814553499221802,-0.0,-0.0,-1.0,0.21481803143236014,1.0,2
14.478772163391113,-24.41975212097168,2.155003070831299,-0.0,-0.0,-1.0,0.21467583380080954,2.0,3
13.903756141662598,-24.404272079467773,2.108048439025879,-0.0,-0.0,-1.0,0.18853077102150861,1.0,3
14.750253677368164,-24.488805770874023,2.1757683753967285,-0.0,-0.0,-1.0,0.13040421373828387,1.0,3
14.413118362426758,-24.582677841186523,2.14605450630188,-0.0,-0.0,-1.0,0.2333675357647911,1.0,3
14.175948143005371,-24.8226375579834,2.1209940910339355,-0.0,-0.0,-1.0,0.20027948164837642,1.0,3
13.673662185668945,-24.944686889648438,2.076552391052246,-0.0,-0.0,-1.0,0.18019700746931064,1.0,3
13.108083724975586,-24.91208839416504,2.0307602882385254,-0.0,-0.0,-1.0,0.2316325197943294,1.0,3
14.994513511657715,-24.77754020690918,2.189495801925659,-0.0,-0.0,-1.0,0.2022361683314355,1.0,3
13.673047065734863,-25.169597625732422,2.0707104206085205,-0.0,-0.0,-1.0,0.23817400175705708,1.0,3
15.129409790039062,-25.366012573242188,2.185606002807617,-0.0,-0.0,-1.0,0.13128924360564392,2.0,3
15.123135566711426,-25.658096313476562,2.176626205444336,-0.0,-0.0,-1.0,0.1527667648202677,1.0,3
14.922057151794434,-25.95041847229004,2.1509850025177,-0.0,-0.0,-1.0,0.22105919365483612,1.0,3
14.498242378234863,-25.84890365600586,2.119115114212036,-0.0,-0.0,-1.0,0.16571764418881463,1.0,3
14.999053955078125,-26.312625885009766,2.145198106765747,-0.0,-0.0,-1.0,0.2244724792015947,1.0,3
14.387528419494629,-26.261049270629883,2.0965347290039062,-0.0,-0.0,-1.0,0.16519301153691343,2.0,3
14.622591972351074,-26.836713790893555,2.0949363708496094,-0.0,-0.0,-1.0,0.18980818126495688,1.0,3
13.632704734802246,-24.455787658691406,2.540519952774048,-0.6636479877717744,0.4490190424790365,-0.5982919419628547,0.12630027815159467,3.0,3
12.856892585754395,-24.79705047607422,2.494950771331787,-0.0,-0.0,-1.0,0.07136754280292702,1.0,3
13.655631065368652,-24.728923797607422,2.53460693359375,-0.0,-0.0,-1.0,0.10788495041951779,1.0,3
13.52410888671875,-25.172792434692383,2.516390800476074,-0.0,-0.0,-1.0,0.07686415804023657,2.0,3
13.519974708557129,-25.78741455078125,2.498264789581299,-0.0,-0.0,-1.0,0.19675394947244837,1.0,3
13.322991371154785,-25.858678817749023,2.4867310523986816,-0.0,-0.0,-1.0,0.16137542613628592,1.0,3
13.665324211120605,-25.991445541381836,2.498896598815918,-0.0,-0.0,-1.0,0.17957469074334964,1.0,3
14.316017150878906,-26.14674186706543,2.5249063968658447,-0.5888395438973683,-0.43348391593405644,-0.6821727685632253,0.12900908932616056,3.0,3
14.42529010772705,-24.406095504760742,1.5700563192367554,-0.0,-0.0,-1.0,0.11594756752990328,1.0,2
14.852317810058594,-24.376705169677734,1.6256887912750244,-0.0,-0.0,-1.0,0.077389499766966,1.0,2
14.443449020385742,-24.572551727294922,1.5778748989105225,-0.0,-0.0,-1.0,0.12331343734267672,1.0,2
14.770902633666992,-24.8796329498291,1.6306061744689941,-0.0,-0.0,-1.0,0.22733658275115137,1.0,2
14.8630952835083,-25.246809005737305,1.6511709690093994,-0.0,-0.0,-1.0,0.20996819261114522,1.0,2
14.704139709472656,-25.196949005126953,1.628812551498413,-0.0,-0.0,-1.0,0.14011595958419096,1.0,2
14.881851196289062,-25.60985565185547,1.658944845199585,-0.0,-0.0,-1.0,0.23945820838852847,1.0,2
14.549786567687988,-25.651275634765625,1.6144146919250488,-0.0,-0.0,-1.0,0.1523146928972478,1.0,2
14.885675430297852,-26.339466094970703,1.6613414287567139,-0.0,-0.0,-1.0,0.19983466365294675,1.0,2
14.236929893493652,-26.316110610961914,1.5735646486282349,-0.0,-0.0,-1.0,0.1215528971009488,1.0,2
15.09817886352539,-26.620569229125977,1.3161934614181519,-0.0,-0.0,-1.0,0.19459801821097866,1.0,2
14.451290130615234,-26.784351348876953,1.5980528593063354,-0.0,-0.0,-1.0,0.2196594583299092,1.0,2
14.082171440124512,-26.72171401977539,1.5490355491638184,-0.0,-0.0,-1.0,0.16287112126227427,1.0,2
14.08533000946045,-24.386585235595703,1.9321140050888062,-0.0,-0.0,-1.0,0.16310910009777846,1.0,2
14.305908203125,-24.45888900756836,1.955801248550415,-0.0,-0.0,-1.0,0.12368195880906467,1.0,2
14.005030632019043,-24.694520950317383,1.9322717189788818,-0.0,-0.0,-1.0,0.25387577083626206,1.0,2
13.77639102935791,-24.74639892578125,1.9108694791793823,-0.0,-0.0,-1.0,0.21193194386932748,1.0,2
14.922663688659668,-24.954702377319336,1.842040777206421,-0.0,-0.0,-1.0,0.21615177438773153,1.0,2
14.992929458618164,-25.27031898498535,1.8565645217895508,-0.0,-0.0,-1.0,0.19462141116507115,1.0,2
14.695958137512207,-25.262418746948242,2.0117671489715576,-0.0,-0.0,-1.0,0.26144969123020456,2.0,3
13.738264083862305,-25.797101974487305,1.9213489294052124,-0.0,-0.0,-1.0,0.22861395990159125,1.0,2
14.822283744812012,-25.934328079223633,2.030402183532715,-0.0,-0.0,-1.0,0.2593363091090046,1.0,3
14.44882583618164,-25.89086151123047,1.9928722381591797,-0.0,-0.0,-1.0,0.17097952703269811,1.0,2
14.945180892944336,-25.972410202026367,2.0428051948547363,-0.0,-0.0,-1.0,0.2345891385975285,1.0,3
14.461638450622559,-26.170663833618164,1.9943854808807373,-0.0,-0.0,-1.0,0.2548795861663003,2.0,2
15.001543998718262,-26.390464782714844,1.8613874912261963,-0.0,-0.0,-1.0,0.18243430429113125,1.0,2
13.6371488571167,-24.440258026123047,2.3098838329315186,-0.0,-0.0,-1.0,0.2201917404491552,1.0,3
13.950960159301758,-24.73442840576172,2.3358240127563477,-0.9669162990337912,0.21880150014418165,-0.13114409707437302,0.24189285860161416,3.0,3
13.69345760345459,-24.85228729248047,2.3215107917785645,-0.0,-0.0,-1.0,0.1809138936437338,1.0,3
13.123320579528809,-24.92350196838379,2.2860312461853027,-0.0,-0.0,-1.0,0.23016606197241757,1.0,3
13.007902145385742,-25.040428161621094,2.2802109718322754,-0.0,-0.0,-1.0,0.24340927125042944,1.0,3
14.48640251159668,-24.858369827270508,2.372426748275757,-0.0,-0.0,-1.0,0.17954372585611222,2.0,3
14.06385326385498,-25.091856002807617,2.348973274230957,-0.0,-0.0,-1.0,0.09693190490034122,2.0,3
13.703205108642578,-25.24136734008789,2.3275692462921143,-0.0,-0.0,-1.0,0.19939765422847813,1.0,3
12.908455848693848,-25.640552520751953,2.279538631439209,-0.0,-0.0,-1.0,0.10517367058848141,2.0,3
15.189605712890625,-25.313108444213867,2.061565637588501,-0.0,-0.0,-1.0,0.1513649724905961,1.0,3
13.589336395263672,-25.684642791748047,2.323744297027588,-0.0,-0.0,-1.0,0.09325198340166568,2.0,3
15.075353622436523,-25.687026977539062,2.054326295852661,-0.0,-0.0,-1.0,0.15488275812523852,1.0,3
14.665124893188477,-25.780086517333984,2.3942880630493164,-0.37300220235554943,0.41342120950343064,-0.8306336500350978,0.26211007257025093,3.0,3
13.753898620605469,-25.914045333862305,2.3355660438537598,-0.0,-0.0,-1.0,0.27226445087316525,2.0,3
13.632946014404297,-26.035030364990234,2.3279011249542236,-0.0,-0.0,-1.0,0.17378460813884936,1.0,3
14.770771026611328,-26.003345489501953,2.401815414428711,-0.0,-0.0,-1.0,0.24262013560423232,1.0,3
14.368379592895508,-26.13640785217285,2.3757073879241943,0.2629590572382877,0.8703978371338505,-0.41624528745568495,0.12397465861272418,3.0,3
13.562325477600098,-26.446550369262695,2.322511672973633,-0.0,-0.0,-1.0,0.1137216144268815,1.0,3
14.63013744354248,-24.4761905670166,1.4746071100234985,-0.0,-0.0,-1.0,0.2038458166963028,1.0,2
14.686622619628906,-26.727876663208008,1.4757773876190186,-0.0,-0.0,-1.0,0.1263652726163624,1.0,2
14.826608657836914,-24.397459030151367,1.8783760070800781,-0.0,-0.0,-1.0,0.07376923197546549,1.0,2
14.048449516296387,-24.442047119140625,1.784395456314087,-0.0,-0.0,-1.0,0.19124703171471186,1.0,2
14.942159652709961,-24.854780197143555,1.714487075805664,-0.0,-0.0,-1.0,0.27370216513682916,1.0,2
14.37985897064209,-24.724454879760742,1.8273310661315918,-0.0,-0.0,-1.0,0.19157653083922102,2.0,2
14.030753135681152,-24.870935440063477,1.7855277061462402,-0.0,-0.0,-1.0,0.20547129419986696,1.0,2
14.974967956542969,-25.234445571899414,1.9022624492645264,-0.0,-0.0,-1.0,0.1783453194670353,1.0,2
14.485882759094238,-25.135499954223633,1.8421485424041748,-0.0,-0.0,-1.0,0.19443145689257543,1.0,2
14.818459510803223,-25.543392181396484,1.8823742866516113,-0.0,-0.0,-1.0,0.18904961245953034,1.0,2
14.436012268066406,-25.601089477539062,1.8351266384124756,-0.0,-0.0,-1.0,0.23832702946835466,1.0,2
14.818025588989258,-26.03792381286621,1.878488302230835,-0.0,-0.0,-1.0,0.21374243689251876,1.0,2
15.125653266906738,-26.38947296142578,1.552699089050293,-0.0,-0.0,-1.0,0.14509506031395436,1.0,2
14.48862361907959,-26.266002655029297,1.8348393440246582,-0.0,-0.0,-1.0,0.17331891288202447,1.0,2
13.967721939086914,-26.55440902709961,1.7656419277191162,-0.0,-0.0,-1.0,0.2385822862015736,1.0,2
13.9398193359375,-26.458505630493164,1.7639679908752441,-0.0,-0.0,-1.0,0.20648474239556272,1.0,2
14.957098007202148,-26.79142951965332,1.7012687921524048,-0.0,-0.0,-1.0,0.18424969433736313,1.0,2
14.499330520629883,-26.7606143951416,1.8268393278121948,-0.0,-0.0,-1.0,0.2202238508815018,1.0,2
13.795658111572266,-26.72538185119629,1.7409214973449707,-0.0,-0.0,-1.0,0.18736201093391894,1.0,2
13.490764617919922,-26.671672821044922,1.7045060396194458,-0.0,-0.0,-1.0,0.12225221646406664,1.0,2
14.344687461853027,-24.479244232177734,2.2083981037139893,-0.14229324043876249,0.2124541486110002,-0.9667553301965349,0.15355293827657415,4.0,3
13.997313499450684,-24.37495231628418,2.1777405738830566,-0.0,-0.0,-1.0,0.12173310133465516,1.0,3
14.77968692779541,-24.778034210205078,2.247474193572998,-0.0,-0.0,-1.0,0.24752482919852092,1.0,3
14.042754173278809,-24.809125900268555,2.183241367340088,-0.0,-0.0,-1.0,0.21703156608672547,1.0,3
13.799015045166016,-24.80898666381836,2.162027359008789,-0.0,-0.0,-1.0,0.1608467192712564,1.0,3
14.780415534973145,-25.200159072875977,2.247657060623169,-0.0,-0.0,-1.0,0.18199778933676405,1.0,3
14.57655143737793,-25.073089599609375,2.2300052642822266,-0.0,-0.0,-1.0,0.14050089729294554,2.0,3
14.22209358215332,-25.07320785522461,2.198986768722534,-0.0,-0.0,-1.0,0.18201009458016995,1.0,3
13.696547508239746,-25.222469329833984,2.152571678161621,-0.0,-0.0,-1.0,0.18035148191743383,1.0,3
12.984169006347656,-25.37747573852539,2.0893149375915527,-0.0,-0.0,-1.0,0.1584063182509425,1.0,3
14.836926460266113,-25.73229217529297,2.249821662902832,-0.0,-0.0,-1.0,0.2430879195161717,1.0,3
14.867298126220703,-25.906763076782227,2.2508368492126465,-0.0,-0.0,-1.0,0.26142213689914706,2.0,3
14.454572677612305,-25.978487014770508,2.2136635780334473,-0.0,-0.0,-1.0,0.15440371344160914,1.0,3
14.527924537658691,-26.25751495361328,2.2165627479553223,-0.0,-0.0,-1.0,0.14676707243144813,1.0,3
13.45315170288086,-26.799644470214844,2.1123833656311035,-0.0,-0.0,-1.0,0.1454525783141634,1.0,3
13.110319137573242,-24.792123794555664,2.5286688804626465,-0.0,-0.0,-1.0,0.08798000651833143,1.0,3
12.878491401672363,-24.854705810546875,2.516244888305664,-0.0,-0.0,-1.0,0.10306720355068917,1.0,3
13.588539123535156,-25.78177261352539,2.5470027923583984,-0.0,-0.0,-1.0,0.19200255971345692,1.0,3
13.579191207885742,-25.904951095581055,2.5451526641845703,-0.0,-0.0,-1.0,0.2612533631572634,2.0,3
14.636496543884277,-24.469806671142578,1.4106478691101074,-0.0,-0.0,-1.0,0.1345644229740584,1.0,2
15.075977325439453,-24.473308563232422,1.8374179601669312,-0.0,-0.0,-1.0,0.16344647384898855,1.0,2
14.868823051452637,-24.455047607421875,1.630009651184082,-0.0,-0.0,-1.0,0.19545358437905397,1.0,2
14.453529357910156,-24.437211990356445,1.752426266670227,-0.0,-0.0,-1.0,0.11694427269118371,1.0,2
14.972089767456055,-24.981491088867188,1.8208051919937134,-0.0,-0.0,-1.0,0.2792242933171701,1.0,2
14.757567405700684,-24.863618850708008,1.792218804359436,-0.0,-0.0,-1.0,0.1696667160151261,2.0,2
14.357378005981445,-24.748022079467773,1.738036870956421,-0.0,-0.0,-1.0,0.20126441640670212,1.0,2
14.894858360290527,-25.31324005126953,1.806978702545166,-0.0,-0.0,-1.0,0.17709996764353234,1.0,2
14.731429100036621,-25.27451515197754,1.7849622964859009,-0.0,-0.0,-1.0,0.18740240002080955,1.0,2
14.219826698303223,-25.2176570892334,1.7150499820709229,-0.0,-0.0,-1.0,0.11651744413934549,1.0,2
14.927728652954102,-25.752756118774414,1.805098056793213,-0.0,-0.0,-1.0,0.16467106356669362,1.0,2
14.449484825134277,-25.691139221191406,1.7401742935180664,-0.0,-0.0,-1.0,0.18810210227272012,1.0,2
14.232831954956055,-25.64854621887207,1.710976004600525,-0.0,-0.0,-1.0,0.1353122812686661,1.0,2
14.502275466918945,-26.195640563964844,1.7374942302703857,-0.0,-0.0,-1.0,0.14216102343801595,1.0,2
15.063051223754883,-26.6616268157959,1.454561471939087,-0.0,-0.0,-1.0,0.19469535525527792,1.0,2
14.8234281539917,-26.554723739624023,1.5965420007705688,-0.0,-0.0,-1.0,0.16120827677131197,1.0,2
14.511563301086426,-26.30377769470215,1.736253261566162,-0.0,-0.0,-1.0,0.16798355008871213,1.0,2
13.928278923034668,-26.50815773010254,1.6506006717681885,-0.0,-0.0,-1.0,0.2079144162068304,1.0,2
14.384767532348633,-26.805233001708984,1.7051715850830078,-0.0,-0.0,-1.0,0.1636528068544743,1.0,2
13.882201194763184,-26.73927116394043,1.6378183364868164,-0.0,-0.0,-1.0,0.2566211664493001,1.0,2
14.942431449890137,-24.387380599975586,2.1723451614379883,-0.0,-0.0,-1.0,0.12790664235755558,1.0,3
14.821724891662598,-24.509389877319336,2.159116268157959,-0.0,-0.0,-1.0,0.11634634360370338,1.0,3
14.350454330444336,-24.47407341003418,2.111572265625,-0.0,-0.0,-1.0,0.21752618207024182,2.0,3
15.10253620147705,-24.960126876831055,1.838975429534912,-0.0,-0.0,-1.0,0.1402804442571606,1.0,2
14.701618194580078,-24.934614181518555,2.143003225326538,-0.0,-0.0,-1.0,0.19144285442331058,1.0,3
14.266462326049805,-24.733118057250977,2.1007204055786133,-0.0,-0.0,-1.0,0.18492280867942437,1.0,3
13.869247436523438,-24.905136108398438,2.058324098587036,-0.0,-0.0,-1.0,0.21275805422755367,1.0,3
15.017271995544434,-25.356422424316406,2.1698062419891357,-0.0,-0.0,-1.0,0.17559691301844896,1.0,3
14.604637145996094,-25.270843505859375,2.1288442611694336,-0.0,-0.0,-1.0,0.22288587753156358,1.0,3
14.979253768920898,-25.74759864807129,2.159560203552246,-0.0,-0.0,-1.0,0.15010259225861744,1.0,3
14.58356761932373,-25.748348236083984,2.1188364028930664,-0.0,-0.0,-1.0,0.22634422896037987,1.0,3
15.186662673950195,-26.334800720214844,2.0014801025390625,-0.0,-0.0,-1.0,0.10910617468702093,1.0,3
14.890247344970703,-26.022319793701172,2.145106315612793,-0.0,-0.0,-1.0,0.2049160955497341,1.0,3
14.363899230957031,-26.274845123291016,2.0855913162231445,-0.0,-0.0,-1.0,0.1533354996627814,2.0,3
13.953783988952637,-25.90536117553711,2.0513112545013428,-0.0,-0.0,-1.0,0.20133643696760384,1.0,3
13.624831199645996,-26.019878387451172,2.0152273178100586,-0.0,-0.0,-1.0,0.23230744978429882,1.0,3
15.122825622558594,-26.59307289123535,1.8131024837493896,-0.0,-0.0,-1.0,0.12620250119468726,1.0,2
13.7297945022583,-26.4837589263916,2.015592098236084,-0.0,-0.0,-1.0,0.14076162979947926,1.0,3
13.425273895263672,-26.652809143066406,1.9801437854766846,-0.0,-0.0,-1.0,0.1306895813062248,2.0,2
14.502419471740723,-24.39153480529785,2.4935338497161865,-0.0,-0.0,-1.0,0.16731359351467537,2.0,3
13.833653450012207,-24.42622184753418,2.448345899581909,-0.0,-0.0,-1.0,0.12500029442320926,2.0,3
13.616755485534668,-24.40743637084961,2.4340591430664062,-0.0,-0.0,-1.0,0.19362994793398183,1.0,3
13.877450942993164,-24.76709747314453,2.446547508239746,-0.6360493771302691,-0.5033622194646133,-0.5848655109235413,0.13626357707624862,3.0,3
13.551758766174316,-24.797346115112305,2.424258232116699,-0.0,-0.0,-1.0,0.20074627845074444,1.0,3
13.842851638793945,-25.101726531982422,2.439100742340088,-0.0,-0.0,-1.0,0.06919987673082895,1.0,3
13.251543045043945,-24.926645278930664,2.4020988941192627,-0.0,-0.0,-1.0,0.10086622322271001,1.0,3
13.000815391540527,-25.069007873535156,2.3829269409179688,-0.0,-0.0,-1.0,0.09736666314155153,1.0,3
14.569197654724121,-25.846132278442383,2.474747657775879,-0.0,-0.0,-1.0,0.2183056708232965,1.0,3
14.679656028747559,-26.1323184967041,2.4763598442077637,-0.0,-0.0,-1.0,0.1637848097403745,1.0,3
14.306937217712402,-26.171958923339844,2.4503555297851562,-0.0,-0.0,-1.0,0.18424622844760793,2.0,3
13.640780448913574,-25.839887619018555,2.4121904373168945,-0.0,-0.0,-1.0,0.1787042721107724,1.0,3
12.96320915222168,-25.98130989074707,2.3636181354522705,-0.0,-0.0,-1.0,0.13278197852570436,1.0,3
13.529823303222656,-26.458232879638672,2.39160418510437,-0.0,-0.0,-1.0,0.1295777095085123,1.0,3
14.86649227142334,-24.512178421020508,1.261263132095337,-0.0,-0.0,-1.0,0.15486769274150045,1.0,2
15.101241111755371,-24.419466018676758,1.635938286781311,-0.0,-0.0,-1.0,0.09821898395522985,1.0,2
14.802456855773926,-24.82267951965332,1.5886949300765991,-0.0,-0.0,-1.0,0.20826677618159106,2.0,2
14.438179969787598,-24.518770217895508,1.7031172513961792,-0.0,-0.0,-1.0,0.12475390243632511,2.0,2
14.105941772460938,-24.55130386352539,1.831950306892395,-0.0,-0.0,-1.0,0.1898217852931892,1.0,2
13.855932235717773,-24.371337890625,1.7992185354232788,-0.0,-0.0,-1.0,0.22263610216589488,1.0,2
15.056857109069824,-25.30835723876953,1.6299669742584229,-0.0,-0.0,-1.0,0.21949127066264537,1.0,2
14.491625785827637,-25.20774269104004,1.5364116430282593,-0.0,-0.0,-1.0,0.1090756399653874,1.0,2
14.211345672607422,-24.807388305664062,1.8454018831253052,-0.0,-0.0,-1.0,0.23558234179030876,1.0,2
14.902475357055664,-25.708629608154297,1.600330114364624,-0.0,-0.0,-1.0,0.2694180275027791,1.0,2
14.297393798828125,-25.264503479003906,1.8541946411132812,-0.0,-0.0,-1.0,0.17271517346128343,1.0,2
13.442819595336914,-25.066919326782227,1.7437525987625122,-0.0,-0.0,-1.0,0.20046699332152854,1.0,2
15.097501754760742,-26.35235023498535,1.6207859516143799,-0.0,-0.0,-1.0,0.14565886188269658,1.0,2
13.921441078186035,-25.67289161682129,1.8005694150924683,-0.0,-0.0,-1.0,0.24011710659930596,1.0,2
14.931254386901855,-26.535423278808594,1.5883044004440308,-0.0,-0.0,-1.0,0.1946953552552779,1.0,2
14.262911796569824,-26.297807693481445,1.8346431255340576,-0.0,-0.0,-1.0,0.17546732933169637,1.0,2
14.763745307922363,-26.849937438964844,1.5510729551315308,-0.0,-0.0,-1.0,0.07433592228782673,1.0,2
13.913146018981934,-26.421167373657227,1.7861489057540894,-0.0,-0.0,-1.0,0.17754195932076336,1.0,2
13.72638988494873,-26.585783004760742,1.757872223854065,-0.0,-0.0,-1.0,0.1434196361744402,1.0,2
13.615944862365723,-26.77864646911621,1.7385714054107666,-0.0,-0.0,-1.0,0.17977579655270678,1.0,2
15.18517780303955,-24.46673583984375,1.9720247983932495,-0.0,-0.0,-1.0,0.16481851645569706,1.0,2
14.740972518920898,-24.81475257873535,2.0818967819213867,-0.0,-0.0,-1.0,0.23139402884695567,2.0,3
14.423370361328125,-24.609159469604492,2.0468859672546387,-0.0,-0.0,-1.0,0.18757525397637648,2.0,3
13.961980819702148,-24.542402267456055,2.1745786666870117,-0.0,-0.0,-1.0,0.19748419592532554,1.0,3
14.964542388916016,-25.33712387084961,1.9409123659133911,-0.0,-0.0,-1.0,0.23947730711389253,1.0,2
14.624295234680176,-25.11436653137207,2.0656299591064453,-0.0,-0.0,-1.0,0.22710294864009967,1.0,3
14.300803184509277,-24.924427032470703,2.204679012298584,-0.0,-0.0,-1.0,0.22191462749725713,1.0,3
13.899534225463867,-24.863065719604492,2.1668615341186523,-0.0,-0.0,-1.0,0.17751153055493596,1.0,3
13.700240135192871,-24.793832778930664,2.148371934890747,-0.0,-0.0,-1.0,0.19440404788024415,1.0,3
14.74614143371582,-25.720361709594727,2.074268102645874,-0.0,-0.0,-1.0,0.18844122542465352,1.0,3
14.488842964172363,-25.666749954223633,2.044772148132324,-0.0,-0.0,-1.0,0.2147078064627471,1.0,3
12.91456127166748,-25.033489227294922,2.071526527404785,-0.0,-0.0,-1.0,0.1853679701768092,1.0,3
14.717508316040039,-25.99532699584961,2.0660266876220703,-0.0,-0.0,-1.0,0.23580316922547093,1.0,3
14.34253215789795,-26.05855369567871,2.195034980773926,-0.0,-0.0,-1.0,0.1341577470415218,1.0,3
13.844500541687012,-25.528345108032227,2.155196189880371,-0.0,-0.0,-1.0,0.20528621453599008,1.0,3
15.004837036132812,-26.405860900878906,1.9294233322143555,-0.0,-0.0,-1.0,0.1882579280849308,1.0,2
14.387412071228027,-26.32608413696289,1.8503527641296387,-0.0,-0.0,-1.0,0.14426183551377805,1.0,2
14.33474349975586,-26.253854751586914,2.019108295440674,-0.0,-0.0,-1.0,0.16215899690652563,1.0,3
13.63553524017334,-25.927871704101562,2.129486560821533,-0.0,-0.0,-1.0,0.1903012779983604,1.0,3
14.474782943725586,-26.812292098999023,1.8496969938278198,-0.0,-0.0,-1.0,0.20019426625865516,2.0,2
13.336592674255371,-26.684171676635742,2.0864903926849365,-0.0,-0.0,-1.0,0.08599891486237347,2.0,3
15.133027076721191,-25.536518096923828,2.2784528732299805,-0.0,-0.0,-1.0,0.12884641033455935,2.0,3
13.748957633972168,-24.72965431213379,2.519137382507324,-0.0,-0.0,-1.0,0.14184261083129504,2.0,3
13.380659103393555,-25.1988525390625,2.491802215576172,-0.0,-0.0,-1.0,0.10013779287626637,2.0,3
12.911033630371094,-24.89339828491211,2.4668378829956055,-0.0,-0.0,-1.0,0.10743483127243111,1.0,3
13.610560417175293,-25.783390045166016,2.4978928565979004,-0.0,-0.0,-1.0,0.1992200932267882,2.0,3
14.252066612243652,-26.19999122619629,2.530158519744873,0.7629330058041511,-0.3835922225576544,-0.5203750911101744,0.10654841803669178,3.0,3
13.445754051208496,-25.893749237060547,2.486203670501709,-0.0,-0.0,-1.0,0.18803239700034824,1.0,3
15.057028770446777,-24.504348754882812,1.3133000135421753,-0.0,-0.0,-1.0,0.16697985379117744,1.0,2
14.903779029846191,-24.748462677001953,1.6080461740493774,-0.0,-0.0,-1.0,0.14137010532548872,1.0,2
14.54243278503418,-24.50162124633789,1.5427249670028687,-0.0,-0.0,-1.0,0.13931385676082475,2.0,2
15.043136596679688,-25.205415725708008,1.6364554166793823,-0.0,-0.0,-1.0,0.196482190110119,1.0,2
14.805556297302246,-24.817432403564453,1.5923306941986084,-0.0,-0.0,-1.0,0.11547852151846187,2.0,2
14.46982479095459,-24.493968963623047,1.5303022861480713,-0.0,-0.0,-1.0,0.11446500085211883,1.0,2
13.964229583740234,-24.535133361816406,1.7968599796295166,-0.0,-0.0,-1.0,0.22109151409628014,1.0,2
15.079068183898926,-25.753339767456055,1.6437631845474243,-0.0,-0.0,-1.0,0.17159021717172707,1.0,2
14.831665992736816,-25.6953125,1.6017791032791138,-0.0,-0.0,-1.0,0.21423905132455082,1.0,2
14.704540252685547,-25.222219467163086,1.5791491270065308,-0.0,-0.0,-1.0,0.12160833396791107,1.0,2
13.859697341918945,-24.90707015991211,1.7867612838745117,-0.0,-0.0,-1.0,0.2122271856371697,1.0,2
15.016709327697754,-25.860950469970703,1.6326799392700195,-0.0,-0.0,-1.0,0.15263679986539055,2.0,2
14.579004287719727,-25.666162490844727,1.5587869882583618,-0.0,-0.0,-1.0,0.132958416807414,1.0,2
13.630800247192383,-25.127660751342773,1.757457971572876,-0.0,-0.0,-1.0,0.18010990728728898,1.0,2
15.051728248596191,-26.484519958496094,1.6318728923797607,-0.0,-0.0,-1.0,0.17370590100449085,1.0,2
14.879298210144043,-26.363422393798828,1.604496955871582,-0.0,-0.0,-1.0,0.15990849771773513,1.0,2
14.481437683105469,-26.217134475708008,1.5387216806411743,-0.0,-0.0,-1.0,0.12961888052583231,1.0,2
13.803519248962402,-25.842849731445312,1.7814586162567139,-0.0,-0.0,-1.0,0.20767405306365908,1.0,2
14.455719947814941,-26.737905502319336,1.5263350009918213,-0.0,-0.0,-1.0,0.21272627095384702,1.0,2
13.963436126708984,-26.387723922729492,1.7992626428604126,-0.0,-0.0,-1.0,0.1553718840275683,1.0,2
13.859798431396484,-26.500621795654297,1.7841272354125977,-0.0,-0.0,-1.0,0.19760533899720079,1.0,2
13.871818542480469,-26.755882263183594,1.7823281288146973,-0.0,-0.0,-1.0,0.2586385054114457,1.0,2
13.695578575134277,-26.64780044555664,1.7602308988571167,-0.0,-0.0,-1.0,0.13291842948398286,1.0,2
15.019208908081055,-24.61882781982422,1.939077377319336,-0.0,-0.0,-1.0,0.18901021355494585,1.0,2
15.090526580810547,-25.145490646362305,1.9539021253585815,-0.0,-0.0,-1.0,0.1932563060644295,1.0,2
14.668562889099121,-24.89763069152832,2.0572352409362793,-0.0,-0.0,-1.0,0.19142569020546044,1.0,3
14.388538360595703,-24.6286563873291,2.022120475769043,-0.0,-0.0,-1.0,0.15508809879828694,2.0,3
14.11074161529541,-24.49930191040039,1.988329291343689,-0.32921534907700917,-0.8271795722133649,-0.4554022499340751,0.17247370213423016,3.0,2
15.176224708557129,-25.748605728149414,1.9663546085357666,-0.0,-0.0,-1.0,0.11294168800045482,1.0,2
14.829728126525879,-25.395797729492188,1.9198304414749146,-0.0,-0.0,-1.0,0.2232405925976942,1.0,2
14.555767059326172,-25.163578033447266,2.0463480949401855,-0.0,-0.0,-1.0,0.18589383217663805,1.0,3
14.185300827026367,-24.861351013183594,2.0002493858337402,-0.0,-0.0,-1.0,0.24120147560748545,1.0,3
13.838541984558105,-24.782411575317383,2.1344494819641113,-0.0,-0.0,-1.0,0.17926981761561456,1.0,3
13.5176420211792,-24.774120330810547,2.102769374847412,-0.0,-0.0,-1.0,0.19906207578410326,1.0,3
14.917776107788086,-26.000207901000977,1.9306851625442505,-0.0,-0.0,-1.0,0.17761025170860328,1.0,2
14.636163711547852,-25.884422302246094,2.056640386581421,-0.0,-0.0,-1.0,0.2164724138495169,1.0,3
14.147674560546875,-25.682960510253906,1.8281785249710083,-0.0,-0.0,-1.0,0.16313190701936145,1.0,2
13.9668607711792,-25.52939224243164,2.149991750717163,-0.0,-0.0,-1.0,0.20271387094852636,1.0,3
13.556640625,-25.09906768798828,2.1083643436431885,-0.0,-0.0,-1.0,0.21221809511596704,1.0,3
14.59184455871582,-26.174169540405273,1.885636329650879,-0.0,-0.0,-1.0,0.08598895253067938,1.0,2
14.364377975463867,-26.12851905822754,2.0207438468933105,-0.0,-0.0,-1.0,0.15446532306594707,1.0,3
14.470792770385742,-26.787708282470703,1.8618712425231934,-0.0,-0.0,-1.0,0.2421860582666154,2.0,2
14.229432106018066,-26.295616149902344,2.1735901832580566,-0.0,-0.0,-1.0,0.11903559643978774,1.0,3
13.618510246276855,-25.881149291992188,2.11497163772583,-0.0,-0.0,-1.0,0.20783290835156748,1.0,3
13.344182014465332,-26.65593910217285,2.083138942718506,-0.0,-0.0,-1.0,0.07985385601255504,2.0,3
15.126757621765137,-25.416345596313477,2.2650232315063477,-0.0,-0.0,-1.0,0.12599864387899365,1.0,3
14.715226173400879,-24.806360244750977,2.221512794494629,-0.0,-0.0,-1.0,0.22059557037711336,1.0,3
14.087545394897461,-24.578519821166992,2.4989211559295654,-0.0,-0.0,-1.0,0.15516460616035851,1.0,3
15.175143241882324,-25.50721549987793,2.26992130279541,-0.0,-0.0,-1.0,0.14039434669152265,2.0,3
14.754016876220703,-25.424951553344727,2.227895736694336,-0.0,-0.0,-1.0,0.1779342604349561,1.0,3
13.816667556762695,-24.771177291870117,2.48248028755188,-0.0,-0.0,-1.0,0.1213118836553109,1.0,3
