x,y,z,nx,ny,nz,curvature,density
41.62986373901367,-12.086664199829102,0.16777873039245605,-0.0,-0.0,-1.0,0.15276528584388607,1.0
40.825462341308594,-12.298942565917969,0.13678252696990967,-0.0,-0.0,-1.0,0.1539687644512004,1.0
40.311439514160156,-11.674789428710938,0.19984734058380127,-0.0,-0.0,-1.0,0.10327129967997171,1.0
39.927162170410156,-11.87071418762207,0.32261908054351807,0.49058792627605347,0.4981302175553618,-0.7149753652752027,0.19442739219529512,3.0
40.810279846191406,-11.270565032958984,0.138502836227417,-0.0,-0.0,-1.0,0.14842114461640923,1.0
40.82814025878906,-11.234001159667969,-0.006606340408325195,-0.800396349318405,0.01808875089819532,0.5991981985025592,0.18629714049190552,3.0
40.9126091003418,-11.480159759521484,0.22629547119140625,-0.0,-0.0,-1.0,0.12564115064597003,1.0
39.91014099121094,-10.392699241638184,-0.03208625316619873,-0.0,-0.0,-1.0,0.05955291592230215,1.0
40.92405700683594,-11.010981559753418,-0.12025594711303711,-0.0,-0.0,-1.0,0.06813184696411695,1.0
40.904640197753906,-11.145838737487793,-0.11093509197235107,-0.0,-0.0,-1.0,0.10516174135850738,1.0
39.880577087402344,-10.42556381225586,-0.10282611846923828,-0.0,-0.0,-1.0,0.1358201889406441,1.0
40.919681549072266,-11.078081130981445,-0.17778778076171875,-0.0,-0.0,-1.0,0.09452564720812068,1.0
39.786468505859375,-10.486177444458008,-0.08326256275177002,-0.0,-0.0,-1.0,0.06688169355670133,2.0
40.860023498535156,-11.179738998413086,-0.15877628326416016,-0.0,-0.0,-1.0,0.11128463325815989,1.0
40.841888427734375,-11.23716926574707,0.011853814125061035,-0.541214957766565,0.7377478090418708,-0.4035028373427558,0.20724465046739743,4.0
40.761390686035156,-11.542337417602539,0.028885483741760254,-0.0,-0.0,-1.0,0.16713192563022256,1.0
39.820762634277344,-11.959080696105957,0.3138141632080078,-0.0,-0.0,-1.0,0.19362441999308455,2.0
39.96178436279297,-11.964251518249512,0.3031798005104065,-0.0,-0.0,-1.0,0.18877672165343481,1.0
40.667938232421875,-11.653584480285645,0.24174678325653076,-0.9149919970781167,0.3981857352511913,-0.06509812228834123,0.13378484298616017,3.0
39.98533630371094,-11.339882850646973,-0.3387763500213623,-0.0,-0.0,-1.0,0.026762431569829714,1.0
39.92762756347656,-10.369536399841309,-0.32026684284210205,-0.0,-0.0,-1.0,0.11116745403756464,1.0
40.256195068359375,-11.81093692779541,-0.12580955028533936,-0.0,-0.0,-1.0,0.21562696117864624,1.0
40.71222686767578,-11.311837196350098,-0.06578576564788818,-0.08445338928516635,0.9926980216781385,0.08612933759502735,0.17931754386420515,7.0
39.854434967041016,-11.992974281311035,-0.09160470962524414,-0.48400310780821737,0.8651149175356964,-0.13159472287744964,0.09726151364741115,4.0
41.225929260253906,-11.749434471130371,-0.17924022674560547,-0.0,-0.0,-1.0,0.18161889431826297,1.0
40.687801361083984,-11.361092567443848,-0.13241910934448242,-0.7392488442721966,0.46192692847558303,-0.4900353650414784,0.200696426882692,5.0
40.72947692871094,-11.263806343078613,-0.13299286365509033,0.6857016906032226,0.6243574337069795,0.3741536936590595,0.2042554132529755,3.0
40.367103576660156,-10.82723331451416,-0.3642287254333496,-0.0,-0.0,-1.0,0.18500096482301379,1.0
40.578826904296875,-10.774847984313965,-0.3775566816329956,-0.0,-0.0,-1.0,0.19097881478425227,1.0
39.843902587890625,-11.951720237731934,0.04884517192840576,-0.0,-0.0,-1.0,0.11455738663082611,2.0
40.50996398925781,-12.116097450256348,0.0065534114837646484,-0.0,-0.0,-1.0,0.1683909352797329,2.0
40.75436019897461,-11.308056831359863,0.01713740825653076,-0.2228628175527967,0.7530423167050242,-0.6190795052365722,0.20788449485635987,4.0
40.54429626464844,-12.138932228088379,-0.03832602500915527,0.6828912856717704,-0.16054164989103373,-0.7126611190487528,0.11045300680096737,3.0
40.27214050292969,-11.813315391540527,-0.011016845703125,-0.0,-0.0,-1.0,0.13845869377882847,1.0
40.63489532470703,-11.441237449645996,-0.019870281219482422,-0.0,-0.0,-1.0,0.12473099060780367,1.0
40.71052932739258,-11.21564769744873,-0.016814112663269043,-0.6711290050262685,-0.21745492070159697,0.7087307077269284,0.1637625924232662,3.0
40.584224700927734,-12.140822410583496,0.016722559928894043,-0.0,-0.0,-1.0,0.12479788373996188,2.0
39.886497497558594,-11.95769214630127,0.055394887924194336,0.12519564548470968,0.7563343078399631,-0.6420938133449897,0.15394284535073902,5.0
40.62751007080078,-11.570176124572754,0.037806034088134766,-0.24159577320799672,-0.6647876278712128,-0.7068867605192474,0.21021263948201693,3.0
40.733402252197266,-11.296732902526855,0.04380965232849121,-0.057256190451293106,0.9983281238754728,-0.007917432303668964,0.1885989225089392,5.0
39.75498962402344,-10.641980171203613,0.11536622047424316,0.6050327292058253,-0.7848073094003808,-0.13421208478183266,0.08654688492061294,3.0
41.335487365722656,-12.291620254516602,0.00686192512512207,-0.0,-0.0,-1.0,0.12597023668838925,1.0
39.893741607666016,-11.944938659667969,0.08889234066009521,-0.8915008739792796,-0.14321016955419416,-0.42978720203193516,0.19329622614913733,5.0
40.607025146484375,-12.142570495605469,0.04802405834197998,0.6913717530675516,0.5460516532440012,-0.47310959729199425,0.11366679290692386,3.0
40.63883590698242,-11.6064453125,0.06804430484771729,-0.0,-0.0,-1.0,0.2011348004615494,2.0
40.79780960083008,-11.343620300292969,0.07084691524505615,-0.5103093489467588,-0.5258232950850256,-0.6805102723129618,0.2131161099024179,3.0
39.763607025146484,-10.707910537719727,0.1453399658203125,-0.0,-0.0,-1.0,0.10381809293697965,1.0
40.67579650878906,-11.831270217895508,-0.20543110370635986,-0.0,-0.0,-1.0,0.17578436675747783,1.0
40.63785934448242,-11.416616439819336,-0.18041455745697021,-0.0,-0.0,-1.0,0.11065469390819366,1.0
40.29226303100586,-10.743013381958008,-0.1278308629989624,-0.0,-0.0,-1.0,0.18051354848763557,2.0
40.503726959228516,-12.204967498779297,0.09119105339050293,-0.0,-0.0,-1.0,0.15797660948347,1.0
41.40819549560547,-12.023157119750977,0.06831622123718262,-0.0,-0.0,-1.0,0.2535936937448239,1.0
40.60243606567383,-11.608478546142578,0.11649370193481445,-0.9271433504032596,0.32101226880277606,0.19327785977993764,0.2161420149893617,3.0
40.75474548339844,-11.444534301757812,0.11907815933227539,0.021914613164366395,-0.8301356526921879,-0.5571306380546408,0.17846266919380263,4.0
41.43594741821289,-11.964984893798828,0.06043064594268799,-0.0,-0.0,-1.0,0.2576397192739522,1.0
40.78655242919922,-11.422693252563477,0.10060477256774902,-0.6637729224142832,0.6417770872058228,-0.38409331913899797,0.20870467354345823,3.0
39.93146514892578,-11.82131576538086,0.14522480964660645,-0.0,-0.0,-1.0,0.1328127133281017,1.0
39.875160217285156,-11.953845977783203,0.13826262950897217,-0.0,-0.0,-1.0,0.16784885073088104,2.0
40.19698715209961,-11.664764404296875,0.15260708332061768,-0.0,-0.0,-1.0,0.11472904704370235,2.0
40.76572799682617,-11.3173246383667,0.07458627223968506,-0.6190751938867342,-0.7741069969016267,0.1323036721412059,0.16606740358242808,3.0
41.53976058959961,-11.942124366760254,0.026547551155090332,-0.0,-0.0,-1.0,0.1720336340978698,2.0
39.90386962890625,-11.871855735778809,0.14566564559936523,-0.0,-0.0,-1.0,0.16031955905985287,2.0
40.114627838134766,-11.679171562194824,0.15594124794006348,-0.0,-0.0,-1.0,0.13084684589319615,2.0
40.5599365234375,-11.549458503723145,0.16165947914123535,-0.0,-0.0,-1.0,0.16221311040607272,2.0
40.48701477050781,-12.103212356567383,0.09961581230163574,-0.0,-0.0,-1.0,0.21598696019069488,2.0
40.752593994140625,-11.34439468383789,0.126570463180542,-0.0,-0.0,-1.0,0.1646296994749085,1.0
41.45177459716797,-11.818668365478516,0.05982780456542969,-0.0,-0.0,-1.0,0.233264771349996,2.0
40.12539291381836,-10.671712875366211,-0.40183472633361816,-0.0,-0.0,-1.0,0.13686261705873998,2.0
41.51366424560547,-11.952909469604492,0.04364025592803955,-0.0,-0.0,-1.0,0.1720336340978697,2.0
40.11342239379883,-11.306236267089844,-0.3424276113510132,-0.36718653874200435,-0.6752444526052923,-0.6397022549533851,0.024769481565098866,4.0
40.25569534301758,-11.065515518188477,-0.32990002632141113,-0.0,-0.0,-1.0,0.07855901090092447,1.0
40.55879211425781,-10.369993209838867,-0.287544846534729,-0.0,-0.0,-1.0,0.18359433779700132,1.0
40.7314567565918,-10.728515625,-0.3305567502975464,0.17726684612646182,-0.9830160710308679,-0.04749599308797051,0.1261878176558977,3.0
41.004241943359375,-10.494955062866211,-0.32804417610168457,-0.0,-0.0,-1.0,0.10223130020822882,2.0
41.34797668457031,-10.91347885131836,-0.38824164867401123,-0.0,-0.0,-1.0,0.05826381710060278,2.0
39.81196975708008,-11.890039443969727,0.23497045040130615,-0.0,-0.0,-1.0,0.17930345073530743,2.0
40.00152587890625,-11.935371398925781,0.22179532051086426,-0.0,-0.0,-1.0,0.17943697376062404,2.0
40.60106658935547,-11.633848190307617,0.20346951484680176,-0.0,-0.0,-1.0,0.20148573482310544,2.0
40.556053161621094,-12.182914733886719,0.17647123336791992,-0.0,-0.0,-1.0,0.16894888577030273,1.0
39.74665451049805,-10.398117065429688,-0.20907819271087646,-0.0,-0.0,-1.0,0.15275914739956098,1.0
40.25208282470703,-11.26043701171875,-0.31646406650543213,-0.0,-0.0,-1.0,0.03669842844104018,1.0
40.703800201416016,-10.944849014282227,-0.3113682270050049,-0.0,-0.0,-1.0,0.07334421751390709,1.0
40.64997100830078,-11.135507583618164,-0.3262498378753662,-0.0,-0.0,-1.0,0.07652937590721876,2.0
41.213199615478516,-11.94005012512207,-0.4332956075668335,-0.0,-0.0,-1.0,0.08716680070566626,1.0
41.46964645385742,-11.171154022216797,-0.3766721487045288,-0.0,-0.0,-1.0,0.060526719457631474,1.0
41.45086669921875,-11.858650207519531,-0.43954765796661377,-0.0,-0.0,-1.0,0.1794862682364256,1.0
39.720584869384766,-11.957143783569336,0.22346365451812744,-0.0,-0.0,-1.0,0.16800764098219137,1.0
39.9531364440918,-11.94708251953125,0.21315205097198486,-0.0,-0.0,-1.0,0.17501419417403885,1.0
40.34685134887695,-11.884820938110352,0.19795167446136475,-0.0,-0.0,-1.0,0.12538531268738531,1.0
40.59929275512695,-11.630830764770508,0.2006157636642456,-0.0,-0.0,-1.0,0.20148573482310556,2.0
39.85688400268555,-10.403100967407227,-0.2808440923690796,-0.0,-0.0,-1.0,0.1725936879261227,1.0
40.10490798950195,-10.904478073120117,-0.3501875400543213,-0.0,-0.0,-1.0,0.13691859942052292,1.0
40.085628509521484,-11.20047378540039,-0.3812464475631714,-0.0,-0.0,-1.0,0.03037139240205583,2.0
40.31021499633789,-10.99205207824707,-0.3722573518753052,-0.0,-0.0,-1.0,0.19274937499121633,1.0
40.72712707519531,-10.727380752563477,-0.37020444869995117,0.17726684612646182,-0.9830160710308679,-0.04749599308797051,0.12618781765589768,3.0
39.978179931640625,-12.04425048828125,0.07478952407836914,-0.0,-0.0,-1.0,0.11236005610500424,1.0
40.672611236572266,-11.436100006103516,0.08003783226013184,-0.0,-0.0,-1.0,0.15000910674582874,1.0
40.479705810546875,-12.201614379882812,0.03501260280609131,-0.1641774351362426,0.09245283494663815,-0.9820887144766581,0.16763082508507182,3.0
40.8640022277832,-11.490745544433594,0.06460368633270264,-0.0,-0.0,-1.0,0.1282384657807451,1.0
41.323970794677734,-12.004318237304688,-0.0011609792709350586,-0.0,-0.0,-1.0,0.2594410747755822,1.0
40.020050048828125,-11.810012817382812,-0.22271108627319336,-0.0,-0.0,-1.0,0.12131247561933363,1.0
40.094905853271484,-11.930002212524414,-0.23880541324615479,-0.0,-0.0,-1.0,0.16461741181648876,1.0
40.55296325683594,-11.582931518554688,-0.22472310066223145,0.835720834668785,0.3746255117219144,-0.4015300891186154,0.19876293330815872,3.0
40.70097351074219,-11.412099838256836,-0.21444451808929443,-0.0,-0.0,-1.0,0.17311516512698294,2.0
40.9326057434082,-12.350664138793945,-0.32448863983154297,-0.0,-0.0,-1.0,0.20385684490986403,1.0
41.329708099365234,-11.959211349487305,-0.30565524101257324,-0.0,-0.0,-1.0,0.20531887570151533,1.0
41.30107116699219,-12.302003860473633,-0.3395676612854004,-0.0,-0.0,-1.0,0.14990683215233178,2.0
39.84579849243164,-11.945060729980469,0.2681868076324463,-0.0,-0.0,-1.0,0.17199413945002487,2.0
40.27623748779297,-10.818975448608398,-0.13094615936279297,-0.0,-0.0,-1.0,0.18817211385019514,1.0
40.58292770385742,-11.706069946289062,0.25254857540130615,-0.0,-0.0,-1.0,0.13208388431634677,1.0
40.557579040527344,-12.107261657714844,0.22580254077911377,-0.0,-0.0,-1.0,0.14507233211419682,1.0
41.136268615722656,-11.844525337219238,-0.43756401538848877,-0.0,-0.0,-1.0,0.14490224312672062,1.0
41.49715805053711,-11.792057991027832,-0.456734299659729,-0.0,-0.0,-1.0,0.15176038872449268,1.0
39.813331604003906,-10.36308765411377,-0.16839075088500977,-0.0,-0.0,-1.0,0.18648806206080037,2.0
40.09523010253906,-11.32463264465332,-0.3053858280181885,-0.36718653874200435,-0.6752444526052923,-0.6397022549533851,0.022453041148309105,4.0
40.34519958496094,-10.840787887573242,-0.2602277994155884,-0.0,-0.0,-1.0,0.21211371575885304,1.0
40.21563720703125,-11.226635932922363,-0.30043530464172363,-0.0,-0.0,-1.0,0.03896917393437332,2.0
40.67070007324219,-10.778471946716309,-0.2735710144042969,-0.0,-0.0,-1.0,0.09676332294116637,2.0
40.681724548339844,-11.169963836669922,-0.32297563552856445,0.6688788052622342,0.5712058410139974,-0.47573630412494095,0.10512960836806856,3.0
41.07418441772461,-10.67506217956543,-0.2882676124572754,-0.056019367905771895,0.6615916116928903,-0.7477689280499971,0.07661884940342759,5.0
41.264617919921875,-11.786852836608887,-0.43942975997924805,-0.0,-0.0,-1.0,0.238805933268727,2.0
41.40839385986328,-11.095422744750977,-0.364238977432251,-0.0,-0.0,-1.0,0.06511003189443516,1.0
41.48418426513672,-11.714845657348633,-0.44621479511260986,-0.0,-0.0,-1.0,0.12352136743262064,1.0
41.69025421142578,-10.775632858276367,-0.3459683656692505,-0.0,-0.0,-1.0,0.07983960272646069,1.0
40.542598724365234,-11.661087989807129,0.07654738426208496,-0.0,-0.0,-1.0,0.17205099052229797,1.0
40.52177047729492,-11.874082565307617,0.05868041515350342,-0.0,-0.0,-1.0,0.21616979718172785,1.0
40.5102653503418,-12.186046600341797,0.03136944770812988,-0.1641774351362426,0.09245283494663815,-0.9820887144766581,0.16763082508507182,3.0
40.73297882080078,-11.421899795532227,0.08647525310516357,-0.0,-0.0,-1.0,0.18107036560645634,2.0
41.151466369628906,-11.81479549407959,0.025367021560668945,-0.0,-0.0,-1.0,0.10692584210360381,1.0
41.42744064331055,-11.937755584716797,-0.003313779830932617,-0.0,-0.0,-1.0,0.2667903314783748,1.0
41.5049934387207,-11.977767944335938,-0.011931300163269043,-0.0,-0.0,-1.0,0.1720336340978697,1.0
39.720821380615234,-10.374841690063477,-0.27233779430389404,-0.0,-0.0,-1.0,0.19496496867249394,1.0
39.78242874145508,-10.859545707702637,-0.34592413902282715,-0.0,-0.0,-1.0,0.1035809253879025,1.0
40.117156982421875,-10.400967597961426,-0.2869267463684082,-0.0,-0.0,-1.0,0.13284766142323745,1.0
40.20922088623047,-10.780394554138184,-0.3460829257965088,0.9737747349013367,0.035597495784752325,-0.2247122247713417,0.16835072665844697,3.0
40.06045913696289,-11.037820816040039,-0.37989771366119385,-0.0,-0.0,-1.0,0.0965404133898887,1.0
40.61903381347656,-10.589231491088867,-0.3318164348602295,-0.0,-0.0,-1.0,0.17873746186678985,1.0
40.421607971191406,-10.933801651000977,-0.37583041191101074,-0.0,-0.0,-1.0,0.2602798504295254,1.0
40.90537643432617,-10.586126327514648,-0.34281980991363525,-0.0,-0.0,-1.0,0.1209416142688005,1.0
41.126529693603516,-10.503817558288574,-0.3401426076889038,-0.0,-0.0,-1.0,0.06740569919351533,1.0
41.40281677246094,-10.844062805175781,-0.402712345123291,-0.0,-0.0,-1.0,0.10175673087350849,1.0
39.753055572509766,-10.634864807128906,0.0652761459350586,0.7600308421474717,0.15962780119585754,-0.629977844110395,0.08654688492061295,4.0
40.626914978027344,-11.351747512817383,-0.03936171531677246,-0.0,-0.0,-1.0,0.11358842611857839,2.0
40.51863479614258,-11.97142505645752,-0.10593628883361816,-0.0,-0.0,-1.0,0.1555958880415398,1.0
40.76113510131836,-11.300630569458008,-0.03790080547332764,-0.714887926453573,-0.051967167651686186,-0.6973052890213668,0.2257182721388575,5.0
41.141014099121094,-11.898436546325684,-0.118003249168396,-0.0,-0.0,-1.0,0.16256911052910764,1.0
41.41279602050781,-11.992692947387695,-0.13859260082244873,-0.0,-0.0,-1.0,0.16177075428391668,1.0
39.766963958740234,-11.97603988647461,0.33399927616119385,-0.55527598895333,0.746540544723929,0.36653211479378034,0.16795960698993334,3.0
40.21470260620117,-11.131688117980957,-0.3138209581375122,-0.0,-0.0,-1.0,0.05662449828489164,1.0
40.0836296081543,-11.288000106811523,-0.3330498933792114,-0.36718653874200435,-0.6752444526052923,-0.6397022549533851,0.023536353390271495,4.0
40.53398132324219,-10.910663604736328,-0.2921086549758911,-0.588923676508816,0.3696878373969472,-0.718679209472563,0.2795694228842029,3.0
40.63014221191406,-11.068552017211914,-0.3193662166595459,-0.0,-0.0,-1.0,0.09279725495214271,1.0
41.06075668334961,-10.624019622802734,-0.2719583511352539,-0.0,-0.0,-1.0,0.04800379302559988,2.0
41.03764724731445,-10.679220199584961,-0.279030442237854,-0.0,-0.0,-1.0,0.06853288129403086,2.0
41.33327102661133,-11.101690292358398,-0.35550057888031006,-0.0,-0.0,-1.0,0.04161208930788071,1.0
41.24708938598633,-11.783525466918945,-0.45185112953186035,-0.0,-0.0,-1.0,0.22485397883027441,2.0
41.48423767089844,-11.516803741455078,-0.4239490032196045,-0.0,-0.0,-1.0,0.10384813287544198,1.0
41.581825256347656,-11.742579460144043,-0.46210741996765137,-0.0,-0.0,-1.0,0.13884667800408562,1.0
40.33440017700195,-10.367972373962402,-0.20370936393737793,-0.0,-0.0,-1.0,0.1107212631060081,1.0
40.66092300415039,-10.365739822387695,-0.21604514122009277,-0.0,-0.0,-1.0,0.16386438141248758,2.0
40.66621017456055,-10.60745620727539,-0.252189040184021,-0.0,-0.0,-1.0,0.18153849478520256,1.0
40.55508041381836,-11.420653343200684,0.015830039978027344,-0.0,-0.0,-1.0,0.07645989664274513,1.0
40.72919464111328,-11.323119163513184,0.0211336612701416,-0.15506194899358974,0.5485140228594049,-0.8216374861828675,0.2045188410335637,5.0
40.51476287841797,-12.144061088562012,-0.06547033786773682,-0.0,-0.0,-1.0,0.0999806334191407,2.0
41.11502456665039,-11.842789649963379,-0.05168616771697998,-0.0,-0.0,-1.0,0.12607241619831153,1.0
41.45771408081055,-12.1260986328125,-0.09704434871673584,-0.0,-0.0,-1.0,0.12091244258938019,1.0
41.40857696533203,-11.162005424499512,-0.46071434020996094,-0.0,-0.0,-1.0,0.050344984764645224,2.0
40.27383804321289,-10.892467498779297,-0.34805572032928467,-0.0,-0.0,-1.0,0.15666853759784444,1.0
40.12702178955078,-11.207865715026855,-0.39171135425567627,-0.0,-0.0,-1.0,0.03680170402418844,2.0
41.080196380615234,-10.381402969360352,-0.3142404556274414,-0.0,-0.0,-1.0,0.09589412563838011,2.0
40.75224304199219,-10.723921775817871,-0.34805524349212646,0.17726684612646182,-0.9830160710308679,-0.04749599308797051,0.14227282860656215,3.0
40.34897994995117,-11.060554504394531,-0.37930309772491455,-0.0,-0.0,-1.0,0.14388592027806432,1.0
40.28036880493164,-11.74761962890625,-0.10977530479431152,-0.0,-0.0,-1.0,0.16366761899261392,2.0
41.21092224121094,-10.42611312866211,-0.33027732372283936,-0.0,-0.0,-1.0,0.03427403695203763,1.0
40.77241516113281,-11.299418449401855,-0.07703423500061035,-0.9039072721527766,0.424742114635084,-0.050455717264184276,0.14759919601730315,4.0
40.54380798339844,-11.980615615844727,-0.15168488025665283,-0.0,-0.0,-1.0,0.15690989281372328,1.0
41.54016876220703,-10.788187980651855,-0.41093647480010986,-0.0,-0.0,-1.0,0.10436181659810354,1.0
41.27111053466797,-11.784016609191895,-0.16493761539459229,-0.0,-0.0,-1.0,0.22543496912574618,1.0
40.74074172973633,-12.323862075805664,-0.2048126459121704,-0.0,-0.0,-1.0,0.15120313287681178,1.0
41.467742919921875,-11.953365325927734,-0.1973503828048706,-0.0,-0.0,-1.0,0.11220658055146449,1.0
39.74940872192383,-10.679845809936523,0.049233317375183105,-0.0,-0.0,-1.0,0.07748679598739086,2.0
39.837398529052734,-11.852232933044434,0.27146387100219727,-0.0,-0.0,-1.0,0.16149505405731354,2.0
40.01061248779297,-11.912914276123047,0.25940585136413574,-0.322098816633026,0.8450591900658371,-0.4267637726059652,0.16434517680626648,3.0
39.937870025634766,-11.934367179870605,0.2601490020751953,0.6855597531007062,0.659568950032785,-0.30818277869009514,0.20427885318316338,3.0
39.77163314819336,-10.382963180541992,-0.15804600715637207,0.5290275744806695,-0.6042506004068297,-0.595828026654575,0.1388332688310194,4.0
39.92847442626953,-10.379600524902344,-0.16771864891052246,-0.0,-0.0,-1.0,0.17259368792612262,1.0
40.521114349365234,-10.377769470214844,-0.21019268035888672,-0.0,-0.0,-1.0,0.19532119431384964,1.0
40.35980224609375,-11.031482696533203,-0.3024020195007324,-0.0,-0.0,-1.0,0.18160641917619036,1.0
40.12607955932617,-11.309019088745117,-0.33088254928588867,-0.36718653874200435,-0.6752444526052923,-0.6397022549533851,0.02419545986145355,4.0
40.818214416503906,-10.547966003417969,-0.26066768169403076,-0.0,-0.0,-1.0,0.1645214158086366,2.0
40.68928527832031,-11.030397415161133,-0.32676267623901367,-0.0,-0.0,-1.0,0.07638477657687724,1.0
40.31621551513672,-11.13847541809082,-0.31650495529174805,-0.0,-0.0,-1.0,0.09277416074444073,2.0
39.84223556518555,-12.02208137512207,-0.07227921485900879,-0.8715463681456053,0.4661726236952448,0.15195398345978614,0.10148172065177369,3.0
41.264610290527344,-10.778495788574219,-0.33463335037231445,-0.0,-0.0,-1.0,0.0529519071815184,1.0
40.510826110839844,-12.137666702270508,-0.12545537948608398,-0.0,-0.0,-1.0,0.08814437042478193,1.0
41.38265609741211,-11.014585494995117,-0.3813556432723999,-0.0,-0.0,-1.0,0.0648920359262564,1.0
41.28907012939453,-11.14532470703125,-0.39359796047210693,-0.0,-0.0,-1.0,0.016163599966549272,1.0
41.31782531738281,-11.766368865966797,-0.4932594299316406,-0.0,-0.0,-1.0,0.17854541835453583,1.0
41.653377532958984,-11.460094451904297,-0.4744161367416382,-0.0,-0.0,-1.0,0.08584392806538432,1.0
41.38819885253906,-11.855588912963867,-0.32894814014434814,-0.0,-0.0,-1.0,0.15612177162855273,1.0
39.76985168457031,-11.952508926391602,0.290446937084198,-0.55527598895333,0.746540544723929,0.36653211479378034,0.2089200662260483,3.0
40.632484436035156,-11.324399948120117,-0.031135916709899902,-0.9810089638948172,0.17402036680717414,0.08566402216983085,0.1424321633280326,3.0
39.886512756347656,-11.951269149780273,0.2849927544593811,0.40257680160113374,0.3462062200788267,-0.84739198249177,0.21523369178369833,3.0
39.8192024230957,-12.039098739624023,0.2800889015197754,-0.0,-0.0,-1.0,0.14901267155493536,1.0
40.591121673583984,-11.523248672485352,-0.05330383777618408,-0.0,-0.0,-1.0,0.1795702436527623,2.0
40.57671356201172,-12.298576354980469,0.21800017356872559,-0.0,-0.0,-1.0,0.2195421216889008,1.0
40.207252502441406,-10.73817253112793,-0.34792423248291016,-0.0,-0.0,-1.0,0.1912016656611003,2.0
40.827640533447266,-10.667725563049316,-0.3870666027069092,-0.0,-0.0,-1.0,0.13160986625117996,1.0
40.512027740478516,-10.855730056762695,-0.39397454261779785,-0.0,-0.0,-1.0,0.2175497997007061,1.0
40.20003890991211,-11.167253494262695,-0.4267888069152832,-0.0,-0.0,-1.0,0.04934850851334808,1.0
40.69123840332031,-11.382953643798828,-0.1797701120376587,-0.1702435669625144,0.6239701705847854,-0.7626784080648107,0.1344769040016968,4.0
40.26386260986328,-11.820911407470703,-0.21732783317565918,-0.0,-0.0,-1.0,0.23197880535269494,2.0
39.84366989135742,-12.015504837036133,-0.22269558906555176,-0.0,-0.0,-1.0,0.08720341932653486,1.0
40.65936279296875,-11.787817001342773,-0.23796355724334717,-0.0,-0.0,-1.0,0.19598136962748103,1.0
40.6116943359375,-12.075813293457031,-0.27798593044281006,-0.0,-0.0,-1.0,0.16918687119172932,1.0
40.79393768310547,-12.29029655456543,-0.32235729694366455,-0.0,-0.0,-1.0,0.23859140109617166,2.0
40.33869171142578,-11.726346969604492,0.12154877185821533,-0.0,-0.0,-1.0,0.1306164153721338,1.0
39.869056701660156,-11.968408584594727,0.11636579036712646,-0.7770065472948142,0.6020562350084467,-0.18381815837518647,0.1408911663872828,3.0
40.68638610839844,-11.60881233215332,0.11588668823242188,-0.0,-0.0,-1.0,0.1603139227381877,2.0
40.58958435058594,-12.106948852539062,0.06365084648132324,0.7149251475181722,0.5431782298331808,-0.4402720114672426,0.11366679290692386,3.0
40.65485382080078,-10.584085464477539,-0.44375085830688477,-0.0,-0.0,-1.0,0.11945014177647632,1.0
40.47325897216797,-10.51712417602539,-0.4167168140411377,-0.0,-0.0,-1.0,0.13664839025312295,1.0
41.63663864135742,-12.119784355163574,-0.4458986520767212,-0.0,-0.0,-1.0,0.17713369481497704,1.0
41.48149490356445,-12.14538860321045,-0.4408862590789795,-0.0,-0.0,-1.0,0.1637656029460043,1.0
40.50591278076172,-10.473448753356934,-0.2597554922103882,-0.0,-0.0,-1.0,0.2096630981886825,2.0
41.4970588684082,-11.683333396911621,-0.017206549644470215,-0.0,-0.0,-1.0,0.1898938966178329,1.0
41.23099899291992,-12.071703910827637,-0.41460514068603516,-0.0,-0.0,-1.0,0.07952587362532405,1.0
41.14470291137695,-12.063253402709961,-0.4084486961364746,-0.0,-0.0,-1.0,0.11521313343673174,1.0
40.9182014465332,-11.160216331481934,0.07505142688751221,-0.0,-0.0,-1.0,0.11114844230761285,1.0
41.235557556152344,-11.592884063720703,0.005402088165283203,-0.0,-0.0,-1.0,0.12068339086224514,1.0
40.942596435546875,-11.31800651550293,0.05327165126800537,-0.0,-0.0,-1.0,0.20525954682388364,1.0
39.90958023071289,-12.002037048339844,0.07576441764831543,-0.0,-0.0,-1.0,0.16952932384303002,1.0
41.65713119506836,-10.574674606323242,-0.15568232536315918,-0.0,-0.0,-1.0,0.0911130778005906,1.0
40.68644332885742,-12.003307342529297,-0.10489881038665771,-0.0,-0.0,-1.0,0.12571204920856477,1.0
39.87489700317383,-11.859007835388184,0.028195500373840332,-0.0,-0.0,-1.0,0.1240824104084732,1.0
40.84919357299805,-12.185064315795898,-0.13050830364227295,-0.0,-0.0,-1.0,0.10920045507831767,1.0
40.00126647949219,-11.682456016540527,0.35917985439300537,-0.0,-0.0,-1.0,0.11114651069582807,1.0
39.88990020751953,-11.817014694213867,0.3776775598526001,-0.0,-0.0,-1.0,0.16710469481453435,2.0
39.830257415771484,-11.901984214782715,0.38795173168182373,-0.0,-0.0,-1.0,0.20159082262955902,1.0
39.719818115234375,-10.463860511779785,-0.3051801919937134,-0.0,-0.0,-1.0,0.15163228566489562,1.0
40.86259460449219,-10.589627265930176,-0.42226362228393555,-0.0,-0.0,-1.0,0.11016517301054021,1.0
41.05196762084961,-12.019669532775879,-0.3723909854888916,-0.0,-0.0,-1.0,0.1204030223944739,1.0
40.93994903564453,-12.095444679260254,-0.35647571086883545,-0.0,-0.0,-1.0,0.08136044305972065,1.0
39.82606887817383,-10.653322219848633,0.058747291564941406,-0.0,-0.0,-1.0,0.10843732357385232,1.0
40.87754821777344,-11.221475601196289,-0.018672823905944824,-0.0,-0.0,-1.0,0.17448291360046514,2.0
40.31458282470703,-11.763178825378418,0.16667699813842773,-0.0,-0.0,-1.0,0.2092340402171917,2.0
39.71574401855469,-10.372200012207031,-0.17930424213409424,-0.0,-0.0,-1.0,0.15615079601603776,2.0
40.750343322753906,-11.294239044189453,-0.246870756149292,0.6376747855114281,0.7619750162692606,0.1129820450532492,0.18754624822608706,3.0
40.763214111328125,-10.363313674926758,-0.26549673080444336,-0.0,-0.0,-1.0,0.17826738601941405,2.0
39.712646484375,-11.16968059539795,-0.3668140172958374,-0.0,-0.0,-1.0,0.05814520339403576,1.0
40.368927001953125,-11.84542179107666,-0.12079465389251709,-0.0,-0.0,-1.0,0.16849381055386503,2.0
41.682979583740234,-10.71825122833252,-0.24801957607269287,-0.0,-0.0,-1.0,0.09241415491600961,1.0
39.791194915771484,-11.948792457580566,0.3152111768722534,-0.13444609783396635,0.8588459188928647,0.4942751605920437,0.22325569010747356,4.0
39.899932861328125,-11.91452693939209,0.3063795566558838,-0.7506703099576816,0.603170121984099,-0.2695920801761903,0.1952435517850053,5.0
40.68633270263672,-11.611433982849121,0.24102377891540527,-0.0,-0.0,-1.0,0.21655041509610357,2.0
39.95404052734375,-11.9113130569458,0.3127763271331787,-0.2039003000682077,0.4598454490964973,-0.8642724284491178,0.17417489656365437,4.0
39.82334518432617,-10.559905052185059,-0.3980065584182739,-0.0,-0.0,-1.0,0.11348350780823112,2.0
40.19823455810547,-10.630410194396973,-0.42095303535461426,-0.0,-0.0,-1.0,0.10512954275828504,1.0
40.32660675048828,-10.507885932922363,-0.423071026802063,-0.0,-0.0,-1.0,0.11677268656815262,1.0
39.954124450683594,-11.18505573272705,-0.3464794158935547,-0.0,-0.0,-1.0,0.025459842168957712,1.0
39.77207946777344,-10.378323554992676,-0.2948213815689087,-0.0,-0.0,-1.0,0.1725936879261227,2.0
40.334877014160156,-11.147198677062988,-0.3577442169189453,-0.0,-0.0,-1.0,0.07403279567651119,2.0
40.99663543701172,-10.5399751663208,-0.3480980396270752,-0.0,-0.0,-1.0,0.08392839532372824,2.0
39.77787780761719,-10.621423721313477,0.09834277629852295,0.6046928989425377,-0.7849594012211346,-0.13485264700044935,0.08654688492061297,3.0
39.8622932434082,-10.81814193725586,0.08876442909240723,-0.0,-0.0,-1.0,0.18801924926119315,1.0
40.532867431640625,-12.007196426391602,0.025027036666870117,-0.0,-0.0,-1.0,0.18736873627187942,1.0
40.793033599853516,-11.421579360961914,0.035524606704711914,-0.0,-0.0,-1.0,0.1868861929874945,1.0
40.82245635986328,-11.324615478515625,0.03767967224121094,-0.0,-0.0,-1.0,0.2349596754284966,2.0
40.63127136230469,-12.14346981048584,-0.060446858406066895,-0.0,-0.0,-1.0,0.14225921681082515,2.0
40.782447814941406,-11.253666877746582,-0.051462531089782715,-0.0,-0.0,-1.0,0.2085263330424415,1.0
40.58610534667969,-12.09760856628418,-0.11844408512115479,-0.0,-0.0,-1.0,0.1333115694713439,2.0
40.31133270263672,-11.73318862915039,-0.09594225883483887,-0.0,-0.0,-1.0,0.20016474359702582,2.0
40.73445129394531,-11.268964767456055,-0.13350129127502441,0.28514877732371957,0.9462580277554846,0.15259724669563574,0.2042554132529755,4.0
41.67719650268555,-10.624404907226562,-0.2168048620223999,-0.39122825543591566,-0.8855112390890034,-0.25061982682068035,0.108908602462814,4.0
40.558197021484375,-12.107162475585938,-0.10594117641448975,-0.0,-0.0,-1.0,0.13331156947134393,2.0
40.77482986450195,-11.28127384185791,-0.11925411224365234,0.20598707337715377,-0.7640747465459434,-0.6113584114840225,0.23058872135224778,5.0
41.675254821777344,-10.629060745239258,-0.18808412551879883,-0.39122825543591566,-0.8855112390890034,-0.25061982682068035,0.10890860246281395,4.0
41.6089973449707,-10.725713729858398,-0.18316984176635742,-0.9735989057818412,0.1328830173565814,0.18559976928491076,0.10890860246281403,4.0
39.846038818359375,-12.282735824584961,-0.2607687711715698,-0.0,-0.0,-1.0,0.11846091903851574,1.0
40.186546325683594,-11.631414413452148,-0.269162654876709,-0.0,-0.0,-1.0,0.1374954787559122,1.0
40.09910583496094,-11.697111129760742,-0.2643144130706787,-0.0,-0.0,-1.0,0.08097442561053572,1.0
39.92951202392578,-12.258806228637695,-0.2663698196411133,-0.0,-0.0,-1.0,0.11603768045000903,1.0
40.46748352050781,-11.665725708007812,-0.2911487817764282,-0.0,-0.0,-1.0,0.16228855228725156,1.0
40.822166442871094,-10.636173248291016,-0.2915698289871216,0.4279404109403584,-0.1786353231058229,-0.885977666774437,0.1867357443767154,3.0
40.99068069458008,-11.984403610229492,-0.3387162685394287,-0.0,-0.0,-1.0,0.11468316474346382,1.0
41.07136154174805,-10.53489875793457,-0.30788862705230713,-0.0,-0.0,-1.0,0.07706314124311123,1.0
39.75186538696289,-10.62769603729248,-0.02101922035217285,-0.0,-0.0,-1.0,0.07748679598739086,1.0
41.69036865234375,-10.638623237609863,-0.19430780410766602,-0.39122825543591566,-0.8855112390890034,-0.25061982682068035,0.10890860246281399,4.0
40.019432067871094,-11.871437072753906,0.14466440677642822,-0.0,-0.0,-1.0,0.17329552072758067,1.0
40.35573196411133,-11.788250923156738,0.11774754524230957,-0.0,-0.0,-1.0,0.16909460710270674,1.0
40.78207015991211,-11.433309555053711,0.09061217308044434,-0.6637729224142832,0.6417770872058228,-0.38409331913899797,0.1895629467244406,3.0
40.79167175292969,-11.520360946655273,0.08724439144134521,-0.0,-0.0,-1.0,0.110191911913844,2.0
40.34124755859375,-11.833016395568848,-0.12378132343292236,-0.0,-0.0,-1.0,0.19770646620147583,2.0
40.62116622924805,-12.24506664276123,-0.16808664798736572,-0.0,-0.0,-1.0,0.12725148327797559,1.0
40.71274185180664,-11.455209732055664,-0.14974653720855713,-0.0,-0.0,-1.0,0.12906935347518408,1.0
41.513389587402344,-12.021490097045898,-0.2542980909347534,-0.0,-0.0,-1.0,0.14695610099625303,1.0
41.607177734375,-10.729837417602539,-0.2211998701095581,-0.8780616034442933,0.4495856415835044,-0.16395295495594012,0.09798999903224624,5.0
40.447021484375,-11.770740509033203,-0.19851863384246826,-0.0,-0.0,-1.0,0.20908496313196123,1.0
40.64171600341797,-12.219651222229004,-0.220572829246521,-0.0,-0.0,-1.0,0.11801285799259097,1.0
40.81330108642578,-10.494035720825195,-0.26669275760650635,-0.0,-0.0,-1.0,0.1813397178970006,1.0
40.85805130004883,-10.654051780700684,-0.27063214778900146,-0.0,-0.0,-1.0,0.13907357579667817,2.0
40.825347900390625,-11.46093463897705,-0.2550393342971802,-0.0,-0.0,-1.0,0.10081586243564272,1.0
40.853763580322266,-12.091205596923828,-0.2514601945877075,-0.0,-0.0,-1.0,0.15816328612428612,2.0
40.85456848144531,-12.349464416503906,-0.24871909618377686,-0.0,-0.0,-1.0,0.20173791839697988,1.0
41.07895278930664,-10.388410568237305,-0.30581748485565186,-0.0,-0.0,-1.0,0.09589412563838012,2.0
41.09981918334961,-10.700818061828613,-0.30401456356048584,0.3492243782137979,0.7166676596988715,-0.6036802126978561,0.07206954325131672,3.0
41.27855682373047,-11.141047477722168,-0.322839617729187,-0.0,-0.0,-1.0,0.041950701709631756,1.0
41.16865921020508,-11.940803527832031,-0.2970644235610962,-0.0,-0.0,-1.0,0.2044651775329922,2.0
41.6671257019043,-11.92166805267334,-0.36692845821380615,-0.0,-0.0,-1.0,0.18858944976405503,1.0
39.8927001953125,-12.077554702758789,-0.20676040649414062,-0.0,-0.0,-1.0,0.11450985175948626,1.0
40.3209342956543,-11.827324867248535,-0.25582456588745117,-0.0,-0.0,-1.0,0.21713395269692803,1.0
40.50757598876953,-10.889411926269531,-0.2595388889312744,-0.0,-0.0,-1.0,0.27317962216602465,2.0
40.79551696777344,-12.272107124328613,-0.3283698558807373,-0.0,-0.0,-1.0,0.23859140109617172,2.0
40.74040603637695,-11.321978569030762,-0.2991294860839844,-0.0,-0.0,-1.0,0.13972851496964817,2.0
41.01619338989258,-11.922262191772461,-0.34860801696777344,-0.0,-0.0,-1.0,0.17664148702948806,2.0
41.084556579589844,-12.260638236999512,-0.3656151294708252,-0.0,-0.0,-1.0,0.04904682991159099,2.0
40.99514389038086,-10.596521377563477,-0.31869983673095703,-0.0,-0.0,-1.0,0.0703627877388667,2.0
41.42246627807617,-11.88266372680664,-0.4008331298828125,-0.0,-0.0,-1.0,0.19442175829218641,1.0
41.58831787109375,-12.012960433959961,-0.42544078826904297,-0.0,-0.0,-1.0,0.19654761917028715,1.0
41.6479377746582,-11.833274841308594,-0.4293074607849121,-0.0,-0.0,-1.0,0.14651202656723192,1.0
39.91215515136719,-11.960454940795898,0.045296669006347656,-0.9369068849042934,-0.2886723719017385,-0.19716427343602974,0.1660281608598716,4.0
40.5410270690918,-12.17593765258789,-0.03312242031097412,-0.0,-0.0,-1.0,0.15680722184227025,2.0
40.71662521362305,-11.358985900878906,-0.025778889656066895,-0.0024390811558910644,-0.6388816956077423,-0.7693011308327127,0.18288009630751753,4.0
40.57789611816406,-11.667235374450684,-0.041960954666137695,-0.0,-0.0,-1.0,0.13744647535705073,1.0
39.90163040161133,-12.052453994750977,0.026326417922973633,-0.0,-0.0,-1.0,0.14702495438657748,2.0
40.66950225830078,-11.506014823913574,-0.0030592679977416992,-0.0,-0.0,-1.0,0.16062741527775573,1.0
40.287994384765625,-11.895010948181152,0.02780735492706299,-0.0,-0.0,-1.0,0.18585456323460225,1.0
39.870338439941406,-12.065942764282227,0.06818854808807373,0.3958074965226524,0.8741127419498103,-0.2815374576454353,0.15828946632158053,3.0
40.66021728515625,-11.660682678222656,-0.00608980655670166,-0.0,-0.0,-1.0,0.164433656495939,1.0
39.95392608642578,-10.542213439941406,-0.35610175132751465,-0.0,-0.0,-1.0,0.09837278132687306,1.0
40.6756706237793,-10.465051651000977,-0.32654571533203125,-0.0,-0.0,-1.0,0.2065625185141485,1.0
40.246421813964844,-10.786937713623047,-0.2677042484283447,-0.0,-0.0,-1.0,0.14451723086150084,1.0
40.51194763183594,-10.812000274658203,-0.30367374420166016,-0.0,-0.0,-1.0,0.20676896544361822,1.0
40.02045440673828,-10.368246078491211,-0.4057037830352783,-0.0,-0.0,-1.0,0.06618697189858652,1.0
40.15510559082031,-10.46149730682373,-0.4235496520996094,-0.0,-0.0,-1.0,0.09734126876421183,1.0
40.61127471923828,-11.967216491699219,-0.009869575500488281,-0.0,-0.0,-1.0,0.1684532259763539,1.0
40.78567886352539,-12.137285232543945,-0.387392520904541,-0.0,-0.0,-1.0,0.19459712645903318,1.0
40.608795166015625,-11.41523551940918,0.21767663955688477,-0.0,-0.0,-1.0,0.10226779173420823,1.0
39.889869689941406,-11.812649726867676,0.3335707187652588,-0.0,-0.0,-1.0,0.2243808843914764,2.0
40.83557891845703,-11.23250961303711,-0.25807905197143555,-0.0,-0.0,-1.0,0.1893540219005502,2.0
40.61116027832031,-10.664016723632812,-0.2913541793823242,-0.0,-0.0,-1.0,0.1612166696027532,1.0
41.42481994628906,-10.746564865112305,-0.38750672340393066,-0.0,-0.0,-1.0,0.10239717852719525,2.0
41.45213317871094,-10.661761283874512,-0.40035009384155273,-0.0,-0.0,-1.0,0.12893131125996493,1.0
40.905670166015625,-12.332366943359375,-0.24068689346313477,-0.0,-0.0,-1.0,0.142914566562158,1.0
40.77635192871094,-12.152120590209961,-0.23854398727416992,-0.0,-0.0,-1.0,0.15015284554279845,2.0
40.979957580566406,-12.088470458984375,-0.2743861675262451,-0.0,-0.0,-1.0,0.1253813523351195,1.0
40.54431915283203,-11.599143028259277,-0.2578396797180176,0.835720834668785,0.3746255117219144,-0.4015300891186154,0.15325399929082817,3.0
41.39630889892578,-11.697484970092773,-0.37227511405944824,-0.0,-0.0,-1.0,0.19088602409746064,1.0
40.777095794677734,-11.164706230163574,-0.3346383571624756,-0.0,-0.0,-1.0,0.16379582995631828,2.0
40.35987091064453,-10.872184753417969,-0.3044624328613281,-0.0,-0.0,-1.0,0.23895474912967093,1.0
41.62310028076172,-11.02145004272461,-0.4711601734161377,-0.0,-0.0,-1.0,0.09081651099001041,1.0
40.63875961303711,-10.364899635314941,-0.3971841335296631,-0.0,-0.0,-1.0,0.14155233026669967,2.0
40.74365234375,-10.51803207397461,-0.39605021476745605,-0.0,-0.0,-1.0,0.161225011364204,1.0
40.73720932006836,-11.207975387573242,0.010804414749145508,-0.823255578039095,-0.17014802096832193,0.541571698104765,0.2109897788591862,4.0
40.51385498046875,-12.074296951293945,0.12050175666809082,-0.0,-0.0,-1.0,0.20114112916475763,2.0
39.842201232910156,-11.853954315185547,0.19226312637329102,-0.0,-0.0,-1.0,0.1588403569550905,1.0
40.15563201904297,-11.679187774658203,0.13355326652526855,-0.17575864382335046,0.9300811543404595,-0.32258013804649466,0.13488580695121988,3.0
40.884910583496094,-12.18362808227539,-0.3338809013366699,-0.0,-0.0,-1.0,0.16568945249201952,1.0
40.98086166381836,-11.920967102050781,-0.3812217712402344,-0.0,-0.0,-1.0,0.11691613686355085,2.0
41.02497863769531,-11.64638900756836,-0.4219536781311035,-0.0,-0.0,-1.0,0.1471722265503312,1.0
41.214256286621094,-11.745189666748047,-0.4411294460296631,-0.0,-0.0,-1.0,0.1715573232857738,1.0
40.48577880859375,-10.941280364990234,-0.4235725402832031,-0.0,-0.0,-1.0,0.20417508180835992,2.0
40.315406799316406,-10.747299194335938,-0.4219486713409424,-0.0,-0.0,-1.0,0.13199037953371692,1.0
40.89620590209961,-12.29605484008789,-0.32250165939331055,-0.0,-0.0,-1.0,0.16622151858281137,1.0
40.794124603271484,-12.1044921875,-0.3282012939453125,-0.0,-0.0,-1.0,0.17404031855593805,1.0
40.15242004394531,-11.436622619628906,-0.30541157722473145,-0.0,-0.0,-1.0,0.02155928060139487,2.0
40.267520904541016,-11.128803253173828,-0.3638134002685547,-0.0,-0.0,-1.0,0.047622158972753355,1.0
39.88276672363281,-10.53646469116211,-0.38150596618652344,-0.0,-0.0,-1.0,0.11915548523993823,2.0
40.162261962890625,-10.74342155456543,-0.3978707790374756,-0.0,-0.0,-1.0,0.16858980853343566,2.0
39.85108184814453,-11.899845123291016,0.3155999183654785,-0.0,-0.0,-1.0,0.2168393077257709,1.0
41.69657516479492,-11.152202606201172,-0.46438121795654297,-0.0,-0.0,-1.0,0.06677971727909932,1.0
41.610870361328125,-10.957418441772461,-0.4766275882720947,-0.0,-0.0,-1.0,0.08156281999327766,1.0
39.86480712890625,-11.985513687133789,-0.05500221252441406,-0.48400310780821737,0.8651149175356964,-0.13159472287744964,0.12181564418344373,4.0
40.792015075683594,-12.198902130126953,-0.1793687343597412,-0.0,-0.0,-1.0,0.1581489296790096,1.0
40.01689529418945,-11.862128257751465,-0.09623908996582031,-0.0,-0.0,-1.0,0.1046036086448152,1.0
40.414154052734375,-11.842850685119629,-0.16350197792053223,-0.0,-0.0,-1.0,0.21895636677933572,1.0
40.89634704589844,-11.951789855957031,-0.22821903228759766,-0.0,-0.0,-1.0,0.12248649655716934,1.0
41.22467041015625,-11.758146286010742,-0.3073084354400635,-0.0,-0.0,-1.0,0.22881218278980803,2.0
40.48618698120117,-10.962818145751953,-0.29526329040527344,-0.0,-0.0,-1.0,0.2940173450260902,2.0
40.754730224609375,-11.16382122039795,-0.31035923957824707,-0.0,-0.0,-1.0,0.1596332166690751,2.0
40.684207916259766,-10.485564231872559,-0.3943755626678467,-0.0,-0.0,-1.0,0.18973695470168747,1.0
40.634918212890625,-10.36587142944336,-0.40389156341552734,-0.0,-0.0,-1.0,0.15572730105177757,2.0
40.828125,-10.466595649719238,-0.4198122024536133,-0.0,-0.0,-1.0,0.1608312092987192,1.0
40.529998779296875,-12.091194152832031,-0.025252580642700195,-0.0,-0.0,-1.0,0.140233177313475,2.0
40.25126266479492,-11.732767105102539,-0.028937101364135742,-0.0,-0.0,-1.0,0.08520279116919091,1.0
41.16204833984375,-11.634626388549805,-0.19252943992614746,-0.0,-0.0,-1.0,0.1292882521507445,2.0
41.45213317871094,-11.87320327758789,-0.20837092399597168,-0.0,-0.0,-1.0,0.16662244158437228,1.0
40.863922119140625,-11.389884948730469,-0.17771553993225098,-0.0,-0.0,-1.0,0.2222292412962192,1.0
41.072532653808594,-11.572731971740723,-0.18626952171325684,-0.0,-0.0,-1.0,0.12419248253634158,1.0
40.502479553222656,-10.853754997253418,-0.19658136367797852,-0.0,-0.0,-1.0,0.16602824687181994,1.0
40.496978759765625,-10.65127944946289,-0.22580361366271973,-0.0,-0.0,-1.0,0.1967217645492144,1.0
40.888031005859375,-10.473522186279297,-0.3145618438720703,-0.0,-0.0,-1.0,0.14678340770650322,2.0
41.44666290283203,-10.60654067993164,-0.3845643997192383,-0.0,-0.0,-1.0,0.14170445257367534,1.0
39.889923095703125,-11.91975212097168,0.056633949279785156,-0.9369068849042934,-0.2886723719017385,-0.19716427343602974,0.17448756867176768,4.0
39.98004150390625,-11.891639709472656,-0.3223419189453125,-0.0,-0.0,-1.0,0.1388150409227372,1.0
40.292022705078125,-11.998247146606445,-0.3662405014038086,-0.0,-0.0,-1.0,0.1163513252262092,1.0
40.590972900390625,-12.10684585571289,-0.40822649002075195,-0.0,-0.0,-1.0,0.20884452737426265,1.0
39.91057205200195,-11.766609191894531,-0.3303244113922119,-0.0,-0.0,-1.0,0.08104735687267586,1.0
40.117698669433594,-11.86180305480957,-0.3547177314758301,-0.0,-0.0,-1.0,0.13120321920380654,1.0
40.681922912597656,-11.931783676147461,-0.4554722309112549,-0.0,-0.0,-1.0,0.14164662404635978,1.0
41.49053192138672,-11.833770751953125,-0.16081809997558594,-0.0,-0.0,-1.0,0.17471407911475884,1.0
40.78440475463867,-10.542526245117188,-0.24147844314575195,-0.0,-0.0,-1.0,0.17891153676327193,2.0
41.09197235107422,-10.669267654418945,-0.27109837532043457,0.29794752859103296,0.6741103059013509,-0.6758717080068398,0.0445898212758219,4.0
39.76594161987305,-11.98044204711914,0.15124917030334473,-0.0,-0.0,-1.0,0.08497943438351338,1.0
40.56298065185547,-12.095223426818848,0.03491711616516113,-0.0,-0.0,-1.0,0.1244850030081557,2.0
40.18426513671875,-11.752431869506836,0.04690980911254883,-0.0,-0.0,-1.0,0.14372367607821496,1.0
40.6329345703125,-11.544183731079102,-0.05948972702026367,-0.0,-0.0,-1.0,0.21931999500548915,2.0
40.70045471191406,-11.200973510742188,-0.12354588508605957,-0.0,-0.0,-1.0,0.15301376130434494,2.0
40.34645080566406,-10.702871322631836,-0.1451430320739746,-0.0,-0.0,-1.0,0.2558999744163449,2.0
40.31382369995117,-10.669342041015625,-0.14536023139953613,-0.0,-0.0,-1.0,0.23975996600555088,2.0
39.87968826293945,-11.966728210449219,-0.14086151123046875,-0.0,-0.0,-1.0,0.0944439228438754,1.0
40.03468322753906,-11.954456329345703,-0.173353910446167,-0.0,-0.0,-1.0,0.16640069018454917,1.0
40.901615142822266,-12.141324996948242,-0.31182861328125,-0.0,-0.0,-1.0,0.16543735764832204,2.0
41.27238845825195,-12.322218894958496,-0.3556489944458008,-0.0,-0.0,-1.0,0.1293065131404531,2.0
40.143192291259766,-11.584810256958008,-0.2632558345794678,-0.0,-0.0,-1.0,0.0424696877183943,2.0
40.40729522705078,-11.616762161254883,-0.3084707260131836,-0.0,-0.0,-1.0,0.13094247893308952,1.0
40.919559478759766,-11.728985786437988,-0.38860511779785156,-0.0,-0.0,-1.0,0.15072148486221953,1.0
41.17729568481445,-11.679545402526855,-0.4485588073730469,-0.0,-0.0,-1.0,0.169656608660441,1.0
40.11713409423828,-11.45329475402832,-0.2831125259399414,-0.0,-0.0,-1.0,0.020539802469896205,2.0
40.582550048828125,-11.548978805541992,-0.35527467727661133,-0.0,-0.0,-1.0,0.173402280334576,1.0
40.882503509521484,-11.596302032470703,-0.4052422046661377,-0.0,-0.0,-1.0,0.1378089009735133,1.0
39.94396209716797,-10.811767578125,-0.37516117095947266,-0.0,-0.0,-1.0,0.10441229421071709,1.0
40.29277420043945,-10.906290054321289,-0.42165660858154297,-0.0,-0.0,-1.0,0.1430688775008851,1.0
40.46708679199219,-10.937084197998047,-0.4485664367675781,-0.0,-0.0,-1.0,0.18769392414182454,2.0
39.85990524291992,-10.537050247192383,-0.4146914482116699,0.417588014986967,-0.8668499874494098,-0.27238088956129597,0.09957309043926829,3.0
40.12858581542969,-10.683582305908203,-0.4347078800201416,-0.0,-0.0,-1.0,0.08286489157408453,2.0
39.822200775146484,-11.877371788024902,0.24361109733581543,-0.6310643378964157,0.7149672358900949,-0.3009645378429752,0.15145811945099308,3.0
40.01276779174805,-11.862150192260742,0.20992207527160645,-0.0,-0.0,-1.0,0.17150780670723412,1.0
40.59800720214844,-12.125864028930664,0.1552271842956543,-0.0,-0.0,-1.0,0.16507430727020467,1.0
40.0655517578125,-11.827192306518555,0.19550085067749023,-0.0,-0.0,-1.0,0.09229851835617767,1.0
40.58994674682617,-11.619728088378906,0.07526731491088867,-0.9271433504032596,0.32101226880277606,0.19327785977993764,0.19255996442920315,3.0
41.489898681640625,-11.841947555541992,-0.03992509841918945,-0.0,-0.0,-1.0,0.170420493005867,1.0
41.661746978759766,-11.539522171020508,-0.11629915237426758,-0.0,-0.0,-1.0,0.17103690338911812,1.0
39.73283386230469,-10.627046585083008,0.04256558418273926,-0.0,-0.0,-1.0,0.08654688492061303,2.0
40.701576232910156,-10.606496810913086,-0.11267805099487305,-0.0,-0.0,-1.0,0.095985206171568,1.0
40.741455078125,-12.04249382019043,-0.4720332622528076,-0.0,-0.0,-1.0,0.1417949921857975,1.0
40.12324905395508,-12.112194061279297,-0.31061649322509766,-0.0,-0.0,-1.0,0.12602802981662875,1.0
40.61711120605469,-12.334184646606445,-0.38927221298217773,-0.0,-0.0,-1.0,0.21427794646337722,1.0
39.8616828918457,-11.745437622070312,-0.3203916549682617,-0.0,-0.0,-1.0,0.09686019963925502,1.0
40.10776901245117,-11.941633224487305,-0.3394937515258789,-0.0,-0.0,-1.0,0.13866538318047666,1.0
40.470848083496094,-12.039375305175781,-0.40737056732177734,-0.0,-0.0,-1.0,0.133473140259021,1.0
41.14739990234375,-12.011573791503906,-0.16838383674621582,-0.0,-0.0,-1.0,0.11644114430139144,1.0
41.444820404052734,-12.042376518249512,-0.2277233600616455,-0.0,-0.0,-1.0,0.20881249149392359,1.0
40.724788665771484,-11.580068588256836,-0.14908552169799805,-0.0,-0.0,-1.0,0.18407366635887173,2.0
41.085975646972656,-11.726139068603516,-0.20062494277954102,-0.0,-0.0,-1.0,0.18843291612202426,2.0
40.406341552734375,-10.939090728759766,-0.19527149200439453,-0.0,-0.0,-1.0,0.1634431426914771,1.0
40.689979553222656,-11.177536964416504,-0.21036839485168457,-0.0,-0.0,-1.0,0.09907700447105026,1.0
41.49467086791992,-11.258357048034668,-0.3624417781829834,-0.0,-0.0,-1.0,0.05813290829088351,1.0
39.921730041503906,-10.448738098144531,-0.19199490547180176,-0.0,-0.0,-1.0,0.17259368792612262,1.0
40.885040283203125,-10.708436965942383,-0.3311288356781006,-0.0,-0.0,-1.0,0.07303863305385842,1.0
41.20115661621094,-10.76600456237793,-0.3846914768218994,-0.0,-0.0,-1.0,0.02318154073549313,1.0
40.87210464477539,-10.405132293701172,-0.38263797760009766,-0.0,-0.0,-1.0,0.13806533664167586,1.0
41.42599868774414,-10.581748962402344,-0.4619135856628418,-0.0,-0.0,-1.0,0.13353789115279105,1.0
39.879634857177734,-12.058182716369629,0.10535144805908203,-0.0,-0.0,-1.0,0.1587542928204367,2.0
39.994163513183594,-12.122047424316406,0.09250879287719727,-0.0,-0.0,-1.0,0.12291353387634477,1.0
40.571537017822266,-12.250299453735352,-0.0077898502349853516,-0.0,-0.0,-1.0,0.11874927587143302,2.0
40.367401123046875,-11.996944427490234,-0.005734682083129883,-0.0,-0.0,-1.0,0.13922405482700753,1.0
