x,y,z,nx,ny,nz,curvature,density,label
38.42648696899414,-18.198253631591797,0.07375860214233398,-0.0,-0.0,-1.0,0.08801628174694776,1.0,1
38.70298385620117,-18.368663787841797,0.063651442527771,-0.0,-0.0,-1.0,0.06355801388241483,2.0,1
38.259613037109375,-17.658496856689453,0.09670639038085938,-0.0,-0.0,-1.0,0.07232027604043967,1.0,1
37.71174621582031,-18.800060272216797,0.4541672468185425,-0.0,-0.0,-1.0,0.08708576342668643,1.0,1
37.92985534667969,-18.971622467041016,0.4456644058227539,-0.0,-0.0,-1.0,0.07094640491075965,1.0,1
37.738182067871094,-18.722145080566406,0.3790803551673889,-0.9414362325987496,-0.28196707002992977,-0.18491184756258777,0.10463036661373543,4.0,1
37.9405517578125,-18.909473419189453,0.36522722244262695,-0.0,-0.0,-1.0,0.08348034525031801,1.0,1
39.332847595214844,-17.68707275390625,-0.11270320415496826,-0.0,-0.0,-1.0,0.05484944670934989,1.0,0
39.326534271240234,-17.338878631591797,-0.09764623641967773,-0.0,-0.0,-1.0,0.09759409050577322,1.0,0
37.901756286621094,-18.744457244873047,0.3518297076225281,-0.0,-0.0,-1.0,0.11912584141156228,1.0,1
38.03322219848633,-18.90597915649414,0.3458101749420166,-0.0,-0.0,-1.0,0.07924569192996438,1.0,1
38.242591857910156,-19.223636627197266,0.33413994312286377,-0.0,-0.0,-1.0,0.18081847729643605,1.0,1
38.16853332519531,-18.128013610839844,0.037395477294921875,-0.0,-0.0,-1.0,0.06608867455565189,1.0,1
38.37748718261719,-18.229969024658203,0.03807353973388672,-0.0,-0.0,-1.0,0.08394803499179067,1.0,1
38.91451644897461,-17.812358856201172,0.0627744197845459,-0.0,-0.0,-1.0,0.14265939879795222,1.0,1
38.8341064453125,-18.480594635009766,0.0382847785949707,-0.0,-0.0,-1.0,0.049280872995174814,1.0,1
38.932308197021484,-18.709259033203125,0.03225088119506836,-0.0,-0.0,-1.0,0.09853690156142603,2.0,1
39.25704574584961,-18.514549255371094,0.044972777366638184,-0.0,-0.0,-1.0,0.1432254833303908,1.0,1
39.290340423583984,-19.087726593017578,0.025691986083984375,-0.0,-0.0,-1.0,0.07931265690766008,1.0,1
37.91407775878906,-18.28338623046875,0.06901228427886963,-0.0,-0.0,-1.0,0.05655458047031661,1.0,1
38.19532012939453,-18.211536407470703,0.07726097106933594,-0.0,-0.0,-1.0,0.11390924477435754,1.0,1
38.803619384765625,-17.620014190673828,0.10927677154541016,0.5156227118880262,-0.6980885091849804,-0.49679538275745816,0.163352719226796,3.0,1
38.53733825683594,-18.482986450195312,0.07530665397644043,-0.0,-0.0,-1.0,0.05308009816791482,1.0,1
38.79011917114258,-18.88302230834961,0.0670546293258667,-0.0,-0.0,-1.0,0.08940293344959757,1.0,1
39.19683074951172,-18.6304931640625,0.08339834213256836,-0.0,-0.0,-1.0,0.21097358423602056,1.0,1
39.257354736328125,-19.14478302001953,0.06728363037109375,-0.0,-0.0,-1.0,0.08256918206836174,1.0,1
39.369049072265625,-19.339740753173828,0.06281042098999023,-0.0,-0.0,-1.0,0.07216820495697546,1.0,1
39.23365783691406,-17.33014488220215,-0.12695705890655518,-0.0,-0.0,-1.0,0.136753726401764,1.0,0
39.372825622558594,-17.571317672729492,-0.13658154010772705,-0.0,-0.0,-1.0,0.054905639000328396,2.0,0
38.06925582885742,-18.981910705566406,0.5834614634513855,-0.3545948369661801,-0.0644136055176787,-0.9327986862239575,0.23422032550760336,3.0,1
39.01188659667969,-17.583248138427734,-0.05730545520782471,-0.0,-0.0,-1.0,0.19615178611322243,2.0,0
39.3586540222168,-17.89069175720215,-0.06161832809448242,-0.0,-0.0,-1.0,0.05648538868342897,1.0,0
39.129180908203125,-17.886600494384766,-0.06660699844360352,-0.0,-0.0,-1.0,0.0568410394430265,1.0,0
39.42058181762695,-18.695579528808594,0.06204509735107422,-0.0,-0.0,-1.0,0.19193304387370108,2.0,1
39.18898010253906,-18.448467254638672,0.06222045421600342,-0.0,-0.0,-1.0,0.09082215025076355,1.0,1
39.63098907470703,-19.27651596069336,0.050229787826538086,-0.0,-0.0,-1.0,0.06891315568441587,1.0,1
39.47785568237305,-18.94275665283203,0.05593681335449219,-0.0,-0.0,-1.0,0.07788943630093799,1.0,1
40.10909652709961,-19.021568298339844,0.04214286804199219,-0.0,-0.0,-1.0,0.13960207597300295,2.0,1
39.63914489746094,-19.100627899169922,0.028214097023010254,-0.0,-0.0,-1.0,0.07637012639871921,1.0,1
39.83647537231445,-19.34893798828125,0.022867441177368164,-0.0,-0.0,-1.0,0.05573606648391225,1.0,1
40.04197311401367,-17.901554107666016,-0.16287994384765625,-0.0,-0.0,-1.0,0.05158767304674169,1.0,0
39.85715866088867,-17.81146240234375,-0.16188526153564453,-0.0,-0.0,-1.0,0.048016173817061344,1.0,0
38.977115631103516,-18.39567756652832,0.061954617500305176,-0.0,-0.0,-1.0,0.017591375129017598,1.0,1
38.07444763183594,-18.431459426879883,0.07722735404968262,-0.0,-0.0,-1.0,0.07074004691815551,1.0,1
37.86163330078125,-18.54908561706543,0.09342455863952637,-0.0,-0.0,-1.0,0.13064263660893657,1.0,1
37.89154815673828,-16.892566680908203,0.06014847755432129,-0.0,-0.0,-1.0,0.08490964809862536,1.0,1
38.2061767578125,-18.976715087890625,0.48667359352111816,-0.0,-0.0,-1.0,0.18886219714814725,2.0,1
38.18484115600586,-19.144683837890625,0.5892022848129272,-0.0,-0.0,-1.0,0.25790977073210253,2.0,1
37.81254959106445,-18.869585037231445,0.3392263650894165,-0.0,-0.0,-1.0,0.09668139055008128,1.0,1
37.817100524902344,-18.96769142150879,0.4571521282196045,-0.0,-0.0,-1.0,0.060671870613144094,2.0,1
38.10016632080078,-19.08146858215332,0.44475221633911133,0.10094773659288726,0.7349874491222101,-0.670524424692792,0.15006747021017616,4.0,1
37.769290924072266,-17.301280975341797,-0.03331589698791504,-0.0,-0.0,-1.0,0.0846238468424281,1.0,0
37.71842956542969,-18.853696823120117,0.4880486726760864,-0.7543583200427276,-0.6544728979346179,-0.05107593221250855,0.09698987920055148,3.0,1
38.123661041259766,-19.063241958618164,0.47314298152923584,0.43083477056358555,0.8950503400428077,-0.11517937863470815,0.21104539526904265,5.0,1
39.634132385253906,-17.109071731567383,-0.14044427871704102,-0.0,-0.0,-1.0,0.029404926278620402,2.0,0
39.73762512207031,-17.177061080932617,-0.14431428909301758,-0.0,-0.0,-1.0,0.028355816957812745,1.0,0
39.68993377685547,-17.026939392089844,-0.1451730728149414,-0.0,-0.0,-1.0,0.033594422336189984,1.0,0
39.60920715332031,-17.11981964111328,-0.11376547813415527,-0.0,-0.0,-1.0,0.025068945676095442,2.0,0
39.53584289550781,-17.245588302612305,-0.11614227294921875,-0.0,-0.0,-1.0,0.02676269409821633,1.0,0
39.69141387939453,-17.11723518371582,-0.11863052845001221,-0.0,-0.0,-1.0,0.03378436113645571,1.0,0
38.17654037475586,-17.763805389404297,0.002646923065185547,-0.0,-0.0,-1.0,0.012324672632451697,1.0,1
39.36095428466797,-17.97844696044922,-0.07128679752349854,-0.0,-0.0,-1.0,0.09222681487985523,1.0,0
39.73667907714844,-18.01960563659668,-0.09393644332885742,-0.0,-0.0,-1.0,0.05094318141447413,1.0,0
39.56090545654297,-17.817262649536133,-0.11750495433807373,-0.0,-0.0,-1.0,0.03519653392059091,1.0,0
39.85814666748047,-17.12053871154785,-0.0895766019821167,-0.0,-0.0,-1.0,0.05304823562447996,1.0,0
39.70644760131836,-17.654287338256836,-0.11438894271850586,-0.0,-0.0,-1.0,0.027618902916869064,1.0,0
37.73667526245117,-18.871971130371094,0.45273351669311523,-0.0,-0.0,-1.0,0.09698987920055135,2.0,1
37.84679412841797,-19.037771224975586,0.44130897521972656,-0.0,-0.0,-1.0,0.04894547682704668,1.0,1
38.110897064208984,-19.1345157623291,0.4255715608596802,-0.0,-0.0,-1.0,0.15712052167920235,2.0,1
39.58503341674805,-17.397676467895508,-0.10365188121795654,-0.0,-0.0,-1.0,0.02450403173756766,1.0,0
38.041259765625,-19.134639739990234,0.5743966102600098,-0.0,-0.0,-1.0,0.17416669913313002,1.0,1
37.94056701660156,-18.74556541442871,0.26536571979522705,-0.0,-0.0,-1.0,0.10424427150187236,2.0,1
38.17768859863281,-18.837862014770508,0.24928045272827148,-0.0,-0.0,-1.0,0.07529927034021355,2.0,1
38.344703674316406,-18.97703742980957,0.23376083374023438,-0.0,-0.0,-1.0,0.1146245890224252,1.0,1
38.71641540527344,-17.739910125732422,0.28421032428741455,-0.0,-0.0,-1.0,0.11698769895560109,1.0,1
38.90287399291992,-18.892309188842773,0.21166694164276123,-0.0,-0.0,-1.0,0.11924223323887632,1.0,1
39.213462829589844,-18.64301872253418,0.21015536785125732,-0.0,-0.0,-1.0,0.16424628983273856,1.0,1
39.44188690185547,-18.22499656677246,0.22181320190429688,-0.0,-0.0,-1.0,0.10973301879344963,1.0,1
39.530860900878906,-19.185632705688477,0.16440367698669434,-0.0,-0.0,-1.0,0.07922864437998921,1.0,1
39.52803039550781,-17.735319137573242,-0.11301183700561523,-0.0,-0.0,-1.0,0.02645361809428512,1.0,0
39.976619720458984,-17.199766159057617,-0.07923948764801025,0.8211491575297905,0.5554403660243642,-0.13114900258421916,0.06700193088260704,4.0,0
39.815773010253906,-17.62397575378418,-0.10940968990325928,-0.0,-0.0,-1.0,0.03200923117563088,1.0,0
37.819541931152344,-18.983659744262695,0.4769356846809387,-0.0,-0.0,-1.0,0.06067187061314416,2.0,1
38.0789680480957,-19.049583435058594,0.47096967697143555,-0.04641176510076901,0.8574569856691926,-0.5124582576047861,0.183810270707811,5.0,1
38.95914077758789,-17.703861236572266,0.517493724822998,-0.0,-0.0,-1.0,0.10606693751181381,2.0,1
39.395328521728516,-17.772253036499023,-0.08444046974182129,-0.0,-0.0,-1.0,0.04914952037429428,1.0,0
39.98658752441406,-17.200281143188477,-0.04950988292694092,-0.0,-0.0,-1.0,0.06700193088260704,2.0,0
39.829647064208984,-17.553909301757812,-0.07473039627075195,-0.0,-0.0,-1.0,0.029059009434776926,2.0,0
39.71562957763672,-17.77781867980957,-0.09051144123077393,-0.0,-0.0,-1.0,0.02734549974103144,1.0,0
37.7113037109375,-18.84549903869629,0.4882487654685974,-0.0,-0.0,-1.0,0.09698987920055151,2.0,1
37.87562561035156,-18.981069564819336,0.48031044006347656,-0.0,-0.0,-1.0,0.05342719591469414,1.0,1
38.1430549621582,-19.11351203918457,0.4712141752243042,-0.0,-0.0,-1.0,0.22369451013191208,1.0,1
38.92334747314453,-17.705501556396484,0.5241079330444336,-0.0,-0.0,-1.0,0.15327714169472323,2.0,1
37.83124923706055,-18.796215057373047,0.2988949418067932,-0.0,-0.0,-1.0,0.09431205665564588,1.0,1
38.92308807373047,-17.790908813476562,0.3283950090408325,-0.0,-0.0,-1.0,0.08981318907877868,1.0,1
38.19664764404297,-18.887758255004883,0.2843761444091797,-0.0,-0.0,-1.0,0.11797867017693434,2.0,1
39.34190368652344,-18.240304946899414,0.2903563976287842,-0.0,-0.0,-1.0,0.07187925956531876,1.0,1
39.11598587036133,-18.86456298828125,0.2607100009918213,-0.0,-0.0,-1.0,0.16384102708724915,2.0,1
39.40676498413086,-19.21563720703125,0.231958270072937,-0.0,-0.0,-1.0,0.10581368450868502,1.0,1
37.75935363769531,-18.85627555847168,0.30558693408966064,-0.0,-0.0,-1.0,0.09901225403723532,1.0,1
38.15464782714844,-18.937746047973633,0.2880582809448242,-0.0,-0.0,-1.0,0.11774921299348984,2.0,1
39.293357849121094,-18.56864356994629,0.27024245262145996,-0.0,-0.0,-1.0,0.20239898777975338,2.0,1
39.020294189453125,-19.316959381103516,0.2362293004989624,-0.0,-0.0,-1.0,0.06387085075489786,1.0,1
39.34195327758789,-19.273393630981445,0.22718596458435059,-0.0,-0.0,-1.0,0.14596807060963124,1.0,1
39.86751174926758,-19.104551315307617,0.21745777130126953,-0.0,-0.0,-1.0,0.20091189198416826,2.0,1
37.795989990234375,-16.867273330688477,0.0818561315536499,-0.555298379925129,-0.4201072910589794,-0.7177419962992365,0.10236418696793083,3.0,1
38.41209030151367,-17.49570655822754,0.014897465705871582,-0.0,-0.0,-1.0,0.042080334679329985,1.0,1
38.2349967956543,-17.552928924560547,0.013792872428894043,-0.0,-0.0,-1.0,0.02393196799803104,1.0,1
38.440673828125,-17.561935424804688,0.008514046669006348,-0.0,-0.0,-1.0,0.046371314479705786,1.0,1
39.979984283447266,-16.99285888671875,0.015729546546936035,-0.0,-0.0,-1.0,0.09603407635448206,2.0,1
39.982723236083984,-17.008472442626953,0.014299631118774414,-0.0,-0.0,-1.0,0.09603407635448206,2.0,1
38.967708587646484,-17.833602905273438,-0.027554035186767578,-0.0,-0.0,-1.0,0.07569723417106115,1.0,0
39.51250457763672,-17.991230010986328,-0.05585372447967529,-0.0,-0.0,-1.0,0.0999622457794568,1.0,0
39.28493118286133,-18.04676055908203,-0.054245591163635254,-0.0,-0.0,-1.0,0.11840209744811388,1.0,0
40.140586853027344,-18.010032653808594,-0.07641589641571045,-0.0,-0.0,-1.0,0.047243068716721126,1.0,0
39.80860900878906,-18.101951599121094,-0.07398247718811035,-0.0,-0.0,-1.0,0.04889975238197478,1.0,0
38.187740325927734,-18.335670471191406,0.4900634288787842,-0.0,-0.0,-1.0,0.1451670862927103,1.0,1
37.782596588134766,-18.89924430847168,0.4687234163284302,-0.0,-0.0,-1.0,0.1157238749466906,2.0,1
38.121280670166016,-19.060766220092773,0.45403409004211426,0.10094773659288726,0.7349874491222101,-0.670524424692792,0.24102791799653867,4.0,1
38.035831451416016,-19.02672576904297,0.4574319124221802,-0.0,-0.0,-1.0,0.14143159931113433,2.0,1
39.25653076171875,-18.796083450317383,0.4435279369354248,-0.0,-0.0,-1.0,0.2400456843346318,2.0,1
40.01493835449219,-19.01529884338379,0.4138973355293274,-0.0,-0.0,-1.0,0.13524956088457743,1.0,1
38.36370086669922,-17.373498916625977,-0.011488199234008789,-0.0,-0.0,-1.0,0.031863744189201154,1.0,0
38.28874969482422,-17.414146423339844,-0.014471173286437988,-0.0,-0.0,-1.0,0.02826058651004274,1.0,0
38.906829833984375,-17.573848724365234,-0.03527963161468506,-0.0,-0.0,-1.0,0.1442532327518482,1.0,0
38.84809112548828,-17.519683837890625,-0.029715418815612793,-0.0,-0.0,-1.0,0.16265950598963977,1.0,0
37.992820739746094,-19.030017852783203,0.4002644419670105,-0.0,-0.0,-1.0,0.10768905096699483,1.0,1
37.823997497558594,-18.952945709228516,0.40535855293273926,-0.0,-0.0,-1.0,0.10368793383272563,1.0,1
38.70819854736328,-17.63778305053711,0.4718703031539917,-0.0,-0.0,-1.0,0.18335000805388293,1.0,1
38.176063537597656,-18.242589950561523,0.4424546957015991,-0.0,-0.0,-1.0,0.13943763604816828,1.0,1
39.455318450927734,-18.477331161499023,0.14340758323669434,-0.0,-0.0,-1.0,0.1236348529014799,2.0,1
39.45138168334961,-18.705053329467773,0.12539148330688477,-0.0,-0.0,-1.0,0.17514713789945904,1.0,1
38.89090347290039,-18.810190200805664,0.10850584506988525,-0.0,-0.0,-1.0,0.1215525203793376,1.0,1
38.69256591796875,-18.6461124420166,0.1182403564453125,-0.0,-0.0,-1.0,0.05905569920610676,1.0,1
39.21681594848633,-19.17629623413086,0.08466935157775879,-0.0,-0.0,-1.0,0.08950962637254124,1.0,1
39.088157653808594,-19.237947463989258,0.07777547836303711,-0.0,-0.0,-1.0,0.06387085075489786,1.0,1
39.06465148925781,-17.67035675048828,0.20142698287963867,-0.0,-0.0,-1.0,0.26414479219566733,1.0,1
38.936424255371094,-17.623350143432617,0.20320093631744385,-0.0,-0.0,-1.0,0.22467995713391586,1.0,1
39.48240280151367,-18.356657028198242,0.15330159664154053,-0.0,-0.0,-1.0,0.0989332563712596,1.0,1
38.54543685913086,-18.51996612548828,0.1257643699645996,-0.0,-0.0,-1.0,0.04063810527940386,1.0,1
39.44621276855469,-19.304094314575195,0.6433328986167908,-0.0,-0.0,-1.0,0.14298052678616757,1.0,1
38.53680419921875,-18.15042495727539,0.26715087890625,-0.0,-0.0,-1.0,0.12487083787136725,1.0,1
38.928253173828125,-17.499080657958984,0.6744652986526489,-0.0,-0.0,-1.0,0.1524705994148749,1.0,1
40.062965393066406,-17.60678482055664,-0.28178179264068604,-0.0,-0.0,-1.0,0.03132847603684245,1.0,0
39.89806365966797,-17.889184951782227,-0.269087553024292,-0.0,-0.0,-1.0,0.04975104063813219,1.0,0
39.10600662231445,-17.83555030822754,-0.1721409559249878,-0.0,-0.0,-1.0,0.047835879837945586,1.0,0
39.82399368286133,-18.170063018798828,-0.2680783271789551,-0.0,-0.0,-1.0,0.05735779301056347,1.0,0
39.39270782470703,-18.175317764282227,-0.2165759801864624,-0.0,-0.0,-1.0,0.09988428625464593,1.0,0
38.851646423339844,-17.3886775970459,0.34987783432006836,-0.0,-0.0,-1.0,0.11000070533480237,1.0,1
38.288875579833984,-18.922500610351562,0.44317805767059326,-0.0,-0.0,-1.0,0.12656156839585248,1.0,1
38.24858474731445,-19.053180694580078,0.31220364570617676,-0.0,-0.0,-1.0,0.215106875482921,1.0,1
38.39911651611328,-19.026538848876953,0.2933945655822754,-0.0,-0.0,-1.0,0.11538234030479892,1.0,1
37.817569732666016,-18.725830078125,0.23395907878875732,-0.0,-0.0,-1.0,0.11246929949034586,1.0,1
37.83866882324219,-16.909229278564453,0.13772404193878174,-0.8779743856773984,0.21384822475475396,0.42828718736805005,0.10236418696793086,3.0,1
38.077388763427734,-19.042877197265625,0.5354928374290466,0.42685842038242927,0.7096771888632374,-0.5604910138046729,0.2317359205588123,5.0,1
37.80458068847656,-16.89338493347168,0.09049332141876221,-0.8564143618564642,-0.38745376630617756,0.3412242954145305,0.1023641869679309,4.0,1
37.84485626220703,-16.935928344726562,0.16373920440673828,0.003959453235700669,-0.6973978708585367,-0.7166732396650893,0.10239084358788883,3.0,1
38.73225402832031,-17.732147216796875,0.5216183066368103,-0.0,-0.0,-1.0,0.09142999947608434,1.0,1
38.1143798828125,-19.03307342529297,0.5503112077713013,-0.01276645808672795,0.4838791477495801,-0.875041706389507,0.2515978558435017,5.0,1
37.9284782409668,-19.357898712158203,0.3968315124511719,-0.0,-0.0,-1.0,0.17789166285079913,1.0,1
37.78536605834961,-18.496353149414062,0.2941114902496338,-0.0,-0.0,-1.0,0.14655102508106957,1.0,1
37.9895133972168,-18.544113159179688,0.29100120067596436,-0.0,-0.0,-1.0,0.12216031077804358,1.0,1
38.17653274536133,-18.559181213378906,0.28909242153167725,-0.0,-0.0,-1.0,0.15509180968571715,1.0,1
37.852638244628906,-16.94268035888672,0.3452129364013672,-0.0,-0.0,-1.0,0.11262552145997506,1.0,1
38.71913528442383,-18.66143798828125,0.28153491020202637,-0.0,-0.0,-1.0,0.06708597013546144,1.0,1
39.613670349121094,-18.813339233398438,0.26897644996643066,-0.0,-0.0,-1.0,0.10404366509421957,1.0,1
39.59621810913086,-19.18429183959961,0.25703513622283936,-0.0,-0.0,-1.0,0.117642463781688,1.0,1
37.88715362548828,-16.867172241210938,0.11451506614685059,-0.0,-0.0,-1.0,0.07928441446216157,2.0,1
39.494781494140625,-19.335847854614258,0.954138457775116,-0.0,-0.0,-1.0,0.2440550660363368,2.0,1
37.71349334716797,-16.8751277923584,0.08376157283782959,-0.0,-0.0,-1.0,0.1023641869679308,1.0,1
37.816768646240234,-16.884521484375,0.07587587833404541,-0.8564143618564642,-0.38745376630617756,0.3412242954145305,0.1023641869679309,4.0,1
38.144981384277344,-19.055286407470703,0.5362572073936462,0.8406511022589311,0.5158979345477314,-0.16478788001618627,0.2657220041332283,5.0,1
39.29682159423828,-18.804237365722656,0.4776163697242737,-0.0,-0.0,-1.0,0.2397121261950386,1.0,1
37.78981018066406,-18.653785705566406,0.14827466011047363,-0.0,-0.0,-1.0,0.13396498861837836,2.0,1
37.874847412109375,-18.63417625427246,0.14108753204345703,-0.0,-0.0,-1.0,0.1656566680794165,2.0,1
38.989479064941406,-17.82845687866211,0.04722762107849121,-0.0,-0.0,-1.0,0.10107179865076528,1.0,1
37.88869094848633,-16.90256690979004,0.14294099807739258,-0.9919678915339516,-0.10255204831388957,-0.07404579361659985,0.103765815724851,3.0,1
38.131629943847656,-16.897098541259766,0.12212562561035156,-0.0,-0.0,-1.0,0.04695188284524659,1.0,1
37.779998779296875,-18.59382438659668,0.07832217216491699,-0.0,-0.0,-1.0,0.1612617391979803,1.0,1
37.754390716552734,-16.936330795288086,0.14912748336791992,0.6551340676381199,-0.49648709508044103,-0.5694733688580321,0.10236418696793069,3.0,1
38.8679084777832,-17.66767692565918,0.032501935958862305,-0.0,-0.0,-1.0,0.12570092254355325,1.0,1
37.796470642089844,-16.90546989440918,-0.0808483362197876,-0.0,-0.0,-1.0,0.12021403048906262,1.0,0
38.14954376220703,-19.09390640258789,0.54167640209198,0.9243619740682113,0.1312347888867818,-0.35823507796216886,0.2700577445605093,4.0,1
39.01422882080078,-17.733243942260742,0.5076267719268799,-0.0,-0.0,-1.0,0.11541052856419214,1.0,1
37.782203674316406,-18.70756721496582,0.17846858501434326,-0.0,-0.0,-1.0,0.1288586813861707,1.0,1
37.8028564453125,-16.953065872192383,0.1801837682723999,0.06354077995809072,-0.7676491010604436,-0.6377126523156104,0.13073445510713577,3.0,1
37.93681335449219,-18.50366973876953,0.15958011150360107,-0.0,-0.0,-1.0,0.14516051700317742,2.0,1
38.05233383178711,-16.88896369934082,0.14809739589691162,-0.0,-0.0,-1.0,0.09179518941765091,1.0,1
38.681434631347656,-18.409059524536133,0.06490159034729004,-0.0,-0.0,-1.0,0.059699777683087894,2.0,1
38.832374572753906,-17.62950325012207,0.046582818031311035,-0.0,-0.0,-1.0,0.15693160907707787,1.0,1
38.74293899536133,-18.26360321044922,0.05728352069854736,-0.0,-0.0,-1.0,0.0515085485764907,1.0,1
39.24029541015625,-17.909873962402344,-0.0064324140548706055,-0.0,-0.0,-1.0,0.060163845120855895,1.0,0
39.655982971191406,-17.91616439819336,-0.06040811538696289,-0.0,-0.0,-1.0,0.05112866965186314,1.0,0
40.145389556884766,-18.83685874938965,0.6415320634841919,-0.0,-0.0,-1.0,0.16509506480453376,2.0,1
38.15277099609375,-19.14055824279785,0.41140317916870117,-0.0,-0.0,-1.0,0.19539417431428602,2.0,1
38.253238677978516,-18.314453125,0.4217712879180908,-0.0,-0.0,-1.0,0.15537845242720438,1.0,1
38.78832244873047,-17.71710968017578,0.3877906799316406,-0.0,-0.0,-1.0,0.10947065409050932,1.0,1
39.28474044799805,-18.53877067565918,0.32648396492004395,-0.0,-0.0,-1.0,0.11156070918288968,1.0,1
39.9317626953125,-19.123565673828125,0.2568976879119873,-0.0,-0.0,-1.0,0.15902514198151782,1.0,1
38.37455749511719,-17.031875610351562,-0.034874558448791504,-0.0,-0.0,-1.0,0.024438420634804094,2.0,0
38.68589782714844,-17.0367431640625,-0.0654219388961792,-0.0,-0.0,-1.0,0.06607813185778717,1.0,0
38.134361267089844,-19.078777313232422,0.5155960321426392,0.9361338099655578,0.12623498016531184,-0.3282045393074753,0.27473620591498166,5.0,1
38.71457290649414,-16.88738441467285,-0.061937689781188965,-0.0,-0.0,-1.0,0.07641459335830002,1.0,0
37.80654525756836,-18.726137161254883,0.5241369009017944,-0.0,-0.0,-1.0,0.10135354753265773,1.0,1
38.23638153076172,-18.96257209777832,0.4833637475967407,0.06985644486006434,-0.36633433444120955,-0.9278573341419623,0.17249706482297641,3.0,1
38.800262451171875,-17.57329559326172,0.48964250087738037,-0.0,-0.0,-1.0,0.17829509539608165,1.0,1
37.899173736572266,-18.105470657348633,0.08126366138458252,-0.0,-0.0,-1.0,0.015690511080017174,1.0,1
37.89746856689453,-18.45033073425293,0.06043136119842529,-0.0,-0.0,-1.0,0.09999628206676946,1.0,1
38.98656463623047,-18.064815521240234,-0.020476818084716797,-0.0,-0.0,-1.0,0.0431892290796011,1.0,0
39.56422424316406,-17.72956657409668,-0.058330655097961426,-0.0,-0.0,-1.0,0.026037619978737436,1.0,0
40.200260162353516,-17.8303279876709,-0.12707841396331787,-0.0,-0.0,-1.0,0.03514282642771261,1.0,0
39.99439239501953,-17.86566734313965,-0.10845983028411865,-0.0,-0.0,-1.0,0.04690801226043728,1.0,0
39.69340896606445,-19.345407485961914,0.4781038761138916,-0.0,-0.0,-1.0,0.05847300186113028,1.0,1
38.97224426269531,-17.788339614868164,0.4307626485824585,-0.0,-0.0,-1.0,0.10715832408992666,1.0,1
38.00661849975586,-19.056522369384766,0.5488922595977783,-0.0,-0.0,-1.0,0.15603366095215762,2.0,1
40.05389404296875,-18.91271209716797,0.4143604040145874,-0.0,-0.0,-1.0,0.15966529730356632,1.0,1
37.73952865600586,-18.050918579101562,0.07586860656738281,-0.0,-0.0,-1.0,0.019111681812562464,1.0,1
38.59381103515625,-17.680057525634766,0.10963726043701172,-0.0,-0.0,-1.0,0.13228918527998054,1.0,1
38.935028076171875,-17.66983985900879,0.05501365661621094,-0.0,-0.0,-1.0,0.20820998330386725,1.0,1
39.040199279785156,-18.140409469604492,0.06515693664550781,-0.0,-0.0,-1.0,0.0402029487285495,1.0,1
39.19519805908203,-17.827911376953125,0.022984981536865234,-0.0,-0.0,-1.0,0.08046927920885345,1.0,1
39.226539611816406,-17.94754409790039,0.024845123291015625,-0.0,-0.0,-1.0,0.05547461278747355,1.0,1
38.763648986816406,-17.542434692382812,0.655308723449707,-0.0,-0.0,-1.0,0.17747334562027262,1.0,1
39.25056457519531,-17.774831771850586,0.05679798126220703,-0.0,-0.0,-1.0,0.08336076289245996,1.0,1
39.52722930908203,-17.98974609375,0.02751302719116211,-0.0,-0.0,-1.0,0.09996224577945687,1.0,1
40.07744598388672,-17.927902221679688,-0.0638277530670166,-0.0,-0.0,-1.0,0.05158767304674168,1.0,0
40.18497085571289,-18.20697784423828,-0.06226778030395508,-0.0,-0.0,-1.0,0.04047342948609474,1.0,0
39.98332977294922,-17.205595016479492,-0.09960651397705078,0.8277674343767181,0.5490367689147435,0.11558417264073974,0.060502275287879555,3.0,0
40.087562561035156,-17.44797706604004,-0.0987405776977539,-0.0,-0.0,-1.0,0.03877412610542445,1.0,0
39.974952697753906,-17.145532608032227,-0.1026616096496582,-0.0,-0.0,-1.0,0.09121109700534769,2.0,0
38.780799865722656,-17.646217346191406,0.12241268157958984,0.3467522659611142,-0.6438871393221918,-0.6820353494257586,0.10134448899479734,3.0,1
38.84117126464844,-17.592138290405273,0.10908102989196777,0.4622065758823377,-0.6270457072422633,-0.6270396815514748,0.16359988506258413,3.0,1
38.722251892089844,-17.494792938232422,0.688620924949646,-0.0,-0.0,-1.0,0.17747334562027253,1.0,1
37.8310546875,-17.624990463256836,0.0006456375122070312,-0.0,-0.0,-1.0,0.03475696613855597,1.0,1
38.08195114135742,-18.937530517578125,0.575570821762085,-0.0,-0.0,-1.0,0.19441905219640337,2.0,1
38.143245697021484,-18.997718811035156,0.5701262950897217,0.4186077703152596,0.15932474064141075,-0.8940823013857468,0.25921527130243066,3.0,1
38.671871185302734,-17.690505981445312,0.41053080558776855,-0.0,-0.0,-1.0,0.10948427745082011,1.0,1
38.94810104370117,-18.144575119018555,0.03325510025024414,-0.0,-0.0,-1.0,0.027594238972545617,1.0,1
39.241153717041016,-18.08531379699707,-0.020840883255004883,-0.0,-0.0,-1.0,0.094144235352262,1.0,0
38.579429626464844,-17.632553100585938,0.06557035446166992,-0.0,-0.0,-1.0,0.10798449904943737,1.0,1
39.070472717285156,-17.890810012817383,-0.0031464099884033203,-0.0,-0.0,-1.0,0.06833665318957963,1.0,0
38.55836486816406,-17.711139678955078,0.07420992851257324,-0.0,-0.0,-1.0,0.1296724358805561,2.0,1
38.25508117675781,-18.159561157226562,0.08516502380371094,-0.0,-0.0,-1.0,0.08891223566263556,1.0,1
38.39675521850586,-17.85756492614746,0.04384756088256836,-0.0,-0.0,-1.0,0.04455440919016983,1.0,1
38.561710357666016,-17.832456588745117,0.011612176895141602,-0.0,-0.0,-1.0,0.10897553139008662,1.0,1
39.28216552734375,-18.757102966308594,0.4524238109588623,-0.0,-0.0,-1.0,0.20952081973696715,2.0,1
37.94910430908203,-17.73244857788086,-0.01925373077392578,-0.0,-0.0,-1.0,0.017858279750510138,1.0,0
39.063297271728516,-18.88642120361328,0.27016782760620117,-0.0,-0.0,-1.0,0.1154137360438668,1.0,1
39.24552917480469,-18.814346313476562,0.23540878295898438,-0.0,-0.0,-1.0,0.21637860476647197,1.0,1
39.294647216796875,-18.62550926208496,0.22057080268859863,-0.0,-0.0,-1.0,0.19622852970379795,2.0,1
39.37026596069336,-18.24700355529785,0.19367289543151855,-0.0,-0.0,-1.0,0.08863799975573294,2.0,1
37.77971649169922,-17.660940170288086,0.014288902282714844,-0.0,-0.0,-1.0,0.028830464493807016,1.0,1
38.846290588378906,-17.69956398010254,0.26560544967651367,-0.0,-0.0,-1.0,0.12239332541454048,1.0,1
39.103858947753906,-18.74346160888672,0.08036184310913086,-0.0,-0.0,-1.0,0.06651686200656834,1.0,1
39.02488327026367,-18.558359146118164,0.0888681411743164,-0.0,-0.0,-1.0,0.05497211430450744,1.0,1
39.05529022216797,-18.50376319885254,0.07984590530395508,-0.0,-0.0,-1.0,0.06968048668640454,1.0,1
39.29564666748047,-18.14389419555664,0.011181831359863281,-0.0,-0.0,-1.0,0.10192979012677653,2.0,1
39.087730407714844,-17.739933013916016,0.03285622596740723,-0.0,-0.0,-1.0,0.11692001934356556,1.0,1
39.37929916381836,-17.850994110107422,-0.02258014678955078,-0.0,-0.0,-1.0,0.0547349963956444,1.0,0
39.697269439697266,-17.406373977661133,-0.11693692207336426,-0.0,-0.0,-1.0,0.012022814978751828,2.0,0
39.21939468383789,-17.114362716674805,-0.034639835357666016,-0.0,-0.0,-1.0,0.09195293535898601,1.0,0
39.61530685424805,-17.016281127929688,-0.12564730644226074,-0.0,-0.0,-1.0,0.026488923677645777,1.0,0
39.28378677368164,-18.736984252929688,0.5000631809234619,-0.0,-0.0,-1.0,0.20952081973696715,1.0,1
40.053077697753906,-18.870630264282227,0.3715975284576416,-0.0,-0.0,-1.0,0.18037032497419875,1.0,1
38.97503662109375,-18.253501892089844,0.08481359481811523,-0.0,-0.0,-1.0,0.03582080481045823,1.0,1
38.89205551147461,-17.735551834106445,0.07425141334533691,-0.0,-0.0,-1.0,0.2216379890377807,1.0,1
37.79808044433594,-17.039268493652344,0.2618889808654785,-0.0,-0.0,-1.0,0.11262552145997505,1.0,1
38.06555938720703,-16.95292854309082,0.1990201473236084,-0.0,-0.0,-1.0,0.08994679917279864,1.0,1
38.749656677246094,-17.665109634399414,0.5371065139770508,-0.0,-0.0,-1.0,0.10872669093610339,2.0,1
38.2413330078125,-18.309589385986328,0.08027410507202148,-0.0,-0.0,-1.0,0.08090436358765626,2.0,1
38.34295654296875,-17.98541259765625,0.03728842735290527,-0.0,-0.0,-1.0,0.03683716048151855,1.0,1
38.37554931640625,-17.728322982788086,0.013584375381469727,-0.0,-0.0,-1.0,0.05216571081897098,1.0,1
38.14943313598633,-19.083839416503906,0.5189988613128662,0.9243619740682113,0.1312347888867818,-0.35823507796216886,0.2558651537121444,4.0,1
39.121952056884766,-18.876108169555664,0.30493688583374023,-0.0,-0.0,-1.0,0.21022722826648516,2.0,1
39.45252990722656,-18.93943214416504,0.2374584674835205,-0.0,-0.0,-1.0,0.14847178518606435,1.0,1
39.84947204589844,-18.8826904296875,0.15114545822143555,-0.0,-0.0,-1.0,0.2611211282305828,2.0,1
37.96807861328125,-18.322141647338867,0.148848295211792,-0.0,-0.0,-1.0,0.05462765356134445,1.0,1
39.307403564453125,-18.641172409057617,0.25475406646728516,-0.0,-0.0,-1.0,0.15394080754388684,2.0,1
39.31105041503906,-18.250337600708008,0.23380279541015625,-0.0,-0.0,-1.0,0.08261461476838731,2.0,1
38.812950134277344,-17.696533203125,0.30695557594299316,-0.0,-0.0,-1.0,0.1605436841182252,1.0,1
37.719970703125,-16.949819564819336,0.12128996849060059,-0.0,-0.0,-1.0,0.14006448682416464,2.0,1
39.07334899902344,-17.44687843322754,0.23484110832214355,-0.0,-0.0,-1.0,0.18497515611731266,2.0,1
39.128665924072266,-17.36786460876465,0.21756625175476074,-0.0,-0.0,-1.0,0.19493994568546374,2.0,1
40.11202621459961,-17.102867126464844,-0.01123189926147461,-0.0,-0.0,-1.0,0.09736046399734297,1.0,0
39.37320327758789,-18.853870391845703,0.06962084770202637,-0.0,-0.0,-1.0,0.14535509966359886,1.0,1
39.46419906616211,-18.588912963867188,0.03493785858154297,-0.0,-0.0,-1.0,0.16467925411958448,1.0,1
39.95049285888672,-18.482812881469727,-0.09340977668762207,-0.0,-0.0,-1.0,0.04700541440865685,1.0,0
38.151947021484375,-17.840715408325195,-0.017021656036376953,-0.0,-0.0,-1.0,0.012779721864593226,1.0,0
38.215606689453125,-17.821367263793945,-0.03662848472595215,-0.0,-0.0,-1.0,0.012266772627983312,1.0,0
39.633148193359375,-18.145641326904297,-0.03109288215637207,-0.0,-0.0,-1.0,0.08268015259115749,1.0,0
39.926353454589844,-18.062978744506836,-0.11045575141906738,-0.0,-0.0,-1.0,0.04679685289069388,1.0,0
38.09246826171875,-17.598093032836914,-0.015615701675415039,-0.0,-0.0,-1.0,0.020845043585664483,1.0,0
39.8470573425293,-17.509668350219727,-0.1262373924255371,-0.0,-0.0,-1.0,0.031545641659473274,1.0,0
39.938385009765625,-17.70454216003418,-0.1361408233642578,-0.0,-0.0,-1.0,0.036820028494393225,1.0,0
39.8759765625,-17.166723251342773,-0.15924620628356934,-0.0,-0.0,-1.0,0.056693839745993506,1.0,0
39.92051696777344,-17.400789260864258,-0.15279626846313477,-0.0,-0.0,-1.0,0.037256646915199504,2.0,0
39.80307388305664,-16.925140380859375,-0.1603991985321045,-0.0,-0.0,-1.0,0.05085085821732393,1.0,0
39.27167510986328,-18.7557315826416,0.281951904296875,-0.0,-0.0,-1.0,0.21996513190619518,2.0,1
40.06022262573242,-18.89421272277832,0.3077397346496582,-0.0,-0.0,-1.0,0.18037032497419875,1.0,1
37.88099670410156,-18.232643127441406,0.08439874649047852,-0.0,-0.0,-1.0,0.041780337415769565,1.0,1
39.21595001220703,-18.528047561645508,0.09486031532287598,-0.0,-0.0,-1.0,0.16234991420373693,1.0,1
38.828819274902344,-17.81446075439453,0.15315580368041992,-0.0,-0.0,-1.0,0.24362677770448635,1.0,1
39.326053619384766,-18.157470703125,0.04755711555480957,-0.0,-0.0,-1.0,0.11089863816431889,2.0,1
38.86265563964844,-17.597076416015625,0.12985587120056152,-0.0,-0.0,-1.0,0.15790807010949695,2.0,1
38.74694061279297,-17.290380477905273,0.1372082233428955,-0.0,-0.0,-1.0,0.11345387894481483,1.0,1
38.79315948486328,-17.67313003540039,0.5143179893493652,-0.0,-0.0,-1.0,0.10872669093610339,2.0,1
38.89628601074219,-18.70976448059082,0.051975250244140625,-0.0,-0.0,-1.0,0.10162599184758174,2.0,1
38.93739318847656,-18.320322036743164,0.0199124813079834,-0.0,-0.0,-1.0,0.022076783356962424,1.0,1
39.060997009277344,-17.998600006103516,-0.03699350357055664,-0.0,-0.0,-1.0,0.04878719393427632,2.0,0
38.99195098876953,-17.564300537109375,-0.0481419563293457,-0.0,-0.0,-1.0,0.24692032296594596,2.0,0
38.921173095703125,-17.105867385864258,-0.06640148162841797,-0.0,-0.0,-1.0,0.11014629701959107,1.0,0
39.08699035644531,-17.258399963378906,-0.10206937789916992,-0.0,-0.0,-1.0,0.1399444190486999,1.0,0
39.59876251220703,-19.303855895996094,0.22963643074035645,-0.0,-0.0,-1.0,0.13096439213036154,1.0,1
38.246299743652344,-18.753604888916016,0.24606990814208984,-0.0,-0.0,-1.0,0.07399922637919532,1.0,1
38.385231018066406,-18.70285987854004,0.2030324935913086,-0.0,-0.0,-1.0,0.06348958372338034,1.0,1
38.96183776855469,-18.742008209228516,0.20536017417907715,-0.0,-0.0,-1.0,0.10044525258289841,1.0,1
39.886207580566406,-18.896299362182617,0.13872957229614258,-0.0,-0.0,-1.0,0.25821785241413653,2.0,1
40.12349319458008,-19.04414939880371,0.08384585380554199,-0.0,-0.0,-1.0,0.17526152115393445,2.0,1
38.49661636352539,-18.42217445373535,0.1567986011505127,-0.0,-0.0,-1.0,0.07910569685583906,1.0,1
38.866310119628906,-18.427949905395508,0.04693126678466797,-0.0,-0.0,-1.0,0.025437935879794083,1.0,1
39.281341552734375,-18.519481658935547,0.2775599956512451,-0.0,-0.0,-1.0,0.13011808153524151,1.0,1
39.44105911254883,-18.146385192871094,0.21410155296325684,-0.0,-0.0,-1.0,0.07541584864289413,1.0,1
38.7714958190918,-17.65167999267578,0.1889505386352539,-0.0,-0.0,-1.0,0.12875458886873137,1.0,1
38.870182037353516,-17.651212692260742,0.1618790626525879,-0.0,-0.0,-1.0,0.1536731972920154,1.0,1
37.85725402832031,-16.967632293701172,0.23724889755249023,-0.0,-0.0,-1.0,0.11262552145997502,1.0,1
39.06440734863281,-17.3444881439209,0.25368785858154297,-0.0,-0.0,-1.0,0.15756839845513682,1.0,1
40.131805419921875,-16.86699104309082,-0.06700563430786133,-0.0,-0.0,-1.0,0.09902374594077933,1.0,0
38.21458435058594,-19.04817771911621,0.5772197246551514,-0.0,-0.0,-1.0,0.2219994686245369,2.0,1
38.567161560058594,-17.720319747924805,0.4130265712738037,-0.0,-0.0,-1.0,0.091479730279088,1.0,1
39.55861282348633,-19.35370445251465,0.9494743347167969,-0.0,-0.0,-1.0,0.23017648736007945,1.0,1
39.972312927246094,-19.314226150512695,0.05422544479370117,-0.0,-0.0,-1.0,0.09142327609963914,2.0,1
40.07318115234375,-18.958520889282227,0.010125875473022461,-0.0,-0.0,-1.0,0.12860555970667098,1.0,1
40.2001953125,-18.157127380371094,-0.0736532211303711,-0.0,-0.0,-1.0,0.04047342948609477,1.0,0
40.17699432373047,-17.778358459472656,-0.09503030776977539,-0.0,-0.0,-1.0,0.033566506969817195,1.0,0
40.00279235839844,-17.236974716186523,-0.08993291854858398,0.23959619043005992,0.3146803602573058,-0.9184606341045511,0.06050227528787953,4.0,0
40.12435531616211,-17.397933959960938,-0.11169838905334473,-0.0,-0.0,-1.0,0.04419740394020591,1.0,0
39.956024169921875,-16.927730560302734,-0.10726022720336914,-0.0,-0.0,-1.0,0.08172029827522029,1.0,0
40.085960388183594,-17.106334686279297,-0.12788987159729004,-0.0,-0.0,-1.0,0.09736046399734294,1.0,0
39.42952346801758,-19.32592010498047,0.2162928581237793,-0.0,-0.0,-1.0,0.12268158175792193,2.0,1
39.838863372802734,-19.322404861450195,0.09436345100402832,-0.0,-0.0,-1.0,0.13027049806818713,1.0,1
39.233856201171875,-18.74394416809082,0.252042293548584,-0.0,-0.0,-1.0,0.15253134088349607,2.0,1
39.964107513427734,-18.931825637817383,0.2110142707824707,-0.0,-0.0,-1.0,0.2561505296894211,2.0,1
39.285247802734375,-18.57032012939453,0.2278740406036377,-0.0,-0.0,-1.0,0.24391567623491633,2.0,1
38.692161560058594,-17.781007766723633,0.3540992736816406,-0.0,-0.0,-1.0,0.129909426343155,1.0,1
39.376075744628906,-18.20122718811035,0.17823457717895508,-0.0,-0.0,-1.0,0.09247203749569448,2.0,1
38.91475296020508,-17.6301212310791,0.27411723136901855,-0.0,-0.0,-1.0,0.13159885476686628,1.0,1
39.129417419433594,-17.35960578918457,0.18525147438049316,-0.0,-0.0,-1.0,0.14867670854335122,2.0,1
38.133296966552734,-19.059051513671875,0.5940666198730469,-0.0,-0.0,-1.0,0.25040979401100616,1.0,1
38.17619705200195,-19.027345657348633,0.5802745819091797,0.41287029429291294,0.6703867489922435,0.6165385039606971,0.22199946862453693,3.0,1
40.13615798950195,-18.809959411621094,0.6621357202529907,-0.0,-0.0,-1.0,0.1650950648045338,2.0,1
38.78935623168945,-17.65614128112793,0.6049373149871826,-0.0,-0.0,-1.0,0.16638732410793572,1.0,1
40.05757141113281,-18.97547149658203,0.4174916744232178,-0.0,-0.0,-1.0,0.14184768423890473,1.0,1
40.16172790527344,-18.30277442932129,-0.060791730880737305,-0.0,-0.0,-1.0,0.03884159276069253,1.0,0
38.669219970703125,-17.659650802612305,0.13742589950561523,-0.0,-0.0,-1.0,0.1256480358293961,1.0,1
39.10254669189453,-18.73307991027832,0.14537811279296875,-0.0,-0.0,-1.0,0.07031257990343695,2.0,1
38.619178771972656,-17.660932540893555,0.026540756225585938,-0.0,-0.0,-1.0,0.11100998579067775,1.0,1
39.06766891479492,-19.048995971679688,0.06955766677856445,-0.0,-0.0,-1.0,0.09771161566478727,1.0,1
39.030860900878906,-19.15595817565918,0.08379173278808594,-0.0,-0.0,-1.0,0.07629375207179034,1.0,1
40.157867431640625,-17.14786720275879,-0.07778334617614746,-0.0,-0.0,-1.0,0.0859668061737726,1.0,0
39.78520202636719,-18.972606658935547,0.11041855812072754,-0.0,-0.0,-1.0,0.14184699230352765,1.0,1
39.78070831298828,-18.905731201171875,0.10687136650085449,-0.0,-0.0,-1.0,0.13582382485858577,1.0,1
38.745079040527344,-17.694868087768555,0.18150019645690918,-0.0,-0.0,-1.0,0.1459779055731803,2.0,1
39.45409393310547,-19.35146713256836,0.7980427742004395,-0.0,-0.0,-1.0,0.2136849269041948,1.0,1
39.85529327392578,-19.101099014282227,0.19167661666870117,0.21858656544284574,-0.9481876604682912,-0.23056468494452817,0.18879108325768512,3.0,1
38.70003128051758,-17.750831604003906,0.44770026206970215,-0.0,-0.0,-1.0,0.11245966048268295,2.0,1
40.077064514160156,-17.078006744384766,-0.05210137367248535,-0.0,-0.0,-1.0,0.09736046399734294,2.0,0
40.01297378540039,-19.118244171142578,0.08347845077514648,-0.0,-0.0,-1.0,0.08434165533972769,1.0,1
39.79621887207031,-19.223697662353516,0.1233212947845459,-0.0,-0.0,-1.0,0.07443184906006975,2.0,1
39.395973205566406,-19.358219146728516,0.19377732276916504,-0.0,-0.0,-1.0,0.092510733332002,1.0,1
38.82136535644531,-17.741941452026367,0.18822216987609863,-0.0,-0.0,-1.0,0.17991705475623768,1.0,1
39.42039108276367,-19.30525016784668,0.23050665855407715,-0.0,-0.0,-1.0,0.1171158081811108,2.0,1
38.76319122314453,-17.81893539428711,0.2496337890625,-0.0,-0.0,-1.0,0.2439513467923145,1.0,1
38.989967346191406,-17.266572952270508,-0.11082696914672852,-0.0,-0.0,-1.0,0.13248775965982243,1.0,0
38.537681579589844,-17.67961311340332,-0.01397705078125,-0.0,-0.0,-1.0,0.08279467474449513,1.0,0
37.773170471191406,-16.973512649536133,0.09442639350891113,-0.0,-0.0,-1.0,0.1400644868241647,2.0,1
40.00623321533203,-18.944969177246094,0.41436243057250977,-0.0,-0.0,-1.0,0.14184768423890473,1.0,1
38.609092712402344,-17.816537857055664,0.46268773078918457,-0.0,-0.0,-1.0,0.16105588426173734,1.0,1
38.10053253173828,-19.12847328186035,0.5568742752075195,-0.0,-0.0,-1.0,0.1614673232702818,2.0,1
39.97173309326172,-18.930770874023438,0.252871036529541,-0.0,-0.0,-1.0,0.25615052968942104,2.0,1
38.71174621582031,-17.727319717407227,0.43886876106262207,-0.0,-0.0,-1.0,0.11245966048268291,2.0,1
38.081443786621094,-19.055997848510742,0.5485668182373047,0.43140842192802237,-0.5663820782646265,-0.702209452307654,0.20958454292126896,3.0,1
39.48057174682617,-19.361064910888672,0.978971004486084,-0.0,-0.0,-1.0,0.24452773391279517,2.0,1
39.27303695678711,-17.264301300048828,-0.06016111373901367,-0.0,-0.0,-1.0,0.10709182039724431,1.0,0
38.962581634521484,-17.945764541625977,-0.01722574234008789,-0.0,-0.0,-1.0,0.05723925281748137,1.0,0
38.7763671875,-17.632755279541016,0.02130889892578125,-0.0,-0.0,-1.0,0.11455906266224923,1.0,1
38.72428894042969,-18.18412208557129,0.01903820037841797,-0.0,-0.0,-1.0,0.0538957335718053,2.0,1
38.65727615356445,-17.811710357666016,0.038869380950927734,-0.0,-0.0,-1.0,0.21314899074107166,1.0,1
38.55455017089844,-17.718524932861328,0.05857992172241211,-0.0,-0.0,-1.0,0.10435618685782719,2.0,1
37.76560974121094,-16.974491119384766,0.20652174949645996,-0.89141599998137,-0.3579541225644353,-0.2779322959217572,0.1400644868241646,3.0,1
39.300987243652344,-18.277172088623047,0.19646000862121582,-0.0,-0.0,-1.0,0.08528639209751387,2.0,1
38.841819763183594,-17.931419372558594,0.007867813110351562,-0.0,-0.0,-1.0,0.07749728019670415,1.0,1
38.55287170410156,-18.123994827270508,0.04672551155090332,-0.0,-0.0,-1.0,0.05360391734228234,1.0,1
37.71464538574219,-17.005966186523438,0.21690964698791504,-0.0,-0.0,-1.0,0.14006448682416464,1.0,1
37.962059020996094,-18.171672821044922,0.13864541053771973,-0.0,-0.0,-1.0,0.09761960590417092,1.0,1
39.89303970336914,-16.946792602539062,-0.09845590591430664,-0.0,-0.0,-1.0,0.051414041603051984,1.0,0
39.91803741455078,-17.41455078125,-0.11258172988891602,-0.0,-0.0,-1.0,0.03725664691519951,2.0,0
39.07775115966797,-18.004901885986328,0.00032138824462890625,-0.0,-0.0,-1.0,0.048728561771891096,2.0,1
38.9400634765625,-17.565288543701172,0.034098148345947266,-0.0,-0.0,-1.0,0.25991608897979473,1.0,1
38.79278564453125,-18.16309356689453,0.03888082504272461,-0.0,-0.0,-1.0,0.05302796821954666,1.0,1
38.25242233276367,-18.33628273010254,0.11540603637695312,-0.0,-0.0,-1.0,0.13158266649089082,2.0,1
37.71720886230469,-16.955591201782227,0.23743557929992676,-0.0,-0.0,-1.0,0.12565932671018104,1.0,1
38.031646728515625,-18.490774154663086,0.1433730125427246,-0.0,-0.0,-1.0,0.09012322177629754,1.0,1
38.12567901611328,-18.243032455444336,0.1379683017730713,-0.0,-0.0,-1.0,0.14179998984141476,1.0,1
39.95227813720703,-17.112470626831055,-0.08463144302368164,0.20901819615206738,0.5747981116735457,-0.7911501276583741,0.09134614788000611,3.0,0
39.95695114135742,-17.580753326416016,-0.10042691230773926,-0.0,-0.0,-1.0,0.0361290017548696,1.0,0
39.12873840332031,-18.054065704345703,0.002724170684814453,-0.0,-0.0,-1.0,0.047834364056135184,1.0,1
39.134559631347656,-17.683399200439453,0.01608586311340332,-0.0,-0.0,-1.0,0.11439811217605617,1.0,1
39.038822174072266,-18.183462142944336,0.010530710220336914,-0.0,-0.0,-1.0,0.023152402776274388,1.0,1
38.736175537109375,-18.18575096130371,0.054268598556518555,-0.0,-0.0,-1.0,0.05906196829122343,2.0,1
39.77117156982422,-16.919395446777344,-0.11601591110229492,-0.0,-0.0,-1.0,0.04209923896849672,1.0,0
37.799503326416016,-18.485897064208984,0.17486023902893066,-0.0,-0.0,-1.0,0.11204832501773233,1.0,1
37.76896286010742,-18.671180725097656,0.11617207527160645,-0.0,-0.0,-1.0,0.13396498861837833,2.0,1
37.7987060546875,-16.90719223022461,0.04286599159240723,0.6780402757673262,-0.7240951566065379,0.1262837622828912,0.1023641869679309,3.0,1
38.000709533691406,-16.940582275390625,0.023322105407714844,-0.0,-0.0,-1.0,0.08436225934684341,1.0,1
37.92301940917969,-18.57195472717285,0.15729689598083496,-0.0,-0.0,-1.0,0.15606432780471585,2.0,1
38.77290725708008,-18.60611915588379,0.07316088676452637,-0.0,-0.0,-1.0,0.06168444002706058,2.0,1
37.908233642578125,-18.600849151611328,0.13619565963745117,-0.6807050981576328,0.6260852330507548,-0.38033912538416215,0.15139593665263887,3.0,1
37.88362121582031,-16.875240325927734,0.17301177978515625,-0.0,-0.0,-1.0,0.10376581572485097,2.0,1
37.76642990112305,-16.956119537353516,0.18023014068603516,0.07466146077351252,-0.8237314381758226,-0.5620428667245547,0.14006448682416467,4.0,1
38.25740432739258,-19.009780883789062,0.455216646194458,-0.0,-0.0,-1.0,0.14623449719788675,1.0,1
40.118202209472656,-18.849668502807617,-0.15342068672180176,-0.0,-0.0,-1.0,0.10307126758654392,1.0,0
38.033538818359375,-18.661840438842773,0.06643390655517578,-0.0,-0.0,-1.0,0.07316443802110727,1.0,1
37.813716888427734,-17.55060577392578,-0.19707679748535156,-0.0,-0.0,-1.0,0.03291737886105115,1.0,0
39.060550689697266,-16.88932991027832,-0.07401800155639648,-0.0,-0.0,-1.0,0.05303407649103512,1.0,0
37.82203674316406,-17.934511184692383,0.018126487731933594,-0.0,-0.0,-1.0,0.024919994878753966,1.0,1
37.8469352722168,-17.734785079956055,0.028180599212646484,-0.0,-0.0,-1.0,0.019796666506113527,1.0,1
39.91607666015625,-18.794586181640625,-0.015657424926757812,-0.0,-0.0,-1.0,0.127467776390099,1.0,0
39.21089172363281,-18.78424835205078,0.060672760009765625,-0.0,-0.0,-1.0,0.14418217078260182,1.0,1
39.236961364746094,-18.59304428100586,0.07543325424194336,-0.0,-0.0,-1.0,0.22469376898662524,1.0,1
38.245689392089844,-18.56015396118164,0.18418550491333008,-0.0,-0.0,-1.0,0.09183988943894118,1.0,1
37.76897048950195,-18.594329833984375,0.23172998428344727,-0.0,-0.0,-1.0,0.14172673397225474,1.0,1
39.418216705322266,-19.288087844848633,0.15126705169677734,-0.0,-0.0,-1.0,0.09251073333200201,2.0,1
38.24393844604492,-18.82353973388672,0.2899637222290039,-0.0,-0.0,-1.0,0.11249974874759226,1.0,1
37.949886322021484,-18.784128189086914,0.3127446174621582,-0.0,-0.0,-1.0,0.07777273405566514,1.0,1
37.71149826049805,-18.76669692993164,0.5735292434692383,-0.0,-0.0,-1.0,0.0926985538446665,1.0,1
38.12932586669922,-18.959442138671875,0.3539414405822754,-0.0,-0.0,-1.0,0.10974713590352649,2.0,1
38.8497314453125,-17.436798095703125,-0.05046987533569336,-0.0,-0.0,-1.0,0.11438899958956411,2.0,0
39.403480529785156,-17.602848052978516,-0.12275838851928711,-0.0,-0.0,-1.0,0.0563016229135275,2.0,0
39.658077239990234,-17.43124008178711,-0.11376762390136719,-0.0,-0.0,-1.0,0.007360635536029808,2.0,0
40.125457763671875,-17.433189392089844,-0.15171575546264648,-0.0,-0.0,-1.0,0.03877412610542443,1.0,0
39.93665313720703,-17.1005859375,-0.0801248550415039,-0.0,-0.0,-1.0,0.09134614788000608,2.0,0
40.09492111206055,-17.037338256835938,-0.08237886428833008,-0.0,-0.0,-1.0,0.1115085929450686,1.0,0
37.83915710449219,-16.881168365478516,0.12471389770507812,-0.0,-0.0,-1.0,0.07928441446216161,2.0,1
37.81229782104492,-16.962203979492188,0.021031856536865234,-0.0,-0.0,-1.0,0.1202140304890626,1.0,1
38.37107849121094,-17.050228118896484,-0.04778242111206055,-0.0,-0.0,-1.0,0.024438420634804118,2.0,0
39.99217224121094,-18.62860870361328,-0.03591203689575195,-0.0,-0.0,-1.0,0.09477342472620666,1.0,0
40.16477966308594,-18.40353775024414,-0.02487325668334961,-0.0,-0.0,-1.0,0.03678544927426211,1.0,0
37.99778747558594,-18.64642333984375,0.18111753463745117,-0.0,-0.0,-1.0,0.10704754783765776,1.0,1
38.53935623168945,-18.729625701904297,0.11076784133911133,-0.0,-0.0,-1.0,0.03904781936203691,1.0,1
38.760169982910156,-18.635822296142578,0.09990835189819336,-0.0,-0.0,-1.0,0.0695850305382266,2.0,1
38.76905059814453,-18.044723510742188,0.1813669204711914,-0.0,-0.0,-1.0,0.11130609096729661,1.0,1
39.07575225830078,-18.61440658569336,0.06822443008422852,-0.0,-0.0,-1.0,0.0708541982750548,1.0,1
39.414329528808594,-18.700653076171875,0.01874685287475586,-0.0,-0.0,-1.0,0.17054381152278766,2.0,1
38.731109619140625,-17.843135833740234,0.21339082717895508,-0.0,-0.0,-1.0,0.2111157386791744,1.0,1
37.712215423583984,-18.275848388671875,0.13677263259887695,-0.0,-0.0,-1.0,0.05458883908491425,1.0,1
38.86189651489258,-17.449249267578125,-0.01952981948852539,-0.0,-0.0,-1.0,0.15965238881226262,2.0,0
39.159976959228516,-17.242450714111328,-0.06243276596069336,-0.0,-0.0,-1.0,0.14001910919445246,1.0,0
37.77914047241211,-17.004209518432617,0.2013993263244629,-0.0,-0.0,-1.0,0.12729393843759568,2.0,1
38.02674102783203,-17.06533432006836,0.19112396240234375,-0.0,-0.0,-1.0,0.10448462332145406,1.0,1
38.70616149902344,-17.145627975463867,0.058333396911621094,-0.0,-0.0,-1.0,0.07686876914285574,1.0,1
38.75531005859375,-17.020498275756836,0.052351951599121094,-0.0,-0.0,-1.0,0.08852800794304053,1.0,1
38.06664276123047,-17.451072692871094,0.09555864334106445,-0.0,-0.0,-1.0,0.03857407606969457,1.0,1
38.52800369262695,-17.175626754760742,0.037878990173339844,-0.0,-0.0,-1.0,0.058419829500702916,1.0,1
38.352272033691406,-17.289525985717773,0.05949211120605469,-0.0,-0.0,-1.0,0.03173828289155909,1.0,1
37.768802642822266,-18.77802848815918,0.41400575637817383,-0.0,-0.0,-1.0,0.1009874079861736,1.0,1
38.50916290283203,-18.197383880615234,0.23972749710083008,-0.0,-0.0,-1.0,0.1463265997053938,1.0,1
38.61190414428711,-18.052244186401367,0.21085453033447266,-0.0,-0.0,-1.0,0.1561236020529215,1.0,1
39.378578186035156,-17.783842086791992,0.0555109977722168,-0.0,-0.0,-1.0,0.08628509248118846,1.0,1
