x,y,z,nx,ny,nz,curvature,density,label
16.716705322265625,-23.978872299194336,1.056969165802002,-0.0,-0.0,-1.0,0.11170307931980449,1.0,2
16.67477035522461,-24.18076515197754,1.054724931716919,-0.0,-0.0,-1.0,0.09736271340310788,1.0,2
17.1765193939209,-22.08466148376465,1.3136287927627563,-0.0,-0.0,-1.0,0.15074850679519491,1.0,2
16.704069137573242,-22.120237350463867,1.3681191205978394,-0.0,-0.0,-1.0,0.2760406921337171,2.0,2
16.474523544311523,-21.895824432373047,1.304564118385315,-0.0,-0.0,-1.0,0.13188208340963217,1.0,2
17.378128051757812,-22.921653747558594,1.1565500497817993,-0.0,-0.0,-1.0,0.18843122698828768,1.0,2
16.861907958984375,-22.594207763671875,1.2898472547531128,-0.9382632053556362,0.053873136285723,0.34170139400141103,0.13122460687810872,3.0,2
16.543596267700195,-22.477680206298828,1.3624846935272217,-0.0,-0.0,-1.0,0.21425024422836106,1.0,2
16.32120132446289,-22.381982803344727,1.4653172492980957,-0.0,-0.0,-1.0,0.19476001772014795,1.0,2
15.831604957580566,-22.01062774658203,1.3506865501403809,-0.0,-0.0,-1.0,0.20515894631036122,1.0,2
15.681411743164062,-22.015968322753906,1.3232274055480957,-0.0,-0.0,-1.0,0.14767668930024047,1.0,2
17.67574119567871,-23.281044006347656,1.3932852745056152,-0.0,-0.0,-1.0,0.17206980473098527,2.0,2
16.75396156311035,-22.88300895690918,1.2874469757080078,0.6406990014792949,-0.014062890089962777,-0.7676633537076993,0.12779795716168446,3.0,2
16.50453758239746,-22.861919403076172,1.23007071018219,-0.0,-0.0,-1.0,0.15715927270909563,1.0,2
16.119281768798828,-22.744720458984375,1.293458342552185,0.35718236529136355,-0.22184500809630825,-0.9073067564542963,0.16981428398342135,3.0,2
15.702311515808105,-22.481975555419922,1.355289340019226,-0.0,-0.0,-1.0,0.2453588162657023,1.0,2
17.575515747070312,-23.598094940185547,1.2623662948608398,-0.0,-0.0,-1.0,0.11392883000013837,2.0,2
16.78009796142578,-23.595596313476562,1.3370414972305298,-0.0,-0.0,-1.0,0.10682014574708995,2.0,2
16.242172241210938,-23.194700241088867,1.3444852828979492,-0.0,-0.0,-1.0,0.27906476970984495,1.0,2
16.074871063232422,-23.03876495361328,1.3010203838348389,-0.0,-0.0,-1.0,0.19825446434819602,1.0,2
16.928861618041992,-23.779277801513672,1.3803950548171997,-0.23289183987993534,0.45796921166538596,-0.857919338914751,0.17488651821945222,4.0,2
16.537059783935547,-23.56556510925293,1.2797027826309204,-0.0,-0.0,-1.0,0.26383438673348947,1.0,2
16.083160400390625,-23.637094497680664,1.3303656578063965,-0.0,-0.0,-1.0,0.14436946487590122,2.0,2
15.92529010772705,-23.566814422607422,1.4488718509674072,-0.0,-0.0,-1.0,0.1316042664042356,2.0,2
16.868114471435547,-24.27998924255371,1.3861453533172607,-0.0,-0.0,-1.0,0.1534789769109783,1.0,2
16.226335525512695,-24.150510787963867,1.231865406036377,-0.0,-0.0,-1.0,0.2042010254810809,2.0,2
15.979042053222656,-23.925647735595703,1.3194177150726318,-0.0,-0.0,-1.0,0.2310721013587138,1.0,2
15.802335739135742,-23.759124755859375,1.2760937213897705,-0.0,-0.0,-1.0,0.19588607132144192,2.0,2
15.837594985961914,-24.307172775268555,1.3000060319900513,-0.0,-0.0,-1.0,0.14548372768186896,2.0,2
15.582144737243652,-24.288103103637695,1.4011867046356201,-0.0,-0.0,-1.0,0.14267264973215688,2.0,2
16.990947723388672,-22.209325790405273,1.5770518779754639,-0.0,-0.0,-1.0,0.22536370647917328,2.0,2
16.797727584838867,-22.238420486450195,1.5439189672470093,-0.0,-0.0,-1.0,0.25640596160241946,2.0,2
16.384748458862305,-22.08710479736328,1.7668319940567017,-0.23725681331093065,0.22745058981053767,-0.9444445106687746,0.18023609164687862,3.0,2
16.511075973510742,-22.578628540039062,1.6640743017196655,0.5367199865693066,-0.594577020274506,-0.5986733858946238,0.2091255401009594,4.0,2
16.372955322265625,-22.40633201599121,1.7813128232955933,-0.0,-0.0,-1.0,0.17944418950945656,2.0,2
15.931260108947754,-21.99188804626465,1.693200945854187,-0.0,-0.0,-1.0,0.21396766725100994,1.0,2
15.464959144592285,-21.9564151763916,1.6203144788742065,-0.0,-0.0,-1.0,0.1769979804526015,2.0,2
16.630699157714844,-23.10303497314453,1.5653611421585083,-0.0,-0.0,-1.0,0.17937943502839834,2.0,2
16.382078170776367,-22.623882293701172,1.7931209802627563,0.058084211519236456,0.5487005843480119,0.8339987368745464,0.14916919905369305,6.0,2
16.049415588378906,-22.747379302978516,1.746670126914978,-0.0,-0.0,-1.0,0.17938370739659085,2.0,2
15.694560050964355,-22.40595054626465,1.6768651008605957,-0.0,-0.0,-1.0,0.18920568468556356,1.0,2
15.34561824798584,-22.41496467590332,1.622902274131775,-0.0,-0.0,-1.0,0.18824018676659027,2.0,2
16.924354553222656,-23.589736938476562,1.6447701454162598,-0.0,-0.0,-1.0,0.20510306818659318,2.0,2
16.852249145507812,-23.453935623168945,1.624855875968933,-0.0,-0.0,-1.0,0.17587322077185044,1.0,2
16.28472137451172,-23.169574737548828,1.6532483100891113,-0.0,-0.0,-1.0,0.20824314527616564,1.0,2
15.98437213897705,-23.07590675354004,1.7490736246109009,-0.0,-0.0,-1.0,0.21949188073913645,1.0,2
15.566174507141113,-22.950725555419922,1.6783753633499146,-0.0,-0.0,-1.0,0.16030542420263647,1.0,2
16.840499877929688,-23.863788604736328,1.7758543491363525,-0.6317222849693973,-0.7099815115426202,-0.31121248037426075,0.17189130089431257,4.0,2
16.667076110839844,-23.6236572265625,1.737410545349121,-0.0,-0.0,-1.0,0.2732756101983076,1.0,2
16.186267852783203,-23.434547424316406,1.7931894063949585,-0.0,-0.0,-1.0,0.2292668710818075,2.0,2
15.848515510559082,-23.453292846679688,1.7395962476730347,-0.0,-0.0,-1.0,0.14758372725227722,1.0,2
15.259183883666992,-23.20486831665039,1.6377500295639038,-0.0,-0.0,-1.0,0.2188766090092959,1.0,2
16.138015747070312,-24.20625877380371,1.5102957487106323,-0.0,-0.0,-1.0,0.28264890618513394,1.0,2
15.612447738647461,-23.683048248291016,1.7074836492538452,-0.0,-0.0,-1.0,0.19901269488639167,1.0,2
15.241110801696777,-23.717681884765625,1.6480027437210083,-0.0,-0.0,-1.0,0.07511952760354634,2.0,2
16.062009811401367,-24.221927642822266,1.7913812398910522,-0.0,-0.0,-1.0,0.2219142614954962,1.0,2
15.419644355773926,-24.113019943237305,1.6843632459640503,-0.0,-0.0,-1.0,0.2102158528939772,1.0,2
15.70416259765625,-22.274776458740234,1.9974597692489624,0.8538089723143991,0.4813054448411821,0.19838172184367686,0.12919110796369399,3.0,2
15.33010482788086,-21.972270965576172,1.9420360326766968,-0.12455097979224511,0.9774135093278727,0.1707333746405911,0.20967577909557783,3.0,2
15.347772598266602,-22.383358001708984,2.123384475708008,-0.5246398855755399,0.25900845979896486,-0.810967082079077,0.24034341647709923,3.0,3
16.90117835998535,-23.584510803222656,1.9121052026748657,-0.0,-0.0,-1.0,0.19789924800774053,1.0,2
15.848421096801758,-23.03131103515625,2.03670072555542,-0.0,-0.0,-1.0,0.15454524055851146,1.0,3
15.653528213500977,-22.907238006591797,2.009366989135742,-0.0,-0.0,-1.0,0.2573845515169218,1.0,3
15.213074684143066,-22.657941818237305,2.11710262298584,-0.3818153477047163,0.8671519154413297,-0.31978836095699253,0.13546309647455437,3.0,3
16.95093536376953,-23.872390747070312,1.9285041093826294,-0.7779393524300464,-0.3452123937109818,-0.525013111425852,0.20947303974191397,4.0,2
15.670278549194336,-23.44305419921875,2.0230441093444824,-0.0,-0.0,-1.0,0.19404831760339838,1.0,3
15.34233570098877,-23.17473030090332,2.139444351196289,0.19671924511642996,-0.8682146467031973,-0.4555270198910968,0.27294866288061675,4.0,3
17.070232391357422,-24.298194885253906,1.957471489906311,-0.0,-0.0,-1.0,0.14624347862106649,2.0,2
16.235685348510742,-24.116849899291992,2.1051454544067383,-0.0,-0.0,-1.0,0.23141995666899756,2.0,3
15.934775352478027,-24.110530853271484,2.0664470195770264,-0.0,-0.0,-1.0,0.15473136982180097,1.0,3
15.640231132507324,-23.84136390686035,2.0255250930786133,-0.0,-0.0,-1.0,0.1670523022186478,2.0,3
15.390951156616211,-23.81878662109375,1.9933773279190063,-0.0,-0.0,-1.0,0.14729143296950756,1.0,2
15.837967872619629,-24.329317092895508,2.0557644367218018,0.7321720683399057,-0.6487952250706194,-0.20733745023133038,0.11304710440391164,3.0,3
15.487288475036621,-24.14139747619629,2.0090808868408203,-0.0,-0.0,-1.0,0.23106389736933267,2.0,3
16.999998092651367,-22.17863655090332,1.011094093322754,-0.0,-0.0,-1.0,0.20372219338560627,2.0,2
16.842329025268555,-22.01154327392578,0.9508600234985352,-0.0,-0.0,-1.0,0.1647216642506105,1.0,1
16.852508544921875,-22.490169525146484,1.009211778640747,-0.0,-0.0,-1.0,0.1867207387885162,2.0,2
16.683433532714844,-22.323692321777344,0.9476525783538818,-0.0,-0.0,-1.0,0.1761482669216797,1.0,1
16.6058292388916,-22.882001876831055,0.9851367473602295,-0.0,-0.0,-1.0,0.20818580600955303,1.0,1
16.49634552001953,-22.654481887817383,0.9344706535339355,-0.0,-0.0,-1.0,0.1471083832128101,1.0,1
16.55388641357422,-23.374774932861328,1.0143544673919678,-0.0,-0.0,-1.0,0.1998455718402401,1.0,2
16.480480194091797,-23.218839645385742,0.9818761348724365,-0.0,-0.0,-1.0,0.15104345056504875,1.0,1
16.48567008972168,-23.831153869628906,1.0281848907470703,-0.0,-0.0,-1.0,0.06634463259581168,1.0,2
16.47003746032715,-23.46004867553711,0.9983391761779785,-0.0,-0.0,-1.0,0.16315402873349819,1.0,1
16.450193405151367,-24.056583404541016,1.0317203998565674,-0.0,-0.0,-1.0,0.04818216673538653,1.0,2
16.692522048950195,-22.048954010009766,1.2122870683670044,-0.0,-0.0,-1.0,0.1691141869799713,1.0,2
17.688255310058594,-23.310802459716797,1.3107852935791016,-0.5938141651121761,0.7248936022185939,-0.3491618575599002,0.15133458005068742,3.0,2
16.728527069091797,-22.518436431884766,1.2662882804870605,-0.0,-0.0,-1.0,0.14679273183133418,1.0,2
16.556547164916992,-22.289154052734375,1.2062273025512695,-0.0,-0.0,-1.0,0.21770224747254888,2.0,2
16.22561264038086,-21.96501350402832,1.4074124097824097,-0.0,-0.0,-1.0,0.13305499412416302,1.0,2
15.842124938964844,-21.915006637573242,1.331199049949646,-0.0,-0.0,-1.0,0.1866341638715004,1.0,2
16.640750885009766,-22.810243606567383,1.272066354751587,-0.0,-0.0,-1.0,0.12947422341566353,1.0,2
16.481605529785156,-22.585586547851562,1.2168183326721191,-0.0,-0.0,-1.0,0.1804071100691301,1.0,2
15.943982124328613,-22.455806732177734,1.3922523260116577,-0.0,-0.0,-1.0,0.19852586340355496,2.0,2
15.679447174072266,-22.208019256591797,1.3229212760925293,-0.0,-0.0,-1.0,0.19319078445738405,2.0,2
17.688392639160156,-24.223575592041016,1.3809375762939453,-0.0,-0.0,-1.0,0.0984408107984118,1.0,2
16.915342330932617,-23.67900276184082,1.267107605934143,-0.0,-0.0,-1.0,0.1690217491969016,1.0,2
16.5980167388916,-23.523000717163086,1.31510329246521,-0.0,-0.0,-1.0,0.29118872301712784,1.0,2
16.348360061645508,-23.27155113220215,1.2401188611984253,-0.0,-0.0,-1.0,0.19625891755392186,1.0,2
16.037450790405273,-22.9510498046875,1.2960660457611084,-0.0,-0.0,-1.0,0.18097378234274367,2.0,2
15.877474784851074,-22.642601013183594,1.3924734592437744,-0.12413440736322519,-0.025373989861546337,-0.991940930472721,0.1976058001642094,3.0,2
15.629136085510254,-22.517358779907227,1.3357964754104614,-0.0,-0.0,-1.0,0.2516865775549115,1.0,2
16.907970428466797,-23.834951400756836,1.274557113647461,-0.0,-0.0,-1.0,0.16043396083291273,1.0,2
16.53032112121582,-23.645694732666016,1.167972207069397,-0.0,-0.0,-1.0,0.21365496443053872,2.0,2
16.286521911621094,-23.42639923095703,1.235904335975647,-0.0,-0.0,-1.0,0.14437408646544633,1.0,2
16.510726928710938,-24.230270385742188,1.0574429035186768,-0.0,-0.0,-1.0,0.05079328635338979,1.0,2
16.33384132385254,-24.10527229309082,1.1457197666168213,-0.0,-0.0,-1.0,0.15902938459214402,2.0,2
16.0073299407959,-23.80653953552246,1.192044973373413,-0.0,-0.0,-1.0,0.26444876067922984,1.0,2
15.670520782470703,-23.685869216918945,1.4102495908737183,-0.0,-0.0,-1.0,0.11161981482787223,1.0,2
15.722546577453613,-23.988590240478516,1.2848304510116577,-0.0,-0.0,-1.0,0.22808011894606342,1.0,2
15.557480812072754,-23.92959976196289,1.3974127769470215,-0.0,-0.0,-1.0,0.16664583921889103,1.0,2
16.99658966064453,-22.206295013427734,1.5718680620193481,-0.0,-0.0,-1.0,0.21536820663779863,2.0,2
16.774738311767578,-21.890113830566406,1.5023865699768066,-0.0,-0.0,-1.0,0.20292570631151527,2.0,2
17.67442512512207,-23.145259857177734,1.53519606590271,-0.7332756959409507,-0.3409783367706144,-0.5882520952750276,0.1455810588850484,3.0,2
17.624528884887695,-23.17605972290039,1.5265061855316162,-0.0,-0.0,-1.0,0.21917067264315512,1.0,2
16.813955307006836,-22.455602645874023,1.5584079027175903,-0.0,-0.0,-1.0,0.22907805362175254,2.0,2
16.505474090576172,-22.289329528808594,1.631213665008545,-0.0,-0.0,-1.0,0.30785753798025123,2.0,2
16.267915725708008,-22.018409729003906,1.7192761898040771,-0.0,-0.0,-1.0,0.23825540487754096,1.0,2
16.696348190307617,-23.089540481567383,1.5816658735275269,-0.0,-0.0,-1.0,0.10299944678377683,1.0,2
16.405017852783203,-22.549448013305664,1.6325541734695435,-0.0,-0.0,-1.0,0.1660752613131656,1.0,2
16.2009220123291,-22.36476707458496,1.5837552547454834,-0.0,-0.0,-1.0,0.2239668228988032,1.0,2
15.698454856872559,-22.281421661376953,1.6467946767807007,-0.0,-0.0,-1.0,0.25185754092007423,2.0,2
15.43453311920166,-21.916088104248047,1.5826441049575806,0.6206385350808798,-0.24219637815172476,-0.7457537952855796,0.12500019813994726,3.0,2
17.625957489013672,-24.16278839111328,1.5946393013000488,-0.0,-0.0,-1.0,0.1605931956340923,1.0,2
16.9620304107666,-23.677486419677734,1.6685670614242554,-0.0,-0.0,-1.0,0.2371253878234427,1.0,2
16.392017364501953,-23.181167602539062,1.527709722518921,-0.0,-0.0,-1.0,0.18474078581058098,1.0,2
16.06036376953125,-22.924211502075195,1.5934739112854004,-0.0,-0.0,-1.0,0.2501659477193455,2.0,2
15.615358352661133,-22.78264617919922,1.6614866256713867,-0.0,-0.0,-1.0,0.214371759237007,1.0,2
15.426581382751465,-22.453187942504883,1.6134412288665771,-0.0,-0.0,-1.0,0.23787247921525512,1.0,2
17.219757080078125,-24.32421875,1.6269371509552002,-0.0,-0.0,-1.0,0.1753535822468464,1.0,2
16.904935836791992,-23.770105361938477,1.6619592905044556,0.9604710566548087,0.03177564756768314,-0.2765604048848095,0.2221811219482504,5.0,2
16.124862670898438,-23.408756256103516,1.6315946578979492,-0.0,-0.0,-1.0,0.22043115437599983,1.0,2
15.939780235290527,-23.271556854248047,1.5915195941925049,-0.0,-0.0,-1.0,0.25698164302582316,1.0,2
15.52328109741211,-23.06648063659668,1.6602699756622314,-0.0,-0.0,-1.0,0.18697178012451082,2.0,2
15.255108833312988,-22.789676666259766,1.6034610271453857,-0.0,-0.0,-1.0,0.14678342328397442,1.0,2
16.118331909179688,-24.12261390686035,1.6576533317565918,-0.0,-0.0,-1.0,0.2416944969597915,2.0,2
15.833962440490723,-23.80193328857422,1.4481911659240723,-0.0,-0.0,-1.0,0.21249581077130908,1.0,2
15.753454208374023,-23.620494842529297,1.5745769739151,-0.0,-0.0,-1.0,0.24251807393057834,1.0,2
15.264573097229004,-23.427215576171875,1.6331193447113037,-0.0,-0.0,-1.0,0.12669508138253271,1.0,2
16.176965713500977,-24.344993591308594,1.8152958154678345,-0.0,-0.0,-1.0,0.15582205055076134,1.0,2
15.842055320739746,-24.12975311279297,1.6091437339782715,-0.0,-0.0,-1.0,0.17527033653944443,1.0,2
15.367470741271973,-23.925661087036133,1.6675370931625366,-0.0,-0.0,-1.0,0.20970989945328747,1.0,2
15.342575073242188,-24.206626892089844,1.6713610887527466,-0.0,-0.0,-1.0,0.19920661206524423,2.0,2
15.709362030029297,-22.26789665222168,1.9583905935287476,0.8538089723143991,0.4813054448411821,0.19838172184367686,0.21741294423963095,3.0,2
15.299104690551758,-21.9252872467041,1.8908061981201172,-0.0,-0.0,-1.0,0.23117070812374854,1.0,2
16.94955062866211,-23.671829223632812,1.9210302829742432,-0.0,-0.0,-1.0,0.1764514551812662,1.0,2
15.911169052124023,-22.949382781982422,2.0131688117980957,-0.0,-0.0,-1.0,0.15624769844859915,2.0,3
15.783958435058594,-22.88596534729004,1.9943945407867432,-0.0,-0.0,-1.0,0.16462602854726635,2.0,2
15.474853515625,-22.48923110961914,1.9386500120162964,-0.0,-0.0,-1.0,0.2376863426753247,2.0,2
17.046091079711914,-24.2691707611084,1.9590696096420288,-0.0,-0.0,-1.0,0.15100088620911048,2.0,2
16.937185287475586,-23.860246658325195,1.9267786741256714,0.17992665112213346,0.06425794451958777,-0.9815789916161063,0.20947303974191384,3.0,2
16.61939239501953,-23.579687118530273,1.8629140853881836,-0.0,-0.0,-1.0,0.2036626419250526,1.0,2
15.856161117553711,-23.292560577392578,2.0185253620147705,-0.0,-0.0,-1.0,0.20858040596417124,1.0,3
15.526469230651855,-23.108701705932617,1.969452977180481,-0.0,-0.0,-1.0,0.2043146527884461,1.0,2
15.282806396484375,-22.847368240356445,1.9285081624984741,-0.0,-0.0,-1.0,0.18542069409579626,1.0,2
16.985870361328125,-24.332048416137695,1.950839638710022,-0.0,-0.0,-1.0,0.1491094488419436,2.0,2
16.292570114135742,-24.091266632080078,2.0991268157958984,0.15299754500936383,-0.8916123624678107,0.4261679789891269,0.17417999958837627,3.0,3
15.90413761138916,-24.02281951904297,2.046102523803711,-0.0,-0.0,-1.0,0.1829662214176614,1.0,3
15.651034355163574,-23.61870574951172,2.0020644664764404,-0.0,-0.0,-1.0,0.09777099575060894,1.0,3
15.374003410339355,-23.3117733001709,1.9565621614456177,-0.0,-0.0,-1.0,0.282512377450981,1.0,2
15.811076164245605,-24.23464584350586,2.038457155227661,-0.0,-0.0,-1.0,0.20025648794988618,1.0,3
15.453039169311523,-23.90203094482422,1.9834469556808472,-0.0,-0.0,-1.0,0.23830782978571363,1.0,2
15.371503829956055,-22.3504581451416,2.237352132797241,0.09560525343250888,-0.7111446506575285,-0.6965148392943876,0.197995955736176,5.0,3
15.356139183044434,-22.853675842285156,2.2504563331604004,-0.0,-0.0,-1.0,0.13384845241786042,1.0,3
16.538131713867188,-22.15966033935547,0.9749100208282471,-0.0,-0.0,-1.0,0.182899699798449,1.0,1
16.39315414428711,-22.57082748413086,0.9751114845275879,-0.0,-0.0,-1.0,0.17438131339095989,1.0,1
16.2630615234375,-22.882326126098633,0.9650259017944336,-0.0,-0.0,-1.0,0.10152043137325813,1.0,1
16.90932846069336,-22.138137817382812,1.206018090248108,-0.0,-0.0,-1.0,0.2536396578153387,1.0,2
17.554615020751953,-23.26584815979004,1.3530666828155518,-0.0,-0.0,-1.0,0.28687926546676723,1.0,2
16.807607650756836,-22.581668853759766,1.0892515182495117,-0.6336998886412142,0.6773437580627177,0.373670823786909,0.12427466302630402,4.0,2
16.701026916503906,-22.287826538085938,1.1693685054779053,-0.0,-0.0,-1.0,0.1651949206774033,1.0,2
16.582683563232422,-22.1280517578125,1.1246196031570435,-0.0,-0.0,-1.0,0.23887360972508018,2.0,2
16.672897338867188,-22.87262725830078,1.2101317644119263,-0.0,-0.0,-1.0,0.20072302416688437,1.0,2
16.535724639892578,-22.548789978027344,1.1506619453430176,-0.0,-0.0,-1.0,0.22032269377366137,1.0,2
16.096832275390625,-22.49420738220215,1.178510308265686,-0.0,-0.0,-1.0,0.17940607846887763,1.0,2
16.087432861328125,-21.90566635131836,1.1279770135879517,-0.0,-0.0,-1.0,0.15028567771549142,1.0,2
15.640373229980469,-21.945676803588867,1.335923671722412,-0.0,-0.0,-1.0,0.22934443582809608,1.0,2
16.901023864746094,-23.742841720581055,1.2008724212646484,-0.006501943951653155,-0.7745387386300346,-0.632493056947066,0.202279121309603,3.0,2
16.626285552978516,-23.497703552246094,1.1091995239257812,-0.0,-0.0,-1.0,0.2839816007173412,1.0,2
16.374855041503906,-23.2479248046875,1.1596816778182983,-0.0,-0.0,-1.0,0.19357966285168315,1.0,2
16.11502456665039,-22.891761779785156,1.2103524208068848,-0.0,-0.0,-1.0,0.20242138642023894,1.0,2
16.05325698852539,-22.662750244140625,1.1802600622177124,-0.0,-0.0,-1.0,0.13126984549908038,2.0,2
15.633119583129883,-22.349912643432617,1.2115700244903564,0.2854639570329842,-0.9364720958857664,-0.20378994789338967,0.15505867773074228,4.0,2
16.88912010192871,-23.980443954467773,1.2027696371078491,-0.0,-0.0,-1.0,0.18537789402147312,1.0,2
16.27753257751465,-23.74148178100586,1.0230557918548584,-0.0,-0.0,-1.0,0.10512304823573584,1.0,2
16.220598220825195,-23.407978057861328,1.1292688846588135,-0.0,-0.0,-1.0,0.1801822944123914,1.0,2
16.10015106201172,-23.18121337890625,1.2243257761001587,-0.0,-0.0,-1.0,0.22368909900544898,1.0,2
15.432016372680664,-22.4628849029541,1.3263638019561768,-0.0,-0.0,-1.0,0.2276253093613014,1.0,2
16.301166534423828,-24.251554489135742,1.180204153060913,-0.0,-0.0,-1.0,0.1843351603257578,1.0,2
16.21513557434082,-24.045551300048828,1.1543117761611938,-0.0,-0.0,-1.0,0.16488164949419665,1.0,2
15.88467788696289,-23.730064392089844,1.1969871520996094,-0.0,-0.0,-1.0,0.17442306648914432,1.0,2
15.73578929901123,-23.31095314025879,1.1415975093841553,-0.0,-0.0,-1.0,0.11322172457818314,1.0,2
15.882835388183594,-24.316205978393555,1.2075152397155762,-0.0,-0.0,-1.0,0.19150089562970496,1.0,2
15.645938873291016,-23.89740753173828,1.1434506177902222,-0.0,-0.0,-1.0,0.15853530719816455,1.0,2
16.89891242980957,-22.08729362487793,1.5974920988082886,-0.0,-0.0,-1.0,0.21904168938560314,2.0,2
16.673871994018555,-22.358898162841797,1.5728241205215454,-0.0,-0.0,-1.0,0.19266420205877624,1.0,2
16.503555297851562,-22.128387451171875,1.6595287322998047,-0.0,-0.0,-1.0,0.16821348693860008,1.0,2
17.645524978637695,-24.14685821533203,1.541940450668335,-0.0,-0.0,-1.0,0.12585279675336702,1.0,2
16.651084899902344,-22.988492965698242,1.6077027320861816,-0.0,-0.0,-1.0,0.15659937037491375,1.0,2
16.48065948486328,-22.552553176879883,1.5466207265853882,-0.0,-0.0,-1.0,0.12182989788830206,2.0,2
16.267595291137695,-22.384735107421875,1.6312789916992188,-0.0,-0.0,-1.0,0.2193107035004491,2.0,2
15.968746185302734,-21.947437286376953,1.5487422943115234,-0.0,-0.0,-1.0,0.17629515196424903,2.0,2
17.21248435974121,-24.20749282836914,1.659989356994629,-0.0,-0.0,-1.0,0.15603305234157724,1.0,2
16.888442993164062,-23.730018615722656,1.5693786144256592,-0.0,-0.0,-1.0,0.13494836440759467,2.0,2
16.831750869750977,-23.55268096923828,1.548668384552002,-0.0,-0.0,-1.0,0.18496061841276634,1.0,2
16.297563552856445,-23.07760238647461,1.5389878749847412,-0.0,-0.0,-1.0,0.2633273556894347,1.0,2
16.03221893310547,-22.910945892333984,1.6146615743637085,-0.0,-0.0,-1.0,0.20061068794664919,2.0,2
15.956338882446289,-22.66338539123535,1.5874677896499634,-0.0,-0.0,-1.0,0.18093529993970114,1.0,2
15.620485305786133,-22.300090789794922,1.5074923038482666,-0.20716402252146987,0.8275319276649025,-0.5217987892549527,0.2047648797653092,3.0,2
16.71344566345215,-23.800796508789062,1.65726637840271,-0.0,-0.0,-1.0,0.17167162924897175,1.0,2
15.919170379638672,-23.39918327331543,1.7527395486831665,-0.0,-0.0,-1.0,0.28967225484623105,1.0,2
15.871545791625977,-23.139925003051758,1.5942697525024414,-0.0,-0.0,-1.0,0.20816273520234674,1.0,2
15.599706649780273,-22.88352394104004,1.678415060043335,-0.0,-0.0,-1.0,0.18085564440982688,1.0,2
15.306138038635254,-22.635478973388672,1.617366075515747,-0.0,-0.0,-1.0,0.15966111596955965,1.0,2
15.98565673828125,-23.996700286865234,1.5078462362289429,-0.0,-0.0,-1.0,0.23857166376263242,2.0,2
15.832361221313477,-23.85793685913086,1.6092818975448608,-0.0,-0.0,-1.0,0.22116601679353012,1.0,2
15.539308547973633,-23.416959762573242,1.5422687530517578,-0.0,-0.0,-1.0,0.20748956437542082,1.0,2
15.339667320251465,-23.135149002075195,1.6422618627548218,-0.0,-0.0,-1.0,0.2302871347112828,1.0,2
16.130746841430664,-24.34442710876465,1.5404859781265259,-0.0,-0.0,-1.0,0.17062612465437474,1.0,2
15.802000999450684,-24.231538772583008,1.6072914600372314,0.27600185918170983,0.9435280182622544,-0.18324260553250724,0.13533479946122887,3.0,2
15.534757614135742,-23.99555015563965,1.5514254570007324,-0.0,-0.0,-1.0,0.26423664892085086,1.0,2
15.345254898071289,-23.719751358032227,1.513930320739746,-0.0,-0.0,-1.0,0.14688354296281694,1.0,2
15.212026596069336,-24.26979637145996,1.6393002271652222,-0.0,-0.0,-1.0,0.149189166884651,1.0,2
16.39635467529297,-22.534940719604492,1.7997138500213623,-0.039954029123620116,0.8117395015577423,-0.5826514027852138,0.15356075159590885,3.0,2
16.85523796081543,-23.790681838989258,1.927323579788208,-0.0,-0.0,-1.0,0.2208963849853971,1.0,2
16.737546920776367,-23.47925567626953,1.8990446329116821,-0.0,-0.0,-1.0,0.22547899456013631,1.0,2
16.2351131439209,-22.89442253112793,1.788991093635559,-0.0,-0.0,-1.0,0.20237263266990319,1.0,2
15.87302017211914,-22.822853088378906,2.0056843757629395,-0.0,-0.0,-1.0,0.15007170602973252,1.0,3
15.589339256286621,-22.290178298950195,1.9481018781661987,-0.0,-0.0,-1.0,0.20782965051633548,2.0,2
16.989023208618164,-24.328853607177734,1.9614038467407227,-0.0,-0.0,-1.0,0.1491094488419436,2.0,2
16.733888626098633,-23.829435348510742,1.909048080444336,-0.0,-0.0,-1.0,0.17891914645916981,1.0,2
15.813776016235352,-23.179275512695312,2.00759220123291,-0.0,-0.0,-1.0,0.2785968653422438,2.0,3
15.59349250793457,-22.88216781616211,1.968561053276062,-0.0,-0.0,-1.0,0.252686917358448,2.0,2
15.301478385925293,-22.47924041748047,1.9153330326080322,0.040297918516434196,-0.1157136921086332,-0.9924648201431783,0.18952071392783815,3.0,2
16.133628845214844,-24.052127838134766,1.9361071586608887,-0.0,-0.0,-1.0,0.19791407260181343,2.0,2
15.687722206115723,-23.696176528930664,2.001286506652832,-0.0,-0.0,-1.0,0.15871866280122995,1.0,3
15.595876693725586,-23.40660858154297,1.9824442863464355,-0.0,-0.0,-1.0,0.19979465585279227,1.0,2
15.314377784729004,-23.117109298706055,1.9358803033828735,-0.0,-0.0,-1.0,0.16636865461553765,1.0,2
15.835834503173828,-24.32184410095215,2.0248465538024902,0.7321720683399057,-0.6487952250706194,-0.20733745023133038,0.11304710440391161,3.0,3
15.51146125793457,-24.03704833984375,1.9768102169036865,0.17833680341970481,0.9486307726009493,-0.261334348719351,0.2433738475102768,3.0,2
15.421512603759766,-23.74087905883789,1.9641408920288086,-0.0,-0.0,-1.0,0.20413135502566146,1.0,2
15.221227645874023,-24.2406005859375,1.9352937936782837,-0.0,-0.0,-1.0,0.15215297972601297,1.0,2
15.380979537963867,-22.244766235351562,2.220659017562866,-0.0,-0.0,-1.0,0.1809208733998396,1.0,3
15.310648918151855,-22.66066551208496,2.222813606262207,-0.0,-0.0,-1.0,0.11711781840169491,1.0,3
15.299176216125488,-22.871585845947266,2.2257747650146484,-0.0,-0.0,-1.0,0.1691966656960887,2.0,3
16.841785430908203,-22.571556091308594,1.1148312091827393,-0.4623170585352421,0.8393671200344808,0.28587720299517283,0.14900562061860487,3.0,2
16.751588821411133,-22.235937118530273,1.047558069229126,-0.0,-0.0,-1.0,0.21043533227206476,1.0,2
16.559127807617188,-21.891090393066406,1.0771958827972412,-0.0,-0.0,-1.0,0.18421904936933783,1.0,2
16.875951766967773,-23.599285125732422,1.2213324308395386,-0.0,-0.0,-1.0,0.20563622430990575,2.0,2
16.647016525268555,-22.921995162963867,1.0931510925292969,-0.0,-0.0,-1.0,0.25448098188802704,1.0,2
16.50054931640625,-22.52798080444336,1.0073695182800293,-0.0,-0.0,-1.0,0.15685887041335192,2.0,2
16.383296966552734,-22.177478790283203,1.0642647743225098,-0.0,-0.0,-1.0,0.1568267013511441,1.0,2
16.84231185913086,-23.745988845825195,1.2208409309387207,-0.22580976486810764,-0.8784885118530191,-0.4210319282815475,0.11154652931393563,3.0,2
16.39852523803711,-23.349388122558594,1.0552008152008057,-0.0,-0.0,-1.0,0.1480819572435282,2.0,2
16.22464370727539,-23.050411224365234,1.107665777206421,-0.0,-0.0,-1.0,0.19539185853931773,1.0,2
16.195594787597656,-22.72392463684082,1.0693626403808594,-0.0,-0.0,-1.0,0.15760776202261137,1.0,2
15.875858306884766,-22.552711486816406,1.0982811450958252,-0.0,-0.0,-1.0,0.2017365514789773,1.0,2
16.257532119750977,-23.953723907470703,1.0519585609436035,-0.0,-0.0,-1.0,0.07536240178870808,1.0,2
16.176074981689453,-23.648300170898438,1.139478087425232,-0.0,-0.0,-1.0,0.13161499143901229,1.0,2
16.040550231933594,-24.213315963745117,1.1302249431610107,-0.0,-0.0,-1.0,0.17099205792454356,1.0,2
15.90865421295166,-23.84302520751953,1.2033559083938599,-0.0,-0.0,-1.0,0.24477188698191452,1.0,2
15.731388092041016,-24.320329666137695,1.1767802238464355,-0.0,-0.0,-1.0,0.20009995695721255,1.0,2
15.68332290649414,-24.001544952392578,1.150026559829712,-0.0,-0.0,-1.0,0.1588251707996521,1.0,2
17.664249420166016,-23.21190071105957,1.4307479858398438,-0.0,-0.0,-1.0,0.17206980473098524,1.0,2
16.978103637695312,-22.143558502197266,1.5803279876708984,-0.0,-0.0,-1.0,0.25557775602082294,2.0,2
17.503652572631836,-23.43177032470703,1.401491403579712,-0.0,-0.0,-1.0,0.22505124314388325,1.0,2
16.886188507080078,-22.47283363342285,1.5924108028411865,-0.0,-0.0,-1.0,0.22274578602586678,2.0,2
16.708528518676758,-22.209341049194336,1.404855728149414,-0.0,-0.0,-1.0,0.23210748644773596,1.0,2
16.575727462768555,-21.91951560974121,1.3416959047317505,-0.0,-0.0,-1.0,0.15233811152442922,2.0,2
17.672000885009766,-24.301332473754883,1.5086727142333984,-0.0,-0.0,-1.0,0.12954795726179502,1.0,2
16.87477684020996,-23.592060089111328,1.5649328231811523,-0.0,-0.0,-1.0,0.20260478853470287,1.0,2
16.69219970703125,-22.95254135131836,1.4710500240325928,-0.0,-0.0,-1.0,0.04275907625179787,1.0,2
16.478893280029297,-22.45911407470703,1.3736212253570557,-0.0,-0.0,-1.0,0.24579750936530548,1.0,2
16.333032608032227,-22.153047561645508,1.3096051216125488,-0.0,-0.0,-1.0,0.2354276191682303,1.0,2
16.00388526916504,-21.955493927001953,1.3430428504943848,-0.0,-0.0,-1.0,0.18478555828233734,1.0,2
16.759170532226562,-24.15521812438965,1.6790705919265747,-0.0,-0.0,-1.0,0.10493559993130418,1.0,2
16.830398559570312,-23.682861328125,1.5586832761764526,-0.0,-0.0,-1.0,0.16765876831021242,1.0,2
16.33279800415039,-23.396913528442383,1.290772795677185,0.29180980610234164,0.9555250901254102,0.042647851098740856,0.17283983210761614,3.0,2
16.28460693359375,-23.114614486694336,1.3822840452194214,-0.0,-0.0,-1.0,0.21114366016306166,2.0,2
16.019222259521484,-22.695804595947266,1.413720965385437,-0.0,-0.0,-1.0,0.2174364144387157,2.0,2
15.790136337280273,-22.370845794677734,1.333608627319336,-0.0,-0.0,-1.0,0.18997633074894738,1.0,2
15.632696151733398,-22.02197265625,1.4078850746154785,-0.0,-0.0,-1.0,0.2145183508072295,1.0,2
16.15128517150879,-23.92293357849121,1.273730754852295,-0.0,-0.0,-1.0,0.1275463924127878,1.0,2
16.196176528930664,-23.40250015258789,1.3804397583007812,-0.0,-0.0,-1.0,0.22300594892410025,2.0,2
16.059377670288086,-23.25054168701172,1.3374202251434326,-0.0,-0.0,-1.0,0.22289367636333593,2.0,2
15.884873390197754,-22.897415161132812,1.3986694812774658,-0.0,-0.0,-1.0,0.13230108642833116,1.0,2
15.547096252441406,-22.570480346679688,1.435039758682251,-0.0,-0.0,-1.0,0.23048603252629077,1.0,2
15.303699493408203,-22.35868263244629,1.5094941854476929,0.7053113522358718,-0.5129302284342966,-0.4893245111023424,0.1872150903463143,3.0,2
15.282029151916504,-21.95695686340332,1.4736886024475098,-0.0,-0.0,-1.0,0.22265643211994782,1.0,2
16.02096939086914,-24.05755615234375,1.3746157884597778,-0.0,-0.0,-1.0,0.21270736676816876,1.0,2
15.768173217773438,-23.814790725708008,1.4292950630187988,-0.0,-0.0,-1.0,0.17178512172683003,1.0,2
15.724029541015625,-23.524892807006836,1.4033081531524658,-0.0,-0.0,-1.0,0.13041948046845847,1.0,2
15.344184875488281,-23.12397003173828,1.5696766376495361,-0.0,-0.0,-1.0,0.16882602618041256,1.0,2
15.293190956115723,-22.745677947998047,1.5352520942687988,-0.0,-0.0,-1.0,0.18738823753492836,1.0,2
15.261762619018555,-22.48423194885254,1.5108052492141724,-0.0,-0.0,-1.0,0.14686828190659562,1.0,2
15.595937728881836,-24.287015914916992,1.409767746925354,-0.0,-0.0,-1.0,0.142672649732157,2.0,2
15.441703796386719,-24.005062103271484,1.4999923706054688,-0.0,-0.0,-1.0,0.20808919494924455,1.0,2
15.28726577758789,-23.63804817199707,1.586748719215393,-0.0,-0.0,-1.0,0.12735482362243575,1.0,2
15.211122512817383,-24.117019653320312,1.593367576599121,-0.0,-0.0,-1.0,0.16083746125433632,1.0,2
16.462852478027344,-22.0738582611084,1.7089855670928955,-0.0,-0.0,-1.0,0.1846666190397668,1.0,2
17.291364669799805,-24.20821189880371,1.8068569898605347,-0.0,-0.0,-1.0,0.1593795287742083,1.0,2
16.881444931030273,-23.5333251953125,1.897424340248108,-0.0,-0.0,-1.0,0.17560669746545582,1.0,2
16.38292121887207,-22.43682098388672,1.724153757095337,-0.0,-0.0,-1.0,0.18631662961151077,1.0,2
16.133272171020508,-22.138933181762695,1.651706576347351,-0.0,-0.0,-1.0,0.182978815067649,1.0,2
16.9601993560791,-23.9555606842041,1.82582426071167,-0.0,-0.0,-1.0,0.10712786965572044,1.0,2
16.81687355041504,-23.73736572265625,1.7853779792785645,-0.0,-0.0,-1.0,0.1998867740777397,2.0,2
16.108623504638672,-23.100709915161133,1.7187751531600952,-0.0,-0.0,-1.0,0.1738077138175941,1.0,2
16.015810012817383,-22.753173828125,1.8054593801498413,0.6601436736669016,-0.7506094298551439,0.02821017423027379,0.18336237926732332,3.0,2
16.418922424316406,-24.314258575439453,1.9587149620056152,-0.0,-0.0,-1.0,0.141632146381495,1.0,2
16.182771682739258,-23.977006912231445,1.7810864448547363,-0.0,-0.0,-1.0,0.20784686286877996,1.0,2
16.08999252319336,-23.42965316772461,1.734902262687683,-0.0,-0.0,-1.0,0.18943420302067707,1.0,2
15.921536445617676,-23.230106353759766,1.8178770542144775,-0.0,-0.0,-1.0,0.1993878943815652,2.0,2
15.752676010131836,-22.966331481933594,1.7710521221160889,-0.0,-0.0,-1.0,0.18876757447716117,1.0,2
15.567383766174316,-22.528505325317383,1.8468189239501953,-0.0,-0.0,-1.0,0.23088909273694488,1.0,2
15.267679214477539,-22.266624450683594,1.7819180488586426,-0.0,-0.0,-1.0,0.2157902148511183,2.0,2
15.357486724853516,-21.868621826171875,1.768322229385376,-0.0,-0.0,-1.0,0.12798718190308186,1.0,2
16.052085876464844,-24.07147216796875,1.8842939138412476,-0.0,-0.0,-1.0,0.2608911097480236,1.0,2
15.718454360961914,-23.8131103515625,1.8095424175262451,-0.0,-0.0,-1.0,0.19168899029540964,1.0,2
15.611289978027344,-23.476945877075195,1.775071382522583,-0.0,-0.0,-1.0,0.14105029624868884,1.0,2
15.416354179382324,-23.13898468017578,1.7243421077728271,-0.0,-0.0,-1.0,0.2485493871890014,1.0,2
15.61366081237793,-24.253135681152344,1.9413505792617798,-0.0,-0.0,-1.0,0.22533582648364225,2.0,2
15.447198867797852,-23.9830265045166,1.7695609331130981,-0.0,-0.0,-1.0,0.24899575228676613,1.0,2
15.340171813964844,-23.716541290283203,1.7397305965423584,-0.0,-0.0,-1.0,0.07485262198411953,1.0,2
15.434350967407227,-22.429330825805664,2.094757080078125,-0.0,-0.0,-1.0,0.24246345293153132,1.0,3
15.281384468078613,-22.278636932373047,2.067176342010498,-0.0,-0.0,-1.0,0.12050304138931747,2.0,3
15.278486251831055,-23.101152420043945,2.110091209411621,-0.0,-0.0,-1.0,0.1761395565313822,2.0,3
16.519887924194336,-22.3536376953125,1.2189586162567139,-0.0,-0.0,-1.0,0.23332713664453245,2.0,2
16.46479034423828,-21.915149688720703,1.1644163131713867,-0.0,-0.0,-1.0,0.16351531673335437,1.0,2
16.30405044555664,-22.892953872680664,1.1857527494430542,-0.0,-0.0,-1.0,0.19775875466431966,1.0,2
16.297740936279297,-22.568614959716797,1.1643400192260742,-0.0,-0.0,-1.0,0.17189420120716348,1.0,2
16.07033920288086,-22.23456382751465,1.06892991065979,-0.0,-0.0,-1.0,0.15473758871863988,1.0,2
16.276273727416992,-23.35357666015625,1.1961647272109985,-0.0,-0.0,-1.0,0.17642599327696046,1.0,2
16.140005111694336,-23.01047134399414,1.1392707824707031,-0.0,-0.0,-1.0,0.27206376056652565,1.0,2
16.083280563354492,-22.68528175354004,1.1041269302368164,-0.0,-0.0,-1.0,0.14900569360708543,1.0,2
16.197097778320312,-24.171817779541016,1.1825188398361206,-0.0,-0.0,-1.0,0.28840886271490096,1.0,2
16.10045623779297,-24.031982421875,1.1517246961593628,-0.0,-0.0,-1.0,0.22114996640921028,1.0,2
16.043184280395508,-23.70836067199707,1.1303682327270508,-0.0,-0.0,-1.0,0.18988823330683713,1.0,2
15.487034797668457,-22.52385139465332,1.1704647541046143,-0.0,-0.0,-1.0,0.1732193485400551,1.0,2
15.963508605957031,-24.287233352661133,1.1075899600982666,-0.0,-0.0,-1.0,0.16294405440716384,1.0,2
15.883777618408203,-24.295167922973633,1.0822045803070068,-0.0,-0.0,-1.0,0.18825469734291,1.0,2
16.8597412109375,-22.17335319519043,1.4183781147003174,-0.0,-0.0,-1.0,0.18888115531493052,2.0,2
16.753925323486328,-22.79267692565918,1.4303338527679443,-0.0,-0.0,-1.0,0.18259627288306096,2.0,2
16.651887893676758,-22.35297203063965,1.3723080158233643,-0.0,-0.0,-1.0,0.2239067693917476,1.0,2
16.44062042236328,-21.907249450683594,1.5071461200714111,-0.0,-0.0,-1.0,0.13556884239156877,1.0,2
16.936044692993164,-23.81770896911621,1.52056884765625,-0.4258341616899091,-0.8176477720106577,0.38744985180518526,0.15446702184582586,3.0,2
16.841670989990234,-23.63743019104004,1.4897172451019287,-0.0,-0.0,-1.0,0.2024038346729812,1.0,2
16.659677505493164,-23.064586639404297,1.5258526802062988,-0.0,-0.0,-1.0,0.11099000556515963,2.0,2
16.334997177124023,-22.493017196655273,1.5190136432647705,-0.0,-0.0,-1.0,0.16835335463492476,1.0,2
16.014719009399414,-22.201807022094727,1.4202492237091064,-0.0,-0.0,-1.0,0.2549421986693297,1.0,2
15.915018081665039,-21.921367645263672,1.2479379177093506,0.8047359055410058,-0.5931407220215366,-0.024170358145209847,0.1721649455735015,3.0,2
16.181163787841797,-23.394136428833008,1.4028254747390747,-0.0,-0.0,-1.0,0.16850577365320518,2.0,2
16.00659942626953,-23.032800674438477,1.4613488912582397,-0.0,-0.0,-1.0,0.2227488702779601,1.0,2
16.01198387145996,-22.79662322998047,1.4517635107040405,-0.0,-0.0,-1.0,0.24999284922103815,1.0,2
15.70169448852539,-22.274566650390625,1.3436648845672607,-0.0,-0.0,-1.0,0.21111348652084586,1.0,2
15.483430862426758,-22.109895706176758,1.4060330390930176,-0.0,-0.0,-1.0,0.21653597970467198,1.0,2
16.049354553222656,-24.305843353271484,1.613993763923645,-0.0,-0.0,-1.0,0.21169872489330857,1.0,2
16.100059509277344,-24.09149742126465,1.5085036754608154,-0.0,-0.0,-1.0,0.16718780378881426,2.0,2
15.907861709594727,-23.565549850463867,1.4523522853851318,-0.0,-0.0,-1.0,0.1316042664042355,2.0,2
15.758190155029297,-23.25684928894043,1.5265436172485352,-0.0,-0.0,-1.0,0.17829467403955598,1.0,2
15.570833206176758,-22.84280014038086,1.4655956029891968,-0.0,-0.0,-1.0,0.15833485103221276,1.0,2
15.416647911071777,-22.535470962524414,1.413989782333374,-0.0,-0.0,-1.0,0.28329477193802405,1.0,2
15.985087394714355,-24.2528076171875,1.3588852882385254,-0.0,-0.0,-1.0,0.19627344539828642,1.0,2
15.705074310302734,-24.126245498657227,1.4065685272216797,-0.0,-0.0,-1.0,0.21258106745877972,1.0,2
15.560346603393555,-23.69023323059082,1.4890589714050293,-0.0,-0.0,-1.0,0.169854480543362,1.0,2
15.491327285766602,-23.436723709106445,1.4664931297302246,-0.0,-0.0,-1.0,0.16168463225145438,2.0,2
15.469779968261719,-24.281875610351562,1.4731402397155762,-0.0,-0.0,-1.0,0.19802894819137384,1.0,2
15.32082748413086,-23.93436050415039,1.4342174530029297,-0.0,-0.0,-1.0,0.12765916668885452,1.0,2
17.030004501342773,-23.48737144470215,1.843738317489624,-0.0,-0.0,-1.0,0.2151160252745649,1.0,2
16.750463485717773,-22.896257400512695,1.7548929452896118,-0.0,-0.0,-1.0,0.14449217605618495,2.0,2
16.553356170654297,-22.307472229003906,1.6750972270965576,0.911753708468322,-0.18102613456969582,-0.36869325149372617,0.171475061901787,3.0,2
16.509023666381836,-22.067012786865234,1.6486520767211914,-0.0,-0.0,-1.0,0.13100756901466887,2.0,2
16.946237564086914,-23.847509384155273,1.9292718172073364,0.17992665112213346,0.06425794451958777,-0.9815789916161063,0.2810183683677468,3.0,2
16.82134246826172,-23.734012603759766,2.001441240310669,-0.0,-0.0,-1.0,0.15450988978720315,2.0,3
16.568513870239258,-23.05112075805664,1.7171443700790405,-0.0,-0.0,-1.0,0.1663678734284492,1.0,2
16.316070556640625,-22.960426330566406,1.875345230102539,-0.0,-0.0,-1.0,0.17623376873879942,1.0,2
16.351276397705078,-22.52723503112793,1.7539798021316528,0.28292584066485343,0.8283114062333944,0.48358368767747223,0.18747285786777051,3.0,2
15.980439186096191,-22.237287521362305,1.7729778289794922,-0.0,-0.0,-1.0,0.2164313817399,1.0,2
16.538738250732422,-23.578683853149414,1.9398249387741089,-0.0,-0.0,-1.0,0.11903493413965816,1.0,2
16.040788650512695,-23.359272003173828,1.8311772346496582,-0.0,-0.0,-1.0,0.2391984721236684,2.0,2
15.981302261352539,-22.99488067626953,1.9242637157440186,-0.0,-0.0,-1.0,0.2255308375828402,2.0,2
15.881555557250977,-22.828210830688477,1.8994777202606201,-0.0,-0.0,-1.0,0.133150918200421,2.0,2
15.5806884765625,-22.342361450195312,1.8203191757202148,-0.0,-0.0,-1.0,0.2711572230089564,2.0,2
15.434638977050781,-21.92145347595215,1.7740960121154785,0.9484377195591616,-0.11633624126186523,0.2948419425496962,0.17565068544179832,3.0,2
15.781819343566895,-23.531354904174805,1.9020743370056152,-0.0,-0.0,-1.0,0.30473659354648247,2.0,2
15.719951629638672,-23.188295364379883,1.880692481994629,-0.0,-0.0,-1.0,0.18354729159204766,1.0,2
15.436124801635742,-22.951868057250977,1.8175678253173828,-0.0,-0.0,-1.0,0.26596199020019184,1.0,2
15.301989555358887,-22.53546142578125,1.7777049541473389,-0.0,-0.0,-1.0,0.20751306523057372,2.0,2
15.754729270935059,-24.13900375366211,1.9061882495880127,-0.0,-0.0,-1.0,0.22961513639703834,1.0,2
15.499841690063477,-23.84568214416504,1.8529980182647705,-0.0,-0.0,-1.0,0.20754128526666704,2.0,2
15.353569030761719,-23.343463897705078,1.814893364906311,0.2884831741546945,-0.7608292576471706,-0.5813056845908935,0.22532003938852663,3.0,2
15.223677635192871,-22.99903678894043,1.7796119451522827,-0.0,-0.0,-1.0,0.13351678306050266,2.0,2
15.311245918273926,-24.23592758178711,1.6944544315338135,-0.0,-0.0,-1.0,0.17447107205874957,2.0,2
15.286230087280273,-24.014400482177734,1.8163789510726929,-0.0,-0.0,-1.0,0.12422130948564424,1.0,2
15.950392723083496,-23.10151481628418,2.0373754501342773,-0.0,-0.0,-1.0,0.13932677294254234,1.0,3
15.993391036987305,-22.832744598388672,2.035874605178833,-0.0,-0.0,-1.0,0.13896687927495302,1.0,3
15.508193969726562,-22.40431022644043,2.1852614879608154,-0.0,-0.0,-1.0,0.1738748907123844,1.0,3
16.205785751342773,-24.06231689453125,2.1017074584960938,-0.0,-0.0,-1.0,0.2628494317091538,1.0,3
15.954004287719727,-23.45134162902832,2.0476181507110596,-0.0,-0.0,-1.0,0.1328686355609745,1.0,3
15.36557388305664,-22.731693267822266,2.177248001098633,0.847785022400587,0.06144640692946246,-0.5267683502913737,0.17515900801222486,3.0,3
15.272727966308594,-22.499799728393555,2.1569130420684814,-0.8396563600569884,0.49300843731872174,-0.22785933763706298,0.10747613153350234,3.0,3
15.806825637817383,-21.94095802307129,1.226366400718689,-0.0,-0.0,-1.0,0.2022434896656439,1.0,2
16.971412658691406,-22.0728759765625,1.581573724746704,-0.0,-0.0,-1.0,0.21536517094020421,1.0,2
16.28670883178711,-21.878570556640625,1.5855575799942017,-0.0,-0.0,-1.0,0.17878738603317548,1.0,2
15.783121109008789,-21.93436050415039,1.5738548040390015,-0.0,-0.0,-1.0,0.13956173038967604,2.0,2
16.024145126342773,-22.907489776611328,1.2292819023132324,-0.0,-0.0,-1.0,0.18278132213116102,1.0,2
16.77234649658203,-24.315900802612305,1.1485352516174316,-0.0,-0.0,-1.0,0.12252890174085693,1.0,2
15.810102462768555,-23.928564071655273,2.0439703464508057,-0.0,-0.0,-1.0,0.09688174505943753,1.0,3
15.51518726348877,-24.03240966796875,1.9961910247802734,0.17833680341970481,0.9486307726009493,-0.261334348719351,0.23573486387641035,3.0,2
16.312713623046875,-23.90402603149414,1.0536963939666748,-0.0,-0.0,-1.0,0.09805649847909174,2.0,2
16.481842041015625,-23.562015533447266,1.1558191776275635,-0.0,-0.0,-1.0,0.20205686509668622,1.0,2
16.252397537231445,-24.12272071838379,1.2816381454467773,-0.0,-0.0,-1.0,0.1967072709171063,1.0,2
16.213909149169922,-23.800277709960938,1.0513579845428467,-0.0,-0.0,-1.0,0.10081663879686133,2.0,2
17.03348731994629,-23.65496826171875,1.75386643409729,-0.0,-0.0,-1.0,0.2016885278213005,2.0,2
16.968154907226562,-23.789997100830078,1.5983688831329346,0.8390524022802965,-0.5263871579342183,-0.13750500423475345,0.16230104787787555,3.0,2
16.93828582763672,-23.668508529663086,1.6120129823684692,-0.0,-0.0,-1.0,0.19857638597021404,1.0,2
16.509719848632812,-24.319242477416992,1.7120112180709839,-0.0,-0.0,-1.0,0.09311958872572679,1.0,2
16.306072235107422,-24.212430953979492,1.556275486946106,-0.0,-0.0,-1.0,0.22917441077184,2.0,2
16.265106201171875,-24.10039520263672,1.5650105476379395,-0.0,-0.0,-1.0,0.2236613391352513,1.0,2
16.389522552490234,-24.345325469970703,2.1014010906219482,0.4456561319502457,-0.8528867318449409,-0.27198315149656127,0.11135675885029064,3.0,3
15.362417221069336,-23.086185455322266,2.07104754447937,-0.0,-0.0,-1.0,0.2182079924274199,1.0,3
15.237298965454102,-23.072391510009766,2.0551133155822754,-0.0,-0.0,-1.0,0.15754456996937607,1.0,3
17.1258544921875,-24.248703002929688,1.0278377532958984,-0.0,-0.0,-1.0,0.08721321653639497,1.0,2
17.050153732299805,-23.80059814453125,1.110975980758667,-0.0,-0.0,-1.0,0.14009012360568285,1.0,2
17.026567459106445,-23.660072326660156,1.1365299224853516,-0.0,-0.0,-1.0,0.19439413575279493,1.0,2
16.948135375976562,-23.12284278869629,0.9670858383178711,-0.0,-0.0,-1.0,0.11557795554056809,1.0,1
16.941757202148438,-24.034317016601562,1.0422515869140625,-0.0,-0.0,-1.0,0.12233406975243191,1.0,2
16.729290008544922,-23.753047943115234,1.063730239868164,-0.0,-0.0,-1.0,0.16177890179199017,1.0,2
17.553726196289062,-23.15087127685547,1.336303472518921,-0.0,-0.0,-1.0,0.195575863051935,1.0,2
17.123279571533203,-23.79142189025879,1.5425108671188354,-0.0,-0.0,-1.0,0.25144620849370014,1.0,2
17.033695220947266,-23.637374877929688,1.418428659439087,-0.0,-0.0,-1.0,0.18956666397119307,1.0,2
16.89786148071289,-23.69732666015625,1.3863180875778198,-0.0,-0.0,-1.0,0.22751535873343584,1.0,2
17.090560913085938,-23.758358001708984,1.6796019077301025,-0.0,-0.0,-1.0,0.2550828697507187,1.0,2
17.0272159576416,-23.705949783325195,1.814069151878357,-0.0,-0.0,-1.0,0.18177062408321648,1.0,2
15.94721794128418,-22.68102264404297,1.923954963684082,-0.0,-0.0,-1.0,0.19687859962999202,1.0,2
15.614569664001465,-23.125144958496094,1.8323330879211426,-0.0,-0.0,-1.0,0.22842900135816488,2.0,2
15.714016914367676,-22.857341766357422,1.8736366033554077,-0.0,-0.0,-1.0,0.23811135928796331,1.0,2
15.465404510498047,-23.250646591186523,1.7988674640655518,0.46893753203185856,0.8524794536773551,-0.2310332705690412,0.23579635280259137,3.0,2
16.422748565673828,-24.327800750732422,2.100889205932617,0.4456561319502457,-0.8528867318449409,-0.27198315149656127,0.14446207556958882,3.0,3
15.588700294494629,-23.118703842163086,2.1105692386627197,-0.0,-0.0,-1.0,0.1772824957422446,2.0,3
15.316300392150879,-23.616437911987305,2.041269302368164,-0.0,-0.0,-1.0,0.17969015404392266,1.0,3
15.384769439697266,-23.167377471923828,2.0836267471313477,-0.2770213779620407,0.18855636698188266,-0.9421813268275941,0.25549523092020004,3.0,3
17.688556671142578,-23.483116149902344,1.139777660369873,-0.0,-0.0,-1.0,0.10045663009311383,1.0,2
17.308732986450195,-22.83620834350586,0.9715590476989746,-0.0,-0.0,-1.0,0.07651702383580805,1.0,1
17.608367919921875,-23.89422607421875,1.0323936939239502,-0.0,-0.0,-1.0,0.10561338907488026,1.0,2
17.39394760131836,-23.758642196655273,1.0378808975219727,-0.0,-0.0,-1.0,0.14987771229254943,1.0,2
17.18269157409668,-22.776866912841797,0.9673070907592773,-0.0,-0.0,-1.0,0.09063340246205456,2.0,1
17.182235717773438,-23.830913543701172,0.993588924407959,-0.0,-0.0,-1.0,0.10101434001083336,1.0,1
17.568788528442383,-23.43097496032715,1.4186643362045288,-0.0,-0.0,-1.0,0.1082454394276532,2.0,2
17.31644058227539,-23.924468994140625,1.2908074855804443,-0.0,-0.0,-1.0,0.0920238524532832,1.0,2
17.288562774658203,-24.256710052490234,1.8337986469268799,-0.0,-0.0,-1.0,0.17269362366891425,2.0,2
15.962160110473633,-22.912715911865234,1.8782970905303955,-0.0,-0.0,-1.0,0.1640296798071658,2.0,2
15.78165054321289,-23.4525146484375,1.7925119400024414,-0.0,-0.0,-1.0,0.23314909330624758,2.0,2
15.953123092651367,-23.078990936279297,1.8569262027740479,-0.0,-0.0,-1.0,0.1676816939080411,1.0,2
15.325647354125977,-24.153106689453125,1.986966609954834,-0.0,-0.0,-1.0,0.21946155007638687,1.0,2
15.809040069580078,-23.130216598510742,2.124873161315918,-0.0,-0.0,-1.0,0.14880296111037045,1.0,3
15.543478012084961,-23.678117752075195,2.0503804683685303,0.4203818691338625,-0.5088683697863908,-0.7512203846638225,0.13574434353702713,3.0,3
15.420129776000977,-23.942848205566406,2.01491641998291,-0.0,-0.0,-1.0,0.1437101851060178,1.0,3
15.295586585998535,-23.768146514892578,2.0199167728424072,-0.0,-0.0,-1.0,0.1636635241268954,1.0,3
17.611316680908203,-23.51687240600586,1.3689731359481812,-0.0,-0.0,-1.0,0.10498150076215525,2.0,2
17.3956298828125,-23.737056732177734,0.9914579391479492,-0.0,-0.0,-1.0,0.1010241125706374,1.0,1
17.152507781982422,-23.589820861816406,1.0013444423675537,-0.0,-0.0,-1.0,0.05828005497498162,1.0,2
17.017606735229492,-23.85757827758789,1.2495425939559937,-0.0,-0.0,-1.0,0.21604780378409272,2.0,2
16.95839500427246,-23.722055435180664,1.270513892173767,-0.0,-0.0,-1.0,0.18502934244644037,2.0,2
17.010744094848633,-23.839447021484375,1.5710453987121582,-0.0,-0.0,-1.0,0.23439240565426805,2.0,2
16.953279495239258,-23.719894409179688,1.5856283903121948,-0.0,-0.0,-1.0,0.26778999577281226,1.0,2
