x,y,z,nx,ny,nz,curvature,density,label
49.05139923095703,13.387588500976562,-2.0532708168029785,-0.0,-0.0,-1.0,0.16713247824798078,1.0,0
49.08128356933594,13.91724967956543,-2.0713748931884766,-0.033546431461846445,0.9414303420316009,0.3355347195722646,0.08890973049317344,3.0,0
48.242271423339844,14.308389663696289,-2.1229264736175537,-0.0,-0.0,-1.0,0.02113643783443867,2.0,0
49.163185119628906,13.393071174621582,-1.9803409576416016,-0.0,-0.0,-1.0,0.1313630350880958,2.0,0
49.373207092285156,14.266374588012695,-2.0855257511138916,-0.0,-0.0,-1.0,0.019033661987386118,2.0,0
48.33553695678711,14.969475746154785,-2.0210251808166504,0.8838004979120614,-0.43535775387705616,-0.17134849293039153,0.13008140136835025,3.0,0
49.177738189697266,15.282005310058594,-2.12974214553833,-0.016921833438019725,0.870465113391867,-0.49193916079204403,0.07508685912955178,3.0,0
48.997947692871094,14.219840049743652,-2.1273386478424072,-0.0,-0.0,-1.0,0.03251161896345959,2.0,0
48.21922302246094,15.092525482177734,-2.0846331119537354,0.7488002478312903,-0.5752633138371828,-0.3291964589737578,0.13869062058613052,3.0,0
49.068206787109375,13.408820152282715,-2.0008740425109863,-0.0,-0.0,-1.0,0.1936851829652222,1.0,0
49.022865295410156,15.37578010559082,-2.1247735023498535,-0.0,-0.0,-1.0,0.06505095405179614,2.0,0
49.30177688598633,14.60151481628418,-2.1765356063842773,-0.0,-0.0,-1.0,0.021412708003474272,2.0,0
49.12224578857422,13.426775932312012,-2.039733409881592,-0.18367817189248775,-0.18058863888601853,-0.966255697357345,0.22812579673009692,3.0,0
49.12835693359375,13.922491073608398,-2.0813746452331543,-0.08173901367080842,0.9577542072735367,-0.2757274235435466,0.08890973049317334,6.0,0
48.31117248535156,13.292959213256836,-2.0960774421691895,-0.0,-0.0,-1.0,0.028485327884113395,1.0,0
47.983070373535156,13.622934341430664,-2.055144786834717,-0.0,-0.0,-1.0,0.026000872864654915,1.0,0
49.176429748535156,13.373791694641113,-1.8415852785110474,0.6008080250600386,0.03381038050912939,-0.7986780172217611,0.18683845332929253,3.0,0
48.359275817871094,14.862982749938965,-2.0718700885772705,0.10755276898511909,-0.7462665159762737,-0.6569008212936466,0.09107551705085346,4.0,0
48.07143020629883,13.761293411254883,-2.0786592960357666,-0.0,-0.0,-1.0,0.02489131495135059,1.0,0
47.87223815917969,13.77778148651123,-1.99461030960083,-0.0,-0.0,-1.0,0.02969427992435696,1.0,0
48.95811080932617,15.414706230163574,-2.207688570022583,-0.0,-0.0,-1.0,0.03048439705439056,1.0,0
48.55674362182617,14.819175720214844,-1.8896175622940063,-0.0,-0.0,-1.0,0.09338479693684168,1.0,0
48.091400146484375,15.339925765991211,-2.175259590148926,-0.0,-0.0,-1.0,0.0878999362600427,2.0,0
48.12872314453125,15.294328689575195,-2.17290997505188,-0.0,-0.0,-1.0,0.09400094849592164,1.0,0
48.174560546875,13.802906036376953,-2.0475523471832275,-0.0,-0.0,-1.0,0.01691740799577274,1.0,0
48.10795593261719,15.348372459411621,-2.195779323577881,-0.7905761583349219,0.07234353786902671,-0.608075447951148,0.08789993626004276,3.0,0
49.312347412109375,15.591639518737793,-2.162203788757324,-0.0,-0.0,-1.0,0.03568547890986018,2.0,0
49.328857421875,15.623311996459961,-2.1416399478912354,-0.0,-0.0,-1.0,0.03568547890986016,2.0,0
49.15105438232422,13.361023902893066,-1.941796064376831,-0.0,-0.0,-1.0,0.12748144068346515,1.0,0
48.03876495361328,14.532934188842773,-2.0505318641662598,-0.0,-0.0,-1.0,0.03688846272255133,1.0,0
48.131614685058594,13.666952133178711,-2.031005382537842,-0.0,-0.0,-1.0,0.030758277684001,1.0,0
48.46855163574219,14.768524169921875,-2.067753314971924,-0.0,-0.0,-1.0,0.0867482037305708,1.0,0
49.33299255371094,13.666502952575684,-2.0760250091552734,-0.0,-0.0,-1.0,0.06288527443469558,1.0,0
49.154205322265625,14.971515655517578,-2.18446683883667,-0.0,-0.0,-1.0,0.026918527952477678,2.0,0
47.9398193359375,13.269713401794434,-1.9742889404296875,-0.0,-0.0,-1.0,0.0372146082573976,1.0,0
49.03276062011719,13.444944381713867,-1.9850139617919922,-0.0,-0.0,-1.0,0.15818198518917484,1.0,0
49.77028274536133,15.026896476745605,-2.1572465896606445,-0.0,-0.0,-1.0,0.026049150980317928,1.0,0
49.453407287597656,15.30312728881836,-2.173708915710449,-0.0,-0.0,-1.0,0.08227187775620931,1.0,0
48.65674591064453,14.004196166992188,-2.1242218017578125,-0.0,-0.0,-1.0,0.016298270971034888,2.0,0
48.17167663574219,14.677857398986816,-1.9744553565979004,-0.0,-0.0,-1.0,0.043454641074273125,1.0,0
49.172515869140625,13.231361389160156,-2.0693788528442383,-0.5896783741030649,0.8004974251066955,-0.10716010224293598,0.16984830798185466,3.0,0
49.17795944213867,13.68445110321045,-2.0841822624206543,-0.0,-0.0,-1.0,0.10218263663614979,1.0,0
49.12506103515625,14.126585960388184,-2.0920538902282715,-0.6085573329687404,0.7932197131683718,0.021458311468033273,0.035805412634580515,3.0,0
48.318023681640625,14.704085350036621,-2.0184097290039062,-0.0,-0.0,-1.0,0.08241410814245316,1.0,0
49.451263427734375,14.582897186279297,-2.143622875213623,-0.0,-0.0,-1.0,0.018769367664212663,2.0,0
48.319847106933594,14.887798309326172,-2.024461269378662,-0.0,-0.0,-1.0,0.10145672583366952,1.0,0
49.29678726196289,14.81628131866455,-2.133420944213867,-0.0,-0.0,-1.0,0.01688167180524897,1.0,0
49.00320053100586,15.37851619720459,-2.1178908348083496,-0.0,-0.0,-1.0,0.06471136204575034,2.0,0
48.03955841064453,13.653502464294434,-2.0221107006073,-0.0,-0.0,-1.0,0.03367154208049979,2.0,0
48.756195068359375,13.417464256286621,-2.095038652420044,-0.0,-0.0,-1.0,0.03327203586371917,1.0,0
48.13359069824219,14.033950805664062,-2.05025315284729,-0.0,-0.0,-1.0,0.0195658146993778,1.0,0
48.45238494873047,13.951523780822754,-2.0835554599761963,-0.0,-0.0,-1.0,0.009303390207120257,1.0,0
48.091949462890625,14.286942481994629,-2.0570003986358643,-0.0,-0.0,-1.0,0.029913633639102603,2.0,0
48.234832763671875,14.776346206665039,-2.0962345600128174,-0.0,-0.0,-1.0,0.0670811756061875,1.0,0
48.35986328125,14.636611938476562,-2.104212522506714,-0.0,-0.0,-1.0,0.039092988214043466,1.0,0
48.23113250732422,14.9451904296875,-2.103715658187866,-0.0,-0.0,-1.0,0.08595420008601745,2.0,0
48.505653381347656,15.213019371032715,-2.148090124130249,-0.0,-0.0,-1.0,0.040937566513269574,1.0,0
48.55165100097656,15.417901039123535,-2.1631224155426025,-0.0,-0.0,-1.0,0.010677395248478277,1.0,0
47.906044006347656,13.15330982208252,-2.0676040649414062,-0.0,-0.0,-1.0,0.03497076467885,1.0,0
47.86748123168945,13.471006393432617,-2.084151268005371,-0.0,-0.0,-1.0,0.03236531272236024,1.0,0
47.80958557128906,13.78348445892334,-2.0980310440063477,-0.0,-0.0,-1.0,0.030290328239489125,1.0,0
49.330169677734375,13.178047180175781,-2.0145668983459473,-0.0,-0.0,-1.0,0.1543417013981995,1.0,0
49.20981979370117,13.374653816223145,-2.019397258758545,-0.0,-0.0,-1.0,0.17759081578540267,2.0,0
49.15262222290039,13.924631118774414,-2.0679893493652344,-0.1998268733275814,0.9633371442663048,-0.17902728052719658,0.08761517217928588,6.0,0
49.96676254272461,13.864192008972168,-2.1615633964538574,-0.0,-0.0,-1.0,0.004673325637594989,1.0,0
49.08613967895508,14.228901863098145,-2.0911059379577637,-0.0,-0.0,-1.0,0.02621034846317645,1.0,0
49.15526580810547,14.663070678710938,-2.144547462463379,-0.0,-0.0,-1.0,0.020109833079890862,1.0,0
48.315467834472656,14.936513900756836,-2.0715742111206055,-0.31828504322878437,-0.5462473315546786,-0.7747957692361545,0.0961741395118377,4.0,0
48.39755630493164,15.211974143981934,-2.1108627319335938,-0.0,-0.0,-1.0,0.060139745513871044,1.0,0
47.88177490234375,13.157628059387207,-2.117016315460205,-0.0,-0.0,-1.0,0.034970764678850005,1.0,0
47.88276290893555,13.315932273864746,-2.1315016746520996,-0.0,-0.0,-1.0,0.03504540383770731,1.0,0
47.75715637207031,13.601028442382812,-2.1408944129943848,-0.0,-0.0,-1.0,0.0220329052880434,1.0,0
49.22795486450195,13.228179931640625,-1.853494644165039,-0.0,-0.0,-1.0,0.09362860004794726,1.0,0
49.94303512573242,14.894864082336426,-2.1997313499450684,-0.0,-0.0,-1.0,0.010938483097480349,1.0,0
49.49422073364258,14.905202865600586,-2.1550354957580566,-0.0,-0.0,-1.0,0.040991257118089694,1.0,0
49.36766052246094,15.02281665802002,-2.161518096923828,-0.0,-0.0,-1.0,0.08819329155411305,2.0,0
48.84584045410156,15.401703834533691,-2.1712985038757324,-0.0,-0.0,-1.0,0.02620149797390321,1.0,0
48.691993713378906,15.578600883483887,-2.1853833198547363,-0.0,-0.0,-1.0,0.0190802691335057,1.0,0
48.337318420410156,14.98409366607666,-2.0489773750305176,0.8838004979120614,-0.43535775387705616,-0.17134849293039153,0.10831745825643581,3.0,0
49.09108352661133,13.234597206115723,-2.219254970550537,-0.0,-0.0,-1.0,0.15218975042048158,1.0,0
49.23096466064453,13.23889446258545,-1.9945952892303467,-0.3819379107082116,0.3996473599803818,-0.8333099183524444,0.11117031400673613,3.0,0
47.84136962890625,14.463142395019531,-2.0116405487060547,-0.0,-0.0,-1.0,0.02245305541228186,1.0,0
47.991580963134766,15.26257038116455,-2.0321249961853027,-0.0,-0.0,-1.0,0.10560026196727045,1.0,0
49.20867156982422,13.343213081359863,-1.9022140502929688,0.4422040700998118,-0.8939420195642933,0.07296044164116082,0.15710156672447584,3.0,0
48.2125244140625,14.663904190063477,-2.10017991065979,-0.0,-0.0,-1.0,0.04314313222157068,2.0,0
47.86126708984375,13.720254898071289,-2.0675947666168213,-0.0,-0.0,-1.0,0.028480160496406552,1.0,0
49.14588928222656,13.364358901977539,-2.0621418952941895,-0.5639317842663825,0.29489192098604045,-0.7713751989993567,0.24661728124952234,3.0,0
47.73173522949219,15.478731155395508,-2.102508783340454,-0.0,-0.0,-1.0,0.06754615727589387,1.0,0
48.07910919189453,13.24384880065918,-2.007937431335449,-0.0,-0.0,-1.0,0.03578418137689968,1.0,0
48.83976364135742,13.157501220703125,-2.085084915161133,-0.0,-0.0,-1.0,0.09444591181577784,1.0,0
49.116458892822266,13.424301147460938,-2.100058078765869,-0.0,-0.0,-1.0,0.23750602092211287,2.0,0
49.141849517822266,13.911174774169922,-2.081362724304199,-0.17837717922168436,0.9445510932115684,-0.2756897064559106,0.08927016170560914,5.0,0
49.474143981933594,13.571428298950195,-2.128324508666992,-0.0,-0.0,-1.0,0.0664708435027976,1.0,0
49.10627365112305,14.111557006835938,-2.0693092346191406,-0.7406588584258943,0.6459108312540933,-0.18499636078554968,0.0336243753127609,3.0,0
50.13080978393555,13.827169418334961,-2.1813249588012695,-0.0,-0.0,-1.0,0.0027065292169144517,1.0,0
49.52289581298828,14.371213912963867,-2.0989885330200195,-0.0,-0.0,-1.0,0.01754037522097139,1.0,0
49.76687240600586,14.4151611328125,-2.121033191680908,-0.0,-0.0,-1.0,0.008784731782115082,1.0,0
47.88100814819336,13.819425582885742,-2.0929789543151855,-0.0,-0.0,-1.0,0.030160097663967027,1.0,0
47.9837646484375,14.227890014648438,-2.089059352874756,-0.0,-0.0,-1.0,0.02321566133386382,1.0,0
48.20878601074219,14.958307266235352,-2.087498188018799,-0.28628104560886913,0.5128956214135915,-0.809309115517587,0.11217400480424347,3.0,0
48.24580001831055,14.636219024658203,-2.102919578552246,-0.0,-0.0,-1.0,0.0425940315684105,2.0,0
48.3931770324707,14.329336166381836,-2.1299896240234375,-0.0,-0.0,-1.0,0.014257133130030339,1.0,0
48.79922866821289,15.282550811767578,-2.1411943435668945,-0.0,-0.0,-1.0,0.015057948608094403,1.0,0
48.96320343017578,14.894735336303711,-2.172496795654297,-0.0,-0.0,-1.0,0.03189060875270627,1.0,0
49.05735778808594,15.46821403503418,-2.1634092330932617,-0.0,-0.0,-1.0,0.03062091823840621,2.0,0
47.78179931640625,14.329195976257324,-2.1178739070892334,-0.0,-0.0,-1.0,0.024061521008956442,1.0,0
47.90176773071289,14.781452178955078,-2.1324422359466553,-0.0,-0.0,-1.0,0.0331751787881185,1.0,0
47.94739532470703,13.678714752197266,-2.040745496749878,-0.0,-0.0,-1.0,0.029418614752990065,1.0,0
47.8703498840332,13.344444274902344,-2.0275237560272217,-0.0,-0.0,-1.0,0.03283857376395389,2.0,0
48.02863311767578,14.647881507873535,-2.060401201248169,-0.0,-0.0,-1.0,0.04462356621829597,1.0,0
48.01465606689453,14.248957633972168,-2.054828405380249,-0.0,-0.0,-1.0,0.021731892471101178,1.0,0
47.99290466308594,13.903202056884766,-2.048917055130005,-0.0,-0.0,-1.0,0.030042673239128924,1.0,0
48.319766998291016,15.403037071228027,-2.1104328632354736,-0.0,-0.0,-1.0,0.06285798769905532,1.0,0
48.24203109741211,15.128793716430664,-2.0961310863494873,-0.0,-0.0,-1.0,0.12512902667550704,2.0,0
48.126365661621094,14.857860565185547,-2.0765554904937744,-0.0,-0.0,-1.0,0.05596294751020129,2.0,0
48.513427734375,15.593757629394531,-2.140780210494995,-0.0,-0.0,-1.0,0.023299116207317012,2.0,0
49.174560546875,13.46245288848877,-1.8716487884521484,-0.0,-0.0,-1.0,0.16096885616825374,2.0,0
49.19892883300781,13.55527114868164,-1.8914847373962402,-0.0,-0.0,-1.0,0.16237831945857448,1.0,0
50.101593017578125,15.569385528564453,-2.1641459465026855,-0.0,-0.0,-1.0,0.03253591476934681,1.0,0
48.918128967285156,13.432668685913086,-2.055293083190918,-0.0,-0.0,-1.0,0.12620082346061245,2.0,0
48.93351364135742,13.231431007385254,-2.0449881553649902,-0.0,-0.0,-1.0,0.10107478539173076,1.0,0
48.60070037841797,14.011331558227539,-2.0407533645629883,-0.0,-0.0,-1.0,0.010312870306166564,1.0,0
48.82769012451172,13.724172592163086,-2.05930233001709,-0.0,-0.0,-1.0,0.01919672262956878,1.0,0
48.60516357421875,14.256081581115723,-2.057950496673584,-0.0,-0.0,-1.0,0.015586266954538209,1.0,0
48.37847900390625,14.856025695800781,-2.0618205070495605,0.10755276898511909,-0.7462665159762737,-0.6569008212936466,0.08591773147079422,4.0,0
48.65810775756836,14.642913818359375,-2.0932016372680664,-0.0,-0.0,-1.0,0.03711441570712556,1.0,0
48.43431091308594,15.161930084228516,-2.0927958488464355,-0.0,-0.0,-1.0,0.07927453136507726,1.0,0
48.541419982910156,15.576245307922363,-2.140620708465576,-0.0,-0.0,-1.0,0.012222232371537006,2.0,0
49.01289367675781,13.444221496582031,-2.1338512897491455,-0.0,-0.0,-1.0,0.1560298656404114,1.0,0
48.94200897216797,13.80417251586914,-2.1361048221588135,-0.0,-0.0,-1.0,0.06079218636255976,1.0,0
48.93556213378906,14.250514030456543,-2.1558101177215576,-0.0,-0.0,-1.0,0.02966364695047887,1.0,0
48.947147369384766,14.62354850769043,-2.176536798477173,-0.0,-0.0,-1.0,0.016650442374544605,1.0,0
48.282047271728516,14.93154525756836,-2.0630905628204346,-0.09086722843624763,-0.6608444122808098,-0.7450018856040203,0.10270949387592203,3.0,0
48.679962158203125,15.195051193237305,-2.1546428203582764,-0.0,-0.0,-1.0,0.0332478906911172,1.0,0
48.893707275390625,15.055301666259766,-2.188704252243042,-0.0,-0.0,-1.0,0.016491539502335773,1.0,0
48.74559020996094,15.403532981872559,-2.1789629459381104,-0.0,-0.0,-1.0,0.0168018911327887,2.0,0
49.185401916503906,13.367376327514648,-2.0898749828338623,-0.5764965197513008,0.05833840868543207,-0.815014351276522,0.27006624088269954,3.0,0
49.18861389160156,13.822006225585938,-2.1101667881011963,-0.0,-0.0,-1.0,0.08261730048039645,1.0,0
49.1884765625,14.233272552490234,-2.129072904586792,-0.0,-0.0,-1.0,0.0230155309458624,1.0,0
49.297916412353516,14.54986572265625,-2.166301965713501,-0.0,-0.0,-1.0,0.018630473633227257,1.0,0
49.200225830078125,14.967825889587402,-2.168170690536499,-0.0,-0.0,-1.0,0.03159469414492443,2.0,0
48.98649215698242,15.468472480773926,-2.1525943279266357,-0.0,-0.0,-1.0,0.03016262001213545,1.0,0
49.07373809814453,15.220809936523438,-2.1563756465911865,-0.0,-0.0,-1.0,0.06499989986418499,2.0,0
49.268253326416016,13.249289512634277,-1.8952233791351318,-0.0,-0.0,-1.0,0.09236394546081403,1.0,0
49.19908905029297,13.253631591796875,-2.0492444038391113,-0.5896783741030649,0.8004974251066955,-0.10716010224293598,0.18559936110455244,3.0,0
49.50678253173828,13.44950008392334,-2.126028537750244,-0.0,-0.0,-1.0,0.06621823567647304,1.0,0
49.51177215576172,13.67643928527832,-2.1384220123291016,-0.0,-0.0,-1.0,0.03799699036154468,2.0,0
49.329803466796875,14.128471374511719,-2.1221938133239746,-0.0,-0.0,-1.0,0.018908030801450138,1.0,0
49.416229248046875,14.02568244934082,-2.135605812072754,-0.0,-0.0,-1.0,0.021443966289805456,1.0,0
49.44631576538086,14.487985610961914,-2.1681275367736816,-0.0,-0.0,-1.0,0.018294329132252478,1.0,0
49.272682189941406,14.89091968536377,-2.153897762298584,-0.0,-0.0,-1.0,0.02419632384881133,2.0,0
49.12033462524414,15.306519508361816,-2.14656925201416,-0.0,-0.0,-1.0,0.06525977899810961,2.0,0
49.078346252441406,15.621672630310059,-2.1583356857299805,-0.0,-0.0,-1.0,0.03385377086928546,1.0,0
47.761695861816406,13.547369003295898,-2.0972492694854736,-0.0,-0.0,-1.0,0.021020892759631787,1.0,0
47.769805908203125,13.882782936096191,-2.1087372303009033,-0.0,-0.0,-1.0,0.02436002836068646,1.0,0
47.76996612548828,14.695249557495117,-2.1367218494415283,-0.0,-0.0,-1.0,0.016394511050563304,1.0,0
47.85337448120117,15.06352710723877,-2.1679136753082275,-0.0,-0.0,-1.0,0.02076950315685569,1.0,0
47.903602600097656,15.281866073608398,-2.1870951652526855,-0.0,-0.0,-1.0,0.038679861740800084,1.0,0
47.880958557128906,15.594003677368164,-2.1965272426605225,-0.9048800524454713,0.3185856648799378,0.28230349770998053,0.07805686113936239,3.0,0
48.75499725341797,13.480652809143066,-2.1012930870056152,-0.0,-0.0,-1.0,0.02671497187017634,1.0,0
48.68836212158203,13.741780281066895,-2.0992889404296875,-0.0,-0.0,-1.0,0.014914208144951554,2.0,0
48.759674072265625,14.418904304504395,-2.146366834640503,-0.0,-0.0,-1.0,0.01629287936678661,1.0,0
48.71049880981445,14.54686164855957,-2.143043041229248,-0.0,-0.0,-1.0,0.025745937171598038,1.0,0
48.57789611816406,13.94273567199707,-2.086245536804199,-0.0,-0.0,-1.0,0.009802802606797821,2.0,0
48.51861572265625,14.196815490722656,-2.0864076614379883,-0.0,-0.0,-1.0,0.012451480968786925,1.0,0
48.645870208740234,14.307805061340332,-2.1176702976226807,-0.0,-0.0,-1.0,0.015039246981355312,1.0,0
48.413082122802734,14.74651050567627,-2.093337059020996,-0.0,-0.0,-1.0,0.09127021718519554,1.0,0
48.4664192199707,15.1199369430542,-2.1249337196350098,-0.0,-0.0,-1.0,0.061612140306998575,1.0,0
48.60436248779297,15.479050636291504,-2.1742334365844727,-0.0,-0.0,-1.0,0.011261803121163092,1.0,0
49.166297912597656,13.358552932739258,-1.8498520851135254,-0.863014111273467,0.42960800024953016,0.2657886563878664,0.13715622090442908,3.0,0
47.718360900878906,13.858121871948242,-2.0663328170776367,-0.0,-0.0,-1.0,0.02455844265210362,1.0,0
47.78651809692383,15.061387062072754,-2.1293272972106934,-0.0,-0.0,-1.0,0.019244894009743573,1.0,0
47.77854537963867,15.480810165405273,-2.1481168270111084,-0.0,-0.0,-1.0,0.042955330380295545,1.0,0
49.20688247680664,13.347984313964844,-1.8197696208953857,-0.4385632629805301,-0.6741947625532335,-0.594242111020129,0.15149801199928611,4.0,0
49.225868225097656,13.275836944580078,-1.9745421409606934,-0.7875588453146589,0.15307598864346408,-0.5969244565834668,0.09108639031978123,5.0,0
50.10295867919922,13.426956176757812,-2.1795835494995117,-0.0,-0.0,-1.0,0.01117337198498462,1.0,0
50.14318084716797,13.74180793762207,-2.1989569664001465,-0.0,-0.0,-1.0,0.0023398256925190168,1.0,0
50.17591094970703,14.151979446411133,-2.221550703048706,-0.0,-0.0,-1.0,0.005126104135566085,1.0,0
50.144500732421875,14.557525634765625,-2.2311339378356934,-0.0,-0.0,-1.0,0.004392066397281777,1.0,0
50.05236053466797,15.009279251098633,-2.230908155441284,-0.0,-0.0,-1.0,0.01981700441727103,1.0,0
49.62833786010742,15.420427322387695,-2.1537718772888184,-0.0,-0.0,-1.0,0.04307042257007962,1.0,0
50.139434814453125,15.354086875915527,-2.268901824951172,-0.0,-0.0,-1.0,0.03350841570659263,1.0,0
48.082489013671875,13.488313674926758,-2.0847654342651367,-0.0,-0.0,-1.0,0.03223056964701329,1.0,0
48.07136535644531,13.912389755249023,-2.090620994567871,-0.0,-0.0,-1.0,0.023025871411132,1.0,0
48.130615234375,14.298311233520508,-2.1179304122924805,-0.0,-0.0,-1.0,0.02652047123883894,1.0,0
48.105770111083984,14.695063591003418,-2.12501859664917,-0.0,-0.0,-1.0,0.05166342626753815,2.0,0
48.19914627075195,14.783052444458008,-2.154430866241455,-0.0,-0.0,-1.0,0.060353644622229606,1.0,0
48.15873336791992,15.105246543884277,-2.157289505004883,-0.0,-0.0,-1.0,0.08763693445516464,1.0,0
48.22615432739258,15.047550201416016,-2.1733593940734863,-0.0,-0.0,-1.0,0.08831268721349471,1.0,0
48.15614318847656,15.389762878417969,-2.170393466949463,-0.0,-0.0,-1.0,0.08136645092714571,1.0,0
48.243690490722656,15.584248542785645,-2.205331325531006,-0.0,-0.0,-1.0,0.025155975540575366,1.0,0
49.261695861816406,13.35549259185791,-1.8868829011917114,-0.0,-0.0,-1.0,0.15318632654571165,2.0,0
49.239830017089844,13.451202392578125,-2.1066839694976807,-0.0,-0.0,-1.0,0.15340387920200377,1.0,0
49.25184631347656,13.856651306152344,-2.1178112030029297,-0.0,-0.0,-1.0,0.07209728932287902,1.0,0
49.328346252441406,14.22739315032959,-2.14945125579834,-0.0,-0.0,-1.0,0.016341909213160068,1.0,0
49.39155960083008,14.619091033935547,-2.181199312210083,-0.0,-0.0,-1.0,0.02190740720279725,1.0,0
49.238059997558594,15.034537315368652,-2.1559834480285645,-0.0,-0.0,-1.0,0.031389036298853555,1.0,0
49.2144775390625,15.430719375610352,-2.170036792755127,-0.0,-0.0,-1.0,0.03292578093181652,1.0,0
50.16733932495117,13.154752731323242,-2.2110111713409424,-0.0,-0.0,-1.0,0.018929297000935312,1.0,0
49.097557067871094,13.413544654846191,-2.118319511413574,-0.0,-0.0,-1.0,0.20618503973452595,2.0,0
49.28252410888672,13.342418670654297,-2.1313555240631104,-0.0,-0.0,-1.0,0.167877699974599,1.0,0
48.332481384277344,14.230642318725586,-2.1241815090179443,-0.0,-0.0,-1.0,0.01679438828829139,1.0,0
49.171836853027344,13.860013961791992,-2.176924467086792,-0.0,-0.0,-1.0,0.10323612352891356,1.0,0
48.097450256347656,14.696616172790527,-2.151543378829956,-0.0,-0.0,-1.0,0.051663426267538205,2.0,0
48.30373764038086,14.501996994018555,-2.1522181034088135,-0.0,-0.0,-1.0,0.02961902941284847,1.0,0
48.92308807373047,14.14174747467041,-2.1807515621185303,-0.0,-0.0,-1.0,0.03171777002217291,2.0,0
49.01286315917969,14.060881614685059,-2.1816885471343994,-0.0,-0.0,-1.0,0.03320041766802893,1.0,0
48.10100555419922,14.972858428955078,-2.184252977371216,-0.0,-0.0,-1.0,0.047561130051277316,1.0,0
49.406742095947266,15.435345649719238,-2.0976390838623047,-0.0,-0.0,-1.0,0.06765847067821414,1.0,0
49.21784210205078,13.314136505126953,-1.9803872108459473,-0.8020208394427739,-0.39049959838090803,-0.45196530482312275,0.1185604308555961,4.0,0
49.60340881347656,14.224000930786133,-2.1107730865478516,-0.0,-0.0,-1.0,0.011724250515479345,1.0,0
49.843345642089844,14.181843757629395,-2.13731050491333,-0.0,-0.0,-1.0,0.006119889387390458,1.0,0
49.654052734375,14.662677764892578,-2.157830238342285,-0.0,-0.0,-1.0,0.011425758604668473,1.0,0
49.94237518310547,14.546340942382812,-2.183400869369507,-0.0,-0.0,-1.0,0.006264218148433581,1.0,0
48.33232116699219,15.051061630249023,-2.028527021408081,-0.0,-0.0,-1.0,0.12669204938002612,2.0,0
49.30327606201172,15.017861366271973,-2.147313117980957,-0.0,-0.0,-1.0,0.05922058538843169,2.0,0
49.70307922363281,14.845439910888672,-2.181234121322632,-0.0,-0.0,-1.0,0.006316786369948499,1.0,0
48.85120391845703,15.46678352355957,-2.1342453956604004,-0.0,-0.0,-1.0,0.025792240196666337,2.0,0
49.10737609863281,15.315366744995117,-2.1514647006988525,-0.0,-0.0,-1.0,0.06454052078418561,2.0,0
49.34735107421875,15.24388313293457,-2.144011974334717,-0.0,-0.0,-1.0,0.12427504512700488,1.0,0
49.47863006591797,15.518392562866211,-2.1994333267211914,-0.0,-0.0,-1.0,0.04813513550957983,1.0,0
49.79205322265625,15.270878791809082,-2.199929714202881,-0.0,-0.0,-1.0,0.02739065990899052,1.0,0
49.203025817871094,13.408610343933105,-1.8801225423812866,-0.0,-0.0,-1.0,0.18578967394396356,1.0,0
49.17967224121094,13.337509155273438,-2.0879600048065186,-0.0,-0.0,-1.0,0.23931697096009072,2.0,0
49.13426971435547,13.824450492858887,-2.1171059608459473,0.252908148916223,0.791570885498667,-0.5562850001956068,0.10626206689263597,3.0,0
49.540626525878906,13.702543258666992,-2.167325973510742,-0.0,-0.0,-1.0,0.019088105132841544,2.0,0
49.06884765625,14.094297409057617,-2.128044843673706,-0.0,-0.0,-1.0,0.028442439622061742,2.0,0
49.12306594848633,14.512788772583008,-2.1683623790740967,-0.0,-0.0,-1.0,0.015597807504815498,1.0,0
48.329959869384766,14.935991287231445,-2.0876657962799072,-0.5255051000927776,-0.722157369194549,-0.44981454388946557,0.06347495476177563,3.0,0
49.030364990234375,14.995555877685547,-2.1935834884643555,-0.0,-0.0,-1.0,0.02508945391331744,1.0,0
49.09381103515625,14.851190567016602,-2.1910717487335205,-0.0,-0.0,-1.0,0.025357363811839607,1.0,0
48.680503845214844,15.367674827575684,-2.1739518642425537,-0.0,-0.0,-1.0,0.014348767267586524,1.0,0
48.744224548339844,15.384888648986816,-2.1845719814300537,-0.0,-0.0,-1.0,0.016801891132788703,2.0,0
49.16081237792969,13.334630012512207,-2.0104527473449707,-0.0,-0.0,-1.0,0.16283435763352275,2.0,0
49.25701141357422,13.148195266723633,-2.013894557952881,-0.0,-0.0,-1.0,0.16654492695682296,1.0,0
50.04237365722656,13.20644760131836,-2.136557102203369,-0.0,-0.0,-1.0,0.018929297000935305,1.0,0
49.142539978027344,13.928503036499023,-2.044455051422119,-0.20818553349625726,0.9708511014850685,-0.11877256580586298,0.08761517217928587,7.0,0
50.020545959472656,13.765939712524414,-2.1669416427612305,-0.0,-0.0,-1.0,0.002306249484717686,1.0,0
49.361141204833984,14.270255088806152,-2.0994672775268555,-0.0,-0.0,-1.0,0.019033661987386114,2.0,0
49.558013916015625,14.163169860839844,-2.1221814155578613,-0.0,-0.0,-1.0,0.013551451852408853,1.0,0
50.040748596191406,13.956268310546875,-2.1818628311157227,-0.0,-0.0,-1.0,0.004783642029617506,1.0,0
49.642303466796875,14.56116008758545,-2.1610002517700195,-0.0,-0.0,-1.0,0.016099899902088308,1.0,0
49.30447769165039,15.042034149169922,-2.1431493759155273,-0.0,-0.0,-1.0,0.05904326360587691,2.0,0
49.58709716796875,14.891735076904297,-2.1750388145446777,-0.0,-0.0,-1.0,0.02907329006334569,1.0,0
49.06629943847656,15.506906509399414,-2.140730857849121,-0.0,-0.0,-1.0,0.02932305684714741,2.0,0
49.172386169433594,15.276145935058594,-2.139925956726074,-0.0,-0.0,-1.0,0.07508685912955178,2.0,0
48.032928466796875,13.475472450256348,-2.0592498779296875,-0.0,-0.0,-1.0,0.034370255542893115,1.0,0
47.91105651855469,13.970434188842773,-2.0793092250823975,-0.0,-0.0,-1.0,0.028081554789502496,1.0,0
47.97869873046875,13.769392013549805,-2.074105739593506,-0.0,-0.0,-1.0,0.03158440789995742,1.0,0
47.771629333496094,14.293842315673828,-2.0831143856048584,-0.0,-0.0,-1.0,0.020689868170636318,2.0,0
47.72392272949219,14.637065887451172,-2.1061391830444336,-0.0,-0.0,-1.0,0.016913489242235305,1.0,0
47.73457336425781,15.080453872680664,-2.150270938873291,-0.0,-0.0,-1.0,0.01677299301577858,1.0,0
49.16050720214844,13.423445701599121,-1.8481194972991943,-0.0,-0.0,-1.0,0.1522814626540042,2.0,0
47.90115737915039,13.34632682800293,-2.087444543838501,0.3138496892423167,-0.4008035213693842,-0.8607292895100077,0.03504540383770733,3.0,0
47.8167839050293,13.727134704589844,-2.1063802242279053,-0.0,-0.0,-1.0,0.02939345525373526,1.0,0
47.747650146484375,13.977703094482422,-2.1170029640197754,-0.0,-0.0,-1.0,0.020283700918596825,1.0,0
50.13603210449219,15.465892791748047,-2.125734329223633,-0.0,-0.0,-1.0,0.033601363429025546,1.0,0
49.30841827392578,13.201093673706055,-2.061020851135254,-0.0,-0.0,-1.0,0.16451132024048504,1.0,0
49.135711669921875,13.429018020629883,-2.0427122116088867,-0.18367817189248775,-0.18058863888601853,-0.966255697357345,0.2261443757863457,3.0,0
49.37578201293945,13.494200706481934,-2.097540855407715,-0.0,-0.0,-1.0,0.08906529854052286,1.0,0
49.15956115722656,14.070953369140625,-2.1004443168640137,-0.0,-0.0,-1.0,0.06495668234680546,1.0,0
49.41326904296875,13.809511184692383,-2.130580425262451,-0.0,-0.0,-1.0,0.02447166446658879,1.0,0
49.17360305786133,14.32929801940918,-2.12593412399292,-0.0,-0.0,-1.0,0.01717916569220311,1.0,0
48.34294509887695,14.984121322631836,-2.0200257301330566,0.8838004979120614,-0.43535775387705616,-0.17134849293039153,0.13008140136835017,3.0,0
49.20566940307617,14.732749938964844,-2.1693005561828613,-0.0,-0.0,-1.0,0.019357565264775934,1.0,0
48.86997985839844,15.265142440795898,-2.153489589691162,-0.0,-0.0,-1.0,0.015205047728652327,2.0,0
49.07997512817383,15.042093276977539,-2.173429012298584,-0.0,-0.0,-1.0,0.023295054291300736,1.0,0
48.75505828857422,15.553352355957031,-2.160233974456787,-0.0,-0.0,-1.0,0.019080269133505693,1.0,0
48.245948791503906,13.345650672912598,-2.0863211154937744,-0.0,-0.0,-1.0,0.034116957219254854,1.0,0
48.0950927734375,13.63235092163086,-2.082573890686035,-0.0,-0.0,-1.0,0.030770672347460604,1.0,0
48.27483367919922,13.427337646484375,-2.1019206047058105,-0.0,-0.0,-1.0,0.02163123606266862,1.0,0
47.968299865722656,14.057828903198242,-2.1024868488311768,-0.0,-0.0,-1.0,0.02371051707143319,2.0,0
47.83097457885742,14.50026798248291,-2.1256070137023926,-0.0,-0.0,-1.0,0.02298368672232281,1.0,0
47.93772888183594,14.293676376342773,-2.124042272567749,-0.0,-0.0,-1.0,0.027329389558670685,1.0,0
47.771053314208984,14.879331588745117,-2.161515235900879,-0.0,-0.0,-1.0,0.018031098806418056,1.0,0
48.13640594482422,13.219738006591797,-2.049675464630127,-0.0,-0.0,-1.0,0.03206595734051666,1.0,0
48.03709411621094,13.696022033691406,-2.06632137298584,-0.0,-0.0,-1.0,0.02868951507612864,1.0,0
48.16224670410156,13.476465225219727,-2.0784692764282227,-0.0,-0.0,-1.0,0.030228099161974272,1.0,0
47.99491500854492,14.05998706817627,-2.0910840034484863,-0.0,-0.0,-1.0,0.023967294246610003,2.0,0
47.87788009643555,14.601042747497559,-2.1191439628601074,-0.0,-0.0,-1.0,0.030647216538941587,1.0,0
47.995235443115234,14.31808853149414,-2.1176490783691406,-0.0,-0.0,-1.0,0.02775110453836628,1.0,0
47.78312301635742,15.225839614868164,-2.169081687927246,-0.0,-0.0,-1.0,0.03531236611946921,2.0,0
47.848960876464844,14.97859001159668,-2.155351161956787,-0.0,-0.0,-1.0,0.026353442596520404,1.0,0
49.9754638671875,15.607854843139648,-2.2035117149353027,-0.0,-0.0,-1.0,0.03260214524333777,1.0,0
49.22580337524414,13.341073036193848,-1.8505100011825562,0.3822925826142819,-0.9239817923780678,0.010489453365910728,0.13413599082902858,4.0,0
49.052181243896484,13.954559326171875,-2.136627435684204,-0.0,-0.0,-1.0,0.08537260645887917,1.0,0
49.17988204956055,13.642181396484375,-2.13779616355896,-0.0,-0.0,-1.0,0.06190329737234298,1.0,0
49.01889419555664,14.182971954345703,-2.1522133350372314,-0.0,-0.0,-1.0,0.025329337170415085,2.0,0
48.40926742553711,15.075313568115234,-2.109729528427124,-0.0,-0.0,-1.0,0.09013120882825523,1.0,0
48.595130920410156,14.977609634399414,-2.1411144733428955,-0.0,-0.0,-1.0,0.06972909413409492,1.0,0
48.90215301513672,14.71059799194336,-2.1820342540740967,-0.0,-0.0,-1.0,0.020901341602136924,1.0,0
49.009239196777344,14.4818754196167,-2.181734561920166,-0.0,-0.0,-1.0,0.017909341376475308,1.0,0
48.549903869628906,15.612607955932617,-2.2111597061157227,-0.0,-0.0,-1.0,0.011881323848596805,1.0,0
48.62742614746094,15.314876556396484,-2.190349578857422,-0.0,-0.0,-1.0,0.018033960006927637,1.0,0
47.74212646484375,14.148611068725586,-2.0828094482421875,-0.0,-0.0,-1.0,0.021727438179255588,2.0,0
47.92607116699219,13.911552429199219,-2.0768051147460938,-0.0,-0.0,-1.0,0.031238900887964924,1.0,0
47.86600112915039,13.341848373413086,-2.032665252685547,-0.0,-0.0,-1.0,0.032838573763953854,2.0,0
49.98257827758789,15.41751480102539,-2.0880088806152344,-0.0,-0.0,-1.0,0.03360136342902556,1.0,0
47.75675582885742,14.324490547180176,-2.058000087738037,0.055468645306779224,0.648810575721309,-0.7589255999240073,0.02235167986594224,3.0,0
48.91505432128906,13.720595359802246,-2.077392816543579,-0.0,-0.0,-1.0,0.03542558185774427,1.0,0
48.60213088989258,13.922383308410645,-2.075660228729248,-0.0,-0.0,-1.0,0.00979721437180702,2.0,0
48.235023498535156,13.987383842468262,-2.052633047103882,-0.0,-0.0,-1.0,0.014178682917716148,1.0,0
47.85976791381836,14.019896507263184,-2.025670051574707,-0.0,-0.0,-1.0,0.027238977756353724,1.0,0
50.03939437866211,15.560404777526855,-2.3398544788360596,-0.0,-0.0,-1.0,0.03136266561535437,1.0,0
49.78563690185547,15.61844539642334,-2.318434000015259,-0.0,-0.0,-1.0,0.03029263865363784,1.0,0
49.350189208984375,15.558245658874512,-2.2649919986724854,-0.0,-0.0,-1.0,0.0423462270557291,1.0,0
48.91206359863281,15.595852851867676,-2.223179340362549,-0.0,-0.0,-1.0,0.0250062205037951,1.0,0
50.136436462402344,15.483487129211426,-2.3423521518707275,-0.0,-0.0,-1.0,0.033601363429025546,1.0,0
49.511146545410156,15.233525276184082,-2.2467691898345947,-0.0,-0.0,-1.0,0.06257411742164194,1.0,0
48.839134216308594,13.483044624328613,-1.9847562313079834,-0.0,-0.0,-1.0,0.06335926767585925,1.0,0
49.45748519897461,15.099626541137695,-1.9431523084640503,-0.0,-0.0,-1.0,0.0799662984087835,1.0,0
49.372467041015625,15.229007720947266,-1.9595876932144165,-0.0,-0.0,-1.0,0.11785867148991504,1.0,0
49.13442611694336,15.253778457641602,-1.959144949913025,-0.0,-0.0,-1.0,0.07461278262083813,1.0,0
48.419898986816406,15.168130874633789,-1.9363657236099243,-0.0,-0.0,-1.0,0.11432459229935152,1.0,0
48.16703414916992,15.416624069213867,-1.9679268598556519,-0.0,-0.0,-1.0,0.09600313755591557,1.0,0
47.897193908691406,15.504083633422852,-1.976866602897644,-0.0,-0.0,-1.0,0.10336773357726184,1.0,0
49.33526611328125,13.344892501831055,-1.7020071744918823,-0.0,-0.0,-1.0,0.12045661982144404,1.0,0
48.42517852783203,14.882894515991211,-1.8965076208114624,-0.0,-0.0,-1.0,0.10803302095673653,1.0,0
48.136314392089844,15.202632904052734,-1.937266230583191,-0.0,-0.0,-1.0,0.1096838119725644,1.0,0
49.04348373413086,13.43505859375,-1.8559305667877197,-0.0,-0.0,-1.0,0.13659599088160077,1.0,0
49.91666793823242,15.484979629516602,-2.1925456523895264,-0.0,-0.0,-1.0,0.03184304151594304,1.0,0
49.866844177246094,15.059427261352539,-2.155694007873535,-0.0,-0.0,-1.0,0.023346175844641884,1.0,0
49.49678039550781,15.27064323425293,-2.1377320289611816,-0.0,-0.0,-1.0,0.07589753930697239,1.0,0
49.39078140258789,15.575523376464844,-2.151195764541626,-0.0,-0.0,-1.0,0.04161618758412989,2.0,0
49.25169372558594,15.196516036987305,-2.109614372253418,-0.0,-0.0,-1.0,0.08257751338585903,1.0,0
49.169315338134766,15.598812103271484,-2.1326816082000732,-0.0,-0.0,-1.0,0.038227036160000276,2.0,0
49.11009979248047,13.318648338317871,-1.9544966220855713,-0.0,-0.0,-1.0,0.11085396276199598,1.0,0
49.678993225097656,13.841954231262207,-2.1435647010803223,-0.0,-0.0,-1.0,0.005138187300285138,1.0,0
49.13804626464844,13.280012130737305,-2.0430495738983154,-0.8213122725339125,0.4967196250205363,0.28056329963956106,0.15006450061508297,4.0,0
49.167816162109375,13.779691696166992,-2.09053635597229,-0.0,-0.0,-1.0,0.08568474352082987,1.0,0
49.014442443847656,13.950420379638672,-2.0919268131256104,0.29828951977950097,0.8409979507931704,-0.4513821099150947,0.082492818986221,3.0,0
48.75037384033203,14.043339729309082,-2.076411247253418,-0.0,-0.0,-1.0,0.01839084336988261,1.0,0
48.84480285644531,14.4921236038208,-2.1268930435180664,-0.0,-0.0,-1.0,0.019108298203546148,2.0,0
48.498390197753906,14.137029647827148,-2.0623080730438232,-0.0,-0.0,-1.0,0.012582637194992512,1.0,0
48.110496520996094,14.37448501586914,-2.050203323364258,-0.0,-0.0,-1.0,0.03468729013553417,2.0,0
48.13975143432617,14.83958911895752,-2.097825288772583,-0.0,-0.0,-1.0,0.0552178144479258,2.0,0
48.048912048339844,15.14856243133545,-2.1203410625457764,-0.0,-0.0,-1.0,0.08467262924837597,1.0,0
47.991310119628906,15.563974380493164,-2.1570162773132324,-0.0,-0.0,-1.0,0.08122505519689112,2.0,0
49.934471130371094,13.335240364074707,-2.1496171951293945,-0.0,-0.0,-1.0,0.01726835125232008,1.0,0
49.595375061035156,13.767687797546387,-2.1571459770202637,-0.0,-0.0,-1.0,0.011385275541868672,1.0,0
49.242225646972656,13.677277565002441,-2.1142773628234863,-0.0,-0.0,-1.0,0.0795698045964352,1.0,0
49.07944869995117,13.789941787719727,-2.109463691711426,-0.0,-0.0,-1.0,0.07200879555904988,2.0,0
48.98847961425781,13.946706771850586,-2.1160030364990234,-0.0,-0.0,-1.0,0.07788718897966367,2.0,0
48.661888122558594,14.467432022094727,-2.136960983276367,-0.0,-0.0,-1.0,0.01450478279542045,1.0,0
48.04420471191406,15.414576530456543,-2.178997039794922,-0.0,-0.0,-1.0,0.07957618334382305,1.0,0
47.97857666015625,15.47700309753418,-2.179813861846924,-0.0,-0.0,-1.0,0.08184674943710925,1.0,0
49.14353561401367,13.273503303527832,-2.066284656524658,-0.8632097006820706,0.3948750291869178,-0.3145516237011037,0.14623250773923463,3.0,0
48.84673309326172,13.962698936462402,-2.104033946990967,-0.0,-0.0,-1.0,0.02934788162846566,2.0,0
48.553260803222656,14.039114952087402,-2.083731174468994,-0.0,-0.0,-1.0,0.011088103684134959,1.0,0
48.49356460571289,14.254878997802734,-2.099684238433838,-0.0,-0.0,-1.0,0.011295694407953333,1.0,0
48.08888244628906,15.183195114135742,-2.1583499908447266,-0.0,-0.0,-1.0,0.07505591518396579,1.0,0
48.12480926513672,14.341693878173828,-2.0739917755126953,-0.0,-0.0,-1.0,0.03176825576519865,2.0,0
47.9887809753418,14.758821487426758,-2.1045303344726562,-0.021966407107245102,-0.2344400151222828,-0.9718823777948968,0.03828331991126648,3.0,0
47.99518585205078,14.969209671020508,-2.1271867752075195,-0.0,-0.0,-1.0,0.036538201330040924,1.0,0
47.82262420654297,15.584668159484863,-2.177542209625244,-0.0,-0.0,-1.0,0.07805686113936237,1.0,0
48.86937713623047,13.463289260864258,-2.0975842475891113,-0.0,-0.0,-1.0,0.10003081741446658,2.0,0
48.70331573486328,13.721944808959961,-2.099846124649048,-0.0,-0.0,-1.0,0.014531291713720097,2.0,0
48.193565368652344,14.060638427734375,-2.0713980197906494,-0.0,-0.0,-1.0,0.011321631431891433,1.0,0
48.07175827026367,14.435651779174805,-2.090202569961548,-0.0,-0.0,-1.0,0.03954742831286346,1.0,0
47.995330810546875,14.796005249023438,-2.113647937774658,-0.0,-0.0,-1.0,0.03720281888289695,2.0,0
48.07096862792969,15.264976501464844,-2.1641013622283936,-0.0,-0.0,-1.0,0.09365275198532191,2.0,0
47.89152526855469,15.60624885559082,-2.176476240158081,-0.9048800524454713,0.3185856648799378,0.28230349770998053,0.07729583518559813,3.0,0
48.12908172607422,13.140743255615234,-1.988373041152954,-0.0,-0.0,-1.0,0.032065957340516614,1.0,0
48.0539436340332,13.654317855834961,-2.021779775619507,-0.0,-0.0,-1.0,0.033671542080499745,2.0,0
48.059730529785156,14.069379806518555,-2.0573132038116455,-0.0,-0.0,-1.0,0.023473532320604888,1.0,0
47.940460205078125,14.764776229858398,-2.104874610900879,-0.0,-0.0,-1.0,0.033352938462585496,2.0,0
50.122314453125,13.98391342163086,-2.151902914047241,-0.0,-0.0,-1.0,0.004961938388914893,1.0,0
50.024261474609375,14.141128540039062,-2.138458490371704,-0.0,-0.0,-1.0,0.005619843210457518,1.0,0
49.85710144042969,15.110916137695312,-2.1212399005889893,-0.0,-0.0,-1.0,0.026343804096379233,1.0,0
49.4943962097168,14.259347915649414,-2.0648066997528076,-0.0,-0.0,-1.0,0.013247890880555715,1.0,0
49.2941780090332,15.215417861938477,-2.0451605319976807,-0.0,-0.0,-1.0,0.10852026374241895,1.0,0
49.13874816894531,13.326854705810547,-2.0126640796661377,-0.0,-0.0,-1.0,0.17368101770200056,2.0,0
49.126930236816406,13.922233581542969,-2.011979341506958,-0.34143371695869157,0.9397465288767141,0.017305443881602378,0.081727352533682,3.0,0
49.0889892578125,13.336971282958984,-2.1223220825195312,-0.0,-0.0,-1.0,0.1533941646099632,2.0,0
49.13475799560547,13.572662353515625,-2.148745536804199,-0.0,-0.0,-1.0,0.10871729820580135,1.0,0
48.87621307373047,13.764995574951172,-2.135427474975586,-0.0,-0.0,-1.0,0.021882023347959363,1.0,0
48.4433479309082,14.04677963256836,-2.1101584434509277,-0.0,-0.0,-1.0,0.013780520007708127,1.0,0
48.19835662841797,14.301776885986328,-2.1051297187805176,-0.0,-0.0,-1.0,0.025704691309655858,2.0,0
48.18584442138672,14.119701385498047,-2.086574077606201,-0.0,-0.0,-1.0,0.020106668451602822,2.0,0
48.013023376464844,14.501814842224121,-2.1024045944213867,-0.0,-0.0,-1.0,0.033222601838091385,1.0,0
47.953556060791016,14.835878372192383,-2.127650260925293,-0.0,-0.0,-1.0,0.03469096679951962,1.0,0
48.054630279541016,15.265490531921387,-2.181441307067871,-0.0,-0.0,-1.0,0.0878682930566004,2.0,0
47.89131546020508,15.62515640258789,-2.198486328125,-0.9048800524454713,0.3185856648799378,0.28230349770998053,0.07729583518559811,3.0,0
50.00413513183594,14.96863079071045,-2.168407440185547,-0.0,-0.0,-1.0,0.014592852472253682,1.0,0
49.92237854003906,15.038427352905273,-2.1671090126037598,-0.0,-0.0,-1.0,0.012800745391598726,1.0,0
49.417808532714844,15.162590980529785,-2.1269354820251465,-0.0,-0.0,-1.0,0.08275861248649573,1.0,0
49.34279251098633,15.50820541381836,-2.156313419342041,-0.0,-0.0,-1.0,0.038508919540916814,1.0,0
49.223934173583984,15.288414001464844,-2.1199913024902344,-0.0,-0.0,-1.0,0.08640128090464891,2.0,0
49.21291732788086,15.591058731079102,-2.1517558097839355,-0.0,-0.0,-1.0,0.03842834533042895,2.0,0
49.97544860839844,15.017487525939941,-2.167283296585083,-0.0,-0.0,-1.0,0.018041312413915045,1.0,0
49.446136474609375,15.382819175720215,-2.1352286338806152,-0.0,-0.0,-1.0,0.07182117657514048,1.0,0
49.403106689453125,15.552464485168457,-2.144336700439453,-0.0,-0.0,-1.0,0.061112249197854414,2.0,0
49.20869064331055,13.28462028503418,-1.9430263042449951,-0.9209912223813103,0.3398145866141689,-0.19052877740861482,0.09255203367266426,4.0,0
49.265541076660156,15.244701385498047,-2.102701425552368,-0.0,-0.0,-1.0,0.0828268491265044,1.0,0
49.16996383666992,13.33859920501709,-1.8056966066360474,0.07202239666208088,-0.9066494402831606,-0.41569167277356095,0.13953249171471158,3.0,0
48.844608306884766,15.495734214782715,-2.1303632259368896,-0.0,-0.0,-1.0,0.026223762746285767,2.0,0
48.84228515625,15.251555442810059,-2.143728733062744,-0.0,-0.0,-1.0,0.014166852515653187,2.0,0
48.96385955810547,14.998541831970215,-2.1693594455718994,-0.0,-0.0,-1.0,0.02209743194281208,1.0,0
48.11775207519531,14.10970401763916,-2.1377761363983154,-0.0,-0.0,-1.0,0.020746632503208958,1.0,0
48.90244674682617,14.155783653259277,-2.2100579738616943,-0.0,-0.0,-1.0,0.028981975468099008,2.0,0
49.17966842651367,13.50056266784668,-1.9227349758148193,-0.0,-0.0,-1.0,0.22515849614817562,1.0,0
47.946617126464844,13.557744026184082,-2.0876500606536865,-0.0,-0.0,-1.0,0.03302702929122689,1.0,0
47.93824005126953,13.355230331420898,-2.078068971633911,0.3138496892423167,-0.4008035213693842,-0.8607292895100077,0.0354869583824069,3.0,0
47.7923469543457,14.17746353149414,-2.0968730449676514,-0.0,-0.0,-1.0,0.023678928032253917,2.0,0
47.922393798828125,13.849990844726562,-2.097465991973877,-0.0,-0.0,-1.0,0.028948608104662498,1.0,0
47.98838806152344,15.072508811950684,-2.1593096256256104,-0.0,-0.0,-1.0,0.03297314563267471,1.0,0
48.106178283691406,15.3974609375,-2.1876280307769775,-0.0,-0.0,-1.0,0.08326264937785881,2.0,0
49.17267608642578,13.416277885437012,-1.982323408126831,-0.0,-0.0,-1.0,0.12352442496424453,2.0,0
49.10353088378906,13.557291030883789,-1.9737354516983032,-0.0,-0.0,-1.0,0.2018021432584533,1.0,0
48.16870880126953,15.006492614746094,-2.0835494995117188,-0.0,-0.0,-1.0,0.09112911098560016,1.0,0
48.062156677246094,14.344133377075195,-2.046539306640625,-0.0,-0.0,-1.0,0.027773710568093038,2.0,0
48.07952880859375,14.008462905883789,-2.0366806983947754,-0.0,-0.0,-1.0,0.022557069219640995,1.0,0
48.42211151123047,15.279022216796875,-2.1241703033447266,-0.0,-0.0,-1.0,0.044227593465784275,1.0,0
48.303977966308594,14.85726547241211,-2.0943737030029297,-0.0,-0.0,-1.0,0.054986365909768395,1.0,0
48.31993103027344,14.038976669311523,-2.0668840408325195,-0.0,-0.0,-1.0,0.012906221160013696,1.0,0
48.53559875488281,13.728076934814453,-2.082200527191162,-0.0,-0.0,-1.0,0.007674904929193896,1.0,0
48.61622619628906,15.590944290161133,-2.1591734886169434,-0.0,-0.0,-1.0,0.014593844979794948,1.0,0
48.97234344482422,13.980868339538574,-2.1744706630706787,-0.0,-0.0,-1.0,0.04300587414000992,1.0,0
49.09473419189453,13.770586967468262,-2.181314468383789,-0.0,-0.0,-1.0,0.06685932042704341,1.0,0
49.358116149902344,13.8017578125,-2.2143876552581787,-0.0,-0.0,-1.0,0.032274878078359916,1.0,0
49.091400146484375,15.451854705810547,-2.0355441570281982,-0.0,-0.0,-1.0,0.053851662383949894,1.0,0
49.570552825927734,15.451496124267578,-2.0590479373931885,-0.0,-0.0,-1.0,0.0481127956310025,1.0,0
48.2221565246582,15.045642852783203,-1.9478671550750732,-0.0,-0.0,-1.0,0.1420758645402916,1.0,0
50.05247116088867,14.909250259399414,-2.193136215209961,-0.0,-0.0,-1.0,0.009726954936565202,2.0,0
49.64867401123047,14.768964767456055,-2.166548728942871,-0.0,-0.0,-1.0,0.007159150032561292,1.0,0
49.436370849609375,14.738183975219727,-2.1579031944274902,-0.0,-0.0,-1.0,0.015127749513917049,1.0,0
49.25556945800781,14.892740249633789,-2.172792434692383,-0.0,-0.0,-1.0,0.024271216442780907,2.0,0
48.89098358154297,14.810571670532227,-2.154639720916748,-0.0,-0.0,-1.0,0.02283085158486442,2.0,0
48.212425231933594,14.108983993530273,-2.0534462928771973,-0.0,-0.0,-1.0,0.01839342646792751,2.0,0
48.06599044799805,14.317831039428711,-2.076186180114746,0.8137209109362262,0.483036142415846,-0.32331774498956467,0.02944041108630232,3.0,0
48.01988983154297,14.678159713745117,-2.119917869567871,-0.0,-0.0,-1.0,0.04806183961043024,1.0,0
49.21843338012695,14.878074645996094,-2.2650768756866455,-0.0,-0.0,-1.0,0.02313312197644105,1.0,0
49.01399230957031,15.00247573852539,-2.2710087299346924,-0.0,-0.0,-1.0,0.023894587218115514,1.0,0
48.731258392333984,15.030017852783203,-2.262833833694458,-0.0,-0.0,-1.0,0.01715098464723557,1.0,0
48.000972747802734,14.411293029785156,-2.1627719402313232,-0.0,-0.0,-1.0,0.026624589448217273,1.0,0
47.848541259765625,14.746131896972656,-2.195512056350708,-0.0,-0.0,-1.0,0.03059327550924613,1.0,0
48.28844451904297,13.772737503051758,-2.068821668624878,-0.0,-0.0,-1.0,0.005635425984475049,1.0,0
47.93338394165039,14.101457595825195,-2.0754101276397705,-0.0,-0.0,-1.0,0.024419229823607683,1.0,0
48.10395050048828,13.584774017333984,-2.0352017879486084,-0.0,-0.0,-1.0,0.023354989035163563,1.0,0
47.7731819152832,14.149396896362305,-2.0682504177093506,0.2852893557603954,-0.7728629062485206,-0.5668270561951937,0.022308811340629196,3.0,0
47.721527099609375,14.301494598388672,-2.0802342891693115,-0.0,-0.0,-1.0,0.021359584224198445,2.0,0
50.030426025390625,14.927785873413086,-2.1971983909606934,-0.0,-0.0,-1.0,0.008972672205767066,2.0,0
49.72943115234375,14.962261199951172,-2.179025650024414,-0.0,-0.0,-1.0,0.026202748461058273,1.0,0
49.38398742675781,15.042346954345703,-2.1628360748291016,-0.0,-0.0,-1.0,0.09257673255932,2.0,0
49.233604431152344,15.201993942260742,-2.1695518493652344,-0.0,-0.0,-1.0,0.0799300296313749,1.0,0
49.314395904541016,13.235437393188477,-1.9641752243041992,-0.0,-0.0,-1.0,0.14783897011702798,1.0,0
48.36574172973633,14.858518600463867,-2.070446014404297,0.10755276898511909,-0.7462665159762737,-0.6569008212936466,0.08591773147079423,4.0,0
47.981109619140625,13.339254379272461,-2.053577423095703,-0.0,-0.0,-1.0,0.036939141504225476,1.0,0
47.78058624267578,13.443151473999023,-2.0531601905822754,-0.0,-0.0,-1.0,0.03157131233006413,1.0,0
49.91777038574219,14.976908683776855,-2.2229833602905273,-0.0,-0.0,-1.0,0.01195587660765815,1.0,0
49.26522445678711,15.63318920135498,-2.1883115768432617,-0.0,-0.0,-1.0,0.03842834533042895,1.0,0
49.1348991394043,13.844269752502441,-2.0886178016662598,-0.0,-0.0,-1.0,0.08178569101396028,2.0,0
49.15338134765625,13.29836368560791,-2.0620951652526855,-0.8632097006820706,0.3948750291869178,-0.3145516237011037,0.13584392923812644,3.0,0
48.363826751708984,14.84892463684082,-2.0570287704467773,0.10755276898511909,-0.7462665159762737,-0.6569008212936466,0.06835283995515946,4.0,0
49.12789535522461,13.92291259765625,-2.029810667037964,-0.2632434633326426,0.9620023328763,-0.07248717509457966,0.08927016170560911,5.0,0
49.181758880615234,13.695667266845703,-2.031414747238159,-0.0,-0.0,-1.0,0.11433124914926601,1.0,0
49.18128204345703,13.242023468017578,-2.0379703044891357,-0.20198992040446628,0.7864785617536391,-0.5836536164172414,0.1281649647980304,4.0,0
49.11616134643555,13.38807201385498,-2.0313432216644287,-0.6577278262701245,0.06620639447295182,-0.7503404693076797,0.2489733671236483,4.0,0
48.4295539855957,14.27997875213623,-2.033933401107788,-0.0,-0.0,-1.0,0.012991125780618857,1.0,0
48.05425262451172,13.405313491821289,-1.9712493419647217,-0.0,-0.0,-1.0,0.035750233421756546,1.0,0
47.9499626159668,13.892589569091797,-1.972161054611206,-0.0,-0.0,-1.0,0.02734500777502349,1.0,0
48.752296447753906,13.694901466369629,-2.0990078449249268,-0.0,-0.0,-1.0,0.015243451232660757,1.0,0
48.18061447143555,14.95448112487793,-2.0799577236175537,-0.0,-0.0,-1.0,0.10489978764211576,2.0,0
48.63307189941406,15.53101634979248,-2.161595106124878,-0.0,-0.0,-1.0,0.01595186992808224,1.0,0
