x,y,z,nx,ny,nz,curvature,density,label
34.26001739501953,-19.556102752685547,0.30010318756103516,-0.0,-0.0,-1.0,0.06143213175391406,1.0,1
34.980133056640625,-19.451648712158203,0.2500748634338379,-0.0,-0.0,-1.0,0.05926797807662876,1.0,1
34.3232307434082,-21.53949737548828,0.7248942852020264,-0.0,-0.0,-1.0,0.06882730774107236,2.0,1
34.22967529296875,-21.603763580322266,0.7271124124526978,-0.0,-0.0,-1.0,0.09728026073131266,1.0,1
35.03406524658203,-20.474910736083984,0.40734779834747314,-0.18592055804798488,0.7136165540957985,-0.6754146576848656,0.04412752955718655,3.0,1
32.89140319824219,-20.749126434326172,0.555637001991272,-0.7082544330704721,0.10070722391207149,-0.6987372274953922,0.19309714807926873,3.0,1
32.73787307739258,-20.963607788085938,0.5536092519760132,-0.0,-0.0,-1.0,0.06324807657222299,2.0,1
33.57011413574219,-20.093324661254883,0.5444430112838745,0.5840974161899745,-0.7501423812666681,-0.31002679920898507,0.1750646667487766,5.0,1
33.3770751953125,-20.345043182373047,0.5439771413803101,0.9213794885142188,-0.2658324506889469,0.28353649907196254,0.05956751407027283,5.0,1
33.18184280395508,-20.687881469726562,0.5377802848815918,-0.0,-0.0,-1.0,0.03435750196231345,1.0,1
32.906707763671875,-21.039289474487305,0.5365526676177979,-0.0,-0.0,-1.0,0.054593885968926614,1.0,1
33.88254165649414,-19.725648880004883,0.5421091318130493,0.22429226697507776,-0.7277020481481986,-0.6481841621762271,0.18200149367725313,3.0,1
33.81563949584961,-20.01478385925293,0.5301696062088013,-0.0,-0.0,-1.0,0.13147703064645816,2.0,1
34.538230895996094,-20.313884735107422,0.45602357387542725,-0.5095708856747794,0.3943701728732035,-0.7647285003323601,0.049466389216911294,4.0,1
35.09678649902344,-19.790143966674805,0.44169318675994873,0.3364359541492463,-0.8895124696715827,0.3091575893528215,0.24215625815395755,7.0,1
34.944854736328125,-19.84453582763672,0.4508575201034546,-0.0,-0.0,-1.0,0.14036720436904832,1.0,1
34.64312744140625,-20.197856903076172,0.37721896171569824,-0.0,-0.0,-1.0,0.04080967273947673,1.0,1
34.61597442626953,-20.28200912475586,0.3733006715774536,-0.0,-0.0,-1.0,0.04640759310359238,2.0,1
34.795135498046875,-20.260387420654297,0.3612562417984009,-0.0,-0.0,-1.0,0.03975702047798905,1.0,1
33.61751937866211,-19.554733276367188,0.5000348091125488,-0.0,-0.0,-1.0,0.1627134242723559,2.0,1
33.35704803466797,-19.878665924072266,0.4952683448791504,-0.8138261329569808,-0.2849909634048601,-0.5064258841072955,0.17471990711171131,3.0,1
33.19342041015625,-20.141971588134766,0.48724377155303955,-0.5777269036598927,0.4245681878873811,-0.6971179804176469,0.14001490725189766,3.0,1
32.96124267578125,-20.49350357055664,0.4765968322753906,-0.0,-0.0,-1.0,0.194892034733804,2.0,1
32.70942687988281,-20.828536987304688,0.4675818681716919,-0.0,-0.0,-1.0,0.1405898732715417,1.0,1
33.78607177734375,-19.58038330078125,0.48567795753479004,-0.0,-0.0,-1.0,0.1622979441040777,1.0,1
33.690650939941406,-19.909626007080078,0.46883857250213623,0.6679422264566142,0.7415650925439479,-0.06272476095185298,0.18086698063855003,4.0,1
32.88487243652344,-21.32290267944336,0.5842019319534302,-0.0,-0.0,-1.0,0.04385944690918794,2.0,1
32.810813903808594,-21.38241958618164,0.5853043794631958,-0.0,-0.0,-1.0,0.05565235546051733,2.0,1
32.76121139526367,-21.05174446105957,0.5238316059112549,-0.0,-0.0,-1.0,0.04813758139319516,1.0,1
34.18211364746094,-21.769866943359375,0.7221221923828125,-0.0,-0.0,-1.0,0.1400524147120734,1.0,1
32.72265625,-20.13564109802246,0.3975038528442383,-0.0,-0.0,-1.0,0.11775157427592146,1.0,1
32.88906478881836,-19.928436279296875,0.36453962326049805,-0.0,-0.0,-1.0,0.1418933882753804,1.0,1
33.15715789794922,-19.499828338623047,0.31034040451049805,-0.0,-0.0,-1.0,0.15520561783711245,1.0,1
33.1263313293457,-19.750715255737305,0.3152909278869629,-0.0,-0.0,-1.0,0.06250087214828591,1.0,1
34.518306732177734,-20.447832107543945,0.4760613441467285,-0.0,-0.0,-1.0,0.05283934471630038,2.0,1
35.121124267578125,-20.002077102661133,0.3662238121032715,-0.6554087186298815,-0.0371666246067994,-0.754359366323024,0.13440502729676745,3.0,1
35.125999450683594,-20.148706436157227,0.36575770378112793,0.4474754735949631,0.4513461768786966,-0.7720442533611318,0.09734434684335432,4.0,1
32.72056579589844,-21.625076293945312,0.7840793132781982,-0.0,-0.0,-1.0,0.07621047028648235,1.0,1
32.90412902832031,-20.559600830078125,0.7657053470611572,0.8857085412031547,0.450887124208677,-0.1105494516612751,0.1448439251490078,3.0,1
32.831687927246094,-20.641250610351562,0.7779397964477539,-0.400743339323119,-0.21395809439367383,-0.8908572892621934,0.13290209720854992,8.0,1
32.7945671081543,-21.572521209716797,0.7721061706542969,-0.0,-0.0,-1.0,0.08976871039484023,2.0,1
32.940677642822266,-20.489572525024414,0.7596943378448486,-0.0,-0.0,-1.0,0.1683616899057461,2.0,1
33.50067901611328,-21.619857788085938,0.6476650238037109,-0.0,-0.0,-1.0,0.05407551316807433,2.0,1
33.555030822753906,-21.7639102935791,0.6358828544616699,-0.0,-0.0,-1.0,0.05608715254177218,2.0,1
33.65092849731445,-20.347270965576172,0.6328904628753662,-0.0,-0.0,-1.0,0.06245017926990167,1.0,1
33.46139907836914,-20.815013885498047,0.6641135215759277,-0.0,-0.0,-1.0,0.10391664094152521,1.0,1
33.71944046020508,-21.05294418334961,0.6159837245941162,0.3977576490287952,-0.8447718024614849,-0.35797968434683486,0.1182258272044328,3.0,1
33.664459228515625,-21.500530242919922,0.6205325126647949,-0.0,-0.0,-1.0,0.035188797373742954,2.0,1
33.749237060546875,-19.849470138549805,0.6155300140380859,-0.0,-0.0,-1.0,0.1535098569892137,2.0,1
33.72687911987305,-20.14507484436035,0.6196322441101074,-0.0,-0.0,-1.0,0.12634170211852033,2.0,1
33.855491638183594,-20.56769561767578,0.5950896739959717,-0.0,-0.0,-1.0,0.10006904077417787,1.0,1
34.20441436767578,-19.663619995117188,0.5321598052978516,-0.0,-0.0,-1.0,0.13497943713556246,1.0,1
34.171897888183594,-19.881071090698242,0.5388033390045166,-0.0,-0.0,-1.0,0.10319619978869692,1.0,1
34.48072052001953,-19.577510833740234,0.4811708927154541,-0.0,-0.0,-1.0,0.10715263589521017,2.0,1
34.536590576171875,-20.12183380126953,0.4728884696960449,-0.0,-0.0,-1.0,0.11203591443532299,1.0,1
32.92724609375,-19.88355827331543,0.32655858993530273,-0.0,-0.0,-1.0,0.12527920171094326,1.0,1
32.81608963012695,-20.103670120239258,0.355557918548584,-0.0,-0.0,-1.0,0.09896707015191687,1.0,1
33.065799713134766,-19.63515853881836,0.2897348403930664,-0.0,-0.0,-1.0,0.06264894183426355,1.0,1
32.82008743286133,-21.59711456298828,0.77518630027771,-0.0,-0.0,-1.0,0.08431527572645525,2.0,1
32.84793472290039,-20.616724014282227,0.753854513168335,-0.7302983410394952,0.5466665028583174,-0.40965847693855695,0.16088881428285406,4.0,1
33.505706787109375,-21.859033584594727,0.6524378061294556,-0.0,-0.0,-1.0,0.05157350923132403,1.0,1
32.959999084472656,-20.519330978393555,0.7306996583938599,-0.0,-0.0,-1.0,0.14007771183151277,2.0,1
33.494815826416016,-20.87462043762207,0.6381726264953613,-0.0,-0.0,-1.0,0.10764815899955915,1.0,1
33.684654235839844,-21.59200668334961,0.61572265625,-0.10933046611502005,-0.6806609653158759,-0.724394574437393,0.038049569094028665,4.0,1
33.71327590942383,-21.857816696166992,0.6142628192901611,-0.0,-0.0,-1.0,0.0441915246348372,1.0,1
33.63884353637695,-20.194091796875,0.5943512916564941,-0.0,-0.0,-1.0,0.21717202727533666,2.0,1
33.78398895263672,-20.60470962524414,0.5776937007904053,-0.0,-0.0,-1.0,0.08226963342187608,2.0,1
33.72447967529297,-21.04323959350586,0.5986816883087158,-0.0,-0.0,-1.0,0.11822582720443274,2.0,1
33.78242492675781,-20.120813369750977,0.5649011135101318,-0.0,-0.0,-1.0,0.12913470774968483,2.0,1
33.82256317138672,-20.482643127441406,0.5673558712005615,-0.0,-0.0,-1.0,0.09611825081523272,2.0,1
33.98951721191406,-19.670042037963867,0.5112595558166504,-0.0,-0.0,-1.0,0.20983152474414773,1.0,1
34.07857131958008,-19.926570892333984,0.5027709007263184,-0.0,-0.0,-1.0,0.080256074105761,1.0,1
32.94989013671875,-20.347890853881836,0.41774988174438477,-0.004167698994906948,-0.6610940462170042,-0.7502914715905533,0.09200008101441583,3.0,1
32.9249382019043,-20.532028198242188,0.42588090896606445,-0.0,-0.0,-1.0,0.08809543482374906,1.0,1
33.09015655517578,-20.0179500579834,0.380199670791626,-0.36106790151499096,-0.7397171047159933,-0.5678455560151445,0.10752632298323164,3.0,1
33.29070281982422,-19.680213928222656,0.32662343978881836,-0.13988422746349038,0.34760728690072584,-0.9271470093790191,0.06240863551752767,3.0,1
35.160980224609375,-20.27352523803711,0.3842124938964844,-0.0,-0.0,-1.0,0.08433619562961663,1.0,1
35.16630554199219,-19.894981384277344,0.3692173957824707,-0.0,-0.0,-1.0,0.12473983057369811,1.0,1
33.81333541870117,-21.76527214050293,0.6702747344970703,0.47397665077875256,0.8562802044713426,-0.20525678051424304,0.07836328786478176,4.0,1
32.93025207519531,-20.560659408569336,0.8121993541717529,-0.0,-0.0,-1.0,0.14484392514900776,2.0,1
33.571327209472656,-21.017108917236328,0.7028727531433105,-0.0,-0.0,-1.0,0.062390284588519425,1.0,1
34.02488708496094,-21.52467918395996,0.6281867027282715,-0.0,-0.0,-1.0,0.06611437213985213,2.0,1
33.96808624267578,-21.646480560302734,0.6404824256896973,-0.0,-0.0,-1.0,0.10842907321790407,1.0,1
33.90550231933594,-20.678314208984375,0.6330478191375732,0.4966610114308212,-0.4765597885562835,-0.7254092690720901,0.11368842894740358,3.0,1
34.230777740478516,-21.282577514648438,0.5859851837158203,-0.0,-0.0,-1.0,0.02429394027769091,2.0,1
33.658023834228516,-19.74181365966797,0.6508090496063232,-0.0,-0.0,-1.0,0.11919002688798742,1.0,1
33.68577194213867,-20.015260696411133,0.6550334692001343,-0.0,-0.0,-1.0,0.11424433301088434,2.0,1
33.88862991333008,-20.318811416625977,0.626265287399292,-0.0,-0.0,-1.0,0.0867550361845438,1.0,1
34.06324768066406,-20.579307556152344,0.6008877754211426,-0.0,-0.0,-1.0,0.08530111897466708,1.0,1
34.299163818359375,-20.893320083618164,0.5648324489593506,-0.0,-0.0,-1.0,0.04436963627852636,1.0,1
33.79851531982422,-19.816421508789062,0.6268086433410645,-0.0,-0.0,-1.0,0.11705255589278313,1.0,1
34.3366584777832,-20.422054290771484,0.5449697971343994,-0.0,-0.0,-1.0,0.06467858297548175,2.0,1
34.65945816040039,-19.421327590942383,0.44660186767578125,-0.0,-0.0,-1.0,0.041322388399569025,1.0,1
32.76923751831055,-21.42166519165039,0.6823633909225464,-0.0,-0.0,-1.0,0.0877079258227758,1.0,1
32.94302749633789,-21.451526641845703,0.6469335556030273,-0.0,-0.0,-1.0,0.07423636440738525,2.0,1
33.281856536865234,-21.33359718322754,0.57826828956604,-0.0,-0.0,-1.0,0.05317221030476892,1.0,1
33.13373565673828,-20.620819091796875,0.6049535274505615,-0.0,-0.0,-1.0,0.10167763019533527,2.0,1
33.39216613769531,-20.909536361694336,0.5539491176605225,-0.0,-0.0,-1.0,0.1112306715060453,2.0,1
32.75733947753906,-19.93665313720703,0.3063929080963135,-0.0,-0.0,-1.0,0.12671433254098663,1.0,1
32.77713394165039,-20.046344757080078,0.3027806282043457,-0.6895409644613465,0.4318729326690027,-0.5813940388046567,0.12787205030940646,3.0,1
33.43623733520508,-20.29036521911621,0.53688645362854,-0.0,-0.0,-1.0,0.06799193994666787,2.0,1
33.42936706542969,-20.482742309570312,0.541468620300293,0.14370721367106878,0.9471595629225212,0.28676994107353015,0.06379417170991175,4.0,1
32.85417556762695,-19.586769104003906,0.2768268585205078,-0.0,-0.0,-1.0,0.04603839122418397,1.0,1
33.497501373291016,-19.98981475830078,0.5177328586578369,-0.0,-0.0,-1.0,0.12833475706072317,1.0,1
33.82275390625,-19.680131912231445,0.44020652770996094,0.1605990724850026,-0.7352299731119779,-0.6585171406688798,0.21216722715169925,3.0,1
32.836612701416016,-20.595195770263672,0.6665799617767334,0.7512879993844658,0.43307035963858026,-0.49801245524926174,0.11183414085334259,4.0,1
32.91160202026367,-21.710060119628906,0.7897679805755615,-0.0,-0.0,-1.0,0.07599637732507268,2.0,1
33.66230010986328,-21.839719772338867,0.6443800926208496,-0.0,-0.0,-1.0,0.04763066105363973,1.0,1
33.98786163330078,-21.54108428955078,0.5838468074798584,-0.0,-0.0,-1.0,0.06390601955688632,1.0,1
32.83892059326172,-20.62832260131836,0.44716405868530273,-0.0,-0.0,-1.0,0.15651015264780954,2.0,1
32.91808319091797,-20.618804931640625,0.42889952659606934,-0.0,-0.0,-1.0,0.08464791209085672,1.0,1
33.401611328125,-21.08230209350586,0.7000267505645752,0.15385894441381093,-0.9809973789354295,-0.11820138639493764,0.1281737057554047,4.0,1
33.69523239135742,-21.07550811767578,0.6423327922821045,0.44229260904195,-0.8403710871081297,-0.3132948833600142,0.11133409970569519,3.0,1
34.05278396606445,-21.269227981567383,0.5719943046569824,-0.0,-0.0,-1.0,0.02484017425608214,1.0,1
32.93946838378906,-20.356201171875,0.42513012886047363,0.126205021831782,-0.5957230221586943,-0.7932126911078459,0.09358165682301459,4.0,1
33.02262878417969,-20.26837921142578,0.40586352348327637,-0.0,-0.0,-1.0,0.06709569271102694,1.0,1
33.89657974243164,-20.637269973754883,0.6003129482269287,0.703731737733691,-0.43320685871739273,-0.563110521005005,0.13293068209271688,3.0,1
34.22649383544922,-20.75300407409668,0.5355415344238281,-0.0,-0.0,-1.0,0.06194628116310727,2.0,1
33.03583526611328,-20.08392333984375,0.40235471725463867,-0.0,-0.0,-1.0,0.13837990828592522,1.0,1
33.18412780761719,-19.917387008666992,0.36614179611206055,-0.7747674423444283,-0.3288941999479807,-0.5399666800124344,0.07774659474231736,3.0,1
33.666141510009766,-20.134347915649414,0.640547513961792,-0.0,-0.0,-1.0,0.1966687722731651,1.0,1
34.2032356262207,-20.474679946899414,0.5372979640960693,-0.31327562360427846,0.5871755946840168,-0.7463800671660665,0.114235963041734,3.0,1
34.318782806396484,-20.427194595336914,0.5134196281433105,-0.0,-0.0,-1.0,0.06665971829566147,2.0,1
33.30509948730469,-19.654407501220703,0.33412671089172363,0.03520198672570229,0.47411358027797157,-0.8797597019223865,0.054026950974179,4.0,1
33.68197250366211,-19.85881233215332,0.6324687004089355,-0.0,-0.0,-1.0,0.19760759621409382,1.0,1
34.22843933105469,-19.721744537353516,0.5180008411407471,-0.0,-0.0,-1.0,0.12005456573258634,2.0,1
35.086219787597656,-20.142412185668945,0.3528752326965332,0.33893127282751095,0.4394306040615242,-0.8318812033659899,0.05191209881267214,3.0,1
34.62118911743164,-19.565631866455078,0.4333467483520508,-0.0,-0.0,-1.0,0.07913450812661005,2.0,1
35.17680358886719,-20.025955200195312,0.3318464756011963,-0.16807561842566385,0.9608266828390124,-0.22036939904490135,0.11123944339260448,3.0,1
32.84491729736328,-20.643827438354492,0.8093971014022827,0.6388893800763752,0.2577732094925132,-0.7248264154220331,0.13666754099139977,5.0,1
32.91642761230469,-20.57656478881836,0.795050859451294,0.7988736875408222,0.40304053991813377,-0.4464965336230819,0.1515372075356831,4.0,1
33.851890563964844,-21.622394561767578,0.588090181350708,-0.0,-0.0,-1.0,0.0720537864342679,1.0,1
32.88665008544922,-20.521726608276367,0.4799339771270752,-0.0,-0.0,-1.0,0.12126347835646256,2.0,1
32.971195220947266,-20.64109992980957,0.4560861587524414,-0.8988899979681594,-0.2552366396817625,-0.3561615213870873,0.09577149218179663,3.0,1
34.235862731933594,-20.748714447021484,0.5222113132476807,-0.0,-0.0,-1.0,0.0628688707689026,2.0,1
33.061580657958984,-20.288944244384766,0.44199085235595703,0.539058601219666,-0.840826601563362,0.04925901495669812,0.07934043615059073,3.0,1
34.528480529785156,-20.349699020385742,0.4611694812774658,-0.6366161103966264,0.2591136538043309,-0.726347053684146,0.049160350146909164,5.0,1
33.26362991333008,-19.904449462890625,0.396914005279541,-0.6854000828365763,-0.35853333851544594,-0.633782747966985,0.14499875125459963,7.0,1
34.51525115966797,-20.192737579345703,0.46378111839294434,-0.9983093308077876,0.03234904157691783,0.04829098809469727,0.07661725852943378,3.0,1
34.95347595214844,-20.284143447875977,0.36928343772888184,0.9491803596955012,0.24366295279954117,-0.1992109690788326,0.028311825174505933,3.0,1
35.148033142089844,-20.07876968383789,0.32582616806030273,-0.0,-0.0,-1.0,0.09647602580274944,1.0,1
32.71140670776367,-19.382102966308594,0.22119522094726562,-0.0,-0.0,-1.0,0.04209918570940695,1.0,1
33.387779235839844,-19.66144561767578,0.3671097755432129,0.6207135804780479,0.6505357040021545,-0.4376276371854766,0.051908891687583655,3.0,1
33.58292007446289,-19.52736473083496,0.3175168037414551,-0.0,-0.0,-1.0,0.19110799634477832,1.0,1
34.6064338684082,-19.577783584594727,0.4387359619140625,-0.0,-0.0,-1.0,0.08513705940778729,2.0,1
35.195281982421875,-19.427471160888672,0.30681633949279785,-0.0,-0.0,-1.0,0.07628960277013214,1.0,1
32.737571716308594,-21.8343505859375,0.8073331117630005,-0.0,-0.0,-1.0,0.0776014124153349,1.0,1
32.95524597167969,-21.73111915588379,0.7674020528793335,-0.0,-0.0,-1.0,0.0646501260389066,1.0,1
33.591583251953125,-21.813045501708984,0.6361411809921265,-0.0,-0.0,-1.0,0.04973426718959499,2.0,1
33.527244567871094,-21.721269607543945,0.6519143581390381,0.9407723931319012,0.04344021536392615,-0.3362443337961415,0.05513836450063933,4.0,1
33.766746520996094,-21.53839111328125,0.6074814796447754,-0.0,-0.0,-1.0,0.05367751223173884,1.0,1
33.3874626159668,-21.08503532409668,0.6960991621017456,-0.013757788530986597,-0.9989116640616224,0.04456692334430159,0.13592820632376315,5.0,1
33.82738494873047,-21.234111785888672,0.6016194820404053,-0.0,-0.0,-1.0,0.03736688093610189,1.0,1
32.85215377807617,-20.59814453125,0.8163264989852905,0.18700098766636755,0.07150500974030007,-0.9797538793971895,0.09129184719726759,7.0,1
33.875972747802734,-20.760400772094727,0.5983898639678955,-0.0,-0.0,-1.0,0.08465800727676584,1.0,1
33.64645004272461,-20.195276260375977,0.650969386100769,-0.0,-0.0,-1.0,0.1885159999758123,1.0,1
33.840396881103516,-20.457717895507812,0.608440637588501,0.6716201709336181,-0.11147822200073529,-0.7324608877029901,0.1182973730906351,3.0,1
34.22164535522461,-20.478132247924805,0.5268549919128418,-0.31327562360427846,0.5871755946840168,-0.7463800671660665,0.04820812381282007,3.0,1
33.63329315185547,-19.963821411132812,0.653711199760437,-0.0,-0.0,-1.0,0.13641177754544678,2.0,1
33.07493591308594,-21.804786682128906,0.6708947420120239,-0.0,-0.0,-1.0,0.041157512413659045,1.0,1
33.433692932128906,-21.785900115966797,0.5929782390594482,-0.0,-0.0,-1.0,0.05339376245804587,1.0,1
33.44137191772461,-21.593101501464844,0.603712797164917,-0.0,-0.0,-1.0,0.0530434067232548,1.0,1
33.59532928466797,-21.4312686920166,0.578498363494873,-0.0,-0.0,-1.0,0.01925845722621742,1.0,1
35.18046951293945,-21.526613235473633,0.5914795398712158,-0.0,-0.0,-1.0,0.020607647764302885,2.0,1
32.888580322265625,-20.82424545288086,0.4728701114654541,-0.0,-0.0,-1.0,0.12244878706499178,2.0,1
33.44599533081055,-21.08309555053711,0.6316590309143066,-0.0,-0.0,-1.0,0.13859140462766606,1.0,1
33.671695709228516,-21.081993103027344,0.5795252323150635,-0.0,-0.0,-1.0,0.11270683720686131,2.0,1
35.16748809814453,-21.22757339477539,0.6023871898651123,0.5530628534029919,0.8085009784772993,-0.2011160062923644,0.027466773577350716,3.0,1
32.96367263793945,-20.522994995117188,0.4716920852661133,-0.0,-0.0,-1.0,0.1876499009944467,2.0,1
33.579925537109375,-20.810876846313477,0.6137123107910156,-0.0,-0.0,-1.0,0.09118758217644998,2.0,1
33.805145263671875,-20.643754959106445,0.5676794052124023,-0.0,-0.0,-1.0,0.08467971420228784,2.0,1
33.18457794189453,-20.1924991607666,0.4292008876800537,-0.8678073692356106,-0.03119728010170389,-0.49592045694307074,0.12260493216441083,4.0,1
33.79703903198242,-20.36763572692871,0.5794677734375,-0.0,-0.0,-1.0,0.1465377132461978,1.0,1
34.30935287475586,-20.34885025024414,0.45731067657470703,-0.0,-0.0,-1.0,0.039427902220042,2.0,1
34.5167236328125,-20.1973876953125,0.4115936756134033,-0.8057311206966067,-0.16791768972285726,-0.5679797625084266,0.0770860369927465,3.0,1
33.28580856323242,-19.917306900024414,0.41309690475463867,-0.9740957652956278,-0.22596734011634542,-0.008729331811128976,0.17042929302435303,5.0,1
33.47199249267578,-19.768951416015625,0.3663957118988037,-0.0,-0.0,-1.0,0.10414151823512406,2.0,1
34.190555572509766,-19.845121383666992,0.4973421096801758,-0.0,-0.0,-1.0,0.1037148635994429,2.0,1
35.006126403808594,-20.004981994628906,0.2962925434112549,-0.0,-0.0,-1.0,0.09436193133422908,1.0,1
33.71063995361328,-19.454757690429688,0.3075225353240967,0.12071444335718495,0.562762194373409,-0.8177571373879841,0.19742794906265723,3.0,1
34.55215072631836,-19.53418731689453,0.412708044052124,-0.0,-0.0,-1.0,0.08297308822426944,1.0,1
35.172908782958984,-19.60641860961914,0.2592427730560303,-0.0,-0.0,-1.0,0.06051590420952167,1.0,1
32.75252151489258,-21.725404739379883,0.7469013929367065,-0.9452730244744796,-0.15469364653295603,-0.2872782360764679,0.07839211432617092,3.0,1
32.81564712524414,-20.611740112304688,0.8002591133117676,0.5036694726020183,0.35436742213108896,-0.787871050680866,0.11426172891855502,8.0,1
32.85416030883789,-20.578250885009766,0.7929168939590454,0.24522764995135246,0.39817414503776305,-0.8839234977772584,0.10221450776267875,5.0,1
33.59449005126953,-20.13084602355957,0.6349118947982788,0.9724054908397429,0.2307193076897736,0.0345855814447343,0.19824376741417674,3.0,1
33.73716354370117,-20.11378288269043,0.6012387275695801,-0.0,-0.0,-1.0,0.12330331025006588,2.0,1
33.57282257080078,-19.88742446899414,0.6462593078613281,-0.0,-0.0,-1.0,0.18289057452564988,1.0,1
33.72899627685547,-19.90610694885254,0.60821533203125,0.1428698288528372,-0.9664393730727208,-0.2135021081356515,0.1874521301689973,3.0,1
35.187530517578125,-19.75333023071289,0.6171872615814209,-0.12602034306821658,-0.07388349732965144,-0.9892725114726013,0.14242346506477122,5.0,1
33.57856750488281,-21.782625198364258,0.6101861000061035,0.7680387917151896,0.5728607686748557,0.2862637841815225,0.051901954826395424,3.0,1
33.79597473144531,-21.656402587890625,0.5668370723724365,-0.0,-0.0,-1.0,0.053878152133119674,1.0,1
33.753082275390625,-21.38250732421875,0.596745491027832,-0.0,-0.0,-1.0,0.03625815834020583,1.0,1
33.85110092163086,-21.47677230834961,0.5654747486114502,-0.0,-0.0,-1.0,0.05629447364637645,1.0,1
35.15231704711914,-21.51247787475586,0.5804555416107178,-0.0,-0.0,-1.0,0.020607647764302885,2.0,1
33.72178649902344,-20.947355270385742,0.6315827369689941,-0.0,-0.0,-1.0,0.1278975622564707,2.0,1
33.93947982788086,-21.180374145507812,0.5625169277191162,-0.0,-0.0,-1.0,0.030699881954865536,1.0,1
33.851078033447266,-20.678688049316406,0.6120741367340088,0.2857714370456488,-0.8191869026656329,-0.4972599966516026,0.09853875621166472,4.0,1
34.0687255859375,-20.61370086669922,0.5580110549926758,-0.26980444755810185,-0.671828535613536,-0.6898202510895424,0.09368251503997048,3.0,1
33.84461975097656,-20.401020050048828,0.6260898113250732,-0.22486108299048532,-0.05085444016562136,-0.9730628547384734,0.1478262175040859,3.0,1
34.232234954833984,-20.428062438964844,0.5221669673919678,-0.0,-0.0,-1.0,0.12202433840064483,1.0,1
34.547576904296875,-20.35487937927246,0.44017529487609863,-0.6366161103966264,0.2591136538043309,-0.726347053684146,0.05231092943361889,5.0,1
34.905357360839844,-20.25020408630371,0.3465092182159424,-0.0,-0.0,-1.0,0.06286605263104418,1.0,1
35.16136169433594,-19.931987762451172,0.44683194160461426,-0.0,-0.0,-1.0,0.08005579661974234,1.0,1
34.627437591552734,-19.501909255981445,0.43326473236083984,-0.0,-0.0,-1.0,0.07778439210308,1.0,1
35.17118835449219,-19.608966827392578,0.4458885192871094,-0.0,-0.0,-1.0,0.08359204964311322,1.0,1
35.18511199951172,-19.37044906616211,0.2781870365142822,-0.0,-0.0,-1.0,0.07628960277013219,2.0,1
34.1621208190918,-21.67284393310547,0.7659002542495728,-0.23403128229073908,0.07532843737222437,-0.9693064455745721,0.15405097355311137,3.0,1
34.175331115722656,-21.634185791015625,0.7657150030136108,-0.5262462674375689,0.1758426238772849,-0.8319520645061097,0.11985763170179974,3.0,1
34.850948333740234,-21.54403305053711,0.6051290035247803,-0.0,-0.0,-1.0,0.013125471886332661,1.0,1
35.096588134765625,-21.509300231933594,0.5452384948730469,-0.0,-0.0,-1.0,0.019203237474673892,1.0,1
33.76836013793945,-19.477214813232422,0.4643371105194092,-0.3695411479754371,0.09750904100918578,-0.9240840475164936,0.22710300666205477,3.0,1
33.583404541015625,-19.449092864990234,0.497347354888916,0.1945493839660255,0.188120088913143,-0.962684459906646,0.2005460705761151,4.0,1
35.0712890625,-19.73318862915039,0.4261171817779541,-0.44103557900581675,-0.6489475129983657,-0.6199635016871877,0.2664307763537707,3.0,1
33.40956115722656,-19.439620971679688,0.29122471809387207,-0.0,-0.0,-1.0,0.08181496914935975,2.0,1
33.18090057373047,-20.17961311340332,0.43731212615966797,-0.8678073692356106,-0.03119728010170389,-0.49592045694307074,0.12835822690186027,4.0,1
33.1988410949707,-20.801074981689453,0.5077981948852539,-0.0,-0.0,-1.0,0.07837549619227496,1.0,1
32.81864929199219,-20.531097412109375,0.56052565574646,-0.0,-0.0,-1.0,0.15961391776780967,1.0,1
33.423614501953125,-21.72447395324707,0.5510890483856201,-0.0,-0.0,-1.0,0.05538485792258249,1.0,1
35.04662322998047,-19.386959075927734,0.28490686416625977,-0.0,-0.0,-1.0,0.06976612141210156,1.0,1
34.98944091796875,-20.062753677368164,0.3677394390106201,-0.0,-0.0,-1.0,0.08658201286509434,1.0,1
35.028472900390625,-20.482128143310547,0.401261568069458,-0.18592055804798488,0.7136165540957985,-0.6754146576848656,0.06553313358603427,3.0,1
33.06814193725586,-19.365835189819336,0.2352457046508789,-0.0,-0.0,-1.0,0.09362926086917539,1.0,1
33.07611083984375,-19.52423858642578,0.2568647861480713,-0.0,-0.0,-1.0,0.05896353480905234,1.0,1
32.802032470703125,-19.966100692749023,0.37881898880004883,0.2507283399355288,0.9419795569419047,-0.22318112343275612,0.1285833942939448,3.0,1
32.881996154785156,-20.324691772460938,0.41071391105651855,-0.0,-0.0,-1.0,0.07938108080410708,2.0,1
33.584964752197266,-20.0915584564209,0.6406383514404297,0.7517267011822476,0.6480201562532277,-0.12237991591432865,0.13534924339828464,4.0,1
33.47084045410156,-19.875347137451172,0.637453556060791,-0.0,-0.0,-1.0,0.20842308751945451,2.0,1
34.93508529663086,-21.63672637939453,0.5194211006164551,-0.0,-0.0,-1.0,0.01479061278198698,2.0,1
34.7122917175293,-21.372154235839844,0.5437281131744385,-0.0,-0.0,-1.0,0.01167586222254961,1.0,1
34.4210205078125,-20.989105224609375,0.5692770481109619,-0.0,-0.0,-1.0,0.04980496794708915,1.0,1
34.07026290893555,-20.862916946411133,0.6271944046020508,-0.0,-0.0,-1.0,0.08647099913120047,1.0,1
33.870155334472656,-20.508211135864258,0.6309850215911865,-0.0,-0.0,-1.0,0.10295386301882639,1.0,1
34.291786193847656,-21.237808227539062,0.6174166202545166,0.19067788328675694,-0.46477658947577993,-0.8646529168981879,0.042416652501623624,4.0,1
34.04965591430664,-21.72201919555664,0.7072539329528809,-0.7846439518721052,-0.590682197140813,0.18822436285302463,0.1399322379801437,3.0,1
32.905208587646484,-21.085954666137695,0.5013668537139893,-0.0,-0.0,-1.0,0.036831244584413454,1.0,1
32.79444122314453,-20.54553985595703,0.8414003849029541,-0.0,-0.0,-1.0,0.14398617369576977,2.0,1
35.10496139526367,-19.772735595703125,0.43495821952819824,-0.4340418058129582,-0.8469663482463277,-0.30701093750045155,0.2078153725894135,9.0,1
35.12809371948242,-21.242168426513672,0.5480866432189941,0.10241246292928707,0.5167495752153215,-0.849989155196431,0.027466773577350716,3.0,1
33.45307159423828,-19.41475486755371,0.2746744155883789,-0.0,-0.0,-1.0,0.12576636288486676,2.0,1
35.163963317871094,-21.566165924072266,0.5621998310089111,-0.0,-0.0,-1.0,0.020162172343569623,2.0,1
35.11004638671875,-21.443283081054688,0.5650229454040527,-0.0,-0.0,-1.0,0.021993938071474928,1.0,1
33.28416442871094,-19.64797592163086,0.33969664573669434,0.10103412510677512,0.44360221236746034,-0.89051063033891,0.0523595149999504,5.0,1
33.09273147583008,-20.268184661865234,0.45545220375061035,-0.0,-0.0,-1.0,0.07387761530550727,2.0,1
33.182987213134766,-19.859355926513672,0.38738369941711426,-0.0,-0.0,-1.0,0.11084612006851788,1.0,1
34.37532043457031,-21.327190399169922,0.7014997005462646,-0.7311645263265912,-0.13740583965210842,-0.6682200765250251,0.02989400155008712,4.0,1
35.16639709472656,-19.812110900878906,0.4568777084350586,-0.0,-0.0,-1.0,0.21031972633332247,2.0,1
35.00799560546875,-19.77536392211914,0.4802370071411133,-0.0,-0.0,-1.0,0.20914401164540272,1.0,1
35.166748046875,-21.36628532409668,0.6167452335357666,-0.0,-0.0,-1.0,0.02372441172116019,1.0,1
33.337425231933594,-19.553871154785156,0.31502652168273926,-0.0,-0.0,-1.0,0.03429364126245251,2.0,1
33.10118103027344,-19.9885311126709,0.42584729194641113,-0.4671701967751181,0.8829007718189517,0.047309981680373495,0.13113238068161176,3.0,1
33.203521728515625,-19.795001983642578,0.377368688583374,-0.0,-0.0,-1.0,0.11102879186782394,2.0,1
32.97321319580078,-20.510501861572266,0.523613691329956,-0.35818799598094353,0.7519240683827413,-0.5534542030935371,0.16554382495595926,4.0,1
32.91326141357422,-20.473674774169922,0.5311698913574219,-0.0,-0.0,-1.0,0.20447676668070094,1.0,1
33.8347053527832,-19.54729461669922,0.3788492679595947,-0.0,-0.0,-1.0,0.17053175628937675,2.0,1
35.2093505859375,-19.733997344970703,0.6049866676330566,-0.08333308467442253,-0.5460390234437449,0.8336048115715547,0.1453662545446889,4.0,1
33.35762023925781,-19.91763687133789,0.5162796974182129,-0.0,-0.0,-1.0,0.1505846744910662,2.0,1
33.51555633544922,-20.72284698486328,0.5625190734863281,-0.0,-0.0,-1.0,0.04451637563238563,1.0,1
33.4605827331543,-20.490703582763672,0.55283522605896,-0.0,-0.0,-1.0,0.04124529183244665,2.0,1
35.165016174316406,-19.674211502075195,0.3956413269042969,-0.0,-0.0,-1.0,0.10061472122526309,1.0,1
35.06568145751953,-20.670541763305664,0.47124767303466797,-0.0,-0.0,-1.0,0.10627268094103326,2.0,1
34.69038391113281,-21.526790618896484,0.5803890228271484,-0.0,-0.0,-1.0,0.02212347523318968,1.0,1
34.64765930175781,-20.867765426635742,0.56253981590271,-0.0,-0.0,-1.0,0.14666349107681378,1.0,1
34.351688385009766,-21.274213790893555,0.6380448341369629,0.4625254247932608,-0.24334881034412004,-0.8525559148372118,0.03943209867438579,5.0,1
34.460777282714844,-21.089141845703125,0.6089866161346436,0.010381335163042483,-0.28686310808567456,-0.9579153329494517,0.022177163082078385,4.0,1
33.324737548828125,-19.50157356262207,0.30760717391967773,-0.0,-0.0,-1.0,0.04698942033211563,2.0,1
33.10895538330078,-20.042224884033203,0.3998684883117676,-0.5453102305220869,-0.7405279165227463,-0.39275330340867737,0.11372611034485428,3.0,1
33.24895477294922,-19.729598999023438,0.34365200996398926,-0.0,-0.0,-1.0,0.06765040982870332,1.0,1
32.904380798339844,-20.836265563964844,0.49950289726257324,-0.0,-0.0,-1.0,0.11162465574399527,2.0,1
32.91999053955078,-20.698776245117188,0.48773932456970215,-0.0,-0.0,-1.0,0.12073312180485977,1.0,1
32.9884033203125,-20.250137329101562,0.44258570671081543,-0.0,-0.0,-1.0,0.08496741182683526,1.0,1
34.07814025878906,-20.814472198486328,0.6717879772186279,-0.1345447464427009,-0.43159977355217816,-0.8919749697577717,0.08579235390141336,3.0,1
34.00206756591797,-20.6575984954834,0.6788761615753174,-0.0,-0.0,-1.0,0.12747239052230017,2.0,1
33.939388275146484,-20.477436065673828,0.6815440654754639,-0.0,-0.0,-1.0,0.10506537103798595,1.0,1
35.11677932739258,-19.77056884765625,0.45392560958862305,-0.4340418058129582,-0.8469663482463277,-0.30701093750045155,0.22582722774063793,9.0,1
35.118621826171875,-21.032432556152344,0.5090179443359375,-0.0,-0.0,-1.0,0.03233204679468382,1.0,1
34.510047912597656,-21.10765838623047,0.6313533782958984,-0.0,-0.0,-1.0,0.0208171114402471,2.0,1
34.291358947753906,-21.457992553710938,0.6847155094146729,-0.0,-0.0,-1.0,0.030889895575745837,1.0,1
34.37404251098633,-21.28632354736328,0.6637232303619385,0.6202241016391383,-0.46394846029956044,-0.6325139444562397,0.037696006096794396,6.0,1
33.47950744628906,-19.626035690307617,0.3302779197692871,-0.0,-0.0,-1.0,0.08322647375820079,1.0,1
33.5695915222168,-19.422645568847656,0.29537177085876465,-0.0,-0.0,-1.0,0.20491818775176668,1.0,1
33.153587341308594,-20.750267028808594,0.4688124656677246,-0.0,-0.0,-1.0,0.05318179148581144,1.0,1
33.06846237182617,-20.364646911621094,0.470073938369751,-0.0,-0.0,-1.0,0.10146697189025358,2.0,1
33.21875,-20.137226104736328,0.42253994941711426,0.08113777624480531,-0.9302930316415889,-0.35773109530085523,0.1451767713642756,3.0,1
33.28439712524414,-19.861957550048828,0.3908383846282959,-0.7871414098954953,-0.16561909146830348,-0.594120120319911,0.1687391209801376,5.0,1
33.01968002319336,-20.864938735961914,0.504812479019165,-0.0,-0.0,-1.0,0.06852565304840551,1.0,1
32.994544982910156,-20.432165145874023,0.490739107131958,-0.0,-0.0,-1.0,0.11076707381498027,1.0,1
33.88318634033203,-19.859840393066406,0.4378378391265869,-0.0,-0.0,-1.0,0.13249262642610787,2.0,1
33.80373001098633,-19.48518180847168,0.4493520259857178,-0.3493926863812323,0.08251622338124281,-0.9333358578680039,0.22914169916540353,4.0,1
33.71036148071289,-20.4643497467041,0.47894740104675293,-0.0,-0.0,-1.0,0.08583106698607025,1.0,1
33.705055236816406,-20.071517944335938,0.47902846336364746,-0.0,-0.0,-1.0,0.11443354322050413,1.0,1
33.54370880126953,-21.36620330810547,0.5050721168518066,-0.0,-0.0,-1.0,0.05984326849242978,1.0,1
33.63197326660156,-21.2147216796875,0.4887125492095947,-0.0,-0.0,-1.0,0.06614748309343003,1.0,1
33.585147857666016,-20.305694580078125,0.5062954425811768,-0.0,-0.0,-1.0,0.0876308872220122,1.0,1
33.38522720336914,-21.0084228515625,0.5461900234222412,-0.0,-0.0,-1.0,0.13383865694473496,1.0,1
33.39240264892578,-20.904827117919922,0.5459647178649902,-0.0,-0.0,-1.0,0.0981648948054578,2.0,1
32.82928466796875,-20.544052124023438,0.6724240779876709,-0.0,-0.0,-1.0,0.14069381399739553,2.0,1
33.7389030456543,-19.504098892211914,0.3432772159576416,-0.0,-0.0,-1.0,0.24543200379869662,1.0,1
33.54170227050781,-19.729339599609375,0.38753461837768555,-0.0,-0.0,-1.0,0.12558285831353677,2.0,1
34.978736877441406,-20.8642520904541,0.5388703346252441,0.5514626845778888,0.7759910037823037,0.3061484436790117,0.12778851257099083,3.0,1
35.17110824584961,-20.718902587890625,0.5054564476013184,-0.1320638678005901,0.968880010649025,-0.20935773161336482,0.06502193363975611,3.0,1
35.13378143310547,-19.8078556060791,0.5243818759918213,0.4700501179999884,-0.8246451317985427,0.31466377797446116,0.14171763050246824,7.0,1
34.76778030395508,-21.805747985839844,0.5491352081298828,-0.0,-0.0,-1.0,0.019309697630196954,1.0,1
34.633941650390625,-21.479053497314453,0.5863931179046631,0.8589190751978449,-0.5068629898434034,-0.07312955482077257,0.017210686977757732,3.0,1
34.9103889465332,-20.9302978515625,0.5502569675445557,-0.0,-0.0,-1.0,0.11197370503573963,1.0,1
34.627960205078125,-21.80202865600586,0.5755405426025391,-0.0,-0.0,-1.0,0.023822038968693837,1.0,1
34.50353240966797,-21.53253936767578,0.6090025901794434,-0.0,-0.0,-1.0,0.027530252580925733,1.0,1
34.443851470947266,-21.15350341796875,0.6325364112854004,-0.0,-0.0,-1.0,0.02441990218403927,2.0,1
34.045345306396484,-21.722463607788086,0.687889814376831,-0.9751623040982522,-0.08256585141414671,-0.20552703191075578,0.13993223798014368,5.0,1
33.34512710571289,-19.929059982299805,0.43065428733825684,-0.0,-0.0,-1.0,0.19187664004646632,2.0,1
33.100975036621094,-20.417688369750977,0.47833728790283203,-0.0,-0.0,-1.0,0.08803184982272179,2.0,1
33.2279167175293,-20.148731231689453,0.45453858375549316,-0.5873677766469824,-0.6850927080980832,-0.430867817628116,0.14598763701422235,5.0,1
32.78253173828125,-20.990825653076172,0.5341641902923584,-0.0,-0.0,-1.0,0.06707884124587507,1.0,1
32.85552978515625,-20.620304107666016,0.5291779041290283,0.7503654548890797,-0.5567847690232334,-0.3562897768570536,0.20456536690601923,3.0,1
33.56049346923828,-19.62026596069336,0.3565406799316406,-0.0,-0.0,-1.0,0.1432745478849282,1.0,1
33.762428283691406,-19.39559555053711,0.3136284351348877,-0.5886375472258656,0.8016143464466239,-0.10450013189881081,0.2209459280393624,3.0,1
33.35139465332031,-19.849367141723633,0.39939403533935547,-0.0,-0.0,-1.0,0.18961634118736048,1.0,1
33.18915939331055,-20.227161407470703,0.4260823726654053,-0.8678073692356106,-0.03119728010170389,-0.49592045694307074,0.08360874297660506,4.0,1
34.91679382324219,-20.799585342407227,0.5219240188598633,-0.0,-0.0,-1.0,0.13577491144935025,2.0,1
35.04566955566406,-20.603103637695312,0.5033085346221924,-0.0,-0.0,-1.0,0.0978735398904133,1.0,1
35.10136413574219,-19.813922882080078,0.5094242095947266,0.44812890103239783,-0.885568641780795,-0.1222647486155076,0.20091548789096345,7.0,1
34.61712646484375,-20.90715980529785,0.575005292892456,-0.9841403270055543,0.03460105039832431,-0.1739844362945522,0.1070185558437576,3.0,1
34.276668548583984,-21.268770217895508,0.6254618167877197,0.2908886763245211,-0.18784251690623055,-0.9381358999785163,0.04028733202327938,4.0,1
34.398929595947266,-21.061931610107422,0.6106159687042236,0.0912986843920226,-0.6536623552874178,-0.7512589936289559,0.02184405176589338,3.0,1
33.96923828125,-21.781661987304688,0.6591408252716064,-0.0,-0.0,-1.0,0.10268342922612224,1.0,1
34.04979705810547,-21.476198196411133,0.6589148044586182,-0.0,-0.0,-1.0,0.06933593829549964,1.0,1
34.03840637207031,-20.83287811279297,0.6866874694824219,-0.0,-0.0,-1.0,0.08257128466817577,2.0,1
32.954715728759766,-20.596378326416016,0.46562862396240234,-0.8988899979681594,-0.2552366396817625,-0.3561615213870873,0.10519994458277451,3.0,1
33.03168487548828,-20.30712127685547,0.4588780403137207,-0.0,-0.0,-1.0,0.10501683803579301,2.0,1
33.16082000732422,-20.035131454467773,0.43811988830566406,-0.0,-0.0,-1.0,0.10872322579928578,1.0,1
32.75408172607422,-20.772811889648438,0.5029220581054688,-0.0,-0.0,-1.0,0.1845412245719243,2.0,1
35.19978713989258,-19.80725860595703,0.5695004463195801,0.9113432337676708,-0.37589441294950354,0.16780018051013218,0.1978071248474316,3.0,1
34.65177536010742,-20.952919006347656,0.5910313129425049,-0.0,-0.0,-1.0,0.10381672896512376,2.0,1
34.42195510864258,-21.165138244628906,0.6134986877441406,0.5889692142429765,-0.7833575528286667,-0.19866104072085602,0.02507913157631085,3.0,1
33.7788200378418,-19.565471649169922,0.35057950019836426,-0.0,-0.0,-1.0,0.21245354296634025,2.0,1
33.540557861328125,-19.770442962646484,0.3870687484741211,-0.7203287895589189,0.48510227834220976,-0.49578444356371254,0.14652630843315048,4.0,1
33.1862907409668,-20.189058303833008,0.4307832717895508,-0.8678073692356106,-0.03119728010170389,-0.49592045694307074,0.12260493216441068,4.0,1
33.24338912963867,-20.000640869140625,0.4326803684234619,-0.0,-0.0,-1.0,0.09477633604455366,1.0,1
32.972511291503906,-20.622976303100586,0.4397766590118408,-0.8988899979681594,-0.2552366396817625,-0.3561615213870873,0.09944090079445485,3.0,1
32.97170639038086,-20.401611328125,0.4579925537109375,-0.0,-0.0,-1.0,0.110159314026767,1.0,1
34.2618408203125,-21.344257354736328,0.6261475086212158,-0.0,-0.0,-1.0,0.04466563584766595,2.0,1
34.02683639526367,-21.620512008666992,0.641972541809082,-0.0,-0.0,-1.0,0.12220753596709313,1.0,1
34.11579513549805,-21.41519546508789,0.6444680690765381,-0.0,-0.0,-1.0,0.03802136215448443,2.0,1
35.20115280151367,-19.528993606567383,0.2016749382019043,-0.0,-0.0,-1.0,0.05632522093951792,1.0,1
35.14784622192383,-19.412857055664062,0.2192978858947754,-0.0,-0.0,-1.0,0.07194161521568603,1.0,1
33.927459716796875,-19.40302085876465,0.44361019134521484,-0.0,-0.0,-1.0,0.14847644146017103,1.0,1
33.746131896972656,-19.85211944580078,0.4431426525115967,-0.0,-0.0,-1.0,0.22331869090271825,1.0,1
33.68184280395508,-19.536020278930664,0.4786806106567383,-0.0,-0.0,-1.0,0.1852864624231637,2.0,1
33.39611053466797,-20.04845428466797,0.4903905391693115,-0.7292822551870097,-0.6612442268309046,0.1757938131793854,0.09871155990718204,3.0,1
33.52459716796875,-19.795608520507812,0.4876730442047119,0.10329732617970709,0.9668298163437831,0.23360173080003044,0.13165923355728648,3.0,1
34.01034927368164,-19.405563354492188,0.3679239749908447,-0.0,-0.0,-1.0,0.07148561967929669,2.0,1
33.2744255065918,-19.936382293701172,0.3975863456726074,-0.9740957652956278,-0.22596734011634542,-0.008729331811128976,0.14763802411483598,5.0,1
33.504600524902344,-19.78563690185547,0.38823366165161133,-0.16025404787065456,0.9818828866595438,0.10111694727488277,0.12612135314856107,6.0,1
33.05632400512695,-20.02993392944336,0.340573787689209,-0.0,-0.0,-1.0,0.11497361643131937,1.0,1
33.84504699707031,-21.49287223815918,0.6376488208770752,-0.0,-0.0,-1.0,0.06181428322435797,1.0,1
34.26466751098633,-21.15559196472168,0.6217443943023682,-0.0,-0.0,-1.0,0.02897541710054025,2.0,1
32.77479934692383,-21.477127075195312,0.579129695892334,-0.0,-0.0,-1.0,0.08770792582277577,1.0,1
33.033512115478516,-21.227588653564453,0.5565183162689209,-0.0,-0.0,-1.0,0.04039030039219146,1.0,1
33.37987518310547,-20.386821746826172,0.528374433517456,0.9357213658158836,0.17672171613516718,-0.3052784967892412,0.06014148251030302,3.0,1
33.52918243408203,-20.135780334472656,0.5155942440032959,-0.0,-0.0,-1.0,0.09950297890976147,1.0,1
33.87228012084961,-19.930843353271484,0.4844522476196289,-0.0,-0.0,-1.0,0.13091541185657737,2.0,1
34.4927978515625,-20.255584716796875,0.4249691963195801,0.3749506813171202,-0.3388971278450297,-0.8628793214107154,0.09627250352267182,3.0,1
35.044185638427734,-20.42333221435547,0.372417688369751,-0.0,-0.0,-1.0,0.05070823122238506,2.0,1
34.97267150878906,-20.653034210205078,0.37828803062438965,-0.0,-0.0,-1.0,0.10645262588147213,2.0,1
32.872188568115234,-20.757259368896484,0.4641382694244385,-0.0,-0.0,-1.0,0.15402743951393646,2.0,1
33.25059509277344,-20.13986587524414,0.4366276264190674,-0.38700102696057365,-0.6448113145258936,-0.659127130219088,0.16358563519093183,4.0,1
33.063682556152344,-20.453163146972656,0.45018744468688965,-0.0,-0.0,-1.0,0.10796484293797994,2.0,1
33.512725830078125,-19.831073760986328,0.4160900115966797,-0.0,-0.0,-1.0,0.11434446580224811,2.0,1
33.36919403076172,-20.036739349365234,0.4269840717315674,-0.0,-0.0,-1.0,0.09617628378947901,2.0,1
33.74588394165039,-19.789363861083984,0.39536380767822266,-0.0,-0.0,-1.0,0.12897498512455086,1.0,1
34.530094146728516,-19.981624603271484,0.3219747543334961,-0.0,-0.0,-1.0,0.0398621020282457,2.0,1
34.860069274902344,-20.10504150390625,0.2905559539794922,-0.0,-0.0,-1.0,0.059716094061179774,2.0,1
35.11600875854492,-19.453277587890625,0.2732887268066406,-0.0,-0.0,-1.0,0.07486966438682761,1.0,1
35.133567810058594,-19.97832489013672,0.26676130294799805,-0.0,-0.0,-1.0,0.09658062021173827,1.0,1
32.76600646972656,-21.550729751586914,0.6500082015991211,-0.0,-0.0,-1.0,0.09010302624429664,1.0,1
32.83927917480469,-20.630971908569336,0.6468527317047119,0.9446162267417315,-0.11185379587189116,0.30852700453163345,0.12530991691728796,4.0,1
32.95730209350586,-21.42276954650879,0.632061243057251,-0.3232206010882738,-0.30317297827607653,-0.8964455300102447,0.04385698874114257,3.0,1
33.295753479003906,-20.906648635864258,0.6014764308929443,-0.0,-0.0,-1.0,0.1138025309467813,2.0,1
33.443031311035156,-21.541757583618164,0.5845410823822021,-0.0,-0.0,-1.0,0.037826137029586475,2.0,1
33.57982635498047,-20.132932662963867,0.5771076679229736,0.09170088062681118,0.10261806022433621,-0.9904849732368797,0.1520702075217654,3.0,1
33.65155029296875,-20.609331130981445,0.5681946277618408,-0.0,-0.0,-1.0,0.031024698339274032,1.0,1
33.75984191894531,-19.99595069885254,0.5601680278778076,0.912083003197118,0.3230603596175033,0.25246108476899065,0.18810299855544227,4.0,1
34.37559127807617,-20.376020431518555,0.49874305725097656,-0.0,-0.0,-1.0,0.041704594930623964,2.0,1
34.779850006103516,-20.66718864440918,0.4582204818725586,-0.0,-0.0,-1.0,0.14304073370812642,2.0,1
35.036865234375,-19.719999313354492,0.4368000030517578,-0.0,-0.0,-1.0,0.19752143830223554,2.0,1
35.151893615722656,-20.56484031677246,0.42233991622924805,-0.0,-0.0,-1.0,0.06800936220529295,2.0,1
35.206207275390625,-19.717405319213867,0.42026352882385254,-0.0,-0.0,-1.0,0.16345876473281518,1.0,1
33.018287658691406,-20.465965270996094,0.44530510902404785,-0.0,-0.0,-1.0,0.11245220979641608,2.0,1
32.902854919433594,-20.725086212158203,0.44704580307006836,-0.0,-0.0,-1.0,0.12617568114154265,2.0,1
33.36543655395508,-19.88888168334961,0.4349484443664551,-0.869752741553953,0.45901266660045653,-0.18121131438108637,0.21232921255613454,3.0,1
33.30528259277344,-20.071971893310547,0.4348151683807373,-0.0,-0.0,-1.0,0.11039261306936286,2.0,1
33.6671142578125,-19.837833404541016,0.41512489318847656,-0.0,-0.0,-1.0,0.09988712855288466,1.0,1
33.88574981689453,-19.631458282470703,0.4046311378479004,-0.0,-0.0,-1.0,0.1176765756271373,1.0,1
34.651695251464844,-20.14521026611328,0.3389017581939697,-0.0,-0.0,-1.0,0.06601630889600921,2.0,1
35.01057434082031,-20.19131088256836,0.3124401569366455,-0.0,-0.0,-1.0,0.034201011274233674,2.0,1
34.14969253540039,-21.611621856689453,0.7867016792297363,-0.0,-0.0,-1.0,0.11254980606236563,2.0,1
33.51875305175781,-20.95440673828125,0.7512086629867554,-0.0,-0.0,-1.0,0.07213291164995712,2.0,1
34.048667907714844,-21.65963363647461,0.7048566341400146,-0.6056081598717135,0.2969707078790902,-0.7382730899596637,0.16944117302148248,3.0,1
34.432350158691406,-21.321243286132812,0.68398118019104,-0.47538005274901995,-0.7579633711665336,-0.44666019905315346,0.06128185927823587,3.0,1
34.299888610839844,-21.525146484375,0.6898994445800781,0.5004990628984217,-0.631090756457643,-0.5926425104154454,0.07034380960858795,3.0,1
32.7391357421875,-21.365840911865234,0.694021463394165,-0.0,-0.0,-1.0,0.08366895186978802,1.0,1
32.968807220458984,-21.504928588867188,0.6844120025634766,-0.0,-0.0,-1.0,0.06151633888061901,1.0,1
33.364707946777344,-21.69192123413086,0.6713309288024902,-0.0,-0.0,-1.0,0.06183904775563996,1.0,1
33.94340515136719,-20.87794303894043,0.7254085540771484,-0.735360269243598,0.2621393680004351,-0.6249225761342885,0.07237703950506577,3.0,1
33.927528381347656,-21.367095947265625,0.692497730255127,-0.0,-0.0,-1.0,0.04044275690618141,1.0,1
33.723854064941406,-21.67013168334961,0.6723694801330566,-0.0,-0.0,-1.0,0.05800436994944518,2.0,1
34.09287643432617,-21.391529083251953,0.690453290939331,-0.0,-0.0,-1.0,0.04237084362927183,1.0,1
34.42308807373047,-21.16541290283203,0.7046637535095215,-0.0,-0.0,-1.0,0.029243113059631422,1.0,1
32.77779006958008,-20.63996124267578,0.7437155246734619,0.19591087864349271,0.9177988795575537,-0.34534641204453453,0.09864083311751784,4.0,1
33.98440933227539,-19.74627685546875,0.4769866466522217,0.3612897810071938,0.19947824552274002,-0.9108666882167468,0.10197775005518182,3.0,1
33.83526611328125,-19.94706153869629,0.48738789558410645,0.23206972135003032,-0.6591238267418709,-0.7153316891160856,0.1396834710939245,3.0,1
34.06930923461914,-19.966135025024414,0.46264219284057617,-0.0,-0.0,-1.0,0.07975712783569856,1.0,1
35.14917755126953,-19.827781677246094,0.3537161350250244,-0.0,-0.0,-1.0,0.1761842333983946,1.0,1
33.83143615722656,-19.619382858276367,0.4113950729370117,-0.0,-0.0,-1.0,0.23481863693645025,2.0,1
33.563079833984375,-19.824180603027344,0.4364330768585205,-0.9417028575165795,0.007020485408360043,0.33637247350183097,0.11961193568193798,4.0,1
32.93476867675781,-19.72013282775879,0.24872875213623047,-0.0,-0.0,-1.0,0.04299730011675095,1.0,1
33.156368255615234,-19.571109771728516,0.21376419067382812,-0.0,-0.0,-1.0,0.07076631840365322,1.0,1
34.97450256347656,-19.6097412109375,0.27577877044677734,-0.0,-0.0,-1.0,0.06602424026764857,1.0,1
33.006465911865234,-20.56716537475586,0.46544408798217773,-0.0,-0.0,-1.0,0.12389793301970704,1.0,1
33.21522903442383,-20.303131103515625,0.4564337730407715,-0.0,-0.0,-1.0,0.11607212405472284,2.0,1
33.749385833740234,-19.65563201904297,0.4312901496887207,-0.0,-0.0,-1.0,0.234496988243988,1.0,1
32.7719841003418,-20.686687469482422,0.48756980895996094,-0.0,-0.0,-1.0,0.22522536933883058,1.0,1
33.04703140258789,-20.376243591308594,0.4731879234313965,0.2769491014779902,-0.6910794871110189,-0.6676139136393917,0.0970393210491034,3.0,1
33.31472396850586,-20.053619384765625,0.46051645278930664,-0.0,-0.0,-1.0,0.12384174087531238,2.0,1
33.51822280883789,-19.786388397216797,0.45233154296875,0.3317410388992956,0.8957185039992637,0.2960341951588313,0.13680120665587597,4.0,1
35.011226654052734,-20.302753448486328,0.36151981353759766,-0.0,-0.0,-1.0,0.03221173033263101,1.0,1
32.91045379638672,-20.76047134399414,0.5346918106079102,-0.7696509828916062,0.15797506232343786,-0.6186123537546679,0.12533923491003826,4.0,1
33.29961013793945,-20.574283599853516,0.5126419067382812,-0.0,-0.0,-1.0,0.054899500589741225,1.0,1
33.589054107666016,-20.069522857666016,0.5311985015869141,-0.23383143803501183,-0.15879245169112896,-0.9592225059246678,0.15291240568339737,5.0,1
