x,y,z,nx,ny,nz,curvature,density,label
14.180756568908691,15.295734405517578,-1.027700662612915,0.5753402351687701,-0.014567528156754972,-0.8177844464890159,0.09038509085003359,4.0,0
13.830093383789062,15.312117576599121,-1.0846574306488037,-0.4694232181941618,0.8261416436057657,-0.3116597935579764,0.01884921530727749,3.0,0
15.139907836914062,14.517637252807617,-0.9105973243713379,-0.0,-0.0,-1.0,0.042656404420408536,1.0,0
14.921442985534668,14.75617790222168,-0.9330575466156006,-0.0023193487051132305,-0.9564197864367412,-0.2919859803721443,0.011757508077223597,3.0,0
13.437134742736816,14.652811050415039,-0.6648668050765991,-0.0,-0.0,-1.0,0.16405782951957446,2.0,0
13.234155654907227,14.756434440612793,-0.6861447095870972,0.8860389575267594,-0.08473290540745837,-0.4558018215037145,0.08710201221993161,4.0,0
13.486283302307129,14.456123352050781,-0.6680161952972412,-0.31101055697680974,-0.32345610497267646,-0.8936714058337544,0.17096386166780544,4.0,0
13.284515380859375,14.269128799438477,-0.7030918598175049,-0.0,-0.0,-1.0,0.13841613914847659,2.0,0
13.526435852050781,14.106804847717285,-0.6804244518280029,-0.0,-0.0,-1.0,0.20597367403462372,1.0,0
13.085160255432129,14.024744033813477,-0.7410843372344971,-0.0,-0.0,-1.0,0.10905508495492751,1.0,0
13.103740692138672,13.631155967712402,-0.7597289085388184,-0.0,-0.0,-1.0,0.03653329111274512,2.0,0
14.001198768615723,13.182533264160156,-0.6719142198562622,-0.6567394583574415,0.06654318656566463,-0.7511759368869995,0.1643871366976237,5.0,0
13.340484619140625,13.309310913085938,-0.7478213310241699,-0.0,-0.0,-1.0,0.06375247144032554,2.0,0
13.200024604797363,13.410224914550781,-0.759798526763916,-0.9970075031066886,-0.04990377450901915,0.05903941089407502,0.024270842424628136,3.0,0
13.060206413269043,14.950048446655273,-0.9268165826797485,-0.0,-0.0,-1.0,0.1760679579266396,1.0,0
12.836633682250977,15.142122268676758,-0.9467974901199341,-0.0,-0.0,-1.0,0.10403958745651179,1.0,0
13.840716361999512,14.621835708618164,-0.833948016166687,-0.0,-0.0,-1.0,0.1517770083455435,1.0,0
13.617438316345215,14.514220237731934,-0.8760932683944702,-0.0,-0.0,-1.0,0.15336631473100307,2.0,0
13.283560752868652,14.767009735107422,-0.9066892862319946,-0.0,-0.0,-1.0,0.13746911550922553,1.0,0
14.021561622619629,14.104042053222656,-0.8492361307144165,-0.0,-0.0,-1.0,0.039977254066440406,1.0,0
13.72486686706543,14.290719032287598,-0.8779429197311401,-0.19688698121146536,-0.5151906949880967,-0.834154700536488,0.07332490481324087,3.0,0
14.271953582763672,13.952802658081055,-0.8249388933181763,-0.0,-0.0,-1.0,0.08043770594042728,1.0,0
13.383122444152832,14.141800880432129,-0.45800459384918213,0.2825111120858367,-0.1416422540297941,-0.948749146730253,0.19953938849317904,6.0,0
14.45080280303955,13.882611274719238,-0.8045762777328491,-0.0,-0.0,-1.0,0.0698286629853149,2.0,0
15.130123138427734,13.22617244720459,-0.7662922143936157,-0.0,-0.0,-1.0,0.06799814102035732,1.0,0
13.365938186645508,15.56062126159668,-1.1436913013458252,-0.0,-0.0,-1.0,0.03541486462578208,1.0,0
14.184828758239746,15.225541114807129,-1.0143632888793945,-0.40854506434451315,-0.1272361059216305,-0.9038262575017599,0.13728905246972953,3.0,0
13.923168182373047,15.285420417785645,-1.0591316223144531,-0.0,-0.0,-1.0,0.031119380166304153,2.0,0
13.564959526062012,15.3892822265625,-1.1189320087432861,-0.0,-0.0,-1.0,0.02852888374539471,1.0,0
12.740434646606445,14.937881469726562,-0.8437902927398682,-0.022374992762045205,0.6437209024626506,-0.7649331731802257,0.08601359703276455,3.0,0
14.63962459564209,14.880701065063477,-0.9578585624694824,-0.0,-0.0,-1.0,0.01318829208638439,1.0,0
14.399088859558105,15.030396461486816,-0.9902083873748779,-0.0,-0.0,-1.0,0.05101271392290594,2.0,0
13.068706512451172,14.891605377197266,-0.796959400177002,-0.23945278807453005,-0.2937227035832337,-0.9254130621960608,0.11463458873844147,4.0,0
15.029983520507812,14.508661270141602,-0.919081449508667,-0.0,-0.0,-1.0,0.005813544773344957,2.0,0
14.828690528869629,14.660785675048828,-0.9424340724945068,-0.0,-0.0,-1.0,0.01363107335974907,1.0,0
13.50107479095459,14.649660110473633,-0.7502996921539307,-0.0,-0.0,-1.0,0.12033696415788044,1.0,0
13.204946517944336,14.777351379394531,-0.7852203845977783,-0.0,-0.0,-1.0,0.10055444566470632,1.0,0
13.50855827331543,14.410784721374512,-0.769411563873291,-0.0,-0.0,-1.0,0.19085084105248956,2.0,0
13.364751815795898,14.206853866577148,-0.8090832233428955,0.4305092764080505,0.46720999758847603,-0.7722542204999551,0.15927242052595056,3.0,0
13.659189224243164,13.85196304321289,-0.7967259883880615,-0.0,-0.0,-1.0,0.028125836652429136,1.0,0
13.412908554077148,13.973326683044434,-0.8228015899658203,-0.0,-0.0,-1.0,0.21371665057728212,1.0,0
13.748467445373535,13.698565483093262,-0.7978284358978271,0.6743858576981602,-0.7356319732511475,-0.06363422716855785,0.023870456889119818,3.0,0
14.518898010253906,13.180066108703613,-0.7347629070281982,-0.0,-0.0,-1.0,0.030203696200159596,2.0,0
13.391260147094727,14.16981029510498,-0.3631136417388916,0.44385315406012815,0.3699072252099451,-0.8161881047701905,0.18120509240228586,11.0,0
13.86556625366211,15.326799392700195,-1.0991685390472412,-0.4694232181941618,0.8261416436057657,-0.3116597935579764,0.019178553616348876,3.0,0
13.625703811645508,15.455238342285156,-1.1426520347595215,-0.0,-0.0,-1.0,0.02863701057447258,1.0,0
14.210953712463379,15.252182960510254,-1.0299227237701416,-0.15123394588161998,-0.38373108759599717,-0.9109768087198864,0.071316983626963,3.0,0
13.083789825439453,15.083949089050293,-0.8624956607818604,-0.0,-0.0,-1.0,0.16751071339672438,1.0,0
12.847167015075684,15.084609985351562,-0.9046487808227539,-0.0,-0.0,-1.0,0.10119741563408338,2.0,0
14.3757963180542,15.109586715698242,-1.0044786930084229,-0.0,-0.0,-1.0,0.07274159024338375,1.0,0
13.214804649353027,14.84748649597168,-0.8546457290649414,-0.0,-0.0,-1.0,0.14711205708420094,2.0,0
14.77316665649414,14.777853012084961,-0.9445333480834961,-0.0,-0.0,-1.0,0.013632662689710471,2.0,0
14.60762882232666,14.96157169342041,-0.9655764102935791,-0.0,-0.0,-1.0,0.008923536669322392,1.0,0
14.065300941467285,14.6087007522583,-0.7205296754837036,-0.0,-0.0,-1.0,0.15889903192544938,1.0,0
13.679737091064453,14.542404174804688,-0.7937071323394775,-0.5916720921726912,0.6625416553214947,-0.45930674968679047,0.21805441772401904,5.0,0
15.195465087890625,14.358654022216797,-0.8906233310699463,-0.0,-0.0,-1.0,0.04366527826896238,1.0,0
15.04891586303711,14.478623390197754,-0.9109854698181152,-0.0,-0.0,-1.0,0.04078739102084225,2.0,0
13.671647071838379,14.148699760437012,-0.8254411220550537,-0.0,-0.0,-1.0,0.09592150075083844,2.0,0
14.138078689575195,13.76764965057373,-0.7760469913482666,-0.0,-0.0,-1.0,0.051462509850096774,1.0,0
13.913870811462402,13.907880783081055,-0.8028948307037354,-0.0,-0.0,-1.0,0.024029891284530522,1.0,0
12.717211723327637,13.382389068603516,-0.6169041395187378,-0.0,-0.0,-1.0,0.22656428683966615,1.0,0
12.871325492858887,15.278676986694336,-1.070962905883789,-0.0,-0.0,-1.0,0.06731251284311751,2.0,0
14.510918617248535,15.573551177978516,-1.032823085784912,-0.0,-0.0,-1.0,0.052170622586680426,2.0,0
13.060988426208496,15.031539916992188,-1.0412428379058838,-0.0,-0.0,-1.0,0.16351034169267503,1.0,0
14.640128135681152,15.429706573486328,-1.006446361541748,-0.0,-0.0,-1.0,0.0478692173749829,1.0,0
13.395074844360352,14.856534004211426,-0.9778788089752197,-0.0,-0.0,-1.0,0.08601496101512557,2.0,0
13.183272361755371,14.924446105957031,-0.831202507019043,-0.0,-0.0,-1.0,0.14020721615769713,1.0,0
14.819211959838867,15.090838432312012,-0.9785456657409668,-0.0,-0.0,-1.0,0.012446733458492313,2.0,0
13.940174102783203,14.68386173248291,-0.8698551654815674,-0.0,-0.0,-1.0,0.19935976720795845,1.0,0
13.6031494140625,14.734090805053711,-0.939849853515625,-0.0,-0.0,-1.0,0.07200973169928686,1.0,0
13.251362800598145,14.74245834350586,-0.6402723789215088,-0.5906668676598007,-0.7964131184856771,0.12976438707472154,0.03366074587939741,5.0,0
15.094969749450684,14.624326705932617,-0.9390697479248047,0.6280143240244236,-0.3340117942312779,-0.7028756149807368,0.006657217288460322,3.0,0
14.964343070983887,14.787496566772461,-0.9606351852416992,-0.0,-0.0,-1.0,0.012568169202446317,2.0,0
13.976978302001953,14.350679397583008,-0.8834736347198486,-0.0,-0.0,-1.0,0.05326925403924605,1.0,0
13.846902847290039,14.433547019958496,-0.905709981918335,-0.0,-0.0,-1.0,0.09901616781322269,1.0,0
13.245394706726074,14.287646293640137,-0.666796088218689,-0.0,-0.0,-1.0,0.11107318719675126,2.0,0
12.850470542907715,13.989399909973145,-0.7560765743255615,-0.0,-0.0,-1.0,0.061985702430335556,1.0,0
14.239374160766602,14.034398078918457,-0.8501546382904053,-0.0,-0.0,-1.0,0.06763151332497627,1.0,0
12.996769905090332,13.63831901550293,-0.7536969184875488,-0.0,-0.0,-1.0,0.04739128603402521,1.0,0
14.543115615844727,13.859620094299316,-0.7994406223297119,-0.0,-0.0,-1.0,0.06860482749298681,1.0,0
14.493127822875977,13.868871688842773,-0.8092448711395264,-0.0,-0.0,-1.0,0.07167989240257562,2.0,0
13.253527641296387,13.316121101379395,-0.7322750091552734,-0.9203798556115135,0.2982371104434448,-0.25289434026659036,0.07431619629371136,3.0,0
14.880638122558594,13.251531600952148,-0.7838454246520996,-0.0,-0.0,-1.0,0.04174676390138552,1.0,0
13.288566589355469,15.07066535949707,-0.6175594329833984,0.9402074033929801,0.2053900035880481,-0.27170753583795054,0.1753311317480739,3.0,0
13.442959785461426,14.586891174316406,-0.6140849590301514,-0.7491092094222875,-0.4954124364238699,-0.4397748403390995,0.19767911601377489,6.0,0
13.363516807556152,14.541181564331055,-0.6310523748397827,-0.9261658766671451,-0.22200389714225371,0.304845925921653,0.21196789265316773,3.0,0
13.413982391357422,14.17386245727539,-0.46003711223602295,-0.6284568907289677,-0.4237163933520353,-0.6523084810885276,0.2400841553350727,9.0,0
14.03474235534668,13.333910942077637,-0.5941054821014404,-0.0,-0.0,-1.0,0.15908061699007198,1.0,0
13.35702896118164,15.113240242004395,-0.6740595102310181,-0.0,-0.0,-1.0,0.17137075514401076,2.0,0
13.3013334274292,14.789200782775879,-0.7016900777816772,-0.0,-0.0,-1.0,0.11847857986890542,1.0,0
13.156554222106934,14.815231323242188,-0.7303773164749146,0.9000805865987547,-0.06982161401069346,-0.43009287351104014,0.043574223711374635,3.0,0
13.486210823059082,14.488883018493652,-0.6802290678024292,-0.3582944844936045,-0.3268214770552398,-0.874535753709872,0.1944197458466851,3.0,0
13.342987060546875,14.273296356201172,-0.7239967584609985,-0.0,-0.0,-1.0,0.19447996583813093,1.0,0
12.996912002563477,14.027023315429688,-0.8131746053695679,-0.0,-0.0,-1.0,0.036092855339453916,2.0,0
13.287581443786621,14.122138023376465,-0.7460356950759888,0.4498958476374816,0.13105418913356848,-0.8834129984266106,0.24237287759177106,4.0,0
13.093544960021973,13.80919075012207,-0.8100839853286743,-0.0,-0.0,-1.0,0.10722166536719079,1.0,0
13.256893157958984,13.45773696899414,-0.8064466714859009,-0.0,-0.0,-1.0,0.016339223887588645,1.0,0
13.72193717956543,13.205810546875,-0.7359579801559448,-0.0,-0.0,-1.0,0.030908268593225284,2.0,0
13.54914379119873,13.191513061523438,-0.7723740339279175,0.008619521159322185,-0.35068168886527207,-0.9364550480132958,0.018457418249089457,3.0,0
13.536633491516113,14.563725471496582,-0.6650148630142212,-0.5360202456103602,-0.5949548252268584,-0.5989249136870894,0.1872899872795139,5.0,0
13.478571891784668,14.138951301574707,-0.3732367753982544,0.3499379068316299,-0.2024948996494943,-0.9146252112085249,0.20173630951349977,4.0,0
12.777790069580078,13.445147514343262,-0.5433566570281982,-0.0,-0.0,-1.0,0.22940652683652984,1.0,0
13.99990177154541,13.153562545776367,-0.6853878498077393,-0.897884061581421,0.3579548636191711,-0.25626651667635353,0.10585585415317704,4.0,0
13.37867259979248,15.12598705291748,-0.6783429384231567,-0.5156492980710031,0.7189257092211806,-0.4661025917324471,0.17137075514401076,3.0,0
13.522375106811523,14.573141098022461,-0.6731915473937988,0.13226153295417356,0.03856985256532095,-0.9904641605700337,0.14862426685099472,5.0,0
13.301077842712402,14.685067176818848,-0.7178740501403809,-0.0,-0.0,-1.0,0.09275634223191637,1.0,0
13.576372146606445,14.503288269042969,-0.6649789810180664,-0.0,-0.0,-1.0,0.15773945638724826,1.0,0
13.45803165435791,14.308843612670898,-0.7050373554229736,-0.0,-0.0,-1.0,0.2667096642918221,1.0,0
13.189234733581543,13.924481391906738,-0.7953982353210449,0.24417884519058866,-0.28262713602767164,-0.9276306342193463,0.13148151747448675,3.0,0
13.160257339477539,13.706375122070312,-0.8198730945587158,-0.0,-0.0,-1.0,0.07292588704789324,1.0,0
13.374299049377441,13.525678634643555,-0.7870743274688721,-0.0,-0.0,-1.0,0.009191879699287383,1.0,0
13.292509078979492,13.512516021728516,-0.8071558475494385,-0.0,-0.0,-1.0,0.014906627752369004,1.0,0
13.7003755569458,13.169307708740234,-0.7482454776763916,-0.0,-0.0,-1.0,0.027859776220379558,2.0,0
13.52794075012207,13.217571258544922,-0.78232741355896,-0.0,-0.0,-1.0,0.018457418249089447,2.0,0
13.445384979248047,14.107293128967285,-0.4139232635498047,-0.42774207539537706,-0.7987165979772214,-0.42318850770330346,0.18920725053462276,3.0,0
13.393135070800781,14.061710357666016,-0.3958638906478882,-0.0,-0.0,-1.0,0.14698256781919491,1.0,0
13.41391372680664,14.06053638458252,-0.27426326274871826,-0.0,-0.0,-1.0,0.16230565882163303,1.0,0
14.391031265258789,14.405591011047363,-0.8909484148025513,-0.0,-0.0,-1.0,0.0949279091339999,1.0,0
14.486295700073242,14.466642379760742,-0.8837343454360962,-0.0,-0.0,-1.0,0.06366617540274576,1.0,0
14.556324005126953,14.230497360229492,-0.873177170753479,-0.0,-0.0,-1.0,0.017680779034219538,2.0,0
13.182378768920898,14.524181365966797,-0.568681001663208,-0.0,-0.0,-1.0,0.09663056526077712,1.0,0
13.045267105102539,14.378158569335938,-0.5737249851226807,-0.0,-0.0,-1.0,0.1179293187650335,1.0,0
13.418106079101562,14.005081176757812,-0.5370835065841675,-0.0,-0.0,-1.0,0.19058263886877097,1.0,0
12.790573120117188,13.526617050170898,-0.6751672029495239,-0.5715728149526514,0.55833077228856,-0.601307962630433,0.16701701601012314,3.0,0
13.167755126953125,13.97557258605957,-0.6671195030212402,-0.0,-0.0,-1.0,0.13972635898866315,1.0,0
13.095796585083008,13.659744262695312,-0.6599647998809814,-0.0,-0.0,-1.0,0.059155879709735966,1.0,0
13.047567367553711,13.15853214263916,-0.6453646421432495,-0.0,-0.0,-1.0,0.13394311519866556,1.0,0
13.455501556396484,15.612449645996094,-0.9537380933761597,-0.0,-0.0,-1.0,0.04931698711454679,1.0,0
14.245706558227539,15.106449127197266,-0.8769019842147827,-0.8729636278061218,0.0475919865080392,-0.485458038709623,0.11690471097851798,3.0,0
14.258066177368164,14.85433578491211,-0.8654211759567261,-0.0,-0.0,-1.0,0.17954943022380207,1.0,0
14.430692672729492,14.78179931640625,-0.8502434492111206,-0.0,-0.0,-1.0,0.1008798330399144,1.0,0
13.500629425048828,14.113773345947266,-0.4702705144882202,-0.1966641592194372,0.003050760090871078,-0.9804661653220778,0.14144286256550553,3.0,0
14.339189529418945,15.033415794372559,-0.9301061630249023,-0.0,-0.0,-1.0,0.057325834517427364,2.0,0
13.307060241699219,14.28082275390625,-0.533894419670105,-0.0,-0.0,-1.0,0.1909098515515844,2.0,0
13.446758270263672,14.198348999023438,-0.4077117443084717,0.49277860261929635,-0.8692615500324423,-0.03941581453895657,0.16936332104622936,6.0,0
15.113567352294922,13.340827941894531,-0.7429240942001343,-0.0,-0.0,-1.0,0.060583564859630415,1.0,0
14.763925552368164,13.173898696899414,-0.7529689073562622,-0.0,-0.0,-1.0,0.055402388428210526,1.0,0
15.043426513671875,13.194454193115234,-0.7731863260269165,-0.0,-0.0,-1.0,0.05754740364534864,1.0,0
13.46893310546875,14.365153312683105,-0.32403862476348877,-0.0,-0.0,-1.0,0.12002266797723163,1.0,0
13.064565658569336,13.174254417419434,-0.34657347202301025,-0.0,-0.0,-1.0,0.14807102207591186,1.0,0
13.610296249389648,14.346579551696777,-0.47387444972991943,-0.0,-0.0,-1.0,0.13994000589979477,1.0,0
13.399324417114258,14.744311332702637,-0.5095905065536499,-0.0,-0.0,-1.0,0.07392614927730366,1.0,0
13.301897048950195,14.62575626373291,-0.5113791227340698,0.10894410764544525,-0.4483059588312075,-0.8872164046532104,0.11764860163694577,3.0,0
13.491600036621094,14.25519847869873,-0.48941850662231445,-0.0,-0.0,-1.0,0.19551113417656907,2.0,0
13.506729125976562,14.52175521850586,-0.5894660949707031,-0.94397505719706,-0.11031653488467041,-0.31103272098100326,0.24019873601605998,3.0,0
13.305696487426758,14.310632705688477,-0.5894298553466797,-0.7046329239597189,0.22830282039555488,-0.6718409519160115,0.17373064925436005,5.0,0
13.757104873657227,14.765395164489746,-0.7022536993026733,-0.0,-0.0,-1.0,0.16342746484440537,1.0,0
13.523740768432617,14.528670310974121,-0.6583467721939087,-0.9601702961669124,-0.0067169287609647665,-0.2793347189784407,0.14115118150728373,4.0,0
14.269510269165039,15.558050155639648,-1.0290261507034302,-0.0,-0.0,-1.0,0.08597239664535074,1.0,0
14.103330612182617,15.38145637512207,-1.0064116716384888,-0.0,-0.0,-1.0,0.07583450346152167,1.0,0
13.873157501220703,15.284378051757812,-0.9917424917221069,-0.0,-0.0,-1.0,0.026691566142359763,1.0,0
14.55528450012207,13.384254455566406,-0.790978193283081,-0.0,-0.0,-1.0,0.022904147390953453,1.0,0
13.043485641479492,13.566604614257812,-0.7891472578048706,-0.0,-0.0,-1.0,0.05185103508118748,1.0,0
15.160335540771484,15.623252868652344,-0.56243896484375,-0.0,-0.0,-1.0,0.14308159451491512,1.0,0
14.49785041809082,14.040624618530273,-0.48834311962127686,-0.0,-0.0,-1.0,0.13099380166870905,1.0,0
14.047113418579102,14.140249252319336,-0.5070434808731079,-0.0,-0.0,-1.0,0.13470978941181372,1.0,0
13.375303268432617,14.133642196655273,-0.21576154232025146,-0.0,-0.0,-1.0,0.20544004319887613,1.0,0
13.424989700317383,14.197196960449219,-0.3666650056838989,0.22945061849876916,-0.9110651871061554,-0.3425093261704821,0.20065012730621498,10.0,0
14.206727027893066,13.239582061767578,-0.702458381652832,-0.0,-0.0,-1.0,0.11121219308286798,2.0,0
13.690820693969727,14.589061737060547,-0.7209136486053467,-0.0,-0.0,-1.0,0.16444605493669207,2.0,0
13.563755989074707,14.432260513305664,-0.6980379819869995,0.5133468568919454,0.8134334673205078,-0.2734977125354012,0.17540831073142424,3.0,0
13.27745532989502,14.220069885253906,-0.6647316217422485,-0.0,-0.0,-1.0,0.1896113094619115,2.0,0
13.747410774230957,14.50590705871582,-0.740674614906311,-0.0,-0.0,-1.0,0.22320617391004163,2.0,0
13.43161678314209,14.22413444519043,-0.6961867809295654,-0.16946455309564443,0.9358347087679012,-0.3090229168029306,0.25535760002430036,3.0,0
13.545416831970215,14.329008102416992,-0.7125670909881592,-0.0,-0.0,-1.0,0.17037168887022572,1.0,0
13.31460952758789,14.005298614501953,-0.6648175716400146,-0.0,-0.0,-1.0,0.19875103040513115,1.0,0
13.737692832946777,14.537700653076172,-0.8588141202926636,0.6271949078371628,0.7060626340123171,-0.3287888447540781,0.23585994655413695,3.0,0
13.302750587463379,14.175397872924805,-0.8597177267074585,-0.0,-0.0,-1.0,0.1292008369386917,2.0,0
13.601160049438477,14.29183578491211,-0.8487082719802856,-0.7782636647549032,-0.5924692047859127,-0.20805266040744558,0.13267246081502398,3.0,0
13.166232109069824,13.767036437988281,-0.8375157117843628,-0.0,-0.0,-1.0,0.07326608049100194,1.0,0
13.411949157714844,14.175616264343262,-0.41902923583984375,0.289575382860899,0.7149233728788366,-0.6364201981022536,0.23246601632814815,6.0,0
14.103675842285156,13.50750732421875,-0.669251561164856,-0.0,-0.0,-1.0,0.12081793206753333,2.0,0
13.711748123168945,14.636527061462402,-0.7773779630661011,-0.894367380340729,0.4472406766224622,0.009097590710966797,0.14616038777455714,3.0,0
13.565207481384277,14.437728881835938,-0.7748581171035767,-0.9650522446490081,-0.05386575188454022,-0.2564617824780606,0.16852071357133427,3.0,0
13.219013214111328,14.154108047485352,-0.7821522951126099,-0.0,-0.0,-1.0,0.14597870269718424,1.0,0
13.289436340332031,14.291108131408691,-0.5677647590637207,0.8941408976421127,-0.03212049394094069,-0.446632207787064,0.15255316863966825,6.0,0
13.389510154724121,14.465764999389648,-0.5695904493331909,-0.3249149165592886,0.6074318737070658,-0.7248840016181856,0.1901074119496212,6.0,0
13.124711990356445,14.266186714172363,-0.5795252323150635,0.24592894882409302,0.9343708544322554,-0.2578178785845037,0.12645935475033845,3.0,0
13.269603729248047,14.263084411621094,-0.5906503200531006,0.8768795246327994,-0.07410557683708666,-0.4749638541630283,0.18436008987424696,4.0,0
13.38922119140625,14.447641372680664,-0.5902810096740723,-0.6156452729731176,-0.6281121044587588,-0.47587401914608163,0.2416811973426738,5.0,0
13.134785652160645,14.257232666015625,-0.6023669242858887,-0.010913541346034695,0.9986622782043214,-0.05054254353555304,0.12923965419368733,4.0,0
14.056958198547363,13.438640594482422,-0.6902377605438232,-0.0,-0.0,-1.0,0.13804115208223885,1.0,0
14.143160820007324,13.6534423828125,-0.6969943046569824,-0.0,-0.0,-1.0,0.06291239785443241,1.0,0
13.700767517089844,13.726030349731445,-0.74631667137146,-0.0,-0.0,-1.0,0.030790459146099864,2.0,0
13.596644401550293,14.258613586425781,-0.7948949337005615,-0.4200498706395899,-0.5820482552295355,-0.6962599620543446,0.14223569539792205,3.0,0
13.67027473449707,14.534896850585938,-0.8078248500823975,0.32161354696900923,0.0997651911324205,-0.9416005697982157,0.2374777804186193,4.0,0
13.53249454498291,13.426078796386719,-0.7421766519546509,-0.0,-0.0,-1.0,0.011500016630169675,2.0,0
13.457359313964844,14.071922302246094,-0.7952992916107178,-0.0,-0.0,-1.0,0.22554055829070283,1.0,0
13.368135452270508,14.222406387329102,-0.22348690032958984,0.5206491615329799,0.7675756989225729,0.37383418385499306,0.19323968200778296,4.0,0
12.848472595214844,14.201910018920898,-0.6429147720336914,-0.0,-0.0,-1.0,0.17473996104042303,1.0,0
13.491703033447266,14.450740814208984,-0.5564529895782471,-0.5667764448609255,-0.16879051498472608,-0.806395823155106,0.19866436673621302,3.0,0
13.27910327911377,14.253938674926758,-0.5838258266448975,0.4619374825699661,0.31328816672890775,-0.8297374806434639,0.1843600898742469,4.0,0
12.992490768432617,13.523136138916016,-0.6199159622192383,-0.0,-0.0,-1.0,0.1777293739922511,1.0,0
12.897056579589844,13.857635498046875,-0.6344449520111084,-0.0,-0.0,-1.0,0.06420518330752271,1.0,0
14.256590843200684,15.239486694335938,-0.9619952440261841,-0.0,-0.0,-1.0,0.11821611048101735,1.0,0
15.05789852142334,13.432939529418945,-0.7101737260818481,0.7411325896954357,-0.4763543828170113,0.4730845447299684,0.06175635918810711,3.0,0
14.716357231140137,13.27456283569336,-0.741416335105896,-0.0,-0.0,-1.0,0.10920180002219175,2.0,0
13.390971183776855,14.107086181640625,-0.4458855390548706,0.5895192777884942,-0.14417630269126375,-0.7947831244169753,0.15047214361083916,3.0,0
14.246417999267578,15.124783515930176,-0.876383900642395,-0.8729636278061218,0.0475919865080392,-0.485458038709623,0.14038439191848112,3.0,0
14.023971557617188,13.269906997680664,-0.6686500310897827,-0.0,-0.0,-1.0,0.2117180322840671,2.0,0
14.129571914672852,13.489559173583984,-0.6836951971054077,0.2886458217677663,0.8175125513617775,-0.4983541089847337,0.10615098213351519,3.0,0
13.426603317260742,13.16750431060791,-0.719697117805481,-0.0,-0.0,-1.0,0.05137429533010779,2.0,0
13.414916038513184,14.106979370117188,-0.8314727544784546,-0.0,-0.0,-1.0,0.20396953762133313,1.0,0
13.610697746276855,14.36589241027832,-0.8431295156478882,-0.7721395377603231,0.60621477019018,0.19053657557157247,0.13979847196311182,3.0,0
13.312030792236328,13.218503952026367,-0.737756609916687,-0.0,-0.0,-1.0,0.0697057590137247,2.0,0
13.242610931396484,13.551374435424805,-0.7835336923599243,-0.0,-0.0,-1.0,0.02681688365709239,1.0,0
13.237714767456055,13.900428771972656,-0.8250535726547241,-0.0,-0.0,-1.0,0.1126497597467075,2.0,0
13.452787399291992,14.142215728759766,-0.3288726806640625,0.8570083448988658,0.2533067807243164,-0.448745330463494,0.21443478880866665,6.0,0
15.191232681274414,13.47222900390625,-0.7082568407058716,0.8878212643950198,-0.34179692130515626,0.3081367668330819,0.14270914382320105,3.0,0
15.00164794921875,14.959681510925293,-0.9358009099960327,-0.0,-0.0,-1.0,0.020302863624710163,2.0,0
14.738895416259766,13.304075241088867,-0.739877462387085,0.9464863487067198,-0.2975585022506507,-0.1249901174100235,0.1102402897144733,4.0,0
14.87692928314209,14.752378463745117,-0.920258641242981,-0.19920736490183888,-0.05422800578184593,-0.9784557982646891,0.013258708291625865,4.0,0
13.349950790405273,14.457531929016113,-0.568121075630188,-0.18111300300396208,0.6916206826493502,-0.6991844616941463,0.16592452229291602,5.0,0
13.153656005859375,14.263042449951172,-0.5633112192153931,0.24592894882409302,0.9343708544322554,-0.2578178785845037,0.09752700847850941,3.0,0
13.346301078796387,14.212738037109375,-0.5406330823898315,-0.0,-0.0,-1.0,0.11648687296809072,2.0,0
13.462349891662598,14.556238174438477,-0.5696314573287964,0.23884406002681488,-0.3167148732977465,-0.917957081797346,0.20061159593134198,3.0,0
13.301260948181152,14.347633361816406,-0.5598804950714111,0.09475182151611428,0.8588364216415929,-0.503410461930662,0.12770729741051143,4.0,0
15.07264232635498,15.203119277954102,-0.9607932567596436,-0.0,-0.0,-1.0,0.022566590934573038,1.0,0
14.882461547851562,13.389022827148438,-0.754528284072876,-0.0,-0.0,-1.0,0.06823769954775524,2.0,0
14.876225471496582,14.754373550415039,-0.9267880916595459,-0.19920736490183888,-0.05422800578184593,-0.9784557982646891,0.013258708291625865,4.0,0
14.941067695617676,15.032393455505371,-0.9551823139190674,-0.9490221007674331,0.30951503502267635,0.059644742851987495,0.013536180268789496,3.0,0
13.169563293457031,14.211600303649902,-0.632086992263794,-0.0,-0.0,-1.0,0.18608371333685889,1.0,0
13.43515682220459,14.437408447265625,-0.625683069229126,-0.0,-0.0,-1.0,0.23558993993610589,2.0,0
13.516493797302246,14.547586441040039,-0.6282633543014526,-0.9482598472468641,0.1441509383625042,-0.28288472752795124,0.26049730083912626,5.0,0
13.336965560913086,14.310222625732422,-0.6233866214752197,-0.6820684094846798,-0.38219340063911367,-0.6234668309468828,0.2142592088415515,3.0,0
14.908672332763672,15.383996963500977,-0.9611810445785522,-0.0,-0.0,-1.0,0.04064950379717514,2.0,0
14.324764251708984,15.183627128601074,-0.912926197052002,-0.0,-0.0,-1.0,0.0998390072258996,2.0,0
14.208455085754395,14.799142837524414,-0.925682544708252,-0.0,-0.0,-1.0,0.14223058641771327,2.0,0
13.546903610229492,15.109291076660156,-1.0662379264831543,-0.0,-0.0,-1.0,0.03177086798279725,2.0,0
13.353422164916992,15.22700309753418,-1.1081676483154297,-0.0,-0.0,-1.0,0.05493042796278444,1.0,0
13.268912315368652,15.413393020629883,-1.1304917335510254,-0.0,-0.0,-1.0,0.06229223032242537,1.0,0
13.291471481323242,14.882509231567383,-0.6877460479736328,-0.0,-0.0,-1.0,0.20865623815752243,1.0,0
14.254118919372559,15.438793182373047,-1.0753484964370728,-0.0,-0.0,-1.0,0.06250685900990102,1.0,0
14.803915023803711,14.726384162902832,-0.9355007410049438,-0.48803724087765643,-0.8298217202222297,-0.2705837470432107,0.014733685402137472,3.0,0
14.990288734436035,14.157999038696289,-0.8878570795059204,-0.0,-0.0,-1.0,0.03558713880057576,1.0,0
14.87578296661377,14.360806465148926,-0.9151917695999146,-0.0,-0.0,-1.0,0.043049708621605114,2.0,0
14.750697135925293,14.710821151733398,-0.9475339651107788,-0.0,-0.0,-1.0,0.012257833845532213,2.0,0
14.50605583190918,15.071305274963379,-1.0094510316848755,-0.0,-0.0,-1.0,0.027756985867402884,2.0,0
14.412846565246582,15.24317455291748,-1.034368634223938,-0.2722819662345366,-0.7657308491021487,-0.5826824157264033,0.04791122852183447,3.0,0
14.198949813842773,14.69088363647461,-0.6982543468475342,0.05345804693965441,0.04907071366005406,-0.9973636760371267,0.20981071833361548,4.0,0
13.627888679504395,14.376039505004883,-0.8057483434677124,-0.0,-0.0,-1.0,0.1853470367596837,2.0,0
13.702248573303223,14.560819625854492,-0.792605996131897,0.5977452346173339,-0.007741277212656853,-0.8016487429787348,0.23110453085160845,5.0,0
14.027932167053223,13.192916870117188,-0.7336915731430054,-0.0,-0.0,-1.0,0.12871859346172546,2.0,0
13.715587615966797,13.41500473022461,-0.7912775278091431,-0.0,-0.0,-1.0,0.01402934921451998,1.0,0
13.553524017333984,13.728537559509277,-0.8202160596847534,-0.2812041973303612,-0.2550019258046177,-0.9251476732066741,0.02182660346782713,4.0,0
13.470183372497559,14.1270112991333,-0.8355284929275513,-0.0,-0.0,-1.0,0.19593268317794932,1.0,0
13.208735466003418,14.931344032287598,-0.8909326791763306,-0.0,-0.0,-1.0,0.09909845505623571,1.0,0
13.098947525024414,15.122406005859375,-0.9145098924636841,-0.0,-0.0,-1.0,0.19716358226937383,2.0,0
13.403670310974121,13.900797843933105,-0.8483844995498657,-0.0,-0.0,-1.0,0.09845573887834133,1.0,0
13.482821464538574,14.17233657836914,-0.4384690523147583,0.9769958709262128,-0.16822278315118605,0.1310731224240879,0.18555467059468703,3.0,0
15.088150978088379,14.137730598449707,-0.8469799757003784,0.202695375896764,-0.7736552191380841,-0.6003100752864909,0.10393445044229158,3.0,0
14.905233383178711,14.347207069396973,-0.8896561861038208,-0.0,-0.0,-1.0,0.04729275782229373,2.0,0
14.759467124938965,14.694644927978516,-0.925413966178894,0.8418599040225656,-0.21843569643795313,-0.49351570240548914,0.012257208944211862,3.0,0
14.578313827514648,15.07073974609375,-0.9725474119186401,-0.0,-0.0,-1.0,0.012449488162855828,2.0,0
14.42062759399414,15.488219261169434,-1.0179919004440308,-0.0,-0.0,-1.0,0.061406453319991165,2.0,0
13.762353897094727,14.612279891967773,-0.7887364625930786,-0.0,-0.0,-1.0,0.20484631203400483,1.0,0
13.739657402038574,13.861716270446777,-0.792389988899231,-0.0,-0.0,-1.0,0.03127575278645651,2.0,0
13.619994163513184,14.14822769165039,-0.8155163526535034,-0.0,-0.0,-1.0,0.11996638115865217,2.0,0
13.608115196228027,14.428297996520996,-0.8183673620223999,-0.0,-0.0,-1.0,0.13459160313722882,1.0,0
13.204628944396973,14.839522361755371,-0.9016271829605103,-0.0,-0.0,-1.0,0.09445113274173686,2.0,0
13.067471504211426,15.028149604797363,-0.9310940504074097,-0.0,-0.0,-1.0,0.14947736236910794,1.0,0
13.65573787689209,13.790016174316406,-0.8093580007553101,-0.0,-0.0,-1.0,0.031065290541253322,2.0,0
12.916194915771484,15.18639850616455,-0.9634279012680054,0.8984085833586041,0.368908454064173,-0.23826155767888396,0.10163539634055793,3.0,0
13.99293041229248,14.485146522521973,-0.7421272993087769,-0.0,-0.0,-1.0,0.1295555241350239,1.0,0
13.482386589050293,14.147966384887695,-0.46650493144989014,0.013563196221767637,0.11021975094058294,-0.99381469410089,0.2518796573551649,6.0,0
13.264395713806152,14.602279663085938,-0.5041214227676392,-0.4378344906294667,0.46072209612156884,-0.7720337485891295,0.10873272749947702,3.0,0
13.26455020904541,14.676957130432129,-0.5046828985214233,-0.5845865711514246,-0.8106440238168373,-0.03338873282212899,0.172778580729426,3.0,0
13.22965145111084,14.39539909362793,-0.5085440874099731,0.8181289292356083,0.5482741269487996,-0.1733797475668033,0.10073330463640112,4.0,0
14.886777877807617,14.170187950134277,-0.8755944967269897,0.10281280785514996,0.9621735371439963,-0.25229270889336275,0.0340736025263084,4.0,0
14.716851234436035,14.451371192932129,-0.9032434225082397,-0.0,-0.0,-1.0,0.007786344399062392,1.0,0
14.534106254577637,14.787055015563965,-0.9338537454605103,-0.0,-0.0,-1.0,0.012652780718863133,1.0,0
14.283726692199707,15.09727668762207,-0.9847663640975952,-0.0,-0.0,-1.0,0.10978221121780263,2.0,0
14.10427188873291,15.264206886291504,-1.0241276025772095,-0.0,-0.0,-1.0,0.08967036059811899,2.0,0
13.755684852600098,15.350067138671875,-1.1082710027694702,-0.0,-0.0,-1.0,0.013207388916007473,1.0,0
13.534073829650879,15.617855072021484,-1.1570731401443481,-0.0,-0.0,-1.0,0.02291852122569749,1.0,0
13.152107238769531,14.894948959350586,-0.8965257406234741,-0.0,-0.0,-1.0,0.08382015542024093,2.0,0
12.946141242980957,15.110265731811523,-0.9335781335830688,0.9478491596987768,0.3056649079512331,0.09028252602517749,0.18234483266185153,5.0,0
14.112661361694336,14.643199920654297,-0.7026557922363281,-0.0,-0.0,-1.0,0.13434932274879816,2.0,0
13.773248672485352,14.502006530761719,-0.7793565988540649,-0.0,-0.0,-1.0,0.16785088897674103,2.0,0
13.701654434204102,14.616601943969727,-0.7901443243026733,-0.894367380340729,0.4472406766224622,0.009097590710966797,0.21999626806732683,3.0,0
13.783124923706055,13.83216667175293,-0.8068064451217651,-0.0,-0.0,-1.0,0.02997847050078863,2.0,0
13.519021987915039,14.18941879272461,-0.6640491485595703,-0.0,-0.0,-1.0,0.1892404106900219,2.0,0
13.359519958496094,14.559078216552734,-0.6804636716842651,-0.0,-0.0,-1.0,0.2115482232504482,2.0,0
13.229314804077148,14.70295524597168,-0.51897132396698,-0.39549928125479183,-0.5181856476829994,-0.7583297126331612,0.11743292938863796,4.0,0
13.255743026733398,14.274371147155762,-0.528627872467041,0.24661951497168022,-0.06591764792898987,-0.9668679736792624,0.14961088500096567,3.0,0
12.769259452819824,14.110943794250488,-0.6191757917404175,-0.0,-0.0,-1.0,0.07483451279038732,1.0,0
15.08867073059082,14.607921600341797,-0.9369020462036133,0.6280143240244236,-0.3340117942312779,-0.7028756149807368,0.006344877243903345,3.0,0
14.870109558105469,14.983254432678223,-0.9708681106567383,-0.0,-0.0,-1.0,0.013482177759547263,2.0,0
14.716626167297363,15.315108299255371,-0.9939229488372803,0.04506100397231183,-0.7462038471314549,-0.6641907289681358,0.03622048378657107,3.0,0
14.568586349487305,15.579628944396973,-1.0220377445220947,-0.0,-0.0,-1.0,0.04813678455831939,2.0,0
14.600902557373047,13.840078353881836,-0.8187503814697266,-0.362967157853792,0.007566951523604014,-0.9317712077351283,0.05321407714296544,3.0,0
14.454144477844238,14.02766227722168,-0.838700532913208,-0.0,-0.0,-1.0,0.03439509018093166,1.0,0
14.110766410827637,14.355186462402344,-0.8966629505157471,-0.0,-0.0,-1.0,0.05303959121282973,1.0,0
14.01408863067627,14.641453742980957,-0.901745080947876,-0.0,-0.0,-1.0,0.19346081835666085,1.0,0
13.109407424926758,15.611845016479492,-1.0734667778015137,-0.0,-0.0,-1.0,0.03125945316839629,1.0,0
14.150104522705078,14.22769546508789,-0.8959641456604004,-0.0,-0.0,-1.0,0.06126457653433859,1.0,0
13.510396003723145,14.853925704956055,-1.0104455947875977,0.08610477068456954,0.1561095384086228,-0.9839795630414307,0.04247343492204502,3.0,0
13.206135749816895,15.081561088562012,-1.0723209381103516,0.3585572511085465,0.8848615023521297,-0.2974169116452769,0.15778726686036115,3.0,0
12.983194351196289,15.36485767364502,-1.1137142181396484,-0.0,-0.0,-1.0,0.037732125598672304,1.0,0
13.511021614074707,14.487163543701172,-0.689751386642456,-0.3582944844936045,-0.3268214770552398,-0.874535753709872,0.12228536235059928,3.0,0
13.354767799377441,14.690451622009277,-0.7113571166992188,-0.0,-0.0,-1.0,0.15750868954453773,1.0,0
13.164590835571289,14.983916282653809,-0.7369394302368164,-0.0,-0.0,-1.0,0.2184546913942777,1.0,0
13.301734924316406,14.214893341064453,-0.7468101978302002,-0.0,-0.0,-1.0,0.20829800960265799,1.0,0
13.280077934265137,13.590775489807129,-0.7888469696044922,-0.0,-0.0,-1.0,0.02565160301043863,2.0,0
13.153694152832031,13.893281936645508,-0.7952477931976318,-0.0,-0.0,-1.0,0.1336651769339169,2.0,0
13.369503021240234,14.165661811828613,-0.39174818992614746,0.2825961788684923,-0.18886491709665373,-0.9404623558542903,0.20884796857486712,7.0,0
15.155828475952148,15.42342472076416,-1.0116167068481445,-0.0,-0.0,-1.0,0.02437399191962547,1.0,0
14.518420219421387,14.967854499816895,-0.9621379375457764,-0.0,-0.0,-1.0,0.01997408968781339,2.0,0
15.002037048339844,14.307395935058594,-0.9001615047454834,-0.0,-0.0,-1.0,0.05349005550191195,1.0,0
14.758872032165527,14.624109268188477,-0.9306697845458984,-0.0,-0.0,-1.0,0.010802179420950657,1.0,0
14.496051788330078,14.931106567382812,-0.9718432426452637,-0.0,-0.0,-1.0,0.023244883123553137,2.0,0
14.21762466430664,15.195734024047852,-1.024991512298584,-0.0,-0.0,-1.0,0.10726065497690719,2.0,0
13.792069435119629,15.408835411071777,-1.126190423965454,-0.0,-0.0,-1.0,0.013035783118739423,1.0,0
13.988994598388672,14.602907180786133,-0.8306641578674316,-0.0,-0.0,-1.0,0.24013079100850077,2.0,0
13.827780723571777,14.695783615112305,-0.8611612319946289,-0.0,-0.0,-1.0,0.1893164196181819,2.0,0
14.37870979309082,13.851444244384766,-0.8107988834381104,-0.0,-0.0,-1.0,0.06009243597266032,2.0,0
14.16192626953125,14.020331382751465,-0.8438124656677246,-0.0,-0.0,-1.0,0.09574335368379137,2.0,0
13.877876281738281,14.283870697021484,-0.8851461410522461,-0.0,-0.0,-1.0,0.04185184525733253,1.0,0
13.738871574401855,14.518835067749023,-0.8970787525177002,-0.4994859970367293,0.7984710234663237,-0.3360918973270045,0.1998803959967595,4.0,0
13.309467315673828,14.802745819091797,-0.9764747619628906,-0.0,-0.0,-1.0,0.0964387510536452,1.0,0
12.997123718261719,15.080000877380371,-1.0313658714294434,-0.0,-0.0,-1.0,0.17156677040674082,1.0,0
12.753220558166504,15.40563678741455,-1.069061279296875,-0.0,-0.0,-1.0,0.059708810116860835,1.0,0
13.27642822265625,15.100417137145996,-0.6370725631713867,0.9402074033929801,0.2053900035880481,-0.27170753583795054,0.17028522219824002,3.0,0
13.461506843566895,14.556690216064453,-0.6354291439056396,-0.6823876032983934,0.5180569106673542,-0.515717166840965,0.24665041274923624,5.0,0
13.239633560180664,14.754634857177734,-0.6668860912322998,0.8975134110701367,-0.15468472708108597,-0.412967688998907,0.09095288898302241,5.0,0
13.274345397949219,14.25554084777832,-0.6953184604644775,-0.257824042798517,0.6179009205163427,0.7427820779879415,0.1639027388738138,3.0,0
13.132460594177246,13.57292652130127,-0.7782142162322998,-0.0,-0.0,-1.0,0.040889508567939735,1.0,0
13.021722793579102,13.87671947479248,-0.775385856628418,-0.0,-0.0,-1.0,0.051619616310526854,1.0,0
13.269245147705078,13.33078670501709,-0.7721819877624512,-0.6916387817904094,-0.7060101581848887,-0.15226769868631754,0.04045944504455912,5.0,0
13.19946002960205,13.397575378417969,-0.7800247669219971,-0.9970075031066886,-0.04990377450901915,0.05903941089407502,0.02416226449121278,3.0,0
13.435697555541992,14.170069694519043,-0.3443603515625,0.1272589000019937,-0.6064517178176886,-0.7848703627518733,0.18640234292657273,10.0,0
14.316152572631836,14.729660034179688,-0.9283328056335449,-0.0,-0.0,-1.0,0.16856291968310147,1.0,0
14.153115272521973,14.9744873046875,-0.9419739246368408,-0.0,-0.0,-1.0,0.04729790026372077,2.0,0
13.653125762939453,15.139601707458496,-1.0603437423706055,-0.0,-0.0,-1.0,0.01540775891895262,1.0,0
13.356931686401367,15.2925386428833,-1.1268270015716553,-0.0,-0.0,-1.0,0.04505029066517211,1.0,0
13.204368591308594,15.62237548828125,-1.138251543045044,-0.0,-0.0,-1.0,0.0198137494199617,2.0,0
13.546077728271484,15.074217796325684,-1.0970604419708252,-0.0,-0.0,-1.0,0.011959185675452655,2.0,0
12.802879333496094,15.20326042175293,-0.9647443294525146,-0.0,-0.0,-1.0,0.09446022181665473,1.0,0
14.172248840332031,15.147751808166504,-0.9163291454315186,-0.0,-0.0,-1.0,0.14871978886308815,1.0,0
14.839107513427734,14.170038223266602,-0.8701968193054199,0.10281280785514996,0.9621735371439963,-0.25229270889336275,0.011190127687992244,4.0,0
14.65056324005127,14.385272026062012,-0.8870537281036377,0.0602458938863474,0.703029316976229,-0.7086044113197236,0.007432861346266782,3.0,0
14.40656852722168,14.645262718200684,-0.9153852462768555,-0.0,-0.0,-1.0,0.09670185179425525,1.0,0
14.113862991333008,14.67320442199707,-0.7025740146636963,-0.0,-0.0,-1.0,0.19099476444440458,2.0,0
14.822933197021484,14.04094123840332,-0.8942511081695557,-0.0,-0.0,-1.0,0.02730925437227256,2.0,0
13.71496295928955,14.643412590026855,-0.799828290939331,-0.894367380340729,0.4472406766224622,0.009097590710966797,0.14570729773647673,3.0,0
13.398662567138672,14.7630033493042,-0.8623533248901367,-0.0,-0.0,-1.0,0.10661027190415019,1.0,0
13.146865844726562,15.095952987670898,-0.7379152774810791,-0.0,-0.0,-1.0,0.11170841790068571,1.0,0
12.93712043762207,15.152901649475098,-0.9363887310028076,0.5413419664385694,0.08096006350936615,-0.8368956586630032,0.11710710623383519,5.0,0
14.15836238861084,13.848875999450684,-0.7933714389801025,-0.0,-0.0,-1.0,0.048508877630819465,1.0,0
13.908340454101562,14.048208236694336,-0.8244953155517578,-0.0,-0.0,-1.0,0.022507068817679984,2.0,0
13.534391403198242,14.263452529907227,-0.7282826900482178,-0.0,-0.0,-1.0,0.19533175555954135,1.0,0
13.377914428710938,14.6441650390625,-0.725369930267334,-0.0,-0.0,-1.0,0.14490212926336862,1.0,0
13.142683982849121,14.824407577514648,-0.7608940601348877,-0.7533760197305396,-0.5891026842430104,-0.2922030121553328,0.05037293469807943,5.0,0
13.389997482299805,14.175947189331055,-0.6144747734069824,-0.0,-0.0,-1.0,0.18780292192505907,2.0,0
13.251087188720703,14.259624481201172,-0.6340501308441162,0.89906093266529,-0.24297664083177883,-0.36421393625879284,0.14867471416729094,3.0,0
13.2608642578125,13.34157943725586,-0.7289528846740723,-0.9203798556115135,0.2982371104434448,-0.25289434026659036,0.07180130112181385,3.0,0
13.039985656738281,13.602953910827637,-0.7431585788726807,-0.0,-0.0,-1.0,0.046032499376834055,1.0,0
12.784491539001465,13.834980964660645,-0.769521951675415,0.5473932654770781,-0.29040983895053346,-0.7848711603512173,0.042468369515173424,3.0,0
13.31971549987793,13.171896934509277,-0.7371001243591309,-0.0,-0.0,-1.0,0.06181700563489472,2.0,0
13.462151527404785,14.14876937866211,-0.29551446437835693,0.9279327893715882,0.09166618975627105,-0.3613004955222612,0.20199765943706877,8.0,0
14.825336456298828,14.85881519317627,-0.947983980178833,-0.0,-0.0,-1.0,0.01266777149789884,1.0,0
14.471639633178711,15.078176498413086,-0.9943315982818604,-0.0,-0.0,-1.0,0.038359349159264866,2.0,0
14.127975463867188,15.25528621673584,-1.052046298980713,-0.0,-0.0,-1.0,0.09480302463237429,2.0,0
13.740129470825195,15.423014640808105,-1.1280808448791504,-0.0,-0.0,-1.0,0.029915902618493848,1.0,0
14.332677841186523,14.421185493469238,-0.900611400604248,-0.0,-0.0,-1.0,0.14653683059594275,1.0,0
14.163629531860352,14.614967346191406,-0.900789737701416,-0.0,-0.0,-1.0,0.18385773183239074,2.0,0
13.858588218688965,14.81678581237793,-0.9338772296905518,-0.0,-0.0,-1.0,0.061085826268897546,1.0,0
13.508559226989746,14.897467613220215,-1.0036983489990234,-0.0,-0.0,-1.0,0.040991693860390734,2.0,0
13.221027374267578,15.08620548248291,-1.0405502319335938,0.3585572511085465,0.8848615023521297,-0.2974169116452769,0.19776351738276823,3.0,0
12.817686080932617,15.452341079711914,-1.0801019668579102,-0.0,-0.0,-1.0,0.049054030487261494,1.0,0
13.361442565917969,14.962557792663574,-1.028045654296875,-0.0,-0.0,-1.0,0.05096096123739915,2.0,0
13.035918235778809,15.128064155578613,-1.0795326232910156,-0.0,-0.0,-1.0,0.12562491365906353,1.0,0
12.89592456817627,15.255166053771973,-1.092879056930542,-0.0,-0.0,-1.0,0.0781457888257107,2.0,0
13.236377716064453,15.144100189208984,-0.4479125738143921,-0.0,-0.0,-1.0,0.1529692514907742,1.0,0
13.585285186767578,14.569870948791504,-0.7558515071868896,0.6675816808758717,0.7393558998281338,-0.08767869038869505,0.127194455460534,5.0,0
13.285881042480469,14.695733070373535,-0.6500470638275146,-0.0,-0.0,-1.0,0.0696532103292601,1.0,0
13.064537048339844,14.933012008666992,-0.8052825927734375,-0.19643167537376216,-0.20445358070123235,-0.9589647179371623,0.11350516666177514,4.0,0
13.763374328613281,14.023589134216309,-0.8173680305480957,-0.0,-0.0,-1.0,0.03312341897739071,2.0,0
13.478554725646973,14.235727310180664,-0.6868195533752441,-0.16946455309564443,0.9358347087679012,-0.3090229168029306,0.15494119658890626,3.0,0
13.272881507873535,14.328634262084961,-0.562183141708374,-0.6920082501076831,0.4715278053030571,-0.5466133099449598,0.12235411180646488,6.0,0
12.979822158813477,13.562297821044922,-0.7344522476196289,-0.0,-0.0,-1.0,0.1069274456710963,1.0,0
13.44529914855957,14.153610229492188,-0.2657076120376587,0.6155246662673048,0.7669824842353059,-0.1812932819846376,0.2930960560080409,4.0,0
14.704553604125977,14.592668533325195,-0.9325981140136719,-0.0,-0.0,-1.0,0.010444421468683594,2.0,0
14.531294822692871,14.710565567016602,-0.9397587776184082,-0.0,-0.0,-1.0,0.01815375634660046,1.0,0
14.188213348388672,14.96782398223877,-0.9525930881500244,-0.0,-0.0,-1.0,0.05266947625911311,2.0,0
13.274097442626953,15.2352294921875,-1.1141023635864258,-0.0,-0.0,-1.0,0.06927520813366318,1.0,0
13.070089340209961,15.405097007751465,-1.1285688877105713,-0.0,-0.0,-1.0,0.03434137328148404,1.0,0
14.724614143371582,14.549409866333008,-0.9400970935821533,-0.0,-0.0,-1.0,0.01012645957277557,2.0,0
14.011940956115723,14.617740631103516,-0.821091890335083,-0.16867522517576963,0.7052768941575479,-0.6885732865711437,0.22874726081004956,3.0,0
13.688953399658203,14.850494384765625,-0.9683654308319092,-0.0,-0.0,-1.0,0.0782701487436233,2.0,0
13.32231330871582,14.977039337158203,-1.0220401287078857,-0.0,-0.0,-1.0,0.051429617676127956,2.0,0
12.9546537399292,15.082115173339844,-0.9467008113861084,0.8871273417301628,0.3861160765102027,-0.2528229716919372,0.19586112935031644,3.0,0
14.157890319824219,14.176172256469727,-0.8979208469390869,-0.0,-0.0,-1.0,0.05858179127350688,1.0,0
13.916177749633789,14.374751091003418,-0.8983156681060791,-0.0,-0.0,-1.0,0.09404442119481256,1.0,0
13.640331268310547,14.573966979980469,-0.9088835716247559,-0.0,-0.0,-1.0,0.23151874337212414,1.0,0
13.245058059692383,14.758288383483887,-0.9517843723297119,-0.0,-0.0,-1.0,0.18249478324026464,1.0,0
13.186111450195312,15.340218544006348,-0.5745184421539307,-0.0,-0.0,-1.0,0.12563783528317313,1.0,0
13.204792022705078,15.032459259033203,-0.6290524005889893,-0.0,-0.0,-1.0,0.12077499698230883,1.0,0
13.46177864074707,14.562029838562012,-0.6740963459014893,-0.3617860297684818,0.9238387287502224,0.1250314837372272,0.2233289274422148,3.0,0
13.234169006347656,14.743690490722656,-0.6797821521759033,0.8975134110701367,-0.15468472708108597,-0.412967688998907,0.12622901499808215,5.0,0
13.017171859741211,14.840774536132812,-0.70155930519104,-0.0,-0.0,-1.0,0.0699413187048197,2.0,0
13.634982109069824,13.768425941467285,-0.8109867572784424,0.1275015580609453,-0.04783688777689438,-0.990684099428194,0.03064662064007953,3.0,0
13.341277122497559,14.087514877319336,-0.6530795097351074,-0.0,-0.0,-1.0,0.220848923414144,1.0,0
13.548086166381836,13.758674621582031,-0.8278427124023438,0.9895375634761974,-0.008962729564238608,-0.1439968053407754,0.022331532952105392,4.0,0
13.020013809204102,13.251768112182617,-0.7141683101654053,-0.666622499954197,0.4493687710806105,-0.5947118210800243,0.15034686583355347,3.0,0
12.851614952087402,13.188993453979492,-0.7503468990325928,-0.0,-0.0,-1.0,0.1545218855689175,2.0,0
14.044580459594727,14.669059753417969,-0.7030777931213379,-0.0,-0.0,-1.0,0.09076092045549686,2.0,0
13.623297691345215,14.6143798828125,-0.7972936630249023,-0.0,-0.0,-1.0,0.2592514246317206,1.0,0
13.404767990112305,14.708641052246094,-0.8155651092529297,-0.0,-0.0,-1.0,0.13018923007113103,1.0,0
13.008533477783203,14.821378707885742,-0.7369074821472168,-0.0,-0.0,-1.0,0.09042491005633176,2.0,0
14.476400375366211,13.950708389282227,-0.8335518836975098,-0.0,-0.0,-1.0,0.06648195524744968,2.0,0
14.097764015197754,14.082662582397461,-0.857764482498169,-0.0,-0.0,-1.0,0.07157472613368518,1.0,0
13.73896598815918,14.270462036132812,-0.8687596321105957,-0.0698655065371863,-0.4518143426840148,-0.8893720316837682,0.06582056211551944,3.0,0
13.376005172729492,14.332101821899414,-0.7871253490447998,-0.0,-0.0,-1.0,0.21210900680496295,2.0,0
14.66358757019043,13.783220291137695,-0.8543758392333984,-0.0,-0.0,-1.0,0.0723927433279073,2.0,0
14.638389587402344,13.866735458374023,-0.833136796951294,-0.12868706763341708,-0.039597284568032694,-0.9908943907797393,0.04791540457283576,4.0,0
13.521611213684082,13.69842529296875,-0.7911949157714844,-0.0,-0.0,-1.0,0.018965889111445228,2.0,0
13.2198486328125,13.856454849243164,-0.799525260925293,-0.0,-0.0,-1.0,0.11723318810832822,2.0,0
13.031612396240234,13.99972915649414,-0.7954468727111816,-0.0,-0.0,-1.0,0.045794756958326875,2.0,0
14.281150817871094,13.394746780395508,-0.7616374492645264,-0.0,-0.0,-1.0,0.060394975086183404,2.0,0
13.994501113891602,13.528105735778809,-0.765653133392334,-0.0,-0.0,-1.0,0.06540622287380511,1.0,0
13.611600875854492,13.638431549072266,-0.7929043769836426,-0.0,-0.0,-1.0,0.015217163875748695,1.0,0
13.350008010864258,13.720670700073242,-0.8121020793914795,-0.0,-0.0,-1.0,0.0416693172335211,1.0,0
13.195073127746582,15.113794326782227,-0.5110845565795898,-0.0,-0.0,-1.0,0.15312725655648268,1.0,0
