x,y,z,nx,ny,nz,curvature,density,label
17.06928253173828,-6.087466239929199,0.10084199905395508,-0.0,-0.0,-1.0,0.14998564207638024,1.0,1
17.3593807220459,-6.378998756408691,0.08688020706176758,-0.6027945441543093,-0.2527347394099931,-0.75681166021221,0.04618426945603782,3.0,1
17.654041290283203,-6.718270778656006,0.06377029418945312,-0.0,-0.0,-1.0,0.05744079253113919,1.0,1
17.56483268737793,-4.475213050842285,0.017287850379943848,-0.0,-0.0,-1.0,0.049596985023557374,1.0,1
15.392434120178223,-4.696086406707764,0.6317946314811707,-0.0,-0.0,-1.0,0.09099527417461661,2.0,1
15.47259521484375,-5.936809539794922,0.7488999366760254,-0.0,-0.0,-1.0,0.16222348480452306,2.0,1
15.308051109313965,-6.509612560272217,0.7112187743186951,-0.0,-0.0,-1.0,0.20130233647882292,2.0,1
15.778985977172852,-5.1301655769348145,0.4483436346054077,-0.0,-0.0,-1.0,0.18284032827429123,2.0,1
15.854355812072754,-5.369213104248047,0.43558526039123535,-0.26963761275242926,-0.6240694782500249,-0.7333708775959905,0.17255885813484534,3.0,1
16.012643814086914,-5.779545307159424,0.7719018459320068,-0.0,-0.0,-1.0,0.1634931687989794,1.0,1
16.00653839111328,-6.043659210205078,0.7560214996337891,-0.0,-0.0,-1.0,0.1606276596597833,2.0,1
15.980908393859863,-4.544629096984863,0.500171959400177,0.8596815271935172,-0.022748090689644923,-0.5103236190616672,0.2514754631816484,3.0,1
16.155921936035156,-4.842570781707764,0.4908844232559204,-0.8375141501152668,0.19202591004681552,0.5115624089271948,0.14848665108051856,4.0,1
16.391033172607422,-6.848431587219238,0.7119255661964417,-0.0,-0.0,-1.0,0.04996157375407151,2.0,1
16.472339630126953,-5.247990131378174,0.4795587658882141,-0.0,-0.0,-1.0,0.13763944389216928,2.0,1
16.827117919921875,-6.051913261413574,0.4314730763435364,-0.824876256703118,0.5472170679983385,-0.14188954020206562,0.18239364885920684,3.0,1
16.918800354003906,-5.849124908447266,0.45352911949157715,-0.5376565700606961,-0.5209102721063348,-0.6630067126995561,0.1491655493948678,3.0,1
17.017236709594727,-6.042053699493408,0.44115233421325684,-0.006051201945939506,0.895198380631244,-0.44562679707374886,0.20243623171299094,10.0,1
17.281888961791992,-6.6809916496276855,0.39261239767074585,-0.0,-0.0,-1.0,0.11439563771132731,1.0,1
15.476459503173828,-5.809486389160156,1.1296170949935913,-0.15904563208025985,-0.7844133944368967,0.5994998861919627,0.06661072076033474,6.0,2
16.1097412109375,-4.975174427032471,0.8191335797309875,-0.0,-0.0,-1.0,0.12954307520695427,2.0,1
17.01654815673828,-5.994825839996338,0.7809220552444458,-0.34606942366523236,-0.8672619913481391,-0.35790025477341364,0.12116672939420571,4.0,1
15.996421813964844,-6.611934661865234,0.19128966331481934,-0.0,-0.0,-1.0,0.1665465331570845,1.0,1
16.182586669921875,-4.44312047958374,0.0823063850402832,-0.0,-0.0,-1.0,0.14346014856226744,2.0,1
16.384519577026367,-4.660958290100098,0.09552907943725586,-0.0,-0.0,-1.0,0.10572093586780146,1.0,1
16.611743927001953,-4.879658222198486,0.11048471927642822,0.1467450576870282,-0.08664633733989874,-0.9853721633322159,0.04176970791177965,3.0,1
16.826099395751953,-5.0311808586120605,0.12888598442077637,-0.0,-0.0,-1.0,0.08697163626815628,2.0,1
16.94149398803711,-5.247879981994629,0.12270975112915039,-0.0,-0.0,-1.0,0.10869831607522322,2.0,1
17.15524673461914,-5.6068196296691895,0.1127772331237793,-0.293662127095245,-0.7422651029560219,-0.6023330242013822,0.13123308662934097,5.0,1
17.30617904663086,-6.022735118865967,0.08189105987548828,-0.0,-0.0,-1.0,0.04857517821305392,2.0,1
17.62606430053711,-6.362133502960205,0.07999980449676514,-0.0,-0.0,-1.0,0.12115741072382591,2.0,1
17.563282012939453,-4.376046180725098,0.025309205055236816,-0.0,-0.0,-1.0,0.04959698502355739,1.0,1
15.373578071594238,-4.681457996368408,0.28818392753601074,-0.2104828547488207,-0.9661977949235585,0.14885828475983334,0.16567523470621218,3.0,1
15.555391311645508,-5.422416687011719,0.43447113037109375,-0.23509199473904846,0.9713278587107987,-0.03541108444978701,0.2523811238396383,3.0,1
15.648059844970703,-5.948444843292236,0.585669994354248,-0.0,-0.0,-1.0,0.21928712488702873,2.0,1
15.594888687133789,-6.815976142883301,0.5096025466918945,-0.0,-0.0,-1.0,0.24023167019695316,2.0,1
15.71204948425293,-5.199562072753906,0.2919166088104248,-0.0,-0.0,-1.0,0.17061604484199797,1.0,1
15.880355834960938,-5.381105899810791,0.29777705669403076,0.7429737539995647,-0.3713235937707004,-0.5568741236374759,0.11988089070895383,4.0,1
16.196369171142578,-6.250664234161377,0.25288867950439453,-0.0,-0.0,-1.0,0.09845338783317495,1.0,1
16.188552856445312,-6.6229753494262695,0.21222186088562012,-0.0,-0.0,-1.0,0.09609092938834576,1.0,1
16.21103858947754,-4.638518810272217,0.4028583765029907,-0.0,-0.0,-1.0,0.11345213994417165,1.0,1
16.09607696533203,-4.958080768585205,0.3619251251220703,-0.8876843762813185,0.3284599233441356,-0.322692619783613,0.10137011898465997,4.0,1
16.29734230041504,-5.810748100280762,0.30952131748199463,-0.0,-0.0,-1.0,0.06689357098184616,2.0,1
16.33880043029785,-6.080612659454346,0.2873353958129883,-0.0,-0.0,-1.0,0.10328455059612396,2.0,1
16.55076026916504,-5.32747220993042,0.3871595859527588,-0.6012772900683845,-0.6078224675348523,-0.5186689391199972,0.1544722788967993,5.0,1
16.949827194213867,-5.7913498878479,0.3899250030517578,-0.07284163973503732,0.3465266301692218,-0.9352076721799677,0.1696234587204315,3.0,1
16.979637145996094,-6.119186878204346,0.35839593410491943,0.6717332070494346,0.08325732900670378,-0.7360996642532521,0.14747837678317227,4.0,1
16.968704223632812,-5.743741989135742,0.3971097469329834,-0.0,-0.0,-1.0,0.12372889901984753,2.0,1
17.04507827758789,-5.997535705566406,0.37917399406433105,-0.8545597603543638,0.5174448811075736,0.04447933226411833,0.16092744564580666,7.0,1
17.272756576538086,-6.52014684677124,0.34569382667541504,-0.0,-0.0,-1.0,0.08073802285982763,1.0,1
15.447883605957031,-5.178908824920654,0.9820578098297119,-0.872856060323165,0.27864595302597117,-0.4005979665691918,0.110398423926072,5.0,1
15.536389350891113,-5.848799705505371,0.9507416486740112,-0.8059339984504424,-0.5000230673511706,0.3169342554196512,0.09942268714726497,4.0,1
15.932855606079102,-5.020495414733887,0.6803947687149048,-0.0,-0.0,-1.0,0.07172738300963573,1.0,1
15.794543266296387,-5.27657413482666,0.6492682695388794,-0.0,-0.0,-1.0,0.12614072897553766,2.0,1
16.097171783447266,-5.972262382507324,0.6250910758972168,-0.8326463225927836,-0.13299051458048325,0.5375998739809495,0.15681566559283006,10.0,1
16.30606460571289,-6.803905963897705,0.9344467520713806,-0.8086184688126459,-0.10396886465359145,-0.5790739564837422,0.06640605326001198,4.0,1
16.21438217163086,-4.6927490234375,0.7298890352249146,-0.4283811205197625,-0.347046494953177,0.8342951192012015,0.09290585010755797,4.0,1
16.22159767150879,-5.940405368804932,0.6389687061309814,-0.0,-0.0,-1.0,0.2508658899125331,1.0,1
15.394022941589355,-6.038882255554199,0.38583385944366455,-0.0,-0.0,-1.0,0.19699608843991614,1.0,1
15.416516304016113,-6.225093841552734,0.3723946809768677,-0.0,-0.0,-1.0,0.1614629894478643,1.0,1
15.409414291381836,-4.645226001739502,0.13299763202667236,-0.0,-0.0,-1.0,0.17942979909440276,2.0,1
15.623764038085938,-4.8876471519470215,0.14883649349212646,-0.0,-0.0,-1.0,0.03688685410419134,2.0,1
15.761284828186035,-4.988407135009766,0.1621776819229126,0.30619318240224147,-0.7259133578531113,-0.6158697361786896,0.08042483572969103,3.0,1
16.014392852783203,-5.198512554168701,0.18374788761138916,-0.0,-0.0,-1.0,0.0802523371587113,1.0,1
16.1917667388916,-4.617478847503662,0.25877249240875244,-0.8360990037852929,0.47215712816510963,0.2792957253380672,0.09444151701550026,6.0,1
16.21422576904297,-4.9007978439331055,0.23982417583465576,-0.031689339992133435,0.8920215753528857,-0.4508805771330351,0.10405630256981757,4.0,1
16.336883544921875,-5.207810878753662,0.23223280906677246,-0.0,-0.0,-1.0,0.08758852382943894,1.0,1
16.648670196533203,-5.939270973205566,0.2059180736541748,-0.0,-0.0,-1.0,0.08476756576540358,1.0,1
16.62331771850586,-6.471989154815674,0.14181208610534668,-0.0,-0.0,-1.0,0.05843187844334295,1.0,1
16.701457977294922,-6.846273899078369,0.10663306713104248,-0.0,-0.0,-1.0,0.08679900621799871,1.0,1
16.714496612548828,-5.292336463928223,0.28146421909332275,0.47094340638692944,0.8743064158735253,-0.11747595133926571,0.10901599618073285,3.0,1
16.822933197021484,-5.567742347717285,0.27035844326019287,-0.0,-0.0,-1.0,0.07212760842387862,1.0,1
16.788135528564453,-6.014214038848877,0.21756041049957275,-0.0,-0.0,-1.0,0.15650548298008607,1.0,1
16.824134826660156,-6.460543155670166,0.17097187042236328,-0.0,-0.0,-1.0,0.09878642199893578,1.0,1
16.9716796875,-4.752358436584473,0.06091475486755371,0.8479745618056107,0.24753258583060203,-0.4686862079073782,0.033896518387930376,3.0,1
17.136245727539062,-5.149276256561279,0.0502544641494751,-0.0,-0.0,-1.0,0.051501977865029025,2.0,1
17.301959991455078,-5.39932918548584,0.05176186561584473,-0.4823329227614796,-0.30916365848176747,-0.819617461926317,0.05569762751614701,3.0,1
17.420351028442383,-5.557329177856445,0.05376017093658447,-0.0,-0.0,-1.0,0.04786160040707644,2.0,1
17.6555118560791,-5.910175323486328,0.04859662055969238,-0.0,-0.0,-1.0,0.03531366990837819,2.0,1
15.572474479675293,-5.113943576812744,0.4787421226501465,-0.0,-0.0,-1.0,0.23337872666422196,2.0,1
15.447502136230469,-5.295130252838135,0.4507201910018921,0.7229660197116975,0.6908229219023038,0.009155594824436956,0.16043931983811305,3.0,1
15.533072471618652,-5.924829959869385,0.5938413143157959,-0.5313136804539529,0.7914438953506121,-0.3021958528417034,0.13107500956136695,7.0,1
15.774433135986328,-6.258108139038086,0.4101680517196655,-0.0,-0.0,-1.0,0.1629705820170475,1.0,1
15.815567970275879,-6.584434986114502,0.38413727283477783,-0.34151778485674655,-0.908431039654847,-0.2410780969274373,0.1775424087325997,5.0,1
16.007099151611328,-6.80856466293335,0.38322484493255615,0.19897162967944818,-0.878127116545585,-0.43508971232383886,0.08314291395469554,3.0,1
15.872336387634277,-5.375859260559082,0.4955347776412964,0.4667863295242184,0.7020371361496834,-0.5378237462552754,0.1661650542243886,5.0,1
16.075984954833984,-5.871467113494873,0.4789186716079712,-0.0,-0.0,-1.0,0.23158414429852592,2.0,1
16.123504638671875,-5.961079120635986,0.4765127897262573,0.17646262405121624,-0.9513286671536052,0.25265531730938184,0.22231407693295047,8.0,1
16.149368286132812,-4.858288764953613,0.5667389631271362,-0.0,-0.0,-1.0,0.08935662513070501,2.0,1
16.515506744384766,-5.131366729736328,0.5909754037857056,-0.49125409154897653,0.11027271154082915,-0.8640077237072726,0.10654933590426978,5.0,1
16.44903564453125,-6.8393683433532715,0.4272986650466919,-0.974512742632482,0.20844157125910134,0.08292783500100921,0.1447859245493565,4.0,1
16.902746200561523,-5.723814964294434,0.5863538980484009,-0.0,-0.0,-1.0,0.10737801256575329,1.0,1
16.85677719116211,-6.066139221191406,0.5491820573806763,-0.0,-0.0,-1.0,0.15166115220564502,1.0,1
17.53989028930664,-6.262270927429199,0.2934607267379761,-0.0,-0.0,-1.0,0.2067352188776865,2.0,1
17.475399017333984,-6.849796295166016,0.531731128692627,-0.0,-0.0,-1.0,0.11346818235239456,1.0,1
15.367446899414062,-4.671366214752197,0.8374872207641602,-0.0,-0.0,-1.0,0.13225458781623978,2.0,1
15.822196006774902,-6.204592227935791,0.77973473072052,-0.0,-0.0,-1.0,0.110518687701942,2.0,1
15.784664154052734,-5.1116743087768555,0.8502053618431091,-0.0,-0.0,-1.0,0.14727337570194549,2.0,1
16.086742401123047,-6.0052409172058105,0.8161592483520508,-0.0,-0.0,-1.0,0.12458684700987735,1.0,1
16.367794036865234,-6.857670783996582,0.7699037790298462,-0.0,-0.0,-1.0,0.03317017236398042,2.0,1
16.28407096862793,-4.700681686401367,0.9180585145950317,-0.4045136803572708,0.9048733462974613,-0.13256285137341686,0.09731709037781697,3.0,1
17.026737213134766,-5.979701042175293,0.8938263058662415,-0.6015241973470726,0.17431629386526265,-0.779604046743627,0.09613148510253089,6.0,1
15.429601669311523,-4.685744762420654,0.1592615842819214,-0.0,-0.0,-1.0,0.15519959010745135,2.0,1
15.51313591003418,-5.10366153717041,0.1681424379348755,-0.0,-0.0,-1.0,0.10031768257163061,1.0,1
15.653746604919434,-5.332515716552734,0.18653976917266846,-0.0,-0.0,-1.0,0.17164547232694696,2.0,1
15.914525985717773,-6.7190656661987305,0.16901803016662598,-0.0,-0.0,-1.0,0.1636064131054238,1.0,1
15.7191743850708,-4.807293891906738,0.206487774848938,-0.0,-0.0,-1.0,0.07529432021151453,1.0,1
15.754900932312012,-5.1774749755859375,0.20649516582489014,-0.0,-0.0,-1.0,0.11892368312113492,2.0,1
15.917430877685547,-5.336134910583496,0.22940337657928467,-0.0,-0.0,-1.0,0.08801371366818322,1.0,1
16.17353057861328,-5.790040969848633,0.2557346820831299,-0.0,-0.0,-1.0,0.06990431343673616,2.0,1
16.19448471069336,-6.164870262145996,0.2423790693283081,-0.0,-0.0,-1.0,0.08886419549051158,2.0,1
16.075223922729492,-6.686465740203857,0.1952265501022339,-0.0,-0.0,-1.0,0.11623527466551514,2.0,1
16.18901824951172,-4.655449867248535,0.2860441207885742,-0.9776018090896077,0.008857651184561562,0.21027659137483348,0.07362564691685132,5.0,1
16.14724349975586,-4.897834300994873,0.27615368366241455,-0.09756059892353189,0.7237427639306175,-0.6831385958908718,0.12716672803118248,5.0,1
16.346145629882812,-5.847101211547852,0.2806135416030884,-0.0,-0.0,-1.0,0.061586281843344685,1.0,1
16.317798614501953,-6.05081844329834,0.2671874761581421,-0.8271209947564743,-0.23907330115861997,0.5086401642676088,0.10153373749143808,3.0,1
16.483741760253906,-6.837457180023193,0.24696242809295654,-0.09820036370808033,0.8416775209651554,0.5309761193025079,0.10147430524205353,8.0,1
15.350223541259766,-6.507794380187988,0.46939146518707275,-0.0,-0.0,-1.0,0.2042909326608657,1.0,1
15.612764358520508,-6.843000888824463,0.4866286516189575,-0.0,-0.0,-1.0,0.1868368349219347,2.0,1
15.375653266906738,-4.6917524337768555,0.5086449384689331,0.7070816414694548,-0.504340130261768,0.49565772999561314,0.15877631648102977,3.0,1
15.495917320251465,-5.140272617340088,0.521687388420105,-0.0,-0.0,-1.0,0.24679000503247583,1.0,1
15.595335960388184,-5.480622291564941,0.5295912027359009,-0.0,-0.0,-1.0,0.2621568628484581,2.0,1
15.53388786315918,-5.926694393157959,0.511384129524231,-0.8193444298960252,0.5152377389860042,-0.2514056036029183,0.1651641080762817,6.0,1
15.889704704284668,-6.13665246963501,0.548988938331604,-0.0,-0.0,-1.0,0.24234928371282483,2.0,1
16.162872314453125,-5.9050140380859375,0.5903548002243042,-0.7783196977295138,-0.288960322804373,-0.5574229812010186,0.21000102722464895,5.0,1
16.466781616210938,-6.80646276473999,0.588697075843811,-0.9457639244886265,-0.299664774751607,-0.12542576254079704,0.06531392641075175,5.0,1
16.29975128173828,-4.723445892333984,0.46850502490997314,-0.0,-0.0,-1.0,0.25219036070732836,1.0,1
16.1381893157959,-4.94423246383667,0.6071857213973999,-0.9439097559143103,0.1128243186725582,0.3103305428182348,0.07390812805098586,5.0,1
16.542552947998047,-5.274930000305176,0.3325883150100708,-0.9133368934727479,0.3002660503096928,0.2750563906782879,0.14316227122110953,7.0,1
16.61317253112793,-5.382482051849365,0.3406815528869629,-0.7229328936572327,0.43195358961569225,-0.5392440335196105,0.15145340389701142,4.0,1
16.974361419677734,-6.063678741455078,0.3684500455856323,0.7076105431935172,0.028628545980110148,-0.7060224681385433,0.20360156212810232,6.0,1
17.178783416748047,-6.500492095947266,0.3729832172393799,-0.0,-0.0,-1.0,0.08269071027836083,2.0,1
17.36777114868164,-6.700221538543701,0.38647377490997314,0.22852617655338822,-0.8763068233741822,-0.4241015655921812,0.18194925318167673,3.0,1
15.538918495178223,-5.843337059020996,0.8727453947067261,-0.0,-0.0,-1.0,0.10293957610171377,2.0,1
16.12824249267578,-5.004688262939453,0.9363051056861877,-0.9643436751019001,0.14229491819049858,-0.22314442083126496,0.15949303853700492,3.0,1
16.30567169189453,-6.802290916442871,0.9144706130027771,-0.3710215175567727,0.9249895020829456,0.08208199891702096,0.05228546697899802,3.0,1
17.039918899536133,-5.922880172729492,0.8514143228530884,-0.0,-0.0,-1.0,0.11720280297614533,2.0,1
15.481934547424316,-6.302445411682129,0.39733338356018066,-0.0,-0.0,-1.0,0.20481442885292428,2.0,1
15.794498443603516,-4.450845241546631,0.10506010055541992,-0.0,-0.0,-1.0,0.06723381184249462,1.0,1
15.827235221862793,-4.617732524871826,0.1115725040435791,-0.0,-0.0,-1.0,0.03171482925912537,2.0,1
16.308673858642578,-6.724734306335449,0.14690685272216797,-0.0,-0.0,-1.0,0.09573086739209959,1.0,1
16.085491180419922,-4.685017108917236,0.1570436954498291,-0.0,-0.0,-1.0,0.18722852153882247,2.0,1
16.217988967895508,-4.9834184646606445,0.179365873336792,-0.9557440865939081,-0.22325203106353822,-0.1916031616826331,0.1206237497900384,3.0,1
16.50397491455078,-6.308330535888672,0.19793248176574707,-0.015440467815536632,0.026255131443187217,-0.9995360223756513,0.024697227895444297,3.0,1
16.385568618774414,-6.58614444732666,0.16609525680541992,-0.1399714954084242,0.9736942693429114,0.17979836017579065,0.09917366215484051,3.0,1
16.52909278869629,-5.139502048492432,0.2324608564376831,-0.9544700677058918,-0.045935334663580796,0.29474876570200476,0.07493418685892514,3.0,1
16.75009536743164,-5.313267230987549,0.2683985233306885,-0.6950205616595557,-0.45790045872637825,-0.5543226395959382,0.1143954093360132,4.0,1
16.759300231933594,-5.694581031799316,0.2617619037628174,-0.8896684322841663,0.2937822070593571,-0.3495455555608849,0.05571038392799019,3.0,1
16.71771240234375,-6.072328567504883,0.24307632446289062,-0.0,-0.0,-1.0,0.11745242440518575,2.0,1
17.07867431640625,-6.012172698974609,0.3068244457244873,-0.5892927746527301,-0.6202126119482285,-0.5177550982099962,0.19560966108644745,6.0,1
17.232759475708008,-6.537259101867676,0.31034231185913086,-0.0,-0.0,-1.0,0.08781267201882632,2.0,1
17.372833251953125,-6.84071159362793,0.3171638250350952,0.7256756052467533,0.6819039996215036,0.09166161273921963,0.12240981303027457,3.0,1
17.25131607055664,-4.387518882751465,0.05672287940979004,-0.0,-0.0,-1.0,0.020149969196842893,1.0,1
17.181713104248047,-4.790395736694336,0.04125964641571045,-0.0,-0.0,-1.0,0.02273245517432744,1.0,1
17.23245620727539,-5.261489391326904,0.04499709606170654,-0.9721906594545755,-0.15297789380892493,-0.17732198305642502,0.03982264494571022,4.0,1
17.345273971557617,-5.639824867248535,0.057672739028930664,-0.0,-0.0,-1.0,0.01909057752790378,1.0,1
17.414583206176758,-6.009406089782715,0.05678749084472656,-0.0,-0.0,-1.0,0.05677750532990353,2.0,1
17.584121704101562,-6.357658386230469,0.07305312156677246,0.13895138646315422,-0.2024564410805323,-0.9693832583993658,0.12262061328935114,3.0,1
17.702651977539062,-6.575700283050537,0.08358192443847656,-0.0,-0.0,-1.0,0.018809005625229375,1.0,1
15.33658504486084,-4.6745805740356445,0.5786104202270508,0.5076633249993635,-0.8424739637137872,-0.18032073900406234,0.12883646458412706,3.0,1
15.47354507446289,-5.216070652008057,0.5958154201507568,-0.0,-0.0,-1.0,0.16394993118766255,1.0,1
15.498035430908203,-5.513668060302734,0.41454219818115234,-0.0,-0.0,-1.0,0.16997702329760345,2.0,1
15.564702987670898,-5.920670986175537,0.6003644466400146,0.47003214523670184,0.23955869279342212,-0.8495183430340341,0.15030598419782387,5.0,1
15.682446479797363,-6.468327522277832,0.41986703872680664,0.9728185098655154,0.18418972995286648,-0.14035059758664575,0.22347365660462049,4.0,1
15.832085609436035,-6.647132396697998,0.4343149662017822,-0.3152598794513438,-0.2995174733897153,-0.9005001341157953,0.14520100776081,8.0,1
15.680001258850098,-5.1556854248046875,0.4429742097854614,0.6223603181403975,0.7765003346643441,-0.09856401305925526,0.19867507303268153,3.0,1
15.803987503051758,-5.390972137451172,0.4583418369293213,-0.5076300143004863,0.6925188836107882,-0.5125713261817866,0.18690804794094037,3.0,1
16.106456756591797,-5.91636848449707,0.4917266368865967,-0.5150632076777661,-0.6699703039879477,0.534649122201643,0.2070654524101782,5.0,1
15.853809356689453,-6.123230934143066,0.4525090456008911,-0.0,-0.0,-1.0,0.16488778343592145,1.0,1
16.035837173461914,-6.808178901672363,0.45577049255371094,-0.47522098833091336,-0.8791424872111409,-0.03568612377379948,0.10583229450752742,7.0,1
16.090225219726562,-4.6675214767456055,0.5008814334869385,-0.0,-0.0,-1.0,0.17636805167573447,1.0,1
16.1152286529541,-4.92311429977417,0.5046490430831909,-0.7952299820800223,-0.509748371144395,0.3282771294449914,0.11382549962314943,3.0,1
16.31125259399414,-5.9891252517700195,0.5181242227554321,-0.0,-0.0,-1.0,0.10051110265226944,1.0,1
16.49614906311035,-5.170894622802734,0.5566112995147705,-0.9668544648639064,-0.15224043096503542,-0.20497632778520966,0.09604818051789964,5.0,1
16.699024200439453,-6.035557746887207,0.5697762966156006,0.2346207367002795,0.5774390808979878,-0.7819956635186059,0.2163480132772325,4.0,1
17.058870315551758,-5.982513427734375,0.6200613975524902,-0.0,-0.0,-1.0,0.054635287643481,2.0,1
15.513758659362793,-5.785700798034668,1.1397590637207031,0.4720080524204421,-0.8763484803745685,0.09602988803203913,0.044325362570125246,6.0,2
15.997419357299805,-5.888869285583496,0.825913667678833,-0.0,-0.0,-1.0,0.12464504001760854,1.0,1
16.203508377075195,-4.7107110023498535,0.852760910987854,-0.0,-0.0,-1.0,0.07988440666684948,2.0,1
17.007287979125977,-5.959936141967773,0.9277845621109009,-0.7865068800119901,0.246722771839053,-0.5661579298657398,0.16228514416168263,5.0,1
17.016002655029297,-5.926454544067383,0.9292727708816528,-0.7243892865072004,0.38531220773068947,-0.5716595701702999,0.1601580646876966,5.0,1
15.391685485839844,-4.632721900939941,0.15347540378570557,-0.0,-0.0,-1.0,0.2530116757189075,2.0,1
15.326003074645996,-5.058788299560547,0.14607858657836914,-0.0,-0.0,-1.0,0.1328937017953172,2.0,1
15.491522789001465,-4.754886627197266,0.17052829265594482,-0.6012154781111073,-0.6820659987732293,0.4163242993113784,0.11211293065077849,3.0,1
15.52613353729248,-5.0030903816223145,0.1777435541152954,-0.0,-0.0,-1.0,0.04219430610599089,1.0,1
16.97307014465332,-4.578377723693848,0.07865989208221436,-0.0,-0.0,-1.0,0.02523081719788562,1.0,1
16.940006256103516,-4.892750263214111,0.07577192783355713,0.09787692317158986,0.18893160254395175,-0.977100280150731,0.031987855137515064,4.0,1
17.00363540649414,-5.260590076446533,0.08933591842651367,0.19294994254958187,-0.2801430794200994,-0.9403670425547339,0.08262184206254912,3.0,1
17.11896514892578,-5.76215934753418,0.10770249366760254,-0.0,-0.0,-1.0,0.05308131307172914,1.0,1
17.138465881347656,-6.084486484527588,0.10552310943603516,-0.0,-0.0,-1.0,0.0853970735657182,1.0,1
17.172067642211914,-6.505533695220947,0.10005331039428711,-0.0,-0.0,-1.0,0.14466548432101956,1.0,1
17.258811950683594,-6.708188533782959,0.1095200777053833,-0.0,-0.0,-1.0,0.2043318603020245,2.0,1
17.051788330078125,-4.365862846374512,0.0901181697845459,-0.0,-0.0,-1.0,0.015811980281911775,1.0,1
17.1810302734375,-5.593777179718018,0.12215626239776611,-0.293662127095245,-0.7422651029560219,-0.6023330242013822,0.11776511835364306,5.0,1
17.281028747558594,-6.2396464347839355,0.12942802906036377,-0.593866328045992,0.8029997640238146,-0.050141433873273356,0.07588985175810152,4.0,1
15.426081657409668,-5.161876678466797,0.5393874645233154,-0.0,-0.0,-1.0,0.1454457638207807,1.0,1
15.614853858947754,-5.127058982849121,0.3798983097076416,-0.47581769585277967,0.6088340035560995,-0.6347587545100922,0.21567462332047463,3.0,1
15.834428787231445,-5.47430419921875,0.589975118637085,-0.0,-0.0,-1.0,0.17684233077602013,1.0,1
15.879570960998535,-5.895031929016113,0.5928460359573364,-0.0,-0.0,-1.0,0.1683910838400675,2.0,1
15.838861465454102,-6.269042015075684,0.3998175859451294,-0.0,-0.0,-1.0,0.20625040445255297,2.0,1
15.934976577758789,-6.6620192527771,0.22397518157958984,-0.0,-0.0,-1.0,0.13479321784514062,2.0,1
16.195999145507812,-4.6165666580200195,0.2815808057785034,-0.8883407126278434,0.28320604646550507,0.36144863194267784,0.10278464507503256,4.0,1
16.134193420410156,-4.991403579711914,0.27485454082489014,-0.0,-0.0,-1.0,0.1357504365445905,1.0,1
16.255979537963867,-5.592390537261963,0.2935565710067749,-0.0,-0.0,-1.0,0.10272658005213546,1.0,1
16.20349884033203,-5.801900386810303,0.28309452533721924,-0.1414047531947854,-0.95540416616587,-0.2592442382133511,0.0774521141482268,3.0,1
16.231746673583984,-6.084007740020752,0.28375208377838135,-0.0,-0.0,-1.0,0.13139769524492806,2.0,1
16.440383911132812,-6.789949893951416,0.29971885681152344,-0.0,-0.0,-1.0,0.11557884477208001,2.0,1
16.23590850830078,-4.75441837310791,0.2894326448440552,0.18009655445026393,0.9811657902748944,0.06984928825252942,0.18022544567754661,4.0,1
16.613115310668945,-5.382296562194824,0.35150325298309326,-0.7905502177316099,0.4232776965188665,-0.4425678986033516,0.1514534038970115,5.0,1
16.872974395751953,-5.817156791687012,0.3895474672317505,-0.0,-0.0,-1.0,0.15777261649006394,2.0,1
17.033008575439453,-6.051881790161133,0.4114030599594116,-0.8418893750660428,-0.27407624475846076,-0.46487040367182786,0.19183849878172488,8.0,1
17.09854507446289,-6.514342308044434,0.4111548662185669,-0.0,-0.0,-1.0,0.07208570105899971,1.0,1
17.383085250854492,-6.545928001403809,0.2984652519226074,-0.0,-0.0,-1.0,0.07820219099824678,1.0,1
17.372970581054688,-6.717442989349365,0.44796764850616455,0.8258371299960178,-0.1760434585295237,-0.5357254291415559,0.18203560628059742,6.0,1
15.445205688476562,-5.22952127456665,0.9153341054916382,-0.0,-0.0,-1.0,0.11602558306674236,2.0,1
15.226266860961914,-5.569052696228027,0.8956711292266846,-0.0,-0.0,-1.0,0.12401219783175277,2.0,1
15.546821594238281,-5.8815789222717285,0.9226464033126831,-0.8263117080481609,-0.5348098306318243,0.17659956455804168,0.10310496943484677,4.0,1
16.157089233398438,-4.766646862030029,0.6283402442932129,-0.2530199031579764,-0.9674595265732658,0.001730042936073446,0.1298983187840742,5.0,1
16.133411407470703,-5.050878524780273,0.9760251045227051,-0.0,-0.0,-1.0,0.15403463401900236,2.0,1
16.14487075805664,-5.953230857849121,0.8001216650009155,-0.0,-0.0,-1.0,0.1293782318714848,1.0,1
16.299102783203125,-6.706657409667969,0.9789829254150391,-0.7254871492554263,-0.041843937606676866,-0.6869625034532837,0.06562949020137267,4.0,1
16.459007263183594,-6.81853723526001,0.6478019952774048,0.012482987319722994,-0.3577246598285229,-0.9337436708102191,0.060916207716664596,8.0,1
15.495843887329102,-4.370680809020996,0.171439528465271,-0.0,-0.0,-1.0,0.1110110299481303,2.0,1
15.503307342529297,-4.8040361404418945,0.18583929538726807,-0.0,-0.0,-1.0,0.08804311361318212,2.0,1
15.584392547607422,-5.11042594909668,0.20560526847839355,0.7183768892188432,-0.6834075684166042,-0.12995668688898748,0.07302065211811283,5.0,1
15.689845085144043,-5.69868278503418,0.23125267028808594,-0.0,-0.0,-1.0,0.14160189269217358,1.0,1
15.65101432800293,-6.3727216720581055,0.2281816005706787,-0.0,-0.0,-1.0,0.12298268051156716,2.0,1
15.793106079101562,-4.986455917358398,0.23485469818115234,-0.0,-0.0,-1.0,0.0963806759277705,1.0,1
15.773205757141113,-5.62135648727417,0.24323034286499023,-0.0,-0.0,-1.0,0.2003598332380318,2.0,1
15.748812675476074,-6.425229549407959,0.24306392669677734,-0.0,-0.0,-1.0,0.09185789682146636,2.0,1
16.864362716674805,-6.718866348266602,0.07902669906616211,-0.0,-0.0,-1.0,0.07114981137013432,1.0,1
17.136329650878906,-4.40473747253418,0.0899655818939209,-0.0,-0.0,-1.0,0.016725415213949102,1.0,1
16.993186950683594,-4.791293144226074,0.07926392555236816,-0.0,-0.0,-1.0,0.029751194963124162,2.0,1
17.034751892089844,-5.28183650970459,0.1020500659942627,-0.14902667828094754,-0.7695037040273878,-0.621011351465235,0.09277948197909695,4.0,1
17.13819694519043,-5.583509922027588,0.12799835205078125,-0.4050324114490202,0.2917286810053004,-0.866512043975558,0.15663224348901658,7.0,1
17.123687744140625,-5.989717483520508,0.1300562620162964,-0.0,-0.0,-1.0,0.11012457829318259,2.0,1
17.131532669067383,-6.387667655944824,0.13225173950195312,-0.9382345285935598,0.13560848793671682,-0.3183179343900341,0.1524226322248097,4.0,1
17.00916862487793,-6.773707866668701,0.10574066638946533,-0.0,-0.0,-1.0,0.1011942418562782,2.0,1
15.265827178955078,-4.766469955444336,0.5395324230194092,-0.13280617232653605,-0.35087113430606043,-0.9269584498254237,0.1762964342676144,3.0,1
15.364032745361328,-4.816231727600098,0.5520914793014526,-0.0,-0.0,-1.0,0.14160751967167892,2.0,1
15.479233741760254,-5.142848968505859,0.5719356536865234,-0.0,-0.0,-1.0,0.17670786674102315,1.0,1
15.632401466369629,-5.511297702789307,0.5954813957214355,-0.0,-0.0,-1.0,0.22677413356388812,2.0,1
15.676002502441406,-5.9485015869140625,0.6043288707733154,-0.0,-0.0,-1.0,0.1704231783296798,2.0,1
15.914216041564941,-5.388598918914795,0.6273869276046753,0.5881168441948409,0.25161345255636025,-0.7686411699011245,0.11116641687308547,3.0,1
15.829526901245117,-6.0331220626831055,0.4407995939254761,-0.0,-0.0,-1.0,0.19411929768923028,1.0,1
15.848950386047363,-6.399822235107422,0.25840258598327637,-0.0,-0.0,-1.0,0.17048591049032577,2.0,1
15.993244171142578,-6.730445861816406,0.27920103073120117,0.542216897184598,-0.46628725106806573,-0.6989828580865867,0.14789943734608813,4.0,1
16.199432373046875,-4.839962005615234,0.29313433170318604,-0.7300058868880723,0.6029634723045962,-0.3217552737332253,0.20261177381365464,4.0,1
16.295011520385742,-5.602572917938232,0.3234689235687256,-0.0,-0.0,-1.0,0.13181973928322588,2.0,1
16.336271286010742,-5.9357380867004395,0.3332083225250244,0.20751405115776364,-0.6661744994516058,0.7163445084960839,0.11758837518543586,3.0,1
16.597408294677734,-5.331005573272705,0.36584043502807617,-0.6526716595823219,0.5170686667680836,-0.5537686327562569,0.12901845250867244,6.0,1
16.601219177246094,-5.481060028076172,0.3690183162689209,-0.5375608050255234,-0.8268968208551574,-0.16513639380810394,0.12277366267322298,3.0,1
16.8677978515625,-5.835915565490723,0.4146401882171631,-0.0,-0.0,-1.0,0.16907045872872983,2.0,1
16.53583526611328,-6.836101531982422,0.3619343042373657,-0.25186254013916376,0.9574119654144401,-0.1411651138061627,0.10299628915421344,8.0,1
17.02545738220215,-6.06427526473999,0.4405343532562256,-0.58236036453745,-0.7669405159218059,0.2695526866002315,0.2043337330477144,7.0,1
17.206745147705078,-6.575833320617676,0.46794748306274414,-0.0,-0.0,-1.0,0.0985564896338527,1.0,1
17.481159210205078,-6.803891181945801,0.3532376289367676,-0.0,-0.0,-1.0,0.15818720966938704,1.0,1
15.25210189819336,-5.597060203552246,0.9366955757141113,-0.0,-0.0,-1.0,0.0775007284731832,2.0,1
15.482498168945312,-5.236515998840332,0.9522897005081177,-0.33651081069872596,-0.9246979038311641,-0.17802882051268365,0.12526881203012136,3.0,1
15.555262565612793,-5.869045257568359,0.9638814330101013,-0.21013579873906824,-0.7930732560441028,0.5717322420818143,0.09942268714726492,4.0,1
16.094987869262695,-5.083517551422119,1.0012258291244507,-0.0,-0.0,-1.0,0.18734587295676722,2.0,2
16.023910522460938,-6.027549743652344,0.6461353302001953,-0.0,-0.0,-1.0,0.11504661439075413,1.0,1
16.20367431640625,-4.769781589508057,0.6499700546264648,-0.7104340163293997,-0.33620033298707985,-0.6182659982090682,0.17283453894265502,4.0,1
16.15887451171875,-5.95620584487915,1.0149009227752686,-0.0,-0.0,-1.0,0.15855305635369807,1.0,2
16.24423599243164,-6.712466239929199,1.0217605829238892,-0.0,-0.0,-1.0,0.09780014842608738,2.0,2
15.865716934204102,-4.540029525756836,0.11584651470184326,-0.0,-0.0,-1.0,0.06331943452157095,2.0,1
15.999134063720703,-4.40814733505249,0.1300523281097412,-0.0,-0.0,-1.0,0.09266723590729763,1.0,1
17.490501403808594,-4.516657829284668,0.0434262752532959,-0.0,-0.0,-1.0,0.05183549105447908,1.0,1
17.297338485717773,-4.950462341308594,0.034367918968200684,0.3695068284247737,0.1858624811889674,-0.9104503511085849,0.05295271700432354,3.0,1
17.27654266357422,-5.361373424530029,0.052402496337890625,-0.0,-0.0,-1.0,0.07248414911956977,2.0,1
17.298255920410156,-5.774247646331787,0.07461953163146973,-0.0,-0.0,-1.0,0.034091443005676215,2.0,1
17.246620178222656,-6.039699554443359,0.07381093502044678,-0.0,-0.0,-1.0,0.07475004759903242,1.0,1
17.173343658447266,-6.384454250335693,0.06853914260864258,-0.0,-0.0,-1.0,0.100919528385412,2.0,1
17.308490753173828,-5.925443649291992,0.08226573467254639,-0.0,-0.0,-1.0,0.04975327834948631,1.0,1
17.282943725585938,-6.2068939208984375,0.08575713634490967,-0.0,-0.0,-1.0,0.06415254090420407,1.0,1
17.270631790161133,-6.4780144691467285,0.08985435962677002,-0.0,-0.0,-1.0,0.06843128987354623,1.0,1
15.279523849487305,-4.730246067047119,0.4267212152481079,-0.0,-0.0,-1.0,0.18730042912668374,2.0,1
15.672479629516602,-5.233949661254883,0.4921044111251831,0.42675615457038824,-0.848448802060531,0.3130715809816418,0.2181397344694497,3.0,1
15.496814727783203,-5.3994035720825195,0.4746302366256714,-0.0,-0.0,-1.0,0.19700685514858665,1.0,1
15.391586303710938,-5.634413719177246,0.46730053424835205,-0.0,-0.0,-1.0,0.192683058016205,1.0,1
16.094032287597656,-4.765665531158447,0.34597182273864746,0.02905150213947971,0.9381196031578811,-0.34509074226113257,0.13093988686484712,3.0,1
16.119178771972656,-5.0056610107421875,0.3594409227371216,0.14821038330725658,-0.9135542749397962,-0.37875093269738463,0.14081341919363752,3.0,1
15.887332916259766,-5.53063440322876,0.5273257493972778,-0.0,-0.0,-1.0,0.148089734385412,1.0,1
15.841398239135742,-6.686742782592773,0.176843523979187,-0.0,-0.0,-1.0,0.14010379426955033,1.0,1
16.275909423828125,-5.148695945739746,0.20825457572937012,-0.0,-0.0,-1.0,0.045766641796960245,2.0,1
16.45146942138672,-5.770069122314453,0.2581307888031006,-0.0,-0.0,-1.0,0.05632798979438171,2.0,1
16.408424377441406,-6.013415336608887,0.25756728649139404,-0.0,-0.0,-1.0,0.07236210956120993,2.0,1
16.215478897094727,-6.358230113983154,0.23332667350769043,-0.0,-0.0,-1.0,0.0926728597074995,1.0,1
16.093997955322266,-6.718544960021973,0.21829092502593994,-0.0,-0.0,-1.0,0.12009724203461689,2.0,1
16.722152709960938,-5.364419937133789,0.28797757625579834,-0.0,-0.0,-1.0,0.06487476251948465,2.0,1
16.723201751708984,-5.602053165435791,0.2966052293777466,-0.0,-0.0,-1.0,0.060188620642974366,2.0,1
16.646610260009766,-5.982957363128662,0.2954968214035034,-0.0,-0.0,-1.0,0.11355009478680554,2.0,1
16.506017684936523,-6.841228485107422,0.2870548963546753,-0.3467203959769164,0.9379412564395757,-0.007153075014321812,0.10093722102973116,6.0,1
17.040618896484375,-6.084885120391846,0.3620191812515259,-0.0,-0.0,-1.0,0.165942748196075,2.0,1
17.162769317626953,-6.566277980804443,0.3913825750350952,-0.0,-0.0,-1.0,0.11336736503408454,1.0,1
17.232284545898438,-6.693540573120117,0.4044382572174072,-0.0,-0.0,-1.0,0.10242761185955467,1.0,1
17.434051513671875,-6.855912208557129,0.43913018703460693,-0.0,-0.0,-1.0,0.1463440141838089,1.0,1
15.332060813903809,-4.736617565155029,0.8226455450057983,-0.0,-0.0,-1.0,0.10512561440315792,1.0,1
15.627352714538574,-4.366117477416992,0.8379640579223633,-0.0,-0.0,-1.0,0.1445582214858839,1.0,1
16.04513931274414,-5.9815239906311035,0.557451605796814,-0.32855726571192767,0.9440661357709267,-0.028093672569667286,0.18454178247265537,4.0,1
16.498947143554688,-5.175148010253906,0.5935021638870239,-0.9273495249869622,0.3571919877295924,0.11152014350886504,0.09604818051789976,3.0,1
16.097442626953125,-6.023420333862305,0.5649323463439941,-0.0,-0.0,-1.0,0.12440345974483627,2.0,1
16.30547332763672,-6.860370635986328,0.946251630783081,-0.0,-0.0,-1.0,0.05228546697899817,1.0,1
17.00186538696289,-5.946340560913086,1.001065969467163,0.1238000890531305,0.6038745101166247,-0.7874065747641702,0.16228514416168263,4.0,2
15.67269229888916,-4.507854461669922,0.3075864315032959,-0.0,-0.0,-1.0,0.12119620801507376,1.0,1
15.631058692932129,-5.210261821746826,0.3339790105819702,0.3556267792194635,-0.9123759135684218,-0.20273082213165985,0.22804013830043116,3.0,1
15.536670684814453,-5.507917404174805,0.33189189434051514,-0.0,-0.0,-1.0,0.21674880326323367,1.0,1
15.386602401733398,-6.164734840393066,0.32950127124786377,-0.0,-0.0,-1.0,0.08500703644828397,1.0,1
15.843324661254883,-5.368149757385254,0.3692547082901001,0.23865684809191448,0.317271333428792,-0.9178136029952645,0.16742061637355565,5.0,1
15.552343368530273,-6.03291130065918,0.34976041316986084,-0.0,-0.0,-1.0,0.15472397476286248,2.0,1
15.500516891479492,-6.298528671264648,0.34846270084381104,-0.0,-0.0,-1.0,0.17194248961213085,2.0,1
16.53913688659668,-4.511231422424316,0.06383836269378662,-0.0,-0.0,-1.0,0.06172396104015761,1.0,1
16.568248748779297,-4.844908714294434,0.09117317199707031,0.3541827491903121,-0.772506090242172,-0.5270568477069115,0.04889737839818963,4.0,1
16.886550903320312,-4.788159370422363,0.1402963399887085,0.3497567540302006,-0.44728872676217185,-0.8231664521357348,0.04130626531321539,3.0,1
16.7606143951416,-5.126613616943359,0.140724778175354,-0.5235806060973028,0.3626321210477557,-0.7709483080616926,0.13083817417699525,5.0,1
16.841049194335938,-5.410717964172363,0.17042434215545654,-0.0,-0.0,-1.0,0.20908303045559287,1.0,1
16.7648983001709,-5.9732770919799805,0.1837623119354248,-0.0,-0.0,-1.0,0.1931975086076993,2.0,1
16.590158462524414,-6.269261360168457,0.16402173042297363,-0.0,-0.0,-1.0,0.030373496986216632,1.0,1
16.407882690429688,-6.5782294273376465,0.1406029462814331,-0.0,-0.0,-1.0,0.09735314815481678,2.0,1
16.969192504882812,-5.633114337921143,0.2038174867630005,-0.0,-0.0,-1.0,0.13163577119991826,1.0,1
16.88288116455078,-5.872689247131348,0.19997751712799072,-0.0,-0.0,-1.0,0.1773185546513575,1.0,1
16.852075576782227,-6.178449630737305,0.206925630569458,-0.0,-0.0,-1.0,0.14127846374868952,2.0,1
17.67137908935547,-5.464537620544434,0.002011895179748535,-0.0,-0.0,-1.0,0.03403651079981484,1.0,1
17.661739349365234,-5.677215576171875,0.01446378231048584,-0.0,-0.0,-1.0,0.04026061499557473,1.0,1
17.19464874267578,-6.54799747467041,0.27921438217163086,-0.0,-0.0,-1.0,0.0881515393060723,2.0,1
17.68366241455078,-6.156895637512207,0.04656112194061279,-0.0,-0.0,-1.0,0.09904914748997648,1.0,1
17.70773696899414,-6.4419708251953125,0.0651172399520874,-0.0,-0.0,-1.0,0.08259437801804131,1.0,1
15.224597930908203,-4.744507789611816,0.6543333530426025,-0.0,-0.0,-1.0,0.12006573007092325,1.0,1
15.608616828918457,-5.1308746337890625,0.7060009241104126,-0.0730586944413694,-0.42410877595342744,-0.9026595002135679,0.26310891832623445,5.0,1
15.421853065490723,-5.280627250671387,0.6910969018936157,-0.0,-0.0,-1.0,0.149513689216758,2.0,1
15.497028350830078,-5.944785118103027,0.71439528465271,0.29213149654487747,0.9562730918181593,-0.014176127503260246,0.20117407148607738,3.0,1
15.313252449035645,-6.578969478607178,0.7035491466522217,-0.0,-0.0,-1.0,0.12782669077288064,1.0,1
16.135414123535156,-4.947809219360352,0.5721724033355713,-0.4778051286392076,0.827672623912888,0.29438119279469266,0.0794940240260927,7.0,1
15.861995697021484,-5.260827541351318,0.5530428886413574,-0.0,-0.0,-1.0,0.08451151835738063,1.0,1
15.887551307678223,-5.4535932540893555,0.5612888336181641,-0.3566206902493388,0.30518664381833294,-0.8829964868112368,0.13841190290525776,3.0,1
15.771918296813965,-6.31125020980835,0.5675686597824097,-0.0,-0.0,-1.0,0.1836148418947376,1.0,1
16.444839477539062,-4.760764122009277,0.42330944538116455,-0.0,-0.0,-1.0,0.19082152411416053,1.0,1
16.069026947021484,-6.0484619140625,0.42271220684051514,-0.9972361524479352,0.045257880209849624,-0.05892181709476591,0.18515211911297588,5.0,1
15.778508186340332,-6.856554985046387,0.5782954692840576,-0.0,-0.0,-1.0,0.06848772691126549,1.0,1
16.908004760742188,-5.8447265625,0.5335112810134888,-0.0,-0.0,-1.0,0.13080911345616714,1.0,1
16.758277893066406,-6.100780963897705,0.520865797996521,-0.319753844145962,0.3388104809239847,-0.8848530596488539,0.1019666090414056,3.0,1
16.502025604248047,-6.837284564971924,0.5002130270004272,-0.0,-0.0,-1.0,0.08667639689019063,2.0,1
15.395411491394043,-5.152022361755371,1.067145586013794,0.06896959672584485,-0.019005509421376184,-0.9974377100045436,0.12018936356999557,3.0,2
15.432519912719727,-5.125842571258545,1.0692126750946045,-0.5272241866553491,0.7826530198841414,-0.33089108097958714,0.11039842392607203,4.0,2
15.411362648010254,-5.1961517333984375,1.069089412689209,-0.6980281798976,-0.28131738025025393,-0.6584961591672178,0.12018936356999561,3.0,2
15.539877891540527,-5.877638816833496,1.0885775089263916,0.4890072968294721,-0.8190823281285129,0.2999600029922458,0.07957265852196255,3.0,2
17.64196014404297,-5.2853827476501465,-0.0011175870895385742,-0.0,-0.0,-1.0,0.04096153494750221,1.0,0
17.51772689819336,-5.5605902671813965,0.0025594234466552734,-0.0,-0.0,-1.0,0.03484390197432781,1.0,1
17.351459503173828,-6.046076774597168,0.013866782188415527,-0.0,-0.0,-1.0,0.055298221627563024,1.0,1
15.405187606811523,-4.405885219573975,0.29693448543548584,-0.0,-0.0,-1.0,0.2140054990116838,1.0,1
15.471330642700195,-5.382701396942139,0.3638213872909546,0.536608943307826,-0.12185523972027487,-0.8349863127709176,0.18685324067088935,3.0,1
16.39270782470703,-4.593611717224121,0.24811196327209473,-0.0,-0.0,-1.0,0.19035570078189398,1.0,1
16.243955612182617,-4.754347324371338,0.24176204204559326,-0.4762603075451863,0.8701471212904497,0.126570560427406,0.23490794186402844,5.0,1
15.587798118591309,-5.937491416931152,0.40703892707824707,-0.0,-0.0,-1.0,0.1831835770015316,1.0,1
15.570343017578125,-6.507146835327148,0.4293835163116455,-0.0,-0.0,-1.0,0.11962907688713628,1.0,1
16.753231048583984,-4.667699337005615,0.12720394134521484,-0.0,-0.0,-1.0,0.011803870565682203,2.0,1
16.610246658325195,-5.023167133331299,0.13517796993255615,-0.0,-0.0,-1.0,0.038149552435788485,1.0,1
15.79858112335205,-6.128562927246094,0.4434555768966675,-0.0,-0.0,-1.0,0.12456088480106535,1.0,1
16.75778579711914,-5.2877960205078125,0.1791400909423828,-0.0,-0.0,-1.0,0.088154369583148,2.0,1
16.858797073364258,-5.637170314788818,0.22122490406036377,-0.0,-0.0,-1.0,0.09886444897652728,1.0,1
16.58930206298828,-5.9636125564575195,0.20025181770324707,-0.0,-0.0,-1.0,0.05720620517394585,1.0,1
16.458324432373047,-6.292149543762207,0.19906270503997803,-0.015440467815536632,0.026255131443187217,-0.9995360223756513,0.027445378927598414,3.0,1
16.19864273071289,-6.550595283508301,0.17027318477630615,-0.0,-0.0,-1.0,0.12476179109139802,1.0,1
16.886138916015625,-6.053449630737305,0.25430893898010254,-0.0,-0.0,-1.0,0.272527178936669,2.0,1
16.503089904785156,-6.809479713439941,0.23404264450073242,-0.45213561982126005,0.6349562667353055,0.6264215199228143,0.09743938212295701,8.0,1
17.580204010009766,-5.59689998626709,0.017705082893371582,-0.0,-0.0,-1.0,0.03476230430816007,1.0,1
17.484317779541016,-5.964993476867676,0.03264176845550537,-0.0,-0.0,-1.0,0.05400944821550002,1.0,1
17.438209533691406,-6.209484577178955,0.043955326080322266,-0.0,-0.0,-1.0,0.045276508006240196,2.0,1
17.680925369262695,-5.92919397354126,0.06745707988739014,-0.0,-0.0,-1.0,0.03337674189873835,2.0,1
17.507553100585938,-6.285341262817383,0.06347799301147461,-0.0,-0.0,-1.0,0.15817122142061127,1.0,1
17.40654945373535,-6.804684638977051,0.38440752029418945,-0.01054371542992615,0.34811907959655786,-0.9373910264589577,0.14634401418380888,3.0,1
15.397668838500977,-4.79106330871582,0.709881067276001,-0.0,-0.0,-1.0,0.10415899887977662,1.0,1
15.774986267089844,-5.122619152069092,0.7601087093353271,-0.0,-0.0,-1.0,0.12628339652984677,1.0,1
16.092824935913086,-4.949844837188721,0.7815635204315186,-0.0,-0.0,-1.0,0.16212105981644806,2.0,1
15.95711612701416,-5.736979961395264,0.8031668663024902,-0.0,-0.0,-1.0,0.15875073155799713,1.0,1
15.488996505737305,-5.873257637023926,0.7632695436477661,-0.0,-0.0,-1.0,0.08089003358587897,2.0,1
15.253890037536621,-6.525449752807617,0.7612248659133911,-0.0,-0.0,-1.0,0.19054045110218476,1.0,1
16.40154457092285,-5.1738691329956055,0.4692903757095337,-0.0,-0.0,-1.0,0.0978138631858929,1.0,1
16.13283920288086,-5.935631275177002,0.4777606725692749,-0.6217107165847539,-0.5521007261279758,0.5555722933090113,0.17589030781005102,6.0,1
15.947991371154785,-6.047637462615967,0.6369831562042236,-0.6478265135894302,-0.01601794354976928,-0.7616194809581752,0.09648160100735083,3.0,1
15.66807746887207,-6.811524391174316,0.6328469514846802,-0.0,-0.0,-1.0,0.23416278893905892,1.0,1
16.57136344909668,-6.025899887084961,0.53898024559021,-0.0,-0.0,-1.0,0.11769320389192287,1.0,1
16.40839385986328,-6.812938690185547,0.5526876449584961,-0.7606523691144653,0.5409524473134272,-0.3588571068073827,0.1008338176326931,3.0,1
15.449929237365723,-5.774949073791504,1.1278117895126343,-0.6391664182128826,-0.520574266840004,-0.5660995694512643,0.06661072076033478,3.0,2
16.277217864990234,-6.841238498687744,0.8716097474098206,-0.0,-0.0,-1.0,0.04971255984964376,1.0,1
16.94519805908203,-5.939964294433594,0.9054135084152222,-0.0,-0.0,-1.0,0.11012385682364441,1.0,1
15.272058486938477,-4.707273006439209,0.20637226104736328,-0.0,-0.0,-1.0,0.20142129683534424,2.0,1
15.565448760986328,-5.4079413414001465,0.2939603328704834,-0.0,-0.0,-1.0,0.247133601435747,1.0,1
16.22882843017578,-4.57621431350708,0.3163517713546753,-0.0,-0.0,-1.0,0.10567117849071242,2.0,1
16.2094669342041,-4.716744899749756,0.3255486488342285,-0.8848734983880625,0.4499190636034727,-0.12071341291110045,0.11610616599619722,4.0,1
15.462116241455078,-6.033760070800781,0.31860148906707764,-0.0,-0.0,-1.0,0.16638785721471896,2.0,1
15.40536880493164,-6.086908340454102,0.31372928619384766,-0.0,-0.0,-1.0,0.06852286940081098,1.0,1
16.999616622924805,-4.669313907623291,0.06813657283782959,-0.0,-0.0,-1.0,0.041448916310165104,1.0,1
17.15011978149414,-4.5637664794921875,0.07831037044525146,-0.0,-0.0,-1.0,0.021353873953389384,2.0,1
16.954647064208984,-4.8675737380981445,0.08274400234222412,0.09787692317158986,0.18893160254395175,-0.977100280150731,0.029575064269042273,4.0,1
16.940027236938477,-5.232319355010986,0.11793982982635498,-0.6745034319684102,-0.2737539650098469,-0.6856412231657485,0.09850407096124575,3.0,1
16.516990661621094,-6.2723917961120605,0.14190971851348877,-0.0,-0.0,-1.0,0.027274103369131962,1.0,1
17.10895538330078,-5.57218599319458,0.17770671844482422,0.4185387095644402,0.3313184898619404,-0.8456083058199798,0.1897265832434315,4.0,1
17.009559631347656,-5.804667949676514,0.18352246284484863,-0.0,-0.0,-1.0,0.07123046097407715,2.0,1
16.772171020507812,-6.12253475189209,0.17236828804016113,-0.0,-0.0,-1.0,0.10833127635537869,1.0,1
16.517372131347656,-6.3965373039245605,0.15105628967285156,-0.0,-0.0,-1.0,0.04838756654562688,1.0,1
15.348892211914062,-4.673615455627441,0.6087501049041748,0.5076633249993635,-0.8424739637137872,-0.18032073900406234,0.12831821634671992,3.0,1
15.778711318969727,-5.183000564575195,0.6792086362838745,-0.0,-0.0,-1.0,0.12165029149540775,1.0,1
15.530473709106445,-5.420285701751709,0.6665793657302856,-0.0,-0.0,-1.0,0.18327555980461865,1.0,1
16.358694076538086,-4.705934047698975,0.3430856466293335,-0.0,-0.0,-1.0,0.20335102553633932,2.0,1
16.177907943725586,-4.804775714874268,0.5131795406341553,-0.7794028443362965,0.6205675751443067,-0.08618057159247694,0.12652825799635287,4.0,1
15.900473594665527,-5.39905309677124,0.3376119136810303,0.27271093541589736,-0.9111471602755795,-0.30893299925118756,0.14782734462609998,5.0,1
15.544254302978516,-5.923868656158447,0.5085973739624023,-0.8193444298960252,0.5152377389860042,-0.2514056036029183,0.19063280044722938,6.0,1
16.502378463745117,-5.249472618103027,0.4044215679168701,-0.637009348741383,0.7688717134001783,-0.055275473305548786,0.23418715136330015,5.0,1
16.520767211914062,-5.3182830810546875,0.4120028018951416,-0.5233396382587462,-0.6146557187259739,-0.5901813030456499,0.1960535801548072,4.0,1
16.125240325927734,-5.855740547180176,0.3979489803314209,0.8191589087893658,-0.5133200046629132,-0.25589305376247096,0.2388250426650728,4.0,1
16.021747589111328,-6.06831693649292,0.39710819721221924,0.06598507070760047,-0.9275402053507283,0.367852059803451,0.23306772306674056,3.0,1
15.740717887878418,-6.446372985839844,0.37957561016082764,-0.0,-0.0,-1.0,0.23078395219720413,1.0,1
16.026805877685547,-6.8026227951049805,0.43761420249938965,-0.3678991459021943,-0.9122737522508821,0.18001894177705818,0.11290622906425846,8.0,1
17.03366470336914,-5.882267951965332,0.5196188688278198,-0.0,-0.0,-1.0,0.11923274479555755,2.0,1
15.432836532592773,-5.157615661621094,1.0242407321929932,-0.9526957380066473,-0.12145160651087399,-0.27860426784221654,0.11039842392607206,4.0,2
15.842117309570312,-6.1310625076293945,0.7316141128540039,0.6371373575152248,-0.7694658540880628,-0.04447793892532361,0.07387189792707813,4.0,1
