x,y,z,nx,ny,nz,curvature,density,label
53.53809356689453,10.463946342468262,-1.8909859657287598,-0.0,-0.0,-1.0,0.08204488372191812,1.0,0
54.07073211669922,9.112930297851562,-1.920384407043457,-0.0,-0.0,-1.0,0.041804789601783694,1.0,0
53.198883056640625,8.830079078674316,-1.4820127487182617,-0.0,-0.0,-1.0,0.16064380347908494,2.0,0
53.25932312011719,8.946511268615723,-1.4937028884887695,0.7509081558601183,0.18147386210784186,-0.6349836051697875,0.20497000196146273,3.0,0
53.31195831298828,8.836246490478516,-1.4734561443328857,-0.0,-0.0,-1.0,0.17530952792669235,2.0,0
55.10599136352539,10.322372436523438,-1.7559254169464111,-0.0,-0.0,-1.0,0.05618834061178266,1.0,0
53.21742248535156,9.807456970214844,-1.3686809539794922,-0.0,-0.0,-1.0,0.0871227397894595,1.0,0
53.461971282958984,8.785497665405273,-1.9489531517028809,-0.0,-0.0,-1.0,0.12420125844467965,1.0,0
53.70014190673828,8.908477783203125,-1.989306926727295,-0.0,-0.0,-1.0,0.033001870466946824,1.0,0
53.70506286621094,9.138431549072266,-1.9999113082885742,-0.0,-0.0,-1.0,0.01600986361488688,1.0,0
53.64051055908203,9.508377075195312,-2.0065865516662598,-0.0,-0.0,-1.0,0.08336287666459377,2.0,0
53.02546691894531,8.431548118591309,-1.8701515197753906,-0.0,-0.0,-1.0,0.0710367058529844,1.0,0
53.56235122680664,9.69748592376709,-2.0034847259521484,-0.0,-0.0,-1.0,0.016587422863792698,1.0,0
53.557281494140625,9.98508358001709,-2.0158891677856445,-0.0,-0.0,-1.0,0.1473875424597551,1.0,0
52.81414031982422,10.543023109436035,-1.931516170501709,-0.0,-0.0,-1.0,0.01930048849818538,2.0,0
53.29542541503906,10.269899368286133,-1.9902167320251465,-0.0,-0.0,-1.0,0.009478955086443194,1.0,0
54.89252471923828,8.45034122467041,-1.9877994060516357,-0.0,-0.0,-1.0,0.015108763483779163,2.0,0
53.27809524536133,8.843194961547852,-1.750523328781128,-0.0,-0.0,-1.0,0.17352296217497404,1.0,0
54.19062805175781,8.699287414550781,-1.8870584964752197,0.6711702625713423,-0.22422051345433236,-0.7065802431332135,0.1472816287348005,3.0,0
54.90480422973633,8.783493995666504,-2.000284433364868,-0.0,-0.0,-1.0,0.013218749124635675,1.0,0
54.12374496459961,9.364570617675781,-1.8984816074371338,-0.0,-0.0,-1.0,0.11654990253458979,2.0,0
54.677879333496094,9.340593338012695,-1.9837305545806885,-0.0,-0.0,-1.0,0.04460788693560561,1.0,0
54.51105499267578,9.598552703857422,-1.9667689800262451,-0.0,-0.0,-1.0,0.06313623458713885,2.0,0
53.613033294677734,10.02743148803711,-1.8422181606292725,-0.0,-0.0,-1.0,0.23460182875070792,1.0,0
54.520748138427734,10.086591720581055,-1.9858863353729248,-0.0,-0.0,-1.0,0.028845943403883093,2.0,0
54.495967864990234,10.410791397094727,-1.994189977645874,-0.0,-0.0,-1.0,0.025716117778050416,1.0,0
54.67456817626953,8.185789108276367,-1.941054105758667,-0.0,-0.0,-1.0,0.1136156220020005,1.0,0
54.72386932373047,8.28001594543457,-1.9515702724456787,-0.0,-0.0,-1.0,0.02082359687817947,2.0,0
54.86604690551758,8.347611427307129,-1.9761207103729248,-0.0,-0.0,-1.0,0.01771193869375055,1.0,0
54.27156066894531,8.732210159301758,-1.8929154872894287,-0.0,-0.0,-1.0,0.13959146725878577,1.0,0
54.908409118652344,8.662012100219727,-1.9922230243682861,-0.0,-0.0,-1.0,0.011620734566734143,2.0,0
54.478607177734375,9.419234275817871,-1.9475610256195068,-0.0,-0.0,-1.0,0.043414467680660714,2.0,0
54.43733215332031,9.640560150146484,-1.9483435153961182,-0.0,-0.0,-1.0,0.06139277643001227,1.0,0
53.23573684692383,8.920561790466309,-1.7336747646331787,0.1966759703293356,-0.8128563128200437,-0.5482546647349361,0.11107071413860115,4.0,0
54.11891174316406,9.24918270111084,-1.8846056461334229,-0.0,-0.0,-1.0,0.05156223109742603,1.0,0
54.386505126953125,10.071759223937988,-1.9551079273223877,-0.0,-0.0,-1.0,0.01306868881049506,1.0,0
54.488887786865234,10.04835319519043,-1.9707000255584717,-0.0,-0.0,-1.0,0.07274621396117752,2.0,0
53.911495208740234,10.591886520385742,-1.8975675106048584,-0.512946971304905,0.7387197191125026,-0.43723972969467245,0.052962251890178114,3.0,0
54.33927917480469,10.343154907226562,-1.9572570323944092,-0.0,-0.0,-1.0,0.012789770639453834,1.0,0
53.17826843261719,8.884965896606445,-1.5440311431884766,-0.0,-0.0,-1.0,0.16064380347908494,1.0,0
53.23816680908203,8.966132164001465,-1.5564508438110352,-0.0,-0.0,-1.0,0.1887934868682166,1.0,0
54.256309509277344,8.771318435668945,-1.713815450668335,-0.0,-0.0,-1.0,0.16031921014612194,2.0,0
53.21771240234375,9.560942649841309,-1.5743310451507568,-0.0,-0.0,-1.0,0.16445844688149455,2.0,0
54.768943786621094,9.66784954071045,-1.8298470973968506,-0.0,-0.0,-1.0,0.05775561199160556,1.0,0
54.98277282714844,9.712310791015625,-1.8663203716278076,-0.0,-0.0,-1.0,0.046792508496458,1.0,0
55.01806640625,10.010885238647461,-1.8840563297271729,-0.5527754458384121,-0.35236397019770266,-0.755168152787614,0.0659482051021237,3.0,0
55.09443664550781,10.353780746459961,-1.9106543064117432,-0.0,-0.0,-1.0,0.06633132435821674,1.0,0
53.53993225097656,8.350264549255371,-1.881108283996582,-0.0,-0.0,-1.0,0.040346345160985966,1.0,0
53.63679504394531,8.4573335647583,-1.9011726379394531,-0.0,-0.0,-1.0,0.03818041084395289,1.0,0
53.56978988647461,8.722113609313965,-1.8966293334960938,-0.0,-0.0,-1.0,0.08073999837647595,1.0,0
53.80169677734375,8.714045524597168,-1.937730312347412,-0.0,-0.0,-1.0,0.022276960524076402,1.0,0
54.03301239013672,8.867338180541992,-1.983449935913086,-0.0,-0.0,-1.0,0.059548668559507474,1.0,0
53.97748947143555,8.97602653503418,-1.9768357276916504,-0.0,-0.0,-1.0,0.036770266988896946,2.0,0
54.058692932128906,9.155948638916016,-1.9969873428344727,-0.0,-0.0,-1.0,0.03683916539326964,1.0,0
53.9229736328125,9.626571655273438,-1.988156795501709,-0.0,-0.0,-1.0,0.05186404391399921,2.0,0
54.05292510986328,9.350957870483398,-2.0022196769714355,-0.0,-0.0,-1.0,0.05363943045338614,1.0,0
53.85823059082031,10.018930435180664,-1.9902944564819336,-0.0,-0.0,-1.0,0.13863871076421866,2.0,0
53.558685302734375,10.46762466430664,-1.9529995918273926,-0.0,-0.0,-1.0,0.041744477632815524,2.0,0
53.759666442871094,10.23204517364502,-1.9803667068481445,-0.0,-0.0,-1.0,0.11402559301127095,1.0,0
55.059200286865234,10.418187141418457,-1.7881191968917847,-0.0,-0.0,-1.0,0.06493236855467815,1.0,0
53.412078857421875,8.849479675292969,-1.5147608518600464,-0.0,-0.0,-1.0,0.16740033696305687,2.0,0
53.09746551513672,9.010106086730957,-2.0025341510772705,-0.0,-0.0,-1.0,0.13214199838233728,1.0,0
53.04035949707031,9.28253173828125,-2.0012755393981934,-0.0,-0.0,-1.0,0.18165465119722246,2.0,0
52.789093017578125,9.8194580078125,-1.977297306060791,-0.0,-0.0,-1.0,0.07400855312497565,1.0,0
52.92455291748047,10.14499282836914,-2.010073661804199,-0.0,-0.0,-1.0,0.018928851260474243,2.0,0
54.74659729003906,8.215243339538574,-1.9277746677398682,0.8842546230160921,-0.10091529576731142,-0.45597134203244066,0.11720011984700968,3.0,0
54.8375358581543,8.271050453186035,-1.9431111812591553,-0.0,-0.0,-1.0,0.020022806008461333,1.0,0
54.22294616699219,8.711566925048828,-1.8602566719055176,0.6711702625713423,-0.22422051345433236,-0.7065802431332135,0.156652757693652,3.0,0
54.92588806152344,8.642454147338867,-1.9664723873138428,-0.0,-0.0,-1.0,0.011620734566734124,2.0,0
54.59214782714844,9.560032844543457,-1.941683292388916,-0.0,-0.0,-1.0,0.0688875884648337,1.0,0
54.54878234863281,9.91147232055664,-1.9461750984191895,-0.0,-0.0,-1.0,0.14704611370429907,1.0,0
54.54480743408203,10.145185470581055,-1.9533884525299072,-0.0,-0.0,-1.0,0.052217953241497736,1.0,0
54.472625732421875,10.430030822753906,-1.951936960220337,-0.0,-0.0,-1.0,0.02018009089585621,1.0,0
53.2734375,8.920221328735352,-1.7199678421020508,0.23807267003278088,-0.7010220945590988,-0.6722272136141447,0.1337488109127597,3.0,0
53.136627197265625,9.529163360595703,-1.7155330181121826,-0.0,-0.0,-1.0,0.20171096043447026,2.0,0
53.171348571777344,9.834917068481445,-1.7299013137817383,-0.0,-0.0,-1.0,0.06984882193252215,2.0,0
53.72077178955078,9.989639282226562,-1.8199493885040283,-0.0,-0.0,-1.0,0.19891432668916822,1.0,0
53.68895721435547,10.080320358276367,-1.8179211616516113,0.4015057142464092,0.7044772890101352,-0.5852391910120267,0.15663630524116112,3.0,0
53.45172119140625,8.163783073425293,-1.8048570156097412,-0.0,-0.0,-1.0,0.03897702079132604,1.0,0
53.61329650878906,8.382505416870117,-1.8347241878509521,-0.03255453193788545,-0.958138680194173,-0.28444766120689635,0.03709505254713183,3.0,0
54.00153350830078,8.474365234375,-1.8998169898986816,-0.0,-0.0,-1.0,0.04305596244844613,2.0,0
54.15155792236328,8.417144775390625,-1.9232683181762695,-0.0,-0.0,-1.0,0.08172439456179675,1.0,0
53.276039123535156,8.95028305053711,-1.7899858951568604,-0.0,-0.0,-1.0,0.15299682014487692,2.0,0
54.11265563964844,8.84481430053711,-1.925246000289917,-0.0,-0.0,-1.0,0.09418149836274162,2.0,0
54.297088623046875,8.778037071228027,-1.9541537761688232,-0.0,-0.0,-1.0,0.2184575009969772,1.0,0
54.132354736328125,9.36366081237793,-1.9397614002227783,-0.8445757828483451,0.5139244146701349,-0.1502446106589653,0.09467539254594237,4.0,0
54.159217834472656,9.110773086547852,-1.9385056495666504,-0.0,-0.0,-1.0,0.04264025232931029,1.0,0
53.235137939453125,9.639673233032227,-1.7979209423065186,-0.0,-0.0,-1.0,0.1015498219960879,2.0,0
53.88187789916992,9.527809143066406,-1.9021799564361572,-0.0,-0.0,-1.0,0.05155224866180052,1.0,0
54.28641128540039,9.674564361572266,-1.9727575778961182,-0.0,-0.0,-1.0,0.11174297943480635,2.0,0
53.95699691772461,10.094196319580078,-1.92885160446167,-0.0,-0.0,-1.0,0.06024827674621171,2.0,0
53.922752380371094,10.41066837310791,-1.9318172931671143,-0.0,-0.0,-1.0,0.0360880009591662,1.0,0
52.880348205566406,9.300872802734375,-2.019232749938965,-0.0,-0.0,-1.0,0.15573485154255998,1.0,0
52.73461151123047,9.801292419433594,-1.9950767755508423,-0.0,-0.0,-1.0,0.0729561270134312,1.0,0
53.208580017089844,9.77248477935791,-1.411847472190857,-0.0,-0.0,-1.0,0.08712273978945952,2.0,0
53.15998840332031,8.452959060668945,-1.9009110927581787,-0.0,-0.0,-1.0,0.04513183761150292,2.0,0
53.39565658569336,8.63823127746582,-1.944335699081421,-0.0,-0.0,-1.0,0.09207260517734871,2.0,0
53.50625991821289,8.829842567443848,-1.9643268585205078,-0.0,-0.0,-1.0,0.11481605109805335,2.0,0
53.729652404785156,8.978652000427246,-2.0068843364715576,-0.0,-0.0,-1.0,0.02032628513304764,1.0,0
53.64855194091797,9.283909797668457,-1.9902746677398682,-0.0,-0.0,-1.0,0.07413539654920029,1.0,0
53.786048889160156,9.261911392211914,-2.0172767639160156,-0.0,-0.0,-1.0,0.030195190952612475,1.0,0
53.54747772216797,9.629077911376953,-1.9704651832580566,-0.0,-0.0,-1.0,0.0805195184013584,1.0,0
53.78300857543945,9.736210823059082,-2.0171265602111816,-0.0,-0.0,-1.0,0.025882949648828285,2.0,0
53.70167922973633,10.134023666381836,-2.0029873847961426,-0.0,-0.0,-1.0,0.1886361348903592,2.0,0
53.76887512207031,10.066791534423828,-2.0159223079681396,-0.0,-0.0,-1.0,0.19602978659478848,1.0,0
53.5407829284668,10.423858642578125,-1.9732685089111328,-0.0,-0.0,-1.0,0.03981150952670755,2.0,0
54.9718132019043,8.686256408691406,-1.967522382736206,-0.0,-0.0,-1.0,0.007733924514552773,1.0,0
55.15517807006836,8.820512771606445,-2.000373125076294,-0.0,-0.0,-1.0,0.014489019047922344,1.0,0
55.010231018066406,9.162031173706055,-1.9700539112091064,-0.0,-0.0,-1.0,0.016525223469627252,1.0,0
54.27447509765625,8.720236778259277,-1.8371648788452148,-0.0,-0.0,-1.0,0.13858061230671492,1.0,0
53.30619430541992,8.972219467163086,-1.6538774967193604,-0.0,-0.0,-1.0,0.1417899509437919,2.0,0
54.26630401611328,8.827919006347656,-1.834141492843628,-0.0,-0.0,-1.0,0.111481523522231,1.0,0
53.126434326171875,9.570491790771484,-1.6121366024017334,0.8893575934720676,0.45561703497735256,-0.038160036320986024,0.09706381343840191,3.0,0
53.22323989868164,9.591781616210938,-1.630028486251831,-0.0,-0.0,-1.0,0.18195500336308543,1.0,0
53.31188201904297,9.788978576660156,-1.6448323726654053,-0.0,-0.0,-1.0,0.1713363579618191,1.0,0
54.57551574707031,9.697042465209961,-1.8846068382263184,-0.0,-0.0,-1.0,0.162458022318708,2.0,0
54.9020881652832,9.864408493041992,-1.9462664127349854,-0.0,-0.0,-1.0,0.03588879682428427,1.0,0
53.23675537109375,10.025435447692871,-1.628847360610962,-0.0,-0.0,-1.0,0.10728373742153678,2.0,0
53.70458221435547,10.116728782653809,-1.7171831130981445,-0.0,-0.0,-1.0,0.13645890860132623,2.0,0
54.953269958496094,10.16308879852295,-1.9560737609863281,-0.0,-0.0,-1.0,0.0743812770457728,1.0,0
55.16863250732422,10.12721061706543,-1.9973530769348145,-0.0,-0.0,-1.0,0.04827152740546751,1.0,0
53.27386474609375,8.19571590423584,-1.8108699321746826,-0.0,-0.0,-1.0,0.08358531812094785,2.0,0
53.4911994934082,8.273697853088379,-1.8522734642028809,-0.0,-0.0,-1.0,0.048459136887043126,1.0,0
53.628231048583984,8.394424438476562,-1.8765816688537598,-0.0,-0.0,-1.0,0.03477616265282335,2.0,0
53.98137664794922,8.507352828979492,-1.9455602169036865,-0.0,-0.0,-1.0,0.031841858843878315,1.0,0
54.170936584472656,8.74393081665039,-1.978886365890503,-0.0,-0.0,-1.0,0.11965879979562433,1.0,0
54.10136795043945,8.909496307373047,-1.9611845016479492,-0.0,-0.0,-1.0,0.05637086136496394,2.0,0
54.110591888427734,9.324575424194336,-1.9556756019592285,-0.8772623539181864,0.44006702431565353,-0.1917075285634044,0.06464517515220261,4.0,0
54.26288986206055,9.482467651367188,-1.9850850105285645,-0.0,-0.0,-1.0,0.08806834875258482,1.0,0
54.32738494873047,9.691304206848145,-1.996002197265625,-0.0,-0.0,-1.0,0.1102073331543183,2.0,0
54.14629364013672,10.036577224731445,-1.954413652420044,-0.0,-0.0,-1.0,0.019495925531733644,1.0,0
54.20341491699219,10.134407043457031,-1.9657232761383057,-0.0,-0.0,-1.0,0.01748157124876681,1.0,0
53.25194549560547,8.945487976074219,-1.78617525100708,-0.0,-0.0,-1.0,0.13076752016484502,2.0,0
53.176448822021484,9.508153915405273,-1.7589070796966553,-0.0,-0.0,-1.0,0.18630339143110114,2.0,0
53.19417953491211,9.74220085144043,-1.758579969406128,-0.0,-0.0,-1.0,0.0976081491193049,1.0,0
53.67361831665039,10.045072555541992,-1.8547654151916504,-0.0,-0.0,-1.0,0.22692438645938864,2.0,0
54.12321090698242,10.28807258605957,-1.9476649761199951,-0.0,-0.0,-1.0,0.02644259345984091,2.0,0
53.98212814331055,10.523316383361816,-1.916468858718872,-0.0,-0.0,-1.0,0.06400544703483375,1.0,0
54.692691802978516,8.47512435913086,-1.978773832321167,-0.0,-0.0,-1.0,0.016978906008254132,1.0,0
54.69696044921875,8.687223434448242,-1.9753363132476807,-0.0,-0.0,-1.0,0.019466719354852516,1.0,0
53.32255554199219,8.959431648254395,-1.6786985397338867,-0.0,-0.0,-1.0,0.1376869385369818,2.0,0
54.32337188720703,8.725214004516602,-1.8952455520629883,-0.0,-0.0,-1.0,0.2206613797599424,1.0,0
53.14079284667969,9.541145324707031,-1.6278831958770752,-0.0,-0.0,-1.0,0.09706381343840187,2.0,0
53.519073486328125,9.466941833496094,-1.7099261283874512,-0.0,-0.0,-1.0,0.11404436252226448,1.0,0
54.39040756225586,9.403888702392578,-1.8978726863861084,-0.0,-0.0,-1.0,0.08869715539080185,1.0,0
54.60648727416992,9.396356582641602,-1.9445810317993164,-0.0,-0.0,-1.0,0.0589225611960399,1.0,0
53.199283599853516,9.782312393188477,-1.636361837387085,-0.0,-0.0,-1.0,0.07401572197826169,1.0,0
53.29066467285156,9.698862075805664,-1.6571722030639648,-0.0,-0.0,-1.0,0.09214110845398936,2.0,0
54.61698913574219,9.669556617736816,-1.9438297748565674,-0.0,-0.0,-1.0,0.07311358500187198,1.0,0
53.67372131347656,10.09457778930664,-1.7346343994140625,-0.0,-0.0,-1.0,0.140700075370742,2.0,0
54.39988327026367,10.18709945678711,-1.8923382759094238,-0.0,-0.0,-1.0,0.010673149060254308,1.0,0
54.66852569580078,10.073862075805664,-1.9519157409667969,-0.0,-0.0,-1.0,0.09612940821351099,1.0,0
54.62700271606445,10.330818176269531,-1.9415972232818604,-0.0,-0.0,-1.0,0.055233397054467934,1.0,0
52.89977264404297,8.66970443725586,-1.9642062187194824,-0.0,-0.0,-1.0,0.02608454406273436,1.0,0
53.00042724609375,8.974332809448242,-1.9708952903747559,-0.0,-0.0,-1.0,0.09822381116642538,1.0,0
53.31658172607422,9.088807106018066,-2.041368007659912,-0.0,-0.0,-1.0,0.10508652363501944,1.0,0
53.35457229614258,9.407110214233398,-2.0351860523223877,-0.0,-0.0,-1.0,0.11598129409175577,1.0,0
53.43656539916992,9.79585075378418,-2.0384864807128906,-0.0,-0.0,-1.0,0.07265664774974204,1.0,0
53.54051208496094,9.808148384094238,-2.063664436340332,-0.0,-0.0,-1.0,0.03369453289847619,1.0,0
53.51700210571289,10.038923263549805,-2.0488173961639404,-0.0,-0.0,-1.0,0.12123716331993244,2.0,0
54.24277114868164,8.712496757507324,-1.7288742065429688,-0.0,-0.0,-1.0,0.15669126346037496,1.0,0
54.90791702270508,9.20860481262207,-1.8576056957244873,-0.0,-0.0,-1.0,0.019218153778123317,1.0,0
55.02694320678711,9.866065979003906,-1.87056565284729,-0.0,-0.0,-1.0,0.06447808424949807,1.0,0
53.3585205078125,10.327289581298828,-1.9986746311187744,-0.0,-0.0,-1.0,0.01094880195780348,1.0,0
55.051029205322266,10.060548782348633,-1.8729639053344727,0.7610887657028004,-0.06513663705382142,-0.6453689713910225,0.06996597694270326,3.0,0
53.34503936767578,10.492170333862305,-1.9897246360778809,-0.0,-0.0,-1.0,0.02359500175791427,1.0,0
53.24571228027344,8.942668914794922,-1.5108966827392578,-0.13918287280582467,-0.9372636913479048,0.31963244641058813,0.20860969680080702,3.0,0
52.731014251708984,8.323965072631836,-1.8626950979232788,-0.0,-0.0,-1.0,0.06294453286092822,1.0,0
53.00314712524414,8.372111320495605,-1.925150990486145,-0.0,-0.0,-1.0,0.06843196821320233,1.0,0
53.13511657714844,8.670875549316406,-1.936954379081726,-0.0,-0.0,-1.0,0.08320616179926156,1.0,0
53.42742156982422,8.785957336425781,-2.0018563270568848,-0.0,-0.0,-1.0,0.09952356220434462,1.0,0
53.58409881591797,9.05421257019043,-2.024949073791504,-0.0,-0.0,-1.0,0.03240753140919246,1.0,0
53.62296676635742,9.49649429321289,-2.010378837585449,0.5131124744451806,-0.5462773677334836,-0.662039746594508,0.1259362858414055,3.0,0
53.72993087768555,9.496853828430176,-2.037731170654297,-0.0,-0.0,-1.0,0.03138909601305711,1.0,0
54.725337982177734,9.314966201782227,-1.7708631753921509,-0.0,-0.0,-1.0,0.05030446602907451,1.0,0
53.729393005371094,9.870695114135742,-2.019298553466797,-0.0,-0.0,-1.0,0.0904592650130179,1.0,0
53.792423248291016,9.872519493103027,-2.035417079925537,-0.0,-0.0,-1.0,0.07836553924020843,1.0,0
53.70233917236328,10.351852416992188,-1.991308569908142,-0.0,-0.0,-1.0,0.04531928055328492,2.0,0
53.79397201538086,10.150146484375,-2.0235390663146973,-0.0,-0.0,-1.0,0.16119018632935272,1.0,0
53.59601593017578,10.572356224060059,-1.954872727394104,-0.0,-0.0,-1.0,0.04201711472771366,1.0,0
53.81639862060547,10.498750686645508,-2.0155935287475586,-0.0,-0.0,-1.0,0.02837299719640463,1.0,0
53.203956604003906,8.852304458618164,-1.4513050317764282,-0.0,-0.0,-1.0,0.18742239312247402,2.0,0
53.37728500366211,8.852840423583984,-1.488918662071228,-0.5983510721124526,-0.16374812265879132,-0.7843229862930193,0.16740033696305695,3.0,0
54.23927307128906,8.731988906860352,-1.682576060295105,-0.0,-0.0,-1.0,0.15669126346037496,1.0,0
53.381072998046875,8.934354782104492,-1.4862600564956665,-0.0,-0.0,-1.0,0.11242043727083033,2.0,0
53.12193298339844,9.531166076660156,-1.4055148363113403,-0.0,-0.0,-1.0,0.11007125828897465,1.0,0
53.16599655151367,9.761150360107422,-1.4069708585739136,-0.0,-0.0,-1.0,0.08712273978945947,2.0,0
55.1639404296875,10.55728530883789,-1.8442152738571167,-0.0,-0.0,-1.0,0.0652030893698777,1.0,0
53.3619499206543,8.288965225219727,-1.8467803001403809,-0.0,-0.0,-1.0,0.04176065856440678,1.0,0
53.525814056396484,8.441274642944336,-1.8753962516784668,-0.0,-0.0,-1.0,0.046631782429131914,1.0,0
53.41629409790039,8.88296127319336,-1.8162248134613037,-0.0,-0.0,-1.0,0.14623540792597464,1.0,0
53.717857360839844,8.62971305847168,-1.9096531867980957,-0.0,-0.0,-1.0,0.0324425150601489,1.0,0
53.98488998413086,8.762211799621582,-1.9675519466400146,-0.0,-0.0,-1.0,0.0539383203704519,2.0,0
54.1069221496582,9.105050086975098,-1.976651668548584,-0.0,-0.0,-1.0,0.037075090929475085,2.0,0
52.77884292602539,9.654972076416016,-2.041594982147217,-0.0,-0.0,-1.0,0.08237910999084251,1.0,0
53.185611724853516,9.511436462402344,-1.7158191204071045,0.9529342565096917,0.21002326097993793,-0.21864705032923207,0.19581641558927054,3.0,0
54.21663284301758,9.461030960083008,-1.9840621948242188,-0.0,-0.0,-1.0,0.08248290404391004,1.0,0
54.339237213134766,9.591708183288574,-2.0087733268737793,-0.0,-0.0,-1.0,0.058100857662128746,1.0,0
52.868255615234375,10.00877571105957,-2.0383358001708984,-0.0,-0.0,-1.0,0.05010291260215676,1.0,0
54.27351760864258,10.020733833312988,-1.96968674659729,-0.0,-0.0,-1.0,0.012148435786149873,1.0,0
54.383934020996094,9.880752563476562,-2.005720853805542,-0.0,-0.0,-1.0,0.037226747570447014,1.0,0
52.73773193359375,10.138973236083984,-1.9900100231170654,-0.0,-0.0,-1.0,0.020915723810858152,1.0,0
52.86503601074219,10.302896499633789,-2.014659881591797,-0.0,-0.0,-1.0,0.024671732620852472,1.0,0
53.743385314941406,10.096630096435547,-1.8262150287628174,-0.0,-0.0,-1.0,0.12418540202284628,2.0,0
54.30026626586914,10.30947494506836,-1.9635272026062012,-0.0,-0.0,-1.0,0.013098104679591908,2.0,0
54.36315155029297,10.124334335327148,-1.9885649681091309,-0.0,-0.0,-1.0,0.010970991064727448,1.0,0
53.09870529174805,9.50156307220459,-1.6942927837371826,-0.0,-0.0,-1.0,0.15644623040970299,1.0,0
53.17765808105469,9.552434921264648,-1.7111022472381592,0.03818365414677139,0.12152041536175233,-0.9918542217515167,0.2080714849211361,3.0,0
53.20176315307617,9.85706901550293,-1.6985409259796143,-0.0,-0.0,-1.0,0.06655417936351407,2.0,0
53.584312438964844,8.755470275878906,-2.0071959495544434,-0.0,-0.0,-1.0,0.04356636206450326,1.0,0
53.802032470703125,9.029495239257812,-2.038740873336792,-0.0,-0.0,-1.0,0.02159926691659955,1.0,0
52.87916564941406,8.14452075958252,-1.889256238937378,-0.0,-0.0,-1.0,0.05995354015856189,1.0,0
53.02101135253906,8.2912015914917,-1.9085767269134521,-0.0,-0.0,-1.0,0.06506828455196026,1.0,0
53.187744140625,8.435754776000977,-1.9357426166534424,-0.0,-0.0,-1.0,0.045282914537556875,2.0,0
54.57841110229492,8.378660202026367,-1.8323261737823486,-0.0,-0.0,-1.0,0.10880177978262723,1.0,0
53.37556457519531,8.662836074829102,-1.9606060981750488,-0.0,-0.0,-1.0,0.09610926624285607,2.0,0
53.554481506347656,8.832853317260742,-1.9908196926116943,-0.0,-0.0,-1.0,0.10390955742360962,1.0,0
54.2972297668457,8.742721557617188,-1.735701560974121,-0.0,-0.0,-1.0,0.13753725042762216,1.0,0
54.375850677490234,8.775001525878906,-1.752634048461914,-0.0,-0.0,-1.0,0.22640437777783454,1.0,0
53.84292984008789,9.236841201782227,-2.030121326446533,-0.0,-0.0,-1.0,0.03599817866000832,2.0,0
53.94390106201172,9.325109481811523,-2.050062894821167,-0.0,-0.0,-1.0,0.046788691236425664,1.0,0
53.21809768676758,9.539436340332031,-1.8278169631958008,-0.0,-0.0,-1.0,0.16227940791869547,1.0,0
53.85948181152344,9.612326622009277,-2.000452756881714,-0.0,-0.0,-1.0,0.03482125055782293,1.0,0
53.96239471435547,9.610003471374512,-2.0297679901123047,-0.0,-0.0,-1.0,0.05033486360457524,2.0,0
53.25659942626953,9.895170211791992,-1.8051373958587646,-0.0,-0.0,-1.0,0.09936000587660303,1.0,0
53.927642822265625,10.00477409362793,-1.9864249229431152,-0.0,-0.0,-1.0,0.11129873913775447,1.0,0
54.036338806152344,9.940861701965332,-2.0230259895324707,-0.0,-0.0,-1.0,0.026451852397573274,2.0,0
54.03810501098633,10.3130464553833,-1.9943244457244873,-0.0,-0.0,-1.0,0.031700232853066716,2.0,0
53.91775894165039,10.571064949035645,-1.940093994140625,-0.4351854175822659,0.7961963527245208,-0.42033917284964006,0.05609114849791301,4.0,0
53.998077392578125,10.568798065185547,-1.9638402462005615,-0.0,-0.0,-1.0,0.02735472676198231,1.0,0
53.38380432128906,8.890727996826172,-1.5018022060394287,-0.11666797029189155,0.04492644481550828,-0.992154322302841,0.1587010320071346,4.0,0
53.54090881347656,8.921369552612305,-1.5371894836425781,-0.0,-0.0,-1.0,0.16327695879982412,1.0,0
53.2752685546875,9.752860069274902,-1.408681869506836,-0.0,-0.0,-1.0,0.08712273978945952,1.0,0
53.78836441040039,10.04100227355957,-1.5182523727416992,-0.0,-0.0,-1.0,0.16942993456193475,1.0,0
54.589202880859375,8.270933151245117,-1.9637664556503296,-0.0,-0.0,-1.0,0.1136156220020005,1.0,0
54.832889556884766,8.758880615234375,-1.9736205339431763,-0.0,-0.0,-1.0,0.01321874912463564,1.0,0
53.08908462524414,8.389047622680664,-1.5741311311721802,-0.0,-0.0,-1.0,0.14458685155648263,1.0,0
53.269691467285156,8.925475120544434,-1.5508726835250854,-0.0,-0.0,-1.0,0.18742239312247408,2.0,0
53.458927154541016,8.928295135498047,-1.5982147455215454,-0.0,-0.0,-1.0,0.17904578980346403,1.0,0
53.31797409057617,9.10751724243164,-1.5411404371261597,-0.0,-0.0,-1.0,0.1684263898536325,1.0,0
53.66266632080078,9.402023315429688,-1.5962692499160767,0.47851787980591903,-0.7267824848986697,-0.49275537374092887,0.18243410320933867,3.0,0
54.79710006713867,9.146855354309082,-1.923948884010315,-0.0,-0.0,-1.0,0.015568749151501436,1.0,0
53.692588806152344,9.425254821777344,-1.6014763116836548,-0.0,-0.0,-1.0,0.208512142092016,2.0,0
54.755584716796875,9.627612113952637,-1.8659735918045044,-0.0,-0.0,-1.0,0.040559436984455334,1.0,0
55.16252136230469,9.641331672668457,-1.9766825437545776,-0.0,-0.0,-1.0,0.02843974703448456,1.0,0
53.80364990234375,10.041386604309082,-1.566938042640686,-0.0,-0.0,-1.0,0.17765214756384273,1.0,0
54.9531364440918,9.873186111450195,-1.897922396659851,-0.0,-0.0,-1.0,0.062337400592320034,1.0,0
55.18480682373047,10.030084609985352,-1.9489191770553589,-0.0,-0.0,-1.0,0.042104730040058144,1.0,0
53.176979064941406,9.716479301452637,-1.4347728490829468,-0.0,-0.0,-1.0,0.08789442614922136,1.0,0
53.14537811279297,9.99427604675293,-1.6492291688919067,-0.0,-0.0,-1.0,0.060091994310160546,1.0,0
53.657310485839844,10.562479019165039,-1.7317472696304321,-0.0,-0.0,-1.0,0.10131644371703581,1.0,0
54.748233795166016,10.29411506652832,-1.8112343549728394,-0.0,-0.0,-1.0,0.048236788791761895,1.0,0
54.85036087036133,10.414167404174805,-1.8281251192092896,-0.0,-0.0,-1.0,0.06068091748361602,1.0,0
52.711463928222656,8.388887405395508,-1.8608282804489136,-0.0,-0.0,-1.0,0.0624884620235662,1.0,0
53.12110137939453,8.758334159851074,-1.9171851873397827,-0.0,-0.0,-1.0,0.10635110733796405,1.0,0
52.71487808227539,10.627516746520996,-1.9578765630722046,-0.0,-0.0,-1.0,0.020423376749422045,2.0,0
53.316104888916016,10.619007110595703,-2.017086982727051,-0.0,-0.0,-1.0,0.019143164397772656,1.0,0
53.66127395629883,10.265564918518066,-2.035848617553711,-0.0,-0.0,-1.0,0.11636662155358043,1.0,0
53.777645111083984,9.783888816833496,-2.026434898376465,-0.0,-0.0,-1.0,0.046393167065847424,2.0,0
53.21868133544922,9.034990310668945,-1.512725591659546,-0.5959367333911558,-0.695385727309034,-0.4016193472057392,0.18879348686821668,3.0,0
53.164405822753906,8.17881965637207,-1.920775055885315,-0.0,-0.0,-1.0,0.06993013701660003,1.0,0
53.19850158691406,8.494375228881836,-1.9404081106185913,-0.0,-0.0,-1.0,0.05095272924177964,1.0,0
53.46132278442383,8.58574390411377,-1.9737752676010132,-0.0,-0.0,-1.0,0.04941613092163704,1.0,0
53.517852783203125,9.73322868347168,-2.0403857231140137,-0.0,-0.0,-1.0,0.016285132571697468,1.0,0
53.70262908935547,9.5726957321167,-2.0519070625305176,-0.0,-0.0,-1.0,0.024848148091027537,1.0,0
53.83212661743164,9.942193984985352,-2.0861477851867676,-0.0,-0.0,-1.0,0.032299717217500926,1.0,0
52.87770080566406,10.46395492553711,-2.010845184326172,-0.0,-0.0,-1.0,0.022425829900381528,1.0,0
53.42829132080078,10.367304801940918,-2.065591812133789,-0.0,-0.0,-1.0,0.012312550051067118,1.0,0
53.15261459350586,8.528777122497559,-1.9096542596817017,-0.0,-0.0,-1.0,0.04456997975845438,1.0,0
53.53972625732422,9.593175888061523,-2.035275459289551,-0.0,-0.0,-1.0,0.027579510779107873,1.0,0
53.59732437133789,9.502760887145996,-2.035423755645752,-0.0,-0.0,-1.0,0.08163156692568632,2.0,0
52.8381462097168,10.249822616577148,-2.001429557800293,-0.0,-0.0,-1.0,0.024671732620852482,1.0,0
52.83317565917969,10.380833625793457,-2.0120325088500977,-0.0,-0.0,-1.0,0.024671732620852472,1.0,0
53.25109100341797,9.021125793457031,-1.5368103981018066,-0.4470207106406018,-0.8903277646480936,-0.08653875290931749,0.18879348686821665,4.0,0
53.34358215332031,8.883354187011719,-1.5405197143554688,-0.0,-0.0,-1.0,0.16740033696305687,1.0,0
53.182777404785156,9.512728691101074,-1.5534899234771729,-0.0,-0.0,-1.0,0.1644584468814946,1.0,0
53.19499206542969,8.99527359008789,-1.567384123802185,-0.0,-0.0,-1.0,0.1686492984615496,1.0,0
54.24341583251953,8.783374786376953,-1.6833940744400024,-0.0,-0.0,-1.0,0.16031921014612202,2.0,0
53.26286697387695,9.077527046203613,-1.5783251523971558,-0.0,-0.0,-1.0,0.1826415491549437,1.0,0
53.119842529296875,9.586031913757324,-1.5802215337753296,-0.0,-0.0,-1.0,0.0738232392318767,2.0,0
53.63478088378906,9.409439086914062,-1.6342867612838745,-0.0,-0.0,-1.0,0.18243410320933856,2.0,0
53.22167205810547,10.002593040466309,-1.6082838773727417,-0.0,-0.0,-1.0,0.07227005476011045,2.0,0
55.07505798339844,10.475629806518555,-1.845664620399475,-0.0,-0.0,-1.0,0.06633132435821674,2.0,0
52.967308044433594,8.524837493896484,-1.9201160669326782,-0.0,-0.0,-1.0,0.06823910851494332,1.0,0
53.44584655761719,9.068193435668945,-2.01206111907959,-0.0,-0.0,-1.0,0.10363350477460169,1.0,0
53.603370666503906,9.308146476745605,-2.045562744140625,-0.0,-0.0,-1.0,0.036977811177180825,1.0,0
53.45857620239258,9.595873832702637,-2.038508415222168,-0.0,-0.0,-1.0,0.06851499748753467,1.0,0
53.07380676269531,10.317314147949219,-2.019742488861084,-0.0,-0.0,-1.0,0.016246930599708134,1.0,0
53.448692321777344,9.96135139465332,-2.0550198554992676,-0.0,-0.0,-1.0,0.07688944763575088,1.0,0
52.71735382080078,10.612167358398438,-1.9845701456069946,-0.0,-0.0,-1.0,0.020423376749422045,2.0,0
53.01307678222656,9.02485179901123,-1.9256222248077393,-0.0,-0.0,-1.0,0.1480228106630981,1.0,0
53.261802673339844,9.209342002868652,-1.970672369003296,-0.0,-0.0,-1.0,0.15236015983046886,1.0,0
53.476619720458984,9.199677467346191,-2.0021374225616455,-0.0,-0.0,-1.0,0.04489536534841385,1.0,0
53.345359802246094,9.590137481689453,-2.0003345012664795,-0.0,-0.0,-1.0,0.15627899609108656,1.0,0
53.08361053466797,10.23617935180664,-1.9924874305725098,-0.0,-0.0,-1.0,0.030067361913639918,1.0,0
52.90470886230469,10.344511032104492,-1.9713568687438965,-0.0,-0.0,-1.0,0.024671732620852472,2.0,0
53.27405548095703,9.013328552246094,-1.5743656158447266,-0.6613786122839718,-0.7042035760564127,-0.2582162943787389,0.20020966463745613,3.0,0
54.28927230834961,8.823408126831055,-1.7079129219055176,-0.0,-0.0,-1.0,0.14075293520401083,2.0,0
53.20390319824219,9.548944473266602,-1.5859222412109375,-0.0,-0.0,-1.0,0.16445844688149458,2.0,0
53.20775604248047,9.62099838256836,-1.5894513130187988,-0.0,-0.0,-1.0,0.07677219210529704,2.0,0
53.56795120239258,9.693426132202148,-1.642442226409912,-0.0,-0.0,-1.0,0.15432723750485847,1.0,0
53.76227569580078,10.141478538513184,-1.6888811588287354,-0.0,-0.0,-1.0,0.1344836471722956,1.0,0
55.059356689453125,10.09550952911377,-1.8666718006134033,-0.0,-0.0,-1.0,0.06263290044598237,2.0,0
55.157466888427734,10.484270095825195,-1.8979418277740479,-0.0,-0.0,-1.0,0.06633132435821672,1.0,0
55.12547302246094,10.601625442504883,-1.8990068435668945,-0.10251602965961286,0.48883252253744797,-0.8663332087439016,0.06181438423114957,4.0,0
53.24663162231445,9.025951385498047,-1.5385487079620361,-0.4470207106406018,-0.8903277646480936,-0.08653875290931749,0.1887934868682166,4.0,0
53.37939453125,9.437211036682129,-1.5744664669036865,-0.0,-0.0,-1.0,0.08448942663905323,1.0,0
55.079776763916016,10.508245468139648,-1.8671557903289795,0.46069784404343933,-0.5338607218337589,-0.7090488179080937,0.0618143842311496,3.0,0
53.207393646240234,9.085658073425293,-2.017277240753174,-0.0,-0.0,-1.0,0.11339580277896248,1.0,0
53.16440963745117,9.38071060180664,-2.0171661376953125,-0.0,-0.0,-1.0,0.1490864955189779,1.0,0
52.87603759765625,9.987630844116211,-1.9837411642074585,-0.0,-0.0,-1.0,0.07738253082005801,1.0,0
53.253196716308594,9.672030448913574,-2.040940761566162,-0.0,-0.0,-1.0,0.14273425630077796,1.0,0
52.73817443847656,10.238500595092773,-1.9676505327224731,-0.0,-0.0,-1.0,0.024671732620852455,1.0,0
52.91149139404297,10.340747833251953,-2.001781463623047,-0.8935805171068495,-0.42424519969877816,-0.1467306034186431,0.024671732620852475,3.0,0
53.56755828857422,8.413915634155273,-1.7662477493286133,-0.0,-0.0,-1.0,0.04109744873163376,1.0,0
54.729007720947266,8.21080493927002,-1.9609034061431885,0.8842546230160921,-0.10091529576731142,-0.45597134203244066,0.0208235968781795,3.0,0
55.00153350830078,8.431962966918945,-2.0142691135406494,-0.0,-0.0,-1.0,0.014018843203825739,1.0,0
53.37471008300781,8.859810829162598,-1.7466411590576172,-0.0,-0.0,-1.0,0.12859266206128445,1.0,0
54.1652946472168,9.026266098022461,-1.8888094425201416,-0.0,-0.0,-1.0,0.05031337623408227,2.0,0
54.59602737426758,8.690947532653809,-1.9521739482879639,-0.0,-0.0,-1.0,0.021396794580473825,2.0,0
54.283084869384766,9.221548080444336,-1.9160685539245605,-0.0,-0.0,-1.0,0.07930308098702189,1.0,0
54.47688674926758,9.709457397460938,-1.9681308269500732,0.17513730593251778,-0.8859761091458235,-0.42938707257383457,0.08043214173613716,3.0,0
53.698184967041016,10.050287246704102,-1.8477425575256348,0.2542798808204496,0.687380809540857,-0.6803303351202958,0.1975699129347305,4.0,0
54.468955993652344,10.073277473449707,-1.981947660446167,-0.0,-0.0,-1.0,0.027834440584895283,2.0,0
54.1038818359375,10.48362922668457,-1.937373399734497,-0.9068254376980875,-0.12262862880029045,-0.40327390808510316,0.02843714831039987,3.0,0
54.31224060058594,10.262307167053223,-1.9631516933441162,-0.0,-0.0,-1.0,0.013087952474786349,2.0,0
53.262107849121094,8.92536735534668,-1.729346752166748,0.23807267003278088,-0.7010220945590988,-0.6722272136141447,0.13477222745186654,3.0,0
53.22766876220703,9.51321792602539,-1.7444748878479004,-0.0,-0.0,-1.0,0.20420381943583527,1.0,0
53.040462493896484,9.279444694519043,-2.0175671577453613,-0.0,-0.0,-1.0,0.1816546511972224,2.0,0
53.12704086303711,9.511500358581543,-2.03468656539917,-0.0,-0.0,-1.0,0.2427277379851692,1.0,0
53.024253845214844,10.199148178100586,-2.0169382095336914,-0.0,-0.0,-1.0,0.03605836002977455,1.0,0
53.21171569824219,9.97378158569336,-2.052952766418457,-0.0,-0.0,-1.0,0.08876232970874626,1.0,0
53.040740966796875,10.254851341247559,-2.020721435546875,-0.0,-0.0,-1.0,0.018682213957590274,1.0,0
52.99266815185547,9.078893661499023,-2.0087227821350098,-0.0,-0.0,-1.0,0.14186244048670363,1.0,0
52.745819091796875,10.54926586151123,-1.964955449104309,-0.0,-0.0,-1.0,0.024671732620852486,1.0,0
52.927696228027344,10.305497169494629,-1.9985469579696655,-0.0,-0.0,-1.0,0.02390498010821186,2.0,0
55.1162109375,10.37177562713623,-1.7682212591171265,-0.0,-0.0,-1.0,0.06633132435821673,1.0,0
53.348358154296875,8.803498268127441,-1.4771713018417358,-0.0,-0.0,-1.0,0.1977633521676377,2.0,0
53.28824234008789,8.921980857849121,-1.4665147066116333,-0.0,-0.0,-1.0,0.20497000196146273,2.0,0
53.0907096862793,9.672935485839844,-1.4322489500045776,-0.0,-0.0,-1.0,0.07984357754123063,1.0,0
53.80588150024414,8.522775650024414,-1.9128551483154297,-0.0,-0.0,-1.0,0.029106748587109352,1.0,0
54.01179504394531,9.08093547821045,-1.949706792831421,-0.0,-0.0,-1.0,0.033645016652866164,1.0,0
54.09149932861328,8.874967575073242,-1.9655137062072754,0.6790425563166643,-0.10294480823405619,-0.726844944378499,0.05732302132554333,3.0,0
54.119876861572266,9.31995677947998,-1.9704320430755615,-0.8055001528558435,0.182248453389422,-0.5638749905665046,0.06464517515220262,3.0,0
54.117469787597656,9.140939712524414,-1.969825267791748,-0.0,-0.0,-1.0,0.04314435644880021,2.0,0
53.90998077392578,10.110478401184082,-1.9352946281433105,-0.0,-0.0,-1.0,0.12058092348186514,1.0,0
54.27824783325195,9.834264755249023,-2.0029220581054688,-0.0,-0.0,-1.0,0.01878321692588271,1.0,0
53.89678192138672,10.564157485961914,-1.938887357711792,-0.0,-0.0,-1.0,0.052962251890178114,2.0,0
54.02949523925781,10.327980041503906,-1.9606308937072754,-0.0,-0.0,-1.0,0.03300608862801221,2.0,0
53.244537353515625,8.171135902404785,-1.8092420101165771,-0.0,-0.0,-1.0,0.08358531812094783,2.0,0
53.198020935058594,9.610769271850586,-1.795588731765747,-0.0,-0.0,-1.0,0.12148524031407182,2.0,0
53.869102478027344,9.323677062988281,-2.0323052406311035,-0.0,-0.0,-1.0,0.04285393968618427,1.0,0
53.87910842895508,9.869400978088379,-2.0377719402313232,-0.0,-0.0,-1.0,0.02967787067492732,2.0,0
53.87921905517578,10.159029006958008,-2.0410447120666504,-0.0,-0.0,-1.0,0.07901017892553264,2.0,0
53.007911682128906,8.305583953857422,-1.8622820377349854,-0.0,-0.0,-1.0,0.06280630994518349,1.0,0
53.37078857421875,8.578763008117676,-1.9331722259521484,-0.0,-0.0,-1.0,0.04857649749516291,1.0,0
53.597137451171875,8.9714937210083,-1.9773263931274414,-0.0,-0.0,-1.0,0.08417007843681103,1.0,0
53.73475646972656,9.54699420928955,-2.00640869140625,-0.0,-0.0,-1.0,0.032367052756201414,1.0,0
53.79694366455078,9.186725616455078,-2.0175795555114746,-0.0,-0.0,-1.0,0.017434190668234716,1.0,0
53.5485954284668,10.43983268737793,-1.9791462421417236,-0.9071944116458359,0.4115422654786244,-0.08735710161908496,0.042680195407513034,3.0,0
53.70337677001953,10.170116424560547,-2.0061087608337402,-0.0,-0.0,-1.0,0.17523754881592393,2.0,0
53.723426818847656,9.74380111694336,-2.005476236343384,-0.0,-0.0,-1.0,0.02988610833184083,1.0,0
53.509273529052734,10.535234451293945,-1.973001480102539,-0.0,-0.0,-1.0,0.041393861157252826,1.0,0
53.678245544433594,10.340080261230469,-2.003434658050537,-0.0,-0.0,-1.0,0.0700651619014175,2.0,0
54.204994201660156,8.719544410705566,-1.8798404932022095,0.6258200171410825,0.06844626630033662,-0.7769584382546334,0.14728162873480063,4.0,0
54.56140899658203,8.143149375915527,-1.9478732347488403,-0.0,-0.0,-1.0,0.10123951722308533,1.0,0
54.314697265625,9.292234420776367,-1.9046708345413208,-0.0,-0.0,-1.0,0.09903932211728929,1.0,0
54.303245544433594,9.103110313415527,-1.9007521867752075,-0.0,-0.0,-1.0,0.04772288669370281,1.0,0
54.596343994140625,8.696162223815918,-1.9544097185134888,-0.0,-0.0,-1.0,0.021396794580473832,2.0,0
54.680625915527344,8.302623748779297,-1.9701839685440063,-0.0,-0.0,-1.0,0.020638676976580228,1.0,0
54.53271484375,9.441635131835938,-1.9477380514144897,-0.0,-0.0,-1.0,0.06640117235211533,1.0,0
54.691741943359375,8.914913177490234,-1.973495364189148,-0.0,-0.0,-1.0,0.02067136119322812,1.0,0
53.23305892944336,8.894688606262207,-1.6954370737075806,-0.0,-0.0,-1.0,0.14387962751800615,2.0,0
54.34904479980469,8.56904411315918,-1.851949691772461,-0.0,-0.0,-1.0,0.16222389277448393,1.0,0
54.49296569824219,8.145645141601562,-1.836529016494751,-0.0,-0.0,-1.0,0.08915367519274349,1.0,0
54.99295425415039,8.806533813476562,-1.9703185558319092,-0.0,-0.0,-1.0,0.011068971823408904,2.0,0
54.75942611694336,8.519068717956543,-1.9095661640167236,-0.0,-0.0,-1.0,0.015108763483779179,1.0,0
55.149452209472656,8.521709442138672,-1.969151258468628,-0.0,-0.0,-1.0,0.008075642680974793,1.0,0
54.473838806152344,9.894754409790039,-1.8984878063201904,-0.0,-0.0,-1.0,0.14080897985415294,1.0,0
53.9368782043457,10.592485427856445,-1.9263336658477783,-0.512946971304905,0.7387197191125026,-0.43723972969467245,0.05716551974805006,3.0,0
54.34760284423828,9.667463302612305,-1.8680145740509033,-0.0,-0.0,-1.0,0.12730463206897435,1.0,0
53.92683792114258,10.306907653808594,-1.8985261917114258,-0.0,-0.0,-1.0,0.03264845100194241,1.0,0
54.25751495361328,9.397748947143555,-1.836137056350708,-0.0,-0.0,-1.0,0.13543991798584853,1.0,0
53.65504455566406,9.42300796508789,-1.721213459968567,-0.0,-0.0,-1.0,0.20764332877348443,1.0,0
53.13622283935547,9.616960525512695,-1.6970750093460083,-0.0,-0.0,-1.0,0.12768060445170773,1.0,0
54.02960968017578,9.966049194335938,-2.030015468597412,-0.0,-0.0,-1.0,0.027139046551239256,2.0,0
53.22026062011719,8.295670509338379,-1.8485374450683594,-0.0,-0.0,-1.0,0.08979747853772495,1.0,0
55.158565521240234,10.329702377319336,-1.8943121433258057,-0.0,-0.0,-1.0,0.05955598199266455,1.0,0
55.13105773925781,10.635526657104492,-1.8797714710235596,-0.10251602965961286,0.48883252253744797,-0.8663332087439016,0.061814384231149516,4.0,0
54.82627868652344,9.857677459716797,-1.8743255138397217,-0.0,-0.0,-1.0,0.0691534316216067,1.0,0
54.376258850097656,9.322872161865234,-1.844078540802002,-0.0,-0.0,-1.0,0.09437106418438303,1.0,0
53.330039978027344,8.243945121765137,-1.7705223560333252,-0.0,-0.0,-1.0,0.08911258476216882,1.0,0
53.158321380615234,9.600900650024414,-1.6360307931900024,-0.0,-0.0,-1.0,0.10153073278662045,1.0,0
53.42973327636719,9.179247856140137,-2.0157651901245117,-0.0,-0.0,-1.0,0.06143388212988961,1.0,0
54.60443878173828,10.068321228027344,-1.9599748849868774,-0.0,-0.0,-1.0,0.09818578220344597,1.0,0
54.62133026123047,10.482816696166992,-1.981958031654358,-0.0,-0.0,-1.0,0.02747093265795631,1.0,0
54.42755889892578,10.268444061279297,-1.9503494501113892,-0.0,-0.0,-1.0,0.007460834806376448,1.0,0
54.4451904296875,10.371238708496094,-1.957288384437561,-0.0,-0.0,-1.0,0.01888956527998233,1.0,0
54.55425262451172,9.715935707092285,-1.9855921268463135,-0.0,-0.0,-1.0,0.08261661519862695,2.0,0
54.5103759765625,9.824945449829102,-1.9849226474761963,-0.0,-0.0,-1.0,0.0584016986469646,1.0,0
54.14311218261719,9.185903549194336,-1.9204297065734863,-0.0,-0.0,-1.0,0.05633810297598048,1.0,0
53.595924377441406,8.382644653320312,-1.833204984664917,-0.0,-0.0,-1.0,0.03894647378326172,2.0,0
53.9705924987793,10.146050453186035,-1.937647819519043,-0.0,-0.0,-1.0,0.06774976219705157,2.0,0
54.11980056762695,10.242500305175781,-1.958184003829956,-0.4568371805776684,0.23238342400934242,-0.8586604303725315,0.025719683884205063,3.0,0
52.717506408691406,10.44826602935791,-1.9617996215820312,-0.0,-0.0,-1.0,0.024671732620852493,2.0,0
53.218658447265625,9.908208847045898,-1.8400511741638184,-0.0,-0.0,-1.0,0.17610368996581854,1.0,0
53.384464263916016,9.333791732788086,-1.8155860900878906,-0.0,-0.0,-1.0,0.20431363398812977,1.0,0
54.54975128173828,9.983518600463867,-1.960158348083496,-0.0,-0.0,-1.0,0.0834036543570656,2.0,0
54.53486633300781,10.627423286437988,-2.0021378993988037,-0.0,-0.0,-1.0,0.021924384706965835,1.0,0
54.8404541015625,10.31201457977295,-2.0073680877685547,-0.0,-0.0,-1.0,0.03435390060501719,1.0,0
53.217491149902344,9.082714080810547,-1.5505064725875854,-0.0,-0.0,-1.0,0.16830587681375245,1.0,0
53.214256286621094,9.617177963256836,-1.5718296766281128,-0.0,-0.0,-1.0,0.06495390319109899,2.0,0
53.223472595214844,9.740072250366211,-1.577537178993225,-0.0,-0.0,-1.0,0.08749024065004075,1.0,0
53.600555419921875,9.441544532775879,-1.595211386680603,-0.0,-0.0,-1.0,0.1358121597393107,1.0,0
55.20549011230469,10.525260925292969,-1.7660244703292847,-0.0,-0.0,-1.0,0.06633132435821672,1.0,0
53.25923538208008,8.243352890014648,-1.7792984247207642,-0.0,-0.0,-1.0,0.08934112914891341,2.0,0
54.20131301879883,9.386083602905273,-1.895065426826477,-0.0,-0.0,-1.0,0.13565228518420339,1.0,0
54.47031784057617,9.688482284545898,-1.927531123161316,-0.0,-0.0,-1.0,0.1516079749293892,2.0,0
54.05278396606445,10.559558868408203,-1.917502760887146,-0.0,-0.0,-1.0,0.027337373942617486,1.0,0
54.37168884277344,10.287503242492676,-1.937008023262024,-0.0,-0.0,-1.0,0.007253035443201648,1.0,0
54.53037643432617,10.018901824951172,-1.9427021741867065,-0.0,-0.0,-1.0,0.15663802248689732,2.0,0
53.34751892089844,9.021308898925781,-1.642884373664856,-0.0,-0.0,-1.0,0.13309665564376097,1.0,0
53.296321868896484,9.703240394592285,-1.6483162641525269,-0.0,-0.0,-1.0,0.08971009586347543,2.0,0
53.71697998046875,10.182706832885742,-1.6903117895126343,-0.0,-0.0,-1.0,0.14297186613465507,1.0,0
53.2255859375,9.099857330322266,-1.6920956373214722,-0.0,-0.0,-1.0,0.13356910436237965,1.0,0
53.419097900390625,8.9699125289917,-1.7052327394485474,-0.0,-0.0,-1.0,0.1282505028141256,1.0,0
53.32636260986328,9.691282272338867,-1.7179754972457886,-0.0,-0.0,-1.0,0.19239300683961025,1.0,0
55.05223083496094,10.518357276916504,-1.8926669359207153,-0.0,-0.0,-1.0,0.06181438423114957,2.0,0
52.74319076538086,8.584721565246582,-1.9161494970321655,-0.0,-0.0,-1.0,0.042504013911404875,1.0,0
53.176124572753906,8.9685697555542,-1.962298035621643,-0.0,-0.0,-1.0,0.17761672435618214,1.0,0
53.98400115966797,9.43123722076416,-2.048586845397949,-0.0,-0.0,-1.0,0.05127139530574738,1.0,0
54.059688568115234,9.544965744018555,-2.056924819946289,-0.0,-0.0,-1.0,0.06748090791922208,1.0,0
54.035064697265625,10.315689086914062,-2.057750701904297,-0.0,-0.0,-1.0,0.032175733905420535,1.0,0
54.570701599121094,8.258139610290527,-1.4420580863952637,-0.0,-0.0,-1.0,0.07878082476036612,1.0,0
54.12471008300781,8.996288299560547,-1.8027585744857788,-0.0,-0.0,-1.0,0.05498906173786342,1.0,0
54.80268478393555,10.345071792602539,-1.9325653314590454,-0.0,-0.0,-1.0,0.04989872048778035,1.0,0
53.0093994140625,9.236885070800781,-1.603832721710205,-0.0,-0.0,-1.0,0.05910576123798326,1.0,0
54.18110656738281,8.823949813842773,-1.7771663665771484,-0.0,-0.0,-1.0,0.1563539305778787,1.0,0
53.34428405761719,8.897449493408203,-1.4899253845214844,-0.0,-0.0,-1.0,0.15499925351817115,2.0,0
54.9814338684082,10.535680770874023,-1.8143680095672607,-0.0,-0.0,-1.0,0.05699955668465141,1.0,0
54.58714294433594,9.915624618530273,-1.7264654636383057,-0.0,-0.0,-1.0,0.18279386165748282,1.0,0
53.988040924072266,9.463783264160156,-1.8741436004638672,-0.0,-0.0,-1.0,0.07591394434188536,1.0,0
54.25171661376953,9.281421661376953,-1.8705706596374512,-0.0,-0.0,-1.0,0.082436468729381,2.0,0
54.90708923339844,9.241365432739258,-1.907707691192627,-0.0,-0.0,-1.0,0.022293720405332066,1.0,0
52.81707763671875,10.520284652709961,-1.9194941520690918,-0.0,-0.0,-1.0,0.020423376749422014,2.0,0
53.962242126464844,10.11465835571289,-1.9448070526123047,-0.9668762941350078,0.2550770000163201,0.009271240608905808,0.07479339532899433,3.0,0
53.22431945800781,8.22464370727539,-1.7739672660827637,-0.0,-0.0,-1.0,0.08686390852104783,2.0,0
54.66468048095703,8.298763275146484,-1.8769421577453613,-0.0,-0.0,-1.0,0.11236312117903458,1.0,0
54.879241943359375,8.351186752319336,-1.897111415863037,-0.0,-0.0,-1.0,0.01771193869375053,1.0,0
53.972991943359375,8.81973648071289,-1.8908576965332031,-0.0,-0.0,-1.0,0.049023392687158544,1.0,0
54.789710998535156,8.99934196472168,-1.9648704528808594,-0.0,-0.0,-1.0,0.02657145660400345,1.0,0
54.04042053222656,9.474212646484375,-1.9702301025390625,-0.0,-0.0,-1.0,0.08598076377352624,1.0,0
53.80379867553711,9.678930282592773,-1.9784717559814453,-0.0,-0.0,-1.0,0.034091173514238356,1.0,0
53.58375549316406,10.104188919067383,-2.013340473175049,-0.0,-0.0,-1.0,0.21231489794815286,1.0,0
54.52198791503906,9.211544036865234,-1.9045917987823486,-0.0,-0.0,-1.0,0.05812989478047888,1.0,0
54.82082748413086,8.192901611328125,-1.9502201080322266,-0.0,-0.0,-1.0,0.02002280600846133,1.0,0
53.632598876953125,10.116535186767578,-1.9628727436065674,-0.0,-0.0,-1.0,0.2076193452523173,1.0,0
52.72381591796875,10.557785034179688,-1.894974946975708,-0.0,-0.0,-1.0,0.024671732620852496,1.0,0
53.85267639160156,10.188352584838867,-2.002176523208618,-0.0,-0.0,-1.0,0.08676156152608161,1.0,0
53.870323181152344,9.246212005615234,-2.02024245262146,-0.0,-0.0,-1.0,0.03658251967668866,2.0,0
53.680503845214844,8.518012046813965,-1.8893187046051025,-0.0,-0.0,-1.0,0.044157449081214405,1.0,0
54.10597229003906,8.525364875793457,-1.9376575946807861,-0.0,-0.0,-1.0,0.08892810217509522,1.0,0
54.097984313964844,10.213541984558105,-1.9544141292572021,-0.0,-0.0,-1.0,0.028125252555416827,2.0,0
54.153770446777344,9.479484558105469,-1.9527146816253662,-0.0,-0.0,-1.0,0.0800243004783237,1.0,0
54.11212921142578,8.840977668762207,-1.9414265155792236,0.8864117353581303,0.4431065412110903,-0.13390604375954138,0.07345738656541047,3.0,0
54.11884307861328,10.445633888244629,-1.9594624042510986,-0.0,-0.0,-1.0,0.027537841593875647,2.0,0
54.41572570800781,9.797533988952637,-1.985990285873413,-0.0,-0.0,-1.0,0.05398930416150315,1.0,0
53.44774627685547,8.600686073303223,-1.8870728015899658,-0.0,-0.0,-1.0,0.0735935803493672,1.0,0
53.59458923339844,8.865354537963867,-1.9117143154144287,-0.0,-0.0,-1.0,0.10497967319763972,1.0,0
53.688961029052734,10.463415145874023,-1.9668848514556885,-0.0,-0.0,-1.0,0.045273913544951035,1.0,0
53.972320556640625,10.073233604431152,-1.9901936054229736,-0.0,-0.0,-1.0,0.04279123646908887,1.0,0
53.8646125793457,9.797039985656738,-1.9694883823394775,-0.0,-0.0,-1.0,0.05539054741748287,1.0,0
54.0812873840332,9.260978698730469,-1.9809973239898682,-0.0,-0.0,-1.0,0.02933979077854525,1.0,0
53.962440490722656,8.979533195495605,-1.9590742588043213,-0.0,-0.0,-1.0,0.03297494709558518,2.0,0
